4.676485020390432013e+00,-1.030894258663380247e+00,5.781468046798395655e+00,-7.786451266028581175e-01
6.959462976020817315e+00,-1.308112763982367088e+00,-6.043044129226599281e+00,-1.921945507886853921e+00
-1.733821959543151436e+00,-3.151909880560553656e+00,3.573419118750846835e+00,1.379882195394710909e+00
-7.777772066381675176e-01,-9.808342506899044855e-01,-5.291391819167543531e-01,4.052515230415640879e+00
4.668838080062489126e+00,-6.373858066503164999e+00,1.875832599605192497e-01,-1.759628825486037274e+00
5.518658400645034545e-01,5.719431588531946886e-01,2.473507731626510164e+00,-5.119449767097522530e-01
-3.160656278065849367e+00,5.908926227387668817e+00,3.026626700108414614e+00,-8.504681552303198222e-01
-1.128014484952882368e+00,3.628151208261883198e+00,-4.675009058097487902e+00,-4.503158940934237187e+00
-3.694654669099234567e+00,7.873396851854224998e+00,-3.215950562569675153e+00,2.380371794803007202e+00
-5.208793938408556201e+00,-1.164712855098903210e+00,2.512345101949188475e+00,2.746394244894685865e+00
-2.144355733283489496e+00,1.131578821283544478e+00,5.774643239471095590e+00,2.216742281329029396e+00
1.202449929786605587e+00,-8.203108478358455136e-01,-6.424220792394492285e+00,5.163785887070463376e-01
1.355193205284243918e+00,-3.180294311948628216e+00,-2.600803118844373873e+00,-4.198451743932372082e+00
3.991347062606395379e+00,1.616433654650105245e+00,2.164226519317638875e+00,4.401728735853512653e+00
5.954348264980239280e-01,1.523467283809788686e+00,-2.422773530402034581e+00,-1.537241600287250431e+00
-2.656534274293658626e+00,-1.084425786012757298e+00,3.691453335621403209e+00,2.826844641586527374e+00
1.958148402097241725e+00,1.457097282293305041e+00,6.063833090587053221e+00,5.620516128313276738e+00
-1.575222403099784785e+00,2.871650673190870862e+00,-5.887777620698714465e+00,6.063382585015382187e-01
-7.321654554701807482e-01,-3.616595791469224164e+00,-1.805532432756452366e+00,1.116820200272363173e-01
-6.593933131994542229e+00,8.257889888749129215e-01,-5.391821454720066242e+00,2.152302649027632242e+00
-7.113401142393929177e+00,2.165227383751818224e-01,-6.952743276622651791e+00,-2.816939935586171284e-01
1.447674404195737452e+00,-2.456563423526418877e+00,-7.687677978543289159e-01,5.132235486887252840e+00
2.644553787974340153e+00,4.278194298235066917e+00,-6.007833668174531461e-01,-3.512104076980315792e-02
-1.830577578535279137e+00,-2.679687783166839310e+00,4.823567587831742109e+00,-1.233305704006483872e+00
-4.132586981889235567e+00,2.266503300524145281e+00,1.081683962702570501e+00,-2.768845509791169057e+00
8.578768163810379654e-01,4.083031780014307444e+00,1.784033384665751010e+00,4.520168523315183151e+00
-2.251749112148500043e+00,2.097461465074233367e+00,9.130591353727078863e-01,-6.720819219801908773e+00
-2.728237394240110358e+00,2.151397669332033580e+00,6.688805934205993786e+00,1.589315333005875353e+00
5.530975889622533614e-01,2.864118766721985843e+00,-3.485188732691154367e+00,5.074928097359294732e+00
6.642076487616075831e+00,3.725379778095891492e+00,-3.146165689892959971e+00,9.648571925926349158e-01
2.572217493771365771e+00,-1.734344417451715525e+00,-1.261462215885892357e+00,-3.743725450905106999e+00
1.462009979148255479e+00,3.809400922865744832e+00,-1.002708482995602113e+00,1.784589997540348749e+00
3.034882762574137249e+00,8.669818793531457457e-01,3.060359332026396206e+00,6.065140636761504389e+00
4.296153740809145916e+00,-2.975537330501693667e+00,2.258315579069973822e+00,-3.854424853879258706e+00
-2.235759547923266588e+00,-2.058887569725797562e+00,3.035366297957655224e+00,5.587612830866564018e+00
-3.469316695798656092e+00,-2.180414409158001110e+00,5.750285099894810736e-01,-2.762460868468673336e+00
1.195410910235921831e+00,-2.433201828429664815e+00,5.333566718896863179e+00,5.978121127522955547e+00
1.786019894867355129e+00,4.678037239741221320e+00,-1.829642485924511952e+00,2.694072841040613842e+00
-1.925454632297583846e+00,1.564651704238980034e+00,-3.063813032653372126e+00,-2.067882044806594877e-01
4.054405909372949535e-01,-2.712532485445358632e-01,-6.037272331419059057e+00,1.026132836107419344e+00
2.410730693991301798e+00,1.963637487862437636e+00,1.299011559566054963e+00,3.045535022613784282e+00
4.825524640792574260e+00,3.743189202695462736e+00,-1.841227332944618711e+00,4.420617536006283821e+00
4.480425404168799197e+00,2.385935117420364904e+00,1.260703456433863057e+00,3.998877649474016138e+00
2.704277418500694807e+00,9.333347228601632795e-01,-5.402909864632539971e+00,4.573720934073063127e+00
-7.463952919960145316e+00,-4.373538491878356527e-01,-4.905135904655022472e+00,1.988624399978077051e+00
-1.170891499807418246e+00,-5.401740571297204418e-01,-5.346031647445260049e+00,-2.053902984353872085e+00
-4.112562772322665872e+00,3.140761823561881272e+00,4.414839329243575250e+00,-3.323301620151140057e+00
-1.115093421114743855e+00,1.426759223373238239e+00,-1.084018872271016454e+00,-2.280303915320752495e+00
-4.904834763508234552e+00,-3.089618349574608569e+00,-5.361926109914697536e-01,-5.089879729051600243e+00
-5.862003044766473714e+00,2.206692326972440110e+00,-7.201476987511957084e+00,2.020151107303770566e+00
-1.156741135440306989e+00,-3.990062004736742995e+00,3.466639645010164195e+00,-3.412550453988345556e+00
3.889129376538217553e+00,-3.289556020736868369e+00,5.444929085581756034e+00,2.558416307947309676e+00
1.495507498899970145e+00,4.413007299276682005e+00,8.719413120454906352e-01,1.183056383720540561e+00
3.736388457847590772e+00,-3.024674276470781908e+00,-2.743864504480708622e+00,3.944311164800342051e-01
-3.691382757392661862e+00,-4.830731997528539878e+00,-1.698810397961315832e+00,1.043211426329858416e+00
4.304878873828800856e+00,2.295253568667939170e+00,5.720457688435280907e-01,-1.949364689333361600e-01
8.446906928209264587e-01,2.204673983427468897e+00,3.611062671303724159e+00,2.667256266274555809e+00
2.889916415901768509e+00,-5.533685143287111252e+00,4.468178722140787151e+00,3.169452293735982806e+00
5.220279667526606451e-03,-5.503829606417373732e+00,-1.965416076877132934e+00,1.662094805656327168e+00
-1.276262089266501087e+00,-3.236869287849664545e+00,-3.013558910528769008e+00,5.455920904998127874e+00
1.712729819989142199e-01,-4.514889815059794032e+00,4.412904487797979058e+00,-2.395267586033663854e+00
2.093314358900654426e+00,-3.503821763181445892e+00,1.189448390591677063e+00,-3.192843765176943904e+00
2.823085359740887590e+00,3.388622006481062598e+00,1.731007351567904085e+00,-3.934615136080383824e+00
-1.990760578591149077e+00,-3.051835470267542316e+00,-1.331822199392245221e-01,-2.146771246774112019e+00
4.503107023665229747e+00,-1.833038389213184072e+00,-7.715499928637625793e-01,2.952716317423740744e+00
1.423631596173181801e+00,5.252563802505207491e+00,-1.772974237110547024e+00,6.128791374756495713e+00
6.325198965125154338e+00,1.963337295780789749e+00,-3.474359400158799072e-01,3.699109961146919368e+00
1.776640074222428922e-01,-7.148290586719570072e+00,-1.277202763735541202e+00,-1.498354676430885268e+00
-3.936067692653910211e+00,1.493124358668531659e-01,2.099736746050058223e+00,1.608999810350119741e+00
9.187750375270993053e-04,-3.358709146150153924e+00,-4.017797147893527487e+00,-2.685004438553443951e+00
-3.459046827804213575e-01,5.764265996634644118e+00,-3.573437391724172851e+00,3.954072874241887803e+00
-5.369004954050848433e+00,-2.564072888059381494e+00,2.963885764536708045e+00,9.197517929529785974e-01
6.310816123856115567e+00,2.707108230778023206e+00,1.637373751599809912e+00,-2.370231818519243028e+00
6.660064198238903721e+00,-2.254475055345057655e+00,-5.252843339475529838e+00,-1.245277552032868273e+00
-4.159173132823561048e+00,1.650383110962235333e+00,2.500438496593012871e+00,-1.841304003302563830e+00
-2.930406130286200561e+00,-3.108189986578367758e+00,-4.551060620683983871e+00,-4.163998123961074604e+00
-3.711487038319462695e+00,1.673447988857789559e+00,2.184031626835569284e+00,-2.807297479395514106e+00
-3.205643677699622773e-01,1.938943573781683360e+00,6.382830093861855403e+00,-1.800574561314631783e+00
-3.061334837452593050e+00,-2.559953698596476035e-01,4.557266291570160277e+00,-5.374281703888952322e+00
1.826110494260814399e+00,-8.803294773334787715e-01,-6.375111946948988084e+00,2.142031788670183678e-01
-2.045523748728169000e+00,2.964327755666155362e+00,-5.153801209463169997e+00,-2.662706657481933359e+00
6.958043676366314045e+00,1.456210949664558552e+00,1.308342079960923332e+00,-9.462483374581413809e-02
6.361754136750174204e+00,2.435012572201292080e+00,-3.321425455822775152e+00,1.239148885846971915e+00
-6.766300175549104345e+00,4.370076932028849725e+00,2.608219028078154533e+00,2.960567625886482812e+00
-6.422997128181930915e-01,1.430510692921705962e+00,2.551807710197410373e+00,-1.430183363607956615e+00
-2.835710744427635266e+00,1.399792167308188784e+00,7.309068700037585131e+00,-7.630513543265615262e+00
-5.809229052961149442e+00,2.761550534836036075e+00,5.019337858818417430e+00,3.616758008626838716e+00
1.372777365181171438e+00,-4.683600462362896621e+00,3.951972630097282835e+00,9.079526089145451007e-01
-2.482927381756608209e+00,2.761087304067731285e+00,-1.205202368776155719e+00,-4.898379142585557844e+00
4.845340923619999352e+00,4.069205959476767553e+00,1.539638607183892782e+00,7.667288379853282265e+00
1.268919472028252615e+00,7.828724693637363785e+00,-1.686314586170302832e+00,-2.725353660282355595e+00
-8.367196841809295682e-01,7.014062166832352396e+00,-2.462227328568824536e+00,1.820025684742584193e+00
-1.985016643495275623e+00,4.383014241383031084e+00,-4.156242989105646046e+00,4.435155987093732044e+00
9.326185417630334928e-01,-1.759068460960469871e+00,2.801968418333847577e+00,-3.954855534522694338e+00
3.504776661740585109e+00,-7.029039235658461893e-01,-6.590916722995772581e+00,5.875536952780310074e+00
-2.404355033381210038e+00,3.335464312087687677e+00,4.383949586426079570e+00,-4.073311593264194563e+00
2.720963952186334467e+00,4.255491399113215500e+00,2.862609574833685500e+00,5.801048009133506156e+00
1.854952316174009130e+00,-3.255492666631471188e+00,-5.323895432546359885e+00,-4.155048443471532238e+00
6.082503768298239244e+00,1.297047919550265993e+00,4.109564155122944484e+00,-3.669955986523106173e+00
1.861687270758647372e+00,-3.984636527688078522e-01,1.911924061987201107e+00,6.629002581313732101e+00
-5.231228065280506101e+00,2.854449977818495299e+00,6.665151232905198064e+00,-3.672385978551642727e-02
2.894647318062469221e+00,-2.841467943846004207e+00,5.155325220956823440e-01,2.305868410482364794e+00
7.352074207510701065e+00,2.330516753830619070e+00,2.703819674268337359e+00,-3.685395841379034643e+00
1.257187700603642266e+00,-9.323844005917784727e+00,1.858063311448265420e+00,-1.020079290309950482e+00
2.269856040675091169e+00,1.314383138206968449e-01,2.386652318290209338e-02,3.835794663162006124e+00
-2.733585252732605220e+00,-4.100917236373220476e+00,-9.953530193353291589e-01,5.346488401199508189e+00
-2.582074165403946520e+00,-1.094498283408108064e+00,3.392890279593502978e+00,-1.494947955146434859e+00
1.605271430871131888e-01,-6.983087920960792117e-01,3.234323933839564180e+00,-5.945637340145221827e+00
2.898181698793865557e+00,-1.558690832789747308e-02,6.594898805854004564e+00,4.855165528672825026e+00
5.340027076270887907e-01,1.842967008288296293e+00,3.891084620188279164e+00,-1.031724130786247473e+00
-4.780973176541920111e+00,2.850887111770092464e+00,2.348656999742113616e+00,-1.877402121213276098e+00
-3.463547272115615194e-01,1.995589210750330800e+00,-1.417694529744693566e-01,2.348021232471452446e+00
-1.090334393261192636e+00,6.543663745601986825e+00,-3.621742793552048756e+00,4.103467172714212019e+00
-5.853035705422511281e-01,2.082553663792872101e+00,4.373510181168619226e+00,9.189326248838843858e-01
1.427843231417107006e+00,-3.002795960911862849e+00,-3.500783640807398900e+00,6.863452159532426045e+00
-1.209997551249964109e+00,-1.000698852553291163e+00,3.401011329828709240e+00,-4.830420882576045294e+00
-1.892618312851614304e+00,2.310028871760247127e-01,-4.449083640745884694e+00,-6.186236647719728587e+00
4.338105061577960164e+00,4.007575020784239328e+00,2.377528157961950495e+00,-3.404198006981554503e+00
2.475653325207819666e+00,4.526754685773349607e+00,-4.016733795412653629e-01,-2.067856438788743478e+00
4.969195470157782069e+00,5.140058958619787788e+00,-4.724245693120938117e-01,2.744738348617840051e-01
4.558010853248312344e+00,5.386660159501224232e-01,3.584416883317919300e+00,6.054514024875389033e+00
-3.435578189562439877e-01,-3.514283024544875733e+00,4.108078864063799074e+00,1.518068672912999073e+00
-1.210802296565830050e+00,-6.312909520088476611e+00,4.521659326321119110e-01,-1.912187911736049628e+00
-1.283776196604333952e+00,-5.992893223085919097e+00,1.742345113605315632e+00,-2.397448479046403680e+00
2.353672828901050007e+00,-1.502506522115769072e-01,-5.771562727118822345e+00,7.424987059921646093e-01
7.244157956920094232e-02,-2.839248721835160527e+00,-5.042365281730468496e+00,-9.693806721962014983e-01
-6.993152210977316985e-01,-3.821808944741159064e-01,-2.392466257864928281e+00,5.400317047628806932e+00
3.452148280932586744e+00,-3.554459508995059025e+00,-4.192757337673603146e+00,-1.009240385087153635e+00
1.727252521333616508e+00,-2.312047564820217893e+00,-3.122321928887414000e+00,-4.118627988140141305e+00
-6.196080267889471083e-01,-5.553401481990150934e+00,1.920252461846559511e+00,4.016771277880191171e+00
-5.031663907556331417e+00,2.905406338825029522e-01,3.979643480131792810e+00,-3.006068000527585049e+00
-4.381346915688821397e+00,-5.009677024789020550e+00,-3.097566169545960535e-01,-7.202996561543333343e+00
-6.152257215352341380e-01,-3.835770093691198479e+00,5.482420623267703075e-01,-1.749434091068358343e+00
3.082231882358697383e+00,-1.841230857971913659e+00,3.169598766172653653e-02,-2.436190105309117282e+00
7.468457828250716801e+00,-8.154348988606295867e-01,1.683988318708039555e+00,-1.932434490361432555e+00
8.057361962551684575e-01,-3.067034492329897777e+00,-6.932666323718771340e-01,-2.308452096002895804e+00
-2.006977347328176453e+00,-5.396028331004920631e+00,-1.379971045273979735e+00,-4.684870969679993280e+00
-1.626498134603286294e+00,-1.495879692904571234e+00,-8.480734582054689774e-01,2.768886621676208915e+00
-5.772878917459539849e+00,2.461747232448484812e+00,4.969915088948991810e-01,2.031237926779926983e+00
-4.136478817832770716e+00,1.602882845243733145e+00,-1.331220094515310759e+00,-4.024377348896702067e+00
1.998427210745709282e+00,1.843039469298593414e+00,-4.485443558260034713e+00,-5.402979665672242859e-01
5.652730258197804503e+00,4.247946923511880968e+00,-5.814620895173018278e-01,7.221239659671796041e+00
1.939714314241935966e+00,-1.294433590187217264e+00,3.251112477152446001e+00,-2.143352553307411035e-01
3.290092971530350408e+00,-1.811534034266851334e+00,-9.711524364467907233e-01,3.050712304588699908e+00
2.725275215344888480e+00,-3.237502778000520554e+00,-3.941868784785434343e+00,4.344805900036752710e+00
-4.352924756581792565e+00,-6.446270016997027064e+00,1.120369186027081021e+00,2.258666827156409429e+00
3.404242428662775932e+00,-7.354525631253232554e+00,2.304321413980458200e+00,-1.261846549564983322e+00
-4.746157796047720367e+00,2.424671871508561782e+00,7.092516849240684707e+00,7.558457820092382429e-01
-1.015476391296351810e+00,2.262181217354142237e+00,-1.323905702629555758e+00,-1.246075710133036918e-01
-1.794290354729072945e+00,-4.534406141221562159e+00,3.285237532832754770e+00,5.306926787233877008e+00
-2.605946379966952886e+00,-5.987842992434664779e+00,-1.235209344636041928e+00,-2.382257363717692478e+00
3.148635403565603230e+00,-4.275300800099848253e+00,-3.810185818137326597e-01,1.240425129446250718e+00
-2.935554196302839758e-01,1.552956766522643139e+00,4.097901265927844427e+00,-5.131651455515698679e+00
-7.024126158948300613e-01,-2.322969548325376721e+00,-4.331968765562820955e+00,2.496461298696743381e+00
-1.436136634754348052e+00,3.278188525117286645e+00,-3.067420350340726465e+00,3.422585285090709473e+00
-2.869873028516773950e+00,4.182573193680190649e+00,4.019219514437816443e+00,-5.144477760982599790e+00
-5.794004252597765969e+00,-4.672474112944215996e+00,2.216917056121308516e+00,3.876418146397198061e+00
4.198241885225712622e+00,-5.769814314403806099e-01,4.763790530938555534e+00,-2.231572262210082425e+00
-6.182330977944507922e-01,-2.503003099717990398e+00,-6.858415360641654246e+00,2.000435092132466508e+00
1.826029880698977870e+00,-1.404589454492618794e-01,-2.895160418316533035e-01,6.436284715734588602e+00
-5.641542284779746952e-01,2.796010258491953504e+00,-2.510396491642530314e+00,-2.946895975162529879e+00
5.325114953153359920e+00,-2.829846060513983019e+00,-3.845009048261574858e+00,-3.891293046318839544e+00
5.405585373097336443e+00,5.902993474241074345e+00,-8.403428285171505863e-01,-2.590829797783571475e+00
-3.094918311881631023e+00,4.834393532443722385e+00,2.339765940882862161e+00,3.560680477050406800e+00
2.192684543160580368e+00,-1.795668933967421665e+00,-5.555599428168880749e+00,6.834292136457436051e+00
1.643127659637204863e+00,8.390160615292007185e-01,-1.097959931972218195e+00,1.762241852959224531e+00
2.617484711324369773e+00,1.464292199972909270e+00,4.324278841382874994e+00,4.200849344919664885e-01
1.300146315240964245e+00,-2.492466675011101029e-01,-5.889300794276403295e+00,-4.497474763348700222e+00
-7.619308423721623535e-01,7.673313274833648556e-01,-3.718104563705777466e+00,2.189289438389339537e+00
8.123232582759863263e+00,2.640670475750847679e+00,1.634102312002833512e+00,-3.174175074596666590e+00
-2.980239148921090889e-02,-3.787994025041983459e+00,-4.653793288215779533e+00,7.067327479901423182e+00
3.793611433192770832e+00,-6.990671114499612315e+00,-1.294506264910985305e+00,-1.162792099352581321e+00
-1.980431102119004860e+00,4.054977152071712609e+00,1.981400611145648583e+00,-6.702391335807980077e+00
-3.770995922667272904e+00,2.585420526417878673e+00,2.326654730707368834e+00,-8.405047684416906417e-01
2.484761463769030509e+00,-3.524038062479115219e+00,-5.113309026336894547e+00,-1.360393255538753454e+00
-1.801468748622539584e+00,-4.494882262300811782e+00,-2.054842094640184857e+00,8.093110302320413174e-01
-1.416483269080892393e+00,-7.035204090128325261e-01,-6.935104021212279424e-01,-9.053163555978787080e-01
-1.935072711862537043e+00,-9.987886471628997231e-01,-7.985390537207583961e-01,-1.471453504871345519e+00
3.106026369310677993e+00,2.024531206498752400e+00,4.007656234318047517e+00,4.286604675232409178e+00
-5.532483544319159563e+00,2.252664027080808484e+00,2.127561897033959093e-01,1.361972184370740413e+00
2.860196286618862604e+00,-8.305272655674306392e+00,1.057149391907849373e-01,1.385854338280094078e+00
-2.752897308604496551e+00,1.936796037482963140e+00,-3.350159446424575638e+00,-7.576345288921101151e+00
9.125121368256620125e-01,-3.716996169606943567e+00,4.294180945154221440e+00,8.757184594302684921e-01
4.356361442319787169e-01,1.466805676917686041e+00,-3.714918061343801092e+00,3.200783464294132852e+00
2.256313128222766640e+00,1.076209360109366742e+00,4.994387555435698012e+00,2.048263745797263002e-01
4.713759605620656323e+00,-3.112606570510875414e+00,-7.718482846480525517e+00,-1.907012878377216891e+00
3.562508276447433619e+00,-1.159704832772971844e-01,5.436562732404651932e+00,1.052240627080502477e+00
-3.532360376858191486e+00,3.205434140633400819e+00,-1.399161057781349582e+00,3.668418608409943493e-01
4.075106845991371962e+00,1.186384633249357723e+00,1.193635349333646456e+00,-1.296151325219395245e+00
1.441457913428168425e+00,4.855984987946592391e+00,1.287652985586647425e+00,-5.006524655100502486e+00
5.252655228296172041e+00,-4.055064019920204821e+00,-3.879945562110632018e+00,-3.078651698875815690e+00
-1.865890903345110430e-01,-6.478643954606668753e-01,-4.960683596909239435e-01,-3.824885363579954234e+00
-1.350355626972202350e+00,1.148130993631900187e+00,7.298278667776201267e+00,3.807375504578961234e+00
-7.378906481847947729e-01,6.773911025486389903e+00,1.006974298728343431e+00,-6.435531901701763147e+00
2.209126543632950135e+00,2.096745931651719186e+00,4.370917633578324413e+00,-9.802543606694595901e-01
-1.097638291681757305e+00,-1.598013240990139971e+00,4.724138248983126509e+00,5.870032026718083884e+00
3.720012238678130689e+00,3.461945339674211142e-01,-3.464709786352018206e+00,-3.102108541784109885e+00
3.053810145800508913e+00,-3.110623476031869838e+00,-4.140331510719185815e+00,-4.008961021883895803e+00
1.385400672251862364e+00,5.265296004492896920e+00,-6.258966206903641138e-01,4.462204476517665164e+00
4.853080282324762962e+00,4.939512653417814647e+00,-2.367694023846145690e+00,-2.533027315767334198e+00
-3.910564755299705375e+00,2.242183996042533156e+00,-1.722577921582002070e+00,-4.815802561859593212e+00
2.308863346366759328e-01,-3.293454807713237287e+00,-5.770015979907999082e+00,-2.952933629012743921e-01
-5.459148490831612577e+00,6.313252149888232134e-01,2.181983929818787527e+00,-2.079424386963054427e+00
-2.575587422464680643e+00,-1.455416771129303566e+00,1.703059866803810773e-01,1.787703909816057868e+00
4.488683052333430012e+00,-3.259412719182819829e-01,-3.490951843072876315e+00,-4.456238868782698148e+00
-4.120627189767414045e+00,2.035144180135645353e+00,-1.201727142041498997e+00,3.920861097967606845e+00
-3.281757129761769254e-01,7.754588265920223100e-02,2.188427066717282710e+00,-4.646546675142821492e+00
4.841245509641096678e-01,-3.115716510084027835e-01,1.023992686968482335e+00,-2.923327528401143294e+00
1.683881640546600833e+00,-7.911488438214212771e+00,-4.226790284931291053e-01,-3.956775843111792756e+00
-3.495312116029104743e+00,2.266988657384112926e+00,3.105642331768316833e+00,4.457732973689441103e+00
-1.184198390834779513e+00,-3.388497868160572413e+00,-4.698100706456489917e+00,1.870977927646441996e+00
1.510572686854456004e+00,5.669762350367848036e+00,6.760002988496476017e-02,8.283301845418986620e-01
3.119298760736096465e+00,-3.803272378264850317e-01,5.943085108595158594e+00,-1.205793584344340807e+00
-2.789610173788013903e+00,-5.766109449729174052e+00,8.785054834507157739e-01,6.165608186532259616e+00
1.010347721996942560e+00,4.172299912303484071e+00,-1.180818660940292641e+00,-3.802373170703285066e+00
-1.996506602771864092e+00,-5.643346480908468035e-03,5.792598845465945168e+00,-3.260249674223572036e+00
5.033032443691125124e+00,4.509765393342267892e+00,-3.069342040849819542e-01,-2.827242756558031367e+00
-4.290283789506189827e+00,-1.226537973698916373e+00,4.964563208057324317e+00,-1.100998666115363234e+00
1.247563069173435846e+00,-7.179458865671612955e-01,-2.634286682351500986e+00,1.257668127250896273e+00
-1.581947426626508640e-02,8.483751601728041214e-01,-5.012210217435097093e+00,-4.150572254772812997e+00
1.564023992908889271e+00,-2.984204039320457635e+00,-4.669541333099151426e-01,6.202307463569950663e+00
-4.092301590835899283e+00,-1.986002009785854616e+00,-3.820324857264842944e+00,-4.282890475755364967e+00
-3.297355953112426796e+00,6.645384647247417620e-01,3.450726772534145059e+00,-6.624300480313159767e+00
-5.086571083066981913e+00,-4.025018404703546437e+00,-1.006997757533481419e+00,-1.866151545134220324e+00
-5.804047894325535140e+00,-3.767431943264088368e+00,1.505878742826409211e-01,4.984856944933144240e-01
8.740783942361327608e-01,6.308419691617640268e+00,-2.172868281820415248e+00,-4.712027060922947541e-01
-2.492371782477595110e-01,-5.787292765562356500e+00,-4.593613998022141875e-01,-4.492942527011116738e+00
7.736834631502346404e+00,-6.927852776220285724e-01,-1.423594011017913052e+00,-2.255765219614296324e+00
-3.551152911080158514e+00,3.243572982513865277e+00,4.053785178820876189e-01,-4.319382522856135553e-01
3.139247493425315838e+00,-2.662041291589137160e+00,4.943331189862919750e+00,-3.243047442177434903e+00
-8.752243117805933448e-01,7.904070146282955456e+00,-2.350083598975230836e-01,-3.589386139697545275e+00
1.697779068227559085e+00,7.135071504271098819e-01,-1.257702933665712397e+00,-4.792718426939014398e-01
6.304773438620675519e-02,7.452093573647196045e+00,5.408626606087759553e-02,-1.512403999638357366e+00
-4.767491131987348224e-02,1.332263584568937009e+00,4.575313385800394705e+00,-4.415672751734538437e+00
-1.079706835311417867e+00,1.065868348256600928e+00,-2.728187467055893212e+00,-6.089107728039895306e+00
1.566158339787148579e+00,5.212557147585649808e+00,-1.907732380419406404e+00,4.306360265159537626e+00
5.866264978894434323e-01,-1.187265141584307404e+00,-1.206670081904262171e+00,-3.706551561507515080e-01
2.926949243902557285e+00,2.530765500205527818e+00,-4.392895187592378292e+00,4.028746155904522119e+00
2.103267829818091350e+00,2.679824242899976117e+00,9.319863156992277409e-01,6.897479419175574833e+00
-2.066115205083137951e+00,4.499800934691278620e+00,2.229686614433514791e+00,-4.162090007168428585e+00
-3.194394406194240421e+00,1.571165809102025746e+00,-1.399633768414802582e+00,4.008661766537726656e-01
3.814594666723775784e+00,5.780499729562435185e+00,-2.434595450781311676e+00,2.853551517636959689e-01
-5.737509800795542070e+00,-1.750261664035868137e+00,-3.557624426491723835e+00,-2.595368038215998041e+00
-4.735926430261328868e+00,-3.170308276155255456e+00,-3.396525042737736477e+00,3.754978952278721138e+00
-2.349303812043418649e+00,6.587484623787144500e+00,2.924962110361601919e+00,-1.890899594934727812e+00
1.341524739717491199e+00,-2.325174367142017307e+00,2.496909362577631075e+00,2.547769283125150164e+00
-7.469392323624331809e+00,5.974862230257912271e-02,3.696875153249306045e+00,2.446591167383550758e+00
-3.688952048826873220e+00,-4.837699607921366329e+00,3.096132897584001675e+00,1.378297566149989883e+00
-5.800653886691332417e+00,-1.466290222260157927e+00,-1.580904435202931391e-01,1.801419102190754851e+00
3.984677170368712940e+00,-6.629111742827331177e+00,-3.013961471256447755e+00,-2.984506520925400253e+00
-3.448249836349342790e+00,-4.143482585254199435e+00,-1.090825673691072778e-01,-1.194718064472160224e+00
-2.270713165777004328e+00,-2.498877266835423328e+00,-1.368940691794102715e+00,9.112781741754408804e-01
-4.340176350084998802e+00,-5.813025498535686619e-01,-4.837274369243329097e+00,-3.946006733724601645e+00
2.960975638043218616e+00,4.145542812911521047e+00,2.151559702911567395e+00,4.279425110176723557e+00
1.383467665073895514e+00,9.932072293777353122e-01,-2.438317493380317114e+00,-3.441910625765826293e+00
3.900689349949051365e+00,-4.318190757190004447e+00,5.289314757941842027e-01,-3.406878535354457060e+00
5.144718582766724779e+00,-2.943045139948168742e+00,-2.301033827051868652e+00,-7.807771525616609143e-01
-9.423037133703749957e-01,-3.723891017406980364e+00,2.541568460239284288e+00,-5.954849294887399225e+00
-2.984812913368554366e+00,-5.844269808245831754e+00,9.514607583571088600e-01,-5.040943723767470352e+00
-9.606941736342573535e-01,3.853943373062236333e-01,6.440706176831193730e+00,3.725298494187389231e+00
-6.437037834299570438e-01,4.193702738753505521e+00,5.193845630115490941e+00,4.332975084326438520e+00
2.118922221198558109e+00,-3.968515538279250965e+00,3.490606333876662859e+00,4.386289235333025616e+00
1.453723690991878037e+00,-2.923884829984649159e+00,5.998681048739570976e+00,5.296029397529042448e+00
-2.253463563705347283e+00,-3.511906680323920171e-01,-1.558030783916538820e+00,5.248107432094398561e+00
5.108388220688835801e+00,-3.714110878408737104e+00,-7.607673379489884091e+00,-9.534255334278692873e-01
-4.810745962827061462e+00,4.000312401360623049e+00,-7.100918729915555172e-01,-6.288037066733282998e-01
1.882180031795549713e+00,-2.100822393960252388e+00,6.644274546309813623e+00,3.565151044441580819e+00
4.527565045241396469e+00,4.520393399995614736e+00,4.149940872121014590e-01,7.629323385671232138e+00
-3.829381719576697041e+00,-2.487157419351822440e+00,3.757367832970174071e+00,-3.632214387227185259e+00
-3.269961068566943130e+00,-7.180894741663061964e-01,-3.914927997676298510e+00,3.331902275580478912e-01
-7.974271336105035246e+00,-4.159473542885135378e-01,2.387843062431479702e+00,2.820694960994071465e+00
3.019049547376184250e+00,1.319314438151459878e+00,7.088282050938295775e+00,-2.384045221732299602e+00
-5.620955313654171448e+00,-1.152532260364595107e+00,2.136565850349133114e-02,-1.934975603678068534e+00
-1.420798589336427255e-02,6.511099331047287109e+00,-5.293979333990940228e-01,5.377455515197473446e+00
1.208218713320017068e+00,-1.024173918781821291e+00,-5.932779151359609315e+00,-4.008291311321037220e+00
5.387902012885295910e+00,2.161253891464126831e+00,-1.010000275836744343e+00,3.759490007273583068e+00
-4.334116939815002567e+00,-2.190909994837128283e-01,3.020295709778275661e+00,-6.335097040467107199e+00
4.359796313411094637e+00,-3.633159111335773961e+00,-8.274769701912731534e+00,1.253782459909523528e+00
1.193958820458270953e+00,-8.668933215307393914e-01,-8.447640405743523928e-01,-1.855425453771948119e+00
-1.876721338779726356e+00,7.924291519218262358e+00,-1.353632978532235187e+00,4.240668997634754689e+00
2.234723722370725696e+00,-3.646507362763041993e+00,-5.117146857298835450e-01,6.005220407235187352e+00
-2.886550613835459522e+00,-2.025147502119395426e-01,2.750113328854287165e+00,-4.705894828629927917e-01
-6.483433636954153201e+00,-2.973712180575253772e+00,-1.082784722508124547e-01,-4.560252979976842092e-01
-1.598227015346040503e+00,5.616548987101875667e+00,1.188547723215605867e+00,4.027834621774014856e+00
1.287492001556997723e+00,1.761206972376184288e+00,4.620297462769754837e+00,-1.810784148963166251e-01
2.989352055761639537e+00,-9.732746473314087154e+00,1.348705630998732641e+00,-9.733174245936889735e-01
2.405651530333826837e+00,-4.737111233279870603e+00,2.915833910881355351e+00,-4.614394581662323525e+00
-4.752246877878588016e+00,6.639712931169798438e+00,-1.520059703957782338e+00,3.034061444893197290e+00
-1.422818448802576630e-01,-4.923286328678762036e-01,-4.025666204521823666e+00,9.212271280850772848e-02
-5.486007110444839796e+00,3.993818698949272328e+00,-1.688710262636723858e+00,2.418669104242323176e+00
1.130652741569963426e+00,5.694815046073274267e+00,1.884413636454665530e+00,-5.387355281260949091e+00
-1.855136225918694537e+00,8.275721165542053726e+00,-2.170236581886755278e+00,-3.125480411801355718e+00
-3.299808270574555724e-01,-4.213695861577632762e+00,4.239295802509095434e-01,2.732425352943441244e+00
-3.385387798945343807e+00,6.363664550435019773e-01,4.529558327296963505e+00,1.168990465280095759e+00
8.376544376648724644e-01,-4.127445094060251951e-01,-4.052566099508986497e+00,-5.113332340894428896e+00
-6.174656155247986611e+00,-3.015290588231011260e+00,3.074910724604220214e+00,4.043465556065974020e+00
-1.159025627326209396e+00,2.739606393046365884e+00,2.124433070520676647e+00,-4.160890273874495726e+00
4.516436319042917980e-01,1.976025101205494794e+00,6.784208851455142408e+00,-1.589211696415714359e+00
-1.651843996158674166e+00,-4.093955176943920193e+00,-4.081501308343307599e+00,-4.155604510888419867e+00
3.315238465445608629e+00,2.523216142890367220e+00,2.015159750226538371e+00,3.238246531324795008e+00
2.763731468867139385e-01,5.920638702060936787e+00,-3.289718874276348792e+00,4.292684589227457437e+00
-5.361331907734852464e+00,1.664791766487550229e+00,-1.883993219401802977e+00,-5.245045503008403109e-01
-7.532189604787669523e+00,5.891633819506931768e-01,-6.469718622249305717e+00,1.763348948879541078e+00
2.051049139785817488e+00,-3.668850110390124541e+00,-5.329097953782862440e+00,-3.897347768122855771e-01
1.632292109347491138e+00,5.709692349242677878e+00,1.240237089717491248e+00,-6.471869755119602274e+00
-3.728160305343532599e+00,3.440246754238446503e+00,-4.187408366823301975e+00,2.545327759862460848e+00
-2.347814129671998096e+00,4.687714240861587278e+00,5.612982248275359964e+00,1.453063780595313492e+00
-2.657048100501596011e+00,-9.953745980833149654e-01,-6.878626390158969706e+00,2.897260644192682033e+00
-2.219125113986529119e+00,5.206891901946362644e+00,3.145456208511884455e+00,1.650840078669821187e+00
2.012660670505911131e+00,3.142730677341939671e+00,-3.104250939931874509e+00,4.527329998022274538e+00
2.903738695123529112e+00,6.572471976587944409e-02,6.032276914699670201e+00,-3.873336125210765424e+00
-4.828361341288109898e+00,7.655495255147543032e-01,-1.045891454144989074e+00,3.738742363637427957e+00
-3.983634213852984551e+00,4.188537088676932640e+00,2.065986334023593773e+00,-3.450144638777334904e-01
-3.397435070312309624e-01,-3.104666504560181117e+00,-4.763656268915417158e+00,3.775823419041761220e+00
-4.032209695952936324e-01,5.755948250422568080e+00,3.137792231073846860e+00,5.463414610193991550e+00
-5.375234659563364659e+00,3.751341534530034050e+00,-1.443476285896716060e+00,1.723690790461500644e+00
4.318990017552659211e+00,-3.040223583724085965e-01,-2.954223034633192135e+00,-3.462775243787277191e+00
-5.190301042165565093e+00,6.248983861586917321e+00,8.898557839997185415e-01,2.101693736017317349e+00
-4.651247930020481647e+00,-5.180223808802084662e+00,4.860412393806120557e-01,8.656392265565773236e-01
-1.429215359466059487e+00,5.945177887324683219e+00,-1.494084832492403203e+00,-1.311523341644497354e+00
5.306309419042717579e+00,5.178071880812042060e+00,2.207593109670315523e-01,4.162835856132856449e+00
3.490101461276077788e-01,-4.594961453042868627e+00,2.881969269334396788e+00,-5.016861147549226407e-01
-4.472806340500671496e+00,-4.286128413855064601e+00,2.030334808025408666e+00,-4.039866136613262104e-01
3.298514411195980767e+00,-6.188728480936801724e+00,1.118131508083251680e+00,-1.279702341644157304e+00
1.046514802275462674e+00,6.549084139321364795e+00,-4.409606988796350158e-01,4.437511555839168231e+00
3.056958341631693887e+00,-5.480951079071143539e+00,3.348474840998759916e+00,3.031512727129636264e+00
3.295767511749292833e+00,4.709807159405812627e+00,-2.087062791062050060e+00,-3.553374675102179303e+00
8.960073272265871580e-01,-3.406384486263069444e+00,-8.384339799247420011e-01,-5.506323000490382036e+00
-2.702301691693343333e+00,3.405635016410198279e+00,3.720897285108971442e+00,-4.321044778607673109e+00
-5.494100144906327365e+00,2.653674311891176085e+00,-4.489487083073704810e+00,-1.119041247180446952e+00
2.466657090876706704e+00,-1.556064514984974112e+00,2.069848091079273030e-03,6.952903420831789028e+00
-7.021056250526043208e+00,-1.017037173482989304e-01,4.669614924673084921e+00,3.807577254096095487e+00
-7.044497687028501431e-01,-2.292796128966399838e+00,-6.274127085783900881e+00,5.061663566701779526e-01
-3.931387934577148968e+00,3.581985231771454448e+00,3.461899661355657187e+00,3.889806323334189297e+00
3.550095715513862937e-01,1.581093802498940937e+00,6.095796392886735360e-01,6.349394329431135020e+00
4.126959252997742800e-01,-7.502640482255822363e+00,1.241955132880891766e+00,-4.182720297260495990e+00
-2.023743265663274560e+00,5.865665445993795579e+00,-3.104526734089722240e+00,1.272173905528558802e+00
1.019147318759369814e+00,5.534999536975568901e-01,1.813003387280398337e+00,3.178765137972051846e+00
5.219096947720520241e+00,-1.793988743419825393e+00,-5.804696729606429351e+00,-4.694822738878939861e-01
5.220305784138632887e+00,3.161538208954370432e+00,3.329440069025229043e+00,-3.264988683650137613e+00
-4.738583157096727838e+00,-3.158392629901742854e+00,-7.193275925682394156e-01,2.505764585149771406e+00
-2.916660107444261740e+00,5.156410084207496247e+00,2.426893656554989676e+00,2.045722752630928731e+00
-1.187425837460211131e+00,-3.078748941273384609e+00,-2.773044696877392301e+00,-3.877697665284156603e+00
3.347716975363365322e+00,4.390288132345821381e+00,3.833540873384799763e-01,-1.248730896428566162e+00
1.689132477844212499e+00,6.042117182376014917e+00,-5.474078412402773042e-01,5.726414409965735253e+00
6.768802776886310157e-01,1.465705224111810256e+00,-5.478908013635053642e+00,-3.356424565290623718e+00
7.495986134357193187e-01,-1.689097830586678839e+00,-2.956850944910558443e-01,2.038245238245030566e-01
9.646164149016616118e-01,-3.018907515268298702e+00,-3.957440288519498139e+00,4.560805899648197048e+00
3.021246536981977204e+00,1.386961786500039984e-01,6.140841298522412117e+00,-2.260488921890438707e+00
-1.833716775030705071e+00,1.101279083239091960e+00,-1.002723590937069753e+00,-3.836832416432438109e+00
-6.605065669902049130e+00,-8.428924859080452747e-02,4.888889931784754950e+00,-1.811646293379299555e-01
2.381823596606771787e+00,1.994100113428042498e+00,-3.707171998473984598e+00,2.429860372988830175e+00
8.296988684388232116e+00,2.070888099874121036e+00,2.146886588597905487e-01,-1.417380939633878567e+00
2.149686832025215377e+00,-1.084116755240431829e+00,-3.944515229432360659e+00,2.878855557702741486e+00
-2.769788669479948506e+00,-2.546779959490613976e+00,2.431970350616645682e+00,-8.278906596339327129e-01
-1.040231779319794159e+00,3.359977751071704599e+00,7.618126865272647485e-01,4.950808971382884671e+00
-4.821551405075049423e+00,-2.558607598302925723e+00,-2.233053294852130333e-01,5.042223823611293732e+00
2.284927068783571880e+00,-3.139104985972087647e-01,3.424490512405085951e+00,5.312001672634688809e+00
-3.343453700934230000e+00,6.229471961929706758e+00,2.720670866142807398e+00,1.902533012989503503e+00
1.381787641930981136e+00,1.800694907574567960e+00,-2.162689479239311652e+00,-5.101315531726783092e+00
-2.213081425350968079e+00,4.566856720787382251e+00,-3.687832617599043683e+00,2.648878467258747982e+00
-2.349968307924363398e+00,-1.909881796802664067e-01,-1.274151504281671787e+00,-5.197544610115373942e+00
1.120343890263026526e-01,-3.023546179801492872e+00,-5.918461409497096426e+00,3.821923003579187572e+00
1.892202075610400103e+00,3.703520013556246937e+00,-6.789819197945175244e-02,1.479491548829136693e+00
-9.829015962178624388e-01,-1.496216985052382986e+00,-5.324356639068347441e+00,1.023173684245392234e+00
-3.374903808626568691e-01,8.395470595043734718e+00,-2.183033966830290495e+00,-6.641246600132214795e+00
2.514157354397020594e+00,-1.400177923248624889e+00,-7.393673520736545157e+00,2.660277209599886561e+00
7.146710751091078784e-01,3.859791026531707581e-01,4.772787676275974666e-02,1.514692476139413158e+00
4.566912187998557471e+00,2.276919012496423811e+00,-4.135979398993850253e+00,-4.152965068788891045e+00
-5.071830258536397906e+00,-4.566625428037395018e+00,2.669429151437353376e+00,4.980931790308583018e+00
2.440363250547491702e+00,-5.257009377964428909e-01,4.564657345558802426e+00,3.123831310963495422e+00
-2.782080145318215791e+00,2.579021919927551476e+00,2.279257388430463216e+00,-4.562198415590274614e+00
2.054816044175437284e+00,1.485569095274543949e+00,7.551481763930317115e+00,-4.729981549375828820e+00
-4.816918894644644511e-01,3.856478968739728508e+00,2.628801920419198801e+00,-7.125892989147837753e+00
-6.502365235066084104e+00,-3.660132041074793730e+00,7.510785828551866938e-01,-2.588674746644258118e+00
1.136932476128384994e+00,8.721600605979118459e-01,3.439345628251262887e+00,6.097128104625300971e+00
-3.198391676186404187e+00,-4.259860500831829100e+00,-1.133846592552366916e-01,-6.820274348058110725e+00
-2.926720478925086688e+00,-1.136915554066094014e+00,2.432168595803958500e+00,-2.090949004242363518e+00
-3.321255150438134240e+00,1.092037285900614441e+00,1.142121340688846631e+00,5.130319870413039496e+00
4.929959039194105053e+00,-2.457390270715115843e+00,3.859349902140682076e+00,7.444098885060548287e-01
-3.021876931130549782e+00,-4.603560434496755116e-01,-6.982210650976758082e+00,-4.484138664895734649e+00
-2.468705230055853850e+00,-6.302827257509987291e+00,1.129294517808709708e+00,-5.702077496988696703e-01
3.484698689999413124e-01,-2.479383952107755640e+00,-3.587177154240528409e+00,5.171618719588120250e+00
-6.956138649409105312e+00,1.630610347043537800e+00,-3.254592362757453561e+00,1.038149856572496921e+00
-2.009044120540338874e+00,-2.251227639020883797e-01,-3.604920847644054405e+00,-5.456635058938023697e+00
1.841174607413667008e+00,-4.263551407959396577e+00,3.247649061069417087e+00,3.895120894705723202e+00
-2.164843330686684997e+00,-5.641826460655477327e+00,1.982923908372722810e+00,-3.404795030860033211e+00
6.924078308678901506e-01,-5.253951850914592825e+00,2.295391054043367518e+00,7.617648023041591721e+00
7.245741725457260918e-01,7.307509905723506449e+00,-3.914421962640725061e-01,-4.016980001659457677e+00
2.814704844463792988e+00,-2.686375087049173160e+00,-7.516797904212618064e+00,1.908344167896383947e+00
3.654026278684343154e+00,-1.979247141350561456e+00,9.180317112193836504e-01,2.746475815337666493e+00
-1.006851606068730920e+00,-1.421742056778936725e+00,-2.737929851002050441e+00,3.007794248304947793e+00
-1.105165591842915296e+00,1.396283832484620735e+00,6.134607389362895624e+00,-6.691256582283849674e+00
-1.184091551909813855e+00,-2.227197867968474743e+00,-2.967548553088110719e+00,-5.382223158382760886e+00
2.806133347826117230e+00,-2.009201987201524542e+00,-3.881056571415361756e+00,-1.829563736517973105e+00
2.254034971375675322e+00,4.184223459400940648e+00,2.960861326277765548e-01,4.703224624091180139e+00
6.331058969241635026e+00,1.578530030355359326e+00,-4.399708247493142821e+00,-4.364161579024007587e+00
-5.376693442134500067e+00,-4.570634682869425980e+00,2.606182765947011593e+00,3.466226145490374222e+00
1.239952801006847016e+00,2.054877592100917916e+00,4.130603211332798175e+00,4.871632724726561392e+00
-1.278373144666048455e+00,-2.287770288247483297e+00,-2.509561906649253160e+00,-1.678460401584951578e+00
-3.760708637213494576e-01,-2.568838339628433776e+00,-2.950534691963536460e+00,1.466309938874240382e-01
-8.803655955684385193e-01,-5.503285558092427365e+00,2.796133581652029271e-02,-1.546845895751493671e+00
2.553732543161486568e+00,2.119038939473238958e+00,5.669832964396000208e-02,-9.536076962521984612e-02
2.819758348401104175e+00,-7.325619568277379479e-01,-3.876764927926212856e+00,3.196805669043010667e+00
3.533701588540267835e+00,4.637276488937640551e+00,-1.930450069793533840e+00,4.069045696102808307e+00
5.426003139706788936e+00,1.109313712706182953e+00,-4.775708178142474836e+00,3.030440309599609527e+00
3.399502588042663920e+00,-2.474904722541579616e-01,6.678061564323756194e+00,6.874601589850703576e+00
-1.891597784120646830e+00,4.515344579287399185e+00,-1.372786703040639877e-01,-6.130981799452561276e+00
2.204624862928631357e-01,3.881586421424536582e+00,-3.832096941934838963e+00,-5.647304665417459901e+00
-4.955132191230066319e+00,4.862002197023642225e+00,4.330679679038213159e+00,3.592242095031452198e+00
4.548637439354026313e+00,-1.356511484297487025e+00,5.193009755745074507e+00,1.480603991316184587e+00
2.293327101190841599e+00,-7.547877250794017279e+00,3.141927741923737916e+00,2.491303245056352367e+00
3.625276085931306014e+00,-3.290259427524687919e+00,3.479684136774559899e+00,8.523057449832498467e-01
7.618161385212384396e+00,3.518651336170026678e+00,-1.221902930645909713e+00,-4.200917445407313267e+00
-1.913516605746253152e+00,-2.495501303601719290e+00,2.000450621455865274e+00,5.274815669303504428e+00
4.484893888007654428e-01,2.749526590500954271e+00,-1.467700677500441697e-01,-1.306171346040245762e+00
-6.162904802944638050e+00,-3.363325626767499910e-01,-5.999861187713933397e+00,8.594442664322443637e-01
-3.431150395227768879e+00,6.974784610797244433e-01,6.743816222175325059e+00,2.134994281680455686e+00
9.655994903740652280e-01,3.607506665635169529e+00,1.769647210703075846e+00,4.553104588639545369e+00
-7.519537257817304976e+00,2.073153345327091834e+00,3.884246245876118220e+00,2.861644928961302181e+00
5.400407614209044027e+00,-1.474175895499632905e+00,4.184108762536035364e+00,1.248613746893226351e+00
3.370965953410274274e+00,-3.783877712104963376e+00,-3.958626326346939894e+00,4.661382071703210173e+00
4.109947251337356389e-02,5.082718335803860121e+00,1.405680743517287778e+00,1.796220406547555104e-01
4.309829503874982315e+00,-2.306763744072235944e+00,1.059063946592128991e+00,2.296253492857623701e+00
-3.482982722853815716e+00,-6.085202835905990426e+00,1.560098703526163755e+00,5.887740140921243537e+00
1.709527630543128618e+00,-5.697271004255869187e+00,-3.211427139195267344e+00,-1.787010219243277298e+00
1.306819575314001891e-01,-6.155328334812581126e+00,1.040499041091202059e+00,-6.942228015650920847e-01
-5.473932220894293099e-01,7.837681911417885949e+00,-9.215982875931080232e-01,-4.208349972316970944e-01
-8.943671305806599747e+00,-3.439556935394830983e+00,2.361003944448862413e+00,3.606243947792018734e+00
-1.801392407058278522e+00,-6.025365553236751381e+00,2.941474774039725126e+00,-7.659292079893672556e-01
1.340227734698136386e+00,-1.374602511993371134e+00,-5.896926725347762854e+00,-1.245330484654948444e+00
-2.207110204330823833e-01,-1.516094404071433699e+00,-1.553924281802678831e+00,2.356534798319933177e+00
2.208703816672875853e+00,3.449853236119512223e-01,4.846982237188082188e+00,-6.033660021386740846e-01
1.013727595044504382e+00,-3.404408423493147762e+00,2.631487810241161629e+00,2.523219853363423137e+00
5.731696680765968610e-01,-2.069588467567273771e+00,-4.169858928658945807e+00,3.663680844382556145e+00
-4.697882141785520105e+00,-2.315224641564438190e+00,3.131530491321385945e+00,1.000973840617567445e+00
1.655232844201198317e+00,-4.693741440326160141e-01,-6.837795731897389651e+00,4.754399254187681723e-01
4.941762385343768216e+00,1.572790468878445758e+00,5.783093047729349401e+00,-3.540648907707379500e+00
-5.864432337560468333e+00,-3.306228658233514306e+00,2.989984224294282456e+00,-1.812325064556996379e+00
2.992309416217663109e+00,1.537959871176623139e+00,-1.017194996674497531e+00,2.942832580659699104e+00
4.119591777917914754e+00,-6.483982501156115852e+00,-2.285948006182886072e+00,-6.595940396797771443e-01
4.101294844687037866e+00,-1.959061691558767748e+00,1.991068519599669573e+00,8.294965772057703024e-01
-4.901648174296387772e+00,-8.500812888977234971e-01,5.463160080375005556e+00,4.709564047077660298e+00
7.280097097733958300e+00,5.123303867351226337e+00,-1.726712000051539686e+00,-3.244942854926521125e+00
-3.932632491634331817e+00,1.870882986755489252e+00,2.624608655319541572e+00,-4.898788905982629949e+00
-1.339801900747777053e+00,6.420689765553413864e+00,-2.790566298447182181e+00,-1.561240830118691969e+00
1.741613745452041062e+00,4.791306349744847815e+00,3.248369205314412866e+00,4.809314448585203294e+00
3.879197502343806114e+00,1.733925807160228372e+00,2.898895576322540801e+00,1.722891361510519248e+00
4.890094874461949459e+00,2.810016138420424969e+00,2.535925245051873222e+00,2.776164386420223451e+00
-6.815466551954794117e-01,-3.257154886619349377e+00,-3.927435795828595921e+00,-4.491856925868046524e+00
-3.647643511245010073e-01,-2.110509786448361291e-01,2.429172149459768892e+00,3.689675553376229322e-01
-2.509514667074474126e+00,3.436288530579063583e-01,6.606131434287490833e+00,4.157673459573576480e+00
-4.274881093780416919e+00,1.914013577864359661e-01,1.927943055113060300e+00,3.144638259808394398e+00
4.043805733414664871e+00,-8.611871925264489747e+00,1.590734747717615472e+00,-2.758509987058784585e+00
-4.641638785978675408e+00,1.316449315566817768e+00,-4.191497863069987950e+00,-3.450373333993489222e+00
1.460414488000718380e+00,2.240671660891214501e+00,2.178824126153423801e+00,-5.593426918884542687e+00
4.604465574942972594e+00,1.956935905472681370e+00,3.248339083968167618e+00,1.665149489566140617e-01
-4.532962183775031684e-01,1.663014468486242459e+00,7.029773058370365924e+00,-8.460814178214950410e-01
8.280111789740869366e-01,5.011959270785284026e+00,-2.064258033344295473e+00,1.706884517951602787e+00
1.340136314937638184e+00,-6.171239675808390501e+00,3.708682719679748718e+00,5.482627498719197412e+00
7.698187025884486445e+00,-7.773151239340513330e-01,2.779176699897396574e-01,-1.689873570255124635e+00
4.908080788328894606e-01,-4.611094132334353723e+00,2.850675200813274301e+00,7.643096915863711871e+00
1.520208114592781268e+00,-3.997787625758431496e+00,-5.538244728044898757e+00,3.058577682323839197e-01
-2.804720994168189208e+00,-8.790320357355775605e-02,-5.167545395822970455e+00,2.492177274169521173e+00
5.599486462798714648e+00,2.782167963652367959e+00,-2.184248063535677797e+00,2.821049758650973072e+00
2.397336227590261437e+00,1.391542538843876464e+00,1.872597551672498806e-02,-5.232541121103675863e+00
3.368452536237166228e+00,-3.708519907817665051e-01,-2.931446689272877215e+00,7.236966788150642316e+00
-3.358265849485246424e+00,-1.018145353829100319e+00,-2.978064363379349544e+00,2.597565656273757462e+00
5.169889957716286233e+00,-6.606637440374591996e+00,-4.220160986384333679e-01,-2.304105436172358967e+00
6.465998182518204462e-01,-2.349597346458587754e+00,3.244839103472412667e+00,-1.715973563470130303e+00
