5.135431891038024332e+00,2.110386564850381674e+00,3.225135251650477208e-01,-2.146825452662103562e+00
-3.659344797487672274e+00,5.663929194779337095e+00,2.689692895096875258e+00,-6.126408775686646990e-01
2.742845544314082673e+00,1.576906271034421492e+00,4.960076313835178219e+00,-6.228516101522506787e+00
-6.092367194267856334e+00,-6.294954341010644328e+00,-2.708084579849040718e+00,3.183330420499629110e+00
6.710040074634934903e+00,1.768617319007457445e+00,-4.410597081359217242e+00,2.990291328821308880e+00
-1.936264233236680621e+00,-2.292629667096178547e+00,-3.923982393714156025e+00,-6.473798592220465498e-01
-5.896201562109474992e+00,-2.551977036691636114e-01,5.347779344568289517e+00,-1.456223202414558271e+00
-4.039154213733883725e-01,1.779304475569383426e+00,-5.157121395516461426e+00,5.269588018193266388e-01
-1.277559272468934859e+00,-2.983277899775124808e+00,6.762916802482856760e+00,3.778593852923000984e+00
-4.455952397387777375e-01,-1.141909000395803453e+00,1.597847959624137948e+00,-3.574843772477749759e+00
1.336508516515834577e+00,-2.583349931956361312e-01,-2.571065174311047308e+00,4.871158542189358620e+00
3.770069175827136299e+00,-4.017939721128292341e+00,3.219919276605634817e+00,2.650142003530849832e-01
2.787388616505681149e+00,-2.463861970603704599e+00,-1.527805080907901569e+00,-3.763238293807099399e+00
5.764392294222301594e+00,-1.214797328113611297e+00,4.425849640581447808e+00,-3.780817010933351097e-01
-5.755212924986707890e+00,-1.116235984388291635e+00,3.594793165426626164e-02,1.158144258428819739e+00
-5.338140877948441165e+00,1.156611836819396055e+00,-2.455824286556315350e+00,-4.206934605393874094e+00
2.610190524114841981e+00,2.804392292945627307e+00,-6.271778332776538178e+00,-6.202442038726628581e+00
-1.585267061307648495e+00,5.941333984935221579e+00,2.498017039971609954e+00,-4.490100719499775295e+00
3.849039731522545082e+00,-3.468654439641010168e+00,5.372163358176429426e-01,2.033004021396395689e-01
1.175885313819947875e+00,8.467181342678480327e-01,4.772194128770278709e+00,-2.417150654815950706e+00
-2.894079424368341424e+00,5.032821161046912017e+00,6.592966069973381638e-01,-3.280135522679421545e+00
-6.293986133529323457e-01,6.207053539878390147e+00,3.813870081348509911e-01,2.598874163686652139e+00
8.188904997813919451e-01,-3.678035675269874627e+00,1.451183659004431581e+00,-2.949364920575279214e-01
3.383897861587689349e+00,1.731466964971128064e+00,1.742329360681674988e+00,4.025999687635223090e+00
7.832484859011580314e-01,-2.533429481576199294e-01,4.831404793990901503e+00,-7.793478237043903467e-02
-2.274336404168741055e+00,6.551617702897758910e+00,9.360934494519518312e-01,-1.170889257321130028e+00
-6.889729497457640628e-01,-5.852230645119185226e+00,2.692023852630142100e-01,-9.836483910145881193e-01
-5.947616998278166811e+00,-1.648443130645169452e+00,5.270646212450698975e+00,-1.346006018965545836e+00
5.659152707273393368e+00,6.038910939715628423e+00,1.534367595815955942e+00,2.160227844209231307e+00
-1.080765627223669867e+00,7.844962212822192971e-01,1.220746849829436931e+00,-1.885190629139251728e+00
-3.917797176830787986e+00,7.557491319738744995e-01,7.413937199637408160e-01,2.688444143218566396e+00
2.052950934331031707e+00,-3.621453840805153312e+00,-4.489240750430854909e+00,1.755294896976815622e+00
-3.585907843916167348e+00,1.242058602298101055e+00,-1.643799552269339381e+00,-4.411263674252453804e+00
4.358180578019360318e+00,-1.141515204056533284e+00,-1.934114182667638016e+00,-4.092714333270834337e-01
-4.768130956190913317e+00,-2.790968957010957929e+00,-2.047438243645766320e+00,-3.976326130163250649e+00
2.856186157653740842e+00,4.012868841982583312e+00,9.917065936256080905e-01,2.726688144528788715e+00
-1.912748527779547958e+00,1.933718724717809145e+00,3.040007150632447086e+00,5.912431630228197399e+00
1.772941904262214763e+00,4.187606019142450897e+00,2.847053028108214701e+00,-1.451494209443409122e+00
6.405200514102922238e-01,2.579913952736835991e+00,-3.826827476283227281e+00,-2.244238737386820226e+00
4.166329319692816391e+00,-2.146577312429748474e+00,-1.855787782987208701e+00,-6.217989851462092377e-01
-5.353284166798331967e+00,-2.047464562900889629e+00,-4.396785842431297553e+00,-6.781487016168669113e-01
-7.533513830066497219e-01,-4.832494777506061823e+00,2.557259885497815688e+00,-1.273266994748085912e+00
-1.777621321303442414e+00,-4.403025810575837085e+00,-1.596239416831302993e+00,-2.670457065460799750e+00
5.309073386639552083e+00,-3.529365526371699868e+00,1.160112616596923552e+00,-6.017531400082231086e-01
3.863943223840438534e+00,-1.607724896777474211e+00,-4.141675304908797095e+00,-1.740225452389728256e+00
4.106052983868186956e+00,-2.167067908917789332e+00,-3.986174365758496485e+00,-8.102380750548208166e-01
1.915106138690270354e+00,-2.672452908992545062e+00,-2.921189648837376307e+00,-1.716045994059028468e+00
2.382170856751814725e+00,1.904034910014595683e+00,8.544683517348232449e-02,-6.145638957736982100e+00
-3.254841221725643052e+00,4.538195770825983466e+00,-1.437289720112585378e+00,-2.225515893985602900e-01
-4.841869341537171856e+00,4.795508528743383181e+00,-3.137868426691384105e+00,-8.106773605328383703e-02
4.832261342679161631e-01,5.229288713738987404e+00,3.675932402455126979e+00,5.651145686129392054e+00
5.982047192580169259e+00,-1.843240264620914726e+00,-2.049393632806825849e+00,7.124136919410242186e-01
1.957033534614865955e+00,3.443214578241623691e+00,-2.043814062029833067e+00,3.477665293605359143e+00
4.536118289394680758e+00,1.131668630613239301e+00,-7.212410507134094040e+00,-1.399743275939291598e+00
5.711151512149302611e+00,3.643811056977698914e+00,1.979083370686229193e+00,4.496946350522089131e-01
4.855610130619322007e+00,6.466306321535092438e-01,-4.671845431723622433e+00,2.694306796907900203e+00
-5.156155821185130605e+00,1.259069830073533458e+00,5.243526103637838887e+00,1.834019337758450607e+00
5.193181520408969298e+00,3.827598895143666358e+00,-2.739045294099594408e+00,-1.451526447787913954e+00
-1.542023704864415423e+00,-3.789413072589633003e-01,-4.828460321252608267e+00,6.068471381525927910e+00
-1.467406433774938845e+00,-4.149731490836310321e+00,1.190585902049675626e+00,6.202699686410829472e+00
-8.832608160358561555e-01,2.078023706355792477e+00,5.162932155331549922e+00,6.241757051653900490e+00
3.217031350165657777e+00,-1.228561625043062655e+00,6.268916301809780656e+00,-2.047903795550916506e+00
2.662696157312149925e+00,-8.857449431955628505e-01,-5.214000828106135188e+00,-2.385984957396066974e+00
-5.389505438780622937e-01,-3.106991016830750851e+00,-4.861061110581823108e+00,1.748751961607287464e-01
1.991789800408870992e+00,-3.310672459268519496e+00,-2.778636868596450760e-01,-1.259136130227903827e+00
4.725346749406467595e+00,4.464879517233448780e+00,-2.413342327260584508e+00,2.663112844597307127e+00
-2.987820160340715070e+00,5.115545380959605204e+00,4.093123415530750542e+00,-2.631042566435650709e+00
1.204496792698766416e+00,-2.675252862245891539e-01,-4.411067430813730983e-01,-2.419093421765760699e+00
-5.336704793152208914e+00,5.830156484816724216e+00,3.718048534038628894e+00,-1.054087242996985641e+00
-5.625407797979992353e+00,4.182073194189240617e+00,1.713845483003973325e+00,-2.495746910352106163e+00
5.455523641161640569e+00,2.038832522756351739e+00,4.915373077253300416e+00,8.780791579815984127e-01
9.403908161648173447e-01,-5.463645495633987714e+00,8.851800747682984083e-01,1.469192373696986520e+00
-5.526299149608970396e+00,2.094189688697447149e+00,4.812102125616518400e+00,-3.419733776976517259e+00
1.007657128778701727e+00,6.757425531268218544e-01,1.112723194501304080e+00,-5.478776221907802224e+00
-3.781532436796123386e-01,-9.754856170859643738e-01,-2.016561422067951970e+00,-4.176021916099410092e+00
-3.518394445726668707e+00,3.357148267290988919e+00,-2.785205327084902205e+00,-2.390764991020228880e+00
-4.485867761999769776e+00,3.386124029214097497e+00,2.347510679212037044e+00,-1.280144540575559320e-01
-1.182926450541445185e+00,5.348038310469828360e+00,8.164553991217463613e-01,9.216983845338454495e-01
1.938086999444801561e+00,-1.959372530976524640e+00,3.373324220144992669e+00,-5.882422210619179914e+00
-3.936216633782794183e+00,1.291488326552639343e+00,1.700004702750537611e+00,1.264705264269962992e+00
1.481990497403232965e+00,4.750919931475413804e+00,-2.660146956870321322e+00,2.277892490163399675e+00
2.136438423080628368e+00,-3.418140344915503892e+00,5.856894509676862981e+00,2.862396973971933267e+00
4.889192322139193081e+00,-1.506005904762005576e+00,2.391302765649697903e+00,-5.444231292187929894e-01
2.218260195684571112e+00,3.397180756906669874e+00,3.969607134202099985e-01,-3.851705166713299544e+00
1.243150331966110578e+00,2.304807553178898072e+00,4.327561043334513968e+00,-1.780924542663762100e+00
-2.456504380696431511e+00,-4.194623945566840817e+00,3.637184539562062557e+00,1.951521206559060806e+00
-5.311776076008187353e+00,6.046488601276938102e-01,3.052812129663341700e+00,-1.484173783728996110e+00
7.731227132889378906e-01,-6.255361045941093323e+00,-2.869084949546128471e-01,-2.749986765438679814e+00
4.027754526209667674e+00,2.906123433485221508e+00,4.236402190626716191e+00,3.785848115014310622e+00
-1.773323660791872980e+00,5.019434434227073361e+00,-2.883930120739419678e+00,-5.016698070826133282e+00
-1.367108893085327237e+00,-2.685617727005643829e+00,-4.044072283629023268e+00,3.607616698310571746e-01
-4.381836624076491660e+00,2.211725834761557596e+00,1.410911439275199575e+00,7.253267101045444143e-01
7.594816583617833849e-01,-5.104393887208440006e+00,-1.345598140961772327e-01,2.100079369143263985e+00
-5.660460455923623790e+00,-3.424018936852010864e+00,2.499728144169082178e+00,-4.428259672695370242e+00
-3.051484337745426600e+00,-3.918311715826948038e+00,3.287378405962652295e+00,6.806510674116370119e+00
1.758726395308322088e+00,9.870273995828551250e-01,5.205902737800493618e+00,-2.937472683703504117e+00
-3.456457082662184543e+00,-1.634085499410840470e+00,-2.937155687959895900e+00,5.890462376773261788e+00
2.731618028161336031e+00,-1.353717248865269340e+00,3.249105007405111323e+00,4.701143151722743774e+00
2.132156346595261986e+00,2.813380827921299510e+00,-5.288627373339544135e+00,-2.962078085923968818e+00
-5.648637022789392503e+00,-2.077263946559156693e+00,5.153407203624188249e+00,9.636490727082891450e-02
-2.336895605001400256e+00,3.033769766355517206e+00,3.839355038814050047e+00,-4.060799381944908859e+00
-3.440050763531935729e+00,3.009276832751397457e+00,-2.255449538551182354e+00,4.594126000200768445e+00
3.132720792788158626e+00,2.692510827419333008e+00,3.267453516955410642e+00,3.301996224422332205e+00
2.026497508508952716e+00,5.341934234008346216e+00,2.623825397573767759e+00,1.297290149123898395e+00
1.790887864817359842e+00,-3.739871159815341795e+00,3.195414880379340961e+00,-5.026419967942958866e-01
2.147977293375977315e+00,2.744280211148701909e+00,-4.502705496299354238e+00,-2.249223272929500084e+00
-5.008684429172920893e+00,3.633041588766420249e-01,3.350196358952023612e+00,9.803624692078148906e-01
5.413885778237647051e-01,-2.020424106659343355e+00,2.849816835266031578e+00,5.415883719870450363e+00
-2.144789402615824847e-01,2.820876517067664846e+00,9.413787166634293158e-01,4.135811619830064068e+00
4.150409230923616022e+00,-8.212407962838507158e-01,-5.342445354689084880e+00,1.689986538652221482e+00
4.355411978221678027e+00,-1.654495140663242436e+00,-6.768306961499775953e-01,3.932719652438406488e+00
-5.057988240610466590e+00,2.250822972827591251e+00,-1.993493726739300032e+00,1.365913265719687741e+00
2.072203734364666872e+00,-6.722222206136299505e+00,-2.063094339986395465e+00,-6.161415791582247614e+00
2.375367003231930951e+00,2.572518932395681190e+00,3.818538201330575088e+00,-2.766865580688050663e+00
-5.413690804621224650e+00,-5.189922746392601205e-01,3.419871332973817846e-01,1.015404130073950695e+00
-4.749115275016885462e+00,-1.316548443366905685e+00,-5.852925815135716636e-01,3.562637516121427428e+00
1.490306099603303958e+00,-4.112830146841498724e+00,3.751837527360593505e+00,2.045538865457841471e+00
4.355643551460794960e+00,1.068009210801345726e-01,-1.872910566316187131e+00,2.373142255405132905e-01
5.294084347880519736e+00,-2.216191865283656526e+00,-3.817250329041067314e+00,2.097614360672442224e+00
5.848316482385149229e+00,2.095618520394249451e+00,-5.682448618828856546e+00,6.181362589945571528e-01
3.175609832244850050e+00,1.166932335728950942e+00,4.926426478489742244e+00,3.559069982677874666e+00
7.122959537870775293e+00,4.578456809221373547e+00,-1.250203922039307525e+00,2.505742343610306566e+00
2.889021398234389970e+00,1.130991411988345519e+00,-6.151746815680019687e+00,-6.309458406453742008e+00
8.607960163044230395e-01,-2.157175684430475693e-01,-3.970412309177209220e+00,-1.669345290692087369e+00
-5.124748995071457536e+00,-2.782006174816323618e+00,4.917895018300942667e+00,-2.872245078410822217e+00
-5.269736102015888157e+00,4.174017387439037385e+00,-2.209521713599931658e+00,-3.181014228979972547e-01
-9.421101162222861314e-01,-2.835971521733330114e+00,-2.454008613263304550e+00,-2.578481958745060698e+00
-5.952675008978449700e-01,2.393316270302316973e+00,8.745179155109678026e-01,-4.559713776448436562e+00
5.992360169499106881e-01,2.491866095173405071e+00,-6.669058618410006467e+00,-4.707743902143839421e+00
6.056710754556925203e+00,5.102748920668611632e+00,2.740733363591659977e+00,-2.404813258203388759e+00
4.533009382437971801e+00,1.306867198807673436e+00,1.402255492731670827e+00,-4.722838398343095712e+00
1.456947031952960048e+00,3.356656955791371133e-01,-2.844000938783827426e+00,-2.215790824123698322e+00
4.006784877899527864e+00,2.231659724189949401e+00,2.160132466746498725e+00,4.521402485222203005e+00
2.677580244347301353e+00,-1.202550554325306775e+00,1.776533842754689507e+00,-1.620967151647342286e+00
-7.175469999311647751e-01,-2.139064936957531415e+00,3.545548666394292003e-01,3.969359533325862444e+00
6.776708414898142685e+00,7.713960783538322818e-01,-1.455858173236719288e+00,1.328778525189711512e+00
4.377461950001890756e+00,4.271937215930734055e+00,3.419773676681864938e+00,-2.835395788793384497e+00
3.869352353646174691e+00,2.665651454217775385e+00,-5.092024104480745272e+00,-2.726436995827861143e+00
1.344762212847361305e+00,-7.286827719354092847e-02,2.542861100989672440e+00,-3.309160001808913343e+00
3.444219096682200387e+00,-2.087494571661141052e+00,6.532922820792448348e+00,2.582726648934580371e+00
4.989346178483719640e+00,1.976560976909933931e+00,4.984522100975200765e+00,1.883423746216727368e+00
2.096091725283475427e+00,3.502932821184281259e-02,-3.674936085281844456e+00,-6.355856709708564090e+00
5.171190518897859079e+00,-3.106747281800413596e+00,7.265876198562053467e+00,4.956903277301117905e-01
6.029773404847998286e+00,3.096416875175719952e+00,-1.979934277591705039e+00,-3.440154827211892030e-01
-3.963260733108282974e+00,-6.589653623324319476e+00,-1.990236703495236403e+00,2.966119668934496190e+00
3.730989327880915862e+00,4.654963421664034762e+00,1.972264451578609190e+00,4.599261563004425346e-01
1.225375283694428941e+00,5.092270593640105147e+00,-8.873189757228463481e-01,-1.709904501636898555e-01
-5.720424761216182930e+00,1.948139760467083592e+00,-6.858821584450273789e+00,-1.995253694127875566e+00
6.552492234940737958e+00,-1.913844248294725991e-01,2.077700975725959853e-01,3.849224135939602220e+00
-4.312547756821737410e-01,1.057941185537861983e+00,-1.166080966585351986e+00,-2.662278227729473645e+00
3.768974178351609527e+00,2.141134441278290002e+00,-6.205323922882418408e+00,-4.304296366338848046e+00
1.203240400373803087e+00,6.045258806912294780e-01,-6.335396220053783445e+00,2.654142015973094626e+00
-2.914127215269713897e-02,-1.673823449847073874e+00,-3.136377835903559230e+00,1.519816141203870430e+00
1.316985083172445004e+00,1.571589186318703840e-02,5.522080793201062932e+00,1.123256281980060445e+00
-2.100102213565841591e+00,1.796161999392205111e+00,-4.802529195521592520e+00,3.137182484671209970e+00
3.090033162173490222e+00,-3.623516598145734235e+00,-2.526436001999386782e+00,-5.881649333306050664e+00
3.354113897908092223e+00,-6.288411765857910840e-01,4.308652422651627067e-01,3.520951032091171218e+00
7.946992900349760802e-01,-1.410986834254250422e+00,-1.187665599229440483e+00,4.083888722917992986e+00
2.784085391215354477e+00,9.248931575289403018e-01,-5.519814296384507379e+00,-3.740548703427375443e+00
-6.102172091989976010e+00,5.714701812420543980e+00,1.985742238494627721e+00,-3.152588968046281082e+00
-1.238305939205506023e+00,-3.638065319644354201e+00,4.538368210841021266e+00,3.441041488760606892e+00
3.554269071806590574e+00,-3.525908042143043541e+00,-3.352926878482502815e+00,-4.146770486390093602e+00
-2.640865349392846340e-01,2.371995363395824619e+00,-2.093933833291055979e+00,-1.785572682510241149e+00
-5.603077361307232662e-01,4.410745736477934997e+00,-2.678434002621805199e+00,3.877513857361801985e+00
-1.494358872359282664e+00,1.300940209624338095e+00,-6.495640930036909566e+00,-3.936219722698729662e+00
5.893398787484794843e-01,-3.319868002159979348e+00,6.332231031301692958e+00,7.255567665572522085e-01
-9.330934077364785306e-01,-7.125310535159492531e+00,-2.519686853729905085e+00,-8.291990198534563428e-01
-2.516113175128014579e+00,-4.350312500143921568e+00,-2.455735605051172943e+00,-7.223365805189246869e-01
-5.657423670272685001e+00,-7.518485366552030147e-01,5.388520261352767626e+00,-2.219878390874252982e+00
1.297542863420200865e+00,3.254681475289598058e+00,1.797092105249448624e+00,5.866950055656912077e+00
-5.742537589260665598e-01,7.424193197503438091e-01,4.806265552257555917e+00,-3.200469122566678148e+00
3.732098175701438869e+00,2.403085989693876545e+00,-4.162629771678854951e+00,-6.956548224181694273e+00
-4.114275454373087504e-01,7.708719377455404143e-01,7.055161849113568140e-01,4.245035880955217777e+00
-1.516268788836756087e+00,-2.860917063343738853e+00,3.173160178616897031e+00,5.235009015384950892e+00
6.619755519196413029e-01,3.430534850317630724e+00,-2.645293661938502350e+00,8.707099203399049081e-01
5.193234605072148291e+00,1.393633109488167342e-02,-6.260548865632470372e-01,3.169467227013090138e+00
-4.001485962213952696e+00,8.878821344024097062e-01,-1.572897938247985516e+00,-1.741928181238598494e+00
-6.617094911557220849e-01,6.106351692351756455e+00,1.034841139874338900e+00,-1.978917175901227399e+00
-2.052853510821489869e-01,-6.798104741684203312e+00,-1.913118473024832067e+00,-4.627518034192418028e+00
3.177793486686613544e+00,5.150775725431937069e+00,6.910457991522969134e-01,-1.109851120125467938e+00
-8.510241268924473301e-01,2.803970134978480466e+00,3.318749250758299407e+00,-8.134860073787928414e-01
3.909392476256221993e+00,5.349280542638130687e-01,-6.929066894663240106e+00,2.583213200658918129e+00
-3.585487882962148376e-01,-2.434588064420447395e+00,2.255414404236179671e+00,4.941506992476781157e+00
5.066390680477376840e+00,1.404063304498796683e+00,-7.567474250902920252e-01,-3.626006423553611135e+00
8.400732224982113694e-01,-6.117284944713610173e+00,-3.567757965745473325e-01,3.997419197624489051e+00
4.463861473872662522e+00,4.240782319091715991e+00,5.948264093449897594e-01,2.748374235566038770e+00
3.247065663295934712e+00,5.340132902380719804e-01,-3.719969916078765593e+00,-8.491538834541927372e-01
-4.442114448471333077e+00,-3.163821912170879713e+00,3.655988449921356409e+00,8.124998704071010325e-01
-5.021555361156237574e+00,7.783891009718571508e-02,-4.137072167007956658e+00,-1.892203080333931142e+00
3.101287868391422009e+00,5.272306106651423185e+00,5.857635604121792516e-01,-2.254202970412486629e-01
-1.565124459186835848e+00,-5.510545393848013340e+00,-1.626930365520952604e+00,2.132332638625711319e+00
3.845805758919309980e+00,2.321962141800526069e+00,-3.412542611585525965e+00,-4.586712423596860932e-01
2.729103670914029056e+00,9.396238233079513835e-02,-3.886461414051832541e+00,-1.064109433672599581e+00
1.138801019885193666e+00,-6.659252835026893358e+00,-1.805322594556474147e+00,4.171781927333467088e+00
-1.759289159151600446e+00,-3.614720872185033240e+00,-2.792929366838396987e+00,6.279027789660263537e+00
-2.743864892822162282e+00,-9.334606225577676275e-01,-5.388591783124259571e+00,-1.879768809117731809e+00
-1.190231473033835030e+00,4.257779662060297565e-01,-1.427144939427804848e+00,-2.749089367721556876e+00
4.903245749124755193e+00,3.740947640673896735e-01,-1.202306542527444844e+00,4.628120270007413661e-01
3.451582395268304015e+00,8.411266382031873379e-01,-5.571539440884773597e+00,-4.372376643713574040e+00
3.992134640022272141e+00,-1.214343038858455071e+00,-3.318187745037452618e+00,-3.806593856725628555e+00
-5.367486027230893519e+00,-1.056153104398230846e+00,3.499678240200244872e+00,1.185589273802333032e+00
5.609936559860209115e+00,-4.378084069184492222e+00,-4.757920099970884387e+00,8.776168453159270966e-01
8.188861135391023449e-02,1.808487954132627085e+00,-4.015806365733313399e+00,3.437765635791114605e+00
3.139193551670210525e+00,-4.699960223645391011e+00,3.560112971813265137e+00,-4.167449097699325478e+00
-1.815973547997406845e+00,-4.884915814006196122e+00,3.972647264533093470e-01,-2.580196279026820694e+00
2.948209297006907370e+00,2.010975002812855461e+00,1.312281102518240150e-01,-5.058884799014774281e+00
-5.156017633066240613e+00,-2.639872005454238391e+00,3.608435048567000702e+00,3.149201216309669427e+00
-2.715361927845314050e+00,-5.533016066993516890e-01,7.223727788405331918e-01,6.779226802261235640e+00
4.323723553906869910e+00,3.708569843153316281e+00,2.375555141030849082e+00,2.955971236644250322e+00
4.737052880660304055e+00,5.709612891144892899e+00,1.572814926739626973e+00,-4.212100395417359699e+00
1.918386791638778455e+00,3.144960746904770232e+00,1.796710591868388107e+00,-2.673715483691095907e-01
2.517819933214439643e-01,-1.428149083072423942e+00,-1.714802682109421716e-01,-4.738456465494699898e+00
4.177879996120424266e+00,2.830537212726057295e+00,2.837611097262050741e+00,-8.563817723556224615e-02
2.363884713938313897e+00,-6.322646614292372291e+00,-2.268674012778113092e+00,4.892910363433313314e+00
1.897441007645508160e+00,-1.325384431275199226e+00,5.856700270505029948e+00,-2.557849055588095943e+00
-2.832730351013621917e+00,-1.914836396398816865e+00,7.114195433127751933e+00,-5.057718775570596570e+00
3.843774643936129110e+00,-6.261700177077518248e-01,-6.617726399791848957e-01,-9.725897815582644768e-01
-5.742143180434383432e+00,-3.981211727819849777e+00,4.712162996320367059e-01,6.176047518604526054e-01
-4.292552360422033253e+00,-1.208741868136436803e+00,1.779182059550893646e-01,-4.141794585820558261e+00
4.666623859572190725e+00,8.821304389637114537e-03,-3.597525573263109067e+00,-4.190596637669512070e+00
3.108479907052229763e+00,9.383422307275841590e-01,2.688251142479603395e+00,-5.325711826418556782e+00
1.195730819398746814e+00,6.363910232337216533e-01,4.230436361578113313e+00,5.215636455709791619e+00
6.316602034977573110e-01,3.579420994925732735e+00,1.158598821002184698e+00,-3.484258202505423618e+00
-1.976370269913689581e+00,-1.753161715491435402e+00,5.446988894494798394e+00,5.986228404030343953e+00
3.540199447827740098e+00,-3.578142954206170234e+00,3.252724109252187468e-01,1.708445442325376151e-01
5.080716028901857584e+00,1.588597221604170828e+00,-4.267506932369124484e-01,3.081282450636982917e-01
7.504534646105185391e-01,-4.137745430523313672e+00,-2.644012239623696470e+00,4.726556494164745992e+00
-3.349198608713487846e-01,-2.695613007842413200e+00,4.711655069255516359e+00,-2.740939213976608002e+00
-5.427951068045203664e-01,5.151274822908161966e+00,-5.574768712629435408e-01,3.104521322856696575e+00
-4.446492697294837981e+00,-1.872644250260273313e-01,-5.948090504622897789e+00,-2.683817328904508859e+00
1.076002653432653444e+00,4.006653205171386567e+00,-3.825127636478575344e+00,4.191056776776039605e+00
-2.205857971360747349e+00,8.102366802128242451e-01,-5.627741975732998725e+00,-6.812708368164214212e-01
2.272109204135671856e+00,3.130981327680293358e+00,5.431136271098748608e-02,4.701845064200439239e+00
6.049697917796124536e+00,2.145577458935640447e+00,-3.245478240998795449e+00,-7.715990324554872215e-01
3.833064317323255921e+00,5.407320984334830216e-01,-5.457720023791366337e+00,-5.905014921873523726e+00
-3.797724778885199992e+00,-1.197336282311563194e+00,3.733352690543231933e+00,5.424616779063745620e-01
3.180640913325246899e+00,3.026680129736255331e+00,-4.223795848750949489e+00,-3.891966060203590150e+00
-4.331275748558140570e+00,1.894298422705980700e+00,-4.989413201479946380e+00,3.579233581482484272e+00
5.071361663953770638e+00,5.153859707300123105e+00,2.674488820105853648e+00,-9.413467065532498124e-01
-3.921665223034211945e-01,-1.957929277516344824e+00,7.198374063684917168e+00,9.622026563728303117e-01
-3.472215014823320178e+00,-7.378801963732781743e-01,5.728451901794165302e+00,6.138464099578312627e+00
6.237389452102469534e+00,2.055367762556912226e+00,2.751215501266663921e+00,1.962148878677659525e+00
3.647216704397529430e+00,2.104023616245572104e+00,-7.322610529479838704e+00,2.718967167264332296e+00
-4.116421950214963488e+00,-5.116987996522074589e+00,9.161041510412403222e-01,7.396083308765699638e-01
-2.521691182833861511e+00,-3.912725572571550181e+00,2.161178346179682297e+00,-5.477549818703405293e+00
7.213985849262626315e-01,1.644563297269332203e-01,-3.362292912219189134e+00,-4.772334058316241467e+00
-5.859295714119179266e+00,6.136517425499274925e-01,7.796920874643381572e-01,-3.509886857333424537e+00
2.000265287289922256e+00,-5.580740988538610559e+00,-1.121464022813588812e+00,-4.022497473730665130e-01
3.530656463839304759e+00,-2.052429764726225514e+00,6.440446736815424345e+00,-4.315933840777165464e+00
-1.922352443566140545e+00,2.690052376404513890e+00,5.918744286081466521e-01,1.147167455464706221e+00
-2.534517052117023717e+00,-1.400928133684351817e-01,-4.776658666808143994e-01,-1.301298842302788528e-01
2.502196548689584965e+00,3.910841040003076419e+00,-2.308136994138818843e-01,-4.094501245397221822e-01
-1.823714819276310184e+00,-2.009550340002574043e+00,-4.439147621158426316e-01,-2.437534507413362750e+00
-4.936067311256286949e-01,-1.480924477822893326e-01,-1.423929630012968461e+00,-5.545519399540049577e+00
-1.770122780011866626e+00,-6.584929419769819381e-01,-2.183152586152592445e+00,1.144398497173665596e+00
1.003391515447587201e+00,-4.278410068418558865e+00,-4.013904315801238631e+00,3.396895817465939604e+00
-5.372514493644123590e+00,3.762835006250280223e+00,-6.343985729004451013e-01,-3.183915311038293172e+00
-4.324410861956464736e+00,-2.878044917903179178e-01,-5.547737512636753188e+00,-2.288005544347907261e+00
4.080657987880448978e+00,6.507293596144601011e-01,-4.195282981468869465e+00,-3.933544918674062529e+00
-2.519130685749694454e+00,3.455095959465158906e+00,-4.565858535701760701e+00,-4.111807769692807035e+00
1.733716894509081119e-01,-1.446981397542364434e+00,9.365370407292195054e-01,-5.109160197582803598e+00
3.114442408392266604e+00,-5.788779485175498118e-01,-8.725279279257629238e-04,5.063894081034676198e+00
-2.454078844197868037e+00,3.819516688624422507e+00,8.945708498461822922e-01,-1.802446907483479799e-01
-3.589086969857986364e+00,2.615680642032211178e+00,-4.179526277360050557e+00,5.385992666566422393e+00
-6.258211872428485201e-01,-6.128866707876388098e+00,-2.256218516976146393e+00,-2.845937263963628894e+00
-5.269916773906607732e-01,-2.915069496117775216e+00,7.436415816271833013e-01,-2.698668300353488370e+00
3.431994485554975327e+00,2.603678568626163869e+00,-6.344628401352983893e+00,-6.860947114502593536e+00
1.155287401260256974e+00,-5.512684425702087943e+00,1.788488475485558782e+00,-1.751462323253275333e+00
-5.071889852255364595e+00,5.533361418660661668e-01,3.055456838917126383e+00,6.072839704505014202e-01
5.454233327269050191e-01,4.494400400254971117e+00,2.838939907663123208e+00,-3.673059648822138090e+00
1.183721684534578600e+00,1.543344508371693458e+00,-4.462577729985034991e-01,-1.823081217499560980e+00
-1.985880772007748263e+00,2.444397837966914011e+00,-6.637376556122691618e+00,-2.886672416146885300e+00
3.089133126238738924e+00,-3.372474111249881279e+00,1.097851214665200192e+00,-7.143628276652658649e+00
-3.265411593375335375e+00,3.192356181894015599e+00,1.541935703468630514e+00,2.846455435012101631e+00
-6.906768194656421889e-01,4.696211268515341430e+00,-2.289482551991281145e+00,-1.780837872942759637e+00
-1.402240577051621750e+00,1.910430061158240544e+00,1.855622834847758140e+00,2.882432503944377000e+00
3.737887835644599477e+00,-6.293210547161281809e+00,6.119410957424596675e-02,1.127562692146381274e+00
2.715826878371669917e-01,-2.901730782750637783e-01,3.579607535053567879e+00,3.968771734128608841e+00
-3.893348442258085740e+00,4.102564251828511921e+00,4.596752559947037575e+00,-3.216728007220377883e+00
4.625992354745269708e+00,-4.994089809910053468e+00,4.224464042120962048e+00,-4.531747946410162875e-01
-2.912992716494438916e+00,-3.277661432015838372e+00,-9.966758289126268489e-01,5.528000854185098234e+00
3.357472060539485437e+00,1.987075252637268585e+00,-8.842785368905727861e-01,-1.424518194699359863e-01
3.572946506850345205e+00,4.315952252763219477e+00,1.577425457840999634e+00,2.378512046154636739e+00
-4.349785384953517742e+00,-3.671612635142207814e+00,-6.666267306912665447e-02,1.847948476583371580e+00
-7.091311553822958302e+00,-2.780288067846481415e+00,9.612160874810498079e-01,-2.887420328570538430e+00
4.679256112693376046e+00,-1.093653942686434677e+00,-9.042033031400662502e-01,-1.616085283021671648e+00
-1.355183514749073836e+00,3.264703638281716724e+00,3.677154307917505527e+00,6.595275566796885869e+00
1.681009243078110726e+00,3.650010003804074366e+00,-4.004003087216065460e+00,2.710946858371584334e+00
-4.681959410896417317e+00,1.870054066546409821e+00,-1.548310889812899660e+00,-1.956154901010986658e+00
3.505623760888921581e+00,1.168916722800390939e+00,3.291653587408057469e+00,-4.527500674092228117e+00
5.245674055817597825e+00,8.355023315426092223e-01,1.087793414595408015e+00,-6.290535581938337950e-01
1.995708313133453204e+00,-2.133831549129940441e+00,2.539672739596498197e+00,-1.897190759944349381e+00
2.218491304235338468e+00,-1.699269250129768372e+00,1.148795103420890307e+00,1.627724551748058079e+00
1.467044187733107519e+00,-6.670700041869093155e-01,1.686858342454551574e+00,-5.053609082552640075e+00
-2.363697023222146143e+00,-5.477720677715443465e+00,-3.435857313939697288e+00,-3.676552816950874547e+00
4.219132172801493219e+00,8.801425724688506369e-01,-5.101758039103383879e+00,-5.559337041642613109e+00
1.750225874327054454e+00,5.352741252276199901e+00,1.953903023108052528e+00,-4.051768075049581697e+00
3.232243470303447719e+00,2.959084599116704073e+00,1.166840367706193815e+00,-1.440126997304235212e+00
-3.381698575616156166e+00,3.509965497067206286e+00,2.987110724283926988e+00,4.348764931218132568e-01
1.918661939985062959e-01,2.972800492156851160e+00,-1.182029094442654360e+00,-5.863658336407411298e+00
-6.992257076435961949e+00,-5.200002591494952142e-01,1.464160145107724631e+00,-2.924608415481639412e+00
-4.791916608597330374e+00,-6.912118895901688820e-01,1.245898818992602575e+00,3.879308937836377869e+00
4.061484415757401045e+00,3.334185644267647075e-01,1.609174211609135874e+00,4.238977542191960879e+00
-1.384414789633357401e+00,6.605072743665382440e+00,5.970462402475577163e-02,4.292450252474980799e-01
-4.260996027443229472e+00,-3.479417511119765827e+00,-4.066599347379460383e+00,-4.586360428889676655e+00
4.240488265214136021e+00,4.646675743026728256e+00,-2.382808801842850599e-02,3.309407141074289793e+00
1.353993708887765379e+00,-6.720544475143825025e+00,-2.831475578954740335e+00,-4.307686228210921620e+00
-6.786892107320428025e-01,-1.489135915646364827e+00,5.937782238021227066e+00,2.804236037502491730e+00
3.398900342979417566e+00,-1.847672310959343589e+00,-1.754322916701811952e+00,-3.950770331359092946e+00
2.505769928799478352e-01,-4.629619877179005805e+00,-3.058932364312997101e-02,2.797784005688901399e+00
2.734259144215616555e+00,1.124783452662742045e+00,-1.705143269224523195e+00,1.210056864308518138e-01
5.718353439845641262e+00,-1.876015572260410602e+00,3.475683272484570985e+00,4.012898399017338136e+00
-2.068319294961529220e+00,1.734706063412293719e+00,4.041474778708634474e+00,-6.200137398742128214e-01
-1.237043960306179580e+00,-1.489967588032243828e-01,-2.396551842990640502e+00,-4.509372798907518742e+00
-4.770626457965617684e-01,1.976394522239284024e+00,-5.637689060121640061e+00,3.886061385480871433e+00
4.068586725818915006e+00,1.859169480211363634e+00,-6.433734500005518164e+00,-7.312660473158687502e-01
-5.734241469201104557e+00,3.512500910913183838e-01,5.008460060308803641e-01,-8.851423335146786642e-02
-2.075077802907644209e+00,3.664284919306569854e+00,1.127517655927281481e+00,-4.153759372251668580e+00
-1.592500667422017457e+00,4.534336545389727746e+00,3.939175009148747630e+00,3.612343113978905507e+00
1.699889974799130954e+00,3.394384802028592940e+00,-4.527193675521942851e+00,9.662555800701503328e-01
-2.716482290914252307e+00,-6.330212696633521041e+00,-2.716832209145144450e+00,2.555928951480057165e+00
-1.769261717315942173e+00,6.535741825628731405e+00,-2.528073520048842449e-01,1.687029718562254699e+00
6.342025531156307849e-01,-3.208551805120293032e+00,3.091023028008629936e+00,-1.825763962719590738e+00
1.780815637132361573e+00,1.012783374511047746e-01,-1.595848734488463538e+00,3.188447507909227152e+00
-8.429605467562939491e-01,3.368151040321056833e+00,-5.885839816548411818e+00,5.838213340774518478e+00
1.738115165905631754e+00,1.768473338254573868e+00,5.023100517559594635e+00,4.288245856161849723e+00
3.278451657825189436e+00,-6.345942213301337675e-01,-3.032863625305555644e+00,-2.070635530568302851e+00
6.500496658692419549e-01,4.243123720056304116e+00,-1.394417435628234392e+00,-1.276645514604980214e+00
1.150786037691742703e+00,-3.691671451760793587e+00,7.603646554042108041e-02,3.124959021568018969e+00
9.489253588560889741e-01,3.382876643192457511e+00,-3.089368234729339857e+00,-1.538659683568307790e-01
2.567828251588485600e+00,-5.528730399614330437e+00,4.979627676189979368e-01,-9.481052307292588965e-01
1.108292273061400213e+00,6.330510504056809040e+00,2.547781145884401521e+00,5.878837940192888745e+00
-3.703818708173729934e+00,-4.114467946333033588e+00,2.637339107478005040e+00,5.191207904754167934e+00
9.025948041787675846e-01,-1.160318941626625078e+00,2.757275933179832439e+00,-9.896304023885407197e-01
-2.108197251501304770e+00,5.082557696767419309e+00,2.398562828612726960e+00,3.690609426604785637e-01
-1.627600438879000189e+00,-2.083711032044393896e+00,-1.802453491470157321e+00,-8.130795834523852905e-01
-4.145544134017510984e+00,1.124541256068388950e+00,-1.063396758817674037e+00,3.055189385546317027e+00
-4.499838398845821708e+00,3.172088668496213515e+00,-6.889884214751985425e+00,1.573497571101901416e-01
-3.508269383140834918e+00,3.523533745957068142e+00,-4.479531558603390806e+00,-4.359508566368841542e+00
-5.351335747185628655e+00,1.222690248521148382e+00,3.748231598543139587e+00,-3.914913662703563002e+00
-2.422707114691126318e+00,-3.052198293426037878e+00,-1.537552873826641520e+00,9.147634853301697122e-01
-4.471911982730901514e+00,1.778414998970889727e+00,1.504612354989800949e+00,2.253923077411943421e+00
-3.484752897046179854e+00,-1.781965195285267312e+00,6.664802739363114625e+00,-3.355361213079528504e-01
9.608536172773805006e-01,5.099401204832791912e+00,-6.233834636605003476e-01,-8.526257596400349525e-02
3.065524440567597875e+00,-4.607830849030275289e+00,-3.927597590515183867e-01,1.454333192061998181e+00
3.430098155222220058e+00,-8.189809925025086201e+00,-2.297642399779733946e+00,-1.110227093340425464e+00
4.072311278249642008e+00,-4.545229121058302013e+00,3.880250334663964740e+00,-3.041851157214312332e-02
1.784684753344184083e+00,3.363448817855212436e+00,1.543160636140723296e+00,3.664364826143937215e+00
4.382854183070214127e+00,4.976962237893659768e+00,3.192149884110679015e+00,4.251527758226151477e+00
3.149181594082994806e+00,-8.413469357454769204e-01,-3.830804484640009555e+00,3.756212577764713512e+00
-3.842840845731994026e+00,7.065015758028692971e+00,1.937387415377409994e+00,2.417615037945950007e+00
2.851579629196611787e+00,5.949551169803483752e+00,4.235347575743868553e-01,2.992251249377398281e+00
-5.517232528994025387e+00,5.281998221816342820e+00,-2.050193841719586185e+00,-8.468955792494355928e-01
-5.993273509266322741e+00,5.013537653479277267e+00,-4.553477653473398945e+00,-3.301987159689915519e+00
2.895053535817181167e+00,3.297080516987827559e-01,3.639198593687432925e+00,3.324345225346054811e+00
6.342705681217991609e-01,1.814135739675113657e+00,2.941337787364288192e-01,3.111812510545644450e+00
2.205994661102636201e+00,-3.025051413091938368e+00,-3.266308384830495459e+00,4.800630731224860170e+00
-1.009839913728974192e+00,4.566583941784160494e+00,-1.568355255862587505e+00,6.665899359799989377e+00
-5.291004443807926366e-02,4.923364259505715879e+00,-4.122292183863010551e-01,3.332756947692884220e-01
5.236486548648048078e+00,-4.255835110532863119e+00,-2.134300052575720752e+00,3.553678063999959336e-01
-8.041138524914162033e-01,-7.308144873095915095e+00,-2.614147325873428684e+00,-1.041669059265110997e+00
3.661943654808081039e+00,-1.748144069481127216e+00,-3.381097003681422297e+00,-9.476646833569898343e-01
3.984571427474717931e-01,5.373182809173523644e+00,2.751114467751285542e+00,5.848106851399884620e-01
2.959911656730353169e+00,-4.513898618957621345e+00,1.209387321546390393e+00,4.444127340072707155e-01
4.068022026591825657e+00,2.652797877746828070e-01,-6.082351063282390946e+00,2.184554490108060243e+00
-1.945638036460784592e+00,3.822415135160352140e+00,2.778023576331058120e+00,5.769368372080632135e+00
2.809131974070556481e+00,-2.121302214867626379e+00,-2.158912791536369280e+00,-4.896845297429545774e+00
3.913910897631949770e-01,-4.637423509172815095e+00,-3.104053633744130458e-01,-1.729918867096043922e+00
2.205830205555366075e-01,-1.802247833208803218e+00,-4.479404121681581863e+00,-2.091796537705634673e+00
-1.754993078507268711e-01,5.935889067601922697e+00,2.862690118842938336e+00,-1.422591307877268063e+00
-8.523818672566869648e-01,6.932405575040800905e+00,2.461389274827500806e+00,5.859510560273005986e+00
-5.512717926293510651e+00,5.531965868294510535e+00,5.482853389001584032e-01,-3.762002505662207064e+00
3.110283459919682691e+00,1.979330979509021926e+00,1.009461299005629309e+00,-7.309598614564398744e-01
-4.928526467780220521e+00,-2.540502083108400644e+00,-3.331015993027018229e+00,1.958748335683319075e+00
9.465247938533032368e-01,-3.731207816026568640e-03,-1.831165821235339441e+00,1.178697240427589499e+00
-4.567557206759603972e+00,-2.449789413795516069e+00,1.712579011682134889e+00,-2.446872289909425735e+00
-5.515592484925406325e+00,2.782738103134782648e+00,2.085645808190383033e+00,-3.897935240787305133e+00
-1.289282964297468581e+00,-1.435423792813916410e+00,6.754707785630969852e+00,-5.071243937432622140e+00
-1.310562763907009654e+00,3.157414859535765839e+00,3.984246901722121592e+00,-3.559244454716609329e+00
5.821171197181181256e+00,-9.241858378830174470e-01,2.631490534425152905e+00,1.210180952570259372e+00
2.354515477788384104e+00,-2.543873431557156728e+00,5.248423182664478048e+00,2.487043954865959083e+00
-3.595346886317788204e+00,2.968412782694994423e+00,-4.405770573276438284e+00,-3.874470374101162129e+00
-4.041505650821814455e-01,1.643332421060272219e+00,-3.044536167640227386e+00,-3.476641221209811672e+00
4.114644720916449394e+00,-2.374621508045053453e+00,-4.682467430174061640e+00,4.184526040908465916e+00
1.839799332520582809e+00,5.126549784997237680e+00,-1.636990615153931738e+00,4.786631319338534141e+00
-9.365921880332058747e-01,2.775356272916148725e+00,-3.337943848299786520e+00,-4.748471993794303181e+00
-7.690819014357748173e-01,2.730893823275664545e+00,2.921292848408605813e+00,5.744087083703356633e+00
3.413756488668852285e+00,-1.130607171974541858e+00,-4.241231044706476716e+00,-5.392291664432278253e+00
1.080000324448274096e+00,5.669751024124100702e+00,7.854569495742169671e-01,1.269234293758961796e+00
2.288472088494263978e+00,-1.129226757974198581e+00,-7.859904732750694345e-01,4.793021164251991539e-01
4.054105716654254898e+00,5.423216960051344238e+00,7.159255226087429813e-01,1.081270088166053633e-01
4.735990627567268518e+00,-2.119691759708819401e+00,6.580844452830011626e+00,1.608536345321057048e+00
-3.999495174173487655e+00,1.658259703130357643e+00,4.254445211020622786e+00,-1.787810486834810142e+00
1.240512674972994445e+00,-2.074508367744035908e+00,1.357291966796266625e+00,-5.761063264804724859e+00
6.309114318254550602e-01,-5.771213188841577413e-01,6.390359675322843103e+00,2.608086581405466564e+00
-5.608412690853261218e+00,-2.383674815282208037e+00,-4.128457814149007810e+00,-1.477198418154836324e+00
-2.524313043262799816e+00,-3.597970152667242516e+00,1.811363015607599047e+00,3.646837421517235001e+00
-1.061752787635038109e+00,-3.449576803692196769e+00,-4.177368116383960661e+00,-4.987567906967768749e+00
5.155272786411074115e+00,-6.294277025512759138e+00,-2.133929627669697293e+00,5.891869368752867819e-01
2.209419504720398775e-01,-2.812481102277687217e+00,-3.879749411195091202e+00,5.581109567137533922e+00
-3.457767800598522623e+00,-1.311192416042442410e+00,1.871060955301242279e+00,2.400567336652079220e+00
-3.394680672895891149e+00,1.275207296382775857e+00,-4.824134288230355061e+00,2.566054120000091476e+00
3.927040017768240965e+00,-8.433134302878427802e-01,3.690469497936380350e+00,1.424562138139384704e+00
-2.915524911746633308e+00,5.797055972988160555e+00,-2.158757472675634670e+00,5.492312955444146105e+00
-2.570258521059782364e+00,4.538996230015107103e-01,-3.213810580670246164e+00,2.068121770593814190e+00
3.870716494975862343e+00,2.049364279483073314e+00,1.461126131779355575e+00,2.418313566191509167e+00
1.114332804123109755e+00,-1.837308851368530949e+00,-4.962267452130930123e-01,-4.826221092456202122e+00
-2.293587395931095507e+00,-3.946360710131082250e+00,-1.040197690304530020e+00,-4.647621320157792058e-01
1.818081355961377765e+00,-2.559923274922318637e+00,9.873517283503030484e-01,2.234489994447329764e+00
-1.936676854037519213e+00,-1.701793468428515421e+00,-2.205013740646724063e+00,1.788129272768319566e+00
-8.500269757212080002e-01,1.526028758306453126e+00,4.808184275538830654e+00,-1.291852397221708637e+00
-2.561998620613409106e+00,-2.723440491021864029e-01,8.353022605313087379e-01,8.638890388245449303e-01
-3.830212777449746753e+00,-4.570770764556213450e-01,8.253964285213578611e-01,-1.071791152891459875e+00
-7.022957050397321543e-01,-4.227391553392121359e+00,6.923964151079454732e-01,4.808081211753750139e+00
3.794508847741782986e+00,-2.893260357206432598e+00,-5.260422068871062340e-01,3.754492554090708367e+00
-4.568143748651818825e+00,1.753601913212478713e+00,-4.185256766821105479e-01,-1.305724116779645838e+00
-4.160422559096112138e+00,2.651846171639860916e+00,-2.293236212907113547e+00,4.654708259847692986e+00
-3.332378175362811668e+00,-1.765536724349008046e-01,-2.954686795702124780e+00,-1.610961029173963777e+00
-3.477070004677123904e+00,2.329424053401805139e+00,-3.041492914437784911e+00,4.073490207279446551e+00
-2.317576287978683425e+00,8.600075896864430858e-01,-2.730307617235718798e+00,2.938188164107305322e+00
4.149778439480103387e+00,-3.722085437340377556e+00,-4.089957455215597060e-01,2.060882212888105691e+00
-2.893772365879886621e+00,2.946335303291736984e+00,-3.430935651216078686e+00,-4.486566970723761649e+00
-3.762094211208109495e+00,-2.068124929494910447e+00,-1.333399388914157546e+00,-2.707276175469957913e+00
-1.709987174661841414e-01,-1.981262355134302711e+00,2.200844795622781902e+00,3.636097099569192803e+00
-9.488010525701670028e-01,7.505876319237483330e-01,-6.226953030051936899e+00,5.179289856914976120e+00
2.111554651684102613e+00,1.272186120797334619e+00,-1.260214738309500371e+00,5.347477693570515278e+00
-3.813876772883286748e+00,1.453723493177694781e+00,-4.443758655235400923e+00,4.386883305891334572e+00
-3.999304521269751445e-01,-1.275082691855069505e+00,3.391470972805642692e+00,-5.313984164124136100e+00
-1.935125279744456459e-02,-4.066853223731113687e+00,-2.831860449781850697e+00,-3.664839502546124894e+00
-3.346969931644907970e+00,-2.667034939199516952e+00,4.320779469166984299e+00,5.389396430890831091e+00
2.273873838858061269e+00,-6.402253263387964743e-01,2.438261200231178538e+00,1.344989838222723444e+00
1.569514929399973280e+00,3.581263324225438804e+00,2.879369179713045845e+00,2.713480012405030894e+00
-5.098914528492580756e-01,-3.437091958435508410e+00,2.549625133885072836e-01,3.554249394457847711e+00
-4.416596558961775720e+00,3.819975406270653018e+00,4.084581050330595708e+00,-1.544670095362020046e+00
1.650489017960576899e+00,6.992852682957622079e+00,1.654899430862908805e+00,-1.799201671133390246e-01
4.328172746230751322e+00,-1.637084527296785774e+00,4.476406846388322869e+00,4.837166887321439623e-01
4.000243557876151712e+00,-1.723877537578748065e+00,-6.311364134014947336e-01,-1.763715052184209320e+00
3.398103773745360101e+00,-1.294012218938531245e+00,4.146581191346646045e-01,-6.886682661771795111e+00
-5.253786914388612672e+00,-2.808438657340422751e+00,-4.397127939000407437e+00,-9.230520008617999483e-01
4.112066622472432265e+00,-4.356397650594660220e+00,-4.127188702867632841e+00,-1.618226172313645295e+00
-4.218000668643901996e+00,4.664880317484779937e+00,-2.624859544580165238e+00,-2.454498582767231096e-01
3.381763084273424091e+00,-2.133219507480926147e+00,6.485292911586391540e+00,2.870118391912733991e+00
4.396742779672733192e+00,-5.630337787087591472e-02,-3.126285794414708441e+00,6.592931838892772678e-01
-1.423079279384479756e+00,4.047356384614863245e+00,2.808342066801578607e+00,-2.726994377856138296e+00
4.692581765786640324e-01,3.010872034721360446e+00,4.027194552030581298e-01,-1.782732052201793316e+00
-1.039139143083805061e+00,1.423318304992327865e-01,1.571822429967174806e+00,5.442217029456538846e+00
-5.556226403890018872e+00,1.504896568753250508e+00,3.220107222801944502e+00,-2.323634310606457642e+00
-3.023227900086764119e+00,-2.831092367341931482e+00,-1.253290383170662547e+00,4.211739096024246232e-01
-5.062682395276629777e+00,-9.219229257559181656e-01,-2.163830270396526478e-01,1.913354788331359968e+00
1.979384667217977678e-01,6.933144541445154241e-01,-3.537442415566145915e+00,-5.179317995410896991e+00
3.338430384223746383e+00,1.323269798110396023e+00,2.558469285356601564e-01,8.781450658438000323e-01
-4.728003807207026843e-01,3.937609946361851243e+00,2.292007222075783002e+00,-2.252342509825661310e+00
-2.061902159379783495e+00,-2.485453902251290259e+00,7.368951945706281315e+00,1.503652368594204258e+00
-7.940209624510471964e-02,-3.700875342749090358e+00,-1.655316400091527473e+00,-9.554036082434261834e-01
-2.881320545774750386e+00,5.159665137370776478e+00,-2.943099253247154934e+00,2.207025180418924482e+00
-5.446032281909680695e-01,-2.284591247821424087e+00,3.527790802273913062e+00,3.459140224622710313e+00
-4.369335709395120837e+00,-1.464583959044716943e+00,7.083968868026691013e+00,3.593545403660248994e+00
-1.853372818283308243e+00,-3.224464422097990557e+00,-3.008164803964951783e+00,8.825489703139723918e-01
4.578153403041869574e+00,4.189210721349976296e+00,3.045016737358882786e+00,-5.695360078758675115e+00
-6.111329543321502911e+00,1.426095759772612048e+00,6.262007724660842989e+00,-1.283021087978806429e+00
5.014382653848043603e+00,-4.482136288831106707e-01,5.252366421545686670e+00,2.489315599075162311e+00
1.276960132823328653e+00,6.960478530375591166e-01,-2.789223050968713036e+00,3.962082766506432652e+00
6.436852997483024641e-01,5.803761805183680345e-01,8.442509986660272359e-02,4.096127521687642492e-01
-1.308758174655940243e+00,-3.131293203101411571e+00,-1.738035341078376206e+00,6.246447102296486698e+00
1.550394408461578832e+00,1.708686396515415096e+00,-6.702015462421854863e+00,4.124347334392869158e+00
-4.362217146594881356e+00,5.445508205420148684e-01,5.085570078238510483e-01,-3.950407774153340323e+00
4.534972533452628518e+00,-2.706902036289920432e-01,3.822618937165410014e+00,-3.574619676293214532e+00
-6.403742712046933683e-02,-2.620846350011991621e+00,-3.309032100748014127e+00,-2.251747993523570912e+00
3.130981884149719896e+00,-3.007211426888709127e+00,4.835706727897304269e+00,1.461721567839170399e+00
1.591697190700194664e+00,-2.797992545272388387e+00,-4.187907247068904049e+00,-3.208530539987503705e+00
