-8.300107405510912528e+00,-4.664989058525721433e+00,3.726162140998085626e+00,-2.843157153841703311e-01
3.370952755091695785e+00,-5.879461567542266565e+00,4.698178642359491342e+00,4.143277099016539622e-01
6.753133406866055566e+00,-6.157988398108862782e+00,2.560915741558629666e+00,-1.360312295226383528e+00
2.872068314127271815e+00,1.040486721270891257e+00,-5.656470414351139731e+00,-9.408672796352158585e+00
9.006810458304838063e-01,3.424765398763166768e+00,-7.650860731352927324e+00,-3.451817937718516305e+00
-8.087195476962723006e+00,3.759511582072319058e+00,-2.582994092711381917e+00,9.964543214539812732e-01
-1.434507088462470437e+00,6.172646619476593877e+00,6.832890013974382448e+00,-2.695067276268812706e-01
-8.483337493672729046e-01,7.807589084091191900e+00,-2.833145643613690812e+00,-6.826848059757845810e+00
-7.484094670791908932e+00,-5.184499059904007723e+00,-1.025151844919008903e+00,1.947959602070076457e+00
-2.991604902833823409e+00,6.959632253029547577e+00,-8.377070302041211391e+00,-3.695565379523919614e-01
4.842153250885743859e-02,-2.831538689014582388e+00,8.836794983304610440e+00,-3.469876581162673279e+00
-5.028646931558142796e+00,5.970809712937105829e+00,7.070450963667402000e+00,-1.149209768251338470e+00
-5.072162941592954333e+00,-4.082115676840439633e+00,7.184342834058040417e+00,7.432505387222834159e+00
-2.792696297699563068e+00,-1.235557184595746372e-01,2.570528616685096690e+00,-7.371517747582017055e-01
7.174102008648616247e-01,6.908219873223485408e+00,-1.721152263241360059e+00,-1.313763649908444631e+00
-1.877247398835042880e+00,2.753364913001457026e-01,7.906986047524639183e+00,4.884262601928538672e+00
-5.872247926731275630e-02,6.578208847011709715e+00,-3.733765697867347466e+00,-7.569397585481174140e+00
1.153298678002496969e+00,6.687473070681617671e-01,2.774571263185450221e-01,4.697927234995939116e+00
-5.251074011965666699e+00,3.792206930377721719e+00,1.939589857592777911e+00,-3.454131865286544034e+00
-4.025017512202654579e+00,6.712084559842721454e+00,3.738780787426216001e+00,-4.027264474561139118e-01
7.414487073208073653e+00,3.468047503755441241e+00,-5.954356068977300076e+00,5.164599319772335662e+00
-6.660824056584039310e-01,1.864693489303160590e+00,1.847989986705472987e+00,-7.983665842452354333e-01
-5.594709852454194943e-01,7.417827439008913615e+00,5.878469911442514295e+00,1.068031765561989666e+01
2.162849857111547536e+00,8.531682743903136412e+00,2.834409081704502231e+00,3.233127794881596184e+00
-4.706102027661926424e-01,-4.971132267839988295e+00,2.767966699941772468e+00,-7.910473283387566834e-01
6.222792250982581486e+00,-4.754756119320439289e+00,8.389139294470394859e+00,-2.557071174657703949e+00
1.958281667120749026e+00,-2.355593957753623346e+00,1.214634033844044003e+00,2.623063713590818136e+00
1.512337186945709622e+00,6.878290632386842240e+00,-2.454446894725141881e+00,6.726492069537895802e+00
-7.125553191538658737e+00,3.509248731119226861e+00,1.469682230450599869e+00,4.732251876382824463e-02
-9.689323420652907970e+00,6.723123775610971402e-03,7.952434427574916143e+00,-1.792810833385550362e+00
1.463616603945721462e+00,-3.987275815079426522e+00,2.914986005092683907e+00,-8.664334340609765039e-01
6.314435139147105858e+00,4.015822952557813075e+00,1.119304849697191351e+00,-4.257878696957956954e+00
3.177993914142608123e+00,-4.329987444106277117e+00,1.490891741398185033e+00,-7.503240160616984511e+00
-6.847758829567390571e+00,7.457313088877103979e+00,1.712488901862464941e+00,-2.433791848933160473e+00
-1.364579110763538550e+00,-7.026302085299033884e+00,3.538713875762751648e+00,-7.497537897483957714e+00
-7.971513537197024490e+00,2.345967332981934383e+00,5.077023108078430269e+00,1.303414071877138536e+00
7.600843151442294499e+00,3.420818100131314266e-01,-4.594403478064646329e+00,1.312742938341645127e+00
-3.375495949161470222e+00,-6.499732207571352838e+00,-5.093846521924865201e+00,5.643947719922931761e+00
-3.804901876930589122e+00,5.061545299276524190e-01,1.569221722852267575e+00,-8.913300139083917273e-01
3.817316760446857415e+00,-6.314599665617067537e+00,-4.803934699889023996e+00,-3.616354858233798986e+00
-4.023845249626981646e-01,-4.553942283631354115e+00,3.381800432325003491e+00,7.076700206819963590e-02
9.504602444940667638e+00,1.572665979293293548e+00,5.330267237842842398e+00,-4.833003625370921874e-01
-5.654999303952449985e+00,7.621683750287950865e+00,6.094837723791600936e+00,-1.598738946174820486e+00
5.452232078591169540e+00,-3.616821839206772360e+00,8.679641117884246526e+00,-5.163981287557625421e+00
-2.018348400771207807e+00,-2.824253416319991494e+00,2.575307592415924773e+00,4.214785538642287221e+00
1.124429567114420081e+01,2.584771250322713598e+00,3.241237714660087033e+00,2.603890408575685100e+00
7.505466406424305070e+00,-6.814547790801023019e+00,-2.218280928432259103e+00,1.061869194121774385e+00
-5.578027250908091261e+00,-3.561191083570026450e+00,3.905446622739574103e+00,4.327106779165861283e+00
4.830577567074604950e+00,-7.664176428258718587e+00,3.509956518455635610e+00,4.418244289688622928e+00
-1.046658865666100269e+01,-1.782224293626334388e+00,-6.036349181315511458e+00,-2.807721502990812912e+00
4.958762509789763406e+00,2.080990808408219817e+00,-9.014749974725125625e+00,-2.413705967048689893e-01
7.070959486823038986e+00,-5.184427109141806156e+00,8.130544258393022972e+00,4.269275737554495187e+00
-2.022357033717543384e+00,2.037718418904384876e+00,7.443759587825515389e+00,-3.003190676354954736e+00
3.627894608911439445e+00,-3.103318962418512683e+00,2.884030534275158431e+00,-3.578198649188159663e+00
5.978683602773386951e+00,-3.242291201669608824e+00,-6.202126494098756382e+00,4.296689390982580292e+00
2.143500164818527232e+00,7.248554114055652420e+00,4.927263972455748764e+00,7.668479277993357712e+00
9.591863290697952849e+00,-5.180506465381855996e+00,3.790222862780044277e+00,1.679658095503022031e+00
8.516565688515790100e+00,5.139347050750536106e+00,-4.101192137901144008e+00,-3.836013592442125697e-01
5.867503882914374636e+00,1.877068919519480072e+00,3.160316844136195513e+00,-3.927668534715775261e-01
6.236437910793751982e+00,-7.792310823610058890e+00,5.160010406045897113e+00,4.402322863116616247e+00
8.863455439930429947e+00,-4.516297879245681379e+00,-7.460516246166865706e+00,3.480137152157216640e+00
8.590740571351224375e+00,2.208339424272535378e+00,-6.736757766173356643e+00,-1.088707535948579164e+00
-2.840940914958507424e+00,-2.979507474332394185e-02,-4.974515728319970798e+00,-2.091001372010433956e-01
6.884372276349441044e+00,-6.386309162983683230e+00,1.903834372596461710e+00,2.170380525460572918e-01
3.090491248382108425e-01,-5.278170662552959413e+00,1.722379445507363327e+00,-1.332999701658373448e+00
2.035642932443997299e+00,-4.681877046929397990e-01,-7.978953217514781926e+00,2.511486483761212529e+00
-4.410620538474858243e+00,4.425640616793773852e+00,3.140268073197563847e+00,-4.313130184557530278e+00
-6.221584554689993496e+00,2.619463477448359168e+00,1.275902431085148558e+00,4.046764802151376017e+00
4.586275072838041922e-01,1.631930147397004927e+00,-6.552026540365383234e+00,-3.541662797842374921e+00
1.576251673347798810e-01,3.484412078135609825e+00,4.165635686768599300e+00,3.191579503102019544e+00
1.420969372266153607e+00,-7.884947570947930195e+00,-1.013328403578908521e+00,5.353763281896537940e+00
-3.945109786639358074e+00,-5.169434453098673110e+00,9.643397524720235481e+00,7.792885699370197372e+00
3.787510919851704294e+00,5.284372258254805388e+00,-6.143705975476592585e+00,5.525292137060628939e+00
-1.033549733538654714e+01,-2.021603980064301087e+00,-4.376183153132078729e+00,-6.863902263290706518e-01
2.123324511649886670e+00,-1.763726796412575126e+00,-2.203496706218368573e+00,1.336538328743052562e+00
2.206001148841010284e+00,-2.793952971589025669e+00,7.879659135663652947e+00,1.630552655438770593e+00
8.682885997337937312e+00,-2.686892907032048416e+00,-5.953855714804522137e+00,1.714368240317563963e+00
2.409964272581310407e+00,-6.876746359882343285e+00,-4.140029684754686023e+00,-8.656979653249178952e+00
-2.121974886420104067e-01,-1.920226210215761009e+00,7.274239963247163265e-01,-5.858599912651844654e+00
2.542517177706119735e+00,-3.472102059784723416e+00,3.497483352757776442e-01,-3.550383316091125341e+00
-2.905304433959768229e+00,-3.459472222259158514e+00,-5.777702131065628244e+00,-7.256565025264733571e+00
-7.616133190793060059e+00,4.333990297657456914e+00,-4.165075405150916232e+00,-3.885112292837128223e+00
-6.127597362056215857e+00,-7.865132263131542345e+00,-5.300144254519517872e+00,7.786382563963281989e+00
2.160610750567765415e+00,8.391137515084725607e-01,-7.580923503224508586e+00,-1.800478774068023480e+00
-2.065757509398482128e+00,2.422388757200606146e-01,-4.179571600940410470e+00,2.546862494893976425e+00
4.069091760903629229e+00,1.397376214453015741e+00,5.756355738663541111e+00,3.032009536724356913e+00
-2.566045734950292423e-01,1.598865719182954503e+00,-1.343224417523640080e+00,-2.675641645383912248e+00
1.061951234007731948e+00,6.438226964573859235e+00,-2.176962114425634309e-01,2.337913808136268035e+00
-5.052284308434716875e-01,6.621060380199236484e+00,-3.933000163539248195e+00,-3.261261433983557279e+00
1.551784847756229047e+00,1.748819850797921571e+00,4.641885288193744685e+00,-1.034121871656056868e+01
-2.080274154287025945e-01,1.578277197271428456e+00,-1.631239744192245489e+00,-7.549654620747429767e+00
1.175955492901818333e+00,-8.467554606135726303e+00,4.182155431097548393e-01,4.705869631417361476e-01
7.457603242213424188e+00,7.141057852983639265e+00,1.175768490906569319e+00,-3.552603328571485974e+00
3.330102624266190858e+00,-4.799530406559829210e+00,5.043294914925930073e+00,6.580851047451156788e+00
-3.157904813881955430e+00,4.267313788053512802e+00,-6.053693703095500922e+00,6.366911309813950481e+00
-2.920303420762538238e+00,8.401044396179189633e+00,2.996245957760616641e+00,2.412942016575886583e+00
-3.594893586485305992e+00,7.389887053769986558e+00,-6.398317826437772915e+00,7.286354226944403933e+00
-8.916814474669225277e+00,8.137825605763676640e-01,3.255374207278052268e+00,8.837010602582611174e-01
-4.011262303255816453e-02,-7.660557126914769199e+00,-5.861927604965340155e-01,7.861714012796598539e+00
2.377687781739571182e+00,-7.706629741778412424e+00,-2.235344355889079093e+00,-2.479989610118902843e-01
1.831154684037887836e+00,-5.994528308467468314e+00,1.502614886938818728e+00,-9.373336609023416699e+00
8.130808093266125525e+00,-4.134066533811223465e+00,-4.017023196224027259e+00,2.627660834564139236e+00
-4.985294042370842504e+00,6.862497542027833575e+00,1.144016671475184543e-01,-3.275500138033208497e+00
-3.012697943740041850e+00,-4.900659655309868690e+00,-4.214338998537818348e+00,1.251724452510580288e-01
5.647822573320224748e-01,6.383445370548473718e+00,6.459310385255268017e+00,1.429594684298542973e+00
1.153988216694336932e+00,7.317184107178484886e+00,3.494969445377735351e+00,-2.413979855908786387e+00
-1.425782614871558218e+00,5.638058277236225102e+00,3.404783955851461208e+00,9.682815537230242242e+00
3.893303075780171874e+00,5.587842098789929324e+00,-9.126567587349690314e+00,2.378691654224490470e+00
1.708122451258427432e+00,-4.603086898905104363e+00,-3.947140533769000204e+00,-9.988648022952414607e+00
-4.863098066150315368e+00,9.640329738898545386e+00,5.280359862316019282e+00,2.997374755437726801e+00
8.581208876798344320e+00,2.541622635852591294e+00,-4.633859228054634016e+00,-7.902296867288362003e-01
-1.918146255908546705e+00,-1.660689646446454448e+00,8.362173891174084162e+00,5.241731818373168039e+00
6.023530161767116642e-01,7.055604141942379837e-01,-3.275367954682360860e+00,-5.456580305534479258e+00
2.736870447048361132e+00,5.156373292784913076e+00,6.458016252538725688e+00,-1.019550786330933256e+01
-6.329653787451199332e-01,5.074708063562522575e+00,-5.065824609829095770e+00,6.466802081840406835e+00
6.165162346250947500e-01,-5.363494598118661472e+00,-6.113699052786695454e+00,-4.718554135930287607e+00
-7.545612125070519927e-01,3.814728102440975377e+00,-4.142033397770468639e+00,-5.724548204840051113e+00
-1.061251962687828865e+01,-4.906621631110624548e+00,7.074525832338349751e+00,-3.202044410660989548e+00
5.773247105186527506e+00,4.930921722698317744e+00,-3.481180559839956334e+00,1.110225851159262644e+00
1.923710877335269576e-01,8.118509625640331961e+00,-1.230042132548760048e+00,1.745606165570601886e+00
-1.473542542004315559e+00,8.118940851926259583e-02,4.471567965631574104e+00,-1.127112237114481719e+00
-4.949954086827958122e+00,-8.374131810627107875e-01,-2.440095281010091988e+00,2.454471723107676695e+00
-9.813266105293185770e-01,-5.730671477726812846e+00,6.955533019116243665e+00,2.780178764155608606e-01
3.703910207193997994e+00,2.350803497163020950e+00,3.505898539127315860e+00,-7.705822945223529175e+00
-7.613770334003719498e+00,5.200800087900204538e+00,-3.019416055245588648e+00,-2.961765792653589191e+00
4.776485597160167629e+00,4.342142916770669103e+00,-9.249015636918269223e+00,-8.260067016194081901e+00
-1.596048167759423375e+00,-7.281173862465495361e+00,1.604667526914171916e+00,-3.244502928375190276e+00
-1.792226415998226408e+00,4.129385834546698497e+00,5.365417097918818712e+00,1.027595391132647862e+01
-2.295695374089224305e+00,6.067625440125028469e+00,-7.918430069705992835e+00,4.048605471231152997e+00
-6.278908621211754415e+00,-8.222049506363251492e-01,-2.886746102499130995e+00,4.969381206536280793e+00
5.067849798433715414e+00,-9.239567497053924328e+00,-7.085426565858297943e-02,2.981576066073362164e-03
7.436704015475031904e-01,4.943961728828034197e+00,5.016531600476033859e+00,7.669800286258730004e-01
1.958613520747482184e+00,-8.773823158312082926e-01,-6.091433556098814428e+00,5.797471749507668193e+00
-3.642691768226951954e+00,-7.085910924874136541e+00,-2.278133354635230923e+00,-4.269678576180815810e+00
8.798782319213298564e+00,5.279639391909377366e+00,4.997930460332109665e-02,-2.234562121226864484e+00
-5.277983525905032280e+00,-5.416021949886678399e+00,8.826391482876072558e+00,-5.999271457546264230e+00
-5.507790306796898960e+00,1.251691232413770338e+00,-5.524264580089501386e+00,6.089821795448023600e+00
4.225591373283353214e+00,3.217123249243728722e+00,-1.309774900356309188e-04,2.644351162185387238e+00
-7.123857990241116767e+00,-1.831851129662208866e+00,-2.337060627131227086e+00,2.542788451885083401e+00
3.283450063253282813e+00,-6.339198983360807560e+00,-3.620495969484113452e+00,-5.983853985391631713e-01
-4.866335482316427985e+00,-4.697625636545771144e+00,-5.886634818633160293e+00,5.634727922160248648e-01
-5.243017884089414160e+00,-7.240828403146620795e-01,3.022582516663101959e+00,7.117346310181087432e+00
-3.265586230348508923e-01,6.637049544387000566e+00,-7.253955663606145521e+00,4.780971525435016467e+00
-7.506695366210090370e+00,-3.555762157579071547e-01,-6.797735468867575293e+00,-2.245615929836477953e+00
1.484040758245876779e+00,4.004954786824241886e+00,-2.894457000745608966e+00,5.076267565448024932e+00
-8.627793906713508321e+00,6.540124697719020830e+00,3.103748071025645761e+00,-1.782810472026892468e+00
-3.394744241212339197e+00,8.154034993089164018e+00,-3.788084200738995211e+00,-4.419603871974116416e+00
-8.630157240917696315e-01,4.899589973613189819e+00,5.554520037847007430e+00,-7.794888814816858691e+00
2.393416517592721782e+00,-4.530678208199878654e+00,-3.243012375869145814e+00,-6.366962369558636148e+00
6.150326822702075980e+00,3.839676167932346118e+00,4.560045884949410211e-01,5.973584418671752161e+00
-1.063757489227379338e+00,1.211827706761149148e+00,1.059619399145914409e+00,-7.398834795697755595e+00
-6.847250569209617055e+00,-2.984556440532832866e+00,8.070221300199222014e+00,-1.652658427424345877e+00
-3.638371101482549275e-01,-8.778014296271251737e+00,-2.558869352652815010e+00,7.310508692797108132e+00
-9.572662695265726773e-01,1.352658055325520081e+00,-4.929073590855423070e+00,-7.223741406725713077e+00
-3.396662813263779057e+00,4.234837662114486534e+00,1.256460485380225922e+00,2.026389390126888956e-01
-1.298048100306893327e+00,2.130233131697219395e+00,-6.843235854814916586e+00,-8.221013621813074934e+00
9.475059604267656255e+00,-3.156032281527977101e+00,2.235592461384836138e+00,8.949274109641974784e-01
-3.368347895467170172e+00,-4.638282812154648660e+00,4.523259431818349441e+00,8.974977523923755030e-01
1.694304973178359264e+00,-5.107380951268924107e+00,8.652480245070401921e+00,-7.528454934862680581e+00
-5.881022110876691356e-01,5.148612398168337378e+00,-6.860764715904763555e-01,9.298722401354083678e-01
-4.031646903615636823e+00,-1.187789746422801995e+00,-1.048857642421280767e+00,-3.688965668477028004e+00
-8.749043792964091848e-01,-2.867139588215286139e-01,-5.263121336615004253e+00,7.387193265189088143e-01
1.587166869830487936e+00,-8.082338799427031539e-02,-6.155340278489295436e+00,4.387859364471510482e+00
6.968376558968898848e+00,-8.842627709711065265e+00,2.153371195614473876e+00,1.824863485896375481e+00
-8.680810262747444384e+00,-4.108004398348113817e+00,2.880409180739466279e+00,-4.417261108365783784e+00
-6.451050838623927142e+00,7.674557569661793366e+00,-3.780529191158329638e+00,-3.279568437172413753e-01
-8.311018705585800248e+00,-2.708507083154219064e-01,-1.444915452932439948e+00,-1.194047515952364691e+00
8.651565490889920440e+00,-2.758831949479453094e+00,6.313797842779344194e+00,3.491271112847735836e+00
-1.960784598506474907e+00,9.567108267552479006e+00,4.223209365971354323e+00,-6.255129377695992865e+00
-6.383248734190178908e-01,-4.661071070928337612e+00,7.058812540629581633e+00,8.564203399458436561e-01
-3.774215830585642806e+00,-3.034550470639364672e+00,-6.408919968979393644e+00,7.282934445708981741e+00
3.345720984954020594e+00,3.794509962735594488e+00,-1.334759853171084920e+00,7.069035199261095137e+00
-1.191903883550869292e+00,7.278560325706023626e+00,3.000896011974850452e+00,6.333836450506684201e+00
-6.017631761321512229e+00,4.896550826067153750e+00,-7.014282556158828896e+00,2.700698997381568489e+00
9.569010552336389974e-01,2.514579825689305936e-01,-2.289817663364914324e+00,5.337869816666648282e-01
5.966359136435175792e+00,2.207733820148440440e+00,3.944671246546586629e-01,1.180346421869157947e+00
1.317920502376249026e+00,4.772847439048440776e+00,3.324379614552274376e+00,-4.138835790874948906e+00
-7.679281276245937260e-01,7.302062843988779584e+00,4.066668063632816299e+00,-1.380236545088536326e+00
-3.339507657256782114e+00,-3.850399807247471884e+00,8.855179926290384529e+00,3.409773378201942373e-01
-1.815206188770090101e+00,1.305460837324840417e+00,4.962607579072961350e+00,9.008210932996776776e+00
3.241660029257544817e+00,3.037487283204444388e+00,-5.471277259509088609e+00,-5.605479138271352468e+00
-1.406137676742161169e+00,-1.270232717425628044e+00,6.534675275920704074e+00,3.493869204152682872e+00
-6.403884422083351069e+00,-2.530449212422714922e+00,-4.525923746578501827e+00,4.146673121024827324e+00
-2.573578307453862291e+00,-4.606004889573515726e+00,6.843247521439702830e+00,5.127144673999974422e+00
7.870624653807876570e+00,-4.346677731192047034e+00,-5.093810251571694536e+00,3.770451623885527237e+00
7.286702320433581903e+00,5.963879598642559676e-01,3.202727442597139706e+00,-1.039878376580089803e-01
8.164801064864965485e-02,1.611198598071822197e+00,6.005736329967990450e+00,-8.259805336743836435e+00
-5.571762610135574612e+00,3.608023913908848801e-01,-9.048608798270136866e-01,-6.450408382441011890e-01
-5.598830289907600566e+00,4.508706252875332332e+00,-3.016261799592461212e+00,-1.982928922520045711e+00
6.859943312219090039e+00,-1.038430207678770678e+01,-5.758627326250827849e+00,2.505009814975135196e+00
5.307642081017507785e+00,2.044592245374377559e-01,-6.936922870385823892e+00,3.274680800459727426e+00
3.586027932155748388e-02,4.040547162535050418e+00,-1.828212478049172418e+00,-5.210415284240913714e+00
4.417537260646995367e-01,-9.476053867744839820e+00,-5.855843108599691149e+00,-2.096200075299023524e+00
-3.878527938652116092e+00,-5.811439299743310194e+00,3.057892293912061188e-01,1.007103411104237267e+01
-1.246987094071645874e+00,-2.803131234410615402e+00,6.753944770781540541e+00,1.199358366189598596e-01
8.076130045954922565e+00,-4.327779150675644892e+00,-3.498095085421187300e-01,4.287498002701461419e-01
9.529775618513905755e+00,-1.532858648577245075e+00,-2.942510162689631059e-01,2.613652745734709626e+00
1.714676270274295256e+00,3.968369778981851059e+00,-7.040041312383992000e+00,-6.187565710833364818e+00
-1.374029776374733780e+00,3.039615059164578748e-01,-2.903056237869240608e+00,5.091095799149931267e+00
1.315246615264308527e+00,-5.675259067461961848e+00,-1.378523148329271475e+00,4.832608996088117337e+00
9.847261992200015968e+00,1.466513391757585216e+00,-8.050203211369145961e+00,2.158413268085914577e-02
9.917458825268274936e-01,-3.548640018262265272e+00,-2.296761448547083972e+00,-6.761014818645705304e+00
-5.395402017165456421e+00,-6.024059179712759615e+00,1.875337196399240736e-01,-6.847599636359954500e-01
-1.802458615190399849e+00,6.416981519701329795e+00,-9.439207539012357984e+00,1.010722289762995985e+01
-2.225320445825708371e-01,5.755575428587547115e+00,-9.170447436793542906e+00,5.499836456109184368e+00
-1.265770929986329785e+00,6.089626667300069407e+00,2.447229908168515600e+00,-8.106979531324533639e+00
-2.540595305528335235e+00,8.591879493730893991e-01,-8.086616728620333205e+00,6.888758687240810474e-02
-9.652469543185688838e-01,-6.778064585020331378e+00,2.547534103206945844e+00,-8.690312473813783356e+00
6.594896959834797734e+00,-3.662536866479694897e+00,-3.479933143957598229e+00,1.331691865342445213e+00
-5.800329507920470862e-01,-5.144766171820331024e+00,6.008333266122672711e+00,7.749255728678975608e+00
-5.668277634593822611e+00,-2.228774462454611527e+00,6.058569303112021132e+00,-3.211815147210946186e+00
-6.252674969349071077e+00,1.758580451580819437e+00,-8.864132852683123676e-02,-9.498661506837390300e-01
-2.788629961856025297e+00,7.644812921868880673e-02,5.996489019683565402e+00,9.324622748967321684e+00
-5.236432791265145603e+00,3.205028606098164090e+00,1.682474690991085708e+00,-5.984091462657825655e-01
-2.060524537304557757e+00,-7.622540620112796539e-01,-6.529088035285593783e+00,5.135524566668629998e-01
-2.622784377129296907e-01,-8.064991083636471103e+00,-5.383887047166196815e+00,-7.987691024487378222e+00
-6.191992909804050704e+00,1.014305298041520231e+01,5.802253716359709657e+00,9.712010553399197388e-01
-2.155387753944777884e+00,9.369727113146250064e-01,8.709764903281803916e-02,-4.894155042930851351e+00
6.220197312044944304e+00,-6.082568455147853825e+00,2.213305526652484811e-01,-3.714559817296001931e+00
-1.266296814298816908e+00,-1.298662705173730725e+00,5.961881668833199477e+00,-5.967772049257158429e+00
-2.442885443486457309e+00,7.622027672107795304e+00,1.135143002999084105e+00,6.920522804904316594e+00
4.068471845302500611e+00,1.078927511422536484e-01,-3.043042666140518104e+00,-2.154879358843063919e+00
-7.301700368825409626e+00,-3.208581775502715505e+00,2.945442369048516973e+00,-1.445017148364993620e+00
-2.790354266329664323e-01,1.920389671515163377e+00,1.210328123173057602e+00,-7.374516778104689418e-01
1.622349823072577246e+00,-4.913024347016968107e+00,-2.114456668458816413e+00,-9.830876288084965609e+00
4.299668107481330104e+00,6.879241313753383658e+00,-5.988293171385219438e-01,-6.884974897576049413e-01
-3.985861696603607007e-01,4.563721956502277521e+00,-7.835035990212404933e+00,9.048774844436649478e-02
1.105542003221916980e+00,-6.864570434612986993e+00,-1.462978590025280967e+00,3.649012997960477289e+00
5.192111003381046253e+00,-4.048927323367582432e+00,-2.514685260572070646e+00,4.593859937805690463e-01
-6.095614499466913472e+00,-7.168104744661870420e+00,-5.238585739714712197e+00,6.894866441885842967e+00
-3.278694307861539592e+00,8.038573048504551011e+00,-2.214068819672672106e+00,1.668589257377715018e+00
3.438952059671743111e+00,-9.353423454249135460e+00,-4.565381319092563395e+00,-6.756796655439316346e-02
6.885161454165470651e+00,-2.998401483708161397e+00,7.362650777350645548e+00,-2.819290505138113412e-01
-8.595285684653562797e+00,-5.829715332034443698e+00,4.180695857172840313e+00,6.652830288215076937e-01
6.769938820593550233e+00,-2.210728511880866165e+00,2.951186663721792502e+00,3.361502309291395374e+00
-5.014524259747527246e+00,-5.311517045289670946e-01,-1.852426024621420586e+00,-2.807599737375561233e+00
-7.999910431914197595e+00,-3.020936895162686486e+00,-6.593284789433659476e+00,-3.452020236919374874e+00
-2.415542887484030121e+00,1.005528793721701231e+00,1.423055488491111298e+00,6.727503107617605949e+00
-4.695820108107455759e+00,-2.389597131937037044e+00,-4.529790132957442594e+00,6.613628129101672748e+00
-2.071392576426152932e+00,-9.524727744229852799e-01,-3.345649057185224429e+00,1.563319804658889423e+00
3.219934929714422522e-01,4.715876181837206360e+00,2.952477769962496446e+00,4.758497259262838064e+00
-3.315371429418527249e+00,-4.684828234035536276e+00,-3.263659413187006475e+00,9.146379678325457618e+00
1.571154166424685084e+00,-2.873261729131347586e+00,-6.080863224373040055e+00,-3.768620009270448712e+00
3.786298837856417077e+00,-1.277464418291947457e+00,-1.746150314484623545e+00,-4.912656577342882080e+00
-4.384867946255099014e+00,3.948642415057642130e-01,-5.904162308046082552e-01,6.786741601605084107e+00
5.071360124738088615e+00,6.845870383077758969e-01,-8.175474308991152128e+00,-6.602576087813997852e+00
-3.506133432740202505e+00,2.336448580656559082e-01,6.771108449315411670e-01,-4.045217796199114701e+00
5.239486352786618895e+00,-9.337771111212640918e+00,-6.273297271961835619e+00,-5.818519803478846564e-01
2.307544346119194234e+00,-4.367421980648418689e+00,1.007539702461518916e+00,-2.097657766222437825e+00
8.829917537186130261e+00,-7.992069036933121318e+00,-6.133752774028636168e+00,1.276087987563798709e+00
-6.336391425180684323e+00,4.067845201268442956e+00,2.339404847046789193e+00,1.576865130556828476e-01
6.849561562362951328e+00,-1.968140253957913366e+00,6.880343253883270727e+00,3.717045734580039174e+00
-8.426524761791124973e+00,8.576244697267911832e+00,1.612624901803787258e+00,-2.329700990851470976e+00
-3.571632659387944830e+00,-5.806760939864346938e+00,-4.374758471436384077e+00,-5.333072719592768962e+00
-4.772526930033564874e-01,6.176375773120867052e+00,7.650492205684612523e-01,-6.737913558038823858e+00
7.776442895776047415e+00,7.072479837043661455e+00,3.724765983308361061e+00,-4.226218855458535373e+00
-1.380113731195514448e-01,-4.766417656057321039e+00,1.869290585882338984e+00,-6.056471032983718139e+00
-4.787636874297962919e+00,-6.619457156267159803e+00,-2.764945112727322574e+00,4.735100230266834131e+00
6.940101073935326603e+00,3.644037996147502678e+00,6.874649950879504701e+00,-1.784913134957139269e-01
-4.544412866012960350e+00,2.475331076943403819e+00,-2.286677218442850490e-01,2.615287181339167599e+00
2.966845760783058950e+00,1.168612597244910623e+00,-6.747919271719061918e+00,-8.378043452435155913e+00
-9.030707758922750239e-01,-5.900099772302575651e+00,5.166983296992424535e+00,2.178935143504458161e+00
-3.203164044632014207e+00,-7.296454233347186680e+00,1.220183275889370256e+00,-5.975174059131472148e+00
-2.078108331947245535e+00,-6.347950209662548637e+00,-4.766923338519292730e-01,-3.411223098094266604e+00
3.822528678250810330e+00,2.296002118751896415e+00,6.444628399044528777e+00,-6.699013860996971381e+00
-8.117022924876263090e+00,-1.523340289544731885e+00,-7.590894792280018066e+00,9.433567570186359719e-01
-3.073938591306580648e+00,5.139930467975650785e+00,-1.164377236438271179e+00,9.090590044041741535e+00
5.332844850120963542e+00,-4.026567658314509579e+00,-2.074622587250158023e+00,2.809114452544929641e+00
-4.144211320021596451e-02,4.734344896712235240e+00,6.691744985339349583e+00,-4.838701551070214713e+00
-2.041695331898523591e+00,8.810142154746982257e+00,2.177422282050008207e+00,7.150678251134698904e+00
-8.732602815238236005e+00,-1.773258737305444255e+00,-2.722750449476148304e+00,-2.805175765392374565e+00
-1.025845960895370368e+01,-6.623850506547900530e+00,-1.715225621684222101e+00,3.299513667180012377e-01
1.277977472470074316e+00,5.554654626268795692e-01,3.941740129176030116e+00,-9.616533556383975778e+00
-2.603051269374054844e+00,-6.793979738781862343e-01,-4.329829338019453466e+00,7.797248671403886000e+00
-1.399309207301114855e+00,-3.753951001699395551e+00,-4.376037476521198677e+00,-3.106668793180417332e+00
-2.263190730223374025e+00,1.843965146282272149e+00,3.722220674596992129e-01,4.988663365705278352e+00
-6.030404475825613453e+00,1.456492635148703751e+00,2.972250358041028662e+00,-4.292159950539848445e+00
-7.689559204864644393e-01,-4.402184921534122997e-01,1.072318530604362413e-01,-6.785708206943061427e+00
4.220969706131247001e+00,3.894808402698243799e-01,1.803721794160857650e+00,2.924853007443496633e+00
-1.800093747657321996e+00,5.659909100064073328e+00,2.308572551546994867e-01,-3.683908040647179583e+00
-1.949536720614881036e+00,-7.211419815769083641e+00,2.867520573078575108e+00,-5.427052420436171865e+00
7.030585600854200479e+00,4.867792745780520569e+00,-6.082363568623627259e+00,2.038095967455684665e+00
4.873190580773586689e+00,4.993334987408770687e-01,-3.699128785757297866e+00,-4.786441765977656360e+00
4.351628658944767025e+00,3.366516211008076520e-01,-3.602528755779374592e+00,-8.126061762613248973e+00
4.930819269624164392e+00,-1.882271499142630145e+00,-6.317287222306210204e+00,-2.897649592311483779e+00
-9.585759414537605494e+00,1.746459874504294074e+00,7.255470117973836786e+00,-1.623028320102305022e+00
-6.622692843954605557e+00,2.417137097419315150e+00,2.699734279854767216e+00,-1.739664050429439612e+00
6.741863031661392114e+00,2.960070413281850055e+00,-8.206208629333831439e+00,-3.081647481675474420e+00
3.476231553018370057e+00,2.651119401422913580e+00,-6.799909773660411716e+00,-4.965066280336084326e+00
4.134953388048278278e+00,5.026993361676843186e+00,3.999447147034447703e+00,-5.912034994776438346e+00
-9.727262307681790787e+00,4.720503626731710867e+00,5.275796985544783935e-01,-2.697515823268410884e+00
1.460923947889539720e+00,3.249845180107394427e+00,7.486796341081995709e-02,8.175982219881099411e+00
2.881553255368576316e+00,2.459307555816952373e+00,7.203256670512792503e+00,-8.722287936919348894e+00
-4.581412522405914345e+00,1.910258811242516064e+00,-8.047157583270255543e+00,-3.467896655607308531e+00
1.571574874976439107e+00,-7.156093097515247692e+00,6.663134876816831920e+00,3.001905802791095645e+00
-4.476920263883994444e+00,2.649663779771961547e+00,-2.386125817388357273e+00,-3.333350255332682699e-01
1.018977518933782456e+01,2.686628239113336702e-01,4.842157738259823319e+00,1.208253156953711827e+00
2.319222666425484025e+00,-7.144038354521185852e+00,-1.196336779924779492e+00,3.580693875031820017e+00
-6.480074968205207675e+00,3.372574825435931345e+00,2.432494192033106906e+00,6.038432599937959555e-01
-6.261069808647571122e+00,3.279084878480496457e+00,4.529368797643299693e+00,-1.048593333556377738e+00
-2.255265915399628618e+00,4.182043228517144051e+00,-3.066996385008606829e+00,6.863533687967771968e+00
6.737155774387238338e+00,-5.978653704359627730e-01,-2.175798832296671037e+00,-3.962745138392875344e+00
3.541604515810757192e+00,-4.757895634896684989e+00,5.620211149043998766e-01,3.316177371086452830e+00
-6.703129053120647995e+00,1.828000751829190973e+00,3.485677088129972123e+00,-3.441769863564650311e+00
-8.682971295430744973e+00,5.228487187657166579e+00,-6.004233915694763724e+00,-1.215261961157959814e+00
9.848123364560061432e+00,4.430165635387189660e+00,-7.724551720230049767e+00,3.219812835865575984e+00
-4.326466807193468433e+00,3.048857059929081625e+00,3.969038206531033897e+00,-4.004409815118667559e+00
8.191645284528564774e-01,-3.616226374559046164e+00,-6.844286468946831015e+00,7.843219879624860447e+00
8.485204515705193629e-01,-1.036782054675289499e+00,2.763695922934288340e+00,-1.344883438653990071e+00
3.952881894396496953e+00,1.297688054964504012e+00,1.830837342862263517e+00,-5.175098716935722543e+00
-3.747144678420741393e+00,-4.042141850774569001e+00,-4.645224674536553855e-01,-7.282578144011896626e+00
-5.392745165607983060e-02,6.980224516952695524e-01,7.294911140424760632e+00,8.531123246396571602e+00
4.679402129679960609e+00,-1.544200176407352521e+00,7.498194449358075442e-02,-3.522466183338686552e+00
-9.209601291165141035e+00,5.555561174635162303e+00,-9.271871789566306532e+00,-2.922360081441281565e+00
3.579534866284260541e+00,5.095343074962381813e+00,5.284458107277177241e+00,-5.434559190075117563e+00
1.095156681633359064e+01,6.486294901335202923e+00,4.341167247258365669e-01,5.560238442564101602e-01
7.816038384417028695e+00,5.301365989942311785e+00,-3.902990642312448966e+00,-4.447119571339622546e+00
-1.116832066764125830e+00,2.529180160535863475e+00,-6.214572676099081150e+00,8.337762128786673221e-01
2.061334501087785487e+00,2.996406529380642447e-01,-8.379724570354795787e+00,7.830241300170063257e-01
1.961319638676671584e+00,3.343336018857900438e+00,-1.141095719817418752e+00,-2.918044322912018540e+00
-3.757197386620072521e+00,3.629927350435464550e+00,-7.437270359424785759e+00,-2.247066964257603328e+00
6.682935246997415701e-01,-4.258312136679740512e+00,2.339984298696716980e+00,-3.802989168233547712e+00
-2.189850751209676538e+00,-2.848136275661856232e+00,-1.727813813000725451e+00,-1.258415119285540174e+00
6.390581437508384255e+00,-5.275470674222674461e+00,-5.993694531877512333e+00,2.765765426535486959e+00
4.941766752790677231e+00,-1.889994173109539544e+00,-4.378362931501323274e+00,9.438141879120787170e-01
6.506132924509066662e+00,6.276910749113960852e-01,4.802904612321966304e+00,1.853624188972005760e+00
6.323534760381641640e-01,-8.556912181608083756e+00,-5.659309871907312939e+00,-3.088265528418254302e+00
1.631825750273768749e+00,6.889438154855338503e+00,5.793782659695245307e+00,-9.258749526193991386e+00
-2.264839428165547286e+00,-7.308396317867264180e+00,2.423240797890400533e-01,-9.638265429582623112e-01
4.331704833903343932e+00,-6.557653281649304944e+00,8.811214996631555607e+00,2.852041715872427385e+00
-1.393509603056750645e+00,6.660870794961176955e+00,6.358545870775512476e+00,3.509158510824177846e+00
8.000795549165072629e+00,2.321152997402008200e+00,-8.244807938029458327e+00,-2.329579248915077727e+00
-1.643018521557368938e+00,-4.821244529939696655e+00,5.700091659410685629e+00,7.304749909354096182e+00
1.195143634329508986e+00,2.390926389617173964e+00,-9.416251260514453270e-01,3.316671621462081165e-01
-3.473678735907367310e-01,7.218298216001008960e+00,-1.757876572484559752e+00,1.231352222361966176e+00
-3.533002115758392847e+00,1.227687306295310421e+00,-6.859884449687807972e+00,-2.902351861454833148e+00
1.034492961238802355e-01,-1.844308318745722541e+00,-4.008638453306001992e+00,-3.134387775651588104e+00
-3.992425978017509980e+00,2.347849609802744819e+00,4.696294684789894980e+00,4.844817785320952197e+00
-1.920776828557611449e+00,5.384420142277015486e+00,-7.558091991718580260e+00,7.299323106125041427e+00
-3.105315973282963604e+00,-5.117605937456239928e+00,-5.099265140972327082e+00,-4.837033229845774329e+00
2.337581395768496828e-01,-8.445879538689400334e+00,-5.123002151682725547e+00,-1.218938812736182431e+00
-5.785446424330411119e+00,-7.033948816891069988e+00,-5.621183203116680183e+00,2.418991463774484263e+00
-1.741491201619361107e+00,3.162611001656627785e+00,9.038001854326251916e-01,-5.533805922696946489e+00
-5.068020060233522806e+00,-4.778175565115635237e+00,-1.136085593981082109e+00,3.098329357143561502e+00
-2.397174292674070895e+00,-4.056007610292499344e+00,-3.501142478911788647e+00,9.450561124322128137e+00
-7.723062128935239912e+00,8.019011856439777208e-01,7.332683984587119674e+00,7.542129646004200882e-01
2.734782919233453402e+00,8.360323775779076039e-01,6.210646049866835661e+00,-3.313265145536222978e+00
1.616840644046444675e+00,9.344879255421878028e+00,5.982390326986337215e+00,-6.517129845816325151e+00
-5.200547253758788457e+00,4.437933828864129460e+00,-2.069815381760611306e+00,-3.640408633861166532e+00
2.491905177293425311e+00,3.693392253395801905e+00,8.210656381761768374e-01,3.261163719191870203e-01
3.962496300800922633e+00,-4.123268029353731379e+00,-2.760840002543927696e+00,-3.689518469154457581e+00
-2.690804349801008577e+00,-4.501084392773654130e+00,-6.355747370208054470e+00,-8.050603176572698416e+00
3.948652264655408306e+00,-1.024350761751694927e+00,1.283934033615958592e+00,3.091608881978071266e-01
1.319721994026582301e+00,-6.207894132094513573e+00,1.909203419709571525e+00,5.458702300975975419e+00
1.448377644522066410e+00,-7.682166675849972926e+00,5.422315073990205958e-01,-1.234263212318790215e+00
1.361493296051288215e+00,-8.787842543195708345e+00,-2.542573939167699137e+00,3.964503298120354846e-01
7.613969645341811976e+00,-5.823492921642002607e+00,6.694834326897685983e+00,-1.510815898646779676e+00
-2.433165107446076725e+00,8.573313275865327654e+00,4.930097853893656179e+00,6.495261011415837116e-01
-1.719688709794960246e+00,-2.614233891941349253e+00,-6.052213944738854323e+00,4.536166605432745413e+00
5.408922373106077153e+00,1.721116901735544547e+00,-6.102301897441691381e+00,-4.764622181142049717e-01
3.681418986741409771e+00,2.409737055076291323e+00,3.664398799797429884e+00,2.303724855592557130e+00
-3.553989007670159128e-01,-2.799316979602798128e+00,-3.117331341966547154e+00,-5.474847827013181956e+00
8.945218322634902464e+00,-9.013767558278194869e+00,1.132416902895416744e+00,2.402556977925891513e+00
-5.473226250977763385e+00,-5.965178032509171224e+00,5.082885789098579465e+00,7.901438774810520371e+00
9.576362863416660876e-01,-8.137978132773966422e+00,-1.753104798641926143e+00,-1.862199110318661477e+00
5.787305689672570530e+00,7.817690149744794148e+00,5.080238004213032177e+00,3.265124978825291624e+00
-3.262752440649402175e+00,9.152509225078336641e+00,4.187745551548819889e-01,-2.660852675698500480e+00
3.632952652023309081e+00,-3.345663358046546687e-01,2.370193908018315199e+00,-6.261497831410911541e-01
3.604384822038904534e+00,-4.647550844398356418e+00,-8.852692639039851930e-01,-5.350480297675228591e-01
2.028027008528324515e+00,7.927478631537738352e+00,2.194165059634163306e-01,-6.358259130446066720e+00
-5.847690725170187953e+00,3.669254065228972017e+00,-2.417553210597843893e+00,1.895447841152201773e+00
-6.251305783257722126e+00,-1.999767350779401376e+00,-6.055231255507702581e-01,7.965022892118900355e-01
-5.254891693307448541e-01,-4.337160125672799182e+00,-1.533764147084911156e-01,-8.325192670251393423e+00
-7.611580241243051326e+00,-2.691487622560087001e+00,-3.430501311690531629e+00,1.348027207587569221e+00
-1.656307086553477470e+00,6.945005373050112674e+00,3.924878416719509211e+00,1.054798299357265634e+01
-8.758654578134986934e+00,1.856678664332292339e+00,-4.613285426102085474e+00,-2.694344456045306112e-03
3.382419728344905341e+00,-6.710616564931781269e+00,4.236526097652473233e+00,2.084282046762125695e+00
3.776342354243436450e+00,-1.404349099448334748e+00,-6.811397141340490791e+00,-8.143960185241837735e+00
7.442270296980243671e+00,5.058387425365261869e+00,1.898448618003069743e+00,-4.318254541525584855e+00
2.925329497431164771e+00,7.075694289551815785e+00,5.174525347666628861e+00,-3.459712011383621721e+00
8.824563402811394397e+00,2.528089038085437501e+00,4.236471102373828401e+00,-4.744058215726604799e-01
-2.909580798491738562e+00,-7.246578558246088431e-01,-7.607225607689354518e+00,6.803530478422809225e+00
-2.735387301106292135e+00,7.356673394016675083e+00,-5.840708143281553966e+00,-4.115943850875185106e+00
-6.030693784165249482e+00,-8.504438508975571409e+00,-6.035042833931998807e+00,-1.276713648825688330e-01
2.270088982821444112e+00,6.757035673484407923e+00,2.823509418536689797e+00,-2.436351599125768708e+00
3.908286076081805671e+00,-1.769220572286480109e-01,-5.034230096078112560e+00,-4.084073695923134295e+00
-3.710402715762571635e+00,1.001438140453160486e+00,4.501288035433566037e+00,-5.834121884543920444e+00
2.351776257908989809e+00,8.100595594985101400e+00,6.259521736210100773e-01,-1.012114610169655293e+01
-8.635385124474687757e+00,1.266626590468669988e+00,2.923199620808571986e+00,-3.373049156756555256e+00
-1.782014058198632400e-01,8.670352775350466390e-02,4.287570614463898977e+00,9.412924339546675512e+00
-9.317534585900212107e+00,-1.213714450837596048e-01,-5.090378094117086860e+00,7.019017948939797469e-01
5.206294976704302968e+00,1.241305851004783634e+00,1.285587882986977126e+00,-1.191025924666321734e+00
3.545161880122599946e-02,-8.310050763953373831e+00,6.164389776681733490e-02,3.310135839911689359e+00
-1.516541808908800082e+00,2.563482139497843537e+00,7.648953492412061905e+00,-5.272187058386737846e+00
-8.015340462603107952e+00,6.931351370685885804e+00,-2.000476745034209358e+00,-2.118658523388975978e-01
2.931945122862777531e+00,-1.569749038327409529e+00,-1.756713767596083331e+00,4.948534908936161436e+00
-2.631974193812000706e+00,8.914443530408512339e-01,4.456653107098130562e+00,-2.316058522676414544e+00
4.270423747345905241e+00,5.650811179039364696e+00,6.857779873059540954e+00,-9.669418322702828306e+00
1.401017359660364114e+00,-6.229817087289402977e+00,8.535207441135330697e+00,-5.618282484439784064e+00
3.393939232659606287e-01,-2.074466958492827029e+00,-7.792704505377376911e+00,6.579354259495404200e+00
-7.387642669482843871e+00,-9.635795859966895804e-01,-5.396813594524106250e+00,2.378677457747738977e+00
-6.688109949695030254e-01,1.204144622949997245e+00,-5.223598557706185197e+00,2.793622249371192190e+00
-2.546995391243211060e+00,-1.632903958640430087e-01,3.791396734035469507e+00,6.199465654237483747e+00
4.621778268893854680e+00,-7.237794663932095141e+00,6.681036383379928001e-01,-4.087385174750751027e+00
-2.289050362895745483e+00,8.861294455275011472e+00,5.694971895631017134e+00,5.662704072794984889e+00
1.303053131697222033e+00,7.921722695969076966e+00,-9.018018922739795551e-01,2.953419099463059805e+00
-4.770629057854993249e+00,-4.500059053967268241e+00,5.719511540719161680e+00,6.246006306784660289e+00
1.218646433138839136e+00,5.971568959611564864e+00,6.213060906604899181e+00,2.540116957810841569e+00
-1.309150678839397175e+00,1.619633118644097536e+00,-5.760281038331470427e+00,7.128216861078562339e+00
1.316146409881136403e+00,6.238417619099232425e+00,-8.422089140828065368e+00,-4.061803300349856372e+00
-1.489417351001279810e+00,3.363929680420874035e+00,3.961795211755766988e-01,4.951680817978518334e+00
2.719388333864420471e+00,5.492398390495512039e+00,-7.696053380337496641e+00,-1.937650954585061758e+00
2.059719466410276922e+00,1.012349057332605273e+00,5.689513892584761479e+00,1.917002132222152655e+00
-3.555174936419391418e+00,-5.117046334733748481e+00,7.317727429498390279e+00,6.706111025912614432e-01
-1.034869946566344900e+01,-4.437030806071659228e+00,4.668599307685757260e+00,-1.212960270797188045e+00
-7.708177422054903083e+00,-5.071915033351981350e+00,2.072512252337528782e+00,1.527277310914997299e+00
2.435169837406027771e+00,4.505289986729009932e+00,2.027636180337516247e+00,-7.155599206303899784e-01
-8.958311418610499288e+00,8.666874563138497578e+00,2.847306634326038033e+00,-2.319874546137641769e+00
-5.229611472239175995e+00,-4.418622665542207173e+00,-5.162480351452490623e+00,5.145243765428998195e+00
8.663804170052072706e+00,-1.138255981982790210e+00,4.683095988589841774e+00,9.081024405279678469e-01
4.719956452015797055e+00,2.494646035302404474e+00,1.178476581444607207e+00,1.504778380295480389e+00
1.599653227922707588e+00,3.608937815702172536e+00,-3.164558248792675776e+00,5.572037493039408318e+00
4.783481908182372067e-01,-6.564081110216859472e+00,4.615811474700639572e+00,1.768437755058697602e+00
-5.041099279094677144e+00,-4.276062795409361961e+00,7.185316463172505053e+00,6.672674751070924337e+00
-2.079248381830219650e+00,6.761377492167801151e+00,2.345822700624460577e-01,5.344164414347472025e+00
-5.601040888602986101e+00,-4.504743094239013423e+00,-1.969758842084110562e+00,1.714992589470050177e+00
-4.226911724010699700e+00,-1.422071426340600242e+00,-1.404839739439096125e+00,-2.853461837403935775e+00
-4.208018623490988652e+00,-2.228548679138232291e+00,3.096815960965492831e+00,2.559319033799112741e+00
-7.455956731952376182e-02,-9.385083765253263710e-01,7.749067537498403269e+00,-7.590622284481412407e+00
-3.571210570627006309e+00,-7.176298663841346404e+00,-3.476034255272360873e+00,-2.136368508087813201e+00
-7.016568323649061689e+00,-1.722234129232183886e+00,-4.326556439515049646e-01,9.111173036528753544e-01
-1.895784177833432782e+00,-2.950835195706961844e+00,6.538004187650646948e+00,6.596135102355610513e+00
-5.422051330265588165e-01,-4.103192269968698014e+00,5.345196928267471392e+00,7.216362047423579895e+00
-6.953620400031209847e+00,6.880698446972739468e+00,-9.167355159660443675e+00,1.692168895898799486e+00
-4.140844141006359891e+00,5.752992415049244634e+00,2.302444314313802476e+00,8.091092540244061437e-01
4.294267079606691517e+00,4.028383312888177414e+00,-9.065737078223964573e+00,1.973451688824979566e+00
3.457008576417950785e+00,3.678538556411688809e+00,2.014774117222666305e+00,-6.029071040163763939e+00
2.512346905320512747e+00,2.868142795118004962e+00,1.349958532500227015e+00,5.673824030593094037e+00
3.068209413628660176e+00,6.125582106948794348e+00,3.822358731789154529e+00,3.266004268588552861e+00
-3.589643465515452436e-01,2.430963463845364547e+00,-6.275178371073463879e+00,-1.160986826855002541e+00
2.227240720327745116e+00,8.382072418465302377e+00,2.786378135524072874e+00,-4.594906932734389216e+00
1.976019375709449299e+00,-8.898512722326234581e+00,-5.163905410074495883e+00,1.562516991094032637e+00
1.923813881464555120e+00,3.436415261777940877e+00,1.338986471344363105e+00,-7.463048027851204580e+00
6.306344484014149820e+00,-5.342199812457004704e-01,-6.395053490319563494e+00,4.402161395999445226e+00
-1.083006656899134335e+00,3.493400806687407822e+00,2.338177796989554746e+00,-2.993492600120546854e+00
3.348343599183213559e+00,-7.494625152768167986e+00,-5.740835596820891951e+00,-7.345966016187869485e+00
-6.212119351835889702e+00,-4.231774556457974512e+00,-3.652413288732539343e+00,-3.374358901681210554e+00
-3.489580372254948770e+00,-4.667096594108795848e+00,-3.108971564449478642e+00,6.323891351660453353e+00
-6.138239644711966925e+00,-2.734512404411947872e-01,5.811091927718565309e+00,-7.830208363947425143e-01
4.829229686128988952e+00,-8.430571474130232446e+00,-1.973895660318885081e-01,5.657133537394146039e+00
6.132105075265240401e+00,5.642318279097629841e+00,-5.284264994518619751e+00,-5.789223681212606110e+00
-9.294526859087783421e+00,1.471558838695051108e+00,4.310678042199747928e+00,-2.121614605753697091e+00
6.052871379672815522e+00,7.279368562981023416e+00,4.233566170478469282e+00,-3.259020194016809757e+00
8.663913936400527760e+00,-7.598121567198808712e+00,7.617628939540469268e+00,1.035616355862417182e+00
-1.949753000714495643e+00,6.802082830960903159e+00,1.281636845514161793e+00,1.196573702269657424e+00
-7.061214576659796904e+00,4.747530790252243449e+00,3.781374135514572909e+00,-3.462789739224110541e-02
9.507371842529476424e+00,4.249057648885982807e+00,6.422984112534606993e+00,3.720352538080188065e+00
-1.053138571721376815e+00,4.356903040594295895e+00,3.485062591655811559e+00,9.120953354865624974e+00
-5.800027637221067955e+00,-1.766515926205516784e+00,-4.505499616555921349e+00,-5.146197715833302766e+00
3.558949675346921193e+00,5.857946021204553100e-01,2.160520206580714753e+00,4.799631616421105584e-01
1.010531735068254555e+01,5.339778982179981703e+00,-3.173032186644446639e+00,6.932993605035087104e-01
7.108194522355097966e+00,-3.986308709453971311e+00,3.977922329277675750e+00,2.573570401406469088e+00
6.187675002829202242e+00,-5.041633223728994473e+00,-3.317844963526038082e+00,-2.092125571587594379e+00
3.705380548371457916e+00,-5.180045896709476461e-01,2.060311328142752640e-01,-6.501607776405108341e-01
-2.743707969124941304e+00,-5.652889363007179035e+00,-2.855055757378067050e+00,-3.354681684152283516e+00
-1.325933465448061011e+00,-5.137368898136667195e-01,7.119870960312547403e+00,-5.480142544702977681e+00
3.937271607275618202e+00,7.927876756849270290e-01,4.075023630448839640e+00,6.028326188970444477e+00
3.484106873902257373e+00,-3.732199850696140242e+00,-1.795844198985442342e+00,2.404808392118082949e+00
-6.341088255208962465e+00,3.604711206779494415e+00,-6.821900119935014217e+00,-6.028841971802101352e-01
-5.315942707306556825e-01,1.912337544546129475e+00,-3.987536410734846992e+00,6.546460541805630307e+00
