-2.570542960316878567e+00,-2.648592047326784993e+00,3.194724105460949648e+00,-5.408292957768517262e+00
3.126729217501315605e-01,3.180712002301172348e+00,2.363284387407619480e+00,-1.284535307544038552e-01
3.394690689082723534e+00,-2.656267273613798441e+00,3.201745679269183548e-02,-4.527052345243053999e+00
-4.588964763437427763e+00,-8.287635032630061849e-01,1.299347093554765520e+00,1.388720239850877780e+00
-1.550449365105433186e+00,-7.444013218560424638e-01,4.182166140668064358e+00,-3.143669109100753811e+00
1.633339837115554527e+00,-5.962588197031381654e+00,4.652411066108075310e+00,1.943973895858996492e+00
-4.060533132365403475e+00,-7.145592399393649874e-01,-1.643166183418689696e+00,-4.175570258247415789e-01
1.309472189105980400e+00,3.375810803591191789e+00,-3.706159266746198444e+00,3.566869982534778494e+00
-3.942007919191997001e+00,5.021493173974925783e-01,4.411482875492154676e+00,2.955400856554946554e+00
-1.281063586717539282e+00,4.344452212804393865e-01,3.398877918024576950e+00,-3.597886774048388414e+00
-3.568513334266226189e-01,7.624859185944707463e+00,7.691744161601385965e-01,-2.620391357637514407e+00
-1.178842961926037103e-01,4.866205708712567635e+00,1.679751894233657783e+00,2.697552183815635551e+00
-1.295547834370935014e+00,3.874192196943976096e+00,-3.729337433490456100e+00,-2.312052896680405478e+00
-4.633869837402747827e+00,8.501549547460993672e-01,3.908529165078645562e+00,-1.010846317972458497e+00
4.758141546716294634e+00,-9.703978440670140149e-01,-3.185009288963820850e+00,2.672518607468765128e-01
1.598166539599257252e+00,3.436652111659027842e+00,-8.386058594381398668e-02,-6.753894935117175091e-01
2.481281632927668568e+00,-1.587501513564659295e+00,4.251564734033462578e+00,2.873565248779067272e+00
-4.146923616748045660e+00,-3.041161826848727046e+00,-2.680379395446841340e+00,1.632863809999545834e+00
-1.413780232060869224e+00,2.832334824105823046e+00,-5.174852704920940738e+00,1.500794696102746295e+00
4.006981489015767117e+00,8.055501168636632903e-01,-7.505623164645874867e-01,-4.833820722041377138e+00
6.355746275223862762e-02,3.588842440270366918e+00,7.460407515201566975e-01,-2.997695990708935554e+00
-1.603004097649779469e+00,-5.288341224512945971e+00,3.516957277032183526e+00,-3.137300185930237184e+00
4.917122114333672300e+00,9.438329190574838989e-01,-3.531179559397182199e+00,2.787294984204576664e+00
-7.861699511900829274e-01,-3.137647588005769150e-01,-2.675273718501155251e+00,9.394372032214459711e-01
-4.267195228399501161e+00,9.932337310380761064e-01,-6.051872599140510900e-01,2.358853633466237998e+00
2.251716610759747078e-02,-7.382557472565638435e-01,-1.167542459249969466e+00,-4.638661217031173400e+00
-2.776905905463386226e+00,2.337427395180117884e+00,4.824493953036981253e+00,6.009602733768816263e-01
-1.716574964547994631e+00,-4.877561433155921833e+00,2.203400778416290784e+00,-3.848160339401946572e+00
-3.522970125066152036e+00,1.737420092893020129e+00,-3.491961587432167224e+00,-2.549479792682566970e+00
-5.314770630503815596e-01,-1.074067806937791580e+00,2.715279995498771193e+00,2.398430013541080541e+00
-2.261015320521468475e+00,-1.729345894311025811e+00,4.670138949439533782e+00,3.312518053179342448e-01
-8.838646420924936020e-01,4.754725937124112262e-02,1.392651127316630433e+00,-6.066956121056444884e-01
-3.553806385356683251e+00,1.517749236637476073e+00,5.026331793871643860e+00,-2.219204730006558712e+00
-4.026906118555493741e+00,-2.990150735240768576e+00,1.849788960110535285e+00,-3.152903116995532939e-01
1.585798586855225567e+00,5.640317346111775265e+00,2.397850067336243729e+00,3.276307062311481832e+00
-8.650893790617372181e-01,-4.269532599341068213e+00,2.891569336230217058e+00,-4.655267984001298487e+00
-1.304252168988559113e+00,-6.481505501962787630e-01,4.354308691571556089e+00,1.711443027334399736e-01
3.354644182335565716e+00,2.247837578149804560e+00,5.894613845790284135e-01,7.412815614859245006e-01
-2.557690217374890107e+00,3.980048405625375985e+00,-9.448084941267690384e-01,-2.690661670010885853e+00
-2.126961683473528097e+00,8.961097328594004319e-01,-3.209606775889871422e+00,3.655021852883877376e+00
6.001389617601540216e-01,5.938745485433810645e-01,-3.057852096628064231e+00,1.581521807613130770e+00
1.484364321961280986e+00,1.715105738964254556e+00,3.283298323798098384e+00,1.162356723270556100e-02
-6.165822036429156050e+00,1.017583099428860605e+00,5.685097012941301209e+00,-3.838042416352735575e+00
-5.602633851682717880e-01,-1.618129220064375318e+00,-4.476669712524070199e+00,6.849577373000561575e-01
-2.697569092120728484e+00,4.957916615926364123e+00,1.923457014313121327e+00,-1.572957809978010824e+00
1.669306488127215271e+00,5.797779805780960416e+00,2.393815000991256881e+00,1.548120845320469563e+00
8.906398181724164975e-02,1.620743504836611448e+00,-4.004143778891125827e+00,2.010370505718775735e+00
4.687570072462603044e+00,-2.374111219952479868e+00,2.238340779578019024e+00,-2.053989431747147432e+00
-5.153565941485767077e+00,-3.453438739122823842e-01,-4.409407241804524702e+00,-6.150095227218440597e-01
-4.070419675601546494e+00,-4.580786746537601761e-01,-1.305019835422032148e-01,-3.430135540201579847e+00
2.505580802517822558e+00,-2.482134020131112173e+00,3.711063997394557501e-01,4.088833933702630263e-01
-3.455028691481416003e-01,3.301095625906436570e+00,4.566500473484892408e-01,2.741599844038906594e-02
-3.580052269986870872e+00,-3.565004719193168636e+00,-3.059625652622283365e+00,-6.835255195735883138e-01
-3.126367586752358374e+00,-2.898532411040232404e+00,-3.531523070881647630e+00,-1.348409296174569505e+00
-5.747139891523697086e-01,-4.705217547399920264e+00,-2.221179606426844977e+00,6.644171231252727905e-01
1.801494521315433861e+00,-3.178880204472546822e+00,4.853416209868628428e+00,1.388465016680474173e+00
1.148827026254123779e-01,4.855785415423596874e+00,2.116169632941967027e+00,4.484211270778847014e-02
1.434741787622240139e+00,-1.066248023638837861e+00,1.322693671608949684e+00,-4.365466985567184821e+00
-2.468366900957335019e+00,1.272229699349201715e+00,-4.333622003500192221e+00,-1.078997316579776378e+00
5.118269161434665371e+00,-4.410574329820736716e-01,-3.102634939304353079e+00,-2.517407720234464907e+00
-4.134439756404479915e+00,1.006918779265919328e+00,3.875192542413946617e-01,-3.565353603043480035e+00
-5.701788567545998943e-01,-3.426844000741224860e+00,-1.402010733280340649e+00,2.330783399010730061e+00
4.457509713033209309e+00,-1.714653830478890084e+00,-1.711864837716713827e+00,4.938916637027776502e-01
-3.646758353081848814e+00,-2.821545524190375520e+00,8.563314511106846494e-01,7.875376580922174297e-01
3.135549663199944437e+00,9.335389670838603049e-01,2.487285703167074313e+00,2.457652976503461317e-01
-4.038672712768460293e+00,-2.727584763855818162e-01,-3.291226305045570122e+00,-4.696628186678982075e+00
-7.128028143314593557e+00,1.394173650887285509e+00,-3.445993634661194349e+00,-2.125719389159047346e+00
-1.015055152838173935e+00,-4.498416171044049783e+00,-1.928380566176455480e+00,2.921960062612833475e+00
2.426780014938586749e+00,3.375196887932882195e+00,-2.004500778163027075e+00,3.157080791931690555e+00
-9.537289369292704100e-01,6.044888251839467763e+00,4.550473903026398759e+00,-1.005574039721486290e+00
6.708907347603969562e+00,-1.257683494765744758e-01,2.516190125144651457e+00,2.279833709748786852e+00
-3.559225131855113133e+00,2.405402240447803930e+00,3.109054505206622632e-01,-6.665379480524583622e-01
1.923442679384743670e+00,-1.536215003497777287e+00,-1.231439719452315895e+00,-2.716558033287551410e+00
2.637637564354369801e-01,3.888062886154682651e+00,-3.646804925244708340e+00,4.756662068493109907e-01
1.901529194355900065e+00,-4.729486716282092829e+00,-7.067401177351921859e-01,3.079879702762503335e+00
-1.759410172748752332e+00,-5.447345113361079516e-01,-1.001111038817374954e+00,-2.388878452643238004e-01
4.439396608592672266e-01,5.123425604128152955e+00,-1.162279704823084625e+00,-1.060433123497784291e-01
2.504175981484961344e+00,-2.378245696734144321e+00,-4.579905620243885922e-01,-1.113368653636884531e+00
-2.621331362669837794e+00,1.312477405289456667e-01,-1.176991159727269975e+00,2.998105697988055596e+00
-1.644089054939926742e+00,1.209044140502217202e+00,7.250136270648976922e-01,2.770399066790246501e+00
-5.235558490559999001e+00,-4.220823141070559337e-01,3.535306079927769574e+00,3.048934118739190513e+00
-3.249692876370504191e+00,3.902113831283581469e+00,-2.405935421292057175e+00,-3.971180908169118950e+00
1.764006652118494278e+00,5.602582902442214241e+00,8.460697635213422219e-01,-3.380926407436791070e+00
5.053595287135695946e-01,-3.594799592874191596e+00,3.887870862259839022e+00,-2.589548428125384216e+00
-3.130151591596258775e+00,-9.444080500475082740e-02,2.442476184629797764e+00,-1.496790256948419051e+00
-9.958098102596200096e-01,-5.605499590117663189e+00,-2.092938723403432011e+00,-2.947225177130583518e+00
-1.125363492225847750e+00,2.300082215700668620e+00,3.788047155748983652e+00,-1.861915916132671045e+00
-2.611429556708777078e+00,-1.665999756784231289e+00,3.223239921852240730e+00,4.979341691025426009e+00
4.663410455561900925e+00,-2.684145865432058464e+00,-3.336689283321693456e+00,2.514319391774481272e+00
-4.694163273923082080e+00,-2.220224155878184336e-01,5.088578140946075301e+00,7.246875015659567376e-01
-3.173185022747180284e+00,9.336873540204837507e-01,-2.251522451317697904e+00,2.767036966815538346e+00
-2.901780739609600701e+00,3.043225449009151262e+00,-2.670276479019044746e+00,-4.136670925092771789e+00
1.195524657010863523e+00,-3.015148546875334290e+00,3.606204978936934147e+00,-1.038888589209234492e-01
8.531465921029429689e-01,-4.680918888299387959e-01,-1.976328326487911458e+00,-2.792834696759462609e+00
3.255934650454391122e+00,-1.213663226962986119e+00,5.940853926779835481e-01,-1.536426242462654912e+00
-1.960226854049424094e+00,4.358325808820699976e+00,1.234919925862844048e+00,1.517338696191801617e+00
-2.317981076706281118e-01,2.743046328239311382e+00,1.765846171687930122e+00,5.512186431008520238e+00
-2.008514796965421567e+00,6.293963107127510170e+00,-1.731732463676822986e+00,-3.324882903781452015e+00
1.323815973751309993e+00,-3.759397860164671590e-01,-1.611328382317690711e+00,3.765501799372666714e+00
-4.677489791230620142e+00,-1.606340699038468767e+00,2.594485628074775008e+00,-1.689025335158126362e-01
1.868992718662815911e+00,-3.989051330438015519e+00,4.344114641617564665e+00,2.446774170529993075e-01
3.524488461646058557e+00,-2.265391555696094628e+00,-4.722578195122046019e+00,-2.008588242207858698e+00
-1.374919269024042823e+00,6.677997693776815069e+00,-1.450135971397466639e+00,-3.212138331734095686e+00
-6.702795324525769871e-01,3.425811815062207000e+00,-2.829365464560931187e+00,3.562721425924339602e+00
-2.995613074127031705e+00,3.528814287658054383e+00,-3.938570168449634368e-01,-2.514783784151028545e+00
5.373157348722578774e+00,1.648114553945404515e-01,-8.898046841311828270e-02,3.046657057105283783e+00
2.034729064729141168e+00,2.880163244240684151e+00,-1.046653153939929581e-01,3.142022635029243283e+00
1.765850719109225975e-01,2.381665815359414129e+00,-2.082746660619707105e-02,4.692213659575259932e+00
8.063584611440643979e-01,-2.025825738440857560e+00,-5.013715977396897117e+00,-2.615246175659403427e+00
1.954609908191906054e-01,-5.584467657360983495e+00,3.221004436356763367e+00,2.236983724941906893e+00
1.558134335053525055e+00,-4.809167285671510861e+00,8.560897821922619499e-02,4.400512385822450412e-01
-4.732198565585335359e+00,1.110287661629400846e+00,2.912006216981537943e+00,3.202345457570323628e+00
3.323406089208033265e+00,1.503917334497464786e+00,-4.657816450043979373e+00,-4.755128214444052648e-01
-2.937934114946359365e+00,2.221746504154316904e-01,-2.651078468745070360e+00,5.129873773324211683e+00
3.500939458510367253e+00,3.791787665236767246e+00,1.632683594216558509e+00,-5.496776550512909587e-01
9.890289077841137866e-01,-3.250852311153793472e+00,-1.459897582318381959e+00,-3.415493050187363266e+00
-5.930865897069643733e-01,1.674117569236230896e+00,-5.180763564017682121e+00,2.776788859921566655e+00
4.306407981916021477e+00,-7.153356690939928209e-01,-4.255946818339054083e+00,1.290204079654102276e-01
6.541759003203656775e+00,1.440866609037290802e+00,4.064017947346890480e+00,3.234535052186807480e+00
6.722769587655237800e+00,8.785564399038460204e-01,3.832171329093828405e+00,3.858898890680059868e+00
-3.394704640149024844e+00,-2.603184645486489313e+00,-3.984178640312324049e+00,1.323350480416574548e+00
-6.317039266022955069e+00,-8.101076747626122510e-01,4.921492527922265159e-02,4.991978196557828262e+00
2.910395537555963141e+00,1.108664321936244868e+00,-1.420662827645612802e+00,2.542243544103742980e+00
-3.296177503506145801e+00,3.420604956683993780e+00,1.907757926552107408e+00,-2.120543674049335969e+00
5.351155237736882064e-01,-4.763242243466767611e+00,3.187210594742118985e+00,8.972396661327697309e-01
-4.237437978256983206e-01,-1.142004086104004140e-01,-1.916830057104949248e+00,-6.267327902490246183e-01
-2.829307275323286408e+00,-6.237634132672139620e-01,2.876043204403649245e+00,4.822267848961646841e+00
1.212912697074750357e+00,2.126821317165960235e+00,8.289882129035943681e-01,4.939024294078588007e+00
5.841478498748080561e+00,-1.522808165790709101e+00,1.584909834779193893e+00,3.759890300562915399e+00
-8.102543769369938143e-02,6.816635662658368844e+00,-4.705541901983991693e+00,1.490619006237471900e-01
-4.020557603375066513e+00,5.888771085625503776e-01,-3.221241189519736370e+00,5.395334694171793011e+00
-2.563340135362613958e-01,4.917007881230713195e+00,-4.979354342508920617e+00,-2.702831738107549064e+00
2.263503717356454725e+00,1.993103375980208591e+00,1.668240749081286944e+00,2.077911443090994403e+00
2.326781236697501587e+00,5.340120919263136035e-02,-5.219214003153825665e+00,-4.588867048516009461e+00
7.059408740052436571e+00,-3.538954555319265838e-01,3.303188726955455845e+00,3.429982630303775260e+00
-4.736883257376090839e+00,2.797289720817416114e+00,5.235718741781186125e+00,-1.504602015729064712e+00
3.559343433707947923e+00,-9.537631376278316031e-01,4.900547909835329952e-01,-4.552197842705826281e-01
5.521639340364335347e+00,1.187778466323641924e+00,2.708565744705476036e-02,-3.179849900478799452e+00
1.742008171945896300e-01,-1.849332838046567007e+00,-1.348876844528350549e+00,2.444357952822330482e+00
3.500317893799893998e+00,2.501322128474536832e+00,-5.599286081810657123e+00,-2.124447511962101132e+00
-3.294682743079469511e-01,4.932579527535274622e+00,2.403726303593478164e+00,-1.629623165458556899e+00
1.292871827846725219e-01,3.458031514822836883e+00,1.176293452392453975e+00,5.515721336784052298e+00
1.802510299666469029e+00,-3.434872513653739468e+00,9.008682770801974549e-01,2.643605709530492565e+00
1.344958083734079768e+00,9.195520056762398475e-01,-2.760951751038644542e+00,1.854686683690092597e+00
-1.213193416404291902e+00,-3.358555113159713557e+00,-2.361897073152965376e-01,4.474079904997357637e+00
3.616470761225873964e-01,3.141105445103380855e+00,-1.569136744337944478e+00,-1.436433021065132820e+00
1.550511558911710663e+00,-1.097770186386235025e+00,-3.593316840813693513e+00,2.836284901687362137e+00
-3.619868645853909772e+00,3.375475311433067116e+00,-4.120709833534083266e+00,3.087463957833720338e-02
1.626346545012353095e+00,-1.850242531309682414e+00,-9.154045919570730216e-01,-4.070971771509564796e+00
3.107221255413379346e+00,-2.054726071481075333e+00,-3.000895623084597064e-02,-5.332834707828884468e+00
3.292494463429431750e+00,-9.171043739473694334e-01,-4.862464435983923750e+00,1.734824488547260346e+00
-1.717395588064734469e+00,-3.643413427065278043e+00,-2.520722518947903223e-01,4.328181338797723043e+00
4.088842441817362783e+00,-3.704592651351771071e+00,2.669357320391111177e+00,3.466958374602302939e+00
3.076794487344626794e-01,3.013784959645088524e+00,1.625855120485879102e+00,4.298499648760969905e+00
2.317823891820766757e+00,-6.308372879838813896e-01,-4.216212815666349201e+00,-3.959451887059633357e+00
2.712324900115540061e+00,-3.076692030685161061e+00,2.116452135214989649e+00,-3.396477337539255181e+00
2.681570666004972736e+00,1.707927626015720568e+00,-4.989879722508553606e+00,1.801672634303554954e-01
-1.312629294649160894e+00,-4.628912040178521092e-01,-3.750720271653465332e+00,5.199180105917364791e+00
-6.816946196715096384e+00,2.115913892832359255e-02,-3.722681987352908006e+00,8.807778569039912409e-01
6.173348627634543284e+00,-8.752254915196777674e-02,-1.843945281987853235e+00,-2.734604710940831684e-01
6.206172007981322070e-01,-2.841396986468271546e+00,-2.691924224513713604e+00,-4.490043229571139882e+00
-4.235672797001104328e+00,-5.614462341764364650e-01,2.373869055234924641e+00,-1.299290867445109798e+00
-1.555185588815824360e+00,-2.300402067865926270e+00,-2.797208742078705623e-01,-4.590399416405986921e-01
-8.269872034954248718e-01,1.680407804173152719e+00,6.033716269429101331e-01,-3.078516552651181737e+00
-2.652955768704836625e+00,4.148112672299966164e+00,-3.944919956703279773e+00,1.383636260175216126e+00
-4.321045867317561573e+00,1.197174813621242784e+00,2.037703864829560896e+00,6.183070066662633479e+00
-1.672035455250388658e+00,3.462563013485865149e+00,2.517507942105563057e+00,3.498975050215748506e-01
-1.682228831017635651e+00,4.416791501832670441e+00,-4.381968732738117822e+00,2.985734283237974296e+00
-3.643815937991204290e+00,-1.921319122167571003e-01,5.588514105638569873e+00,-4.786672663458345078e-01
-4.012883208948760938e+00,-1.417549866634979727e+00,3.127194149299406867e+00,3.423642121417894035e+00
2.670434976661423487e+00,3.964463221335319698e+00,2.763940199397964648e+00,8.406371260177672999e-01
-3.049429018604810082e+00,1.058700475367901683e+00,7.401056655627368253e-01,3.728033032317548123e+00
3.986999012531761366e+00,2.229910395021781344e+00,-3.478762018792777244e+00,-1.030324758664730611e+00
-5.316902358865793765e+00,1.929624523938878511e+00,2.805105352790420614e+00,-1.184317673981594599e+00
-3.095100946308901868e+00,-9.701587973995635661e-01,-2.844857230741113074e+00,7.739730588565814084e-01
-4.720891893990252441e+00,-1.215199149413338786e-01,4.820801175736434629e+00,3.969596274577987138e+00
-4.945933038077295896e-01,3.838931968471510636e+00,4.117021389191726222e+00,-2.356207578501128275e+00
2.992241278792908243e+00,-1.787508767029247547e+00,1.539888678439122582e+00,-4.596031619884493047e+00
1.761368015234907047e-01,3.106558793821602826e+00,-5.424716615165480427e+00,2.195299209416758490e+00
-1.246739930963983278e+00,5.256492287728479873e+00,-3.588487344217474173e-01,-3.736170711763179053e+00
-2.115118273836488871e+00,5.623956325380587984e-01,1.177278519328031209e-01,-4.133423589804950282e+00
2.114879732253686750e+00,2.372689924738070388e+00,-3.994195086235888592e+00,-1.215530585684496678e+00
-6.080933906053547666e+00,1.487702081409863819e+00,-2.606008875940334590e+00,-1.179633068108264959e+00
-4.305582871954183322e-02,-1.585185692342606423e+00,-4.390759067974491003e+00,4.306271460126676942e+00
-3.741459044009896928e+00,1.012644209319212285e+00,-2.872129655279704874e+00,9.739158449454709057e-03
1.359312270741638073e+00,1.778264157385036182e+00,1.904363032999988742e-02,5.032098169307978708e+00
1.734753331418857458e+00,-5.711053670087963496e+00,-2.777974401749656153e+00,4.119322200129365008e+00
-1.982260502200342112e+00,1.841679926171636339e+00,-1.096592917066187223e+00,1.816907576294356064e+00
-1.064746058538836859e+00,-5.907355798623625809e-01,-3.887652799013495031e+00,-1.243548607225541947e+00
-5.828899898831473081e+00,-7.184148039108129158e-01,6.966591344681188902e-01,5.824850053436629871e+00
-2.831926668251321111e-01,-2.064199107208140926e+00,3.450414928798936298e+00,3.868611151733612363e+00
4.794002988234821849e+00,-1.928608540264813431e+00,4.536806963558516870e+00,3.531150838619612653e+00
-3.339101084711504352e+00,1.010170810110913031e-01,5.538571937439109583e+00,1.165749448469914906e+00
-5.096995726738943411e+00,7.948245196727664608e-01,-1.879333044340313785e+00,2.776001983920880267e+00
-3.694875682087054525e+00,1.069934296157016185e+00,-2.442949791362658551e+00,-4.077285264538716980e+00
-2.736476568333746862e+00,-4.515570475467496792e+00,-3.198431964907260117e+00,-4.268262123212159587e+00
-5.324752058042050429e-01,3.973756043972798135e+00,2.632452646668919982e+00,-4.670278682028995987e-01
2.560837029972833356e+00,2.360629602393973236e+00,2.655621410636737956e+00,4.683434551498202758e+00
1.243216750732170972e+00,5.150036349075866937e+00,-3.428793372289698382e+00,-4.351228628502163964e+00
3.206537623122734271e+00,3.182544896256058298e+00,3.957515045900373285e-01,-4.043146911604148741e+00
5.987212602658434690e+00,5.509708086477468347e-01,-2.226314740780782397e+00,1.723068932813013321e+00
-1.539250519126683203e+00,4.476952760467741044e+00,-4.861787847687891961e+00,2.102407546686390738e+00
3.954999320996493428e-01,-2.342671300974086268e+00,-4.148846926079196251e+00,-2.800419214955497615e+00
-3.434465808788799812e+00,-2.757799428984484713e+00,3.426629872448869296e+00,-1.307643962083046452e+00
-2.571537999750672654e+00,3.961641055489605989e+00,1.113895269362082718e+00,-3.268147619087165001e+00
4.281923821464357793e+00,3.568729768035210359e+00,4.120037973284909505e+00,2.787699287291750760e+00
5.375576915684041168e+00,-7.349588327856479975e-01,-2.758062557072156196e+00,2.147649489124061617e+00
2.216582956387428638e+00,4.524307092206958814e+00,1.365323889326994555e+00,-2.008940203797394020e+00
5.962997551820610198e+00,2.761293863676890781e-01,3.307885237538735979e+00,1.393535411363111716e-02
8.798510293440032770e-01,1.010146016412813097e+00,1.369829201061903090e+00,-1.951970350063929327e-01
8.711303465260210599e-01,-2.752643509655244625e+00,-4.687613982665732593e-01,1.260220739840631765e+00
4.851515825736499643e+00,1.055214416089969576e-01,2.768657570270687707e+00,-1.842007291110723255e+00
-2.041905778000066007e+00,1.995231679797504487e+00,4.266317000879783272e+00,2.125371885180492360e+00
-3.644018417989298708e+00,-2.782942488449787533e+00,-4.409256546193808468e+00,2.219978251303631023e+00
-3.047385616303648792e+00,-9.425794941376248737e-01,-4.318606840981960460e+00,-1.568686555924909465e+00
-9.598778872136222162e-01,-6.039953519359591461e+00,1.376525242932970849e+00,1.674712539416712831e+00
1.859335505789680154e-01,-6.978921408709056751e-01,-3.814783475711207572e+00,3.081845511337887977e+00
1.110510229023533441e-01,1.323306543301857596e+00,-2.349578868557274658e-01,-6.998192173708835950e-01
4.563924105980817991e+00,-1.722263548807601019e-01,-2.127144543854620817e+00,1.757640846150433367e+00
1.662321969860594273e-01,1.457371558095801767e+00,-2.921621757358954241e+00,1.698885670012292737e+00
-4.640690666781259743e+00,-2.122443913070773736e+00,2.564894941567903874e+00,-4.492897271338348375e+00
-3.122971768170322182e+00,2.363832904186518036e+00,-2.177070917360677260e+00,-4.329350529646634804e+00
1.611624758935390700e+00,4.679906674508668374e+00,-5.427314028891943032e+00,-3.033085030943376115e+00
5.328066475431939786e+00,-1.662747082582589186e+00,2.242428276512021146e+00,-2.286406224869468762e+00
-2.991142723021856131e+00,-2.984342778344083236e+00,2.433468635801939062e+00,-3.356943516757824320e+00
-4.910783560192212072e+00,1.438985021762643646e+00,-3.287052968998971370e+00,1.329749050782599751e+00
-4.371204244512878034e+00,-3.951240666363393106e-01,5.648855115932515325e+00,3.886608836586430638e+00
-1.121765197240687018e+00,3.078451552920215217e+00,-1.899222510053388824e+00,-3.539161514315536827e+00
-5.425304080790047223e+00,-1.144368985699396379e+00,-1.155137025560198927e+00,1.314288277619894307e+00
1.827272034458402861e-01,3.850512690777103675e+00,-2.188908825117798163e+00,1.965860372202793693e-01
2.803319289910021883e+00,-3.397589599459212018e+00,1.493064341889576596e+00,3.979828357998961508e+00
3.276855471669612552e+00,-2.074160460592370914e+00,-3.499893921035694966e+00,-3.856385329027224973e+00
-1.107631137624494500e+00,-4.603960044638873761e+00,-2.974161488926920782e+00,-3.284992299617198519e+00
-1.827695088415138391e+00,9.772279002625505751e-01,-3.392661830740389295e+00,3.237063328659139927e+00
2.211360622301733247e+00,2.840958151785460295e+00,-3.991848771476864677e+00,9.346663488930413433e-01
-3.611144094008665206e+00,5.438538346581313077e-01,1.528568184866162527e-01,-4.382738076334349309e+00
-3.109331964392704872e+00,3.774931658835498638e+00,3.431707922325613946e+00,-3.664107025773582826e+00
5.496855625357893738e-01,-1.999867020245110316e+00,2.857950289988200776e+00,-5.335568317956662643e-01
-2.809692563211283023e+00,5.004324271125951462e+00,-3.158621742409559729e+00,-3.212914687830683569e+00
1.981582912627210868e+00,3.369393386519370370e+00,4.096926093424550608e+00,4.548275571942173023e+00
-7.786477316361442025e-01,5.681061503523762823e+00,9.569673143990350406e-01,-2.832253163543385188e+00
-2.468532343447500832e+00,-2.666195256672225858e-02,-3.900621365466313328e+00,-4.133107992680597143e+00
-4.307198334706296095e+00,2.763390513561284623e-01,-3.716793107711501509e+00,-1.268572550866171156e+00
4.383396699707721444e-02,1.571927517351401127e+00,-3.966996125294919739e+00,2.938498903878210111e+00
-5.711845671541476710e-01,-1.942526374613785078e+00,-3.228482413879458779e+00,-1.934358056166135986e+00
1.980394703288963276e+00,-3.099645166213619518e+00,4.992147036643586944e+00,2.584169269351901832e+00
1.596494709540889012e+00,4.095392561208141657e+00,-5.306708510445531601e+00,-2.561576097330801605e-01
-2.745945601562227001e+00,-1.303817331158872328e+00,-4.219809606904669330e+00,-1.226277312404502551e+00
6.798225274544861030e+00,-1.001451092615456950e+00,1.007218493845815521e+00,3.582799943093055162e-01
-1.161925421643138057e+00,2.979132090373824315e+00,2.146118149992509050e+00,4.778713280638789307e+00
-6.410806994264320879e-01,-6.140824150452506736e+00,-2.633421535671940372e+00,3.134429898806712078e+00
4.806000285186872389e+00,1.108328607168409308e+00,-2.431097654077020387e+00,4.178976481621162087e+00
5.957740065920871686e+00,5.245942363418802934e-01,3.205482954398391371e+00,-3.598541298998651605e+00
-6.795964053594759635e-01,-1.310135627907357492e+00,-4.312012923140665088e-01,5.145240771605714691e+00
-6.302179081241929826e-01,3.127036923523892620e-01,-3.668688115884152889e+00,9.043124449915963536e-01
3.797257314823562435e+00,-1.753611453968144662e+00,-8.094768104718204071e-01,-4.404361020143103822e+00
-1.046424336067554250e+00,9.004910918137171150e-01,-3.351618640398265736e+00,-4.829734858079312687e+00
-8.186152376005049192e+00,6.252468642952129230e-01,-4.284652440051128330e+00,-3.614020125905697434e+00
-6.979493272990359154e-01,-1.283261110100450741e+00,-2.040684518558086413e+00,2.529310479133757283e+00
-1.845474316307544438e+00,-4.956785024725837374e+00,-1.879313642893830183e+00,4.069869472358630169e+00
-2.361538090868805284e+00,-7.403878668582777323e-01,-2.015696754525498235e+00,3.719089986796881853e-01
-5.506946300730938049e+00,-6.139537051651318134e-01,-2.414851679507892257e+00,-5.470929429520272613e-01
-8.973664511199130889e-01,-2.265806134471858080e+00,-2.359697468389672537e+00,2.591021315024071292e+00
-3.032635892555410440e+00,1.457673123629690259e+00,2.311492940504598970e+00,-1.714505866965512881e+00
2.418259394514673755e+00,8.947397375795271834e-01,2.999902297957432573e+00,-1.565908379663489614e+00
-2.734591617583120193e+00,-1.030247789222019872e+00,-7.039082417225620558e-01,7.289737950012640244e-01
-2.717720016239463909e+00,-4.096685346213048362e+00,-3.664599034224679031e+00,8.886062958047913352e-01
3.068205786005470337e+00,3.541135043177456421e+00,4.619513116978546385e+00,4.387032621753377271e+00
-3.086775663058908936e+00,3.416517546001974770e-01,6.324800784086910266e-01,5.136197385097569956e+00
-2.663528011914416682e-01,-7.974932537677161815e-01,4.580832701420312070e+00,-1.017520938486756510e+00
4.470815539597230881e+00,-3.403525760379820242e-01,1.700912975976931918e+00,-6.692431244770456755e-02
-1.519300527924563715e+00,2.654332295421048205e+00,-4.186630274420555686e+00,2.971125595040658762e+00
-7.083886879587696361e-01,2.205801021770926740e-01,4.265980867270324772e+00,-5.050252461023393202e+00
5.923014302075249038e-01,-5.483439253772488087e+00,1.547391537121079741e-01,-4.353326850828121986e-01
-4.967420695689181542e+00,1.260944456826026183e+00,-3.060567539894680333e+00,4.478411863029677420e+00
3.396834838217340113e+00,5.667037220391946128e-01,1.732842067267259090e+00,1.011220584148702306e+00
8.352016224897943486e-01,-6.765754077559992252e-01,-3.415402746172271797e+00,1.753485302998599282e+00
5.030593677540177389e+00,1.162315559301682732e+00,2.980491125463315072e+00,-1.041256000502952750e+00
-2.796451408835852970e+00,2.553256128213565734e-01,7.169235211658178120e-01,-7.360294136744109927e-01
-3.243505667010622595e+00,2.806904783239887902e+00,2.188859449138400137e+00,-9.664180010164353796e-01
-2.545213962702810750e+00,3.316451494857390880e-01,3.374648543807432066e+00,-2.962913419899619427e+00
4.688714158328559201e+00,-7.300322533012737480e-01,-7.504817147930249455e-01,-1.143496208629422695e+00
-1.896512618693241559e-01,8.367015513567724883e-01,3.345022070691634042e+00,-5.173488112283973983e+00
1.016898056714741649e+00,-3.508507209666941740e-01,-4.671276025683983590e+00,1.567538388157839302e+00
2.997342500384802655e+00,3.322408880945859178e+00,-4.426352982785806134e+00,-2.017381273408032527e+00
-2.703858503033598204e+00,2.665308718978252056e+00,-3.228785757024015712e+00,-3.697412147275293215e+00
2.982176315549658785e+00,-9.875999027093000926e-01,2.505496072088281956e+00,-2.672431080249524360e+00
-2.638877764571844864e+00,3.070025041258699350e+00,4.112870300634323684e+00,-3.334211634202832286e+00
-2.307957228669231142e+00,2.777453588430506493e+00,5.031111154457972745e+00,5.150815893677219925e+00
1.195641475362688499e+00,-1.435079319702413425e+00,1.659153473309644689e+00,-1.236963852957566612e+00
-2.308047691899474341e+00,-2.513225712549496560e+00,4.677348115222539349e-01,-6.393147440405830828e-01
6.437171782387220986e-01,-5.393229202952349866e+00,2.200387123358907182e+00,3.604039139983813422e-01
3.140949396346906841e+00,-2.144659583203800235e+00,-4.662904535344276624e+00,-1.281431422760949124e+00
-3.964371081741263625e-01,5.035685030514740923e+00,2.278182753945233063e+00,2.800415232631908946e+00
-1.225512902436693308e+00,3.574310451515044562e+00,-1.995811616277643807e+00,-4.427180712568921095e+00
1.792183497923845792e+00,4.412821053747445710e+00,2.707758906606364757e+00,4.299079968123684203e+00
7.136134823143736039e-01,-7.251717711075684747e+00,-7.751215533718313067e-01,3.596648754300153072e+00
1.865587614195111987e+00,-5.561674850727641228e+00,-4.331960555490954157e+00,1.689777492676149961e+00
-1.842401388119517813e+00,1.523441753647032604e+00,-3.623208354656937136e+00,-5.781826696580464331e-01
-1.277150430891119015e+00,-5.900565987401440005e+00,-5.399458909402871098e-01,-1.988574968379722918e+00
-3.710123970081096623e+00,-2.682703247038580319e+00,-3.163857755937778293e+00,4.389004778841505860e+00
3.102920910562589896e+00,-5.037518804242338000e+00,4.953148710022889922e+00,3.070151243995614010e+00
-4.438691076308594052e-01,4.015803937829989678e+00,6.959952360310006636e-01,-3.922387279647895131e+00
5.470193465588562010e-01,3.052731257422457989e-01,-6.545704857896031958e-01,-4.830424680874314980e+00
1.272259205914947788e+00,-6.629504669408813555e+00,-1.521148895966366377e+00,3.203467430034698804e+00
2.922746765247436596e+00,1.114421786627492805e+00,-5.174372360252364800e+00,4.328151475032684381e+00
5.346282516573582555e+00,-2.407578846541130524e+00,-9.067432427353440128e-01,4.080927255114409569e+00
-1.449257299073575256e-01,-4.854028030153506812e+00,3.238424997509110614e+00,-5.779678828745558050e+00
9.389328365245210861e-01,-5.513357277314312910e+00,-1.753438138584558104e+00,-4.025126570976284568e-01
-6.265164840588151485e+00,-7.569311771412572110e-02,-4.101192918269241261e+00,-1.041602009952776076e+00
5.881112464217366220e-01,-3.301798430994734357e+00,-1.271061050882674515e+00,-4.633234755333096366e+00
5.694147076216465875e-01,-5.756402910994936839e+00,5.313667414404502409e+00,1.331447823670496966e+00
2.693104783199556262e+00,-1.123470445095860359e+00,4.228099640894418698e+00,-1.262154930522411567e+00
-5.047900897823490496e+00,-1.786703471095459239e+00,1.795154602388257858e+00,-3.523663543185667990e+00
5.257490940229872400e+00,2.848226155375220836e-01,3.863805346769911164e+00,-1.479130560654803528e+00
7.818472738272725930e-01,-5.318119880780432851e+00,3.807614500255693368e+00,-2.114076522072632525e+00
7.274091653862460038e-01,2.450214399056380277e+00,3.761733775979572592e+00,-2.058613651015706925e+00
-1.964938328806228873e-01,-1.911278403979012053e+00,8.821669334490594983e-01,-5.302723606442535598e+00
-3.897580905679681962e+00,1.814199090659902591e-01,-3.549290604020717055e+00,4.001515155783795130e+00
-1.792355371006704612e+00,2.581243180444403595e+00,9.578924800836389197e-01,-3.989623836312810035e+00
4.925778788375976269e+00,1.476322570297751602e+00,-2.114761847139152717e+00,-4.065412280530543931e+00
1.714915743833927975e+00,-6.873166906222779593e-01,3.333591963021096838e+00,-4.817062218673926033e+00
-5.107343629269486485e+00,-1.474897746029162904e-01,5.477146751207009778e+00,1.990260775546094152e+00
-1.184455848150109070e+00,4.273504835582188299e+00,-3.462374502555285449e+00,-1.337799490179849782e+00
-1.233041799272169614e+00,-1.465829187828152635e+00,2.687645657439633684e+00,1.689115526920555999e+00
-1.267093696052167262e+00,-1.293126967301054808e+00,-3.282738592875632744e+00,4.744521002432201762e+00
2.866972234634375116e+00,8.400993674088049756e-01,2.723062002886978306e+00,6.759462878635887906e-01
-2.987786203980404842e+00,-4.048124725749848274e+00,-1.866628879842152422e+00,-2.420535189572560864e+00
-1.335583652169734403e+00,-5.583191320375802569e+00,-7.448192441481416015e-01,-1.769386301226969938e+00
3.647031519735777216e+00,-2.064875224969096035e+00,-2.133669094234146524e+00,1.169333987126440100e+00
-5.458043653646960092e-01,-3.358318969634402684e+00,2.106497550924349760e+00,-3.193933335733247780e+00
2.996048897059206517e+00,-2.441866738867191078e+00,-3.185316499983147587e+00,-4.842922879261187141e+00
4.321027261292276656e+00,-2.097681924792967223e+00,-1.472946288544477511e+00,-5.082211565715498702e-01
-9.794907903565721607e-01,-1.057350444462846983e+00,-1.339013062191618975e+00,-1.777855219932266972e-01
6.273267396280736152e-01,-1.898292221879596342e+00,-4.276868344686612033e+00,-2.751087064964485851e-01
-1.230236822651136652e+00,-2.466237101328077941e+00,3.996610988265909992e+00,-2.062611260487876574e+00
-3.049614674411710857e-01,-4.886995749546040990e+00,1.244966144166744337e+00,-1.433018638228899411e+00
4.599971093004550649e-01,-4.419160072122471306e+00,-4.338540410822675497e+00,-4.734790598629260217e+00
5.231858348763258171e+00,1.510030059107303257e+00,4.220335468321423811e+00,-2.084571303622454685e+00
1.187117224615853450e+00,6.536930669778234559e+00,1.289178130709760950e+00,5.499065466305641081e+00
-7.565303765159762106e-01,1.947184680680376756e+00,7.038778682069749548e-01,-3.774393914667463767e-01
2.455783722081613663e-01,-4.045198064974613317e+00,-1.234938180715234868e+00,-5.222989507525137576e-01
2.656421462746838102e+00,4.022833093946870164e+00,3.042277082882264505e+00,-2.332588150155268103e+00
6.028818363681008208e+00,6.347936652057579732e-01,2.118294587939124174e+00,-3.961312650066639129e+00
-1.231192162911705523e+00,1.037638250364006698e+00,1.618690284148437408e+00,-2.814302225805391799e-01
-5.776245398464402436e-01,2.082331734405525214e+00,2.528289886219708738e+00,-3.757546356624708039e+00
-3.167972200067986854e+00,3.129353233261088274e+00,-2.509495413615165926e+00,3.186044559270087562e-01
-3.540671069229317514e+00,-9.112814030172892155e-01,-4.375050948350352797e+00,4.873583263871783977e+00
-3.517955599651255483e+00,2.516795664528288512e+00,-3.945265518847032471e+00,1.545341343603308104e+00
-2.094688785757079952e+00,3.240591555065982288e+00,2.877337826602454740e+00,-1.038986733264007256e+00
-1.689724687521438895e+00,8.022276223797168981e-01,4.869467040322528639e+00,2.336576438968060110e+00
1.254237526504460964e+00,-2.623818642584519356e+00,4.905037033402102509e+00,-4.666397854566610270e+00
-6.968527090582744832e-02,4.313693972675576305e+00,3.131876054307392465e+00,-4.063077761620545458e-01
-3.943311635379086466e-01,-4.342493631945814059e+00,4.181850007031187921e+00,4.456960561996616832e+00
-2.036428752783722818e+00,-3.808140869790502592e+00,3.718543876015523608e+00,-2.151828421425429738e+00
-5.196567086577722705e+00,1.048510104056050052e+00,-2.449014324131357778e+00,-2.304690658300798223e+00
-3.032910483700836490e+00,-1.032276744944283092e-01,5.535177384401727352e+00,3.916056400666592996e+00
7.449605106540680977e-01,-2.145656977539549093e+00,3.320076557575314946e-01,4.696712891774104115e+00
-3.168063953573199587e+00,3.453545958884181477e+00,3.755334062608216783e+00,2.002420694245993893e+00
-2.519234468910044988e+00,-1.107939774655028131e+00,1.495971715862286278e+00,-4.353095753311713167e-01
5.172921930630242748e+00,-2.237128929254363019e+00,-2.823804392982736111e+00,6.171631682752300868e-02
5.544577030060509060e+00,2.270925968149566820e+00,3.844341573116682120e+00,-4.394955001850489040e+00
-1.166593633224101367e+00,3.499959204412250724e+00,-5.408893649044586027e+00,-1.527705238347587535e+00
4.000243284267444577e-01,-4.337515639364180942e+00,4.178273854386607589e+00,-1.177006354712801933e-01
-2.097227074382493228e+00,4.466954441606249659e+00,2.838990924909854385e+00,2.203438105468226438e-01
-1.320565291814979614e-01,-2.058198673505072129e+00,-1.365079978417192974e+00,-3.969386791262824676e+00
3.366712169360363216e+00,3.258266662414750492e+00,-3.419189371065277872e+00,4.605826244338592446e+00
-6.303053008412897729e-01,-2.912262805743973448e+00,2.480166549965547862e+00,3.343640592044113458e+00
-5.551836380617838351e+00,1.828413531278353821e+00,2.133028363279897199e+00,-1.503631690704725576e+00
-4.780094702901950821e-01,3.351492662790609423e-01,-1.109986755371946243e+00,-2.790472835554746567e+00
2.750891442127345154e+00,-1.190807400339908506e+00,-5.265677306005340341e+00,-8.605289243481692996e-01
-5.214519798532007755e+00,-9.744737794741626935e-01,2.176867589282321269e+00,2.738999764241170976e+00
-3.434439177152615930e+00,3.925310762629812267e+00,8.831320011311489804e-01,-1.839635232422443423e+00
-1.758205357397776947e+00,-3.492366124091077939e+00,5.763500172409266931e+00,-4.427084146987668056e+00
-1.056046440816145404e+00,-2.598272901290381132e+00,-4.895328468460585114e+00,1.157070387522170396e+00
-7.246617604216443187e-01,3.324470479320530192e+00,-4.980816355129819684e+00,5.824525071318118030e+00
5.056665947465136673e-02,-2.198351629404183605e+00,-4.411153487696680031e+00,-2.350073633082189861e+00
3.788855672063994540e+00,3.290161345948616756e+00,-7.262620695172654628e-01,1.836065374267061845e+00
-5.115372644535630897e+00,-3.797002536972259312e-01,-1.354720525649624641e+00,-4.193055567895849656e+00
-1.969369636290642545e+00,1.899061306046549102e+00,5.094762498033788667e+00,-9.255078503564237447e-02
3.869377749265394684e-01,-3.103524497049656272e+00,-6.159815766481282484e-01,4.055849827052091072e+00
-1.282598741595059932e+00,-5.101988925836874245e+00,5.878571635482555457e+00,-3.933181191359745199e+00
-2.220825717882821682e+00,-1.728708205980585277e-01,3.481334266215367901e+00,4.907983268914711594e+00
-5.447980052736976830e+00,-4.417598705070553411e-01,-3.491219890087956301e+00,-7.809908069765040262e-01
1.054278035873189134e+00,2.336310324746863731e+00,-5.432808423634093664e+00,5.107679871795212101e+00
-3.088704746227934006e+00,-1.226439231061173141e+00,-1.668053442207043213e+00,3.610507704946116281e+00
3.646126939231765784e-01,2.153223078654278755e+00,4.621894163585423598e+00,2.630830630462660302e+00
2.525797464727177033e+00,3.323500041480636380e+00,-3.887835677812276902e+00,7.071903594879561106e-02
1.252013289783310501e+00,2.406268425029895575e+00,-3.968310812316849567e+00,3.617846958812812819e+00
9.998692480249676828e-02,-2.038983812330254164e+00,1.207631854963954421e+00,-5.150836066731567797e-01
-6.075681146779509767e+00,-1.990030320794819452e-01,4.216508951945445283e+00,-7.494727091938635510e-01
3.872943686765804472e+00,1.382370188106888165e+00,-3.961946674311845218e+00,3.820973073125792374e-01
-1.548627567395372884e+00,-2.759334713838354158e+00,-5.037374446899086505e-02,-4.055775008711822172e-01
1.037419220346532667e+00,-6.010917810248375126e+00,5.027049977758540678e+00,7.771946451721630789e-01
8.009978189079079991e-01,3.603345268890339459e-01,2.557945725260357683e+00,-1.633537823799578792e+00
3.987444354762549104e+00,-8.378517144179923326e-01,-3.661301283631767767e+00,1.435549747296298362e+00
-5.146439914419451256e+00,-6.147883891172224446e-01,-1.097749176844901253e+00,-3.546048067137322235e+00
4.346943343975239848e+00,-1.436584863327168282e+00,-3.985978482968293157e+00,3.641275069229241712e+00
3.763211300883749222e-01,-5.240379243681384403e-04,1.288148528768818135e+00,-9.422273861479349977e-01
2.813837188393475408e+00,4.238350205007274774e+00,2.467370538800348179e+00,-8.576155797208780962e-01
-3.850487281927482755e-03,-2.350737127693818707e+00,-3.316268091762236470e+00,7.850175580466157710e-01
2.977273117906379163e+00,1.799633862466021750e+00,2.426481153840722715e+00,-4.886196630449696876e+00
-5.212024639132365245e+00,8.682770723448298700e-01,-1.883155740542627743e-01,1.091034313729781324e+00
2.955002267315936404e+00,3.081836414276019287e+00,-2.131984005130929116e+00,-2.202706350680746716e+00
2.523116939178195128e+00,6.688014909086228109e-03,-3.791406801918805414e+00,-5.486823278457364950e+00
5.833943590775086285e+00,1.221352022676465143e+00,-2.524809114879885685e-01,-2.060725767992911683e-01
-1.218629154075548726e+00,2.093848086756819882e+00,2.752583465152225628e+00,-8.651510490589289226e-01
3.124760623550412397e+00,2.828247835976121394e+00,4.267102867716597858e-01,-2.161118488879137267e+00
-1.056290709040651477e+00,-6.328140854918496316e+00,-1.216774223291132939e+00,-5.248630838628336015e+00
-6.038150830505273348e-01,-3.053398206741869458e+00,4.167565234952012254e+00,-1.261057836121280973e+00
-1.149243059832718572e+00,-1.511026918635555161e-01,-4.061896100384815078e+00,-6.109819799825679798e-01
-1.800215928993265324e+00,-4.039098693952745123e+00,-4.577837724898812688e+00,2.206320926816139671e+00
-6.269074352143021445e-01,-5.765000655000005914e+00,-1.389043187066412832e+00,1.355892197109561659e+00
-2.305820998231122854e-01,-2.941413680725024626e+00,-4.582516524301154526e+00,-5.069010250441677634e+00
-2.232171469289214935e-02,-1.203398852209521586e+00,4.752430844292654832e+00,1.905450376785135180e+00
5.045755506763079268e+00,-1.308588653164902416e-01,-2.959903607395023784e+00,1.976978016162776353e+00
5.296003570124063753e-02,-2.700582803669369092e+00,-4.645314950732315928e+00,3.344736117298423017e-01
2.735843765636889025e+00,1.416462060140530665e+00,8.632672825221034962e-01,4.934041279025822568e+00
1.145765534400910557e+00,1.859432524313624491e+00,-4.269812653491770860e+00,1.865642813028635771e+00
7.075754369674414068e-02,-4.452197471352727476e+00,-2.334410601248153583e+00,2.827217591369269201e+00
-6.219358518792330592e+00,1.222819559423929059e+00,-1.292924492292530703e+00,-2.426589964118698983e+00
-8.565456823454926649e-01,-5.799101162964758416e+00,-1.394404846899351291e+00,2.674817695464133394e+00
-1.360169914455209517e+00,4.789634114989953062e+00,-3.712281020311451574e+00,-1.779439211149884750e-02
-5.253246963107033318e-01,1.524036506336655217e+00,3.276103863795898796e+00,2.519496617795336402e+00
-8.971224112106132575e-02,1.116328016677532453e+00,-1.371853333259448193e-01,-1.004293678870130213e+00
2.307481790689276391e+00,9.557614168318576686e-01,-7.893742761176213429e-01,-2.394582748352901191e+00
3.293541105593570162e+00,4.978964180107581239e-01,-3.686156618960124032e+00,6.738254091857263095e-01
-1.656888729861042187e+00,2.994877492004557329e+00,2.082659987097479348e+00,5.406553205598186196e+00
3.929271214585115413e+00,2.889621177993212164e+00,4.458055026928188447e+00,-2.914446835960813331e+00
6.884279721662071028e-01,1.574052780633187432e+00,-1.295737094834313652e+00,4.786443372199549628e+00
-2.317730161387610011e+00,3.034458376652802603e+00,3.426428261289241384e+00,4.681588826692587801e+00
1.870556505187871643e+00,-1.234529079538411622e+00,-2.292240882403907776e+00,1.672912149979350671e+00
-6.352672453365863170e+00,1.894464917324080622e+00,-1.477689992302610555e+00,-1.627397382945730442e+00
1.251206917221197479e+00,-6.545281007463082945e-01,-3.020136642244440672e+00,-4.384715942348980100e+00
-5.420858807743105245e+00,1.504328838862721618e+00,6.223133074225158934e-01,2.142567685745467188e+00
-3.437200225007139398e+00,1.307712481969580898e+00,3.555189330079604471e+00,5.165037995612811628e+00
1.273986768142782333e+00,-4.372880493743608099e+00,-3.359666850614715816e+00,-9.625330384165299569e-02
3.462310151598106511e+00,2.789024043791025198e-01,-1.056265369844126001e-01,-2.410584459550854763e+00
8.145669081368811515e-01,4.125727065680093730e+00,-2.221487230746713948e+00,-4.286624458003243987e+00
1.079123408043281440e+00,1.668951318770458769e+00,-1.083352440654017146e+00,-3.799954134024362773e+00
-4.944987034349416000e+00,1.783044476009953971e+00,1.033412026322076960e+00,2.473611775046353323e+00
3.216406971457204111e-01,3.663680145301674962e+00,-4.383273367673609755e+00,2.523954488141503472e+00
1.194124375262296089e+00,2.128999056636461662e-01,-4.307311056754747902e+00,-3.400717473924381729e-01
3.392865549546909776e+00,2.316231277950685730e+00,-2.659150529146449671e+00,2.524944023827209727e-01
-2.177144448404376931e+00,-1.710529827294449801e+00,3.864301361621693687e+00,4.227218218171665320e+00
1.571636512798336272e+00,6.078235003135898040e+00,3.731940831289401572e+00,3.964611818473123606e+00
-1.387168343440279950e+00,-3.561939578957724617e+00,-4.688197801223298100e+00,1.258549087703764169e-01
-4.779407321483378768e-01,-7.201023610747863124e+00,-1.391516107782910516e-01,3.758661593834256021e-01
-2.757298130453487151e-01,-6.112216880463493318e+00,4.395358949099126278e+00,1.956136901377879989e+00
2.726846341981567612e+00,-3.081812088725548904e+00,2.327510726537897590e+00,3.003001334115528831e+00
1.851449589188184142e+00,1.605002377387704682e+00,-9.789722023759398484e-01,-2.686881502767193730e+00
2.488770838467041280e+00,1.877993537514881586e-02,-4.528728971091738664e+00,2.460276291026848305e+00
-2.228006219163495061e+00,1.774135933617720484e+00,4.158324157011690225e+00,2.847628857281494508e+00
-5.402914964942480136e-01,2.260279376620166314e+00,-3.575107232964674253e+00,2.959262267822823311e+00
3.099772597670239493e-01,1.525872469164246237e+00,-3.837335503972126638e+00,-3.740934529269499542e+00
1.425645374358011308e+00,2.577955237826213164e+00,1.701232798811174840e+00,1.354011383034310789e+00
7.616047129120139481e+00,-4.410804156982147672e-01,2.070379124661740899e+00,3.151110031777616394e-01
5.024712949916512628e+00,4.611264728152167924e-01,1.582105171153297851e+00,-3.295185350188419182e+00
3.574095934694446974e+00,1.857010336457630029e+00,1.456094227811573827e+00,2.595735682296397950e+00
-3.965759321775950585e+00,1.868555680346828618e+00,-4.071785513349067465e+00,-2.018827371263162807e+00
-1.701361922587103059e+00,1.461051732013808557e+00,6.466232021451373546e-01,-7.773339806383582351e-01
3.462638644802817911e+00,3.418927362228259881e+00,5.382683471594192914e-01,-2.003574445473418120e+00
2.699343886539638526e-01,-2.975351361853204590e+00,-9.275394762349234989e-01,3.571875127374847025e+00
-1.869861442414542108e+00,2.928546055000650572e+00,1.617355581472811332e+00,3.670954841563548232e+00
4.994990839717782793e-01,4.150227130876470660e+00,7.833855039168211576e-01,-3.250241541072453000e+00
-2.077184235703339432e+00,1.978776373244947262e+00,-4.072680861847503664e+00,1.414789324686733352e+00
1.865152091537155832e-01,2.625411636220862932e-01,-1.270485167592242393e+00,-8.106199643042706349e-01
-3.520229939675305619e+00,-3.681141929330093987e+00,-4.932748953957961091e-01,3.665012725395950816e-03
2.234959502558327316e+00,8.523308580790928124e-01,3.467105606646173399e+00,-1.946461203002726181e+00
8.074370508581522055e-01,2.595243990211467011e+00,-2.819866523398574465e+00,2.753719289906008116e-01
