3.688388820035515714e+00,4.164346413757906262e+00,-4.252040910920919181e+00,5.197222198366336698e+00
-1.705293292964645380e+00,-6.852779562757162601e+00,-3.945528773980608861e+00,7.249448650668883776e-01
3.438266080245157230e+00,1.434922763534563162e+00,-1.859831486071317430e+00,4.693229224274833022e+00
2.617370300571677522e+00,-4.923751924894639309e+00,7.391473230107397097e-01,-4.230205174648024702e+00
1.735309435933369171e+00,5.638781977992522343e+00,4.885755128016650239e+00,-3.298443937927605152e+00
-8.576033265009025186e+00,4.148312687988860437e-01,-3.505482049167023273e-02,4.708234830831157680e+00
-1.697134656356712012e+00,6.802025102444836158e+00,3.418629807866573334e+00,3.557184600391945839e+00
1.231662745265472703e+00,5.305455141897217786e+00,4.294998051074246703e+00,-4.918111490576822925e-02
4.168737818430177988e+00,2.455933286324346376e+00,-2.668171160020392119e+00,3.053179273980784370e+00
-8.907873952835370090e+00,2.430401224096495838e+00,1.797377042360264410e+00,-3.454356516945486510e-01
9.736917921828142086e-02,2.280741576432293805e+00,9.890536040516240135e-01,1.492106638555450226e+00
2.298453373931427901e+00,4.750403063486815292e+00,-1.419090665781736815e+00,1.634817206872759832e-01
-4.104225473403299240e+00,2.029182892123783111e-01,-5.712300390436869435e+00,5.725763461131623266e+00
5.238321120294982869e+00,-2.292959765372163616e+00,-2.888399780950542173e+00,-5.764817792867305002e+00
-1.424672832252757315e+00,1.592447697858754285e+00,-3.692616330384552281e+00,5.652924679221422721e+00
2.560441956996679647e-01,-1.648354717794776159e+00,5.183882594755391260e+00,-5.076383309815348799e-01
-1.915659267411153888e+00,-2.600585209817445342e+00,-4.743736737184267582e+00,5.562702607828970969e-01
8.073433924543589324e-01,4.292461225560649574e+00,3.183210303456235568e+00,-6.074679830597062846e+00
-9.481215180426310063e-01,6.415758161880438237e+00,-1.381807617222914120e+00,3.520515113083957814e+00
5.525221009484150292e-01,-4.625546309578119075e-01,-1.433675906283910839e+00,-5.889962845458623697e+00
-4.334987390248902450e+00,-2.184687140485104262e+00,-7.000260524365549131e+00,-6.695320319913170559e-01
1.560844791667163722e+00,-5.770519219605326100e+00,4.985498411891563508e-01,4.927882204875406735e+00
-3.420307883043721686e-01,-2.669157812652638739e+00,-4.269855356154047321e+00,3.635636918294336439e+00
4.876236744660078060e+00,8.045169682828628988e-01,-1.698544915862862270e+00,6.824235145299903937e-01
3.986131767809996784e+00,3.350043310738902491e+00,1.423611297301330403e+00,1.763091246920699628e+00
-5.098924964596882603e-01,-1.209920833679164476e+00,3.965308842445814719e+00,6.238115958692350915e+00
3.346923934073311013e+00,-6.206645265802851696e+00,-8.737034562383831915e-01,-4.438254238984974620e+00
2.362659026788565875e+00,6.839419779023041990e+00,-9.227472625801297346e-01,4.444855097260483667e+00
2.461763856065653400e+00,-2.600736771411876980e+00,3.935935665237356940e+00,4.059976078829398427e-02
6.277203198811386109e+00,1.528128882867103133e+00,-4.870316920278431327e-01,2.267364332463967180e+00
1.581648503229682534e+00,-1.193448767447591763e+00,3.730472318185544811e+00,-3.503031253966930159e+00
-8.309589728043385026e-01,-4.619304698773330387e+00,4.573847524619958804e+00,9.653913862126424217e-01
-2.445448073187233007e+00,4.016751992866753884e-01,3.774226292235535046e-02,-5.249981354888713980e+00
1.520221588859189454e+00,-1.405876158781334540e-01,4.274545345779826810e+00,7.812161701667432734e-01
5.427299039965470528e-02,3.240514766582280437e+00,-6.384989174454592797e-01,-1.847890659819533710e+00
1.793164899296523673e+00,1.856175952844104415e+00,-2.927102442673779947e+00,-7.679333108293472376e-01
-4.210285456208359811e+00,5.899738762497654498e+00,3.604969980798958584e+00,1.613975683411094764e+00
5.606971458758576610e+00,1.937750654378994186e+00,3.152051888324481244e+00,5.807884006210820793e+00
3.856623860153159722e+00,2.536828241977679532e+00,3.371486486979831554e+00,1.444953439408730667e+00
2.291105706014788801e+00,3.358679816939753593e+00,-7.031405425075667459e+00,8.255243041794066983e-01
-1.991226172804918981e+00,8.194707102395953902e-01,-5.408585114982614073e+00,1.217686551163294634e-01
-1.627631456581324576e+00,-2.580234766695546966e+00,-1.759275764201710723e+00,2.366115382805854317e+00
-1.149902385659733461e+00,6.887565691983930094e+00,8.585199493200081911e-01,-6.024011542791532392e+00
5.092828203050607350e+00,1.226190519453318695e+00,-3.057286106677857163e+00,-1.447213779802529077e+00
4.474008393115383342e+00,2.705595336879172308e+00,3.980053635440285120e+00,6.511877217280813035e+00
7.270969202946530041e-01,5.782876966076189618e+00,3.300188781800728055e+00,2.585365246640886294e+00
1.983553960595282550e+00,1.978312662927879995e+00,6.777152171694270644e-01,4.291801987356953063e+00
-5.465997239374313921e+00,1.456600081839580341e+00,-3.893933372792255931e-01,-6.582177554594417224e-01
8.153106639921089638e+00,4.015362260060092447e-01,2.882686436353475656e+00,-5.660993927656150504e+00
8.706421601598614002e-01,-2.884442705099193205e+00,4.114855579845794753e-01,-4.058978396468491567e+00
-1.660815419291062911e+00,1.484449638700758189e+00,-5.431157885131152163e+00,-1.888624862847247288e+00
-3.772335378152430696e+00,-5.221472537670316605e+00,-2.390530163114086726e+00,-3.266567585803109797e+00
-6.612666831749788976e+00,-3.571649404495617214e-02,4.450834845628893532e+00,6.034653391866060534e-01
-8.964993029376558953e-01,-2.458245830600788828e+00,3.460394013053424089e+00,3.174311672434005693e+00
2.766424313394342693e+00,4.404778625191803521e+00,-2.059850561486157083e+00,-2.341248700175314390e+00
1.647319025934179892e+00,7.377544256250794241e+00,4.240519296250729653e+00,1.519723362327089378e+00
7.341247714906573130e+00,-2.524533242899216656e+00,-3.249387924613866385e+00,-5.847706510957834780e+00
-8.844124615422366276e+00,2.286767858175687618e+00,-3.908741486134362231e-01,-2.833366095106396809e+00
-1.566471956345769634e+00,-6.970844880318110448e+00,-3.468514583027808129e+00,5.082351242560964266e+00
-4.513262553340973149e+00,2.597904132415845280e-01,-5.755368175738832193e+00,3.018282949619545352e+00
-7.230240653156163155e+00,-5.932051865941057045e-01,3.460542382765020797e+00,3.467335643089170638e+00
-6.370401271955948852e-01,-1.106019933455118842e+00,6.012765910669876090e-01,-7.691788432510660023e-01
6.470693130521868675e+00,-7.684815372528354116e-01,4.900766905403418860e+00,4.494010053869462729e-01
8.027966927441092526e-01,6.602038604721085946e+00,2.853276018544259163e+00,1.960557499244952595e+00
-2.383572041304966582e+00,-6.868234160333586580e+00,-4.274560745904770975e+00,-1.267671562550525544e-01
-6.043660781752932643e+00,-1.316946736310045996e+00,-5.451390950707171612e+00,-1.117303538944679264e+00
-4.101289325192794877e+00,1.191078816167042420e-01,6.131230886893734855e-01,4.517100832996125526e+00
1.124913154204525423e+00,-4.324346697437825071e+00,1.905009509264285583e+00,4.873992308226382519e+00
-1.013241284787578467e+00,-1.384827912741385669e-01,2.044535304067879977e+00,-4.939586287341046322e+00
3.619539250727055180e+00,1.244459599822289153e+00,-3.465843785941301602e-01,-2.509079217884851998e-01
5.377894233599391782e+00,-1.769371412510548414e+00,1.524040463605902840e+00,5.189797777895917008e+00
-4.334827171994033002e+00,-3.830527964859947732e-01,-2.234966275686495418e+00,-1.022105424240393190e-01
-3.053560276209067226e+00,-6.567380729172970222e-01,4.747164286135457267e+00,1.816583037576262605e+00
5.307358428328683431e+00,2.702928349428509458e-01,1.294128594069990701e+00,2.993354674837362506e+00
4.928562046597313007e+00,7.255573245160886753e-01,-5.340515407154978744e-01,-5.074715795002241236e+00
3.736323026311610729e+00,-1.712373049844584605e+00,1.224290030570281740e+00,2.657562860281048156e+00
-8.034865697749346225e+00,1.469023648471901311e-01,3.696619194892609706e+00,5.297900383937808932e+00
1.419956765256889186e+00,2.157633864357295650e-01,-4.804766395836739257e+00,2.995013938282334198e+00
-7.168776946801289185e+00,-1.139961416004130701e+00,-2.452506109883301200e+00,3.029095252793298609e+00
-3.022338063357445925e+00,1.332178523169699202e+00,-5.189188117056182215e+00,4.935547528517910010e+00
5.388284195131840981e+00,-2.638971086988515236e+00,1.020161835884388690e+00,1.659528615231080417e+00
5.010392193662420723e-01,2.165078782154469916e+00,-4.524392073031423323e+00,1.856333247492421679e+00
-1.230347307210806068e-01,5.721587985690792522e+00,4.170929075684117748e+00,3.539444155557195604e+00
3.835190917802792754e+00,1.867053485802723789e-01,-3.027274098214551401e+00,-1.509915091463426506e+00
-4.609431431776711996e+00,-4.799036968458945118e+00,-1.530035594142653999e+00,3.062173729453819604e+00
-3.088497408000699940e-01,-3.315506746604149235e+00,-4.313871719890867595e+00,2.566385335999630257e+00
-4.566377764720358279e+00,-1.697199673236348128e+00,-6.820718401076399040e+00,2.714040398753430505e+00
-1.339190655232582516e+00,2.082123391389025802e+00,-6.275876629887399361e+00,1.289818396448362270e+00
-5.179322282921930976e-01,-7.953511397410776285e-01,-5.622848778049030827e+00,-5.097380993902477897e+00
5.986780114371873518e-01,-3.220104897435314695e-01,-3.634654468586465015e+00,-1.300512533728810372e+00
4.675843425826490041e+00,2.981260683643921716e+00,-6.106499377242795568e+00,-3.602094775042687491e+00
-3.937716055949147531e+00,-3.209531975622785804e+00,8.680110845419957144e-01,-1.203091519944105903e+00
-5.305802459691225437e+00,4.148131081579360391e+00,-1.249605526690489077e+00,-5.723093274218392423e+00
-4.122622096098825573e+00,1.980705029982215981e+00,-5.324887360595059738e-01,6.919702750516510958e-01
6.126168478124178307e+00,-3.387953002554884741e+00,-2.396989739791592022e+00,1.043242188083375543e+00
6.248763042055777817e+00,-3.060978521245222850e-01,4.519216504046007721e+00,2.044413504574455587e+00
3.808767523350581552e+00,-4.019477658137958542e+00,4.852678420608909360e-02,-2.197844224266865876e+00
-1.027100711486491402e+00,-6.442924497729900501e+00,-4.592405810773772856e+00,2.439495057982947301e+00
2.787614848101072074e+00,2.031425354422452756e+00,-3.618478709085829692e+00,2.869453281264213729e+00
-3.516895058573550337e+00,-1.188946259370408765e+00,-6.485233302923405496e+00,-3.006297987017064965e+00
8.180278948777429671e-01,3.580465758979721969e+00,3.298706688391225939e+00,-3.284423985905176480e+00
-3.237034559608487960e+00,-5.190752280414620223e+00,-3.162966013565013945e+00,-3.910670450952039717e-02
-1.684971925102833001e+00,-5.934650077888791841e+00,-3.975329055389691946e-01,-2.013165111218323755e+00
6.906883991762778230e+00,-9.926889876527797973e-01,8.316828250686184587e-01,1.553098383672132154e+00
7.638684063502612087e-01,-2.932034573441591463e-01,-2.647326737122416951e+00,1.519853634891161986e+00
4.962328519579717323e+00,-1.115357654169009560e+00,-1.728632409028366235e+00,-1.865788755131580601e+00
6.486755976505523158e+00,5.490765840381062191e-02,3.101938558525585421e+00,-7.838235180728987395e-01
-2.011044155403424849e+00,6.506112435565736263e-01,-3.303672273006155180e+00,-2.620753036688138415e+00
-8.669026058498157994e+00,2.583092649556246290e+00,2.609813346178674331e-01,8.088026317031774548e-01
3.089792218026356174e+00,2.998538522631603698e+00,1.446240769776757640e+00,1.233727630884893456e+00
1.270389025483423806e+00,1.950299132016763304e+00,-2.364895519700693782e+00,-3.180447609767006245e+00
3.431812986133858656e-01,5.030700798138257213e+00,-4.184336105275399120e+00,2.356525221461335473e+00
-6.342537074043580247e+00,1.394552141619216812e+00,3.355947866922864620e+00,-6.765232685456247452e+00
-4.008079179082287169e+00,6.018085611986407457e+00,2.047406673263947319e+00,4.201243919656684866e+00
5.425544918975546693e+00,1.264739403101504012e+00,-7.773478921276713027e-01,-3.374739784251438168e-01
-4.643228436081196508e-01,3.276939912459354787e+00,2.633022007548053711e+00,2.801891135543682854e+00
2.853451237488737746e-01,-3.653816183919217919e-01,3.027860613943274437e+00,5.206340716840940352e-01
2.217306602540481730e+00,1.939778430927374897e+00,-1.760754815919445715e+00,4.760769736183417256e-01
1.852218918862827080e+00,-2.748461268591840145e+00,3.045290315155343652e+00,-5.810549258084922286e+00
-2.398734416359787680e+00,-1.524891975869528682e-01,6.068110087225486282e+00,5.683259639637508798e+00
7.030317277970965506e-01,-7.182148352536708025e-01,6.206305511106284811e-01,-2.256749341356866001e+00
2.122528216644999244e+00,5.841239799574135638e+00,-2.900809418551255625e+00,1.865376103705060462e+00
-1.705488814087819938e+00,-3.679081501956176226e+00,4.301275855961905314e+00,-5.699221688060801760e+00
-9.566693251895729277e-01,5.985041444192432003e+00,-1.598192198423560750e+00,4.416816481486621093e+00
-1.408650820521867297e+00,-7.361109929571346910e+00,-4.164507622770279305e+00,6.065623530009487396e-01
-2.528873191358286920e+00,1.917992536432237882e+00,-4.976589397195744446e+00,4.197173255118723745e+00
-1.950809542325532497e+00,-4.906619231934368663e+00,-3.996843476974722531e+00,-4.678874033535382893e+00
-1.705661047065182068e+00,-3.054376206399899818e+00,-6.160729651578920496e+00,5.372288579506612649e+00
6.157472592090344143e+00,1.812781002585726053e-01,1.257228791104033405e+00,-1.163408445894853260e+00
2.823597157670023172e+00,-2.679263959060664391e+00,4.638651105688001763e+00,4.100884033146908081e+00
-3.610406451856490673e+00,5.690590709167161476e-01,-5.580495987135948965e+00,-8.362513221882164061e-01
-5.408126517847049008e+00,1.362094889549378740e+00,-5.493718859978067748e+00,2.509703722765279199e+00
-3.790037342939368337e+00,-4.544486047376455673e+00,-3.545608524930333960e+00,2.381902572581241717e+00
-5.045709738626722896e+00,1.714809161093125978e+00,-3.153994371795511231e+00,2.848554017192182375e+00
-1.537851996757439332e+00,4.488449051991984184e+00,1.811426943914430598e+00,3.899760126167430840e+00
-2.221429811520261310e+00,-5.961341937543756409e+00,4.388154794891483412e+00,1.204803032575018307e+00
-4.818415685362861467e+00,-1.688330009293396827e+00,2.836191475036931475e+00,-6.795349786247294688e+00
6.224554974314272293e+00,-1.640265062127629125e+00,-4.099851317551098440e+00,4.749938807328345725e+00
-3.782177645866005022e+00,-9.784745550685411963e-01,-7.552231436623367600e+00,-3.721170641523179778e+00
5.228208756001908458e-02,-1.571118287982096628e+00,4.893553894944680849e+00,-4.479902824695726871e+00
2.094708942185820710e+00,-4.787864896517886604e-01,3.373142644310719529e+00,3.469167716452957961e+00
-6.046674931593420510e+00,-3.245792958678749507e+00,4.289033517334984502e+00,3.460077772715861144e+00
-2.358736320185864876e+00,-1.105896652559466009e+00,-2.059837318341703138e+00,5.705040251715638000e+00
-3.670276209436538206e+00,-1.987067079584596829e+00,3.470805617831196344e+00,-1.550832015279024256e+00
-9.138207410314500123e+00,1.906771548969188101e+00,2.393814464848930346e+00,4.061156520984230411e+00
9.155577326488727463e-01,8.853519715340461838e-02,-9.534567956871624617e-01,-4.917375342890898615e+00
2.786754761105513456e+00,-1.098022831369925845e+00,-3.100149517857960557e+00,1.701106081042966123e+00
3.650833299596631498e+00,4.205104474575749762e+00,-7.416325333736103254e+00,1.290672534234659441e+00
-3.017991020003726987e+00,-3.708672379913007244e+00,4.429778480248340311e-01,5.776958232843425911e+00
3.481072863791603300e+00,1.677137844753906037e+00,-2.949436756536082171e+00,-3.924030709276982165e-01
-3.543671568274517902e+00,2.574981735465840860e+00,4.351144470479573756e-01,-5.984906816403150920e+00
-3.717679820120557199e+00,5.497877327807738190e+00,-7.823379879654790425e-01,-2.136622437377310835e+00
-1.912971755522687056e+00,2.938476304338881739e+00,3.790538136127329594e+00,-5.061803964108571918e+00
4.311383426569529220e+00,5.050543759382539299e+00,-7.444409588053470195e+00,-2.315200364506824204e+00
-7.701941751001085024e+00,3.577569987888944980e-01,-3.531164943977068926e+00,3.255879633242176219e+00
6.406447635525579720e+00,7.359039635818225289e-01,-1.046151202333639896e+00,-5.323846687616318185e+00
-4.380461997769428129e-01,-4.000459880052891215e+00,1.399417333995125468e-01,7.507100927919229116e-01
2.736735142604437510e+00,4.937124908993612671e+00,-3.182963294617136008e+00,3.131238219028878778e+00
-3.662235931451144566e+00,-9.486430729450296973e-01,2.636014942972318753e+00,-2.946803703316999701e-01
2.311612391736284966e+00,-2.195483063492398301e+00,-4.587344221734406702e+00,-3.616542299802142368e-01
-2.025265960346982475e+00,-7.146545774616114954e+00,3.858069024201329356e+00,-6.896092337505868031e+00
-3.541612715967222158e+00,1.425423079643603763e-01,2.040698098279335682e+00,5.690988068969538460e+00
2.273385924930112267e+00,-1.578263148852304454e+00,4.548219637736272247e+00,-6.860153171797193083e-01
8.219670763210686459e+00,-7.075536647502491672e-01,1.599702350317447674e+00,-3.672607757438911547e-01
-9.845560070261505370e-01,1.665039182847639632e+00,-6.038930076351204379e-01,-1.853026523881827134e-02
4.299000621834329294e+00,-2.159200232338702730e+00,-5.040035027299132331e+00,4.282212258118324399e+00
2.711988726790894866e+00,4.684301172485810127e+00,-6.470544605454739973e+00,-4.141972135822957313e+00
2.924473591521430826e+00,3.220513061920137865e+00,4.584485855731688098e+00,6.034222081847492980e+00
2.888050825293511092e+00,1.953632937563153371e+00,1.892501021705256248e-01,5.507941599232262675e+00
4.962777154485101261e-01,5.391355686650956436e+00,4.439928812790096657e+00,3.190667409261742637e+00
4.322767376036635412e+00,-1.029548150837056530e+00,6.427140342727164501e+00,1.465129650930481864e+00
6.800831170155932082e-01,9.205727999548241058e+00,9.847808008390696033e-01,6.202294611974317640e+00
3.222727321459216476e+00,6.132402082508765950e+00,-2.689668683575682007e+00,-1.225979677133832935e+00
-3.152831957544220298e+00,1.989275829084497849e+00,2.759740862072730394e+00,-5.000882499067915710e+00
5.347595499870660518e+00,-2.105637777534606681e+00,-2.727878340942922364e+00,1.698884335820955160e-01
2.716010936973215273e+00,1.812131827227228653e+00,2.360487544004326477e+00,-3.250634143138514620e+00
3.929917180436012902e+00,-1.803483945780507414e-01,-5.881114359715319928e+00,-3.119981413261009084e+00
-2.448182484848640428e+00,-5.536269533444826862e+00,-4.545428538026292209e+00,4.407957371597474250e+00
3.046813028027087533e+00,4.388719447382588790e+00,-6.377625506401107813e+00,-2.216354006555538714e-01
2.034748904697902816e+00,-1.248652729180239618e+00,6.792765029294143275e+00,6.150234168097711063e+00
5.758047016482904512e-01,-4.130182204338241903e+00,3.908070174761840487e+00,4.935949796816007762e+00
-3.559568153139704538e+00,-2.471367197090811541e+00,7.074144192593566416e+00,-5.669226637060598151e+00
-3.883794516315712819e-01,-3.733687733687130805e+00,2.105661878410463039e+00,3.857930675206989513e+00
-2.618789933690004901e+00,-1.851673507754780790e+00,-2.728779082734403616e+00,3.133354664651363475e+00
8.366230917518749921e-01,-3.025363806164605318e+00,5.079937283078936439e+00,-1.792412735720106953e+00
-1.703336453548146834e-01,-1.847127334815745314e+00,-6.393927514323654471e+00,-6.566884869627527266e-01
3.626942743776639499e+00,-1.042846964902718776e+00,2.205152657288464990e+00,2.099989205570219397e+00
2.748200578666334160e+00,6.134296019154284352e+00,-2.681657611199605440e-01,3.880952178638867878e+00
-6.918447897188847229e+00,1.896861657406238910e+00,4.225423209801497215e+00,3.230954512326257300e-01
-8.570133582151695961e+00,2.518961579214346713e+00,2.525739550153488722e+00,-3.306884314215960963e+00
-3.231964785795622963e-01,-7.400976762978807244e+00,1.998657500086285510e-01,1.672669305214693702e+00
-4.087238928804939886e-01,3.483955947673064824e+00,-9.007813253721927982e-01,1.036137658002690420e+00
-1.707941148543312915e+00,2.785787819124941667e+00,1.324061898147687932e+00,5.226123494204954589e+00
-5.581846622901335486e+00,-3.534128882020340923e-01,-1.538480756895407531e+00,8.534085432139287830e-01
-6.587107429813406911e-01,1.325946161709250060e+00,-1.246242112576486205e+00,3.987225922987094773e+00
9.024233111137208718e-01,1.323149347209047866e+00,-6.007979617702336128e+00,-3.269590419129630998e+00
4.039966168438028582e+00,-1.549310776019390490e+00,-3.330071957017507689e+00,3.734422732261845290e+00
-2.594238171716330754e+00,1.642340021076367007e+00,3.766127578598962522e+00,-2.169636472506578428e+00
-1.141246521571146699e+00,-2.576168873896466316e+00,-3.997928840663095951e+00,-3.174709029582670983e+00
-5.395034423205147256e+00,-3.504084390596039711e+00,2.455540288275301020e+00,-6.451059215005114367e-02
-1.235297222414340368e+00,-9.506711008621384629e-01,7.957494056705437246e-02,-5.259161119307979249e+00
5.398953727519999468e+00,2.453784156828441532e+00,5.695428698373115495e+00,-1.953741430500494092e-01
1.094039789975938204e+00,-8.205372215365096977e+00,-2.083452513322081145e+00,-6.437574559252388084e+00
-3.786724733730395531e+00,-3.689425545443466792e+00,-4.006492041527719650e+00,-1.521946733409220931e+00
-2.116977994510495620e+00,3.637435811046435319e+00,-4.120955983360564900e+00,-1.223694496130594001e+00
3.150796188015517529e+00,-1.849788899781931617e+00,-2.773493600925224012e+00,-4.905662514299616639e+00
-4.602459114720139688e+00,1.845257572524622303e-01,-3.220135087169384125e+00,1.712077338838930762e+00
1.074507884632356358e+00,-4.228185874009200873e+00,-4.096260050808004927e+00,-1.453493841750011617e+00
-3.356384716720156369e+00,4.266908505806109808e+00,1.470751643129049047e-01,-1.568243945697078034e+00
-1.360341588019036152e+00,2.998904218092846463e+00,-3.247062716756777601e+00,-3.719763511297395908e+00
6.667646033290966501e-02,-8.155764571995993251e+00,-2.105021271459074139e+00,3.183616497029213566e+00
-1.904086829309327822e+00,-3.297574582438932200e+00,-2.748989232663165083e+00,-2.666672912209648416e+00
-5.472587211950505903e+00,-2.071567313339659933e+00,-4.449616666020880018e+00,-6.409822637244503518e+00
2.703618752333974307e+00,5.783088350245261466e+00,-3.726013642294917716e+00,-3.724877426296493987e-02
2.488247273667110737e-01,-1.978437350730837929e+00,-3.325261483698134679e+00,-1.658904144342844056e+00
1.333593104021564502e+00,6.530570246937587697e+00,-2.895099262682399477e+00,-3.483207656573891420e+00
-2.764664328619001132e+00,3.442498048657004706e+00,-3.906496724325547731e-02,5.830234619669066198e+00
3.287110683835707370e+00,2.480488497935994907e+00,-4.194116376060514462e+00,5.730387327621864202e+00
-8.807833258582302705e-01,-4.779208590919805655e-01,-4.281003352507144477e+00,8.930293397029076541e-01
1.017881729199511476e+00,2.372652954416319293e+00,-6.646219901064809754e+00,-4.313697284317715486e+00
2.063104544847946809e+00,-3.488962845813880165e+00,3.598651578186264466e+00,5.740846305052703435e+00
-4.126242291237684073e-02,-7.413012518466827849e+00,3.635520838094626894e-01,1.678716880748021945e+00
3.856889457107891328e+00,4.723737717722819696e+00,-3.111581014082126728e+00,2.096367589014170640e+00
-6.238422348131452466e+00,-1.336375066213615070e-01,2.132742776816693997e+00,2.106904223764180184e+00
-1.764388167844750166e+00,-5.658768309877390656e+00,-3.907224958670584503e+00,-3.896237741183255388e+00
-5.334318660979372240e+00,1.161683184702237748e+00,-4.269654816867832992e+00,-5.766194634838957001e-01
-5.690304545972296069e+00,1.975314991907350937e+00,-4.288537333281519537e+00,-4.411728348492792051e+00
2.710288372479830343e+00,-9.807360335154270414e-01,7.907126280743244084e-01,4.436900500437677142e-01
8.117745815968065992e-01,-4.046579590020638939e+00,-4.928241185989434392e+00,-3.831836187983866271e+00
2.126354851854318717e+00,1.585897823060564038e+00,-1.618845223716659065e+00,-2.459272661649799296e+00
3.340283189601156444e+00,-1.410842332238288810e+00,-9.666400186866926925e-01,3.381742774501240056e+00
3.951925309419114019e+00,1.799566266793109826e+00,6.829888356064448551e+00,-1.941277481084146217e+00
1.127518146865723603e+00,4.049763150636895404e+00,-2.414017635227811542e+00,1.744197323718921000e+00
3.019188026388228252e+00,-7.639994692073488025e+00,-3.038426792879883376e+00,6.081871794213736138e+00
-2.861763337905836924e+00,-6.109109631488220948e+00,7.596943179712048355e+00,-3.490001519723339385e+00
3.932576045900670447e+00,1.385261613673524073e-01,-2.586041959075877639e+00,6.330493193600237767e+00
-5.155886660301719715e+00,1.995788242215876251e-01,-1.011410441615651523e+00,-4.136051653036322051e+00
-3.116202618936398938e+00,-1.704143185593975263e+00,-1.823215814747013219e+00,4.408949195917320374e+00
2.969202505758295474e-01,1.223245821008337453e+00,3.556517794626294915e+00,2.101726828670096303e+00
-2.470858164330584916e+00,3.565359565947052278e+00,-1.991191243924697929e+00,-3.789641261488942536e+00
3.631856229044781337e+00,-4.834997655972306241e+00,1.676741497335469955e+00,4.386343066186944917e+00
-6.382298544090315495e+00,4.153300953031643594e+00,1.194589159280775359e+00,-2.235143176361038986e+00
4.656109874077472455e+00,-6.708297403706044992e-01,-4.877851345903925662e+00,-7.420513028730590932e-01
-1.719072941778367891e-01,6.010705325920444597e-01,-4.551365883457497041e+00,2.586975160964003262e+00
2.579748982072402441e+00,5.128117500013559926e+00,-8.632240056539134399e-01,-3.227762596186515065e+00
-5.048167341767363148e+00,1.483710306024265402e-01,2.310421172711640825e+00,-4.955441846803976702e+00
4.072695577180240334e-01,2.900150564281778198e+00,2.776835066398858132e+00,6.958586429634595893e-02
-7.382241626375021237e-01,-5.529745385458465279e+00,-2.137532987644718663e+00,3.560234300164470511e+00
3.189777230759981430e-01,2.230543364892393909e-01,-1.956080813541495766e+00,-3.808932839325835484e+00
-5.462084325840587340e+00,-1.935030078219444727e+00,-6.586579108596941623e+00,-5.889682455284796170e+00
1.248230276605851286e+00,-4.807597093381234643e+00,-2.334384015661573886e-01,1.874967657105565788e+00
2.293171400584841368e+00,1.019150822626786024e+00,6.977527274438498850e+00,4.776715045304363194e+00
-5.548807508466502725e+00,-1.630183958981910042e+00,-8.661587889121808992e-01,-1.516986261976195127e+00
2.340968806282944126e+00,3.239350098225613817e+00,-6.664080670081781399e+00,6.394611556512651340e+00
1.483795809548095868e+00,-3.850301561151784568e+00,4.108607930561731791e+00,-4.257298642894853380e+00
4.650461048685060050e-01,-5.750837266833688233e+00,2.176077282594564011e+00,-6.824189277357699535e-01
-6.023775635209613899e-01,-7.395740274343932441e+00,-1.220736151991556939e+00,5.517068329563347362e+00
-1.274646938093316528e+00,1.259683117524609042e+00,-7.663144381269733962e+00,6.238595663749880060e+00
2.684218981941045801e+00,4.684684475106529078e+00,-4.549203171299827098e-01,5.164798067517498481e+00
3.062679342776797320e+00,-8.030516145009651829e-01,6.147312996901121984e+00,5.498081334479860693e+00
-2.090440596957257480e+00,2.115368582747783499e+00,-6.707236928923464347e+00,9.518636098390400591e-01
2.122919765103084888e+00,-1.763440979263392494e+00,2.269121054936468873e+00,-5.158061884592990864e+00
2.499980372379099425e+00,5.011039015351219206e+00,4.032374486898396171e+00,-2.182815172403719806e-01
-3.770337535104482996e+00,-3.589451306111983708e+00,7.596225694194069789e-01,1.257691509621343684e+00
6.736563502552071758e-02,4.322212128166474265e+00,6.891444147561561762e-01,5.701625424933387087e+00
2.666367647536545427e+00,4.529873030470728423e+00,-4.018678343026143018e+00,-2.612426549022555999e+00
-9.672291365066668645e-01,-1.312344306481093348e+00,6.400535160378328037e+00,-4.429298214877456452e+00
-2.915410992681398472e+00,1.498677331229277820e+00,-4.627014740744239241e+00,4.406922679440729240e+00
-2.137352268665739352e+00,-3.513585459739572592e+00,-3.133755474361528126e+00,-1.037057189927604872e+00
-2.943578839196236974e+00,6.556591513931200765e+00,1.837638834360274531e+00,4.169662951269864415e+00
3.122493714027784417e+00,-1.277324091575822995e-01,-1.985379335988641802e+00,1.202488309895097363e+00
1.742742133840970986e+00,-4.179764841960879274e+00,-2.696535576855397243e-01,-1.554314593697085911e+00
-3.476328113513503126e+00,-3.162798656977565681e+00,-4.499670341768389203e-01,3.390774965390376927e+00
8.279319052749816166e+00,-1.660974164590365731e+00,3.975584887558446523e-01,-1.293956161906903990e+00
-5.080347532666427135e+00,1.418014553924752674e-01,-7.913118225691949448e+00,-1.036601226592246183e+00
2.029747327160305925e+00,1.037205520803946790e+00,5.211821236249842393e+00,5.100652809580497049e+00
5.427942877482690776e+00,-3.156219137282695542e+00,-2.471806640564997881e+00,-4.571604757261355623e+00
3.548236939447640292e+00,9.970098552742594489e-01,-3.221189322291455159e+00,6.656203393924970513e+00
-3.096958842360914677e+00,1.929738870388791439e+00,-5.089310675901296932e+00,-4.156541191842655358e+00
5.062197830634585394e+00,3.226009396657689710e+00,5.883624764301878862e+00,-1.961658951726902966e+00
5.368569108880645757e+00,-2.864521616278619676e-01,-4.688723429247347418e+00,-3.737928388987740380e+00
2.674898922252398226e+00,4.288150684951231639e+00,2.216265645535488549e+00,3.491064815979601832e+00
6.985954430682998151e+00,-1.161328421630824836e+00,4.562623760808607543e+00,1.418628252419898539e+00
-5.456349430907494025e+00,2.662780513598729026e+00,3.516109383985503545e+00,3.198791489682608180e+00
7.779348150779171966e+00,7.432007688866522077e-01,-2.908361773538354456e+00,-4.594588677228987450e+00
-2.848615087832723880e+00,-5.417147427023060402e+00,-5.514869850799585471e+00,4.532765931093873490e+00
1.944465425657989188e+00,-4.463441276930969259e+00,-4.101229701944531847e+00,-3.919547067024116149e+00
-3.797150053373900214e+00,4.033435148471338216e+00,-1.916649615685092511e+00,5.535181071433810551e+00
-4.794755577654401080e+00,7.402597965914466949e-01,1.875269545193072540e+00,-7.495198228335010482e-01
-4.084534515817639821e+00,2.395916244005702911e+00,3.083857608929013505e+00,4.423366467968760318e+00
-5.763449451395701750e+00,-2.388165452552789780e+00,6.341628677750604126e+00,2.481062303638009947e+00
-6.256044518155274403e+00,-2.322988952895484349e+00,2.992746388899802046e+00,2.426963140981111433e+00
-1.182865160374558799e-01,2.866298692919191815e+00,4.621251986117292709e+00,7.076678665157347670e-01
-1.151463930557363069e+00,6.731766465822503598e+00,2.757217051718030110e+00,6.077175316449696219e+00
1.112210246366360095e-01,6.549447009118366303e+00,2.949885355816521670e+00,3.762911503108440581e+00
1.340577382464056111e+00,1.571868779585973153e+00,-6.502517199710792006e+00,-6.191068080642843974e+00
5.158820205091584121e+00,9.935310434356732223e-01,7.979041039748193676e+00,-5.348594182101681582e+00
-7.510774297879101447e+00,9.322804368115935603e-01,1.904063533151652221e+00,-3.227071897789172361e+00
1.269829169824699955e+00,2.025169045787929889e+00,7.637954073013385470e-01,4.410564279257796483e-01
8.518032686950055554e-01,7.164387293014943481e+00,3.650056236371120200e+00,6.332689489819601114e+00
3.444924985655134719e+00,2.603936454246279730e+00,5.977726545264071767e+00,3.461884903993605711e+00
5.735188017541847927e+00,-8.073492866434912596e-01,-1.890143819853096430e+00,-7.760946990682464630e-01
-1.138830999328778876e-01,-2.255464454216792536e+00,5.375329458404475957e+00,-2.425269955909176434e-01
9.204170030665239643e-01,4.699566581981011737e+00,5.001302916779764907e+00,-6.788501035163144737e-01
4.050597252029092488e+00,3.142786409692473804e+00,1.372366505031376693e+00,-7.831538122564003501e-01
-1.954613178385878669e+00,-4.557759684225898056e+00,-3.507519423403810510e+00,3.012395185300329459e+00
1.742865251373716395e+00,1.912146058470602705e+00,6.266859239131541415e+00,3.008680557029288938e+00
-3.778772042039377332e+00,5.809189015930674493e+00,1.830209341851424476e+00,1.145355883758985893e+00
-2.454718634398540100e+00,4.050016665841676966e-01,-3.954619890440467245e+00,-2.355311330484651133e+00
6.695806736192695396e+00,-4.311783381226499401e+00,-2.379388801471620241e+00,-1.323750190946947791e+00
-2.621345057613056959e-02,4.156073262194972529e+00,2.081705820200684176e+00,-4.033504146375586075e+00
-4.524794772831143064e+00,-4.636458029305117634e+00,-4.564810175645653167e+00,7.672724867236736523e-01
7.687849546686482682e-01,-7.092561066255961499e+00,-4.116382689175179799e+00,2.235251660967442877e+00
-2.351722536979567124e+00,-1.245363752447580241e+00,1.338802257880483015e+00,-4.589124361040632039e+00
2.010306352106649097e+00,2.516083711692444491e-01,2.555531058658603527e+00,2.197223569552400058e+00
-4.205738688368142242e+00,1.129313195967962813e-01,-1.946070806680176846e+00,-6.049258827195495014e-01
-2.372068537189787829e+00,-1.278195781449426471e+00,1.581850284035258181e+00,7.423003694996072044e-01
1.962952016457791604e+00,-8.282235410747283977e-01,-1.876264121748161928e+00,-5.230719516958533433e+00
2.238220179423740408e+00,4.011495851093893172e+00,-2.548591237500954509e+00,1.184605942576921533e+00
5.012253291516504561e+00,2.621788083362463162e+00,5.731148461237552283e+00,-4.744529225444296117e+00
6.423198223405004459e-01,-1.607636152672567986e+00,5.628093751542758705e-01,4.573385122663502500e+00
5.684956559364141349e+00,1.804010707144776848e+00,7.656119293902836631e+00,-1.089036193030792132e+00
-3.363192022492164313e+00,2.528289932795162454e+00,-6.599372233111671093e+00,6.286239393140425236e+00
3.635053133363454592e+00,-6.721505599315914736e+00,-1.493769871641333458e+00,-6.261332321439025961e+00
4.272511413928691049e+00,2.452458289376330924e+00,4.906147630955139505e+00,-5.256403069330263023e+00
2.582429550404043095e+00,-1.567472392787867319e+00,1.700587240087848784e+00,-5.610697718187303007e-01
1.798258766945848075e+00,1.823625951816836510e+00,3.734432802536540308e-01,-6.619204000813275757e-01
-1.807474876346511605e+00,-4.548577053729445097e-01,1.061035348720545946e+00,1.751442680724498935e+00
7.599121037540051304e+00,-5.227353323355115045e-01,-4.581854986949260855e-01,4.610196659956544707e-01
-8.365122959696039695e-01,-1.124812785788371183e+00,5.179663992574072395e+00,1.207461658944413152e+00
-4.850538948980258169e+00,-4.269198795460917850e+00,-3.089382431882926383e+00,3.617459678258628131e+00
-4.752216124502375294e+00,-4.093361121532455904e+00,-3.927893586539738635e+00,1.650200709627323237e+00
-3.416267078103401023e+00,-1.447004288135284034e+00,6.725209262650593267e+00,2.582947865853267633e+00
1.562226916860813164e+00,2.995230366686057799e+00,-7.796976980084356690e+00,-5.200046446941369638e+00
4.991122892836774128e+00,8.937871917064749150e-01,3.201475452881505923e+00,-2.225540530875312339e-01
-4.559855582661738183e+00,-4.965949298083108587e+00,7.030770075529837904e+00,3.723331093361285760e+00
-2.007354837300696637e+00,-5.429847081254061791e+00,-3.631744895928741279e+00,-6.694138007219259556e+00
-5.191357230603951933e+00,1.552556730387547823e+00,-4.039172420462237234e+00,-4.374610839870113566e+00
9.512297336225992161e-01,6.230545414852092456e+00,-1.122811172460617568e+00,-2.003833793332071789e+00
-2.055699598789548777e+00,-2.666532477828425840e+00,-4.961796438955216715e+00,-5.745625036001957398e+00
-2.949837242553087435e+00,7.584065728054030231e+00,2.964448276503419688e+00,9.211776830009839045e-01
3.933053699114474888e+00,-4.204215753486485241e+00,-7.355855613665016612e-01,-3.017305644282485932e+00
-2.440689308219130549e+00,-4.960429330398066661e+00,9.890965052803502022e-01,5.872354057128585048e+00
1.419581980525016052e+00,2.335642273984436024e+00,-1.974368582083017243e+00,-5.749527678641124240e+00
2.258925849510096562e+00,3.280689467452525321e+00,3.681598812434865309e+00,4.012686222216521159e+00
2.659022111633807306e+00,3.731693875793037574e+00,-6.094316046887449545e+00,3.064135236886573743e+00
5.701968982075767300e+00,-9.707484490383543330e-01,2.919530518040185818e+00,-9.032667194404262467e-01
-1.125006508266311211e+00,1.568513969227600446e+00,-5.924828497084065226e+00,-1.482235063188718227e+00
4.604139549487766381e+00,9.732871707653976134e-01,-1.338061700376713459e+00,1.682694508905437036e+00
1.334194769759464938e+00,3.528177288736707329e+00,1.996999681229969514e+00,-4.000020118967933414e+00
2.560392915625927301e+00,-6.913251983926014255e+00,-3.347661405246737942e+00,-1.725186374785522725e+00
-7.285503536199450458e+00,1.909539759184098351e+00,2.737653687114857792e+00,-3.616749128921290524e-01
-5.682508414487123183e+00,1.792755655969852757e+00,-3.242944495179777231e+00,-2.544334485908381627e+00
-7.058196329927679535e-01,-8.293402712372360819e-01,-1.721227213684932478e+00,-4.106776366744125384e-01
-4.580777243857236947e+00,-3.795693183774726087e+00,-2.267470224473763007e+00,3.995782316424847380e+00
-5.976111853289594045e-01,5.667425083452328316e+00,-6.087929443698770759e-01,1.740459976597706238e+00
-1.944251378912434269e+00,2.979064212758221863e+00,-2.068241187485318378e+00,2.919882802964544499e+00
-3.139438246829938883e+00,1.773953537287172644e+00,-1.188868348013123022e+00,-3.487797951235700911e+00
2.538373574531600951e+00,4.845689973517785631e+00,-6.351819563289493153e+00,9.730192678839676423e-01
-2.250055609075319651e+00,-5.640955085937747526e+00,3.622101178145489264e+00,-2.513532305128082789e-01
2.341343269383494574e-01,-2.495795635283885261e+00,-3.350398066126891727e+00,3.444485626321256877e+00
1.127617891974092901e+00,4.452913687008257959e+00,-7.674478464129338207e+00,-2.955792827693847435e+00
5.011185331889154604e+00,-1.739873274517190538e+00,2.747368965355643233e+00,5.342308786215437699e+00
5.180552339044711019e+00,2.515700094130804310e+00,7.142169988343193943e+00,-8.559712286630642986e-01
-2.028259991534504092e+00,5.199346494010478326e-01,-7.318662099571356272e+00,3.775768387062661713e+00
5.223260017845147374e+00,2.056851051028951716e+00,-3.746902830615137070e+00,2.869431855664812403e+00
-5.475218992768441595e+00,8.138853668689881582e-01,4.850316024812562077e+00,-4.583425036415366804e+00
-3.573929480213832388e+00,-4.047370660588078817e-01,2.862439882912216849e+00,1.039775609076554752e-01
-5.436010088410291097e+00,-1.912942872863776511e+00,3.081120805579201427e+00,6.693402759529979429e-01
-7.330945520275535365e+00,3.964528857025896968e+00,1.639874599318806636e+00,3.990445686280979398e+00
-5.213302006182005677e+00,-2.151361743072677246e+00,1.434413034089427122e-02,4.846400941003127905e+00
3.895729199423566769e+00,-1.542602907739336171e+00,-5.458890254097231498e+00,-5.385758557255338808e+00
-2.242153099454166076e-01,-5.566551881912334743e+00,7.877558457876472353e-01,-4.560761009105337993e-01
5.094487367707627445e-01,-5.029661634567684780e-01,2.703494624024394888e+00,4.260570860953740713e+00
2.311779632412990004e+00,3.827618451144917167e+00,9.573914074609539693e-01,-4.982468106495131721e+00
-2.157900136144815573e+00,-4.253614731438527308e+00,1.881399036478885733e-01,-1.475360521170164252e-01
-1.767713431086555431e+00,-9.331543343167683080e-01,4.155845282824709663e+00,4.709769856995363213e+00
-9.276812485502528016e-01,-3.549667807232625538e+00,4.736840250708423739e+00,1.275620239839192926e+00
7.124728235896825801e+00,-4.183158912343564739e-01,5.391430887154373686e+00,5.626530026334999324e-01
3.164185243312153673e-02,-4.350584155147649845e+00,6.921033514020565214e+00,4.351282013602751908e-01
-4.663536873575408137e+00,-4.450948115082737466e+00,-1.642473517651457993e+00,-5.147127310711586690e-01
-1.352309505981982074e+00,-4.228367468237718363e+00,5.198211352403584229e+00,-2.501304865987918014e+00
6.803381429822786819e-01,3.672556456869117358e+00,4.116231598758834487e+00,-3.548653682298304801e+00
-1.546357692358963920e+00,-2.338628911693749757e+00,6.060697808847320900e+00,-6.298676313992685571e+00
-1.771273422104737039e+00,4.701042139990186719e+00,-3.115989861202893341e+00,1.577413203063662728e+00
1.137033135838405734e-01,-6.408192479150783605e+00,1.538598066826787791e+00,5.550499445103258545e+00
3.771406731019104175e+00,-3.988214871256444916e+00,-1.972903934400969117e+00,4.606461513594401147e+00
-7.389407214961138948e-01,-2.394441225242807558e+00,1.254272365601511563e+00,1.994299569266198668e+00
-4.122746685419438784e+00,-6.820281808707308047e-01,-4.089363347599703324e+00,3.279755954843666554e+00
-1.097830421518134481e+00,5.485065048672440824e+00,2.820615159048728504e+00,2.342106890424788812e+00
-4.026789339441862126e+00,-5.427708976029093968e+00,5.490990562862317681e+00,-8.311637672136258648e-02
-3.624733117396919280e+00,-4.278088516109048278e+00,3.075683538507050674e+00,-7.145375589932675409e-01
5.712692070936042477e+00,1.137339028354029224e+00,3.627047124086853813e+00,2.612148947576811153e+00
2.951204882378317684e+00,4.996874481132815848e-01,-5.154676568287802851e+00,-2.018895065289409096e+00
-3.126360365160070653e+00,3.377423235020323489e+00,-3.025460253898855534e+00,-3.274044568901096852e+00
1.502522014456555421e-01,3.623738586243060222e+00,4.171096527510448126e+00,3.357100069920820218e+00
-6.318441806148073603e+00,3.014106407021325401e-03,-2.448686693956636962e+00,-2.555158669371684343e+00
-3.498685952553551193e+00,-2.745340242534563657e+00,-3.587111839937491276e+00,2.844672574296941203e+00
-1.989970075538990413e+00,6.667803717206693292e+00,4.424330191570891579e-01,-4.784287024331782767e+00
-5.315045552520594185e+00,1.088509744822076852e+00,-1.825554806104857875e+00,-4.622307665128548848e+00
-4.857652950723339913e+00,2.847997646083806789e+00,-3.362730663998217295e+00,-3.217344759583423475e+00
-1.123539357926765847e+00,-1.456108605370103559e+00,-3.190174266956287141e+00,6.020153639296697001e-01
1.707915766439770833e+00,-5.894847177255475579e+00,5.458556409424272227e-01,4.537383836406417181e+00
8.071212413155720578e-01,-2.053337571294405084e+00,-2.495338168127089418e+00,-1.020784414887657920e+00
1.055346217763090344e+00,3.610055476157783438e+00,-5.016346591577200975e+00,5.264969286396732784e+00
3.776586972186820379e+00,-3.334795635433364769e+00,-1.287358772897327697e+00,2.127867543513517923e+00
-2.322405470375478398e+00,-7.632214668547013581e+00,3.310801333277158420e+00,1.165373731407913505e-02
8.413462133651948838e-01,-3.015017312250084736e+00,8.719061836998466264e-01,-5.086906844917900017e+00
1.063894823931551548e+00,-2.681592287438495870e+00,1.966814463557702508e+00,-3.877218175810450695e+00
1.987702132581463443e+00,6.303061164046639853e+00,2.868845321240921731e+00,-7.506408035615949048e-01
7.740954345591692487e+00,-1.319359246954407316e+00,2.752063390737563342e+00,1.113298351647012546e-01
-4.689722327647514177e+00,-3.999011923801162993e+00,6.754418860725271978e-01,1.755954577047488474e+00
3.577560685291526266e+00,-4.085800978188695254e+00,1.347723319238435490e-03,-2.828508139101851615e+00
-1.849658316147937853e+00,1.792377714349276063e+00,-4.032117107418272006e+00,-1.428394959530228103e-01
-3.576319856709139766e-01,-7.795075785946475655e+00,-3.784541851338360186e+00,-6.447596708330104676e+00
-5.668720231226218154e+00,-8.375631973523111062e-01,2.148145397587329364e-01,-8.071961518685092374e-01
-1.529942476756298131e+00,-5.044436571141177161e+00,-4.741052182743588084e+00,-5.175788895526812539e+00
-1.992206199879541506e+00,-3.400811390918155652e+00,-3.536814514645199470e+00,-2.148098025943417255e+00
-3.298929122471706138e-02,3.125874127881629327e+00,-1.689801688175506245e+00,4.841613604260431636e+00
-4.402235336042084946e+00,1.418468710073398809e+00,-2.656467913327674513e+00,-2.616494435599043822e+00
4.296304702154197797e-01,2.902556924585253384e+00,2.665058058916920380e+00,-5.622641173439587581e-01
-7.348815240142779537e+00,-7.328701640318336930e-01,-6.221239581387364659e+00,5.552277524139389797e+00
4.671765045498423308e-01,-3.012055605846777784e+00,2.414054430893674219e+00,-5.534117315239846846e+00
-4.018326995346441777e+00,1.436028250109571802e+00,-2.470478654188638323e+00,3.200180175508144487e+00
-2.523208125357381704e+00,-3.179112744200535356e+00,5.416457549076483247e+00,1.292132147361664263e+00
3.847676433476512781e+00,2.221522873087366373e-02,1.735245739173987056e+00,-5.504518078992570729e-01
-6.425131600705720203e+00,-1.197072810253440034e-01,5.429147970008420643e+00,8.283066162780171604e-01
2.324131964973091158e+00,-5.204484504847709303e+00,8.982753470312039301e-01,5.030803026271638778e+00
-5.017971559918001923e+00,4.409036485638341496e+00,3.974821233444926494e-02,-2.397889318402807390e+00
3.221216692480006749e+00,-1.388281484733751681e+00,7.321523058660205585e+00,-4.536834657463447940e+00
3.538978693852508961e+00,-2.784887962145799367e+00,-4.107337310025460653e+00,4.425529483488290339e+00
1.977957167039195108e+00,-1.540606247560241782e+00,1.360947883451978146e+00,4.499282875323758896e-02
-1.673890797195337399e+00,6.032205196247648615e+00,-2.319342776922402205e+00,4.004932148056872698e+00
-8.233558459268675023e+00,3.067000045051341051e+00,1.838441918212215809e+00,-7.008788809569939104e+00
-1.570168439718516495e+00,-6.705124882542440323e-02,-2.334296814131722186e+00,2.245272356467765462e+00
4.244979381980089173e+00,-4.666086512024783417e+00,-2.861099930719988027e+00,-1.386813975618607309e+00
7.754200999961902596e+00,-4.258797301831834248e-01,4.690980763633467276e+00,-2.939897044123159997e+00
2.704659815637860731e+00,6.408419162292952720e+00,2.062916439973259575e+00,2.664681277380971824e+00
7.444485215098293196e+00,-1.878677100732202510e+00,-1.483214348801789872e-01,-5.428365170893175495e+00
-3.769191750406439390e+00,-6.077639222278769182e+00,3.449649194081199077e+00,4.655333476553186856e+00
-2.794574332433229724e+00,-1.889255064380219451e-01,4.031709896374070290e+00,-6.481058733930229465e+00
7.023560229907941377e+00,-7.259901988587526001e-01,4.036604886544912674e+00,2.466147844210127005e+00
1.241823537841613145e+00,8.723508597175047008e-01,2.242969788523653474e+00,1.297254134021745386e+00
-6.290069595319312867e+00,1.360497925678052056e+00,2.393903180346007353e+00,-6.255670805528008138e+00
1.027538917935641560e+00,5.301604086443823860e+00,-5.223637349819779452e+00,2.349002720198871685e+00
-3.520449560117990817e+00,6.633172439900032469e-01,-4.045645428999980808e+00,-2.357106636939092947e+00
-2.171256829173359160e-01,-5.645111888773969078e+00,2.230164398357074168e-02,-4.601386408694031260e+00
-8.290028126061393943e-01,-6.776097910589291118e+00,2.442746916793052669e+00,-4.701328978617866916e+00
-3.806648647232254157e-01,4.935250388778186448e+00,-4.500194475573087161e+00,3.787852119314287780e+00
-3.900308535214950023e+00,-4.690141279002895125e+00,4.742632619668516902e+00,5.320290619720698722e+00
-7.379244113314427089e-01,-7.137015608738448869e+00,1.012293442835929369e+00,2.379904240631660617e+00
4.719339799077491904e+00,-1.667575025256375243e+00,4.881795651437148997e+00,-2.395102044710780920e+00
-2.506153675244288337e+00,3.566177918200467700e-01,-8.251686629471322032e-01,-1.026553959329248977e+00
3.061446790782886396e+00,-4.045102200896256051e+00,-3.462331136928511466e+00,3.776863676876983433e+00
-4.491430480343911569e+00,6.375900979666916379e-01,-2.373103639449270386e+00,-5.528421630139109588e+00
2.818386779126575981e+00,-5.144039329411801198e+00,-1.407686312895106706e+00,-8.749768652957350401e-01
-7.746146845864852359e+00,2.779217676192586417e+00,1.803512641513081549e+00,-1.268483570784981973e+00
-1.277169436554231874e+00,4.941257181000850096e+00,2.581364512996051186e+00,1.021860387242910839e+00
-4.783042109212786386e+00,-1.646197691660393980e+00,5.780650896233760605e+00,-4.755632186725414101e+00
3.125912274956045955e+00,1.385319613153772167e+00,1.959924275778130554e+00,2.266334658125935597e+00
6.561078535276661405e+00,1.646621222660662687e+00,-2.517804319261017998e+00,1.301409592548567751e-01
3.223349136434751294e+00,1.734472086434453442e-01,-2.627140688326133233e+00,-7.805266010758747930e-01
2.355870848232930470e+00,-6.720847120162313892e+00,-2.917023814711057650e+00,9.084650719966302912e-01
-3.686629726088848091e+00,-6.013256413665162725e+00,8.147126281731280173e+00,8.283297612946104449e-01
2.604126386256363279e+00,-1.979211041679119210e-01,5.381204032308303908e+00,-3.309694761777809191e+00
3.740830082118472344e+00,-4.575319973940009888e+00,-2.747244122701860469e+00,-4.078387049157735866e+00
-3.861041390811145391e+00,-1.089381003148518046e+00,-5.438746128146232373e+00,-1.914584924885558648e+00
2.451606621589764723e-01,2.444494024762061457e+00,-5.822482628434960006e+00,4.279505234012249026e+00
-3.362018403218482110e+00,3.478869280454214508e+00,-3.108587591486210666e+00,2.815937326614945224e+00
-9.428053950560075780e-01,-2.223461729189678326e+00,6.355592004276369167e+00,2.103288936310956370e+00
