-8.815424233964629375e-01,2.479890758107115012e+00,1.446243057382482933e+00,-4.362923887284290148e-01
1.083970359338402245e+00,1.195829108794849382e+00,5.501057118618083441e-01,-1.256241639107878338e+00
1.323549884680313538e+00,-1.137144118884067634e+00,9.862589820226580484e-01,-2.256063693339540155e+00
1.342790622123689159e+00,2.384697303805759727e+00,-6.741884052437286945e-01,-9.940746869054583046e-01
-6.427487886062344113e-01,2.217837950414762727e+00,-1.557801170635781052e+00,-2.831856104130941798e+00
-4.162931848173930582e+00,9.009142550471050948e-01,-3.032869365053597610e-01,-2.232482719187379061e+00
4.450293425020703242e-01,1.092875421117608603e+00,-3.484765440631959699e+00,-3.368991255757342262e+00
1.272601722203164476e+00,3.603455469300994807e+00,-2.446896011905828061e+00,-1.603880575123389773e+00
4.974773327665162892e-01,-1.228477183124778715e+00,2.494879896495894478e+00,1.626578259025736717e+00
6.845661752901229802e-01,4.476473683974981022e+00,-4.601619554574433169e-01,6.345009335330132894e-01
-3.955213259194361175e+00,-7.502724839179601979e-01,-2.096490737234331034e-02,3.162735285297814780e+00
-3.404122668590818357e+00,-9.244817104183385981e-01,-1.623465153277542150e+00,2.191181851963569738e+00
3.464321303851256140e+00,-3.562019903146488309e-01,3.571980802083950302e+00,-1.224195256010512489e+00
-1.359930874628610287e+00,-1.797856476429128048e+00,2.798592416003421235e+00,2.705505200637246421e+00
-8.699434063969009312e-01,7.189374240870688437e-01,1.358414667764039852e+00,5.487893930163619816e-01
-1.783513966241102366e+00,-1.694727591228063268e+00,-1.194999982612720668e+00,2.972411732655567462e+00
-1.361021622397602160e+00,1.600595668977257358e+00,2.948454197466109150e+00,2.546897821266167039e+00
4.441211523376338843e-01,1.082792374093376697e+00,1.632736188370990327e+00,-1.057940565040313974e+00
-9.360159294728456203e-01,1.420665116490081203e+00,-7.160541080780241652e-01,-1.657783800691075005e+00
4.022029965834249765e+00,5.896255659976197272e-01,-2.106047061854048330e+00,1.896402615464248820e+00
-4.317167564980742611e+00,3.757617896702284410e-01,-1.731857815147695101e+00,1.289663322714437843e+00
3.302478840416593009e+00,-8.013635772422672554e-01,-3.344626091187764771e+00,8.318939497589895593e-01
-9.637305563670912623e-01,3.729608320127906218e+00,3.158631876464360388e+00,-1.760172656815633507e+00
-2.843119131020857893e+00,-1.975655006069076292e+00,1.976465988942093022e+00,-3.550280551555574871e+00
-4.671133600712415457e-01,-3.188736587934045463e+00,-2.791271212386530642e+00,-3.404705150883872378e+00
1.681137432187011393e+00,-6.366830520361630441e-01,-2.075614018650128734e-01,1.812208584575089321e-01
1.514366110999225412e-01,2.323088991808534676e+00,3.082039629890807042e+00,-2.010532683139614640e+00
1.938002820872622767e+00,-4.175327661358141373e-01,1.486792403332278800e+00,-3.181580055713022492e+00
2.092867340793182152e+00,1.014958111900671478e-01,3.236102721062317777e-01,3.253225493097438914e+00
-2.896788136014325943e+00,3.597398083236362232e-01,-1.561164102133735465e+00,-2.513161591277019102e+00
6.746541023148073801e-01,1.024528267820913330e+00,-3.186665458508385562e+00,-1.092468659421471866e+00
1.187325215602360373e+00,1.669000387023348964e+00,2.346257908931394631e+00,-8.384158740092710893e-01
1.698075348015620323e+00,5.069753319734824348e-01,-1.061138090638951148e-01,-3.436413870668133530e+00
2.618293345049661713e+00,2.167760769989252712e+00,4.053797764808353965e-01,2.135572031516321356e+00
2.695149403850835679e+00,-1.268884872755450921e+00,-6.784603595380279684e-01,-2.888023791758653314e+00
-3.883881183637207801e+00,-3.201390802618621079e-01,-1.331633143070672487e+00,-2.831338860351942710e+00
2.175237218528922600e+00,4.799524369050083283e-01,-1.964732049922577550e+00,1.214232596424795529e+00
2.025354376198327699e+00,2.181198540065218960e+00,1.482807073123370289e-01,-2.222194544230857272e+00
-1.857450543045628330e-02,3.050141962472107116e-01,-3.161083350999712938e+00,3.091113306619126089e+00
-2.719565082853967919e+00,-1.100388877483947647e+00,-2.266456702573705240e+00,1.127851867488002813e-01
-1.324546349316418681e+00,3.380883363680221798e+00,2.988693506311165482e+00,8.209025417445661166e-01
-3.746295822906340778e+00,-7.728107896383721309e-01,-3.160411025382912520e+00,1.483281444563764595e-01
1.298021864987890295e+00,6.657255819909965733e-02,-5.812601699965901786e-02,3.263884150888893387e+00
3.562468549718340594e-01,3.645705944612194660e+00,3.539526248037713430e+00,1.792439945740209817e+00
-1.856328230058373663e+00,2.509429737205512101e+00,1.281006833750134133e+00,-1.256753829124881650e+00
-1.090272775970880348e+00,-1.411315946895578932e+00,-4.798748542553107899e-01,3.263039391374930265e+00
2.881416154958049147e-01,2.266511649138357232e+00,2.136600534460068701e+00,-2.508850403537153273e+00
2.358568275464258068e+00,2.206478849206101600e+00,1.065837618150162092e+00,2.726239411985447614e+00
-3.391412526219754198e-01,4.047386845533952560e+00,2.549076529436217431e+00,8.781933912170994949e-01
-2.427898747796147227e-01,2.312154763783081712e+00,-2.160497318575923753e+00,-2.346564978712609939e+00
-9.370857696200390885e-01,-2.271277778572345252e+00,-3.869285407126784038e-01,3.142143639913788533e+00
1.909418416372275384e+00,3.826930671785192528e-01,-1.976967364416005735e+00,2.156257505255815499e+00
-1.774901229181885087e+00,2.179961817550545966e+00,-3.175915609667526507e+00,2.643186876708161659e+00
-1.470490262972833362e+00,-1.207813368229018858e+00,-3.030987172011677888e+00,-2.899025136798377478e+00
-1.965997267633333934e+00,-9.094113407211004141e-01,-1.693029749639273884e+00,-2.935030327065379918e+00
-2.145642504539284179e+00,2.887646429136090820e+00,1.062717750229726255e+00,-6.791772335793295756e-01
1.463763106964541816e+00,3.764633953315173809e+00,1.538842594633466065e+00,-1.715989036141127577e-01
-9.330643646104869182e-02,-2.438949517272074541e+00,2.112260902622029590e+00,-3.067965054812593184e+00
1.625614000525649194e+00,-1.765076785853917807e+00,1.567063351073361810e+00,2.588061679614178878e+00
-4.947893738414536613e-01,5.075682708823796574e-01,-6.438017898014700702e-01,-1.994422369035848464e+00
2.338570799536023426e+00,1.642922731937916936e+00,1.206370578164289720e+00,1.346586214874334164e+00
2.073607555611090447e+00,-2.788220681731241601e+00,-2.767719728269284918e+00,1.030654862521035220e+00
-9.125705288675901583e-01,-1.831060109472484765e+00,-1.692689716606490036e+00,3.424097967653195962e+00
-3.265275607065816210e+00,1.413711388414203185e+00,-2.982803468154826110e+00,2.098794045019015009e+00
2.900342212625332206e+00,1.536233853009897121e+00,-2.700144236080233018e-01,-2.848415008531569370e+00
-1.332144619349574066e+00,-3.750506127140157187e+00,-7.998483233149710214e-01,1.060901646071394477e+00
1.672989382093365007e+00,7.541071468929139154e-01,-3.131770464170053891e+00,2.549686919567614840e+00
7.055086867558325592e-01,3.035066243291947519e+00,-7.695972647414789369e-01,3.711851915502195620e+00
9.828598854534017493e-01,2.835099069855583132e+00,2.854806613763538614e+00,3.899929033216297913e+00
-9.814570923821504256e-02,1.837929698257508404e+00,-2.506230256859994121e+00,-2.171422254896944182e+00
-1.114503955817107705e-01,-3.313361744180724155e+00,1.919581606390499795e+00,-3.279634002554101091e+00
-8.377896479927923190e-01,-5.864418509211553054e-01,2.196486272181800981e-02,1.142426063582037354e+00
-2.165499273918689294e-01,3.094041142758330754e+00,1.105422503613912477e+00,6.691709655774840115e-01
1.923767486397744531e+00,-8.256387428403478834e-01,-2.801900239956222727e+00,-3.185147602556872126e+00
9.587835345963583444e-01,6.350743967670714474e-01,2.752784569405710258e+00,1.659889585910062637e+00
-3.211339533247986378e+00,-1.028913249597296575e+00,2.259568382219892813e-01,-1.747819412283466489e+00
-3.746543851412266757e-01,-1.152827848664323085e+00,-1.410040756214786972e+00,2.816671703964259699e+00
-1.847658425843826668e+00,-1.295773858705434600e+00,3.532141586886810569e-01,1.883185710966114534e+00
5.080666368401628441e-01,5.330390756375528172e-01,-8.043214677187572326e-01,-1.165193691013032051e+00
3.718896727416196035e-01,-9.663768017336717975e-01,-1.413920667081137728e+00,-3.355973111465377912e+00
-2.012677750252671149e+00,-2.837332717662874870e+00,2.023574952180613007e+00,-1.067417027037808497e+00
-1.143145101627383448e-01,4.197140347228786261e+00,-4.618518878598901201e-01,-1.743410032522882291e+00
-2.783939498756641040e+00,7.370806439498873985e-02,-1.952865590726353462e+00,3.170082663789815403e+00
6.948562803179102465e-01,-3.730501698894162832e+00,1.208954688172520164e+00,1.833439035680145324e+00
-3.247576898248916155e+00,3.629610254276439130e-01,8.865635607799294826e-01,2.132605401564602765e+00
-1.923480917736819062e+00,8.839240714099515506e-01,-3.274377564295936516e+00,2.128542853199386631e+00
1.434728643540641169e-01,4.096073344713276887e-01,2.432575341158333959e+00,-4.192402990612295044e-01
1.707569141010121472e+00,-2.285474236100274226e+00,-1.854033328248302359e+00,-1.112888468873844960e+00
1.239300784989766591e+00,2.823364610319554657e+00,2.332095692098501150e-01,-1.864707879808732427e+00
2.540357875479508087e-01,3.784919562643127122e+00,-3.242662431746624385e+00,-2.825848990227774582e+00
4.213870614143452320e-01,9.167387934601659571e-01,-7.922205136086346577e-01,2.602019814479779036e+00
2.073108496446159243e+00,6.000572667193431187e-01,-1.679688170389796731e-01,-3.614669095446794156e+00
-9.793313007567489015e-01,1.315243721461907711e+00,1.781545213884192291e+00,1.282102973381842537e+00
3.134856476535190950e+00,-1.272127536977864404e+00,2.107897759804695514e+00,-7.864002678495365384e-01
3.146097513556324055e-01,2.093129592364467939e+00,-2.446609339918574211e+00,-1.652146521600369011e+00
4.170644354869105008e+00,-8.838995353199963212e-01,-1.751604162403991971e+00,1.222590961666936593e+00
-2.463008196923460957e+00,-2.400678734519966717e+00,-1.062413822600705826e+00,-1.646284522800856576e-01
1.442333947457724141e+00,1.227039183529133215e+00,3.443672834213738820e+00,1.732675067192845031e+00
1.955408790135988895e+00,3.000565819339868323e+00,-3.237396664715199268e+00,-2.786232241866463788e+00
-1.047359477143386286e+00,2.247339019907070856e+00,-1.704141716513460025e+00,-1.563829765334329158e+00
1.987175350760471915e+00,-1.727642132017842558e+00,3.433795459622333013e+00,2.422558708036378849e+00
1.093658745062058735e+00,-2.460778736377211562e+00,-4.545005895760538817e-01,7.608627036940888155e-01
-7.880225304899485250e-01,9.237925149326823293e-01,-1.294020708164282940e+00,-1.913993932673784482e+00
1.712209920346055014e+00,1.702328189392110724e+00,2.762621736826132768e+00,1.549549692938926748e+00
-1.580416091882058449e+00,3.541122973466081181e+00,-1.507010008287052116e+00,-7.709119350851887376e-01
1.701155654526763206e+00,1.325683121828373501e-01,2.447068230280091239e+00,-3.653534919848218099e+00
-1.026280493552477469e-01,-3.231341837540666062e-01,-2.480360147804951954e+00,1.272544062803859122e+00
-3.903092868941393956e+00,-3.862980475694846039e-01,-2.786381387303066948e+00,1.607053198026934249e+00
-3.809890347147389944e-01,-3.170134208578226698e+00,2.562084203150353900e+00,2.904599915882627226e+00
-9.853175652134349427e-01,3.867219292781052253e+00,1.044858556515365411e+00,-2.514322740502529172e-02
-5.644046751446056831e-01,-2.438539138301460074e+00,7.029693763476115853e-01,1.836243090915047782e+00
1.104847119626012564e+00,-9.212591205318476639e-02,2.346861877491669190e+00,2.988190636687351187e+00
-1.693479102171501438e+00,-2.542283632937009319e+00,3.484798562924091847e+00,-3.311224211304431897e+00
3.503664742247830421e+00,1.212674658443670950e-01,5.006911199330031925e-01,-1.008412818728518623e+00
1.599472400367882019e-01,1.621162051129198423e+00,-8.273142866934271034e-01,3.592623501654901741e+00
1.386448234917460276e+00,2.836514320527094846e+00,6.288619146252619752e-01,1.609875672697486104e+00
3.642396965294764755e+00,-9.707304856059588705e-01,-3.215245162208388408e+00,-3.090410317317227484e+00
9.914680642422463164e-01,3.151254795101990691e+00,1.746264878702454837e+00,4.884488052128884150e-01
-4.818057660091549010e+00,2.464986914517527383e-01,7.988412614360774766e-01,-2.941338519598213352e+00
-1.827966044079191610e+00,1.500041401487945292e+00,1.872204229553526389e+00,1.735630126500232517e+00
-1.402690654554790362e+00,2.827142878885525179e-01,-1.371646864559285861e+00,-1.311006034865141778e+00
3.116337563710219527e+00,-7.428377189511766732e-01,-3.037756498368788360e+00,-3.281340863293245480e+00
-3.035798520061405270e+00,-2.846906580300310741e-01,5.645787577177444616e-01,-1.199324345001751224e+00
-6.486302784510402653e-01,1.124034748382186644e+00,-3.308959493048804656e+00,-6.489974689191030377e-01
-1.822787903502674833e+00,-1.961830500232926378e+00,-8.764451673971163093e-01,-2.499123574103471412e+00
-3.350294078000253695e+00,1.399474505272123137e+00,-3.151692135007776230e+00,-7.421318537667374038e-01
1.385567022537916193e+00,-5.872534668189655083e-01,-2.676148016877680780e-01,1.887250923178910855e-01
-7.393090315724465400e-01,-5.031102773009222817e-01,1.284886415590385411e+00,8.529725399383667472e-01
3.966829622607976447e+00,-1.037162521268084836e+00,-1.181796116991874257e+00,8.715769795923357099e-01
-5.100900412974200826e-01,-4.047981780318979261e+00,-3.271840207542245693e+00,2.725839867988691267e+00
-2.385065951015462871e-01,3.855168908572972786e+00,-1.612680462793646408e+00,-6.342237933971411890e-02
4.124071382502739525e+00,-1.057418633800667696e+00,9.535902573113168301e-02,2.143027308113000462e+00
7.653097894280853630e-01,-2.376089324234039513e+00,2.234747523871895014e-01,-3.566074537538313494e-01
-9.818704457285652998e-01,-4.185225336161835230e+00,-1.262272688628335970e+00,1.737052868528562000e+00
-9.479077742966994791e-01,-2.410495168706623836e+00,-6.390819715532499723e-01,-1.739739266718546062e+00
-1.870278554902891077e+00,1.539241690084021119e+00,-2.760522533411111201e+00,5.711651770148841178e-01
3.365654052538109564e+00,-2.626260139573557417e-01,2.489898967645645944e-01,-2.151074378212440852e+00
1.440472452299866035e-01,-9.107850337746622449e-01,2.020029199599762126e+00,2.629115712829262819e+00
-1.813515362975644418e+00,-9.396470680170200263e-01,2.707008006941424405e+00,2.241156862522065918e+00
2.717302155630966443e+00,6.902358054258624920e-01,-2.820860057325473846e+00,-2.708450835366542631e+00
8.720698507280745249e-01,-3.011827504590727789e-01,1.645427023133726907e+00,-1.809183779597747899e+00
-1.131737170602423959e+00,1.445838682081494797e+00,-1.688389995089279116e+00,1.087669335953440397e+00
3.551348973532760578e+00,5.238777205086785349e-01,2.064925595086850307e-01,-3.384382646033077258e+00
1.217116328843434792e+00,-3.569945726251547935e+00,1.427171430940735286e+00,7.671014508540640042e-01
1.035031498790106363e+00,3.733334581836637689e+00,-3.219801879705395997e+00,-1.555498270354279899e+00
1.464401307489245907e-01,-1.445019789694500734e+00,-3.454511021605816801e+00,-1.811454663852484437e+00
1.983037964582865520e+00,-1.070223456783882421e+00,-2.241274864864823080e+00,-2.840923516607613553e-01
-9.315004107868906091e-01,7.317312084460075861e-01,1.381826788375644766e+00,3.174136704487033001e+00
1.269236820619540795e+00,-2.090521151459914684e+00,1.968036244344006258e+00,-3.827176502273204495e+00
-1.840282911647216579e+00,1.923829997961540028e-01,-1.491630542704675266e-01,3.069903837004874347e+00
2.416497479694350137e+00,-1.027549858795520910e-01,-2.673369236082872469e+00,-1.324188960432636897e+00
-2.050859007385155142e+00,6.990160521050955422e-01,-2.299091441583668960e+00,1.545669571279258081e+00
1.808092940916309566e+00,6.697240585396870838e-01,-2.954887213457443540e+00,-3.409421210220106246e+00
-1.825056643514380683e+00,-1.978870815220016732e+00,1.344210880778832884e+00,1.538875876222147498e+00
1.267381244778019278e+00,4.132234254778390792e+00,-3.008212713032111019e+00,3.726133863758095188e+00
-3.029411368650821057e+00,-7.638758765969699827e-01,-3.810159118672837297e-01,-1.564563601781056024e+00
4.984170837957337397e-01,3.431772813937303823e+00,3.492904459669152306e+00,1.785124660634826110e+00
2.511207800929073031e+00,5.450312946504487499e-01,-1.956293677928100661e-01,-3.978711155806726185e-01
-1.886132354973409919e+00,-2.416509009282958420e+00,6.557221963810336840e-01,-7.230435657443011754e-01
1.140596825716742924e+00,-2.074869455267503771e+00,1.288936473817091199e+00,-1.698504617021147522e+00
-4.215210676254256938e+00,4.316813479854253455e-01,-3.358555863395837005e+00,3.759402236793985885e+00
-3.181469372488178404e+00,-8.429237975750357714e-01,5.080721836414262560e-01,3.679893097911344668e+00
-1.934352835392606051e+00,-2.453401759663310422e+00,-3.544073458355315953e+00,-3.111254953472634810e+00
1.257280991520186353e+00,3.309787125424481058e+00,-2.365306652995326164e+00,-2.024018734186219692e+00
1.450182883728767802e+00,2.708057534462183558e+00,1.281885866537355367e+00,1.136012091841118732e+00
8.554128701575629545e-01,-2.384720918784024146e+00,-1.046910207716120977e+00,2.548668121692891919e+00
1.204405106935252157e+00,3.118954002293941041e+00,-5.391587189814980308e-01,3.129020274603980800e-01
8.710036625498976948e-01,4.259927509904022358e+00,-1.235919495941289137e+00,2.856344352775567863e+00
1.310566308072671937e+00,-2.309252864769012259e+00,2.183594636615281637e+00,-8.469848758453990545e-01
1.326114200842803958e+00,-1.491734862036205200e+00,-8.156732210951266326e-01,1.967766123900538400e+00
-9.303478636194231211e-01,3.786935132000091464e+00,4.429184992655958442e-01,-2.633040723325817400e-01
1.159660393283890478e+00,3.844354476704019863e+00,2.264517157726404495e+00,-2.219848522997431406e+00
2.140498738826309033e+00,3.476734000885891573e-01,1.466780379057363692e+00,3.370270233439256913e+00
2.526148548026162732e+00,-4.105110719545353448e-01,-1.391615935016985439e+00,1.451130012659283874e+00
7.888588081501746174e-01,1.186458055721576699e+00,-1.704734346929835109e-01,1.171327913291569045e+00
-4.883179496624465710e-01,2.661613880158237855e-01,1.938846722905362085e+00,-1.689555285803078677e+00
2.114968489109243954e+00,1.379274537448071491e+00,-1.004037030643750716e+00,-2.845891259387232974e+00
8.949422505259465588e-01,2.669191469208465950e+00,-2.228106666664398272e+00,-1.217496656177638581e+00
1.220302247309612342e+00,3.163873198652130903e+00,1.098052287965496365e+00,2.125501695925495316e+00
1.355963455901379344e+00,1.490313346145298867e+00,-1.483915106667128114e+00,1.294480210375058560e+00
-2.306965068075530034e+00,-1.710754955976092839e+00,-2.003846270008030395e+00,-2.747250098329019785e+00
-2.083037389613798140e+00,-6.089619283996781096e-01,-1.771921250335184161e-01,-2.857318201157410531e+00
2.171202729884263771e+00,-1.770545757145950860e+00,-1.955670905620059685e-01,-3.092498054275226727e-01
3.501058595788582917e+00,1.354634394266151620e+00,4.298554431543865489e-02,2.201971205279297461e+00
-1.025620807678490065e+00,-3.535731089066910027e+00,-2.217142241110972467e+00,-2.794000980667967315e+00
1.089449187183971546e+00,-2.120879240515219699e+00,3.446217272131555820e+00,-3.063605367193902751e+00
-2.434271324033679129e-01,3.317393604544355501e+00,-2.625893022082184114e+00,3.254636691654040348e+00
1.513636471831419028e+00,-2.054724854351055008e+00,3.100003440778415609e+00,2.268944410193597605e+00
2.974516783753041516e+00,1.886746122430612349e+00,-1.686137490345046563e+00,6.266954241984085128e-01
2.435863058810831649e+00,2.233997123240900162e+00,-4.878163200899588436e-01,3.109025153669974006e+00
-1.973045694197249622e+00,-6.429096564532418290e-01,2.177694437475509448e-01,1.766997518398628897e-01
7.889844237752827727e-01,1.397781598470081876e+00,-1.946438447912084868e+00,4.242278125726960392e-01
2.940824290301152555e+00,1.246243723364571121e+00,-2.136169114259524715e+00,-2.508238593650475856e+00
-1.444341727660000796e+00,2.899319417948297839e-01,4.376258886197279541e-01,4.964730653383500614e-01
2.809535269164571858e+00,8.118359219120162562e-01,3.758619766529689432e-01,2.650909572743067599e+00
-8.215703373636481510e-01,3.553506090122672934e+00,-1.813623747129945674e+00,1.236733194180515277e-01
-1.579164494894601978e+00,-3.173243164947523454e-01,-8.344262725163773542e-01,1.459116326612960091e+00
-3.974221747577225905e+00,1.029614914393219838e+00,3.481098420777358537e+00,8.098059005813977584e-02
4.041795142935028728e+00,-1.402770888517453240e+00,-1.446007299216797160e+00,1.903879816079334208e+00
5.913376489199043129e-02,3.680036066835568054e+00,-1.316248658822081419e+00,-1.044381655183570956e+00
-7.034615971682424140e-01,2.322762510625822063e+00,-1.619958588420040924e+00,-1.618897000186733770e+00
-5.406526467330070584e-01,2.385990250771113708e+00,-2.863610293463772827e+00,2.264006680814569350e+00
-2.058674926053829513e+00,1.887888617582058337e-01,1.089563976478537421e+00,-1.199046713761159483e-01
3.037363582105347071e+00,1.275086364562422858e+00,3.276513570000409548e+00,-1.559444025290851243e+00
-1.265666734531183668e-01,-2.341902280519531754e+00,1.665668977583486754e+00,-3.882232490547413040e+00
2.337808131741849760e+00,1.055480974305614605e+00,-1.094353215542613000e+00,1.913855498574878800e+00
-7.608109238870802704e-01,-3.454967402412189248e+00,-3.318399948513174103e+00,-2.391240552105894590e+00
-1.867763910215949064e-01,-4.160280533972813721e+00,2.019874716336045761e+00,-2.588536428050095761e+00
6.608049618736187014e-01,-5.158329426855184224e-02,2.459529935473652618e+00,-2.240081834675264894e+00
1.668543130307362232e-01,4.543504240799749461e-01,3.091572324517238624e+00,-1.127857601186174064e+00
-1.748883977368935819e-02,-1.886732573332128071e+00,2.697194513578180963e+00,-1.760887351266798184e+00
-3.056931287442660405e+00,7.367945905017680985e-01,-6.881581216308295668e-01,-2.738095191677941909e+00
3.937750974504476420e-01,-1.156033750781787051e+00,-6.503009477712021758e-01,2.969224459370855662e+00
2.218327191144080501e+00,2.913527874350375857e+00,9.212917724402163167e-01,-9.500451273421981480e-01
-3.577737151313137520e+00,1.284013245066848663e+00,1.150136969274398790e+00,6.133527826274262074e-01
-1.120913342992659434e+00,-2.647577282670462662e+00,4.652939415833248771e-01,6.870799385730860243e-01
5.380497508854895639e-01,3.844566408915409461e+00,2.249008892050964548e+00,1.252613405312350325e+00
-1.005210903669474298e+00,3.509964821471077467e+00,6.244823500290017648e-01,-1.131882498586477492e+00
-3.576824194859969719e+00,-1.227691874060346411e+00,9.317950312245958377e-01,1.876332556628629744e+00
-8.627916532298857133e-01,2.479816011806040166e+00,8.193325848531676225e-01,2.086711135970424458e+00
1.712784516372559240e+00,3.529246535823578945e+00,-4.580529683947108799e-01,6.198301713437179838e-01
2.536116252332433763e-01,7.302673969353051797e-01,3.296237202889984452e+00,-3.028461854168853051e+00
-1.268656266281126488e+00,-3.844413264136946839e+00,-3.258515108201877286e+00,2.013243138197017501e+00
3.512395162989277453e-01,-3.504614437917338954e+00,3.180584785777730517e+00,2.939699529629187680e+00
1.505439728981359471e+00,2.377695487625461013e+00,-8.418062316617511698e-01,3.658962570758530930e+00
-2.164506422174518274e+00,6.676320113715887850e-01,2.152297623845346841e+00,-4.936680174181749536e-01
2.997200469343353824e+00,1.987068327160945502e+00,-2.978024529104699614e+00,6.754310036521931071e-01
-2.704918256527058418e+00,-2.246888847368711417e+00,-1.347908908714378740e+00,2.398765822949116000e+00
2.083923765192802424e+00,1.030971959675870409e+00,3.652511903039632468e+00,2.668683911532369724e+00
-4.221787127811658102e+00,7.906681316634860401e-01,8.171160453473285123e-01,-1.824747583652394090e-01
-2.013675990283545048e+00,2.248447427826953948e+00,-8.489318697089279775e-01,-1.518207360869452183e+00
-8.296442666712106062e-01,2.904155283745794680e+00,-3.410549992091576943e+00,1.482127918282781565e+00
4.601600948146043812e+00,-2.176557948585738367e-01,-2.485701319216688521e-01,1.075483858729211484e+00
-2.398750611539703037e+00,1.315166395815850375e+00,1.698333220591368153e-01,-6.361461455909424023e-01
-7.939359031329686900e-01,-4.461588426232018456e+00,4.428313744410536934e-01,4.022925077197788690e-01
-5.342419531726933651e-02,-2.173768545497887228e+00,-1.607123152234392061e+00,-1.658747583389665659e+00
-3.759618466317190766e+00,-3.380547072531753239e-01,-1.950617378056241469e+00,2.552411834273117908e+00
8.345334793625817094e-01,-9.411854219226114537e-01,2.706789752497018586e-01,6.260959620237244172e-01
2.880563390270168611e+00,1.795990616506762949e+00,3.112568176187893609e+00,-5.418782167497003810e-01
-1.763771441366516202e-01,2.447444511502067765e+00,-8.844445338818116564e-01,1.659295284703052653e+00
2.111001271853579997e+00,-5.524788048593470835e-01,-2.713471748828441901e-02,3.062305546229485920e+00
-2.630815909397755892e+00,8.407763661201534955e-01,2.416744502953663831e-01,-2.611621194768960486e+00
-4.439801170751983550e-01,3.919271192983478258e+00,-2.454820204822949770e-01,-9.245546728895667754e-02
-4.343549929652455788e+00,2.346481656732266330e-01,-1.003662471077310547e+00,2.280649574456758533e+00
-1.194892694563260083e+00,1.496319488497514172e+00,1.152725344197821578e+00,-4.513555941084977374e-01
-1.472124126955915990e+00,3.296160048546306953e+00,1.430360335808553707e+00,5.665009549350340512e-01
7.248921905520790965e-01,-3.149505057037078615e+00,1.348547025598128668e+00,-1.309402348005036520e+00
-1.842644900067497815e+00,-2.066450607943788764e+00,2.538009874661407927e+00,1.280601293386965045e+00
-1.142737436404240858e+00,-1.955278515442336662e+00,-1.612992308106187878e+00,1.041606234334063963e+00
-7.497286051567797482e-01,2.003470080963651867e+00,-1.125561617549579729e+00,-3.475692559307809737e-01
2.410858045857694254e+00,-1.586199215151602449e-01,-8.434302881816405639e-01,-3.493814287961715781e+00
-9.185147351730993392e-01,-1.897358831265129941e+00,-4.783110503327808738e-01,-2.679697267897886981e+00
-2.034697657181286257e+00,2.194309101245004001e+00,-1.536753929164620835e+00,9.602953156698195158e-01
-3.200180364366896235e+00,-1.600008827818153012e+00,1.553984881649651262e-01,3.423806574257100888e+00
2.279292242719295647e+00,6.128483414687749820e-01,-1.374018394560360345e+00,-3.442402349151994390e+00
-1.176246910556038250e+00,-1.129990767379902783e+00,1.291981492191497827e+00,-3.634095878126426982e+00
2.342896932981955782e+00,6.518001326388990213e-01,-1.274900349883766548e+00,-3.541960422174653900e+00
-8.467488067001599505e-02,3.562549423483756250e+00,2.493158671195631282e+00,3.173747249508887869e+00
-1.807523577959415650e+00,5.148379546255565931e-01,1.552737531755382872e+00,-1.123684536713690507e+00
-6.864788703904883826e-01,5.501740923817324130e-02,2.086009955392237991e+00,-6.372859903979312124e-01
-2.327143622267606293e+00,1.702701619189303850e+00,-2.529995660867034424e+00,3.508184243602772145e+00
-1.287616272966021436e+00,-1.434921624462115464e+00,3.128700855295933447e+00,2.809593285001048990e+00
-4.350931214951129777e-01,-1.584402167060694477e-01,1.361792465238152561e+00,2.181313055346171925e+00
-3.849471429343248374e+00,6.297247199119846428e-01,-1.180410736660821303e-01,1.577346692538110773e+00
-3.998683684209302647e-01,-1.181846490029971442e+00,1.682370770654232350e-01,7.198536559327559647e-01
3.297889807076018975e+00,-2.827815169005045148e-01,3.263813000458954505e+00,2.687277749524886072e+00
-1.807138652461853345e+00,4.111792427346547263e-01,2.971354827574508750e+00,-2.123524265725463156e+00
3.588600831116585677e-01,-1.550091646980043647e+00,1.444787233019083184e+00,2.818449279730842250e+00
1.380717727268794492e+00,-2.335704833405118030e+00,2.388115607755940228e+00,-3.417276034720654998e+00
1.330582452269215565e+00,-2.242088754346718282e+00,-1.815785053306191443e+00,-3.175640733171619878e+00
2.290471986149146932e+00,2.019030062503547607e-01,-2.756819989108382885e+00,-9.069792095524613629e-01
6.395990445299586380e-01,-1.122067789875027310e+00,-2.072222249589820375e+00,3.404925533756389289e+00
7.305256409089843084e-01,-3.086258042167193238e+00,-1.559679511417233266e+00,-4.348948745114564751e-01
-3.184331508111411413e+00,-1.173972893332755785e+00,-3.487998781376446367e+00,2.784492553199689802e+00
3.149250218546391533e+00,-1.033239107489124065e+00,1.026478212381627175e+00,-1.301051750903781778e+00
5.784948293599632141e-01,2.904760344793686944e+00,3.405007769091710212e+00,2.808986306088775642e+00
-4.480435238035906237e-02,5.674634835270738753e-01,-6.246990121360457282e-01,1.365109943082229327e+00
-3.608377529793342475e+00,2.528967313405111050e-01,-9.279911275775720725e-01,-1.416445523088323277e+00
-1.057175384416738154e-02,3.673742183075117573e+00,-1.384145635971695709e+00,3.448984310033697209e+00
2.456779705986995577e+00,-6.059161228568320512e-01,-8.821132662252992862e-01,-8.155290524992918622e-01
4.391694608149667722e-01,6.247725428907222600e-01,-1.001855478984415404e+00,2.597034032627824285e+00
3.523343572748719676e+00,1.626607453691217009e-01,1.278400197643883018e+00,1.780305056630256288e+00
-3.331863207521534309e-01,-7.195233133271833337e-01,-3.094759956598748030e+00,-1.209397835655886266e-01
3.585393060610777116e+00,-1.262272878966139933e+00,-2.064536972829192685e+00,-1.496005830820712035e+00
1.564924126557487805e+00,2.964074190794845354e+00,-4.807288092662067580e-01,-7.634694559135963843e-01
-3.432739697881989738e+00,9.883569246005736719e-01,-1.785810752547858093e-01,3.802179126467919890e+00
4.028647704749478975e-01,-5.614779818122470623e-01,1.206890510046615184e+00,-2.641194795107446147e+00
1.592262454538668492e-01,-5.495320206530892593e-01,-2.253624829724029777e+00,-2.897242157287489572e+00
3.132986117761345390e+00,-1.624990113815031334e-01,2.956734130332563826e+00,-1.067382357073469956e+00
-7.139156278282019485e-01,9.777924582026112921e-01,-3.103275045361133966e+00,1.716432309378904675e-01
-2.634510146541534148e+00,-1.591063317367854335e+00,-2.818172743186255769e-01,-2.704797889777346143e+00
1.518241826688926377e+00,1.445615570472496891e+00,1.851063531027004716e+00,-3.343927589904806957e-02
-8.730502522532008758e-01,-3.763547658856602585e+00,1.234512369156714584e+00,-1.805902999010863264e+00
-1.489140937787925889e+00,3.389903142811674819e+00,-3.105993792208850413e-01,2.749645099466236919e-01
-2.014942018273623958e+00,-9.720758229674419937e-01,-3.074372460803858953e+00,-8.017316737786914782e-01
-1.642829132930262448e+00,-7.714284507486944831e-01,-5.030504911141501223e-01,7.462181153943537870e-01
-2.566904707484924386e-01,3.541452039742873481e+00,-2.522398225220102486e+00,-2.102736742372456558e+00
-1.167300656488613031e+00,-1.393366490011184622e+00,-9.131448382528439822e-01,1.714243315654457422e+00
-2.649974778986843749e+00,2.685698859706765473e-01,-4.208922566624295203e-01,1.932110543041694717e+00
4.763455752745082705e-01,-1.477230554802715812e+00,2.000302712574267616e+00,-3.427534121923729860e-01
2.866433193709914673e-01,3.952447693480459545e+00,3.388856739965363740e+00,1.214935127558641526e+00
4.332759818561396692e+00,1.551286173217937825e-01,-1.837447207696218943e+00,2.527816470211858846e+00
-9.543827907359522245e-01,-9.180782325392102816e-01,-2.602154111057275010e+00,3.931300832254741584e-01
7.173247973532712596e-01,-2.362900821477560420e+00,-2.272934256319528057e+00,-3.336235080207471615e+00
5.618753109341847463e-01,-8.238794359490412278e-01,1.983105993520486443e+00,-2.959173243237793738e+00
-1.630187050942478733e-01,-1.576985097431382599e+00,-1.796722449480219419e+00,-1.189757027039505699e+00
4.017623138732217547e-01,-9.395237876261064436e-01,2.372130952476219523e+00,6.346709229742406588e-01
-8.389043441990821082e-01,-1.745509275364539814e+00,-2.496264864013776119e+00,-2.123736873276356629e+00
-2.415177886106728344e+00,5.948129938787256876e-02,1.163698345150362634e+00,-2.546052783869301450e+00
-2.762233946934002482e+00,-8.599481890494398151e-01,1.881996244365726323e+00,6.614394017403594228e-01
-1.274394159240986590e-01,-2.078981042598097684e+00,-3.428968286365207119e-01,6.479102359888736506e-01
1.304842901011260548e-01,-2.869015282670738021e+00,2.628410067437009001e+00,8.178763803836446300e-01
3.904823262045081789e-01,-1.198586298303554676e+00,1.298157954823054183e+00,2.283984334659030946e+00
-5.217232419017993061e-01,-2.439054874181809218e+00,3.188436980133406706e+00,2.181136711711758824e+00
-3.022335287049784380e-01,1.130399168493724169e-02,1.377730284034878849e+00,3.110197169792078498e+00
2.088709651940798551e-01,9.777020947858074962e-01,2.497694008619594896e+00,1.541378731343558739e+00
1.753938535232332674e+00,-3.865777502012487932e-01,-1.323724227458345615e+00,-4.169406976117816521e-01
8.359626708213147017e-01,1.996111092978700263e+00,-1.019851656681621366e+00,-1.619337397371449772e+00
-9.833211346265037234e-01,2.376739915585390328e+00,-2.936355086697364669e+00,3.611778073255930810e+00
1.609527312437832647e+00,-1.831511420401311652e+00,-2.314172117607122825e+00,-2.408870870697941147e+00
4.109258645038999513e-01,2.535894752468260904e+00,2.658399456705143660e+00,-2.146134114172761898e+00
1.434200011802376329e+00,-2.327045200367892086e+00,1.015830050749205959e+00,2.297285080348584252e+00
-6.699950770957697754e-01,2.757766526583245725e-01,-2.824391735959078886e+00,2.203152256664516084e+00
-4.020057599445718388e+00,-5.082938247624699812e-01,-2.982996316288184957e+00,6.276484129203281359e-01
9.174151933602154863e-01,9.094313392033360754e-01,3.446585037856007006e+00,2.603178144744427769e+00
2.916450929024891447e+00,-6.920839979722442914e-01,-1.718318602563673747e-01,1.012756462250422596e+00
-6.110781816923179788e-01,-5.539020054539257609e-01,1.553534279636757720e+00,-1.254186108263817045e+00
1.087363027802052295e+00,2.960240711861283458e+00,3.359844024557387510e+00,1.668696921401852329e+00
1.489029525188963365e+00,-9.893885770964594428e-01,1.960372328870320369e-01,-1.180625113086622546e+00
-1.842687609241091540e+00,7.139129546846749719e-01,9.772480558148967100e-01,-1.354676972616278008e-01
-5.122953091828987837e-01,1.528152038124611645e+00,1.879882825171239391e+00,3.860117252710532298e+00
5.339664964858580332e-01,-2.165203219083693398e-01,-6.270318403788242845e-02,-3.037611002474142730e+00
-4.855420300843592329e+00,1.077754709170092973e+00,-1.852369809026504610e+00,-1.988306013546481177e+00
-6.450596579491635341e-01,-4.543635813799161483e+00,2.048958854735555946e+00,1.071434094054439651e-01
-3.046909543194102454e+00,2.090154297171747277e+00,2.682989034051656674e+00,-7.636763354793857372e-01
-5.779083619104760094e-01,2.073348391927643419e+00,-2.079214205826672046e+00,-1.973962254621174084e-01
-9.767757829779912804e-01,3.054727648385067162e-01,-2.648081452771365196e+00,3.653681187820029042e+00
1.733032123835056337e+00,9.603603286171841225e-01,-2.142854127106339046e+00,-3.430152687931684596e+00
4.315066160542671447e+00,-9.255241836434562053e-02,2.451606202413163071e+00,-4.054809632642774275e+00
-2.881801806593506488e+00,1.801820779160373753e+00,2.543727858853418233e+00,9.562390768547454067e-01
-2.315110683632639166e+00,-6.283391943528464363e-02,-6.455273355040254124e-01,-7.701926818517454976e-01
-3.432930681994493138e+00,1.487856933818225702e+00,3.264469076943601777e+00,-1.297342043028698599e-01
2.665427954560639634e+00,1.402591629120596206e+00,3.522484169389944464e-01,-2.579302913988002821e+00
-2.111312321426281002e+00,1.064732125197155765e+00,-2.096952507292325074e-01,-1.039681392889183487e+00
1.389465052406112289e+00,-1.875871795961408406e+00,1.489647524424971614e+00,2.505890737926545153e+00
2.645971060744385928e-01,-5.000682087823708599e+00,5.776778155077341159e-01,2.521893726400488145e+00
-2.151880076221004856e+00,-2.818510120315679934e+00,-3.081448779421919859e+00,1.286611090647630684e+00
-3.208057633433328615e+00,-5.822022185566030350e-01,-2.747788200558479055e+00,-4.873222583860234436e-01
4.192306396636675259e-01,3.327972567213345112e+00,-4.219082100282969261e-01,1.876718835415478681e+00
-5.410371976696158602e-02,-3.229483349264125280e+00,-6.501983458422123663e-01,9.377071306488135027e-01
-1.960953924343599164e+00,-9.115113658316403855e-01,4.936414356950840632e-01,-4.866756719614578897e-01
2.220320054410394872e-01,-2.726697614285508831e+00,-3.358839162584190685e+00,9.057621085478920753e-01
6.338677334124691587e-01,-3.019934787464175763e+00,-1.448327419166673957e+00,-1.297702733376822293e+00
3.893912365535998177e+00,-1.169718032188995060e+00,3.587286973230997322e+00,1.868681914518952603e+00
9.603317473823099748e-01,1.382633951307780107e+00,-1.637697943798976929e+00,-1.373635327544726836e+00
-8.554640835557568712e-01,-2.693029995370272101e+00,1.845183092307429717e+00,1.444904334490599629e+00
-4.334094219252088154e-01,1.958971692506390250e+00,-1.106605391398150173e+00,-3.316429832398949618e+00
3.592831564475530981e-01,2.468301222097123215e+00,4.122252863790825117e-01,-3.153275311953734672e+00
-2.579724437920247304e+00,-9.716855265788958487e-03,-1.080311258983644995e+00,1.761660255002361675e+00
2.014105005471382270e+00,-1.781984825716788956e+00,2.007164012388661156e+00,-2.588439595049855324e+00
6.045535501256588118e-01,-2.670739858708978787e+00,-8.605433625482808990e-01,1.234680077258862863e+00
1.829931774613390849e-01,1.766413472945680407e+00,9.562756061673306773e-02,-1.327645196528151272e+00
-4.274732316902843721e+00,-5.076160286838680979e-03,1.142532900360164971e+00,-1.241695529852272717e+00
1.743443643918813013e+00,2.330694034752511357e+00,3.256900929164643355e+00,2.556279023319784294e+00
4.416174101074423319e+00,-3.101563026480118057e-01,-1.602362006736812949e+00,-6.009683700183271471e-01
1.012980257994991362e+00,-1.952373675500857386e+00,-3.489063548836273565e+00,-3.405067146128175626e+00
-1.806275298015121322e+00,4.075464116627446898e-01,2.656955996053513847e+00,2.576461376803627523e+00
-1.435005730432358517e-01,-3.328693916376744610e+00,2.874939305755526142e+00,-3.815415561930341593e+00
6.887834818548207449e-01,-1.537631583931304835e+00,8.496966783015382774e-01,2.158072078409568828e+00
2.108742014532602127e+00,2.451491316040781410e+00,-9.204353101088528222e-01,3.044897059623883351e+00
-2.373808000577478872e+00,-2.492928059774423222e+00,-2.149280703851677021e+00,9.131990075470026724e-01
-1.627088201168066961e+00,2.340559402805931360e-02,2.225153858236273763e+00,2.299691694717292290e+00
2.551286442342563188e+00,-2.345188730356464468e+00,-2.152083673342503278e+00,1.456402565557382900e+00
-3.176040916989022023e+00,5.794221114579557463e-01,-2.627453288432663125e+00,3.566844864850619690e+00
-2.985145570367008006e+00,1.828715212982500449e-01,2.798955961970668760e+00,3.638613353048180787e+00
-3.721791147548473511e+00,9.118001777181700129e-01,1.395041391097066041e+00,1.048198945635647972e+00
1.363763232128388569e+00,-2.870062949265961727e+00,3.358232670319338364e+00,-1.286313657849619263e+00
3.963980518301592593e+00,5.474182561457473506e-01,-1.521348598488191151e+00,-3.505972402131126153e-01
-2.399593075840307232e-01,3.528322342831575753e+00,3.287564320334090073e+00,-3.130985877979355791e+00
1.232514784655218021e+00,2.175807998743346072e+00,3.352677054979968374e-01,1.065090931473965163e+00
-2.902425073474738326e+00,8.688662751410746177e-01,-1.539777629283053395e+00,-2.036187099651763088e-01
4.476944578599525992e-01,4.353929123478304852e+00,-3.454928089127494939e+00,4.983248330572428303e-02
1.490441112193403583e+00,-1.860164248453966218e+00,-4.146433434772385795e-01,1.915254257136062899e+00
-1.187565035807424563e+00,2.851159668013359294e+00,-4.438208150493386239e-01,3.545865751673094035e+00
-1.658241055800853681e-01,9.586868390478250901e-02,2.155199379778518498e+00,2.415913956962990383e+00
5.645688750094411956e-01,2.506978563465095622e+00,1.132949150882245903e-01,3.187024402871349249e+00
8.672255632060743569e-01,1.285382502191193987e+00,-2.603370552972301244e+00,3.309740319053331437e-01
1.271118111450907140e+00,-8.410633446064486041e-01,-2.072224777200152079e+00,-2.833653633305006192e+00
2.245888574022604445e+00,-5.031962450703463263e-01,-1.295862537437870721e+00,1.176306140557204838e+00
9.787611241585708610e-02,-4.209828118715184253e+00,-1.929459325526533264e-01,3.475618673279505799e-01
-9.157739118293494185e-01,3.305687248803935052e+00,-1.709876557038387146e+00,-1.013310485307036490e+00
-2.893180485991411643e+00,9.451636822101022739e-01,4.891030466016195177e-01,-2.488466201906155195e+00
-4.196580952488859317e+00,3.004131552226737001e-01,3.192125910551954604e+00,-2.335977441350431505e+00
1.754112140361816063e+00,2.596101771919145929e+00,-1.684980165585646450e+00,1.324752386137683979e+00
1.609896826624452881e+00,-6.779034123007910972e-01,1.050227805777770751e+00,2.328238272660872354e+00
3.288584459871515708e+00,6.052834007968359575e-01,-2.604635803438730690e+00,-3.737880976319669202e+00
-3.752812125879456229e+00,-2.923404129344536195e-01,2.059604347841231142e+00,-1.937587887115319152e+00
-4.291226874309586603e-01,-3.704785764208876842e+00,-3.541545402554313604e+00,1.121309666698766805e-01
-2.922026209059358060e+00,-1.423417347262045052e+00,-1.838323993120683619e+00,2.971551852477343658e+00
1.234248591847272536e+00,-1.682712462112405660e+00,-1.217733326660090487e+00,-6.516034724800482403e-01
-1.044018269885649941e+00,4.171035497318922758e+00,1.227472022866745061e+00,-1.762908958900910372e+00
-2.485996807256355190e+00,1.794480645024835619e+00,9.068710590110142800e-01,2.096451479414368713e+00
-7.876188060942524993e-01,2.960460385606362710e+00,5.542300321150643860e-01,2.235046793930909104e+00
-1.379965890637421699e+00,-1.384345824749591669e+00,-3.453366201044231865e+00,-9.705829823798953759e-01
-8.093911259530157665e-01,3.090717039601253102e+00,2.865442964384712701e-02,-3.004780416770672424e+00
-1.017812765576594503e+00,-1.027575828416102288e+00,-1.987764844844988943e+00,1.357945952987930083e+00
-1.979412960273889244e+00,-1.507677533074442966e+00,-1.797890274683687339e+00,-1.759376236305915553e+00
7.453566527436868983e-01,1.441251081316677674e+00,-1.980378285812791850e+00,2.457486274138982019e+00
1.782793609632974841e+00,-1.602689153542386835e+00,-2.634600015295830433e-01,2.305132956542105038e+00
2.773608561651499826e+00,4.761250534153949610e-01,1.457811889963769869e-01,5.406471599757007862e-01
1.992089271752155222e+00,1.528124555438091559e+00,-1.658209461896167802e+00,2.526279802892389625e+00
-2.613111402782335002e+00,-1.181394842423675540e+00,2.143844034013053346e+00,-1.467564145771408590e+00
-1.240903428514579021e+00,-2.706962711982842773e+00,1.496551648036538618e+00,-1.080130950337455875e+00
-3.403388788821338218e-01,-3.114491300397082885e+00,3.513848336049584908e+00,-2.903605194505907150e-01
1.588490780068223307e+00,-1.263368567159027123e+00,-1.415724444935602122e+00,-2.952032651620368764e+00
2.200926134821936220e+00,1.580241857811246708e+00,-2.385607561350231443e+00,2.315565980268838420e+00
-9.172664400972559973e-01,3.979166751716529227e+00,-1.813477694039108856e+00,-2.699250138035607094e+00
-4.363684931598432182e-01,-3.695057661811859795e+00,9.100702751893593456e-01,-2.423154333406556393e+00
2.235774092981711370e+00,-1.920514474378780534e+00,9.606142667121626566e-01,-2.450076039912676862e+00
-4.277071116334342504e-02,-1.359591811684232932e+00,3.939435911819688142e-03,1.720183187380207146e+00
5.680768846448038811e-01,-8.213203493598448812e-01,3.115805493208279042e+00,-1.454378618607218010e-01
3.115310753226430140e+00,1.730461355394221856e+00,1.975592898957374333e+00,6.969483221709298348e-01
-3.767086802992319683e+00,6.516341176066391405e-01,-2.395865518691705720e+00,-1.885723860748589109e+00
2.559446778093692892e-02,2.711676303813975175e-01,4.180654956278805345e-01,3.739629270072247214e-01
-3.833633612873409202e+00,-3.777285331780280697e-01,2.961396831087089176e-01,3.387352208772110185e+00
-4.993742274676352677e-01,4.687186176858677555e+00,9.163144802798397492e-01,-1.854360063847585227e+00
1.749287656746049135e+00,-2.253148324135717750e+00,-3.314916890337304078e+00,-3.704542575302312901e+00
2.794595929608956197e+00,1.734120433769874570e+00,1.703443350973516957e+00,2.873438774494585957e+00
-7.324620320070680812e-02,2.661494727295329543e+00,2.169699445537164983e+00,-2.326537564266200064e+00
3.804806510852403734e-01,-2.253080835965724837e+00,1.226758284854948089e+00,1.601834104579849427e+00
-4.474326745743860134e-01,7.562730352523010513e-01,1.542047156852421219e+00,1.604320155750549537e+00
6.762460170351688449e-01,-2.994277303279818003e+00,1.031334510405021998e-01,2.205581273076125393e-01
-1.882358743940419910e+00,4.069227176746611496e-01,-1.287979159715626043e+00,-1.436400512669427254e+00
-2.600170855744899701e+00,-2.179104197174871249e+00,2.310959878347534691e+00,1.805407247895398914e-01
2.434648983072688289e+00,-2.663945175338286120e+00,3.483814384932682806e+00,-2.760895044046447408e-02
1.477810734636959111e+00,2.778281837979907465e+00,-1.038770608029401243e+00,-1.875600012679549788e+00
-5.838023148950028940e-01,-9.053138200055751428e-01,-2.327197426079022247e+00,5.469779982427949161e-01
6.710140507432670320e-01,-2.766764545308945111e-01,2.440842001279428519e+00,3.324667331108774437e+00
-2.201184586985243108e+00,7.981597499432161458e-01,-2.672291217479362935e+00,-8.928940259396477286e-01
-3.921553600790715688e+00,-1.467786908004524993e-01,-1.854178664885864691e+00,-2.537659738109830365e-01
6.290129698297592942e-01,-8.059491222243799768e-01,6.621968580033828211e-02,2.377153667142762217e+00
6.326510623791608001e-01,1.835817139086311389e+00,3.238566895019908465e+00,1.771771572533125949e-01
1.087184771667731864e+00,2.235721508174315808e+00,1.652438504222533355e+00,-1.540681219687671133e+00
-5.460426173163632768e-01,-1.165914716005282514e+00,2.635450077120093937e+00,-3.136800401902179569e+00
1.868216319872502140e+00,2.781437801638970697e+00,-3.257775555745588303e+00,1.589614748040610204e+00
2.942507492651677214e+00,1.068146539654172500e+00,-1.293126054999631958e+00,-2.665451069088724534e+00
8.611344142762011877e-01,-4.644247432464109204e-01,4.771284683577335373e-01,-2.382601555727511311e+00
1.661790207612064751e+00,-3.932436131086988418e+00,-2.409131127808309625e+00,2.779151549606775351e+00
1.172483279625462727e+00,-3.990967908995948665e+00,8.102264267485775884e-01,1.160721298384124855e+00
-1.346270947121566586e+00,2.852155940549468305e+00,2.267830927720090095e+00,-2.598626519603807861e+00
-4.708437343498087513e-01,3.629335053244877596e-01,-9.501536608440585008e-01,1.311322976251412031e+00
-3.266708701242027613e-01,-1.122952865128989730e+00,1.234934100603117146e+00,1.910822927660496884e+00
-2.971520632080947300e-01,-2.998674423942782941e+00,-4.880739761628503648e-01,-4.478759173633335977e-01
1.720906781501071681e+00,-2.266391875186401617e+00,-1.430882542588103989e+00,-8.574773668403028459e-01
-4.474691270097303497e-01,2.253983842860579401e+00,-2.668353990446449053e+00,-8.414282095335868794e-01
-2.285528401013534605e+00,-1.113267854390445954e+00,2.867593155329197341e+00,3.036348397160336443e+00
-1.063601489211538409e+00,-2.761830792234810428e+00,-8.367273208726550004e-01,1.462741461189110526e+00
-1.684160764010219191e+00,-3.301614408587479899e-01,-3.931369164993921972e-01,-3.482612843106561940e+00
-1.437315701937027956e+00,2.641372917014546129e+00,1.547087742077357664e+00,3.350673977219891797e-01
-2.925896415877316858e+00,1.055962941774362396e-01,2.451683900949883643e+00,2.990123287231903237e+00
7.517486035662890309e-01,-1.809629088463676760e+00,-8.900620662551225193e-01,-4.308876386970157402e-01
-4.949170923179302406e+00,7.253043632629343485e-01,-1.012428992010744100e+00,-2.796358424100790163e+00
-1.089825684871331274e-01,-1.636318273751914854e+00,2.956526395727534062e+00,3.404315525620338345e-02
1.156612947432764660e+00,-9.131849016452832091e-01,3.398407050532753271e+00,1.847181387195803381e+00
-5.589631567453355876e-01,6.634086271269399315e-01,-7.719945164118957592e-01,-3.730177479862309409e-02
-2.273349404431968868e+00,1.495853885668801286e+00,5.896369241388473847e-01,1.525740903949625693e+00
1.935298618556080097e+00,-2.694140777452806113e+00,-1.834579685242724523e+00,7.466683725762019996e-01
2.891384754420038394e+00,-1.096373409434340251e+00,-1.477869955540289881e+00,-2.594691445337017566e+00
8.148852517294229436e-01,-5.312971990376296194e-01,4.929949458362683501e-01,2.874010879334778501e+00
-1.657948494222089231e+00,-2.701715977382400879e+00,2.387770211342602478e-01,2.986179074592960614e+00
