-5.018350892221445925e+00,3.089501206508339148e+00,-3.401918658731922118e+00,-1.344131234529865493e+00
-2.655536534788819569e+00,2.962455617203351821e+00,4.069267875612198715e+00,4.519439305579647237e-01
-2.524996486291819497e+00,-5.910283354766388442e+00,2.331212637596908444e+00,4.630660211050390274e+00
1.884491357554721080e+00,-1.551050197724519242e+00,1.917908845021022657e+00,-1.667603394968234953e+00
3.336450946331547929e+00,-4.668407548109377442e-02,2.029691477302343561e+00,6.896979238226185194e-01
-3.141818564676689185e+00,-5.362614079135162859e-01,-3.487589428648266487e+00,3.624373381102750979e+00
3.332724084573760237e+00,1.548806285882573297e+00,3.710240616367846744e+00,-1.457316947948613217e+00
7.120710475868878842e-01,2.519638273869193146e+00,3.623072268476881685e+00,2.963498664519340409e+00
-1.465812233750808158e+00,-2.306734383841536340e-01,-3.492547889010073181e+00,5.916574542640580248e+00
-3.027180994212318677e+00,1.872259360198727185e+00,3.194122172095021917e+00,4.403425796418459548e+00
3.978147321915164625e+00,8.673827254110320073e-01,4.009379650565175979e+00,-9.627749271867741543e-01
-4.554436251044015727e+00,-2.741621007304459123e+00,1.593788276726969544e+00,-1.639541007263515482e+00
-3.815720719160138774e+00,-1.213284964330296756e+00,-3.283929895507115226e+00,-3.787684538843059556e+00
-9.888299683919329897e-02,-7.029184380338773241e-01,-2.421557937290691243e+00,2.173250206837642473e+00
3.418396139833168590e+00,-5.447811596573194137e+00,-2.779248156760424138e+00,-9.508050096994405398e-02
2.241409160891915331e+00,-5.483622201749559499e-01,3.463512564289411788e+00,2.842585506772444814e-01
2.204120205129026289e+00,-2.945680355707326559e+00,-5.572255241203092485e-02,-4.300721764774534606e+00
3.008659642459041716e+00,7.172081327728128952e-02,-5.081668044648141702e+00,1.032148916818909301e+00
4.581606586941868176e-01,-5.081637078257420725e+00,3.422836526823191061e+00,2.674033429126154715e-01
4.783486528292789863e+00,2.114343964597907854e-01,1.478062501097658243e+00,1.933520305545441520e+00
-2.640240879079656544e+00,1.764821933464675030e-01,-3.577560088048299392e+00,-4.166847012011366758e+00
-2.203653097111687220e+00,-8.784989919368861866e-01,-1.474139050626476433e+00,4.777264207081696745e-01
-1.733542725535928808e+00,-8.831964862706725983e-01,-1.088771037697154886e+00,-3.294504136941043715e+00
3.245923934383684539e+00,5.402390107865320701e+00,-2.637436349438084360e+00,5.069373239783984353e+00
-2.308794377207644466e+00,1.352048973603952042e-01,5.144339178307464344e+00,-2.118019997977848234e+00
2.305458230977931733e-01,-3.379973302728182194e+00,2.508722018246003049e+00,1.079070310831138579e+00
-4.561164652830786537e+00,1.077433142251163350e-01,4.864694222699835535e+00,9.894758739650114654e-01
-9.641916023135047586e-01,5.719006642250120009e+00,-2.745041677560065896e+00,-1.551909121930996394e+00
-1.935545742754840814e+00,2.858120322192815088e+00,4.213993816527500158e+00,5.593659474910020357e+00
-3.439261370818864627e-01,2.847384085328013570e-01,1.876455937055686585e-01,9.637843161855423890e-01
-1.596073823607205622e+00,-3.859140390152406397e+00,-1.437508727294939392e+00,2.052129869244093907e+00
1.237734721334573518e+00,-3.215691934574946398e+00,4.000706212085617608e+00,-3.887011815614970445e+00
-1.292917583481010935e+00,-1.477797352468015024e+00,-4.474203922927749488e+00,5.829462012356579237e+00
1.499577448873798513e+00,6.378170908289755303e+00,-2.761821405224870851e+00,5.548654347206542603e+00
-7.397531980015076059e+00,-3.507660016557527349e+00,3.029506644494665668e+00,-8.652259332635523492e-01
-1.706044310029509070e+00,6.207438914872079216e+00,-1.651141268385335037e+00,-2.288297402859598595e+00
2.231772265361867458e+00,4.842242613428657805e+00,-3.740531612079330825e-01,5.399702810091444150e+00
3.622409100036205754e+00,3.371106894429001688e+00,-3.336404753691193381e+00,-6.920516916518422157e-01
-3.082458509897065380e+00,2.556734719146426027e+00,7.509754832618255327e-02,8.976673929487082315e-01
2.219149690998242441e+00,3.694152484693842275e+00,1.710167498385159357e+00,-1.745522554195813036e+00
3.566254769295353899e-01,-5.245218571521109041e+00,2.671635176693946789e+00,3.097147688929792420e+00
-1.944454370268373644e+00,4.469645699885727019e+00,-4.059844901325649680e+00,4.719795405335267979e+00
3.768103708324389844e-02,-2.135443582132562579e+00,-3.624763690500125701e+00,2.261063315067779023e+00
2.508475270780556876e+00,-2.214291291034136133e+00,2.361579426375659541e+00,-1.925946837254778332e-01
1.343591126463764995e+00,-2.354831947735522846e+00,-4.722540903459223616e-01,-1.418737001679438059e+00
1.972287892475619586e-01,4.168795772070787997e+00,-1.720534611846758155e+00,-2.704763621937529283e-01
-1.466953951462214301e+00,5.001370948545122097e+00,2.058392166144849433e+00,-2.200809969629533569e+00
5.281690561779191384e+00,2.042583835540848769e-01,9.245395609831188466e-01,7.240399422388482664e-01
2.051915196011580900e+00,-6.769899494848898858e-01,2.605446583555586670e+00,1.385061773315226841e+00
-2.945595088202184186e+00,-3.885336980663683715e+00,-1.256151872421682469e-01,3.148213628718709689e+00
6.361751615003248261e+00,1.006915602924176367e+00,-2.350590694540112491e+00,9.155479430105331051e-01
-2.398140175060898382e+00,2.750886543274603913e+00,-2.240947655158550322e+00,1.615103336974722747e+00
-1.618618560307145682e+00,1.631951573188621663e-01,3.428832634863581585e+00,4.634878245426405030e+00
6.789876377595008838e-01,1.319814590024528389e+00,-1.408074236688113823e+00,7.878996354249662160e-01
-3.560913374209409454e+00,-1.773850724001122980e+00,1.288126846157340299e+00,4.188644968293785964e-01
-1.032787353794932361e+00,-4.088151509810240003e-01,3.846460234853037452e+00,-1.023743495738620890e+00
-3.174310193685036641e+00,2.686101446572486839e+00,4.486423590052946331e+00,-2.384696821194882688e+00
3.754331716327452551e+00,1.524756031050407135e-01,2.046006919931000478e+00,-2.322282983459815320e+00
3.837160630766972558e-01,2.197761199748550887e+00,-1.239809851743843616e+00,-2.389233975003932198e+00
1.487996259305720825e-01,5.787060294325260257e-01,-5.180245243035640906e-02,-2.836182920264333163e+00
-3.748828883192005357e+00,-2.012471693353781621e+00,3.675138267745460041e+00,4.883769338524786896e+00
-2.227617053174468342e+00,-4.687052623702006038e+00,2.367387943837645725e+00,-5.509360162072272082e+00
4.810139995163744686e+00,2.664204692507525341e+00,3.069224516474378994e+00,2.744411657237899593e+00
3.040053584596032810e+00,-2.617059391082915187e+00,-3.858014710241083112e+00,-2.540980706415237655e+00
-3.500140196440778340e+00,4.003710615068495571e+00,6.468104547493760847e+00,-2.745163752583311911e+00
9.072687356041000406e-01,4.280098621188468400e+00,2.364260220439686311e+00,-1.618387535822554568e+00
5.626444385253438263e+00,3.053539759704363421e-01,-4.145957360817473791e+00,1.081658727354175120e+00
4.021678712160121627e-01,3.236222153722791983e+00,6.116447240831385766e-03,-4.911245635187418301e+00
4.714204230473738377e+00,2.504708412734097944e+00,1.187311282063603590e+00,3.741882452348392007e+00
6.188198522240335731e-01,-1.771031158666908967e+00,-2.564659316269030764e+00,2.639966436449578513e+00
-1.465863961945189364e-01,-4.030628609157319353e+00,2.000678613440232123e+00,-2.221373824281799525e+00
4.299576477979027977e+00,-1.807927923292099504e+00,-5.605852951643803372e+00,2.257229044707152799e+00
7.443454626580436884e-01,-1.589738626125571708e+00,5.055222994110563306e+00,1.323664663242652750e+00
3.403908940724790444e+00,-1.500570091292011021e+00,3.120619337070256627e+00,-1.827074901729092593e+00
-3.177340866403159936e+00,-1.648313327334887113e+00,-4.650925284596167941e+00,4.322907070401628360e+00
-2.634310776771931373e+00,-6.682338682436563815e-01,-1.561147223403859696e+00,1.222879021190764082e+00
2.204980198826405502e+00,-3.602327746419415888e+00,-4.476453189993907955e+00,-1.090552354258564755e-01
1.720541709493620397e+00,-3.285679771426333051e+00,2.964379214837617571e+00,1.999141763935501137e+00
-9.654062203933655439e-02,1.636385997630664946e+00,-5.042778070198481455e-01,-4.266575395492551159e+00
-1.329865031637744499e+00,4.466366337034503253e+00,4.693945254095404529e+00,4.795354947634951515e+00
-2.834856204318416117e-01,5.163930747997779847e+00,-3.380640709034935298e+00,3.495586829385413541e+00
-1.211025935222877825e+00,2.824928896285022972e+00,3.557808869131179108e+00,6.150396564964465185e+00
-2.708505097364315883e+00,8.277363837554020387e-01,4.118574468435504343e+00,-2.719388972975258945e+00
2.913642919607535298e-01,1.116813516728360600e+00,-8.708568749949967547e-01,1.795198583752397825e+00
3.398705194882058134e+00,2.996492234853390446e+00,1.548604014071706336e+00,-2.842386124445307694e+00
1.454333421008156879e+00,-2.238051390001538632e+00,2.482559194787302026e+00,-2.099137281294000790e+00
1.298737004837831943e+00,-1.033477481107253126e+00,-2.604040122745594488e-01,2.744938587108279648e+00
3.205102116625407671e+00,8.699112397836145094e-01,1.991263761922862363e+00,-2.768880510936783668e-01
-2.505417141376609536e+00,5.763421295440708469e+00,5.493965719547942994e-01,-1.415493878580951437e+00
-1.902729869659204764e+00,-1.199318494824767267e+00,-1.539978900486454583e+00,4.064041803720806811e+00
1.657992085586611708e+00,2.658678185156809093e+00,-1.883306436717538279e+00,-1.135146149228304591e+00
3.332190070844111673e+00,-3.235710188782807695e+00,1.625117057577309676e-01,-1.008292506111983622e+00
-4.541424357511201215e+00,3.258627219558833055e+00,-2.037416256172380979e+00,-6.929363577455215362e-01
1.698549177025960866e+00,-3.948254554216839018e+00,3.336111059635253451e+00,7.947015874582239459e-01
7.313521590595120081e+00,2.013038633310146874e+00,-2.973549597981390846e+00,1.828886959503787102e+00
-4.638107404879323603e+00,-4.449590670906429679e+00,8.446368566450246362e-01,6.654493804542002677e-02
2.646606457044493155e+00,3.937024479453549386e+00,-5.811847531501495023e-01,2.621314760775494968e-01
-1.221684957778022662e+00,-2.716993724830998325e+00,-2.186164146352008064e+00,1.827230230453259718e+00
-1.281846839839667407e+00,1.454335991949231133e+00,-1.892694355038796683e+00,2.177986602866828214e+00
-3.032299194620654337e+00,3.755146666432590319e+00,6.465583913948107053e+00,-3.498939740791501940e+00
-2.118740403500089631e+00,3.962055544191392720e+00,-3.051523504107746532e-01,-3.815057287372789041e+00
-2.902733106412324737e+00,-2.337823139281489215e+00,2.217362877487433437e+00,3.870802591613304866e+00
1.998704486738657193e+00,1.682776159198385857e+00,2.194359064973479434e+00,-4.163125244073493825e+00
2.484811335124495479e-01,1.773541901626460859e+00,1.470699897484915697e+00,3.753518915981858939e+00
-2.438670856088650751e+00,1.435575155715802520e+00,-4.000538289528569713e+00,3.984891578149812208e+00
1.473248698335099638e+00,3.349074917109508664e+00,3.916450089898945830e+00,3.479258374112145447e+00
3.744487642113077941e-01,1.842478258139712555e-01,-1.070676178687294922e+00,-3.101704310015661825e+00
3.027610429094854116e-01,-1.579257916466188183e+00,4.982728707547751767e+00,-2.248297080926857205e+00
4.676375537099406898e+00,2.554025347204265106e+00,3.342878429154450881e+00,1.037359914655902937e+00
1.924952599333155101e+00,-2.598480749541315360e-01,-4.691876167824296395e+00,-4.024870476639090533e-02
-3.303293953649207859e-01,3.555654035013068093e+00,1.521014162631487976e-01,6.518799814168644957e+00
-1.135264826408026062e+00,-3.704884040821077917e+00,1.542946545900182986e+00,-2.743774821581281387e+00
-1.931502076545460689e+00,2.097509958392351770e+00,-2.325719545350483086e-01,5.293209331120089622e+00
1.676333416669538723e+00,8.627798150010848044e-01,-8.162553685781136492e-01,1.218470985120663652e+00
-3.300572224455537107e+00,-1.895389512474358940e+00,-5.571570467771087110e+00,-4.920211226316729136e-01
-5.413338183065392606e-01,-2.349915862185866455e+00,-5.836109919316917249e+00,-5.407066604055701386e-01
5.520125281109689031e-01,-2.199813878314287319e+00,-3.516972054399044589e-01,2.245461591739587703e+00
5.803876694913448375e+00,-7.844319809422609091e-02,-4.158830405240532713e+00,-3.372666808044694209e-01
3.231074118616659163e+00,1.929949196451309357e+00,3.240260521291949747e+00,-4.629923793350540495e-01
3.692414791416568587e+00,2.828194974521366589e+00,-2.027828338345794457e+00,-2.417904384612542312e+00
-2.297788481392199600e+00,-3.738616306125656763e+00,-1.554045324379997428e+00,7.721542521801287584e-02
6.743103047845783848e+00,-1.943305415651430390e-01,-3.297806263175088737e-01,1.445457614034949545e+00
3.203977942015554969e+00,1.518818391515971422e+00,-2.215366232162629956e+00,3.493643659260503576e+00
3.577659190634554065e+00,-1.363015407894061726e+00,-3.731398202383670704e+00,1.757521121569797673e+00
5.078576142312815067e-01,-4.566547729120165044e+00,1.407671045272111954e+00,3.260930699126252108e+00
-3.032259088602510033e+00,2.830436480914819697e+00,1.338121284594483207e+00,-1.133851009670866050e+00
1.545220683415039264e+00,-1.119537675754889383e+00,4.213715675290255369e+00,-3.125226080257770711e+00
-2.215907019778303955e+00,-1.859520339063691408e+00,3.801515148438515013e+00,-2.350656275138595763e+00
1.308254934933159586e+00,-1.108915253137785495e+00,-3.317351729865603449e+00,3.471717184462004724e+00
2.058638193139626704e+00,3.671407997112166033e+00,2.554036990456138856e+00,-4.304786401143476660e+00
2.211688830978697506e+00,4.869207520466018124e+00,-1.067779433309341774e+00,2.225675796172920329e+00
1.487094597612292901e+00,8.891619841954172543e-01,3.810035802492586221e+00,1.825562295894011422e+00
1.205787412301124739e+00,2.845515795136743353e+00,-2.044476683072311285e-01,-3.722066636463197686e-01
-5.780247879456882565e+00,-3.590977898946417834e+00,3.178559973158722851e+00,-1.615315182034924302e+00
-1.694252853641927903e+00,4.724410734515902988e+00,-1.728829892187533010e-02,3.178880897304108721e+00
3.681871732829975485e+00,-1.852270177393535056e+00,-5.482608227695938474e+00,1.817388632894140432e+00
-3.436488264699743667e+00,3.890723244798692804e+00,2.812819252032720652e+00,-3.467512436073767468e+00
3.711662975325309421e-01,-4.199506055460506815e-01,-5.221972847753805880e+00,1.627997986453667334e+00
2.592030435648466469e+00,-2.306602796487351004e+00,3.575717075572247161e+00,2.748721305760192801e-01
4.565916183121169425e+00,1.933697916675620743e+00,-3.953762100314481276e-02,-1.415462627016414121e+00
2.144763269680019846e+00,2.887078245975752022e+00,-1.544537515528924487e+00,1.224367459790587503e-01
-2.536504575390164273e+00,3.344290567643724565e-01,-3.773018428975143834e+00,-1.895634920704905912e+00
1.869857121318934112e+00,3.511279957175343913e+00,2.958963541035907863e+00,-5.309796703171305587e+00
1.466918729297183033e+00,3.016100329844742411e+00,-8.014895766680145694e-01,-3.390018063825497752e+00
-2.498784014493068639e+00,-3.288342015559669207e+00,2.080582563823195841e+00,2.004225061924417517e+00
-3.800884522522774311e+00,4.552075830781085131e+00,5.203126392531674860e+00,-1.601484079477565992e+00
-3.892015457512195464e+00,3.820586106200203336e+00,-1.818260954630482207e+00,-2.320044604146537015e+00
1.151264709120647378e+00,2.019101076619902013e+00,6.115987944729037729e+00,1.418459411310569740e+00
3.079446306355490215e+00,1.169369671376918163e+00,2.701602772081219683e+00,-3.463845830203781340e+00
5.815848029592610047e+00,1.600396487110085364e-01,-3.191682308207560048e+00,8.256244439317170780e-01
-3.501591533510448162e+00,-2.017279985683458676e+00,4.167036174242708668e+00,6.338375716465023402e+00
3.437424978001281328e+00,2.580641084713085842e+00,-3.352679417359557323e+00,-3.645650443206039704e+00
5.436716195780276983e+00,9.982756261497349737e-01,8.634877114895703754e-01,1.427326327959506092e+00
1.231851164530312071e+00,-4.987063976032324319e+00,-1.794609150726421687e+00,3.918185629681029125e-01
-2.062111828877292830e+00,-9.940884750334717523e-01,4.427934939823987115e+00,4.950877101067335140e+00
9.715203270702935656e-01,-2.127874360196981396e+00,2.671115734051388579e-01,-5.247330405092641037e+00
1.430171656099376243e+00,3.525567574189499176e+00,-6.744294617317964091e-02,-1.949626092693606538e-01
-4.030832424198175445e+00,1.480153238694034812e+00,-4.847182024005427081e+00,7.391933401750931942e-01
3.049990988651061219e+00,-8.628596047114681644e-01,-3.156890826435301278e+00,-7.298171628773626463e-01
-2.047971245636227788e+00,2.798910256743555092e+00,2.352383574129837562e+00,3.892784142472962117e+00
6.245276843214550233e+00,-1.307688039035690641e+00,2.716599256696830444e+00,2.177105210761291598e+00
1.836780051692146198e+00,-1.494184621766034171e+00,-4.113655085096300290e+00,-4.599816640600913331e+00
-2.441915712742099842e+00,1.272949725696927326e+00,-3.959272677049824107e+00,3.314567649306322306e+00
2.209262378360810075e+00,-3.497231234582196535e-01,2.832340447109181980e+00,-6.082572336102979094e+00
-2.939765698916963377e+00,-1.055222036774951633e+00,4.400834657339339984e+00,-2.555762248227681610e+00
4.402088514383794227e+00,-6.307818269377065690e-01,4.904820970171746564e-01,-5.331824242201868014e-01
3.018495737467948192e+00,-1.435461201796337516e+00,5.752897116492711183e-01,-3.178281770563385233e+00
-6.995395455893737013e-01,4.457759144775797822e+00,2.031317253880166707e+00,4.334020440655169892e+00
3.980679208158933946e+00,-6.044914160335973285e+00,1.971709818622675137e+00,1.908704380799349121e+00
6.811718685550498253e-02,-3.466735902839767736e+00,-3.482693432020772750e+00,1.559512157660086218e-01
-1.734331049072432185e+00,3.193537630932088978e-01,4.785018366956574898e-01,-2.263714248959646458e+00
2.336703500252802268e+00,1.595130174303790449e+00,-2.585894444351542809e+00,-1.369619282296528961e+00
1.341131542644601771e+00,-2.933462734548302198e+00,-1.935864706767318921e+00,-3.849201324101556576e+00
-2.726903025411483217e+00,-2.928291522348511755e+00,-2.146554729336088929e+00,-1.802689638325200849e-01
3.152750587481199851e+00,4.893269579446087314e-01,3.789428465296280080e-01,3.549161664961224982e+00
-2.501810947350031178e+00,-1.021811967964221912e+00,2.108703955328700808e+00,5.870707816150606106e+00
6.123785070697993937e+00,2.557169256152931336e+00,1.939136049129940087e+00,3.282554374240171935e+00
2.089472652004012720e-01,5.462977149810813948e+00,5.537533108235799251e-01,3.926339786935119314e+00
-1.648416771010328796e+00,-1.300395419143701159e-01,-1.185242687701977937e+00,1.790158057039530792e+00
2.253655373008920382e+00,3.036532230041079305e+00,-3.997656341281907277e+00,-3.584776213034991610e+00
2.520109125919771653e-01,-2.438314538074394022e+00,-3.766776299556384711e-01,1.696853819309148248e+00
3.885221296220561893e+00,1.921462326691093070e+00,1.179290423740009947e-01,2.323273745339651253e+00
-3.439273007250272407e+00,-8.098276501925028015e-01,-6.105366237890281766e+00,4.575005110125520247e+00
4.780794953675558290e+00,1.402006816001735379e+00,-5.427658299419876320e-01,-1.352187588498560578e+00
4.758315725546134467e-01,4.311224591710770326e+00,-1.410426686106168503e+00,5.761581002424369657e+00
1.131659328637811823e+00,1.989926292560844745e+00,-1.765024223464963238e-01,1.143945591564131448e+00
3.859071247007670458e-01,-3.501195332672228377e-01,-1.092956606656891205e+00,-5.435190134172565912e+00
-3.651898343960399362e+00,3.460382025890818891e+00,-1.368732384815551040e+00,-1.195076124184848571e-01
-3.585847175600055614e+00,1.864055424716913045e-01,-5.920968018683150369e+00,-3.838507020716070972e+00
3.846801621757030887e+00,-7.427152275321650343e+00,-2.263583737456392186e-01,2.630608456965981112e+00
-6.650934133782023139e+00,-1.253163917690428841e-01,-5.660456396165958637e+00,-1.078231286809430811e+00
-4.738576498862693498e+00,-2.727331602280061773e+00,3.435410453609457182e+00,1.015062118189123674e-01
2.395943512529649766e+00,5.852102424365089872e-01,4.578351793064356912e+00,3.287402324550840582e+00
7.168839036737989501e-01,-4.753988351926836664e-01,1.389677100433464041e+00,-4.779926742702313547e+00
2.601858918200177229e+00,3.212600031588650484e+00,-3.756609962807405001e+00,-5.406116201229913543e+00
-6.936682188153737716e-01,4.422494856668842900e+00,4.407297905942564320e-01,3.098478965946306563e+00
-1.742251639918265704e+00,3.789038004099576362e-01,4.148031041181931222e+00,5.123393648912592191e+00
-3.013798386990250044e+00,6.180317969876287343e+00,-1.138265302247172706e+00,-1.729778208895055513e+00
1.541982860729942950e-02,-5.012154531264212398e-01,1.513727868020258605e+00,-3.035675526153072123e+00
-1.040850825934970247e+00,-1.680888974510427625e+00,-2.623737498417571867e+00,-2.634752698724122322e+00
-2.510868759584263810e+00,3.821500838069803230e+00,4.151689166558225619e-01,-7.375676231379358905e-01
-1.771515045221745410e+00,4.483919359137393812e+00,7.440912498587302082e-01,-2.565600364486490204e+00
-1.455269487860628264e+00,-1.622971873700341350e+00,4.206024616252475312e-03,3.776296782531522567e+00
-1.463627797474603698e-01,3.001266913336132269e+00,5.655527109094178329e-01,4.511716123417765623e+00
-9.860541003900463730e-01,3.222982567089706318e+00,-1.608098892765997268e-01,-3.776706604279870927e+00
2.957759078255661200e-01,1.618127612632647150e+00,3.281770432560313200e+00,-2.616549030176380963e+00
-3.193615277197657587e+00,-1.647629078453783646e-01,1.296878958147006822e+00,2.212636914156644430e+00
-2.626011664557023284e+00,3.736564797314734232e+00,-2.241617504040042341e+00,1.047808311540546988e+00
1.122921325601367259e+00,2.433716023882385837e+00,-1.061818458213524274e-01,-3.528729422521455383e+00
-2.158308522699893928e+00,5.585684086265900739e+00,-5.245042438543220387e-01,1.079074522857996987e+00
1.391720412049042510e+00,-8.262918106542003205e-01,8.170186688094264182e-01,-4.451811776920455266e+00
4.410259248804825560e+00,2.007726701183309537e+00,4.779975116540914115e+00,-1.659317192525943785e+00
3.556835720070342877e+00,1.810511411325743003e+00,-2.087528126395861605e+00,-2.390908100401496483e+00
-5.755617695598424177e+00,-4.770917411112848283e-01,3.323839162268405367e+00,5.247514421787233818e-01
-4.307716471214003917e+00,-3.731616395977542244e-01,1.371953848488724148e+00,3.089101202419850090e+00
-1.114123761307413307e+00,1.938543623080555722e+00,-3.855779960623574087e+00,5.606681616934146462e+00
3.779999361650905776e+00,2.612013753358953583e+00,3.476129836048472033e+00,-3.207227492805943214e+00
-6.757613433695306426e-01,2.329863594646097713e+00,5.814738615960009405e+00,2.577982693303893402e+00
2.404150475402119902e+00,6.491316677676264857e-02,-2.924990658690467260e+00,-5.328292510400737036e+00
-2.448825086960773945e+00,3.421785234770858608e+00,3.081130057233292252e+00,2.535149451228801976e+00
-4.349863205400267496e+00,-1.926096247227692571e+00,2.144634848378866643e+00,1.026585258179657734e+00
-2.908589541254465782e+00,-1.361883854179982034e+00,-1.251336977546767315e+00,2.033330908590315733e+00
-2.349173650772932997e-01,-2.197880691452428703e+00,-5.216989057494951787e+00,-2.637979278572617492e+00
-3.599972574776354239e+00,-1.478323137476507787e+00,2.564778103556402122e+00,1.670161221789372874e+00
-2.063994966398714048e+00,2.506399661524885136e-01,-4.580598501095115793e+00,-4.075484980004733693e+00
2.309791847372667295e+00,3.574737540206050834e+00,-2.351106263819155107e+00,2.589708511435853566e+00
1.781231343989472249e+00,-5.517011343062533379e-01,3.238506948844888989e+00,1.048674254587906418e+00
-5.615491008515445692e+00,-6.756597413140863484e-01,-6.265047363462022290e+00,-3.277282980070846286e+00
3.194525610946230554e+00,-1.777327860403115967e+00,-4.901697126516651792e+00,-4.034713999979508414e-01
-2.073417174915108685e+00,-2.275402457043023574e+00,3.382672790039745525e+00,5.093616340045345581e+00
1.822009417812630261e+00,3.158856874903096301e+00,-6.928868180497632645e-01,-5.306188979755785518e+00
-2.282478417266482040e+00,-1.910252896176013238e+00,2.081323050496279414e+00,8.499664806898815650e-01
-1.828330635450885255e+00,-2.629826267470612322e+00,-1.730008494765523874e+00,4.773410475031711897e+00
-6.683596492616027618e+00,-4.144202540428148368e-02,-2.090317672497297163e+00,-1.886524520785652026e+00
3.020369473068882815e+00,-4.218811178284197716e+00,4.232248213718677654e+00,9.319352080363936253e-01
3.276972822211277059e+00,-1.479084459171508215e+00,-5.272865943261859201e+00,-8.392037395134033240e-02
1.064717464810732706e+00,-2.574549813467766235e+00,3.699565347502705936e+00,-4.765556392651901785e-01
-1.766859795643301867e+00,-4.167601876916251058e+00,6.522520871455416147e-01,-3.872283545853994369e+00
-1.177174461119096627e+00,-4.444167908829427027e+00,2.983774406229107168e+00,-1.843884445517935955e-01
-4.038443047950973863e+00,-8.327509340286888273e-01,-2.698920025051063210e+00,1.710402074941016481e+00
1.217617733174525402e-01,1.812818011708875687e+00,-4.248951914873419611e+00,1.525255035752658639e+00
-2.277978448566519987e+00,-2.149200889810136239e+00,3.377974562666696379e+00,4.860027676929094653e+00
1.147470185683607466e-02,4.121122220602847719e+00,-2.567124841846217809e+00,-2.051143848237255707e+00
1.826078896454220724e+00,5.296405199238845896e+00,-1.207375784899302307e+00,5.065860242343050990e-01
3.470945245566414261e+00,2.580068716631510828e+00,-3.493277159400690390e+00,-3.730765383714940153e+00
-2.337743468382618595e+00,-1.874235103420210269e+00,-3.361617702853184841e+00,-1.864710110698043266e+00
-1.315256044807642244e+00,-5.938562537476117953e+00,1.816383711329398798e+00,3.770276649534323621e+00
-5.170670991126534055e+00,2.533296200830120970e+00,-3.100026728156911382e+00,-1.277054319985124198e-01
-2.850514235536904195e+00,8.272759491766188411e-01,-9.396919984496261424e-01,4.315530214009580590e+00
2.492019088164673768e+00,-7.818517558218444741e+00,2.265496182417958693e+00,3.379923030524562555e-01
3.844666944614787418e-01,1.714875291920968881e+00,5.996804546310007034e+00,1.518907274687804287e+00
4.814299798395213159e+00,3.053299924208310312e+00,7.844499369166724190e-01,3.916656739908633611e+00
3.614895439862925830e+00,1.732677392669235816e+00,-1.576947940129070469e+00,6.701862382682569619e-01
2.940148124789287554e+00,2.507170289086947168e+00,-1.815587652230431281e+00,-2.960634474296068408e+00
-1.785489890340748453e-01,3.551328777525392777e+00,-6.597902747149598790e-01,4.617147960759135472e+00
2.987956455518230303e+00,1.239724503973591296e-01,5.960229345754207486e+00,3.617155891426665715e+00
-3.070332755770711852e+00,3.605078817680158476e+00,1.830113013260829424e+00,1.116170054281957924e+00
1.667940234042700087e+00,-5.348375202215674307e+00,3.638421890906779477e-01,-3.098076201528652707e+00
1.849296505074415009e+00,1.432153644714792673e+00,5.781970493641137132e+00,5.177470037985656859e+00
2.554824104692945852e+00,5.526749222152320229e+00,-2.486263864931727241e+00,2.276914002275928883e+00
-5.045014210971966229e+00,2.632935277294290000e+00,1.878392568868570534e+00,-5.067173763389177799e-01
8.406781151500875016e-01,-6.580698063347496074e+00,5.666101375020866637e-01,-3.846402201866782056e-01
-2.637730984476712059e+00,3.956758349010746301e+00,2.314251227198937499e+00,-1.257852556399476018e+00
-6.819222350108435471e+00,-2.722303946067540448e+00,1.844548406512735717e-01,-4.356326660072480927e-01
7.071910457623801216e-01,-6.357838603447165227e+00,3.546844261196245851e-01,2.077759671796457486e+00
4.634292580151863739e+00,1.175249201225561757e+00,-3.056193933663594375e+00,-1.758345311247011544e+00
2.325854581878121774e+00,1.337309574417308244e+00,3.962059635796493229e+00,-2.042703109754511193e+00
1.202679954311344446e+00,-4.245967471602489773e+00,4.064314987869504847e+00,-1.514376817819639731e+00
-3.357507542052125871e+00,-3.086362515254578165e-01,-3.075547028014681938e+00,5.218926575174699600e+00
2.251776226722904894e+00,-2.841975797471222531e+00,3.472797260431166322e+00,2.911593337111148649e+00
-1.332812146275250687e+00,-3.379872375817455143e+00,-2.004655712884400920e+00,5.297577100233292313e+00
-2.480256086395849824e+00,-3.050534193426724383e-01,-2.534223388652364406e+00,-2.972833017784927367e+00
1.173915596728789090e+00,-3.475552536020233507e+00,1.371351548435711498e+00,2.303321004339180245e-01
-2.528636377045742289e+00,-1.307868577795315290e-01,4.836853826248063370e+00,-1.448129565537467522e+00
8.389028221333872867e-03,-4.607925296071231358e+00,2.024320394544457447e+00,-2.557796127407205300e-01
3.668420978813695221e+00,1.065123305257995590e+00,4.078252051861359639e+00,8.211516223641944778e-01
-6.926267627279982797e-01,8.329086982939593042e-01,2.488765620242980869e+00,-5.279213508608533445e+00
-2.521128439831345158e+00,-5.519656432574147065e-01,-9.079521050057700604e-01,-9.850609394147398223e-01
3.042683296197244314e+00,-1.067357635916144298e+00,-4.820580339380481583e+00,4.403694274514659557e-01
-2.263277841932253676e+00,-5.536873335373342364e+00,1.935423477171853479e+00,4.889169553643673005e+00
-2.415086992062879911e+00,-3.221788682119092417e+00,2.370470359424511564e+00,-2.027498298293926915e+00
4.916622356432378105e+00,-2.161342991885125020e+00,-3.433227940693985292e-01,-2.772722363725615424e-01
1.802752937018069046e+00,4.451025350497210376e+00,1.792556016367744753e+00,-1.201445505838544703e+00
-6.185129608080532915e-01,4.151584707802823182e+00,-1.103695676080890919e+00,4.080354391164128458e+00
-5.003271894668486652e+00,1.972399415871671557e+00,-4.343522372622549810e+00,-7.294941473169017643e-01
9.901986649180614108e-01,-6.837773340000408151e-01,-1.657324096327921437e+00,3.213920143774949167e+00
9.898039307523442965e-01,2.397719964021252537e+00,6.548823198593016315e+00,-5.160744733834441433e+00
6.465718876410320171e-02,-3.788612401566433974e+00,3.378424316821007078e+00,-3.406531107632559952e+00
-1.226852309090680437e+00,4.118415922091168468e+00,2.095526993035945029e+00,1.449028899597489151e+00
2.224150172808666837e-01,5.899899359049250336e+00,-3.028285144338281665e+00,-3.680107604346992023e+00
2.026728801609217090e+00,-2.181644176258241252e+00,-2.021008426275968439e+00,4.222570618574216894e+00
3.069415219605206246e+00,-2.583156426344872525e+00,3.157085407796929477e+00,-3.187623818936649922e+00
6.543580598474648680e-01,-1.804391962399319427e+00,2.177084643738142589e+00,-4.314010119991405823e+00
1.521403735089358333e+00,8.102292143237233013e-01,9.854480570323877198e-02,-3.991293167018198140e+00
1.694336347863494019e-01,-2.260607013687691680e+00,-5.113117594280826239e+00,2.038381522043000993e-01
1.537459754144933528e-02,2.221301529078933079e+00,-2.593863194146688311e+00,3.126734539332518992e+00
-9.414879786106371551e-01,1.623932778049746117e+00,-2.061077457339417940e+00,2.396591812506164931e+00
4.522568704717024324e-01,-1.653921270399088872e+00,-4.675930618582929021e+00,-7.372946905122299555e-01
-3.851490858019992025e+00,-3.824864501628420399e+00,9.111316141788915468e-01,-2.120347537522678127e+00
-3.048170555898069178e+00,-1.632324185714624010e+00,3.248495152627518312e+00,3.971421114849889467e+00
-1.127981684206308621e+00,-6.446199816041726649e-01,1.520714724558442699e+00,-4.393144135969460073e+00
-1.099051123937520247e+00,1.048297764943908916e+00,-4.997583799808422711e+00,-3.511241570908059995e+00
-5.556262981007554558e+00,-1.523479076427255441e-01,-6.220523463294241218e+00,9.186784626944364263e-01
3.633498347733711054e+00,-4.510463791668036793e-01,2.684958190888359297e+00,3.993807692875597226e+00
3.085176310966786795e-01,3.444299489347143695e+00,-8.455135404961358070e-01,3.612512809124985402e+00
-1.842761631344554063e+00,-4.894881522199653112e+00,1.550541102420894601e+00,-4.299678668454594010e+00
4.048573568226657038e+00,-7.258275973991077379e+00,1.628001810001207528e-01,1.715527281412224880e+00
6.275180164221402235e-01,-1.893045365495149290e-01,-4.484938944442238729e+00,-4.560191584368032736e+00
-4.511335988732642632e-03,-3.936543864011913474e+00,1.105289040302887271e-01,-4.204675462313899992e+00
4.202659713499951266e+00,3.066452291460214363e-02,4.968358729165433196e+00,1.449279306029369607e-01
-3.174973571410034445e+00,-2.384688460798837006e+00,-4.022602470664619290e+00,-9.551769493955393209e-01
8.253019923873333719e-01,-4.500549922338703546e+00,-2.935161459608995882e-01,8.046619569066397748e-01
2.135229474891039425e-01,-1.271605524929377617e+00,-2.842985591302178427e-01,-3.384366183717305354e+00
2.566389738499360362e+00,-1.156690604586166460e+00,3.831636434385819356e+00,-4.427765921615248873e-02
-2.337719995816074370e+00,-2.589054789258362632e-01,-2.087675275668589681e+00,5.822005972487547254e+00
5.516203974816051847e-01,3.378780797641256939e+00,2.023361162426233137e-02,-3.802367897076252223e+00
-6.804494196865756628e+00,-2.942343339855511442e+00,3.232508724049154569e+00,-3.140961782709435823e+00
1.575835428454240184e+00,-6.927645246625527831e-01,2.239883273401988006e+00,9.687311169177950099e-01
3.957314530335140912e+00,1.624858573518364047e+00,-2.117129571667542898e+00,1.367762035546016275e+00
-3.713980847129582763e+00,4.016836506096089110e+00,4.135958218850795731e+00,2.665271827757226819e-01
5.162105201490060219e-02,5.525037294475970917e+00,-3.217286198231736449e+00,-3.099843591440051060e+00
1.015558925595237083e+00,-4.257425440581072529e+00,-7.703265939869417822e-02,-4.038801831073391746e+00
-1.934997584837894857e+00,-3.087545936016526049e+00,-3.182474084690671834e-01,-5.088087169239951635e+00
-1.997534698151438026e-01,-6.861640543571303485e-01,-4.818040108443926606e+00,-3.285530366067417773e+00
2.858237276540179561e+00,1.879688961358206178e+00,1.538179730763163666e-01,1.462771779112059800e+00
-2.890008186302638116e+00,5.044725371877968101e+00,1.755507317352823726e+00,-1.334896080378543126e-01
1.548318262421179314e+00,-3.041207167605208816e+00,3.586853352735509759e+00,-1.284791161995919362e+00
6.709311384915039866e+00,2.588299790379601006e+00,-3.064244563642773311e+00,2.792900698102512624e+00
-3.201639658963238766e+00,3.054177151969789339e+00,4.059818484161811014e+00,2.616117707417422000e+00
1.994413764589666668e-02,5.154049654904502731e+00,-3.518832535652902216e+00,3.310189684180804726e+00
-4.560288454786469714e-01,-2.448460469302967013e+00,2.353078915304302132e+00,2.422006993775855863e-02
5.449662174164489059e+00,4.562622322474904624e-01,-2.774204133918039439e+00,3.064864729715846819e-03
-2.223555306628782091e+00,9.276987608489387638e-01,8.230146949751018237e-01,4.918577144088740027e+00
3.908687813459175153e+00,2.598792782744165919e+00,-1.375979445039847038e+00,4.261047216312827679e+00
-3.367030739026368735e-01,-1.960725288874616556e-01,2.323808545612711995e+00,4.375992999096145475e+00
2.523831274897944343e+00,2.490390269461888018e+00,-1.918911740087390960e+00,8.328928376652743326e-01
4.608295380829227739e+00,-1.483182699833831997e+00,-4.913089201281982454e+00,3.223464076688406177e+00
-1.402391299914391265e+00,2.001115751736743942e+00,-4.095607042281632637e+00,4.688066074054108689e+00
5.069182188857067395e+00,1.750615008553090712e+00,3.409077397856627445e-01,-4.821313904965664476e-01
4.609593354296332102e+00,-3.675362150944646578e-01,9.579960373424039055e-01,2.936895152526081132e-01
-1.591949934466469596e+00,2.061126763670208195e+00,3.682432077735156462e+00,-4.903555196785612524e-02
2.291776259192729981e+00,3.025456970355550723e+00,8.256549647257955815e-01,2.609849507715120698e+00
2.235151327103105601e+00,-7.456690614923179083e+00,2.030787301959451785e+00,-6.593856878868604721e-01
1.398543167239441276e+00,1.336986362466217049e+00,3.176003823384426994e+00,1.202960803698107206e+00
-2.172273989230145919e+00,-4.475302969542993559e+00,1.141255787024945123e+00,1.139614930601234200e+00
-6.170762675956378285e-01,5.367070794840945958e+00,-3.110169539734908284e+00,-2.566603934195504255e+00
8.233032861701730099e-01,-1.236378946460771067e+00,-2.393142040850570584e+00,-5.283266257786178421e+00
3.876588986027486250e+00,2.950606990251496420e+00,5.791611909195124724e-02,-2.553728034186121931e+00
2.218792689111583893e+00,-3.435159477998699362e+00,2.016015705948158987e-01,-1.570937882943447716e+00
-6.659333526222922517e-01,1.636747921662847993e+00,-2.729952839983956547e+00,-4.068736971215704656e+00
3.215837271588661839e+00,1.307057906768716915e+00,3.456883283901335702e+00,-3.025924911470101009e+00
-1.654110713983791836e-01,-1.474369731785967641e+00,-4.039154189942725459e+00,2.908272884951994541e-01
-8.725618461621661437e-01,1.476085379844253698e+00,3.578321938558783000e+00,5.703543799211367116e+00
-3.400883696965763536e-01,2.867457601058685412e+00,2.700946170621230991e+00,-2.293735471161710837e+00
1.847769432019690017e+00,-2.151406210681303666e+00,4.879442350964054320e+00,1.327284529492426479e+00
3.426658706709164726e+00,-5.567436087572585457e+00,3.070410415106770152e+00,-8.384706079747142882e-01
2.988714815293153748e+00,2.347526522757256151e-01,3.536496615792706910e-01,-2.531790958657889501e+00
-8.670926947788285544e-01,2.483451024811757168e+00,-2.314631195699604849e+00,-2.659895616368697979e+00
2.761773906325233785e+00,-3.616719024455685716e+00,6.163644618308679046e-01,1.320819088504823213e+00
9.356421429457647543e-01,-3.761192701913773195e+00,-1.733325377337141981e+00,-3.188169926545953992e+00
3.069028296774469311e+00,-5.233284789357259825e+00,-1.929368033296043006e+00,3.329121911266666789e+00
4.880799550311912149e+00,1.562702969734231617e+00,-1.931830640174909242e+00,-2.592362990920750399e+00
-2.961310247841396404e+00,6.957033350014393269e-01,3.832909765929214618e+00,-3.190527428321109138e+00
3.365241615360125227e+00,2.491551529331293979e-01,5.919084880379449132e+00,-1.684234459930794126e+00
2.650358123746897832e+00,-3.892989635775382151e+00,-5.255045653549142770e+00,-7.483648735323638057e-01
3.254320390511379113e+00,-6.644710371227221302e+00,1.498476545637647206e+00,1.223240636905521400e-01
5.213768871355207501e+00,9.146489854690710297e-01,9.982606193016463347e-01,1.814916180883211716e+00
8.845594593470665901e-01,3.714301499135662432e+00,1.604591765292882721e+00,-8.145517259525911768e-01
4.631650085998742838e+00,1.502539753406477496e+00,-4.373589482484149249e-01,2.921453625082550243e+00
3.204620561212093932e+00,-1.602569462031031122e+00,-3.534698065869479766e+00,2.882593690882348625e+00
-1.636807349608306206e+00,4.997751378837091529e+00,3.478620194141198052e+00,-3.616798470134526600e+00
-9.435436507122394456e-01,2.043172856682128113e+00,-4.119164873014707240e+00,4.200402787291599438e+00
-2.136833993250972785e+00,-4.774962726996123230e+00,2.023623132389062107e+00,-5.454743213882849773e+00
-2.746265866816311796e+00,-2.987247389391729957e+00,3.852129640111051412e+00,-1.661106492025184733e-01
2.543178053312185938e+00,-1.617109757515332369e+00,-1.994295033848791920e+00,2.569907243288262144e+00
-1.877691213526465619e+00,-1.311654780992374203e+00,1.382674237932889572e+00,5.561420680183521981e+00
3.467715044467519547e+00,3.124816654360653256e+00,2.207071385220798820e+00,2.971503644757862883e+00
6.534584380605754639e-01,-5.443516833083139161e+00,3.245511804189464833e+00,2.720717507139587266e+00
1.377153565479920072e+00,4.030757448538391685e+00,-3.391970169678229396e+00,5.076295382214835783e+00
-1.995088996121193059e+00,-7.963015689218690130e-02,-1.534653695327672596e+00,-1.402777678905917869e+00
1.068867905735414237e+00,4.400166031947234657e+00,-2.735904304151430266e-01,2.489275148906014312e+00
-2.570607594892080905e-01,-5.948953668939241934e-01,9.399463759167926424e-01,4.729223642561092511e+00
-2.051611421857197470e+00,-1.277118275500993771e+00,1.743824231631208255e+00,-3.927713831561020275e+00
6.210758384801700061e+00,1.774541092191215252e+00,1.785680281951050219e+00,2.521799758607224939e-01
-2.534153959472202011e+00,-5.966259467340451650e+00,2.348745804232744483e+00,-5.182438295426674557e+00
4.781752836956442820e+00,1.928357634499253015e+00,2.206280477974138066e+00,-1.367220625872254347e+00
2.798234461179845423e-01,5.885590936693270159e+00,-2.251962855054830293e+00,-4.277183335206141024e+00
1.177134462595758491e+00,4.097978137740523330e+00,-1.381281123539169986e+00,-1.393554425897944836e-02
-1.798919921857710519e-02,5.160328480785536520e+00,1.608362139183165507e+00,5.598351784165021883e+00
-6.522632155199317161e+00,-2.604617340039764972e+00,2.525263469120220705e+00,-2.065461328613380942e+00
6.324522342532614694e-01,-3.392884585681206766e-01,2.186883214365079819e+00,5.405208503805288167e+00
-2.066289427344147445e+00,-4.981463885074138176e+00,4.333129242557157146e-01,4.325112910771012897e-01
-3.510984055757178535e+00,2.614754069670326975e-01,-1.989777248813441091e+00,3.706715258615850050e+00
1.748556869032748207e+00,-2.993392468636369763e+00,-4.393532643333105447e+00,2.125042433403144582e+00
4.734291928201946220e+00,1.791918256545982135e+00,-1.318415609431764723e+00,-2.468876153887191283e+00
-2.251017317494118153e+00,4.031303664185791114e+00,2.544180322432829655e+00,2.206165563411778496e+00
-3.607220263106739377e+00,2.833661297325870798e+00,2.579052158260899841e+00,1.472367388638705643e+00
6.259737974335949362e-01,-6.609453547661821027e+00,2.635705946033405134e+00,-2.094490432308218519e+00
-6.179467670567940774e-01,4.742498707520914181e+00,2.726853797952741854e+00,2.736541290416178107e+00
-3.820266785890392924e+00,-1.260279439096794185e+00,1.413922409721476425e+00,2.566462497136481780e+00
1.204207226284712773e+00,-3.833622320394707295e+00,-3.760490704728143285e+00,-4.751400957184085172e+00
3.887339740193967330e+00,9.309690933955151460e-01,-3.036611419037924975e+00,3.463305316613984886e+00
2.993549684865198235e-01,-4.741689629550459584e-01,-2.025946096541222818e+00,3.637806238145206539e+00
5.232143868953763821e+00,1.216865741839479265e+00,2.419114530079967462e+00,3.574942093049576108e+00
-1.518166962273819420e+00,8.680461058724860957e-01,-5.250721081058746798e+00,-1.269501227231117024e+00
3.096022906506429972e+00,3.483554034858771686e+00,-1.624969801641961364e+00,-2.749622028720157818e+00
-1.875423891002810040e+00,-9.150709140427752963e-01,2.965140158959969074e+00,-2.921937007749141113e+00
-2.396710552126906091e+00,7.754329715539340362e-02,1.524608463749723697e+00,-4.376770912295243399e+00
2.824857819117938540e+00,2.858766485624840148e-01,-4.747957833601725852e+00,2.330167701383356160e+00
5.450413413054800316e+00,3.738711794417274525e+00,-2.468975979247880037e+00,-3.305195904374783833e+00
2.763808717671823345e+00,1.591018140267713710e+00,2.462597249937333643e+00,4.700498612818528876e+00
-1.170369263806458449e+00,-6.396640302513098009e-01,-3.293855878501920742e+00,2.176007231358739524e+00
2.679301095538114463e+00,-2.071128999434014961e+00,4.421319736774140807e+00,-3.736704441185729753e+00
2.559200247383769611e+00,-4.111666346875296973e+00,-5.492785895774181526e+00,-8.484396809016622742e-02
5.262881839978411413e+00,1.426786472679284490e+00,-3.016336395610098808e+00,2.231363568603204506e+00
3.410736228468597697e-01,-3.218251467610966809e+00,3.157723454191236012e+00,2.829669124526037471e+00
-1.203531765283024191e+00,3.404958714812004406e+00,-3.718904565273751128e+00,2.978844169586826407e+00
4.252005474021324005e+00,6.656065643967440382e-01,-2.562669415354132951e+00,-1.761087936529654591e-02
4.371554946883830617e+00,2.135532684513899770e+00,-2.326924172984048855e+00,-3.106447580805250519e-01
1.836233788816358681e+00,3.621475426384742402e+00,-1.430446015609103450e+00,-1.356154260441723824e+00
-2.222745574462808155e-02,7.030797308035099391e-01,3.381489559606106088e+00,-2.104176776810390503e+00
5.133334823514795531e+00,-3.202084694583005486e+00,2.049840203638835234e+00,1.549961767945820412e+00
9.960403270829903954e-02,1.706515880187054357e+00,-4.435181091537122811e+00,2.735718805882993987e+00
1.118499804069491288e-01,-2.526711626550256273e+00,1.663519110372988274e+00,4.267010262915031049e+00
1.618094614135185738e+00,2.020208094391823028e+00,-2.082554440811509977e+00,1.773460406095558328e+00
1.032777643655799826e+00,-8.677032435934709520e-01,2.577776423006224782e+00,-3.475313811537381614e+00
6.472833537895094302e+00,1.070974932213390796e+00,-2.180673007727214063e+00,1.675062087414615597e+00
-2.478838580112922851e-01,-4.900005670451340833e+00,-1.990448605277422844e+00,6.385892037945783972e-01
3.993128686973955954e+00,1.546022462247576668e+00,2.043876404135256397e+00,-3.399032035374578431e+00
1.416890737734487260e+00,1.443814938439139661e+00,9.553378544149230267e-01,-2.426199420639362891e+00
4.049360543063121654e+00,-4.333745355125578236e+00,1.992754944505358283e+00,2.734782138617706693e+00
4.530439155802357121e+00,1.280773338260464689e+00,4.979754287811513969e+00,-2.590914390669798895e+00
-2.027233017104839163e+00,-8.247985955579324457e-01,-3.886704811124124692e+00,-1.671042991302569947e+00
-1.626389921157888718e+00,-2.457035255238696259e+00,-5.165120440917656097e+00,-1.386665932126066147e+00
4.195296731814190494e+00,1.496174451103722491e+00,-4.375026249396951616e-01,2.190185450750018692e+00
4.161009137450817352e-01,-5.464712904334259491e+00,2.441819064909035220e+00,-4.878038620005217929e+00
2.225681612416112731e+00,-2.390532479974665225e+00,3.167946904697344745e+00,-2.946585751704532186e+00
-1.898534534389607842e+00,3.965522147338667924e+00,7.542906908100401875e-01,4.984642936004842539e+00
-4.741828624533528824e+00,-4.861726590346301613e+00,2.825807457630212571e+00,2.510676691941663208e+00
-2.796827754340923011e+00,3.196939631952575134e+00,-4.478714931785151343e+00,3.751490454433129340e+00
3.986054133255373610e+00,2.253102643376916348e+00,3.225501707234819548e+00,2.966864592108221288e+00
2.451381127060217047e+00,-1.292484125482854518e+00,-3.053527635824733633e+00,4.016438121326566524e+00
-4.108687238736489888e+00,-1.644028083265135720e+00,-2.196416989996321512e+00,-3.241413058388579405e+00
-3.436426227885071016e-01,1.296012796713975179e+00,1.913989248446215985e+00,-3.717039502946006380e+00
1.765787492507068679e+00,-7.574170773663939649e+00,2.878847678202028693e+00,-3.975712896435817933e-02
1.062509803948732623e+00,-2.649270607932900923e+00,-2.297056192672785269e+00,-5.910388412300676464e+00
-1.966535104588901239e+00,-1.322547690584467139e-01,-2.378740731608457448e+00,-3.245989111941477656e+00
4.297952358329855116e+00,9.796184174853016513e-01,-3.645195759811530767e+00,6.181901085602552887e-02
-1.882460725332034679e+00,-1.797479086449158769e+00,2.974690756586725993e+00,-2.797091225134876957e+00
-2.046154287805078908e+00,4.112135410988897455e+00,1.280666672388665939e+00,-1.187333009873174250e+00
6.427575340402437165e-01,-4.502874903216271818e+00,-2.604813095766842945e+00,2.950215053875516968e+00
5.752229519156417226e+00,1.120731831800298783e+00,-1.000013131708638703e+00,-2.981149712908017779e-01
6.935082605566188496e-01,2.682288068171244433e+00,-2.700487755095297704e-01,-1.382081453775689139e+00
4.209225422865770838e+00,-6.634619337043456966e+00,2.112073151676706395e+00,1.597173656369992312e+00
4.052854228585353602e-01,-2.634588900014370960e+00,-2.517375791803922791e+00,2.952550505096070310e+00
3.230515552059645579e+00,-2.636841471233041023e+00,5.025794119105453372e-01,-2.294722954653286795e+00
-2.040081717464430344e+00,5.507027021973624592e+00,9.309501043163154188e-01,8.218503305210507204e-01
1.251406999712393331e+00,1.200349642257242389e+00,3.970320094618416285e+00,-4.980303293590189639e+00
-1.290742052617012581e+00,1.340393687736718853e+00,-3.736816138636857687e+00,-2.773464796726770043e+00
2.917974257470232313e+00,-4.471141185018988828e+00,-2.349274203934132110e+00,-1.206036832178790097e-01
-1.308223794384766547e+00,5.687066200060005627e+00,1.538358298424071346e+00,2.484457350982009149e+00
-1.982157192750374719e+00,5.756454291706044613e-01,-3.298198333467290411e+00,-6.264906236868802436e-01
-5.334749737081390109e+00,-2.442419659965980649e+00,-1.446870990774455468e+00,-1.727397348015396794e+00
-1.327256881516172493e+00,3.823908420941289688e+00,-2.350036778282618144e+00,-1.073194156053909110e+00
7.593790043620900043e+00,1.399973737988228217e+00,-3.805366485273496302e+00,1.762672047101848660e+00
-1.665068030830386014e+00,-3.979499066134680074e+00,1.621179672307222042e+00,-5.409929388244249182e+00
-4.220319575068775642e+00,-9.442286253900318282e-01,-5.840061648546446271e+00,-3.512358866297512705e+00
2.444781554920036459e+00,-2.326389876127589407e+00,-4.001076797663762008e+00,-2.678515487619466562e+00
-2.685924254411101719e-01,8.190706869106830768e-01,3.638906657053528892e+00,2.634832740516944494e+00
-2.543603886571939920e+00,-2.005295799466831230e+00,-3.728453013063230959e+00,2.811626189298804146e+00
-2.631411441315128830e+00,6.399430235588411620e+00,-6.732643532907903738e-01,-7.141553305006019814e-01
