4.836089773428818184e+00,-4.187776989100038705e+00,-6.381578240716048178e+00,7.659836061846153399e+00
2.843600080008042763e+00,-1.179824099876408461e+01,-1.613186104327851700e+00,-7.634938078143534312e+00
-7.359776925646354107e-01,-2.860822969686851902e+00,-1.458358395291229570e+00,-6.787253988103262081e+00
-2.323250974014766879e+00,-6.702067112353309319e+00,4.770036796854465244e+00,-4.732163882178503478e+00
-8.834159346249181866e+00,8.988100230004571145e+00,2.953395113649346371e+00,1.690813627510126649e+00
5.745856481834311857e+00,3.842817478126402952e-01,8.815706027308850778e+00,5.910368006498546656e+00
2.415363723749513802e+00,1.056016486253861153e+01,-2.978268553442942612e-01,3.874612702755903193e+00
-4.302834863068373039e+00,1.576301269815731265e+00,2.741965940022089487e+00,6.081088132053616313e+00
5.959049991438911675e+00,2.470426649490272908e+00,1.764663213621135096e+00,-6.573132023170416005e+00
-2.475809977481603585e+00,-6.914265158411815548e+00,-5.155104581290007815e+00,1.068518312229063305e+01
7.213358917506065282e+00,3.762533124261321138e+00,2.011281970800300911e+00,2.247849055114486294e+00
3.817658726941537406e+00,-3.936441008331002411e+00,-5.707116130814188892e+00,-7.731483979029642128e+00
1.399857024897236846e+00,-1.650250425303981805e+00,-6.209681148101811488e+00,-6.696252903217470909e+00
-4.128301700537516439e+00,1.102466313694114497e+01,5.964903162873511633e-01,-8.146115946361071281e+00
1.531665613487147137e+00,1.179563346533576151e+01,2.775796307527535478e-01,9.208791380690765749e+00
3.468440129722854426e+00,-3.841810034922218620e+00,-7.402453211061947869e+00,6.967396062201929752e+00
-2.351802751619343379e+00,-1.505223525964348497e+00,1.797338618820340184e+00,-6.806894362030869949e+00
1.533666887954410640e+00,6.266459958797609531e+00,2.729123728424117434e+00,-6.376069553665830725e+00
5.960448060899630640e+00,-5.708388498365518871e+00,-6.387861846069680993e+00,5.225866069215395981e+00
-7.051505691387990327e-01,1.503049963995633620e+00,6.500093370808308180e+00,-7.967887727540839293e+00
-3.321387196708815437e-01,-9.002074913893745034e-01,2.186748717878985282e+00,-3.178195369161975314e+00
-3.345420456565519451e+00,-3.756458403459066453e+00,-6.654582959617755478e+00,-8.068025083892244709e+00
1.443138168369004992e+00,-8.432140536309653545e-01,7.026244151252786452e+00,-5.795510951569571745e+00
-1.367194298323389789e+00,2.893718704126628349e+00,-1.253153857487204981e+00,-8.106541029970005141e+00
8.236182161718906158e+00,-5.793931809333562555e+00,4.031030685023389459e+00,1.840708132783651196e+00
-3.078020992921876253e+00,2.874257315375340904e-01,7.249617683764234322e+00,8.478219547942035916e+00
4.695669733520554168e+00,5.352046863000025745e+00,6.976300783732013677e+00,-3.457008817074444185e+00
3.991419349971242259e+00,3.373651157716028859e+00,-7.876210551142910354e+00,-5.364444576538444309e+00
-4.627963616167654060e+00,-6.523286762096764058e+00,-3.636049377447298614e+00,2.498549978418516559e+00
9.548971597456597848e+00,1.060707680612678416e+01,-2.234876094398292601e+00,2.762353182302678345e+00
2.429043156569451689e+00,-1.232322650126428387e+00,-6.788259469328349560e+00,-4.779368624188128578e+00
5.211872732444557954e+00,-8.862986980156648542e+00,1.152844186698134044e+00,-3.951501343642290998e+00
-5.925632913450231243e+00,-7.064108232415726718e-01,-7.335590063603525834e+00,7.600418461386522218e+00
-3.062811504869990653e+00,5.199480477572258508e+00,1.433793024886844680e+00,2.239399098197112803e+00
7.710066866968000310e-02,7.534693892065545739e+00,-5.555627967987248006e+00,-1.134782519746532614e+01
-3.481635700315686699e-01,-4.306822063859647720e+00,-2.616473669164160465e-01,1.129710061260485787e+01
6.055485410155697856e+00,2.883381659305273015e+00,-1.132047160247965856e+01,-6.757629157265150788e+00
-7.673682995265297180e+00,-7.500920687890550553e+00,3.832735193237020166e+00,1.547148467935251404e+00
1.237438747051303745e+00,8.613284911817544298e+00,4.888697308074107184e+00,1.083091897890698796e+01
-5.085729683300255211e+00,-5.127026696218893953e+00,3.452484260181208242e+00,7.168993070056330019e+00
8.359238151742610645e-01,-7.714871059825080479e+00,6.191319439680084136e-01,6.685255171855455814e+00
-4.747956233148434180e+00,-3.391994732328301954e+00,-1.330898288428855381e+00,7.447716723052882237e+00
3.354618300859506075e+00,7.601924536926677689e+00,-1.918009103551402861e+00,-8.991922406568464865e+00
-2.934548538603452883e+00,1.084530887491424878e+01,3.413040009107896289e+00,5.452205769757721754e+00
-8.047643916453772306e+00,-8.193343801726655329e+00,5.710448268701260766e+00,3.303611106086658200e+00
-4.127019638924900313e+00,-2.158710790709111593e-01,8.492852054482527890e+00,-5.757976103815103386e+00
6.271925867092970286e+00,-1.689415713875355829e+00,5.733079946908106628e+00,-5.869088852804173584e+00
4.598643365786317716e+00,7.018438610169300595e+00,-4.836547114567405714e+00,-4.015862881019654829e+00
4.418870863442867503e+00,-5.920395938781343403e+00,3.519625803506409856e+00,6.761488737717406217e+00
1.767933575991495809e+00,-4.320779103184372971e+00,-2.626771438904761169e+00,2.238502630406163652e-01
1.044452330234102533e+01,-5.200530837591639255e+00,1.418879195384016578e-01,2.768179078747314392e+00
-9.342912394584942604e+00,-1.230173485321992111e+01,-3.104726710207345253e+00,1.542385836991821302e+00
-3.449918390176327510e+00,-3.907919841030575547e+00,3.016009743512050534e+00,8.489658289007633030e-02
-1.087735667510633242e+01,3.887079611128624101e+00,-3.140467888649449257e+00,-1.885284250106111781e-01
-4.250442618272230355e+00,-1.027040624460783569e+01,-3.835761128853957036e+00,2.500486934997550481e+00
6.238735707678520370e+00,-3.671316923899671236e-01,-6.240848600732371132e+00,-2.165301889139781277e+00
-2.422133247249521837e+00,6.784190327375484664e+00,5.519623929101085125e+00,8.137089430146250635e+00
-8.894723096601356849e-01,8.307305673710952965e-01,-9.582837060791515427e+00,7.773728420942518369e+00
-2.266693647238361697e-01,1.549378312517913026e+00,-5.823948031964572891e+00,-1.923690457562629685e+00
2.714764704379842186e+00,2.673537505328094088e+00,2.526801069524953647e+00,-4.056474498350821634e+00
3.481206395505868301e+00,6.165332806511175434e+00,-3.986114054362736692e+00,-4.795899940087847035e+00
1.060322496133759174e+01,-2.374717403702902185e+00,-3.979535009485380304e+00,-7.561344008508720238e-01
-9.066981526626896937e+00,-1.037901424047924870e+01,1.638278728736793033e+00,-3.620387662820562458e+00
3.275538688401824050e+00,1.094968822841671141e+01,2.621409952854557801e+00,-5.237797979100886181e+00
2.129515156244754959e+00,-3.711201641942456941e+00,9.697652967062376561e+00,6.046080022082705341e+00
-1.507712372728987615e+00,-6.966795385895056647e+00,-6.215782975899584173e+00,1.109334420232633533e+01
2.032856106437263666e+00,4.665942819878113212e+00,5.558795068124001482e+00,4.302730438415959258e-01
-3.630597018621463334e+00,-6.022286146009953045e-01,-8.921321524746256060e+00,-5.111555640305047721e-01
-6.337126456850521450e+00,8.623468276422743273e-01,9.631755913394954405e+00,3.771958481765190774e-01
8.424695308276676897e+00,2.540627971154981249e-02,-9.310555854223165895e-01,1.133993760240581850e+00
-8.163315379869404254e+00,4.538995544381534408e+00,7.752357972433120636e+00,-6.056801530841732228e-01
7.347639622873709975e+00,-7.841428569617914235e+00,2.035380224456261544e+00,-1.755508369274801250e+00
1.365055960510131960e+01,-5.002231988595003287e+00,-2.574906934529342717e+00,1.239223399680056820e-01
4.329697067250537046e+00,3.473419046557530532e+00,-1.883627282310167184e+00,4.118053161602867718e+00
1.019359900945917774e+00,4.969133873670210200e+00,-1.727889654733394620e+00,-5.889552115761015116e+00
-1.822876848137894967e+00,-2.430562731811520827e+00,1.181625509365371585e+01,-2.682883522739244242e+00
9.195685515305697111e-01,-9.514518580837771466e+00,1.374052351972247177e+00,5.412367979549984831e+00
-6.108403398452299626e+00,1.947394258694606028e+00,6.991697318498063751e+00,1.573988318704703682e+00
-3.687702614920432831e-01,8.506834380272785268e+00,2.820995872080110711e+00,7.250253427475487733e+00
8.012922262325156808e+00,-3.940333882501745766e+00,-4.721452640811711454e+00,2.176114069945896679e-01
4.350009277746826442e+00,-4.548354266380863820e+00,2.467908993009289453e+00,-4.314166847651087267e+00
-1.521739677700125526e+00,-9.691872760845348100e-01,-1.461367476051673719e+00,6.054883518024554157e+00
4.988229264125878970e+00,-3.771808033083915213e+00,4.352887944459002512e+00,7.604970931721647176e+00
-4.573235852671908575e+00,1.235634905989419607e+00,9.603706954606636259e+00,3.047743626767778213e+00
-3.971815868192447585e+00,1.101585340841513272e+01,3.493521070965111441e+00,-9.713005384500904782e+00
8.393124555634212669e+00,-2.862928087199805738e+00,-5.907076025807336705e+00,-1.839320090054712864e+00
3.319425939316020813e+00,-1.606580110251850879e+00,-1.617337104825583793e+00,-2.348806493708723409e+00
-7.109526115749007502e+00,4.442011197632373509e+00,-6.548383280361496972e+00,6.997067628453542909e+00
9.995076629388581324e+00,-5.005940498306353348e+00,-4.257852411294178907e+00,-1.505636742330468847e+00
-1.096488354637382834e+01,5.845008501553241587e+00,1.393682606536187141e+00,2.950084264915933674e-01
5.595436441770809566e+00,9.038905506596643491e+00,3.480129462698922538e+00,-7.128114172570910512e+00
-1.954046048460983176e+00,-2.737522483619975744e-01,-1.093785008825483196e+01,3.952096764486468405e+00
2.559686331101837631e+00,-1.919089532019277122e+00,-1.721945054436589295e+00,6.838659150429208466e+00
-6.472874344601654784e+00,-9.910856262744582423e+00,-3.196187730618620382e+00,4.537123502426221755e+00
2.359631709950877898e+00,-2.751331834161829359e+00,7.499449032271803262e+00,6.261334525158680719e+00
-3.603862118999649589e+00,2.991402356439250454e+00,6.771676721590616843e+00,-9.536320786845466912e+00
-6.000114028812582490e+00,-4.136391889231583185e+00,-7.892091644699942066e+00,-2.218982278650125206e+00
1.311857294731395118e+00,-9.792460860636229114e+00,-4.231525965235074516e+00,-7.862282384919791589e+00
-5.047981191838053494e-01,3.824815522437001292e+00,-6.804498184080685519e+00,9.505207021344720175e+00
-1.044563266085557274e+01,-3.332027042691348750e+00,2.359688168150234411e+00,2.007613076920975015e+00
2.377566303524556890e+00,-1.093258370741709173e+00,-1.108217103822220162e+00,1.018323317704352471e+00
-3.328951944174335598e+00,1.164040884406708010e+01,2.021390203262616869e-01,-3.378717438726533406e-01
-1.503174127100008306e+00,1.007270836079181997e+01,1.637843923484997744e+00,2.361735104565781729e+00
-8.739451676702564287e-01,-1.582514760247877517e+00,5.061327429977817260e+00,1.124022625111080531e+00
3.142259611990646295e+00,-1.866184565219757063e+00,6.256323373728291060e+00,-2.003269617842556194e+00
3.083281501176993178e-01,-1.218591389030926786e+00,4.074291560740745055e+00,-4.653530659477655540e+00
-1.817689456219185873e+00,7.897145422377383817e+00,-7.521059548920482341e-01,-3.090117285217164778e+00
2.139973379770821360e+00,-3.862646762108717269e+00,1.034235015031297067e+01,1.013192787506636883e+01
1.004847153411007099e+01,1.135743158191927726e+01,-2.000481006280915519e+00,3.440629294630185853e-01
9.448403442400287844e+00,-9.612585576876377047e+00,-3.314847914188007394e+00,5.449657315056448681e-01
-9.675307289029944968e+00,-3.321585397949552210e+00,-2.549729757848633316e+00,-3.046139664055180329e+00
3.747851061029844555e+00,-1.203802680293016714e+01,-2.610433050842383640e+00,-2.339456596294350987e+00
-2.720753339792298942e-01,-1.646989234304972793e+00,1.280663193238842013e+01,6.321661576619044709e+00
8.049006408529928436e+00,-3.972822807211521923e+00,4.516087236066903543e+00,-1.656307235358843943e+00
8.465837729055857963e+00,3.302072035578573317e+00,6.009012537750556326e+00,-3.645484531121869320e+00
-2.488781210834868640e-01,-3.266697787852881785e+00,8.149040825189821646e+00,-1.251941174634483822e+01
1.044423220330411439e+01,-1.791263612987485709e+00,1.012496852986886076e+01,3.872845825957563770e-01
2.365060897480602442e+00,2.779198000821232029e+00,-1.376799421731105699e+00,5.123243383493203851e+00
-5.967444023607345605e-01,-1.283599556004120013e+00,-1.039863888848287665e+01,9.710748566677058768e-01
7.311758956785286978e-01,3.727629441859535486e+00,-9.882065280423670828e+00,-6.940942356835705596e+00
5.921654108210931966e+00,6.836287531502583725e+00,5.565668938795154119e+00,4.577035322823584940e-01
-1.643852883031578171e+00,-1.198021295357761318e+01,-5.314681485935162097e-01,-7.666976652623208821e+00
4.203693391574689908e-01,6.797442736630986415e-01,8.306390045626297791e+00,5.944651194121822080e+00
-7.880212406443219741e+00,6.760184392722589308e+00,5.622874509499890650e+00,-1.576803785285490145e+00
8.082037569571221880e+00,9.685966335517889547e+00,2.056495859189635400e+00,-1.481400570636881797e+00
-1.594899650665369206e+00,1.061493270628628416e+00,6.433833927477508041e+00,-9.480722296731167731e+00
-1.206626423339375265e+01,8.347974860679569176e+00,1.992557546387013767e+00,1.923844707910973950e+00
-5.138343971558783529e+00,-6.607110912774057709e+00,2.934612869457596585e+00,-3.534930626071828730e+00
5.605342557519082947e-01,3.906424202484831465e+00,2.827163131420520781e+00,7.199759493034568969e+00
-3.731019304669681347e+00,-6.167486350528280425e+00,4.020436770548629468e+00,9.003050547632680534e+00
-9.711775371414242963e-01,1.119833856727190602e+00,1.693936393645962601e+00,1.427151834699190491e+00
1.578490300661082646e+00,2.609087785726352138e+00,-2.480401454928235161e+00,-3.101482228324789592e+00
5.109062857738685959e-02,-2.603624154976902361e+00,-5.548996488537632388e+00,-2.016128540658563395e+00
-5.583403762904657341e+00,-1.097890498478372834e+01,-4.651037806450005196e-01,1.062151687568077651e+00
-1.082788419830921534e+01,-2.113560695612167972e+00,-2.749685449061368692e-01,-7.114887212863727495e-01
-3.958359113400467866e+00,2.258818708710647327e-01,1.024906255990022963e+01,-2.820475416667561408e+00
3.716320018999915487e+00,-7.707079544194114007e+00,1.212016176531960809e+00,3.208903475959828722e+00
1.748981974418080121e+00,-8.580206642697920216e+00,-5.093876415436211502e+00,-9.926247080561692471e+00
5.015988103518358443e+00,1.097503578033450555e+00,2.252854393493516072e-01,-8.432876543815108761e+00
7.197968313881791813e-01,7.054325675572342469e+00,-2.264124471052796128e+00,-8.266397823686055801e+00
1.952280800766478475e+00,-5.530736627182552212e+00,6.090397291911218147e+00,1.003679120447356254e+01
6.943352498155022978e+00,7.192820991511426065e-01,-1.739893073211835617e+00,-3.108988967565097461e+00
3.162128728283640111e+00,2.493103277869879175e+00,-1.527212538834175515e+00,-8.311420692081888717e+00
7.923846737887474845e+00,3.166938979636937823e+00,8.073214298266156774e+00,2.168602892239254842e+00
9.823906845304104962e+00,-3.908161151472588912e+00,6.753367713813863915e+00,-4.240072125048999219e-01
3.331465972635474060e+00,3.316695225507670375e-01,-7.368904791915125152e+00,-3.600969037500296177e-01
-3.340192369198736522e+00,-3.453724560765911722e+00,-6.335927115655950459e+00,-6.854715536711152524e+00
-1.980548639096454178e+00,-8.404059256426073432e+00,3.013655001654542254e+00,7.172256332687602765e+00
4.806427853533824290e+00,-1.006524824445211941e+01,-1.436631921129625011e+00,-1.007543167847632581e+01
3.667744108820036320e-01,5.585617229090463987e+00,-6.744586674524822856e-01,-4.223396096080801243e+00
3.564368448972618619e+00,4.241636205319305186e-01,-4.027351788872251426e+00,6.135917340033592460e+00
-3.157229790393096369e+00,-3.906924360545410035e+00,5.872136986168474238e+00,1.032045344158086309e+01
6.179053583861009447e-01,-9.909813947725325534e+00,1.288173204430406615e+00,1.168076120991058531e+01
-1.972096142384332174e+00,6.508750329962229131e+00,-1.415680508702380935e+00,7.967392342681495876e+00
-9.560408483249032585e+00,-1.088351189471070013e+00,-6.554594335376048519e+00,1.357218067557888874e+00
3.305624405119357068e+00,2.905217425514424079e+00,-9.094652069796147487e+00,2.485344374734896000e+00
-1.493782552234644845e+00,-8.260003053967393427e+00,-2.267212827443916723e+00,-4.182515927470745076e+00
-4.722219942544139570e+00,4.624574512155083639e+00,6.879248399076854703e+00,3.701682993492730223e+00
-9.761133335104014819e+00,4.775547230452032998e+00,-4.956277786413432196e+00,3.947885278609279514e+00
1.021996408052269434e+00,6.026773808981571001e+00,-1.929732443994692126e+00,-9.133026434672679272e+00
2.622713956701923976e+00,5.540142036054571228e+00,3.919617353975993979e+00,5.692545282333104417e+00
9.332379319106705040e+00,-6.632307975047803339e+00,-1.147474874874660378e+00,-3.152348699512165897e+00
-2.573827853055773662e+00,-2.168723228767440947e+00,1.112693684922165582e+00,-7.233956497802746632e+00
-1.290730909849684832e-02,7.184029540196313235e+00,-4.052461693048186930e+00,5.804164384360506190e+00
7.503249630884314847e+00,-1.109824038037080962e+00,2.853791865973799080e+00,-2.816896914016876252e+00
1.599468339516341819e+00,-4.859463797554000486e+00,-6.041107029741668022e-01,-8.369038889923364977e+00
-5.429540807661197732e+00,-1.737427094808805084e+00,3.541205011698593363e+00,3.699306199758616742e+00
-3.229929773052888642e+00,1.718158199661941499e+00,-8.887877953921167418e+00,8.680378833296158447e+00
-2.526455754192654668e-01,6.977223250873223481e-01,-4.899738759650236197e+00,-8.625225732531633938e+00
1.765569166647096955e+00,8.672158031666207023e+00,-3.903656762963983784e+00,4.229133492076588396e+00
2.513563618872479921e+00,1.032085904403996057e+00,-1.049489599412980745e+01,-6.651395410611998571e+00
3.672017848796759409e+00,-3.323947133446124358e+00,-1.665587241987551037e+00,-7.458211355502852413e+00
1.109142833859762201e+00,1.041263060860530132e+01,-1.651316930951528761e+00,-2.878450637751998276e+00
3.358109232840445824e+00,6.350731675629425865e+00,-6.763622789507978794e+00,-7.018067038423358994e-01
1.263806640658114055e+01,9.196943072217251824e-01,-1.120366059538111747e+00,1.199339245835988610e+00
-4.653374093065441919e+00,2.239747570241151564e+00,3.064034171010035834e+00,-4.956388885837874625e+00
-6.764634232287448645e-01,1.945058236860421008e+00,-7.539606397296573226e-01,1.186294277374079442e+01
6.385519923356537397e+00,3.788431238340980722e-01,-1.897612212925068986e+00,-6.631143742098130289e+00
8.202676659143318005e+00,-3.531160852504626746e+00,-3.818000243653739023e+00,2.819243415733558855e+00
8.420835345239842118e-01,-5.025364351974367594e+00,-6.712451514622663318e+00,-1.074137590209948279e+01
5.067396534558449517e+00,-1.061286719816406254e+01,5.913821782225063828e-01,9.391004029563271516e+00
-6.406103551138714991e+00,2.548678449360211484e+00,3.753463509436361978e+00,7.221480798706338966e+00
1.001189145427091098e+01,8.394839184049921466e-01,6.547488665832408294e+00,3.233236890849956691e+00
3.492133986355833830e+00,1.777901708414165505e+00,8.443156180644816544e+00,6.734047006648037126e+00
2.198084774736478730e-01,4.827336378698124264e+00,-4.864260409682044539e+00,-7.173002399697246290e+00
8.169290646855754900e+00,4.564116780055840650e+00,9.261735036931089127e+00,-9.224344761594741038e-03
1.287407057273363087e+01,-5.895741711077943314e+00,-3.725848798758328861e+00,-4.327157897536708653e-01
8.655586823748147030e-01,-6.331714946742891925e+00,-2.346217198844382068e+00,-7.209327050077147803e+00
-2.743170091493026153e+00,4.295889669396729893e+00,-8.284556929492856270e+00,6.607084912257367160e-01
-5.803650022582696799e+00,2.946754639778894624e+00,-5.990810986209397448e+00,6.491555644525500490e+00
-8.842726830758168788e+00,-1.368850651181534372e+00,3.371649080503960949e+00,-4.498719253383063332e+00
6.344056961522227311e+00,9.952187357314555172e+00,1.225806502025880151e+00,3.353996497780223240e+00
5.569983024739833866e+00,3.202658950654886649e-02,5.178430663274024015e-01,-6.213856184636384228e+00
-8.528406745961996549e+00,-4.122927309157611298e-01,-3.138262581894445180e+00,-3.490266226421557594e+00
6.413484227432948437e+00,-2.318718969446241118e+00,-3.880381838785040394e+00,5.960440775076293995e+00
-9.690454133005474077e-03,3.548843784260515388e+00,-7.071637091247297668e+00,-1.228310583665682287e+01
-3.098564760124125281e-02,6.462251753626471640e+00,5.370563147981881613e+00,-1.626606759123310209e-01
6.954396433007979939e-01,-3.684036183978394607e+00,3.088163194346178919e+00,1.860953560776818394e+00
8.409585698967260825e+00,-3.646211023576726995e-01,1.155880753953480067e+01,-5.216983369539559767e+00
-1.032617957927094432e+00,5.024986024472886115e+00,7.547169424170193430e+00,1.337947417115539572e+01
8.971835156984576898e+00,6.217001149763647483e+00,-2.983901138673784592e-01,-2.080339485479430373e+00
5.347385651756909830e+00,2.226027316533279343e+00,-5.611844059434317744e-01,-8.001191769979604018e+00
2.340942724704000000e+00,2.939408047978161242e+00,3.243196675995903000e+00,-3.694073716309520972e+00
-6.557388213675264588e+00,4.119232022171185115e+00,8.524245374067904280e+00,1.774757850310501706e+00
3.239955018024755606e+00,-8.891454924389190495e+00,2.661488829232061981e+00,9.742820003963588160e-01
-3.676130068827413222e+00,-2.777428088583640431e+00,2.758465054504257274e+00,-3.587924399007523135e+00
4.222037576555623950e+00,-4.312385017563204470e-01,1.187929468186803206e+01,4.412792912668567880e+00
8.013000783747987299e+00,-2.203733838281894730e+00,8.874284916168607040e+00,3.317940626994644870e-01
-4.271657969995781290e-01,-3.757053797486200164e+00,8.306007040513812001e+00,7.466530546586168882e+00
-6.844448259995836281e+00,-5.367279164210656539e-01,1.453838366248350056e+00,-4.022401722579778571e+00
5.370038931705137131e+00,5.656085881508923774e-02,-3.696230554152845627e-01,-6.240244230235049372e+00
-3.147077978746537941e+00,8.656709845087492639e+00,-2.831046126623451897e+00,9.331851012283818747e+00
-2.275058178294091960e+00,-4.953867801369799651e+00,6.246713932394788671e+00,3.694653114460577203e+00
5.264369881964012343e+00,-7.215038656025522634e+00,4.277765743011111788e+00,-3.806359273972352852e+00
-3.367792966288202461e+00,4.658964816701220535e+00,3.288906213981072302e+00,-6.327245075393624241e+00
7.854519221739654222e-01,-6.881930310202215573e+00,-2.497269883087097408e+00,3.387771121168605681e+00
2.148819271530297281e-01,6.649352662172783646e+00,1.414589967596092901e+00,9.804081823758066250e+00
-4.334639853936762321e+00,2.544445471613918208e+00,1.229756669570379657e+00,6.956325026284480018e+00
4.942712668955493882e+00,3.058673464275837528e+00,-7.966993474642950268e+00,6.376971132315169655e+00
-2.009979913516464212e+00,-1.290206870276747519e+00,-1.084416944072072297e+01,-1.117375340110612392e+01
1.553816811117896046e+00,1.324353924478552491e+00,6.462578976562729061e+00,6.492601049122349366e+00
-1.096935101550508485e+01,2.098740169360972241e-01,2.517309840601989479e-01,-1.452480964187414791e+00
2.344140268958257167e-01,5.629946106835236996e+00,6.529972635202101472e-01,-1.165893064395480394e+01
8.296003318879890287e+00,-1.182345506345482633e+01,-2.481208637747851498e+00,-2.302350741980102311e-01
1.960803202488200947e+00,2.926884762118833638e+00,3.680271584083215863e+00,3.070798667850949126e+00
8.859451557539816946e+00,-6.361585053044826132e+00,1.071641389439398573e+00,5.201683265667620404e+00
-8.949835236310848430e+00,1.313195129802408934e+00,1.771582610425118665e+00,1.589803365719401063e+00
2.953808673689485520e+00,4.326249210459371497e+00,-1.580164300261013066e+00,-3.357266305865579614e+00
5.374382839406519174e+00,6.096845288720529332e-01,6.873016651492775964e+00,4.085925995795285093e-02
3.143293638009484248e+00,7.325483723513144252e-01,5.305969729266110768e+00,-1.048807602015465612e+01
2.619657098649470495e-01,-2.624410791992054293e+00,-6.024708399077558951e+00,-3.278566360768226939e+00
7.746374877396848824e+00,5.744035957330049236e+00,-1.986464156617578025e+00,4.431199774319329321e-01
-5.985472287362773258e+00,-5.164796053776946394e+00,9.647492818217155985e+00,2.521354194429763051e+00
-5.812241186374595081e+00,-9.415665312530546061e+00,-1.694967953130515514e+00,1.800919808755782892e-01
-2.575369312120908472e+00,-3.240107578488691686e+00,-2.875612092875179382e+00,1.068453235250243694e+01
9.687856339641593095e+00,-9.154995621934901351e+00,-3.508871658222579626e+00,-4.262353728087530769e+00
1.288727417925412766e+01,-2.126873278145390955e+00,1.910711699304080913e+00,1.750601757679541848e-01
-5.112032310807951951e+00,7.976644782237441333e+00,-9.295107937944551146e-01,3.022692649898894413e+00
-4.487228802386987958e+00,-3.205633931983125073e+00,-4.210359248526430065e+00,-8.297945750151054511e+00
8.698336723208217602e-01,-6.205182380757878313e+00,1.494484831416148296e+00,2.341051848142487180e-01
1.897558210526124833e+00,6.258862879436455362e-01,-5.638360916124018907e+00,-5.448442168571749900e-01
-6.251711656293361230e+00,-2.174783083373526826e-01,-3.995339573713724945e+00,-2.661771697347696364e+00
-2.827316077854953313e+00,-6.807723079302072655e-01,-1.051151564465950194e+01,1.027182322291289829e+01
9.345089508111502630e-01,7.906800134736879926e+00,-1.288738919522466997e+00,3.317096185654061280e+00
-7.957312262257000057e+00,-1.558951335200380761e+00,-9.642829271135072489e+00,3.986836419660976016e+00
-9.851037477893905603e+00,-4.206772287741613603e+00,3.381422033325276022e+00,1.365214963362829659e+00
-1.921881114323318096e+00,1.127677632947996944e+00,-1.199126011045667006e+01,3.105675714181729941e+00
-5.873933247952759729e+00,8.953212571812980691e-01,-5.301394612477690060e+00,-6.073612934676877906e+00
-2.466286328594915034e+00,-9.665224191971253376e+00,6.786243047621671742e-01,7.064857573874663288e+00
-1.743046894327185070e+00,2.063647934874333956e+00,2.569804671045342381e+00,-1.348614062102091005e+00
3.859101649471370354e+00,5.348566114141992678e+00,-5.137387321034454502e+00,8.578298171012043838e+00
1.343360555164961057e-01,5.666591595883582855e+00,5.475746703341792809e+00,1.046173948556824662e+01
-1.003207182678480613e+01,-6.159092952080554184e+00,1.869694317858497268e+00,2.837684864217140834e+00
-1.444016425612116405e+00,4.807778846669300776e+00,-5.300297475709399464e+00,7.038714332693378317e+00
-6.815393823722591726e+00,-3.679323856799124659e+00,1.005600276711783536e+01,-8.285850900565309152e-01
6.700367925697145566e+00,-2.418189910052560343e+00,-1.536582251540493438e+00,1.793923332303867690e+00
-1.992252914410115094e+00,-6.766949004928223266e-01,-1.157372840594251073e+01,3.764293947151968300e+00
1.824276663919005559e+00,-1.030257295285941233e+01,-2.255138272491609808e+00,3.099259542870561823e+00
3.237755659848890577e+00,-4.894173707458521427e+00,1.607419232561272837e+00,3.350921175446337053e+00
-6.422129917116732756e+00,-2.057831566267623646e+00,6.149287950936020763e+00,3.659998339747282170e+00
1.084612671586550725e+01,4.512029872285217014e-01,1.627844164774763680e+00,-6.631390701574265689e-01
4.331747807181486332e-01,-8.018085569837012372e+00,-1.597498838927669862e+00,1.241339272803122995e+01
-7.366934271688263536e+00,-2.451780264748057547e+00,6.406406875299067494e+00,-1.757241471194434190e+00
-8.465704600615346909e-01,-2.797523863456123472e+00,5.012970853798290882e+00,-3.890994904683078293e-01
2.422208574611623533e+00,9.460123150843559259e+00,4.894916404641785235e+00,1.466986825292957874e+00
4.633532200967867887e+00,1.404194262798936554e+00,4.426485903227981744e+00,7.520521429404581903e-01
-4.598759163203109956e-01,-5.954730020402036139e+00,-6.130735017201204506e+00,-3.349468076466360689e+00
-7.946363723162770398e+00,4.330752478575944586e+00,1.189187526781559257e+00,1.290316619737978732e+00
6.554373689527160707e+00,1.571527396782238517e+00,-4.437812403671627770e+00,4.899034217166608585e+00
-1.009071883008983939e+01,-6.747505869413442881e+00,-5.023078126541708599e+00,-3.003488085480218839e+00
7.552522996353729923e+00,2.071549262003571812e+00,-2.933631862211949937e+00,-4.516523151691544058e+00
8.471687267576998082e+00,-4.426989686500762744e+00,-2.135242870316517827e+00,1.694462110362220941e-01
8.809782221714767658e+00,1.253649718156156778e+00,-9.639472152849604569e+00,-9.487317343956054305e-01
-4.155501783528468884e+00,5.129991478328425281e+00,5.699619916422030030e+00,2.013352543491676805e+00
7.925043862373233772e+00,1.138408821587730202e+01,-6.589675384695850013e-01,-2.439179423723346063e-01
6.909599417168824642e-01,8.484058476019272987e+00,-3.577301215828586844e+00,-7.006613654926561630e+00
-3.465105578158214628e-01,2.313436949493997474e+00,4.735237135889599713e+00,-6.867542030489933502e+00
-5.150867194236944613e+00,1.933942957022975584e+00,-2.418659916699111623e+00,4.715081214539127430e+00
-1.738974086949940601e+00,6.952127458214093281e+00,-3.592629056458968684e+00,-3.054110712332001931e+00
3.225858116717276847e+00,-2.345333504526374985e-02,-6.277169960167256590e+00,-1.015135255667036951e+01
-4.580471151534951879e+00,-1.703874331883771243e+00,-4.983655302423875000e+00,-6.897305129736927221e+00
5.370415694728895240e+00,1.054990699000286192e+01,3.104556792667993115e+00,1.209733920046183603e-01
4.040334680589864114e+00,3.659657146291921404e+00,4.641796120935021364e+00,-4.968023800499841158e+00
2.191615453440546035e-01,-1.271076473484324687e+01,-2.198367341758753479e+00,1.084918178083706231e+01
-8.073475575269308813e-01,-9.600714505358704187e+00,-2.441001481134999818e+00,-5.467897101350243538e+00
6.203660292423623268e+00,-8.999636132176100367e-02,1.511953103093534312e-01,-2.665187166436585042e-01
-4.319892891628198228e+00,2.425122643501081310e+00,4.873112286869078602e+00,7.835361643514404228e+00
-1.245076602499864266e-01,2.949772781902904928e+00,-2.968442802982024009e+00,2.639921115874581226e+00
-8.244557408779979113e+00,-2.036884975384798402e+00,-9.709598541513875247e+00,2.472681857378678849e+00
1.158687414603863708e+01,-9.315827891274355288e-01,-7.702647109180446594e-02,-1.097202765111308098e+00
6.819224770589535467e+00,-4.020459120638108175e+00,-2.897400283940217314e+00,4.493384753180969859e+00
1.102221277486318662e+01,-7.356380835678336894e+00,-5.301361503620289461e+00,3.364394665666736728e+00
-5.863192094251444608e+00,4.688467676066373713e+00,-4.402594152087066171e+00,-1.125649425800476999e+00
1.111339818925140444e+00,5.918327139366007517e-01,-9.351693393325506420e+00,-6.006241565711496477e+00
7.121507218750069867e+00,5.883450509654311489e+00,-5.775888375636674787e+00,1.283024547579673547e+00
-7.940385806721335982e+00,-4.634800995964733161e+00,1.093073845215568696e+01,3.992462648026284810e+00
3.865557753069550184e+00,-6.701969467990840812e+00,5.969311796909665624e+00,-7.368147830842080914e+00
-5.588621996740405606e+00,-2.742738783629839361e+00,8.057358230087031004e+00,1.080546742394905557e+00
-1.382362624402900586e+00,-2.541746537275447082e+00,1.341029717971528923e+00,1.210456228605229079e+01
-6.485829065881473454e+00,5.537396452049740958e+00,-3.361809554491928864e+00,5.820873002963479870e+00
1.207434689080644219e+01,8.508403207463258733e-01,3.490318884548603950e+00,1.317581701589369825e+00
5.709652422034912966e+00,3.935819824538903333e+00,-9.904076943980559378e+00,-5.590050825657688627e+00
-3.246122114797123981e+00,7.982762766342837324e+00,5.442403663509983502e+00,5.279525101308625956e+00
-6.626342724544810991e+00,8.508738709483377960e+00,-2.889299903525667901e+00,6.284733278220729247e+00
2.076543252834213593e+00,-7.110925165175523421e-01,-8.655898053345521814e-02,7.331314309083206027e+00
1.166235214585214663e+01,1.774994933901590910e+00,9.582627817696492301e+00,-1.406460368497537416e-01
-2.160508649533472436e+00,-3.226951308214722314e+00,9.380485219502816108e+00,-2.768057236564975376e+00
-5.282507357492714384e+00,7.808827877368851311e+00,3.275165527354886308e+00,-6.968887189840633489e-01
6.458783223909710935e-01,-6.158578919159706233e-01,6.253607925644217858e+00,2.102487319013879308e+00
-6.955979157815186387e-01,-5.353330891884244380e+00,-3.118182173873108365e+00,-1.057442024104835099e+01
-7.813556924701355655e+00,-7.916661709248668188e+00,-2.866167528957240140e+00,4.185514057609482919e+00
-9.402390330014348763e+00,-7.760415608698117751e+00,-3.313745502928354902e+00,3.042907664988983019e+00
8.895556287933338524e+00,3.337085055635967912e+00,9.188586468362828441e+00,-2.175214819343105344e+00
-6.060956730405724358e+00,-5.649984977161341071e+00,-5.122311378591630771e+00,-1.157007623231764537e+00
2.106533728868342087e-02,-1.014351191610939829e+01,-2.203601338946147070e+00,-1.622147647143086235e+00
7.931050471827415294e+00,-8.885510439177097819e-01,9.131938879529888808e+00,-5.427339652527572333e+00
-1.738317247421514944e+00,6.773098189182899631e+00,5.933413532872591212e+00,3.068193698600965469e+00
7.727197168336680022e+00,1.462881048473809509e+00,-1.175982708336575655e+01,-2.526688651553862019e+00
-7.390903591572433040e-01,-6.214993352504598612e+00,-4.634186844506173131e+00,-6.770490336955502286e+00
4.325959515184472082e+00,9.457141681562289293e+00,-9.082112004021191121e-01,-4.242412932077679777e+00
-1.719375820839015967e+00,4.249934288257079196e+00,-6.534406329670405356e+00,-9.227131497606784194e+00
5.058018972357110066e+00,-7.152050254449918043e+00,-2.532632460448503764e+00,3.981769158505723549e+00
1.257283314002977725e+01,-7.165175377244982435e+00,1.780148356006304056e+00,-1.500880629050600268e+00
8.417037853373567913e+00,1.502380669292092019e+00,4.581390165036814288e+00,4.345435550139884029e+00
-1.517275903074275067e+00,-1.754543819411899852e+00,7.596095532166804887e+00,2.671641705430757963e+00
4.945481948989410625e+00,2.393636088878646095e+00,1.009874409472169887e+00,-8.707241783448086414e-01
1.273104719155958797e+01,-1.005191346652201112e+01,-1.295246764649459204e+00,-6.505183442725311904e-01
-5.386181983758477010e+00,2.291303798705468520e+00,4.588392210157572926e+00,1.327427308946136586e+00
-5.665256349624800514e+00,-5.668559976585216376e+00,-7.634730455739000554e-01,7.763724903031700153e-01
-8.226800765483712752e+00,1.457862003316827915e+00,-1.201905857151536750e-01,3.016873854940411159e-01
3.050504698604566300e+00,-1.125657129581819405e+00,1.279447449633786782e+01,-2.636806651317616712e+00
-6.124508449980600844e+00,7.069537191316984881e+00,5.042990257051078729e+00,-4.619273960280341207e+00
6.320187504197110506e+00,2.499568624891039370e+00,-1.072155726161536826e+01,4.646193625654075454e+00
1.156848502902760778e+01,7.111475694446792062e+00,-1.385394229763129648e+00,7.167888226901831805e-01
3.175055297246424657e-01,9.508756464228889982e+00,-1.168238970772349727e+00,-1.215453804731177634e+01
3.661940678936363991e+00,-1.415397200115385390e+00,-6.586674647350141854e+00,-1.730199416609148111e+00
-2.802567051984391711e+00,-7.416469145553290510e+00,5.831314610371268969e+00,6.613957081905446067e+00
-1.663222948089821740e+00,1.499269548617824910e+00,-3.415106267684212771e+00,-5.680838845154047689e+00
-4.503903951584003806e+00,6.379994007514679932e-01,-1.242241980243748767e+00,5.897966299830842418e-01
-9.229417462877039569e+00,-2.797471638771000357e+00,-7.761967997557036592e-01,8.950751590982090056e-01
-7.573958154186994918e+00,4.174825936776771051e+00,-4.704682848595917122e+00,-8.199499210246677938e-01
-8.140713215628538890e+00,5.277659349133184463e+00,3.053420335770610006e+00,1.801241931394403251e+00
-6.641376172815705026e+00,3.622399137235741140e+00,-8.036663861303736667e+00,5.752092781776427799e+00
-2.863649425735240950e+00,2.323917892823187170e+00,1.893161273571006387e+00,1.402140476909500943e+00
-1.149542127992591256e+00,-3.787112150744224692e+00,-6.047666634031708455e+00,-1.214834516583877200e+00
-1.907029488949848917e+00,-1.270983890727123589e+00,8.876335385968841862e+00,7.695055530760647855e+00
-2.465154106930755873e+00,-2.468909689882555991e+00,1.047273844054664060e+01,-6.486533869688079434e+00
2.418706113970199301e+00,5.647030381885433492e+00,3.095322317583383942e+00,1.007883750706648840e+01
7.881533567685476527e+00,-1.101233457095329493e+00,4.251920017550360420e+00,-3.694777454961027718e+00
-4.289619540060793490e+00,1.121278566206487248e+01,2.405262335708755472e+00,9.486508323724319069e+00
-2.227607818487480351e-01,2.248914269778582220e+00,-6.802950037224716695e+00,1.208232312996487501e+01
-3.115483642300336697e+00,3.663362333482350075e-01,-1.046097764655131712e+01,-9.994491284129404463e+00
-6.169122539612962447e-02,-9.179395922071989844e+00,-7.611221732971390486e-01,4.362220672996921067e+00
-7.028370376587267376e-01,1.451918452569013196e+00,8.716389961457672086e+00,1.232836012107660650e+01
-5.160894122185763599e+00,1.958661331570025865e+00,5.186934004160529632e+00,-3.123389931725890911e-02
3.091999608969960622e+00,5.995499733689820809e-01,-4.965998715252223583e+00,-7.421774827712512845e+00
9.389708334713716686e-01,4.686450881759539833e+00,-5.285619226236616619e+00,-1.983613280720397443e+00
7.969627669318556151e+00,-1.731488740018548356e+00,3.367880969804635215e-03,3.580820194272959611e+00
8.069120723315508226e-01,3.091488842210753929e-01,-3.927968932477816644e+00,6.134231917110640753e-01
7.949047365393687725e-01,-1.725690377896487826e+00,7.865942482927088975e+00,-8.085926073400386827e+00
-4.718507038009662757e+00,-3.693031542545349044e+00,6.147658069200046427e+00,6.678795912029752424e-01
3.890247417463729374e+00,3.072655995094791148e+00,-9.003171779869921565e+00,-6.896746009725561732e-01
-7.842149734199008182e-02,2.777815503417740306e+00,-3.831065306988105656e-01,1.005383682349669883e+01
5.526044293297688315e-01,-6.749749877329748848e+00,4.170430720195640872e-01,5.294727866732323207e+00
1.078787363083865802e+00,4.009289216227709396e+00,5.181239247147953364e+00,-9.290174974276261821e+00
-2.166128734915144793e-01,3.776783051961113191e+00,-7.023875888899266506e+00,1.183280104890117634e+01
-3.997852054532230248e+00,-8.366134281682150231e+00,-4.606358156542741611e+00,-4.961217692237483767e+00
-1.375486344663383154e+00,6.165281621584268734e+00,-7.093893112396174594e+00,-8.073203579792151530e+00
3.669744305526976724e+00,-5.077001523280107342e+00,6.229554019592741021e+00,6.487420157160959988e+00
-1.047877177020118289e+00,5.568548908508899054e-01,-5.152777251152881099e+00,-4.252581731561223322e+00
-1.590456205748112861e+00,4.796510396983066471e+00,5.511260606787267591e+00,-1.044820362282598003e+00
1.021790044431966216e+01,-3.639520122327377205e+00,6.377157683693157608e+00,-2.772049252769150485e+00
-9.129764829663596259e+00,4.880182987199538580e+00,-5.121907332670031288e+00,-3.394781997904672277e-01
-7.203378416055579159e+00,-5.332125788823078416e+00,2.596946116598726761e-01,5.290881242043667498e+00
-8.401321421026229919e-01,7.670851566803505328e+00,5.579106997471702911e+00,6.671642212655334525e+00
-7.804576467064500811e+00,-2.159440999919050252e+00,-7.832350462729221086e+00,5.124963990302866534e+00
5.436717853397805555e+00,-2.261317972038052737e+00,-1.678855451608109117e+00,5.293525214955281832e+00
5.891004603611571078e+00,-1.681187575737047135e+00,-5.775284263890256398e+00,-7.781461904297025001e+00
-6.614534608947398198e+00,9.170979487026635013e+00,-2.872603945481700727e+00,-5.072890175124054046e-01
4.257076982503464890e+00,8.407454747975409148e+00,-2.774905139855255332e+00,-3.620781788994648753e+00
8.898792060397701320e+00,2.798568296828868540e+00,-7.856521399882751666e+00,-1.659634696752966487e+00
1.027546591366326645e+01,2.141482433249058959e-01,-1.107944018646282913e+01,-2.226643894796523249e+00
-2.792738983468418201e+00,7.917575255731746253e+00,3.051636961826712735e+00,1.129209164568415957e+01
-2.343518183857332460e+00,5.028549278099410991e+00,-2.407882319213288991e+00,-6.049148144376120584e+00
-8.255383726011084278e+00,-5.360282920195044376e+00,2.597086524704549593e+00,-1.558411254206684804e+00
9.122589158399541986e+00,6.959308585738859243e+00,5.478536166127002893e+00,-2.475540753831332097e+00
5.624858553337545253e+00,-2.520594433549312452e+00,1.046792273580368970e+01,2.765042336285579161e+00
2.151942165445631439e+00,-5.361515065030127758e+00,-1.727152852797300353e+00,-8.086957207551634497e+00
2.077557741327788143e+00,-4.296178373415042717e-01,7.257991010496144035e+00,1.047607381453364361e+01
9.004186174845273172e+00,5.029909965951472550e+00,-5.933016424865561689e+00,-3.417841385528767262e+00
-5.081363942401213585e+00,8.089225599064230110e+00,-1.130101812488173707e-01,-3.670747006654460631e-01
-8.691057168859414261e+00,-4.240549207119647335e+00,-1.882210770365851493e+00,2.113742627256461226e+00
-3.530100732404774622e+00,-5.576487984763377703e+00,8.109264056193465464e+00,-3.087612794548688991e-02
5.103390225946518477e+00,1.064084864466200431e+00,-5.095818551860665124e+00,-4.721018545053689008e-01
-2.647433126894964239e+00,-2.142338867492267429e+00,-7.700343656299461159e+00,9.651007740926518252e+00
-5.666023732862346840e+00,-5.865858750522332521e+00,7.735558487452090404e+00,-4.706381963928919276e+00
1.676882240778173161e+00,4.081616019779511717e+00,-7.236367317953137146e+00,-1.099607355602800673e+01
2.204190722346453857e+00,-1.122296258508991151e+01,-2.686831516589274216e+00,-1.904049036313611332e+00
1.423439285073857308e+00,2.210407615416834781e-01,2.205335932957732670e+00,1.654743877915781924e+00
-3.289516937483441428e+00,-3.825127436013665339e+00,7.052247948490951712e-01,-7.825005664474765865e+00
-3.915352208153416225e+00,2.136009748390725257e-02,1.172844599163699719e+01,8.894684587002444687e+00
1.559445830686479573e+00,-2.397911435398759394e+00,-8.173422982679630522e+00,-8.639941171327722103e+00
-6.726756656983274851e+00,-4.153241401562935309e+00,-3.618142681177622499e+00,-3.463409350180926882e+00
9.198654060534840582e+00,-3.052228941274555130e+00,-8.622781274805042528e+00,-3.865371828192611936e+00
3.914533901366565427e+00,4.707861011949850294e+00,-5.628878422291594852e+00,7.153004137464649581e+00
-7.779273629056445927e+00,-1.098746960536754136e+00,2.990938910026543773e+00,-3.329999044657668161e+00
2.964506694526849007e+00,2.094698382338939346e+00,-5.911024780803982637e+00,-2.535067762617544962e-01
-8.966304645174542287e+00,-2.542611106988377667e+00,-3.538168150218068853e+00,-3.419687701413007819e+00
-1.521597209872336043e+00,-7.100054599912178688e+00,2.081028069823183113e+00,-4.685335695372853770e+00
6.978901335220407454e+00,-1.952707630313628595e+00,-4.037112380645421439e+00,-6.462256302574339806e+00
-2.197125224299028429e-02,-2.637207163295185453e+00,5.381321115776340314e+00,1.135864033617693458e+01
-3.863058174224476726e+00,5.229723428975471045e+00,-3.016423860875813379e+00,-1.947980870161480915e+00
-8.415684898933381008e-01,4.009343771794735112e+00,-6.427026563121898128e+00,-5.911752502100023676e+00
7.878181241418748648e+00,6.035704958688071997e+00,-3.940720700132946064e+00,-3.131199613510843971e+00
-8.770359759608820083e-01,8.859771868296750341e+00,-1.716162978975421805e+00,8.908053374516720524e+00
1.422540902702064569e+00,-1.652905231342074899e+00,1.666882570142055542e+00,1.035105748943941961e+01
-1.612615144701776027e+00,-8.916978550051272379e+00,-3.884293393318354770e+00,6.676114159836923356e+00
8.967000594920566670e+00,7.520340621568769812e+00,-2.616032519440130155e-01,-4.111367832170562675e-01
2.710516780518672952e+00,-1.108804154037117584e+01,-1.881216733325720147e+00,5.489720941554377731e+00
-1.500973777068275616e+00,1.605171004830913573e+00,7.768848458431757642e+00,-6.898324833115718313e+00
8.060599305189976249e+00,-8.830776457012072811e+00,-2.059057116815577348e+00,-1.693449057553732429e+00
1.066358238278326809e+01,9.796866654449629119e-02,-7.342425630762045685e+00,1.083081840871666479e+00
-3.823432147596936836e+00,1.176180438610474077e+01,2.586798421980318174e+00,7.557075945702322883e+00
-4.279803912654558395e-01,-5.677646682949464285e+00,-1.145782937183879691e+00,-5.519817801006045244e+00
-2.265599714948917764e+00,7.730055615599492613e-01,-5.415870686079891083e-01,1.033209099843337597e+01
2.038526157735519817e+00,-6.232993599332524504e+00,1.684705686468459085e+00,1.138953904185597166e+00
1.113479209468523967e+00,3.614846189729710169e+00,-9.020161665199895040e+00,5.192683873787116156e+00
4.884320920468909755e+00,-1.200170274049001007e+00,8.616665571862796469e+00,5.809421473430640859e+00
-2.901858728834046719e+00,4.192870662011011440e+00,-2.463598257895972310e+00,-1.989961022560639448e+00
1.475611151496388773e+00,-9.709742312363832895e+00,-2.134455894753629401e+00,-3.097496225821352311e+00
-9.283683714681725263e+00,3.604861639151867081e+00,7.499929517950909563e+00,-3.627544242568095267e+00
2.300458868582538674e+00,2.404618178253652871e+00,2.501607325586869379e+00,-8.914705775838459800e+00
4.565139945302662206e+00,7.029586097929418465e+00,3.108769563357338117e-01,-6.054299547865190867e+00
8.546584948320172792e-01,-4.167506290945223846e+00,5.662206890032557283e+00,-1.339012305499313982e+01
-2.771005789074447168e-01,-2.996533061769045325e+00,6.394489863589692291e+00,1.054650685861311032e+01
-5.344868138506469357e+00,4.913971051756940017e-02,-7.582459749116968517e+00,-2.436760250324138344e+00
2.104649985403030943e-01,-7.090373717673697840e+00,-3.776328149268555201e+00,-2.239165552185466979e+00
-4.775912308389358985e-01,-2.281300871547883080e+00,9.920670411749181739e+00,-4.933384140085227965e-01
-1.660964503826539151e-01,1.015509588088560733e+01,4.315729742445590489e+00,-6.408673226398095224e+00
4.578097967138479163e+00,7.432467484753840559e+00,-6.376030153796569344e+00,8.734796051212421197e-01
6.215320242253481453e-01,-7.934880613132238025e+00,3.704149409381252589e+00,-2.641386138101425862e-01
-8.241245155524120625e-01,-6.230893523138846035e+00,6.318222326751476992e+00,-8.336680553817222616e+00
7.449387414624920822e+00,5.398277370663274510e+00,3.741822742829718607e+00,-4.295328318494930464e+00
-4.619485606359933882e+00,-1.324445809915956396e+00,6.984501167280646960e+00,-2.877905991844825206e-01
-2.388867504197325631e-01,6.817510340236676569e+00,3.085589984072335312e+00,4.106282637021430482e+00
-2.148417621395112942e+00,8.301543794071651661e+00,2.588609268539139308e+00,-4.804769069399899450e+00
-1.577219659848747568e+00,9.620972253269819419e-01,-7.932246037173112718e+00,-5.265689858133588253e+00
4.727618968099545960e+00,8.205139209392431354e+00,3.726715279410994786e+00,-3.528487911761867490e+00
4.376251243225991239e+00,1.283134913188537318e+01,5.445614721185439988e-01,1.125802207969153867e+00
-1.144206444109064336e+01,-5.833551239094712793e-02,-8.133320402011825934e+00,1.050958624047163337e+00
3.249823836075553363e+00,-5.965322530945835311e+00,6.125856523418435451e+00,1.626948041928653943e+00
1.401198332202916452e-01,2.382358108442902189e+00,-2.830399321547702574e+00,9.413358515874478138e-01
-2.658107745827208213e+00,4.885002271749594449e+00,-5.108629197278298228e+00,9.919285886701747046e+00
2.051283028246794427e+00,-2.057453278455747103e+00,-9.141851836500528350e+00,-2.809455006448834460e-02
3.595667606876015832e+00,-6.040500049136876548e+00,4.163830483772366975e+00,-1.052196930450214296e+01
6.775922996156792166e+00,6.474843181913757739e+00,-6.594363400990788548e+00,-7.418325030560496414e-01
-7.007435486478811093e+00,5.898751397299434984e+00,3.645311275446272425e+00,-3.432858074351258892e+00
-4.364830071881852791e-01,-8.982305822802375772e+00,-9.918551688767948127e-01,-3.778440049628632447e-01
8.183933405084385271e+00,1.056162411580821470e+00,5.851272510908942515e+00,2.545421797394797458e+00
7.679007849488526105e-01,9.062991135415771060e-01,1.027428168517591978e+01,-4.990069749506426788e+00
-1.472816878544955799e-01,-8.573704858505063697e+00,2.326098642248874526e+00,7.431855576993401158e+00
-1.939941836544636367e+00,-2.980342087382241267e+00,-9.475440362723382748e+00,-7.419041329509241223e+00
-5.980599056912127232e+00,1.078173196765489017e+01,7.195710196027480521e-01,-4.010812640725919032e+00
-3.667335187200138513e+00,-6.100359125530038007e+00,8.164240268074488327e+00,7.842034478076616466e+00
-2.582624872203642230e+00,9.087786386249442572e+00,1.841515953208104239e+00,-8.053802858778146501e+00
3.961242357313255802e+00,1.731594719380410652e+00,-1.712726430053685300e+00,2.288621021420224722e+00
-4.817715939574809703e+00,5.278739501782794274e-01,3.037092366006198585e+00,-2.952295631376899987e+00
9.507469056674355823e-01,-5.088694378267007323e+00,4.231446850180966557e+00,-1.261149137391454644e+01
-6.779087893153374011e+00,7.097838743736239131e+00,2.567223476163861484e+00,5.133769808677158153e+00
-6.553953399967629712e-02,3.095733518259905503e-01,7.310831896335393765e+00,-1.169320335983259618e+01
