1.709992465030501840e+00,-4.496575643458659566e-01,2.916808771989567450e-01,-5.420704582765094592e-01
1.364485399718310399e+00,6.360205536628857903e-01,-2.588754151626506128e-01,5.686606664548701229e-01
-2.100548386489102526e-01,-2.844790153116188991e-01,1.220804885553866237e+00,1.737235905367347844e+00
1.410735354497603344e+00,-1.006149112000958246e+00,-6.118748848078792157e-01,-2.595405469218480254e-01
2.237962563992542675e-01,1.729617589258339638e+00,-3.804819125470076391e-01,-8.269748136210162137e-01
-3.711778276422739165e-01,-1.422162537606754373e+00,9.115775817454077057e-01,6.054787360228561927e-02
-1.161914760572693606e+00,-1.673610496688266114e+00,-4.051837673030554421e-01,2.147308292720325973e+00
5.365209454609719542e-01,1.946640120373931970e-01,-1.830661056290825428e+00,7.389092255721972924e-01
1.176450154676150550e+00,1.237502313395476838e-01,-1.376755800329398483e+00,1.628640301241090826e+00
-8.109676635827071101e-01,-1.440090670600420175e+00,-4.119891542971880760e-01,6.984852128590139930e-01
-1.166492515675161323e+00,8.654100920687917142e-01,-1.399386902853977599e+00,-1.567856840266043661e-01
-2.242426406879754336e-02,-4.648697916589312196e-01,-8.681386617507930170e-02,-8.116646332427035482e-01
1.423942405465667083e+00,-4.421321853349838987e-02,-1.366513904779460831e-02,-5.888893596716457957e-01
-3.636688038897380459e-01,6.440129132135051782e-01,-1.035172882769797464e+00,1.582447832476356453e+00
1.105156437491579879e+00,1.171826670812261106e+00,-3.536084007868546264e-01,5.416501348804328986e-01
-1.281933465457028465e+00,-6.326309253401032340e-01,1.522812305587624149e-01,-1.663419182680306196e+00
-4.527352641046940018e-01,-6.494984159644199284e-01,1.002003895816151680e+00,-3.740719091681061759e-01
-3.357832936080429875e-01,2.369572555993911145e+00,-6.473672187252548227e-01,2.945917064776571448e-01
-7.627850655287446990e-01,1.051531759253091503e+00,1.610424942637648016e+00,5.263285630060555720e-01
2.013380170701813410e-01,7.827285249345238283e-01,1.501138790810075507e+00,6.524288341352940668e-01
-4.584324396820690928e-02,-2.626394929887604590e+00,1.303122560694432441e-01,2.062968204883894596e-01
1.269897368301197982e-01,-1.011481815515018479e+00,2.098188846701504851e+00,1.205794481280216601e+00
-4.241115174555317412e-03,-6.350100244895656720e-01,1.181474332269834671e+00,-3.006581271318449836e-03
-1.128728289831340548e-01,-9.169156372971778435e-01,1.097279075265479714e-01,1.001806979826543875e+00
-6.987815357427200613e-01,-9.782480556444899111e-01,-3.617080793205201261e-01,-1.276490168871172282e+00
2.328271968699980654e+00,-8.491649892139707667e-01,-4.593579658574636349e-01,-4.174092285339561781e-01
-1.619155294079490659e+00,-1.525544491390714574e+00,-6.379315205123412547e-01,-3.272759362219023194e-01
1.588555112284588011e+00,1.611206188852341292e-01,1.252931411610249457e+00,-7.829452795493889727e-01
-1.888500877496696734e-02,9.359099539402820911e-01,-5.097833192545827563e-01,-1.332325087846558231e+00
1.887954849405427682e-01,1.972951884345119034e+00,9.049284930484949863e-01,-4.322498089538927557e-01
-1.306067410279641017e-01,-5.770692444240768104e-01,8.782493393320738306e-01,-1.425574530820941099e+00
-8.932647524879728795e-01,-3.760659730677967660e-01,7.897191609602928208e-01,-7.919474128270262425e-02
-2.379889088468343794e-01,9.923922521778487660e-01,-1.042353702702137674e+00,-4.868933496028403640e-01
2.805152897890983987e-01,9.334891612168361164e-01,-6.708008735619119811e-01,-7.961626857236684396e-01
9.182029483705819173e-01,-9.376315985494455552e-01,-4.366774551546609429e-01,9.234502448029523469e-01
8.154431097125046657e-01,1.074846841036150247e+00,1.211203708115453193e+00,-2.144814520435641914e+00
-1.141636383529504695e+00,-1.507263466225992277e+00,2.391963356891329828e-01,1.072877299209816115e+00
1.658301144854105180e+00,1.024684836483680028e+00,4.917026157054903979e-01,-1.041699000485579063e+00
-1.481668484495531013e+00,-6.786944000809279343e-02,7.163670574205024399e-01,-1.016334480604255353e+00
3.046019531965862837e-01,-4.914214628708567512e-01,1.999607155945837711e+00,4.718614613782816380e-02
1.133557081004270772e+00,5.099863803942884521e-01,7.923482363195560874e-01,-1.807766300874734888e+00
-1.430843509316049589e-01,-8.657674227638293418e-01,-5.387908273761224942e-01,-7.196738762151214663e-01
8.822512909847837204e-01,8.945854943103938028e-01,7.520413059447931259e-01,7.371040781921963658e-01
-3.826886794076775899e-01,-1.641299120690333513e-01,-1.889613477149016507e+00,3.417073279708016109e-01
-4.303042231593706135e-01,6.382574038393882265e-01,4.535360241250076530e-01,-2.564570883228464715e-01
-2.661624187015013132e-01,-9.617802110014810335e-01,4.604119272701683308e-01,1.815602871444758071e+00
9.189389076532573641e-01,-1.278969752709246510e+00,8.700150042780706305e-02,5.396534527045724339e-01
-1.091450904477425876e+00,-4.052354285721154192e-01,2.406287937429917034e-01,9.372842987367940859e-01
-1.876026156558127767e+00,-9.291378235814908015e-02,-5.193776434375494550e-02,-7.246915334580105172e-01
-1.690304868208713396e+00,5.944727178696669334e-01,-7.148738637066891499e-01,6.394104827885345177e-01
1.424173241037330895e+00,4.839955791170636457e-01,1.002898358946575641e+00,7.847265014635593922e-03
1.956914317513550605e-01,-8.850741392730455681e-01,3.985787186846708186e-01,-7.826981911270743941e-01
-1.022427687114948913e+00,-7.009801172353513632e-02,1.825590186831242967e+00,-1.570185519891373005e+00
1.093395754686123045e+00,6.068100452671203460e-01,1.025710196149088649e+00,-1.265280756345546598e+00
1.214205008871489661e-01,6.451250545589242158e-01,-2.206775906624732997e+00,-5.886455126198919530e-01
1.607518590955743010e+00,-4.096474484624916257e-01,9.477768040800439442e-01,8.764655654120984130e-01
8.239302503764775465e-02,4.508327266627407126e-01,1.565073831685097172e+00,1.950745471534225839e+00
1.232294256349669936e+00,7.513709329541203852e-01,5.958841576850056887e-01,5.073315438519303555e-01
-1.284958855889873242e+00,-1.295129830527091741e+00,-6.503471445244360938e-01,5.696703704882397634e-01
-1.128900453614906096e+00,-7.825089336980923793e-01,-7.151516662112089584e-01,1.081504980440550767e+00
1.087796507614607000e+00,5.265503763602751297e-01,-1.430864538012247777e+00,-5.675499004211519427e-01
-8.552915547753087155e-01,-1.010394115687751615e+00,1.040485591322206638e+00,1.765507580003503163e+00
6.799416444525515635e-01,2.041041351469896625e+00,4.565575489313896673e-01,4.045731318598412285e-01
-6.313827193862673326e-01,3.866379164616191855e-02,1.065095745383251469e+00,6.991868784356066735e-01
1.056124241757815163e+00,1.358853197521987966e+00,-9.786679757008102942e-02,-3.894832691846778494e-01
4.468283437718995610e-01,1.934013544473901502e-01,-1.989928503216512046e-01,1.475172427280035725e+00
-1.188630834527103497e+00,-4.871893022178812038e-01,8.828581884119210965e-01,-5.312925799408257932e-01
-1.438847986835865234e+00,1.097151357079061418e+00,1.342326357233025735e+00,8.122923131091484006e-01
-1.332310454209439388e-01,9.292988963309235517e-01,-1.149218766201000941e+00,-1.897893065069701235e+00
-1.465328323022495161e+00,8.889910206254987290e-01,-3.308356568026196154e-01,-2.009762783955575949e-01
6.733806736066777487e-01,-8.456370806050709232e-01,2.018771066950853843e+00,2.911961353803950159e-01
5.799844379379440751e-01,3.609524552659885699e-01,-1.333873453023813216e+00,7.936606008805037193e-01
8.918204243138398990e-01,-1.136585537486554331e+00,1.698179082862389722e+00,6.962394015777798595e-01
3.136335469387319663e-01,3.572711076524338197e-02,-1.944365104071699601e+00,6.004608102081964160e-01
-1.293406477192599602e-01,-2.341951243133192584e+00,-8.379350790391579817e-01,6.843941093815289478e-02
-6.790203363513664936e-01,1.779242901240047248e+00,1.516929086101426849e+00,1.675168292868060571e-01
-1.379518857332729276e+00,-9.188448342462518514e-02,9.687125048437559283e-01,9.639487558921061572e-01
-1.757286521869324325e+00,1.376059844963298251e-01,-7.993576787920747551e-01,1.199036058589156184e+00
4.411336223782870714e-01,-7.374543121896116604e-01,-1.820333166622196019e+00,9.524465999891705836e-01
-1.266583400700322715e+00,-9.431892835514065210e-01,-1.858102758692693202e-01,-2.568117902306675249e-01
-7.022579226626688431e-01,-8.233236784627522009e-02,1.051183334780427137e+00,1.475021108076680632e+00
-1.267162963605509507e+00,2.857958064124908604e-01,8.740048254629316782e-01,-8.005775201329409230e-01
-1.850384455269358519e-01,-6.731823283630088139e-02,-1.219380676448681200e+00,8.463080823553594811e-01
4.470171408353499354e-01,-1.151612998107781172e+00,2.411858936918863383e-01,-1.499952154297743423e-01
7.077003491453396355e-01,-6.535824548735627570e-02,-1.567545208657606715e+00,-4.550633902827498356e-01
-1.124459041864752651e+00,-1.536839925973328524e+00,-8.018915892813515134e-01,-9.457260294667269029e-01
7.432906679519891702e-01,1.281865511081593245e-01,1.037622819536643037e+00,-4.551724354557921126e-01
-3.383341185684468067e-01,-1.404347282643326755e+00,-3.233921383276969208e-01,1.874036536031346012e+00
-1.537887953904591987e+00,3.002513715120940230e-01,4.929187994469557688e-01,1.194706649605536519e+00
-5.015679724059222133e-01,1.389599895624947123e+00,-1.454184567658873384e+00,1.673100631550518413e-01
8.936621045695596344e-01,-5.583099683758177001e-01,-1.474802049094292133e+00,-5.665077479826938767e-01
6.555548239682775780e-01,3.020518410408557508e-01,-6.169205542644503604e-01,1.336737762474388580e+00
-1.243748941350765885e-01,-1.856172277993506370e+00,-1.172218317091241024e+00,-4.052867556433606411e-01
2.492048756808328824e-01,-5.644948034055492503e-01,2.007951727807264053e+00,1.739241492157826530e+00
-8.330607866518963123e-02,8.371351338026594702e-01,5.991752806015362420e-01,-1.898292611743828129e+00
-2.832688517388968208e-01,1.801292810084262896e+00,-1.201837226132683512e+00,2.535246288708500328e-01
-1.105757227847459445e+00,-1.000234772690105745e+00,-9.105149265693739391e-01,-7.983439242180959683e-01
-1.837154513825521307e-01,1.027518376325834204e+00,6.971499192201887629e-01,-5.481780957294024592e-01
-2.127878968679330463e+00,6.919208929474282566e-02,-8.680019819862435648e-01,2.188949374772947154e-01
3.615406077908686067e-01,8.400921854030918290e-01,-1.397687196588770941e+00,-9.353245504449934078e-01
1.743430487525988448e-01,-4.295648414236971080e-01,8.763995307783812860e-01,2.387012265598448035e+00
1.971447406471245722e+00,-6.256785793793036010e-01,5.247896360894143131e-01,1.025124946018590028e-01
6.746342584072020365e-01,-2.261156902454207973e+00,-9.403655469825356050e-01,9.044438843997125443e-02
4.822657508223530121e-01,-1.093282364795254313e+00,-8.478703951220322166e-01,1.091959160570639575e+00
7.909186342443365048e-01,6.235202300971520728e-01,9.197277916529065234e-01,-9.242711159043031088e-01
1.860569223986335619e+00,5.228378254029489858e-01,1.486612050080799163e-01,6.623620997742546423e-01
2.343385946693936628e-01,9.790924580664958077e-01,1.007805787689137755e+00,1.057827319527676835e+00
-1.490226557105420957e+00,-5.703593420363811672e-01,5.419576690843017630e-01,-4.774134234090526840e-01
-1.987815071298850489e+00,-1.220848086227123375e+00,-3.276117596408729682e-01,-6.434193162315016146e-01
-2.654728507163524487e+00,8.143023741652771763e-02,-3.947794375291452385e-01,-1.886779695885885400e-01
-8.237983763014546934e-01,-1.240168991070777910e-01,-1.209300525326510778e+00,-5.679307168969979225e-01
4.663142057778333904e-01,5.211610174411065444e-01,-5.152249966707116435e-01,1.373919000730344786e+00
4.164314113461236033e-01,2.322508081007436387e-01,2.963965007099346738e-01,5.737710890692581112e-01
-9.499941659770623215e-01,1.164318020794572250e+00,-5.584947773525743564e-01,-2.209384806525425265e-02
1.897619948016593616e+00,3.988036663171209417e-01,6.783745888323193529e-02,-4.728920454512629962e-02
-1.308862699883336922e-01,1.540824407965057929e+00,-6.173360532550737911e-01,-7.042160441444775820e-01
-1.547516201029639493e-01,-1.473391106093109304e+00,6.663721834397082766e-01,-7.635427175858823245e-01
-3.291280975860546576e-01,1.969249316057018806e+00,-8.766481738124483059e-01,-7.734615286829862879e-02
1.221867085333069536e+00,1.084562461540226730e+00,-3.075083617251850310e-01,-5.924486584519692567e-01
-7.032256319470816530e-01,-5.006740235523435834e-01,1.300396172989365606e+00,-1.915607816587979295e+00
1.365910214426204528e+00,-6.242568231057640804e-02,-2.310689611635024371e-02,-6.238514400830384027e-02
-9.096039492549394812e-01,1.542462026979562806e+00,6.539885389992134979e-01,1.131842741873909236e-01
-3.355314322716080877e-01,5.406454220397618471e-01,-1.276494667810328831e+00,-1.407537411972223707e+00
-1.355740385825300764e+00,-8.062124932309759906e-01,7.600379509834840341e-01,-2.307440895254212254e+00
1.042024050355208287e+00,-1.863073825694196717e-01,-1.506700740543357675e+00,-1.486830816504807640e+00
9.294108704481424121e-01,-8.185685489163394557e-01,2.200351115612951824e-01,-7.106272747542188295e-01
-1.346232494686913306e+00,1.361830632619615455e+00,2.748669841883722431e-01,5.878293580996369894e-01
-1.855668555141782028e-01,8.557826757421322927e-01,1.819596189661216945e+00,1.368751496854482497e+00
1.404599531466475815e-01,1.226328294171189492e+00,-1.091584690762736010e+00,6.721678993954336434e-01
1.135108099472953880e+00,-9.998450521140029856e-01,-1.547473496332107734e+00,3.174657364649997038e-01
1.023850162013967724e+00,3.749534878812653127e-01,9.232099212582337566e-01,5.713077287080353672e-01
-1.408986395112272971e+00,-1.792567286992709785e-01,5.311759275999720087e-01,-5.924869757707862394e-01
-1.079345999924017585e+00,5.840416421361465105e-01,4.905386606056933441e-01,-7.994385807095807372e-01
6.240447760047531656e-01,1.190481086714035408e+00,-1.013375469380147553e+00,1.803291960766212343e+00
-6.339144166084745846e-01,-1.176824392862934943e+00,5.978243083000597258e-01,-1.139648043362881280e+00
-9.061122318823860988e-01,-2.632236036096210485e-01,-5.295572390372630389e-01,-2.221738869232782854e+00
1.875626422794515635e+00,-1.322569494774724630e-01,-9.239111251165450511e-01,-3.675278594203862381e-02
4.184423862750703549e-01,-1.278963745869080570e-01,-1.205652211456596179e+00,2.155882609985169562e+00
5.365724245952785409e-01,-2.192551542214631055e-01,1.852442234739333227e+00,-1.730750405460619978e+00
-1.197040759671547328e+00,1.017379906063361261e+00,1.288252693565066886e+00,-6.896521809127781344e-01
-1.516495236937522029e-01,4.152368085079176652e-01,5.967119032609775608e-01,-1.411985416909304014e+00
-5.036050583074911380e-01,1.269750572983753711e+00,-2.489538060817617360e-01,6.879528249331424705e-01
-5.266245097350202853e-01,9.828591630361963039e-02,-1.950928974957646667e-01,3.308135732071373347e-01
-8.160927666629602673e-01,1.482547540387087470e-01,-1.893386022611161235e-01,-3.851772974572117286e-02
1.251967203865650691e-01,8.213232819689243458e-01,-6.709097438477743536e-01,-2.249166894215711032e+00
9.951318151257239064e-01,5.709901264053744985e-01,1.165096500811873881e+00,6.144848033813061772e-01
5.828176501735526233e-02,9.848358781579341636e-01,-1.512961358709250304e+00,8.336535219366555394e-01
-1.308318287189538243e+00,-1.443646598891953348e+00,1.754739786801761403e-01,-3.688903487647712809e-01
-1.577751907031619494e+00,4.575447137261188790e-01,-1.483275784598206970e+00,7.350301233590900152e-01
1.192764842682496162e+00,6.060764978830953664e-01,3.833834823973572559e-01,-1.797587412963135012e-01
-1.307903858391143981e+00,-1.078783899516999378e+00,-6.669451525299947559e-01,4.516285409901708015e-01
6.976114436101128469e-01,-5.077809162732180998e-02,-1.024801646023307533e-01,-9.576861718827022196e-01
1.397806331761489940e+00,-6.354328538079273558e-01,1.516616732134795364e-01,-9.056357307428979375e-01
-9.155054467122650808e-01,6.685238105146815157e-02,-1.102676408401417785e+00,-1.411747720948624885e+00
3.113203129418118942e-01,-9.959403620412801139e-01,1.523163339100453983e-01,1.854972314957245572e-01
-9.152378660627106255e-01,-1.431746240523589897e+00,-3.264195345961569683e-01,-1.930913717373277327e+00
2.742560389815516531e-01,-2.760544888308756661e+00,4.971623812972956746e-01,-5.129172388498395296e-01
-1.750725157147277611e-01,5.975141139921270189e-02,-6.558472035503138953e-01,-1.773387465934262552e+00
-4.051677630200545277e-02,-2.031941918589683094e-02,-1.617019740957831853e-01,1.494704973226693934e+00
8.797337285932517181e-01,-9.712883457929875064e-01,-1.921416677759439029e+00,-3.574091014713245418e-01
1.004699235906033383e+00,4.483514598308130372e-01,-1.322681233341307161e+00,1.431851708821479496e+00
2.031422589020841496e+00,6.722804704756473182e-01,7.706026955218827634e-01,-5.700952364881255452e-01
-5.990844884352082289e-01,9.648024991387246785e-02,-7.735374640171265304e-01,-8.234051450773178793e-01
-1.388301039117499913e+00,3.229298153305516089e-02,-1.078511998356200152e+00,2.827334987844455916e-01
-8.756701237051671693e-01,-6.999963364940037236e-01,1.480119739679393698e+00,2.388676174209664604e-01
-2.119663073548221921e-01,5.316654409976067086e-01,-1.844443983018913880e+00,-1.106203933695208530e+00
6.820658331707417643e-01,-3.551646841042367386e-01,-5.738394683208443148e-01,-8.293324886990096623e-01
6.884917096934783931e-01,-2.250104513736927991e-01,-2.739755772513487453e-01,-1.392040907639883862e+00
-1.027522545499756079e-01,-1.223857497794113014e+00,-1.481816773577240953e+00,-3.932585482751847772e-02
1.229671486820187176e-02,-7.144022488883821076e-01,1.403189500990930538e+00,7.638798329127886033e-01
4.084202059005594965e-01,3.425516979702454279e-01,-1.771207447324373518e+00,9.232781323551621233e-02
6.401234488660649813e-01,2.220305538145300073e+00,-7.661583775725695766e-02,-1.576011684520293610e+00
9.626253870290417680e-01,2.654237849886966205e-01,-2.760244712483309604e-01,1.894413666930140794e+00
5.104458148947640383e-01,1.202737874636399251e+00,1.177784403758268761e+00,9.897015879833116481e-01
6.097437341255400600e-01,-1.487360729058807562e+00,1.655568480249681729e-01,5.279915683886086120e-01
4.830568674682198527e-01,-8.032010481271565361e-01,1.956686539036512684e+00,1.056121133599434048e+00
-8.893545102695560312e-01,-9.093638133183127303e-01,-1.020219432934709847e+00,1.724953970987342100e-01
2.084656971382835788e+00,-5.084636738737611239e-01,-8.898415581828396093e-01,2.779508948140175795e-01
-6.004509140522996669e-01,-1.714730137055947290e-01,2.195344311173470064e+00,-2.395069297545787956e-01
1.980730008902135686e-01,1.944545649182208624e+00,7.281663254613424119e-01,-9.248628416906098382e-01
-1.137497001286046139e+00,-1.768730532796121413e-01,-1.153955089512418875e+00,-9.164855232581566868e-01
-2.577127576004082932e-01,-1.174195343837289629e+00,-1.239222825200200218e+00,-6.973715864989376012e-01
-1.278818830386462713e+00,-3.257898167274131951e-01,-4.199568542281877370e-01,1.624136903784494601e+00
-6.262177925793423194e-02,3.813310054584796993e-01,3.774222773465054082e-01,1.285440341704233713e+00
2.639053524870417777e-01,6.606317483700699933e-01,9.693179895127050916e-01,-1.558373765652986576e+00
7.591230483020126873e-02,1.860881423895987402e-02,3.172942546358719640e-01,1.164155661820484855e-01
5.421899536048434554e-01,-1.182037469324638199e-02,9.666199049853066994e-01,1.852408675748876465e+00
8.245871145872648578e-01,7.172367638721638405e-01,-6.134138240468403058e-01,5.136310339203525865e-01
-1.237907625657694632e+00,1.779417882614875157e-01,9.284044368375876655e-01,-7.368159319894682091e-02
-5.914913684858928988e-01,-1.864123112740078136e+00,-4.984433748818262733e-01,9.036506513225313064e-01
-1.253165326746746577e-01,-7.324963972784840349e-01,-1.612634578498765014e+00,-9.105972809362832265e-01
2.750574895202173575e-01,-4.731567473759392684e-01,2.271753965915910833e-01,-1.589743859303899276e+00
9.664865295044501314e-01,1.749166895755216888e+00,3.585172476829285304e-01,-2.473214045998615718e-01
-8.744561089818105037e-02,1.127489144324615999e+00,-1.709511810249001451e+00,-5.337208132486040979e-01
-4.547085932077494230e-01,2.562607803188887257e+00,-4.708979230382954739e-01,8.715507918936422904e-02
-6.908701588990235898e-01,-1.132920402973183416e+00,7.341054855110752397e-01,7.664459602084912060e-01
1.288471131747397358e+00,-1.213335009887330562e+00,1.706755243935945465e+00,-6.718842879473075902e-01
2.305528824201476645e+00,-8.954134210363724755e-02,1.119581999442306186e+00,-9.097044778680786203e-01
-1.481760406995216606e+00,-6.996579167881776806e-01,-6.480517586568564914e-01,-1.934229698465194658e-01
2.214214432286773171e+00,-2.798334033182136027e-01,1.242455511883842068e+00,-8.135020855606733825e-01
6.555855614335561743e-01,-1.399671336459847648e+00,-1.357936406846716348e+00,-1.175557977590635739e+00
9.674628286110580067e-02,-3.764229361577952626e-01,1.405900489512916129e+00,-1.513463368430158607e+00
-1.410919578284227427e+00,1.370845732974288023e+00,-3.558787718279833867e-01,6.668226689240218663e-01
9.443554373884219255e-02,2.082246969588083196e+00,7.903423209250395320e-01,1.259732569667768899e-02
-4.611307426640720020e-01,-6.291497687884699541e-01,7.647422238011725160e-01,-1.470088357039373683e+00
1.175139138262303096e+00,-1.980204247493673853e+00,1.889908108589674895e-01,-3.504741014723115611e-01
4.281395440712767453e-01,7.734365587769069794e-01,1.443556698181764908e+00,3.374323679653050689e-01
8.106966993520662301e-01,3.462872907532443256e-01,-1.633763543023001308e-01,3.295891707751328892e-01
2.291336880688915612e-01,-8.398330864109989635e-01,2.403979875480298567e+00,-1.535141383167609730e+00
-4.356263386309166541e-01,9.636916750454107561e-01,8.337579758495751447e-02,-1.061881937381494945e+00
5.813369514091247803e-01,1.076954266002723148e+00,6.065530312297625626e-01,-2.190234855619573040e-01
-1.502883003695753672e+00,-7.397763620452867395e-01,3.132413390543728471e-01,-3.592217652506197179e-01
-1.852182890699415330e+00,2.001298366104090343e-01,-1.136553883374821355e-01,-4.140475109266628095e-01
-5.592218979951452118e-01,-8.438306510031928775e-01,8.080229548281955276e-01,6.442195707167478469e-01
2.255548521075688428e-02,7.327766241894407839e-01,4.198182007345053757e-01,7.133854103890820975e-01
-2.286557857859973009e+00,4.790524260657597067e-01,-3.069411183816946331e-01,5.151175396496781023e-01
-2.119810812302714176e+00,6.383059177331961154e-01,1.095164023828452127e+00,6.975458597850854314e-01
1.333440662777301444e+00,-8.252245242526725644e-01,1.251507084339943843e+00,-9.788492124893448665e-01
1.543752066988398619e+00,-2.822122992195611468e-01,1.283317824360429071e+00,5.480737698532508473e-01
6.397895496203946930e-01,7.222214444713730419e-01,-1.198728450077669871e-01,1.772334205321472123e+00
-1.889989628681180145e+00,-9.854372789569334490e-01,-2.052833473448127666e-01,1.530773081325450313e+00
-3.429235705875037787e-01,7.606933335338468272e-01,1.001389691715274477e+00,1.603384328353232080e+00
-8.012077903738683282e-02,-3.206181756236399227e-01,-1.092013704515755634e+00,1.185443792903001947e+00
-9.745184620473539006e-02,7.405515553427801656e-01,-1.275131236893291886e+00,7.640162165816097861e-01
4.053686430289170084e-01,1.138585249472132022e+00,7.399608044929917305e-01,-1.517978822834016306e+00
1.980331316652485851e+00,1.010113358453785359e+00,6.952303419532499529e-01,-5.073805637600047325e-01
-6.582665082829953773e-01,1.060418971937485688e+00,9.518218707638786968e-01,-5.352465557349522784e-01
-4.549932440630750641e-01,-1.112559508213434967e+00,1.087894981491458024e+00,-2.532364084973361962e-01
9.813582591150040724e-01,-5.269571539916297898e-01,1.618326013109340877e+00,7.883370879216263782e-01
4.966570886861597089e-01,1.679776597790015424e+00,4.076400496249148186e-02,-6.658367914443656943e-01
-4.352413556311391374e-01,-9.098581734406187005e-01,-1.069975453051921876e+00,-1.653183251001595355e+00
6.349919188508103274e-02,1.013323464766207938e+00,-4.834617060829752844e-01,-5.000680424471790619e-01
-8.645039990213501668e-02,-7.833237490617187548e-01,-4.147144532686653506e-01,-1.368679390082747416e+00
1.381937026742476426e+00,7.153134630534384586e-01,-8.455941046638451031e-01,3.676640452784400437e-01
-4.297024169539147564e-01,6.425284533295106959e-01,-1.823958502086585831e+00,9.080761563286875448e-01
6.630566617369890725e-01,-2.905191830011930043e-01,8.448672898071021287e-01,-6.757141820085607042e-01
-1.413915034246813862e+00,1.413128208950294562e+00,-1.114895405309172860e+00,6.142170409149844829e-02
3.114323374551345447e-01,-7.281770886123877240e-01,-1.445086308781434292e+00,-1.374868515664757540e+00
-5.321734409390822540e-01,-1.204406320373594408e+00,6.864542011013424760e-02,2.067213518351801227e+00
-1.908225391607843158e-01,-2.662086055992429756e+00,-2.343475661777550401e-01,-4.653267654802762943e-01
1.396995350998629259e+00,-7.711720308104762500e-01,-5.509700036068266617e-03,-4.504111992977896661e-01
5.172835251323470995e-01,2.134486457148907501e-01,-2.343878099965147399e+00,1.518968602059682205e+00
1.041304032348305153e+00,4.735704318769294319e-01,-1.040421719706274839e+00,4.360741663476523367e-01
-7.854194079752058189e-01,2.423506221764508251e+00,4.965669672503843501e-01,2.126725945202927182e-01
1.300261632251128230e+00,-1.548349522025224356e+00,-1.598388262469862653e+00,-4.453190254703494055e-01
1.693937838263505635e-01,1.064295241659893643e+00,-1.242795651983480409e+00,9.207181136146121159e-02
-6.349648700172056959e-01,-9.257027585517150214e-01,4.605877245890442895e-01,-1.504059527030732424e+00
-5.065035211530352077e-01,1.634635053009697581e+00,1.591527511221408231e+00,4.350968062638466832e-02
-1.360719852466920843e+00,1.949915527722564823e+00,4.892930894524269991e-01,4.200659920318089435e-01
6.344604883723105049e-01,-1.042384278809673770e+00,-2.824078042798870425e-01,7.461980551347006108e-01
7.569330368521313968e-02,-1.191756450698004066e+00,1.704907750290542090e+00,-9.391451223851584595e-01
1.515403041506845794e+00,1.222457349483249134e+00,7.996577832499526250e-01,-1.810820761632430664e-01
-7.098805633379928759e-01,2.580851468437656671e+00,-3.367085759819794522e-01,3.827493891308733631e-01
1.027072302215546573e+00,1.356958918075052534e+00,7.024395360470868377e-02,-9.413529828689758405e-01
-1.095363156777204194e+00,-9.716795740341189688e-03,-1.229713416419538019e+00,7.093678174678790249e-01
1.335405634484339021e+00,6.078905650629073953e-01,8.343840610656359791e-02,8.257138127927093896e-01
3.244538441170440324e-01,-6.282613406607844286e-01,5.509087845139336581e-01,1.792935530321832838e+00
1.046300766551396144e+00,9.634491060224870118e-02,-5.355132463421123923e-01,-6.373651992063268379e-01
2.476486061060483024e-02,1.395232611736196615e+00,6.233149569199050166e-01,2.390929631540452682e-01
6.923169716566752729e-01,2.179462640369508541e+00,5.713731279346989655e-01,-1.279900742734755514e+00
6.084822791599853176e-01,6.601414369064189103e-01,-8.771844488374148652e-01,1.746158706970007302e+00
2.261539612066839899e-01,6.976027423768272895e-01,-1.107001801962217202e+00,2.771044386230713252e-01
2.866911681711030724e-01,1.025464757751938016e+00,1.208992434198401744e+00,1.116728514529440330e+00
1.120636605140363340e+00,-1.856026205697708653e-01,-1.285794526149533490e-01,4.194422673474145769e-01
-4.440737864014171477e-01,1.366233513277554712e+00,5.689749072632849236e-01,-4.054157500025354355e-02
-1.306621446888040827e+00,-2.356376228892029245e-01,-5.819018853134361180e-01,-1.142469958723308032e+00
2.374972834921842968e-01,-1.224560849928667539e+00,-2.226804016313938261e-01,9.600267070617551912e-01
1.467133302512335868e+00,4.693931136332104015e-01,1.092172936727100335e-01,1.377850880476573892e+00
-7.326382536579255644e-01,-7.618383898167220281e-01,1.624991354398672039e+00,1.935543162163458231e+00
4.554419213354497509e-01,1.745070690396174129e+00,-2.727460251980119432e-01,3.646979887796706898e-01
-1.229116130746324087e+00,4.506130383387348462e-03,5.489386407329572837e-01,-7.861148537078852527e-01
-4.034010023726843364e-01,8.748118066793244552e-01,-1.006655884474204399e+00,-7.269251002240253445e-01
-2.093753274484236593e-01,2.923148268983259968e-01,-2.718637278438580385e-01,-1.460185687271913668e+00
-6.480944493131479689e-01,-1.030403375700412294e+00,-3.713041509147624875e-01,-3.075222523312147183e-01
4.031748912876026436e-01,-6.285791067948465205e-01,-1.386192561348390306e+00,1.140364727191399696e+00
-5.510144876312821349e-01,-2.307353851883533036e+00,3.134473081039171327e-02,9.284657196057700956e-02
3.850304768139369699e-02,1.368839221716417962e-02,1.292921996706625443e+00,-1.668961918196918193e+00
4.586470973162739551e-01,-3.445979881038742643e-01,1.665630485178935416e+00,-4.387884600584682770e-01
-1.420289956795908748e-01,-3.006977294314416294e-01,-1.009550483930648612e+00,-1.115805606667356731e+00
-3.409308474995869087e-01,1.609982776539212290e+00,1.355522449379557459e+00,9.991798640383817709e-01
3.149280827299406615e-01,1.614950882296926959e+00,5.884484639787777860e-02,-9.687905141065596970e-01
-1.594186879142383884e+00,5.705193582280526643e-01,9.876070385772041105e-01,4.569097306562771021e-01
-4.297980317745203060e-01,-2.118015432461842484e-01,4.771454389719604894e-01,1.331520956799512545e+00
-9.358358494761480628e-01,-2.138245985615170319e+00,-5.861184794749657589e-01,1.368042849579150788e-01
3.743901459212979344e-01,-1.020244968325318524e+00,-9.609041842632128072e-02,-8.418596083630466298e-01
-5.568389665825150825e-01,-9.417258478286437695e-01,-5.919979638204867500e-01,2.302533749996545698e+00
5.739932139911523290e-01,4.085984281848302202e-01,-1.646966112170739738e+00,-1.192328139497715878e+00
-1.179381829010896610e+00,-4.410668431374092924e-01,-1.043116551657377045e+00,-1.940655316090184934e+00
3.218430806657728294e-01,-1.096239626340041795e+00,9.372550413654044954e-01,-5.486920212229621230e-01
-1.476120931785514512e-01,1.302837508417834522e+00,2.973442599186355007e-01,-4.227399535188487434e-01
-1.158359350251353614e+00,1.715988979209221110e+00,-9.020718933144535878e-01,-2.457140106100261512e-01
-1.132806147460659218e+00,-1.833699475284492841e+00,-6.847035177742688550e-01,1.095510226158293854e+00
6.029166214801827683e-01,7.997058659519923340e-01,-6.499200922495831367e-01,1.154238652785248398e+00
1.714914613297282342e+00,-1.542343623272307562e+00,1.448178666485224975e+00,-1.817443037835271280e-01
1.493009367917550456e+00,7.549837434905789513e-01,9.913599260048029382e-01,1.717596499813839883e-01
2.507353671886216051e-01,-2.369435539252554845e-01,1.441849054018193854e+00,-7.317995478563105172e-02
7.779241522359735539e-01,-1.689309859277672521e+00,8.753010631217392201e-02,-4.214427704357986415e-01
-9.811966297741674392e-01,8.443958103524659142e-01,1.279479394204284803e+00,1.715038644317666561e-02
2.887266090712936606e-01,-2.003768803491399630e+00,-1.108151076364649601e+00,6.387727282828161227e-03
-1.113737383525666147e-01,2.296351986929374700e+00,4.151502646143062081e-01,5.149552892626941825e-01
1.481687878802197433e+00,4.100755348525850774e-01,-1.116939788609019768e+00,-4.164879823598919839e-01
9.536820732917939969e-01,-1.232572451450250739e+00,-1.674211035199577147e+00,-6.194843641570083603e-01
5.129272668749856878e-01,1.683947042690668860e+00,6.869177187719641697e-01,-1.230652702239867002e+00
7.139644551362568370e-01,-1.064516529056240557e-01,-1.142488370493357941e+00,-1.603501347587489301e+00
6.715386099438909184e-01,3.970792182647764901e-01,1.469181865401654630e+00,-1.521321330446706588e+00
-7.425612714065501496e-01,-8.520470321496401156e-02,2.495020480348617287e-01,1.291324494484174634e+00
1.280618964739369092e+00,1.447935128196975230e+00,5.012500259403664116e-02,-1.401979141286099129e+00
4.143635973291722174e-01,-1.487825389076016469e+00,7.930096031833987480e-01,-9.021163947230513847e-01
-2.153221869568901770e-01,1.412909970241067015e+00,-1.001114510361708065e+00,1.071936497323128679e+00
-7.631241439108997771e-01,6.432414636952145104e-01,1.587839820824382242e+00,-6.583843373716384839e-01
1.616295522630626591e+00,1.238388207856470080e+00,5.369087526226025142e-01,3.175057600382062417e-01
1.305801426726487247e-01,-6.614829323638257152e-01,1.949719167104853490e+00,2.249357709199138800e+00
-4.736154322494188218e-01,-2.108134058548278011e-01,2.033295121517840531e+00,1.036399038451990107e+00
6.356078857787857972e-01,-1.572469859544359139e+00,1.315224317346132876e+00,-9.319939241595889268e-01
4.139599266997006088e-01,1.156538475143675138e+00,8.493545572370562180e-01,-1.398655823652546815e+00
-8.436522688145237092e-01,1.886675722800790878e+00,-1.101247676757114657e+00,3.863218644332847562e-01
1.609465239711138987e-02,6.545430047975078214e-01,5.416971488031290249e-01,2.574294764418886827e-01
2.680470012078542408e-01,-1.794014570574107958e+00,-6.099945605207693911e-01,9.917694707915736263e-01
-8.937599496897503659e-01,-3.591753561483497226e-01,-1.214314842800218841e+00,-1.112756487074022527e+00
2.334736810965928555e+00,3.541890231701316227e-01,4.343870440405138700e-01,3.949394320353042387e-01
-1.342953555173398206e+00,-7.524867672794540718e-01,-4.640475108960643857e-01,2.198836394567513230e-01
-2.079711818530781464e+00,4.007865497229821106e-01,-3.965047309838161116e-01,2.070730291263957468e-01
-6.011783151153765603e-01,-1.762786307224122107e+00,3.760189962755130511e-01,-1.798278488391593655e-01
1.871981804910512470e-01,-1.904614631378110490e+00,1.078696268771291100e+00,9.455271574296750803e-01
-1.587889602110877929e+00,7.305076904510278135e-01,1.592075827238898400e+00,4.974428212081047351e-01
-7.362151614703436042e-01,7.438962254318146061e-02,2.173181083932889113e+00,1.049348546398277016e+00
-7.299337456816504810e-01,-5.815920643171410553e-01,4.739148794210985560e-01,1.341596822398833710e+00
4.017076498813858774e-03,-2.650441466105722399e-01,-1.583864592398558369e+00,-9.229947342080685457e-01
-1.008473310736603956e+00,-5.673379729786907077e-01,-8.624738056289131816e-01,-2.846584476571266675e-01
6.979078813536863102e-01,2.251333234165473041e+00,4.376903447151970217e-01,-1.513513861985817055e+00
-1.802421498645090825e+00,1.190258629079040537e-01,8.028814518992931637e-01,-8.211571937628334705e-01
-2.741848435179963239e-01,3.271921760327061168e-01,1.142396129463441268e+00,-1.948199881748067464e+00
-4.067136696634518489e-01,1.616090576410312840e+00,-1.274054631963512652e+00,8.368514264680857462e-01
-1.383370269949922404e+00,-2.580925362361849995e-01,-8.214437051049368055e-01,-4.560202040153039094e-01
-1.028489443113079105e+00,-4.816474966538575320e-01,-1.192602840913775220e+00,1.770910021554065183e+00
5.753929705351474855e-01,-4.893274039979249590e-01,5.698448221538432445e-01,-8.195686203057132510e-03
1.076699636890187550e+00,1.084309953168490326e+00,-1.385672237554962660e-01,-1.824939245830013990e+00
8.940229350729851365e-01,-1.204066432727114222e+00,1.469362701857718889e+00,-9.963143810960782831e-01
6.802616777543077364e-02,1.347626753769645802e+00,-1.605066774280264674e+00,-1.270605037726235009e+00
-5.242609200642811551e-01,6.739585385317762301e-01,-1.948025906618575942e-01,-1.894622032689189384e+00
3.921658421745987111e-01,5.749047983494853797e-01,-1.946281699615824090e+00,2.026450500214246109e+00
-1.644590669148584317e+00,4.136200474570258523e-01,1.104590947723250505e+00,7.931614627423168029e-01
-2.151941540578652390e+00,1.344532637130678998e-01,-3.819896952326650719e-01,-2.236451483397722262e-01
1.585779122994011026e-01,4.886919573646296144e-01,1.692841195839610346e+00,-1.669546452742966425e+00
-8.356276917894215339e-01,3.928741907197824124e-01,2.277880825954018640e+00,1.088035668565924041e+00
1.792120897375403699e+00,6.705950538695784058e-01,1.756987106478302973e-01,-6.242790283595143208e-01
7.316686862396851732e-01,-1.117500318068161413e-01,-7.288244065906701596e-02,-1.447752750995747073e+00
-3.127686114398015582e-01,-2.369393037196962648e-01,1.158341762708696709e+00,-4.722460019428727507e-01
9.064432274319489391e-01,9.889510710731520549e-01,-6.932584409476562071e-01,-1.324185828565492162e+00
-1.200620550809009313e+00,-7.520315883721517825e-01,-2.882076536161830571e-01,1.891796055489979311e+00
9.197352213314687885e-01,-7.993619584432183345e-01,-1.900272940201455540e+00,9.964106327813661013e-01
2.456410183218927568e+00,-4.186281299053928873e-01,1.223667535977758680e+00,4.506176966665692563e-02
7.203272142985396309e-01,4.539900987402471499e-01,8.481538155036044691e-01,-6.517507530300516994e-01
1.808484671150725420e+00,-1.072542609323172469e+00,1.807984678555207614e+00,2.052435410027950435e-01
-6.827293203334477978e-01,1.312707416910998681e+00,8.201000007467196262e-01,-7.669531224880028475e-01
-7.501184798249123098e-01,4.913016414962173561e-01,5.301894577065954239e-01,8.811167339446814850e-01
6.235295156090326918e-01,1.178188830139399013e+00,2.806984402522159222e-02,-1.582474317711120015e+00
-1.514876987926167651e+00,-2.318130728412112762e-01,-7.449949639703131593e-03,-8.400894777042631212e-01
-1.301458792011847665e+00,-2.796150042628040358e-02,-4.934200781411991477e-01,-1.178631984445211112e+00
2.113040102358248795e+00,3.228028210667701070e-01,9.809503875684655316e-01,-1.405144476857174418e-01
-9.478323096269588577e-01,2.060325723161503308e+00,4.460045497293763650e-01,1.220831982146878825e-01
9.340307561610390330e-01,9.237875949943654685e-01,4.484460164225767542e-01,-1.349745664931504718e+00
-1.032874467446583511e+00,1.104269633576161480e+00,3.455306280484652381e-01,-6.502486159641923669e-01
5.956759715301398472e-01,-9.326523693861895614e-01,-4.608757641659327331e-01,1.566552729544806066e+00
-1.434388909574075589e-02,4.852342486134015309e-01,8.200372657136291155e-01,-8.714295840634854740e-01
-4.343459382088462051e-01,-1.286661877476169114e+00,-3.146313599254113580e-01,-1.811701065295220625e-01
-8.194188129023421974e-01,-1.991597281793024088e+00,-9.941108266921490355e-02,1.670923070635068619e+00
-1.342560180257798663e+00,1.871365533518784874e+00,-2.271813016233510396e+00,4.784187460685244697e-01
-2.096419917132213318e+00,-9.149293667771082328e-01,5.150483918726174448e-02,-4.083191230388182325e-01
-7.643377653596921117e-01,3.885029082953409540e-01,7.480836070315985964e-01,9.835866905522346049e-02
5.688239544840682782e-02,-3.910266981263609276e-01,-1.733549982021981739e+00,4.162172956042794469e-01
-1.068629847893552531e+00,1.193792356075608213e-01,6.861075261421385463e-01,2.272877892500513308e-01
-2.613831372255763785e-01,-1.263022244603284161e+00,9.537820232090147288e-01,-9.535961851096952380e-01
2.288776199027071190e+00,6.198801886871202482e-01,3.689582114625997167e-01,1.014435011176800128e+00
-2.349484835806384453e+00,-1.058290499566740261e-01,-1.371193769231892901e-01,-4.494066142813699649e-01
5.255253380373819949e-02,-1.021358057110549389e+00,-1.656526680856754419e-01,1.175880064527284441e+00
1.932890744547439282e-02,2.051198152446106704e+00,7.628028491163229008e-01,1.252101050489854983e-01
1.139813917895805329e+00,2.195696598603576799e+00,5.783426900597430365e-01,-2.633286724597006523e-01
-6.941613421777804716e-01,2.376283381826673480e-01,1.048910115714386110e-01,-2.130180716246107497e+00
-1.918713126803100799e+00,1.218203146026450190e+00,2.266156628207083301e+00,1.341736388916592304e-01
-3.227069319806882830e-01,-6.297132371660784100e-01,-1.637319824394485313e+00,-3.477562757171298036e-01
-8.710636321455011988e-01,-9.826777769734303947e-01,-7.222956677681543480e-01,-1.243427574226331656e+00
3.825564973482990516e-01,1.002693886011766677e+00,-5.663827615508805202e-01,2.301614271378719656e-01
1.480854495697641715e+00,3.456759072283391299e-01,6.470548285907548047e-01,-2.124445414425387146e-01
2.907951447918753485e-01,3.951924753325583017e-01,4.051821222243773835e-01,-5.952018720447009859e-01
8.905990877179956744e-01,3.952393625480810080e-01,1.338303721122701351e+00,7.091217547355862516e-01
-4.202883046880672158e-01,8.190581014924549486e-01,1.657861314989340862e+00,1.312897729965482485e+00
-1.786621771999303832e+00,-6.979269553549959371e-01,-8.867588186191404098e-01,4.344760951526719928e-01
1.992610505634626605e-01,-2.902576734428084837e+00,7.911047772362321540e-02,1.935467587031696000e-03
-1.791235484780522969e+00,-2.586901606133837905e-01,-6.773980390574898536e-01,-7.386101093955566022e-01
2.083158649870902934e+00,6.117039474406975597e-01,7.320122528179637267e-02,-4.580356472424747527e-01
1.264575752453954149e-01,-1.314036542301470212e-01,-2.941164735853423196e-01,-4.397168756275743884e-01
3.130923684411668906e-01,1.296434633248252810e+00,8.741745170048141889e-01,7.305105019577321501e-01
-2.053206311790738425e-01,-6.627052590577950930e-01,-1.334434256181825429e+00,3.162521041025325164e-01
1.423305621862375414e+00,-1.797384583188952056e-01,-2.474760155401058148e-01,1.444868730231751330e+00
9.224967405988514502e-01,1.481096251251146079e+00,1.874309122947168949e-01,-1.973669508149103358e+00
1.224047132003395627e-01,-4.963308295488811361e-01,-1.279805601410901827e+00,-5.910401476374704810e-01
-2.389196432158589289e-01,7.708156917087011228e-01,-8.132558631560234952e-01,-1.617633921124850938e+00
1.699165893544071215e+00,-9.826057963217346147e-01,-2.366443003922510613e+00,-4.741050266003332680e-01
-1.135272970715880847e+00,3.121664730836549717e-01,-1.307452360601495833e+00,-5.749021997603313006e-01
-2.088100712766156164e+00,-4.787067255197248183e-01,3.410372802021334193e-01,1.116150279394138023e+00
-6.850398862575622916e-01,-7.325661623707768744e-01,-3.261735948512009542e-01,1.285197034691241580e+00
-4.977097280567511772e-01,-2.410836551078032464e-01,1.918152659882751132e-01,-3.671258658424410015e-01
6.723887514485250572e-01,-1.449248286730711710e+00,1.937365366782063392e+00,-8.662860993836406509e-01
8.209162519904691369e-01,2.272985314527811995e-01,-2.265022315710843795e-02,-1.325201488819309770e+00
-1.841710802559637025e-02,1.172930199514504945e+00,-3.795404697358389923e-01,-1.211819465318346944e+00
-8.528901730563327455e-01,1.059684439013300450e+00,1.880703505083525684e+00,1.054945511805301495e+00
2.785550626313518241e-01,8.530365407918415466e-01,6.231694775952888177e-02,-4.513796751331182744e-01
-6.450351388871272684e-01,-1.013771195784334722e+00,-2.269287062217462819e-02,8.014124491091731417e-02
1.039207351516399647e-03,1.299287334492643220e+00,-5.258331774272623216e-01,-1.818755885997217270e+00
-1.455976842630458679e-01,-3.066640404136392606e-01,-7.931821614881849891e-01,1.954189635452916241e+00
-7.355830774048023324e-01,3.134957480932940022e-01,-1.871373712568489278e-01,9.874233950220335787e-01
-2.395486033822178118e-01,-2.833307775833052045e+00,-4.409426843744980729e-01,-3.331320752896808068e-01
-5.566816880572937887e-01,1.348840881203615449e+00,-1.911839766653165851e-01,9.440858927820788837e-01
3.504377060879010908e-01,-8.144732150145203020e-01,-1.578125031486672603e+00,1.393057113583898943e+00
-9.786811440239367998e-01,-7.658615507616676199e-01,-4.482227529341448746e-01,-9.141937951031662291e-01
-2.504275345120418050e-01,4.302950421846032381e-01,9.305773557116182593e-01,1.766444709997532891e+00
-8.932154879586209351e-01,-1.967149805264016837e+00,-5.915472782159182374e-01,-7.315723242677060201e-01
9.142318614318430958e-01,-1.111534011930599197e+00,2.068918913860636533e+00,4.800118575113615504e-01
-5.038097289797763834e-01,5.289044318722094795e-01,5.207003422167277157e-02,4.323973926801755185e-01
-1.401126321031975763e-01,-5.229359516675223807e-01,2.363909754452023559e+00,-1.706694623510255582e+00
5.883447125360465879e-01,-4.334859925136498315e-01,-4.137114567496054662e-01,1.306034779768866061e+00
2.419516181676537592e+00,-2.688033940436854730e-01,6.533727298862723742e-01,-5.409403801499573783e-01
-9.852039544500793000e-02,1.040855329362489812e+00,-1.592227171777340633e+00,7.580573512508075318e-01
-4.809914780226227649e-01,-1.132324186362641871e+00,-1.613204854237158814e-01,-4.954020632846211636e-01
-8.550635053608386382e-01,1.375752704259705084e+00,2.514692338849136011e-01,-8.220134544488036932e-01
-5.973659842000455383e-02,5.322252195542203079e-01,-1.639564647572201217e+00,-1.737751288268075678e+00
-1.564517114044215118e+00,-8.437757460751511562e-01,-3.287364203431829002e-01,4.393438568773749830e-01
-9.546454088756448630e-01,1.764927418548293936e+00,-9.623236320596401105e-01,2.975355220316199811e-01
1.191624871525555074e+00,1.075159686484033150e+00,8.116449457151342362e-01,5.926378672701246297e-02
9.110777864523472713e-02,-1.180770254028376876e+00,1.516799947818193051e+00,7.341012902469348234e-01
1.862513138291369996e+00,-3.402094557705524491e-01,1.308636506591288828e+00,-2.832540646999007761e-01
2.284079775063179163e-01,1.655124505219207176e+00,3.145936168956677825e-01,-1.019896370531914176e+00
-6.487044649299916754e-01,-1.503570026166355378e+00,-5.898370971175682653e-01,-1.595426737939794615e+00
1.257210499759445543e+00,-3.868912840253407315e-01,-2.194831175891820141e-01,2.414530993240956158e-01
-1.033038318017886148e+00,4.889969483176742071e-01,-6.676787314449209587e-01,1.199227697747060173e+00
5.051274771536387043e-01,2.425342502133941203e+00,6.947635433119188075e-01,1.081511086482349171e+00
-2.215009719507926356e+00,-9.287063023540538254e-01,-5.860466530383543482e-01,4.708725506512780878e-01
1.256748509116084156e+00,-3.103889563106061455e-01,3.927395884551058702e-01,-1.170928369837177296e+00
1.325309481020877866e+00,-8.960235313329929785e-02,5.640755960700978289e-01,-1.060633659321362360e-01
-1.421444619962825451e+00,1.254075176422000393e+00,1.713903650798164202e+00,3.659226432344698798e-01
-8.129721389516182395e-01,8.298116539063621344e-01,-2.157017484704530030e+00,1.245390894024551498e+00
-3.418399769942796484e-01,-4.594980354270832845e-01,2.366810299656629812e+00,1.453467768608057709e+00
7.774881590680767784e-01,-8.262929689980340608e-01,-2.010699265536381120e+00,3.359928181637674705e-01
-1.748329273896130465e+00,1.167901241627808728e+00,8.986650271349790886e-01,6.700906819591441466e-02
-1.546485911505333988e+00,-1.020094203976311009e+00,-4.998596621797321560e-01,5.127024962831824156e-02
-2.769039650105512007e-01,9.714089344098365553e-01,-1.759033592965350890e+00,-1.038036301895079339e+00
-1.427809081599672680e+00,1.669473015961017603e+00,-1.099646291502963891e+00,6.144278706433012882e-01
1.078749746278929500e+00,-2.644365283562837288e-01,-8.539484199541951259e-01,3.711023819110059185e-01
-1.911935974878402833e+00,-5.586879960521112798e-01,-9.410750544592112465e-01,-3.479024414389077502e-01
4.052858940089844597e-01,8.599836148934671964e-01,-1.866765615118575417e+00,-1.195755036074041211e+00
-6.438069281973282099e-01,-2.367446240005423697e+00,-4.921955360764545540e-01,1.179032984905549197e+00
-6.553212077356962428e-01,9.911059171827463210e-01,-1.589491698694512678e+00,1.364634005614372203e+00
1.425709751311375617e-01,2.166530717026250663e+00,-3.615637837217275385e-01,1.933598058078280779e-01
1.143344116594346760e+00,-6.098339369398760867e-01,-5.102232801422085240e-01,-1.091213322780603123e+00
3.167844157234721569e-01,1.474209598221960515e+00,5.086176386214406042e-01,1.338147796720143390e+00
-5.872121063838758176e-02,2.334241314987379301e+00,8.681551756559621191e-01,2.162950922787690022e-01
-2.605311039173650589e-01,5.361891310485148582e-02,8.646098647588995600e-01,-3.227008764587508405e-01
3.772506526217411782e-01,-1.237042479290391545e-01,1.774295088205927184e+00,2.067153849709532754e+00
1.837503396782760035e-01,5.272241911738989595e-01,-1.443897866810915476e+00,-1.904513690543290672e+00
-7.960679012588154357e-01,6.461644360221078243e-01,1.085544618155512175e+00,-9.802288019438631927e-01
3.808504370303939512e-01,-2.127735520317230122e+00,1.311885926784533085e+00,1.244316707915480852e-01
1.014859581778291830e-01,1.734203047182266699e+00,-1.343199275242480117e-01,-8.460519159732714511e-01
1.794922477886699674e+00,-6.578777927873122877e-01,-1.607136068647992078e+00,-1.215464301190413571e-01
-2.341158949516212395e+00,5.713531228083157387e-01,-1.335146371790554731e+00,4.524811899923518455e-02
-5.600249942878451348e-01,1.724600888104243501e-01,4.310262242036845270e-01,-8.287025581475865321e-01
4.978208310029582639e-01,-7.829826849176936276e-01,-1.745651104125151010e+00,1.258217527446134243e+00
-4.319244538105477815e-01,3.215266543726225112e-01,-2.054951226743225057e+00,-3.513696876004143710e-01
2.397151252392181742e-01,7.969060352004715408e-01,-3.120968180856482088e-01,1.485242591661654510e+00
-1.158582357834843091e+00,1.460022731516018579e+00,3.365831864023236530e-01,-3.191251968923000115e-01
