-1.909881381543040157e-01,-4.223381427719741232e-02,-3.090651290131008477e-01,2.651546555666219884e-01
4.091934884307409370e-01,1.382880202309361151e-01,6.547928945474960072e-01,-7.378873165712487303e-01
-1.157716835477531347e+00,-3.778746781489222828e-01,-1.835359785156939871e+00,1.805433564668885715e+00
2.319692473530518551e-01,4.549592991646027318e-02,5.310455562529797779e-01,-5.011841713129633336e-01
3.922923284629523111e-01,1.242994482570864978e-01,7.115425181590510073e-01,-6.326302288181711031e-01
-1.136269696755520586e+00,-3.660617288488197119e-01,-1.880191656160546732e+00,1.746990210365497065e+00
-1.446648697566014663e+00,-4.263710535314426120e-01,-2.260875321772339852e+00,2.241308439787609963e+00
-1.294601951226016956e+00,-4.055158683776803330e-01,-2.005350835065644155e+00,1.942018535994254336e+00
-5.142954794423805209e-01,-1.665062512406614847e-01,-7.342106333912461480e-01,7.370132649372499456e-01
-9.932924442877777427e-01,-3.033862241300771534e-01,-1.628482506846014477e+00,1.551777239583315371e+00
-1.406525186680704698e+00,-4.360351801100591507e-01,-2.358254873499612270e+00,2.326552195853929472e+00
1.420736902829560222e+00,4.928651150414407045e-01,2.310137226636722829e+00,-2.318751322101840540e+00
8.042512151120124742e-01,2.228713525468246359e-01,1.256977491493245891e+00,-1.195923383652757410e+00
1.583578897675449015e+00,4.526428533058983739e-01,2.530606911565768780e+00,-2.414117340025963454e+00
1.487603582580960593e+00,4.549006546689775554e-01,2.452494955415446931e+00,-2.336828457740982579e+00
-7.388214292528688665e-01,-2.940337762599470328e-01,-1.141650212475482373e+00,1.121091398362267011e+00
1.100308822578631496e+00,3.471558363237480238e-01,1.687873987389147290e+00,-1.691078474636745321e+00
1.656019430690273131e+00,4.868442986592665389e-01,2.459992825784028891e+00,-2.449877854082827433e+00
7.960072550467812702e-01,2.867610771919114621e-01,1.313404414788767349e+00,-1.268786201617746023e+00
-5.056569357333915438e-01,-1.489612253325797997e-01,-8.269197323219714679e-01,8.339580191260874686e-01
1.315960177715202351e+00,4.133341048394590933e-01,2.071126704341925251e+00,-2.038885119376649069e+00
-5.742664323570865204e-01,-1.652731146733491252e-01,-8.976189562885145135e-01,9.522942729414511920e-01
1.276828626210985806e+00,3.803364463318344435e-01,2.068038013675059350e+00,-1.984998649727617082e+00
-2.948586309082921186e-01,-8.263774360107940808e-02,-4.094462174599331483e-01,4.591508547215069624e-01
-5.775992983821311988e-01,-2.915919044636889890e-01,-1.001451872260600506e+00,9.650038374269267472e-01
1.007597089602784601e+00,3.111525998107770308e-01,1.692827494328946081e+00,-1.653122201635328636e+00
1.280939114781482369e+00,4.593720828650494914e-01,2.019454794480431303e+00,-2.009038853218114262e+00
-6.074125654723764312e-01,-1.876771372697859652e-01,-1.045660614197942762e+00,1.054644287049250728e+00
-1.483946356440374981e+00,-5.333729086610593528e-01,-2.449092601330772556e+00,2.384648756509755607e+00
-1.567166273731432025e+00,-4.869687709828480204e-01,-2.433137472275720636e+00,2.446439538559170401e+00
-1.004923331503224881e+00,-2.360515882733590920e-01,-1.592667103345196455e+00,1.599009434193485513e+00
-2.927433711046973364e-01,-8.282057228438900742e-02,-6.306417148987353283e-01,6.195901044616316522e-01
2.320036875386750352e-01,2.807460738721854684e-02,4.110218638345768949e-01,-3.984921573491277402e-01
3.032065879618868198e-01,3.609511388201902538e-02,4.831322186067243951e-01,-4.539342200675656191e-01
8.636536260822497146e-01,2.793367650367185040e-01,1.283199411032873272e+00,-1.263386617957160674e+00
9.931122575500000993e-02,6.470712658492228098e-02,9.620648698344107241e-02,-9.283834281712602388e-02
4.469694892705520228e-01,1.680129473794394757e-01,6.649203823842448902e-01,-7.063491921117828198e-01
1.474460422213260680e+00,5.146071296885503799e-01,2.322335775347264430e+00,-2.291571467052423206e+00
-2.658811896434239430e-01,-6.607560177078439234e-02,-4.315723503165314612e-01,3.713106790039363836e-01
-2.821654401686989888e-01,-9.509787406300290735e-02,-4.432801036438491771e-01,4.677813467998941932e-01
1.440419755710361738e+00,4.306211378083048547e-01,2.352256064103556366e+00,-2.293970056089154941e+00
6.689612368755610827e-01,1.952522621642646672e-01,1.006722034209555527e+00,-1.015765511044965042e+00
7.734899179556433690e-01,2.607388648111617080e-01,1.347573877705546153e+00,-1.265209458249794805e+00
-4.189168616478149976e-01,-1.975703136089292655e-01,-7.429330387359225352e-01,7.484751718415020294e-01
7.225460864178575582e-01,3.025640841087068322e-01,1.190411498733464857e+00,-1.271861742945952223e+00
7.831740917629924637e-01,1.790079813597058034e-01,1.165346087019895283e+00,-1.274784820984503186e+00
-9.035962918968527546e-01,-3.257317485748145725e-01,-1.341788953085316205e+00,1.390881682046686496e+00
1.104741947356200349e+00,3.733197308497532840e-01,1.756568635770768383e+00,-1.735062463035056846e+00
-1.365143527878545093e+00,-4.209036922935703307e-01,-2.176721269518309132e+00,2.108970121391618768e+00
-6.727402099852392015e-01,-1.915702368853079152e-01,-1.016051692018615560e+00,9.630799049002659595e-01
4.818745543851113422e-01,1.807306257798423355e-01,7.862097840804999072e-01,-7.380578515365830983e-01
5.049809679675919538e-01,1.693316560895683498e-01,8.478413403223054035e-01,-8.401537173596121955e-01
-4.906799336397295042e-01,-1.593290658764738577e-01,-7.523813795363583079e-01,7.911449641416404832e-01
1.489203814760442501e+00,4.653218117534350662e-01,2.453793189193269164e+00,-2.345950932889426355e+00
1.431932691606270680e+00,4.972624409605750917e-01,2.225706766287122829e+00,-2.193341013358937275e+00
-6.167751402191662402e-01,-2.020002381373020850e-01,-1.005706245585577863e+00,1.059176287487547885e+00
-9.534066701447392322e-01,-3.018592566219201467e-01,-1.492586160184551369e+00,1.435608143431234218e+00
1.471747400558631513e+00,4.298882024039699656e-01,2.344978211887882580e+00,-2.278977955265478972e+00
1.022540303232186032e+00,3.072912666402846105e-01,1.729964086231272402e+00,-1.756566265243934000e+00
-4.137750876978991132e-01,-1.793173295842649673e-01,-6.290056855451555684e-01,5.934489302050798276e-01
-8.495721943332628090e-01,-2.324367213707134172e-01,-1.211278029533522371e+00,1.209964456577768521e+00
6.641520160766745118e-01,2.406755608411711989e-01,1.047659071443052259e+00,-1.057789814761385783e+00
-1.398576479962295727e+00,-3.757804369216966589e-01,-2.192035836507494562e+00,2.117066830857221138e+00
-8.932365401894954982e-01,-2.935493380447123934e-01,-1.360280327065368056e+00,1.323591330392830834e+00
-1.189392664619048912e+00,-3.998066435546629993e-01,-1.955175529794652256e+00,1.844907622586177576e+00
1.506244940751817918e+00,5.084253864257539668e-01,2.417481793919040278e+00,-2.346011518629198100e+00
1.075601110926045267e+00,3.014904042479698010e-01,1.730123275362855928e+00,-1.639481571079636879e+00
-4.392661325545911821e-01,-6.349373891206536169e-02,-5.918663742404128847e-01,5.963056441921531503e-01
-2.008067474681328735e-01,-3.088245056168138769e-02,-3.440832000113921429e-01,2.592501377553532160e-01
5.628960674572819345e-01,2.292294488869223434e-01,7.767451850459451412e-01,-8.986866065120555636e-01
-6.412322423785413728e-01,-2.525569519983559275e-01,-1.064845337787714286e+00,9.652378267965415759e-01
1.214705883802835507e+00,4.117240181288599477e-01,1.958966034330096750e+00,-1.875754673043678711e+00
1.261644142277737801e+00,3.666369880513282165e-01,1.998566605052603862e+00,-1.976084217508427665e+00
-9.475158116832397281e-01,-3.739354296057868510e-01,-1.477380661773147086e+00,1.558458064586019320e+00
-7.397251678147107601e-01,-2.374338136646632347e-01,-1.134264266658492115e+00,1.082572400756228514e+00
1.245674234504053901e+00,4.198502369908305165e-01,1.892673674884725932e+00,-1.884586471548975295e+00
3.059670115898047160e-01,1.174001572589273568e-01,5.291709499917666149e-01,-5.510571925189686748e-01
8.254885531704928558e-01,1.512130155766416295e-01,1.191705969877334015e+00,-1.158212979897948580e+00
1.402954454567803433e+00,4.769734430903823652e-01,2.271130181799839498e+00,-2.220430777674807565e+00
1.272720050046420415e+00,3.880405929290957068e-01,2.053626032458649497e+00,-2.043146282513177869e+00
1.516551013618080868e+00,5.087370981895475985e-01,2.345951264658883595e+00,-2.299734943212712768e+00
-6.228124565975317051e-01,-2.353853577193341373e-01,-9.792283212429662154e-01,9.778521154811139482e-01
-9.189780491235662874e-01,-3.717296413925113563e-01,-1.425833690027458633e+00,1.451727247312123659e+00
4.597516129153447206e-01,1.109907566068820961e-01,8.503589607781095738e-01,-8.109500319980497141e-01
-7.051415462840617820e-01,-2.455474321660666426e-01,-1.170935255415407328e+00,1.208546628369699727e+00
-7.180347468150839463e-01,-2.213102964395110839e-01,-1.108640862034698804e+00,1.082953539188796777e+00
-9.044567077094837204e-01,-2.116516443100396327e-01,-1.481155380771023156e+00,1.513965482280502872e+00
-1.314982464912003435e+00,-3.721628408859224968e-01,-2.017033621710000446e+00,2.001049597555058401e+00
1.475276956313185339e+00,4.712352273628765964e-01,2.233996081676188350e+00,-2.374195939053633797e+00
-8.304084445728073804e-01,-3.718943112578248500e-01,-1.238800194829730472e+00,1.191812559930677473e+00
-1.003372285598156832e+00,-2.975724701384032667e-01,-1.551921913397107611e+00,1.604773877214315414e+00
6.379375669237554725e-01,2.332634647423357521e-01,8.640026066937331883e-01,-8.178908760463824423e-01
8.774840922693319945e-01,2.991782243738986269e-01,1.481719088499522829e+00,-1.525713376724890713e+00
-8.693902387814934907e-02,9.409911822396809910e-04,-6.041032797901280116e-02,1.259462761258285379e-01
2.397504662779123552e-01,5.903691276248309444e-02,2.447301917910165714e-01,-2.450833737789485656e-01
6.344052358310663386e-01,2.135382649972867863e-01,9.669511093276386138e-01,-9.632427766046199880e-01
4.732437573112182050e-01,1.592167678389799779e-01,8.314931858317876623e-01,-7.273233020137942484e-01
1.267392698746625745e+00,3.616016432791531732e-01,1.986542819570642271e+00,-1.979591983811776146e+00
1.077795363256549566e+00,3.321592340737998805e-01,1.650164346683864691e+00,-1.590225994731954362e+00
-6.577689573116464183e-01,-2.019342949155643885e-01,-1.016286096251853177e+00,1.001338981389869875e+00
-5.330582665187996727e-02,-5.119266196570646660e-02,3.943359343663423860e-02,2.472081247238282556e-02
1.320864074535687882e+00,3.894030980898520178e-01,2.098885622063669132e+00,-2.034806232730614894e+00
1.388466737511565574e+00,4.553727958163305001e-01,2.194990270975346380e+00,-2.219772069560475902e+00
8.642824112233943312e-01,1.677578574634819297e-01,1.406747432833021172e+00,-1.372511885649889019e+00
-1.526287438712329303e+00,-5.112613137157077103e-01,-2.340434212882805731e+00,2.371173915718630010e+00
8.093559292203804656e-01,2.194556542105386698e-01,1.289638764911085644e+00,-1.229328829470719198e+00
-1.171898824290913410e-01,-1.858149065407435976e-02,-2.279418115235591347e-01,2.656340357327570678e-01
-8.224970287207046260e-01,-2.763239741080777967e-01,-1.241330564263392278e+00,1.262074290008704969e+00
1.420120934230540977e+00,4.914545387942080845e-01,2.329433023765149269e+00,-2.300181553332069306e+00
2.144953583926502982e-01,4.863109510363253403e-03,4.059018474166819490e-01,-3.751757930779194283e-01
-9.423912137939178743e-03,-5.241586481893852761e-02,2.954044770152553651e-02,4.300069064046073419e-02
-4.102260044536664152e-01,-1.898304888281015512e-01,-7.124202863303842337e-01,6.133004248256677116e-01
4.266554317993708212e-01,1.272908076357704976e-01,6.299519322731469417e-01,-6.459303847965416345e-01
-5.451562147884542187e-01,-1.243142232792550927e-01,-9.412059258900385972e-01,8.038174613332587093e-01
4.391457510996054081e-01,1.392277700626114445e-01,5.921011217004890081e-01,-6.840618036583024919e-01
8.155158439153151750e-01,2.160846045883038913e-01,1.300153775414933932e+00,-1.243577005912113842e+00
8.374389657415950428e-01,3.316729315830830860e-01,1.467743334642454656e+00,-1.408657813714625062e+00
9.685653725039795603e-01,3.612284049219381954e-01,1.536414172350203833e+00,-1.492417023684285526e+00
-1.016294700424511976e+00,-3.501439819076028193e-01,-1.625940592734480328e+00,1.554844503244389609e+00
-4.690496867786938529e-01,-1.303275599708300370e-01,-6.419027859860151342e-01,6.234637969298826299e-01
1.362899349676096383e+00,4.768145993740983135e-01,2.117821766927107330e+00,-2.170922390360891185e+00
1.567879397556196208e+00,5.247507178889491142e-01,2.371647912770643352e+00,-2.363900960971500709e+00
-3.389631641883650848e-01,-8.703640678294219390e-02,-4.340136528901446522e-01,4.460637576889723288e-01
1.204361990947837580e+00,4.242230111859062180e-01,1.899098533634909103e+00,-1.890011107380567434e+00
-1.557321776464288154e+00,-5.245768455054954371e-01,-2.358992392131217031e+00,2.368867382078262196e+00
-7.108157358661011394e-01,-2.330659898659175888e-01,-1.170966826125960925e+00,1.106945850309990043e+00
8.883840465261437780e-01,2.845782584228212508e-01,1.414251344159537238e+00,-1.415236165947614921e+00
-1.146942887961157620e+00,-3.901020868797150376e-01,-1.906313043209443503e+00,1.880834218328087726e+00
-9.163352429817491762e-01,-3.132135454693876220e-01,-1.555498512508891595e+00,1.520040917209806164e+00
1.415571043794574546e+00,4.654492697294618231e-01,2.279460493763105777e+00,-2.267427911985965494e+00
-1.883497790364207780e-01,-5.946479425769329169e-02,-2.633410676076159418e-01,2.445144602903745190e-01
-1.186652793390527288e-01,-3.528980763368856632e-02,-1.891528584385954170e-01,2.209290012912988876e-01
-4.754602161132130966e-01,-1.052569305515594911e-01,-6.339515579706295201e-01,6.616862941029262313e-01
-3.285397606417195249e-01,-1.142483400641601532e-01,-5.141988534904555763e-01,5.270277280723041358e-01
9.261250685799957694e-01,2.998989680075475062e-01,1.487380280301077606e+00,-1.485995880453732543e+00
-6.556972645931412602e-01,-1.644945648630573576e-01,-1.061301251360625919e+00,9.493182448913246585e-01
7.980196990430538095e-01,3.003236950525574045e-01,1.321814943680575283e+00,-1.372634703174334891e+00
1.137299792647833652e+00,3.818722311825184512e-01,1.803013139582745117e+00,-1.787315680483930747e+00
-9.807678038813105736e-02,-2.640235325854213208e-02,-1.135580573490447276e-01,1.046776991382922795e-01
-2.394273044908330206e-01,-5.702660003969266950e-02,-5.430674350859455712e-01,5.247918765099631733e-01
-1.195464531930623270e-01,-4.641275096369814473e-02,-1.768560669244525207e-01,1.971817151195925932e-01
7.975482273877237960e-01,2.265158236968411176e-01,1.183972703794956338e+00,-1.227700378060826436e+00
1.616629419613861751e+00,4.033604860600289443e-01,2.458962032257538954e+00,-2.454351987131897062e+00
-6.526795850295686874e-01,-1.767863840090622973e-01,-1.100397349684886006e+00,1.045503341726840896e+00
8.858078982447240568e-01,2.801555776935297781e-01,1.428550976287652263e+00,-1.375709116943798271e+00
1.139593615042315378e+00,4.525360865034795954e-01,1.757154570429933838e+00,-1.779679280979050038e+00
-5.716641317373281073e-01,-2.378738724085690537e-01,-1.064794869444289915e+00,1.007685689307628696e+00
1.320156326465987129e-01,-3.844796881497219987e-03,2.899575577745393540e-01,-2.429311341304502270e-01
1.160346498798787707e+00,3.439882946840439049e-01,1.932777671092950511e+00,-1.845310598249456424e+00
-7.726227026331472514e-01,-2.799149924710406245e-01,-1.275636343469539691e+00,1.240255067767975117e+00
1.033255344853468483e+00,3.700987155050650124e-01,1.482307876039473671e+00,-1.460440814111034102e+00
1.660751843566271313e-01,4.421960538988303768e-02,2.802104001860338256e-01,-2.922294221838473982e-01
-5.438254116717158304e-01,-1.687657106503872573e-01,-8.434753738454827676e-01,8.690891873829191816e-01
2.199282947135796085e-01,7.812391315817553139e-02,2.975614005465092582e-01,-2.634963729903624374e-01
8.713090039792475983e-01,2.768383842796651728e-01,1.407072296019932445e+00,-1.353403412766505998e+00
1.577200418505081414e+00,4.853644032436357225e-01,2.418987760342050652e+00,-2.445358881643611149e+00
-4.628516825025051351e-01,-1.174260212404280718e-01,-6.202649897911189925e-01,6.372893607835778962e-01
-9.403996504487679431e-01,-3.241239460958612595e-01,-1.385688309304663246e+00,1.413818899094853254e+00
8.170631620041897136e-01,2.755089033529010689e-01,1.178373862290843732e+00,-1.216826324066709430e+00
-9.897017497496172211e-01,-3.338546907827290022e-01,-1.470429194620775259e+00,1.528967651400115368e+00
1.519810923356256893e+00,4.672976795093086722e-01,2.394453832121617776e+00,-2.357356482924898522e+00
-8.522993506665255126e-01,-2.209288185403181504e-01,-1.354106651437669839e+00,1.403811370222057597e+00
8.461854170270187714e-01,2.541400029109570635e-01,1.413831063204922467e+00,-1.323412530981033175e+00
1.467979326006344232e-01,1.267497196825821855e-02,1.421591028077300312e-01,-1.336946609686525123e-01
-1.034835974427167127e+00,-3.279318259394494173e-01,-1.775324005958160090e+00,1.642773542505636675e+00
9.904970491569052571e-02,-2.971414086467565052e-02,1.554711897898025663e-01,-2.208822239856881864e-01
-1.028789250180033976e+00,-3.848670202019899289e-01,-1.662317305181471250e+00,1.597385145708582810e+00
-1.024474580640448940e+00,-3.777983548161473193e-01,-1.803251533234279558e+00,1.738190638941604638e+00
-7.588284333154881045e-01,-1.760666212039076473e-01,-1.185027924516573350e+00,1.140178317370805550e+00
5.668128012154232120e-01,2.339565243513323511e-01,1.007121435331765458e+00,-8.959354251212763298e-01
-1.267441200132087831e+00,-4.466079199229602836e-01,-2.066689276069030967e+00,2.029746389852185473e+00
1.308201399019160993e+00,4.195903970491065005e-01,2.013257171223763908e+00,-2.011526429086250456e+00
1.595226848644718753e+00,5.245934707079664694e-01,2.509508482065746726e+00,-2.467928442576962755e+00
1.528400962780873118e-01,6.160309618625693304e-03,2.234559430949707159e-01,-2.966118078420590387e-01
-8.814578547971493316e-01,-2.541692723089739592e-01,-1.377627206038283703e+00,1.363587725381933513e+00
5.641300404472856522e-01,1.067713849439099888e-01,8.590417877873077757e-01,-8.199192908247192602e-01
-1.579676198294172051e+00,-5.374865188785611370e-01,-2.451761615413953876e+00,2.349987429284762008e+00
1.376357613882904118e+00,5.168939111135294473e-01,2.227147330859255536e+00,-2.234416461977588142e+00
-1.339585582429243749e+00,-4.410894923132708811e-01,-2.129763176012445580e+00,2.143230864245881051e+00
-9.806171506007815841e-01,-4.157342385105426974e-01,-1.580445549018997475e+00,1.657460395888905369e+00
9.887330976655687165e-01,2.748848510552713287e-01,1.493211130181312019e+00,-1.536447593939967327e+00
-4.170774669854321881e-01,-1.190887951399678540e-01,-7.893495962737123728e-01,6.633254315998123873e-01
1.459865877851060256e+00,4.531435272542850834e-01,2.346781885567808423e+00,-2.258831055880113681e+00
-9.262379273603486007e-01,-2.990594847315097837e-01,-1.609400680790621152e+00,1.510447635045586434e+00
1.783109970409065548e-01,4.394459669769981702e-02,2.542914598678353566e-01,-1.749166530236384853e-01
-6.152110113372605271e-01,-2.186725474008130721e-01,-1.044485259562527135e+00,1.053283987760938123e+00
9.068418772726835608e-02,6.988912824896477416e-02,1.698062204568122346e-01,-1.425478174644100871e-01
-1.024937753187192824e+00,-3.449217395156344845e-01,-1.654351483734382233e+00,1.528120886466192818e+00
1.006902486449956058e+00,3.797501689196779995e-01,1.580733272164403846e+00,-1.597276570439596144e+00
1.342088506711945683e+00,3.780526979769509022e-01,2.130432215648477623e+00,-2.084632312798760267e+00
8.980064247903909447e-01,2.183299782813047374e-01,1.293942033982605100e+00,-1.297442029014628684e+00
-1.328063541966961303e+00,-4.065223669070460177e-01,-2.091008308443113251e+00,1.948602418531966585e+00
1.335326984931733296e+00,3.998339866740645565e-01,2.093884548661113509e+00,-2.003333449471499605e+00
1.136188181882952897e+00,3.538839125004883401e-01,1.780928840809390845e+00,-1.855084396005491909e+00
1.463561498040224507e+00,4.679994892420731301e-01,2.207437427115739315e+00,-2.233370123766486248e+00
9.902112883134402133e-02,1.135842685479634961e-02,2.061383911790841683e-01,-1.746359041697781167e-01
-1.444749387263947193e+00,-4.819751293518145796e-01,-2.288660684581449001e+00,2.247193373604991606e+00
-2.482430429692131513e-01,-1.482920039324413242e-01,-4.255268091804476072e-01,4.176470130166818895e-01
8.473220688062845785e-01,2.308747073517224413e-01,1.332540854389373086e+00,-1.336459153549106160e+00
9.413821069673456998e-01,2.760922404241851202e-01,1.464559024420138078e+00,-1.385443280382756770e+00
-1.604672916628147705e+00,-5.128918793613336247e-01,-2.547585997558185156e+00,2.407897505419104522e+00
1.585549267415892416e+00,5.084837181289260100e-01,2.466415931148513874e+00,-2.437995800647992262e+00
1.277885392659500630e+00,3.199396291231555445e-01,2.003511985103522353e+00,-1.938557238091945134e+00
-5.408591858605159564e-01,-1.954534739334139459e-01,-8.562009024419819925e-01,8.012291730264959888e-01
-1.485581813410408403e+00,-4.255153167393624369e-01,-2.278454096218533564e+00,2.334972425839199506e+00
9.516337791774345245e-01,3.375384844872720280e-01,1.526372240132893632e+00,-1.592158258239061874e+00
1.405500114183125537e-01,1.080214723737964871e-01,2.363539391655563593e-01,-2.182578596672361260e-01
5.823431482908190439e-03,3.754613830532166352e-02,-8.913573774194925858e-02,-4.983185685833435401e-03
1.203224192190086583e+00,4.280992434533714142e-01,2.020466067704923763e+00,-1.901645595090943663e+00
4.032404888420175193e-01,1.394935093899410394e-01,5.075570111107849947e-01,-5.500491940165929128e-01
-1.481395035101479296e-01,-2.653398388861199012e-02,-3.143820804084005993e-01,2.912865865745150051e-01
1.094996081523879283e+00,4.342366682337546746e-01,1.829022783910683847e+00,-1.821670203772118191e+00
8.475295164181207985e-01,2.416734121969962568e-01,1.340850043106847300e+00,-1.304989328690560724e+00
4.852816856843650273e-01,1.986402369477453245e-01,7.385835692035157551e-01,-6.745697460440664983e-01
-6.348868284592484867e-01,-2.517444806773886379e-01,-1.121828430048386727e+00,1.139062356360477146e+00
6.287427678815724619e-01,2.620762291207077710e-01,1.055664933671041528e+00,-1.043981376971465647e+00
-9.324492330482483937e-02,-4.035479017553320752e-02,-1.291096027261958989e-01,1.363661007467569242e-01
-1.163189672760651661e+00,-3.776722475047881167e-01,-1.892041269379003188e+00,1.791845133592367301e+00
9.044438827654398549e-01,3.372004825693872276e-01,1.405888351386479052e+00,-1.399610411463190429e+00
1.512669797222285561e+00,5.259590397143404372e-01,2.254472548668830179e+00,-2.351597200088779704e+00
-1.266324802526650917e+00,-4.180622883307928972e-01,-2.060248716574000216e+00,2.010862512972613203e+00
-5.747608221310401833e-01,-2.157084830898261807e-01,-9.557054039898570386e-01,9.269206020334538332e-01
-4.709997805846173335e-01,-2.166790590731676180e-01,-7.996431487191696386e-01,7.912026742197716400e-01
1.183480030275702477e+00,3.440504685168381815e-01,2.004365996431653585e+00,-1.916693335617559057e+00
7.795144728847493987e-01,2.631408448925788290e-01,1.290857811354415574e+00,-1.285896410535910750e+00
-1.515121439431530881e+00,-4.897500937841983149e-01,-2.398532501988364096e+00,2.390304130881379052e+00
-1.474900819315741130e+00,-5.120707878427159798e-01,-2.430688864165810870e+00,2.364953385272313913e+00
-3.437993119937695075e-01,-1.495667670009856731e-01,-6.703142828118717755e-01,5.960556315610158196e-01
1.011511409590074573e+00,3.552912308596828384e-01,1.494653570833602840e+00,-1.503571506855681861e+00
3.802011473589859275e-02,2.955146063595954012e-02,1.115341266249904734e-01,-8.747992282401324815e-02
8.641880594806995441e-01,2.413798354069402186e-01,1.345398258453260221e+00,-1.392902847616074524e+00
-1.544572548408050805e+00,-5.137936213109789430e-01,-2.520830676757405353e+00,2.442978066478064481e+00
3.880541353009440697e-01,1.716541177064271340e-01,7.272509839021794598e-01,-7.246320247776696366e-01
3.471563721672755731e-01,7.341460938122486291e-02,5.049396297721014948e-01,-5.347591600695503766e-01
1.606297574192202815e-01,1.050023187099190236e-01,2.819749740485906209e-01,-3.315422942591174649e-01
-7.471769393355996991e-01,-2.331236446233939941e-01,-1.218831979187529280e+00,1.193519263890420179e+00
-9.909702310792651847e-01,-3.492182035412471075e-01,-1.541902456592368464e+00,1.513723959604143632e+00
-5.165115705076411823e-01,-1.661757166565843713e-01,-8.075301494357126630e-01,7.830908556859010883e-01
6.445258262821947914e-01,2.461416717078568905e-01,1.128609836103575903e+00,-1.037289803902435414e+00
1.035115100199517801e+00,3.247370652879789099e-01,1.611389506872392241e+00,-1.551979157715253521e+00
7.393943150858890527e-03,-8.448172993337881020e-02,-4.710883187469801919e-02,-3.502470647549957988e-02
1.381455916127760863e+00,4.740970794609416505e-01,2.248711167373904196e+00,-2.179487711563688812e+00
1.408674280389465183e+00,4.677657343181003680e-01,2.185099075182819206e+00,-2.118271121526740686e+00
-8.054432890989766669e-01,-3.053996936688950226e-01,-1.326116740476569689e+00,1.307212863747814202e+00
-2.978027449981346386e-01,-1.484491750115159436e-01,-4.960252382485579314e-01,4.773929225156893219e-01
3.328799696756573057e-01,7.711152263625263570e-02,5.047857679067773162e-01,-4.654471106815804560e-01
5.054326372342076157e-01,1.948649978955005746e-01,7.430501234631482488e-01,-7.786869979488216797e-01
3.652973906650151537e-01,1.841937523064306470e-01,7.210038498940375407e-01,-5.991474703126318246e-01
9.330732998209685380e-01,3.152523142186965388e-01,1.437390077397123767e+00,-1.379317287431314210e+00
6.535635830969798166e-01,2.390600083847276569e-01,1.148988979772223473e+00,-1.110503344795557457e+00
-1.274310020469939797e+00,-4.623142934588186370e-01,-2.119115864764986590e+00,2.079211668453579076e+00
-1.052619464321722167e-02,1.697309282807359099e-02,1.339236274461372105e-02,-2.907599627119907514e-03
1.275175630554109096e+00,3.605652188943721526e-01,2.076553449494423109e+00,-2.096315676787762428e+00
-1.529839619064029099e+00,-5.131244065483756556e-01,-2.434079416987015243e+00,2.375569663149632582e+00
6.848079298210898447e-01,2.056274969424849441e-01,8.980470327369227679e-01,-9.757162381771218307e-01
-1.559919416555675342e+00,-4.744804884331232375e-01,-2.414639470697434565e+00,2.333540074026517530e+00
-1.179296717488598767e-01,-1.341153629095734878e-01,-3.284215493457508517e-01,3.084529509574064354e-01
-1.476229715156404776e+00,-4.876057841073171972e-01,-2.315805884300702555e+00,2.332565702541158803e+00
-1.195086682288184710e+00,-4.141378920458766433e-01,-1.889652482707856462e+00,1.800122451044283922e+00
-1.424433478028351852e+00,-4.330970344210149925e-01,-2.214800739627022175e+00,2.207927174823320904e+00
1.165379827789038147e+00,3.585134896096597301e-01,1.735013190307766795e+00,-1.675462757254833068e+00
6.860149938082253929e-01,2.266823379662188387e-01,1.038875615063619362e+00,-9.772454927020982618e-01
-2.025467271991351903e-01,-8.572965586376718461e-02,-3.167010167133597065e-01,3.351273129159051400e-01
1.563148690192519785e+00,4.756777557283699553e-01,2.494488580263989341e+00,-2.409905668986298100e+00
-7.914296206935984568e-01,-1.963856404396778221e-01,-1.191810252028426387e+00,1.191748662983049822e+00
-1.237525522528900579e+00,-3.931000388835801385e-01,-1.965225044627097795e+00,1.958765887689646767e+00
-1.464665706870797335e+00,-4.476545218492529732e-01,-2.124660420790116966e+00,2.208076744985138617e+00
-2.225056194381238531e-03,4.142654194700722686e-02,-5.470324590478085197e-02,4.732225239924357091e-02
9.127659124859760498e-01,2.678990970318310683e-01,1.384259608957566057e+00,-1.375668778785683388e+00
-1.113705179658504019e+00,-4.298994794246116524e-01,-1.846405189554327864e+00,1.760613563596475473e+00
-1.003014873168807997e+00,-3.098410359234815004e-01,-1.607701914473008031e+00,1.566067199310250180e+00
4.532864793393637792e-01,8.773464024989185983e-02,6.619747689797709223e-01,-6.585671536597548226e-01
-3.913675618497977071e-01,-5.649919569643878370e-02,-5.199217024999246428e-01,5.317985648014420530e-01
1.005970446202952617e+00,3.302546099245916023e-01,1.691849384634333875e+00,-1.693556771142787909e+00
-1.261153419170658596e+00,-4.322917848763041526e-01,-2.022380128092693852e+00,2.008131048057283152e+00
1.326069962398134905e+00,3.577097433456466469e-01,2.049332893044109927e+00,-2.074415222064228015e+00
1.538635668695333747e+00,5.202481053523444476e-01,2.425738104109952609e+00,-2.502543395669457826e+00
2.133320345764782022e-01,1.027891220917349635e-01,5.390142750578512665e-01,-4.529248677810260304e-01
-1.394773349504927928e+00,-4.699783769108726306e-01,-2.218743374512913480e+00,2.220434787115977304e+00
-1.280493511372919668e+00,-3.684985800940797640e-01,-1.994596449246473391e+00,1.948817783371495915e+00
5.375856908082090602e-01,1.193374965485888700e-01,8.571111741361051584e-01,-8.192224296312180520e-01
1.292212876616392059e+00,4.917959296528998103e-01,2.187009840179117592e+00,-2.139508577041104420e+00
2.784219754722242479e-01,2.396066049500937198e-02,4.782960148838422132e-01,-3.967635437150680566e-01
2.384171536600221131e-01,1.791045348767462270e-02,3.081369345434016305e-01,-2.941462205775669525e-01
-4.838540136968574878e-02,8.434717693434659299e-04,-5.125036051955841193e-02,8.824362848994875275e-02
-1.553053873493402293e+00,-4.615525663014329871e-01,-2.413871859734317837e+00,2.389345574817925755e+00
1.479016259969394564e+00,5.186391099514440217e-01,2.360755877152900251e+00,-2.398607895452317340e+00
8.120598785838738509e-01,3.019472266335757049e-01,1.224072823847891289e+00,-1.290404372377747855e+00
-1.125793321353147469e+00,-3.878815117922645994e-01,-1.705022194384577361e+00,1.642885937326306722e+00
-1.594407437585902532e+00,-4.618218909349923185e-01,-2.537446093615686404e+00,2.458559442869603373e+00
-7.664299592990134746e-01,-2.520717861892756706e-01,-1.247567752227134230e+00,1.252426615255586961e+00
-3.149951137322827832e-01,-5.074768590193879519e-02,-4.164546012589198098e-01,4.435792948166505378e-01
-1.103276329937453948e+00,-3.263801254337188040e-01,-1.731816944574076311e+00,1.752996345949669577e+00
4.802003344178188415e-01,1.181105451308905735e-01,8.550120059919122939e-01,-8.512502720329893080e-01
6.900625298053473244e-01,2.339193088555816813e-01,1.112864064220157934e+00,-1.092308672968095529e+00
-1.057675074838597462e+00,-4.441989392853007423e-01,-1.732664999252301996e+00,1.663410290590998653e+00
3.887162949157178526e-01,1.663120073810044619e-01,6.300837413609275961e-01,-6.009873875072309080e-01
-7.060573119553771315e-01,-2.601372992750011215e-01,-1.133098483958980385e+00,1.132496903179663672e+00
-1.122940728695096979e+00,-3.314732931495164570e-01,-1.728672315700411133e+00,1.696122945762773337e+00
-4.738726174420688358e-03,1.956316479947951825e-02,1.590604807703831225e-01,-1.245776849137387732e-01
-1.452452384726343526e+00,-4.257846202213151354e-01,-2.271144543056278664e+00,2.287754809867329264e+00
-4.500607925734748105e-01,-1.231284374819551358e-01,-6.847788921976002419e-01,7.262449771591207304e-01
-1.454461953624253345e+00,-4.879535830191709667e-01,-2.357790364819526197e+00,2.338665925129556289e+00
-1.924665184662192052e-01,-2.782536048411825627e-02,-3.810869318410560758e-01,3.980940145348197956e-01
-8.867304907204088815e-01,-3.197406222742198434e-01,-1.346839673021803963e+00,1.359363845954339567e+00
9.619946198486308830e-01,3.446145864385111723e-01,1.558266343263744247e+00,-1.469045010416611063e+00
-1.433179130183584560e+00,-4.770182717409784945e-01,-2.267402229397050828e+00,2.380708146929833902e+00
-1.099344524389906930e+00,-3.257654680587601104e-01,-1.716012934894998843e+00,1.696661371910837435e+00
1.140723475791399100e+00,3.698278054221529332e-01,1.891683236582646144e+00,-1.879021212255837403e+00
-2.742594958133129368e-01,-1.050716305844320575e-01,-4.023271421075384491e-01,4.946548979607134355e-01
1.226624852977632019e+00,3.413984687229817405e-01,1.984603467859686887e+00,-1.874539484678770407e+00
-1.435636284275251029e+00,-4.853221572702997033e-01,-2.262307100468923249e+00,2.260521092356289063e+00
-4.185351497344086957e-01,-1.757066695067121542e-01,-6.549298010839363915e-01,7.036358826326152283e-01
7.894739974861270104e-01,2.768704941846137912e-01,1.331411831545461055e+00,-1.285677383741280266e+00
6.048108251051182993e-01,1.855092517244734673e-01,9.687127863829534391e-01,-8.951334269553296030e-01
3.871349278768156377e-01,1.249227383741881858e-01,4.878310106312718775e-01,-5.530701105200176437e-01
-9.324460070537238243e-01,-3.799208333995410247e-01,-1.461653845586900147e+00,1.600808131003449430e+00
1.264913178847917319e+00,4.069995493318136481e-01,2.126961134702818335e+00,-2.157643621939716372e+00
-8.623457112406572866e-01,-2.713749744930836760e-01,-1.353091786566843036e+00,1.317543250257246168e+00
4.124301521476285148e-01,1.430768825827407054e-01,6.611359076635813237e-01,-7.237836521003395696e-01
4.758617887519955847e-01,1.438747329234089378e-01,6.375932182977079865e-01,-6.762510324987852650e-01
-7.108741667334560477e-01,-2.509763950131402854e-01,-1.100417392902377278e+00,1.188774196510044678e+00
-8.166778138127522846e-01,-2.305675621836230649e-01,-1.407208990103762103e+00,1.477688504058232377e+00
-8.092009067793380916e-01,-3.312773493189750118e-01,-1.282105056819913047e+00,1.322879690710572209e+00
9.555339674987750609e-01,3.303453501528136327e-01,1.433633277146665330e+00,-1.449916462629368352e+00
-1.076107554533431765e+00,-3.855138195913797583e-01,-1.890455983409426555e+00,1.855145840237676147e+00
1.426980432157937684e-01,2.707199819613705094e-02,2.430547632718504381e-01,-3.324068321498644951e-01
1.410696314490839987e+00,4.962038584325089707e-01,2.332537421479417006e+00,-2.201721503836822080e+00
5.355642246467581802e-02,4.913850989888547682e-02,3.144453553153064851e-02,-9.924081025808863255e-02
-1.486830281365886686e+00,-5.478376432719019862e-01,-2.294134206267656850e+00,2.259116505377080752e+00
1.001910565670214748e+00,3.499446049714850515e-01,1.521712467753508768e+00,-1.546971620454258067e+00
-1.735205325601254511e-01,-1.181343458661269618e-03,-3.325179352712432368e-01,3.172826863433364508e-01
1.853790314101461945e-01,3.161044402702367553e-03,2.572579166086660374e-01,-2.064273447045645860e-01
1.487054468638996818e+00,5.325144256963497691e-01,2.423095800309682080e+00,-2.441987582136972978e+00
1.229224924460119217e+00,3.978340040897290208e-01,1.922664899825503149e+00,-1.966526260832465844e+00
-8.341041075144880468e-01,-2.892244563620526843e-01,-1.289118180986851270e+00,1.330978766265814128e+00
-1.040712693274979950e+00,-4.723916330062585267e-01,-1.704970670662764531e+00,1.692714247005329575e+00
-4.952014272636360848e-01,-1.704988377973315206e-01,-6.730660748300961727e-01,7.064214828379100641e-01
1.128091511772342681e+00,4.488196606993210547e-01,1.892163464682340202e+00,-1.862267483426729209e+00
2.977368956690127355e-01,9.311124192143956091e-02,4.226251667473938656e-01,-4.134374050597491856e-01
4.553633278500188175e-01,2.031746347845204415e-01,7.255330841656557617e-01,-8.383238736580620465e-01
2.199477139165253170e-01,5.794035253390207585e-02,4.576602546741955213e-01,-5.014683696821562453e-01
9.718546380615216140e-01,3.146449865312243022e-01,1.516106016275435175e+00,-1.512829286519997263e+00
-7.235938892189970328e-01,-2.711760730034978306e-01,-1.044542442931303494e+00,1.006540244956512176e+00
5.384318710441572398e-01,1.989665504813913355e-01,8.423514814125671046e-01,-8.508766286242652743e-01
6.085560856936646223e-02,4.489276314401781896e-03,1.926590446847310512e-01,-1.521272762408241164e-01
-1.016971039057663062e-01,-8.732374133700532282e-02,-2.350377842056831923e-01,3.136389861263730316e-01
1.527809802648022020e+00,5.405765695868423037e-01,2.478003664690701768e+00,-2.418802862903167483e+00
-1.206818455780411803e+00,-4.015723388191025367e-01,-1.923392512566199919e+00,1.856562719179928767e+00
-3.999384475206936296e-01,-5.616075304155421222e-02,-4.179020920471820388e-01,4.457861649462891984e-01
1.526318001320728035e+00,4.882821286714560394e-01,2.343397633676179925e+00,-2.336540886635999570e+00
1.692213897206537310e-01,1.022235062667058575e-01,3.678467956055875288e-01,-3.121985738744015304e-01
-1.517453615413084878e+00,-4.393703680379907328e-01,-2.337568474026584298e+00,2.295951853824810485e+00
5.923274631284916047e-01,1.589012599334780895e-01,9.331625572603119423e-01,-8.855135575585285634e-01
6.981241041614761889e-01,2.590282829470971770e-01,1.050907987817372824e+00,-1.009663165315279665e+00
-5.090377165878644528e-01,-2.106729778896400396e-01,-8.171293274164092013e-01,8.038966416588553265e-01
3.557677730561976115e-01,1.666513383833618800e-01,5.661348350289695519e-01,-5.718157167554159814e-01
-5.174862734515212059e-01,-8.254839768777787190e-02,-7.630778801328950145e-01,8.458135834335183123e-01
-1.124766611138734662e+00,-3.955947665096994914e-01,-1.685710366272423544e+00,1.679196113145683844e+00
-1.244466164401547115e+00,-3.647162323143505192e-01,-2.084072494365558637e+00,2.072163986617320042e+00
1.471762517701218353e+00,3.829388286955618947e-01,2.321101879904323706e+00,-2.247235478845539536e+00
4.908207252000549442e-02,-2.019705083418850064e-02,3.106344010954282045e-02,-1.241805338419973009e-01
9.814835192628876270e-02,4.107017177834279553e-02,1.597513982766236018e-01,-2.164324219085120848e-01
-1.154663446473481958e+00,-3.508718035301649496e-01,-1.863830198264659455e+00,1.766718732543541170e+00
-1.224279876877257811e+00,-4.026641714458544241e-01,-1.973073144683443525e+00,2.049211156789729316e+00
-5.296513013636822143e-01,-1.025257418971516066e-01,-7.905724262680493553e-01,8.107363547008340499e-01
-9.889179885751496757e-01,-3.694657733071236017e-01,-1.520796686243885754e+00,1.544082393172831580e+00
-6.768471188439799668e-01,-2.185980033307854675e-01,-1.169398119516599888e+00,1.095893646327371629e+00
-6.409424795392174024e-02,-3.955852665145064700e-02,-1.522701247134614355e-01,1.970456532702651309e-01
-1.127363061087735430e+00,-3.619316728866169841e-01,-1.793004552732591517e+00,1.841719233030038705e+00
1.005754130287589199e+00,3.445744417961580375e-01,1.547602124239706889e+00,-1.563878827184141507e+00
9.817251511358051630e-01,2.642949292233509606e-01,1.564700161329664052e+00,-1.512719741581519894e+00
7.308257072999028159e-01,3.056226011502424234e-01,1.161251898354187961e+00,-1.206546331784271064e+00
5.044947694204574562e-01,1.866392186279902665e-01,7.500948374070157687e-01,-7.602133793862018152e-01
-1.146468431954018596e-01,-5.242549735279397258e-03,-1.042333621904912577e-01,1.505642518097527406e-04
3.065432292910493794e-01,8.216625128227401931e-02,3.715729004544822134e-01,-5.119716294756869734e-01
-7.203717758565707507e-01,-1.977965844824391972e-01,-1.058032294435434562e+00,1.029020368651367034e+00
-1.506732871320263900e+00,-5.172935916457557237e-01,-2.372022901466535494e+00,2.322780643628012953e+00
4.035671433619805737e-02,-2.684163608412220431e-02,2.013233277893437811e-02,-6.515044318774894372e-02
3.719850797479281046e-01,1.022795157983657638e-01,4.986954581686233734e-01,-5.110229199591851401e-01
-1.117681253675300024e+00,-3.737128584499446737e-01,-1.736872188154116037e+00,1.729643161536577267e+00
-4.152626239335447389e-01,-1.533508462032041608e-01,-6.542808711002849886e-01,6.261508859786071302e-01
-9.468197622498557564e-01,-2.657982911831878181e-01,-1.465938345311342150e+00,1.363961585327407633e+00
-1.178995694615600831e+00,-3.663706688769561293e-01,-1.884329437466897295e+00,1.853935205933307406e+00
-2.717616584766536780e-01,-1.909814285549952806e-01,-4.484925403256093679e-01,5.191379477081945470e-01
-9.036065868376300658e-01,-3.333473430828590156e-01,-1.473675441813347087e+00,1.431647348279830645e+00
-4.862792594122437584e-01,-1.489153548132577665e-01,-7.783807589484006417e-01,7.226533148407517926e-01
2.465814036625044448e-01,4.004381339165876547e-02,4.431077821054398846e-01,-4.042820222005458208e-01
-2.397975231860644540e-01,-7.533045736120602687e-02,-3.983807123925023896e-01,3.617825094486638582e-01
9.376377456450949444e-01,3.172164016912487616e-01,1.663932530716267122e+00,-1.671023503293360468e+00
-2.131153824979880040e-01,-1.409173598679170358e-01,-3.170606345496804201e-01,3.317474646966450114e-01
6.046197103076161872e-01,2.089220939224272211e-01,9.932631428893911041e-01,-9.325689959214991109e-01
-1.409098423643654063e-01,-3.382434553979558889e-02,-2.354745218494425085e-01,2.064108317398182790e-01
-1.268853271467724975e+00,-3.509054752213086603e-01,-1.917144760665604464e+00,1.809695714142334211e+00
-1.084220252852222455e+00,-4.236353160905066417e-01,-1.754062996030521182e+00,1.687022936115563976e+00
-1.496293355761024291e+00,-4.477115176607944780e-01,-2.362389455261586502e+00,2.327489516179564344e+00
-7.771278527138997250e-01,-2.859994184834652176e-01,-1.316124418814968333e+00,1.257442188988048937e+00
-1.403421952830457675e+00,-4.498558569915124816e-01,-2.281056730047757775e+00,2.191392722910959101e+00
-7.754310039587059000e-01,-1.668946354053767733e-01,-1.226516244199196803e+00,1.146285672989393323e+00
-1.036872312234411009e+00,-2.695428846690018365e-01,-1.648774112648828227e+00,1.600024711831168123e+00
-6.885883658471605440e-01,-2.822759962200646622e-01,-1.027381182284864192e+00,1.085124591808088734e+00
6.965279119047232403e-02,7.374527975572427174e-02,4.743448100109572824e-02,-5.293349573825947146e-02
1.175861950289525393e-01,8.045937062737637535e-02,2.593660906326194504e-01,-2.068695178812424151e-01
-9.902042199608405149e-01,-3.054049724387864484e-01,-1.492860971422290239e+00,1.463755167784793310e+00
-1.237134153568491657e+00,-4.231968412675693458e-01,-1.869656368241538136e+00,1.902427372682345963e+00
3.003943617975267655e-01,1.530699706008958050e-01,5.584134859476418411e-01,-5.450411055042813091e-01
9.763600942106489544e-01,4.124681435381772343e-01,1.546325936460194894e+00,-1.559434170173946477e+00
-7.918148035166351351e-01,-1.869675946229841790e-01,-1.307760619955043779e+00,1.267528229590175082e+00
4.911764958954458749e-01,1.456285532120151771e-01,7.010100506286045530e-01,-6.806719847175979332e-01
5.865264811156548630e-01,1.534406699938949403e-01,9.507894572453127191e-01,-8.708216332933295112e-01
-1.182470412873903642e+00,-3.952755345149146504e-01,-1.892765355978069941e+00,1.830081040537163695e+00
-6.465110795069898275e-01,-2.622535336784365123e-01,-8.769213167604981152e-01,9.579854078958084385e-01
9.948119688602644062e-02,8.724693694651928805e-04,6.667533911186160345e-02,-1.156737628162941706e-01
6.852610968708878758e-01,2.103094565768522939e-01,1.020801024153788816e+00,-1.016230570621112772e+00
8.998442287915068283e-01,3.172142523908583756e-01,1.512304602190432279e+00,-1.514665311699015637e+00
5.404035694223138231e-01,1.932553230375990971e-01,8.680528206518509649e-01,-8.322176834953238789e-01
1.027987731359506274e+00,3.047902162930104519e-01,1.618708930661901801e+00,-1.689509114423616287e+00
5.956298795761512110e-01,2.228145006050782917e-01,8.012452286366834597e-01,-7.164763338037420937e-01
-1.047710685083608428e+00,-3.440254381219718383e-01,-1.580257156909627536e+00,1.634770478821741202e+00
-1.534907471368153420e+00,-5.253308098368488777e-01,-2.372538418328819176e+00,2.348176867086713138e+00
-1.431991902968569874e-01,-1.781236639148626177e-01,-4.084905321304038717e-01,4.320680341946120384e-01
1.178102813204699562e+00,2.785209553185282183e-01,1.787959800344778305e+00,-1.689833587445819019e+00
-1.746936728741775302e-01,-1.039178362928232374e-01,-2.050080960124126273e-01,3.167082629951857298e-01
-6.125041441508111140e-01,-1.330509228100431041e-01,-1.021630766503344612e+00,9.923607715100428717e-01
-1.073519779583437472e+00,-2.917790081905437538e-01,-1.592266932837315352e+00,1.588474695789921176e+00
4.463307462786119117e-01,1.698385057334042825e-01,7.673480816560662721e-01,-7.668098267558940417e-01
1.537967183720848063e-01,9.103879462183241122e-02,1.276857037947891071e-01,-1.472556923894402514e-01
9.930371993405375797e-01,3.831290642554504022e-01,1.532868181537628605e+00,-1.559515548289220899e+00
-1.246125558209874695e+00,-3.393584558314622357e-01,-1.854612466311568841e+00,1.801405851676405767e+00
-1.137368883873219882e+00,-3.187109200199551018e-01,-1.702536583231655687e+00,1.728100934651776388e+00
-5.798289369380698055e-01,-1.585160617225314095e-01,-7.603170567003610936e-01,7.828467468181672384e-01
6.390502918290027479e-01,1.852424400825009310e-01,1.020809641590773920e+00,-1.054109932233074032e+00
-1.106545217583077445e+00,-3.364807158771693230e-01,-1.785734645721442915e+00,1.761082064874784248e+00
-7.691095820312396913e-01,-2.619243147399056282e-01,-1.175088064637547891e+00,1.181717036100528695e+00
-1.107211231840116161e+00,-3.704064558097108772e-01,-1.768777574094151372e+00,1.796841950810085020e+00
8.781355338844377689e-01,2.595366183401549010e-01,1.331642160783977680e+00,-1.272588333112155246e+00
1.007820065600586901e+00,3.481600313025150495e-01,1.689183912627865158e+00,-1.642734727522539240e+00
-7.598293141264659267e-01,-2.507732441921973199e-01,-1.373852726217941633e+00,1.260887302071987293e+00
-3.370507016012230794e-01,-9.266002670062467583e-02,-4.973452388663998081e-01,4.496313013375069501e-01
-5.978539540608233116e-01,-2.279421649956660800e-01,-1.039381940416148620e+00,9.852724255757099314e-01
6.957604508620688355e-01,2.191441330873703242e-01,1.067787734751059592e+00,-1.109142161553293926e+00
5.122130990793662964e-01,1.267482661669359911e-01,7.960403166575483747e-01,-7.316087670190567493e-01
-1.362547693620539624e+00,-4.771406966977933539e-01,-2.182557780514882584e+00,2.185642817801249027e+00
-1.489910872766878169e+00,-4.951737808519864337e-01,-2.335249731580400834e+00,2.432751023708170202e+00
1.339067809275697352e+00,4.587666769328313521e-01,2.107416320133329357e+00,-2.077093715536284524e+00
-6.829260122575470104e-01,-2.244883015103808777e-01,-1.106375665907363581e+00,1.028259252318128203e+00
1.158407031851384217e-01,5.433665678054148268e-02,1.029640888400934345e-01,-1.115445480871343764e-01
6.296340881143922541e-01,2.485961772210102394e-01,1.074549581140679555e+00,-1.029584168747423201e+00
9.196556749144390031e-01,2.752788225957615298e-01,1.390207560635612793e+00,-1.431708436250870964e+00
-3.609905639527745402e-02,-5.263467593314440085e-02,-1.149324177103863420e-01,2.079323989709716269e-01
-6.484654839559542139e-02,-6.278575902665806119e-02,-1.245565270148141085e-01,1.257329289020834295e-01
-9.439682690254814768e-01,-3.160847673698698457e-01,-1.407233970264788026e+00,1.374917401620646462e+00
4.781010631984766168e-01,1.217843507024687355e-01,6.995296941570270377e-01,-6.787844671920152395e-01
-9.454931411589554413e-01,-3.079390275489520823e-01,-1.487326770485328131e+00,1.444109130045113210e+00
1.441856102987322252e+00,3.967270260635792356e-01,2.175886799817730033e+00,-2.133442424884630206e+00
-1.225503619567181179e-01,-4.320224178479573074e-02,-2.656965178237329916e-01,3.000416311855412244e-01
-5.071985839352886050e-01,-1.963923004665403815e-01,-7.356906018639420841e-01,7.799635942269701472e-01
-2.900438123038882043e-01,-1.072177511696136842e-01,-5.419934044971885800e-01,5.383032762842169250e-01
-1.104866673827389567e+00,-3.570835221647238877e-01,-1.876117869326398013e+00,1.811815631611301658e+00
-1.518055942020066773e+00,-4.845568466064030244e-01,-2.315504802733728607e+00,2.312222580624945234e+00
-6.989123175107859742e-01,-2.285049154830709472e-01,-9.448763646352456025e-01,9.329734892261289936e-01
-1.137789944419385968e+00,-3.500454008835267028e-01,-1.670951338652068241e+00,1.719486439052717364e+00
5.430896913528365788e-01,8.858590516493247691e-02,8.504263440111515804e-01,-9.424353562327805189e-01
1.456532445080055860e+00,4.863012567947792575e-01,2.177445541412184493e+00,-2.160218611210214412e+00
-1.080295059146854308e+00,-3.867432497306368400e-01,-1.597665167000742903e+00,1.664545336454448909e+00
-2.061168745247961842e-01,-2.135823312027849280e-02,-3.400670524895677560e-01,3.075939457881244343e-01
-2.210927306995412456e-01,-9.292147593868227418e-02,-3.507374547200732828e-01,2.876221211095968400e-01
-2.279898020027501526e-01,-1.642617818243075622e-01,-4.325336308758914727e-01,3.744183113919077321e-01
-1.419868191464911833e+00,-3.548763618997047842e-01,-2.203570718862435385e+00,2.255169921876400529e+00
-9.160016141463382944e-01,-2.647753515974012317e-01,-1.416480254013321671e+00,1.389763557018905082e+00
