-8.717012637598183789e-01,6.970551919492530279e-01,-1.172219285027890967e+00,1.652378835276229863e+00
-7.907292193822776927e-01,6.541512880613009617e-01,-9.451768600155352473e-01,1.340714006430621552e+00
1.066270524303776890e+00,-9.258137540299993251e-01,1.481785558537503267e+00,-1.985927159597396630e+00
-1.524418070840822370e+00,1.263950384077907385e+00,-2.033455869640865554e+00,2.830498504921486358e+00
-2.558948781198073369e-03,-5.687353874070758680e-02,1.916038250870881199e-01,-1.791554503886840233e-01
-8.749714037386757681e-02,4.219818930160963016e-02,-1.433248004299601253e-01,7.861348762689823744e-02
-1.080747923353781337e+00,9.185044714360918183e-01,-1.461486697946567270e+00,1.977069570397070875e+00
1.294991790398304365e-01,-1.865475258840206541e-01,1.278662216372284943e-01,-2.394244817628118638e-01
1.037036747326108843e+00,-8.163390812492382631e-01,1.356535422287570514e+00,-1.925337721770992383e+00
-1.127848553011838062e+00,9.786694187812078338e-01,-1.501318002718129208e+00,2.049470920267321361e+00
-2.280186747240659506e-01,1.980403034337430423e-01,-3.546611320532300216e-01,5.462426030410432176e-01
6.064844859178220027e-01,-5.026242721813716230e-01,7.516468603891144351e-01,-1.072736373723249592e+00
5.054124163278854720e-01,-4.160607436375463042e-01,6.917199747538864685e-01,-9.161578462710718851e-01
1.568739091405241537e-01,-1.356497149378244893e-01,2.620418367851781727e-01,-2.895843961008651712e-01
5.879228649925963834e-01,-4.859151670316963489e-01,8.354794570342944926e-01,-1.109763116891113510e+00
-8.486462884276502194e-01,6.957219746518604753e-01,-1.137378184858705454e+00,1.624890280444949209e+00
-8.693380016969559643e-01,7.324684924365040262e-01,-1.179245152143308051e+00,1.614953207235097610e+00
1.027801887202190567e+00,-8.695105828794069680e-01,1.338279530498514669e+00,-1.919987559311895575e+00
1.433787520591088827e+00,-1.166583578126933807e+00,1.914202892401914102e+00,-2.720200228014904908e+00
-9.124593879761435655e-01,6.955400798967862341e-01,-1.135700062661893384e+00,1.744993148143637374e+00
4.317495192635890655e-01,-4.247038679882690348e-01,5.615431853208222579e-01,-8.398389676657003200e-01
-3.410564637225853568e-01,3.266919712458490888e-01,-4.835639438718489780e-01,7.174405255328866193e-01
6.587062427535366194e-01,-5.615033942217630969e-01,1.035384784794994850e+00,-1.464436294862295984e+00
-8.224759697659449476e-01,5.733358333764512205e-01,-9.382780609204276479e-01,1.343681256451438877e+00
1.182457670367965008e+00,-1.032918344420546974e+00,1.604573796464768387e+00,-2.284292895778513355e+00
4.306606177970415117e-02,-1.810339082254430743e-02,-5.704104652022750493e-02,6.496932125521180657e-03
1.326675923603596541e+00,-1.114791171623431776e+00,1.798443955415234941e+00,-2.356209453764715800e+00
-1.851919874818079570e-01,6.505072516878475375e-02,-1.652619086136696835e-01,2.917263969244948130e-01
1.370749930728340837e+00,-1.112487600994291448e+00,1.837065621467902199e+00,-2.449724536648089757e+00
-1.407064781647778817e+00,1.253152721668589820e+00,-1.861842704271269522e+00,2.716614654860499911e+00
-1.068063773264890104e+00,8.350358728800160169e-01,-1.365827686421784870e+00,1.920500732578193315e+00
-8.417428379626482604e-01,6.820855265267271594e-01,-1.092334963503503564e+00,1.526691332483187447e+00
3.544525257320388367e-01,-2.204977472061540045e-01,5.156752137549800441e-01,-7.309312344721635712e-01
-1.250165296640919577e+00,1.107074774263638428e+00,-1.687932595522354973e+00,2.350733675671954792e+00
-7.235429579283442214e-01,6.836957277960445944e-01,-1.002046903254962151e+00,1.433523649078533468e+00
-8.208605176686585292e-01,6.094573495129308460e-01,-1.080712008113327682e+00,1.479982502223429863e+00
2.752450090306293728e-01,-2.401679464775526018e-01,4.092018726995278466e-01,-6.014150627578997987e-01
1.152545183769867254e+00,-9.778482296025281517e-01,1.541223432815784555e+00,-2.147224557747999363e+00
-7.037590547930832052e-01,5.864820235891552436e-01,-1.065893518668115325e+00,1.425329088286564794e+00
3.336884626720982849e-01,-2.407749100461251401e-01,4.814409684035282355e-01,-7.015772637649451138e-01
-2.823557671227766228e-02,7.399037470371137848e-02,-1.623212698406816534e-01,2.067712665215689360e-01
-2.833003906533129376e-02,5.227177728768602621e-02,-8.403726702278860317e-02,1.214872995080779200e-01
-1.061976951705521754e+00,8.867660084129056486e-01,-1.395095399035285677e+00,1.950296821374036371e+00
2.443857464998522855e-01,-8.235954859324513821e-02,2.992414803863262529e-01,-2.827189733361989421e-01
-1.147598620881072007e+00,9.166072840789916132e-01,-1.504349531502844561e+00,2.091261450812327727e+00
1.442797190480295200e+00,-1.244215590992251430e+00,2.009019249184433864e+00,-2.867431720731902001e+00
9.488159439756980174e-01,-7.686204228936546201e-01,1.338031879284069969e+00,-1.791740749882093198e+00
-6.219035049407929394e-01,5.361532644763505884e-01,-8.764573161843303151e-01,1.084485186783338939e+00
1.311500727250895615e+00,-1.075842558264110682e+00,1.662310163821993703e+00,-2.361093460507769581e+00
6.270847160929807762e-01,-5.789372962854745230e-01,7.949570148095692623e-01,-1.220343796990518648e+00
6.887615364240744498e-01,-6.154580795868324072e-01,9.380674695980963929e-01,-1.327556499696291858e+00
4.013962387402753573e-01,-2.678242955913200940e-01,5.920247441555550605e-01,-7.618501976016728294e-01
1.376739530702703274e+00,-1.250029908984448657e+00,1.797867685462024356e+00,-2.669707965673695504e+00
1.606618298390942501e+00,-1.284984871198329603e+00,2.039488936526606455e+00,-2.916296852607701773e+00
7.006050337291009900e-01,-6.098695866833191426e-01,8.924618479017257799e-01,-1.253427718915466560e+00
-1.523183539069772885e-01,5.992044013337042424e-02,-1.464343474188304906e-01,2.722406976478569107e-01
2.834938362813043677e-01,-1.674257598013091097e-01,2.958629158660376901e-01,-4.072178538536139203e-01
7.743054634765724753e-01,-5.893594528051029346e-01,1.079839954905676080e+00,-1.476213834783881795e+00
2.013258731770987617e-02,-7.871914164272607317e-02,7.820700471428384051e-04,-1.342562908724616033e-01
1.167079461363949439e-01,-3.161169275181685296e-03,1.321898162150006717e-01,-1.134170795492320943e-01
-1.124993218781733972e+00,9.267565685260855668e-01,-1.556421652978812853e+00,2.127544607185085646e+00
-1.244860074436948016e+00,9.685950545737456174e-01,-1.599495038668447888e+00,2.281285848042504671e+00
6.727134428030041580e-01,-5.644463772224979081e-01,9.764316069107928930e-01,-1.277702779122477983e+00
6.384833845842130540e-01,-6.054928749004105937e-01,9.501136580942556309e-01,-1.233043074508888504e+00
1.473376994021864617e+00,-1.142420118117171368e+00,1.899468349992563088e+00,-2.610144837215099045e+00
1.420027348039416104e+00,-1.219024686339073238e+00,1.999197565603113791e+00,-2.688559803361198597e+00
6.735159641758676763e-01,-5.109558147409098972e-01,7.615729801171063906e-01,-1.202077872651301949e+00
8.596381812087681151e-01,-7.196366386035895069e-01,1.069896224521581951e+00,-1.635569645034820940e+00
1.188389944346590399e+00,-1.054479344053991685e+00,1.598814119899400144e+00,-2.156787897687247213e+00
-2.323462639310085176e-01,1.348643054629944105e-01,-2.207391922913131965e-01,3.175944854990437327e-01
-7.261453256803814815e-01,6.426724106235028877e-01,-9.501345620905730094e-01,1.286166397319292720e+00
-1.436445316944247041e+00,1.198117137927904752e+00,-1.879087200399910396e+00,2.652261795508789266e+00
1.338797295758375361e+00,-1.113459789863675775e+00,1.768666922072853920e+00,-2.573327902843951964e+00
-2.291850865386054481e-01,1.953826122682952304e-01,-4.436223675990969562e-01,5.509190859087609304e-01
-2.575486117336863723e-01,2.320604450513054084e-01,-3.810032642193692531e-01,5.242790082088879533e-01
8.980941394796480015e-01,-7.745792604372210288e-01,1.295691233925146957e+00,-1.665875351247606551e+00
-6.534372177759960598e-01,4.818791347179621209e-01,-8.172649912297729191e-01,1.197161231883228760e+00
-9.068976492384703825e-01,7.199746497219572383e-01,-1.236722553659303614e+00,1.789889363911659981e+00
4.596800716452622004e-01,-3.042775872791370628e-01,6.333006513602816856e-01,-9.802611976264316018e-01
1.444174854256326412e+00,-1.289037091962065951e+00,1.929081491276532612e+00,-2.840771071310610019e+00
-2.583449600715778116e-01,2.439611633557487169e-01,-3.813542698294198341e-01,5.147186625493306300e-01
5.404935060404333358e-01,-3.988171638271596486e-01,7.319022731101918477e-01,-1.012231278103422394e+00
1.513285955579464881e+00,-1.262786729331951907e+00,2.039575405827866561e+00,-2.819535848650877252e+00
2.206689834334815137e-01,-1.346960099843888814e-01,2.653850144230393004e-01,-4.331890825882677154e-01
9.923232300600620670e-02,-1.178809565497918599e-01,1.696310295335484997e-01,-1.615063313596986627e-01
-1.331165084461382708e+00,1.106206900247907132e+00,-1.819014197652595755e+00,2.515167255522182899e+00
-7.742972153971189320e-01,6.425415626037657146e-01,-9.669016305661173316e-01,1.417194263770475970e+00
1.233892174814035458e+00,-9.954685823336962835e-01,1.542194538774933177e+00,-2.237622840902377952e+00
-9.533066599189709001e-01,8.306104443094785017e-01,-1.315065692212513682e+00,1.880887590549701116e+00
3.098955543044401573e-01,-2.699435111595251957e-01,3.502857324278195184e-01,-5.934570406132947396e-01
-7.833762950461204966e-01,6.334457632445822384e-01,-1.080943573912465316e+00,1.462817581209039597e+00
2.371292192823519773e-01,-2.180610843261092113e-01,4.008320544002897390e-01,-5.265479791827385458e-01
2.940565340196574784e-01,-2.453800674593692166e-01,3.495192938001638328e-01,-6.031738744472110447e-01
-1.533999960644618188e+00,1.361263764851735614e+00,-2.007201924084805800e+00,2.942345433098834118e+00
1.287524869517622905e+00,-1.053563474118020427e+00,1.693782022270333032e+00,-2.493941087676128987e+00
-1.144952066775920985e+00,8.381816949957382468e-01,-1.405147254011413605e+00,2.050736609596071958e+00
-3.451480355443267700e-01,2.448259809661688380e-01,-4.533845354277704631e-01,6.668374902038436414e-01
-6.809880212901382457e-01,4.759067920343551528e-01,-8.170079970275822001e-01,1.138109380530968107e+00
-1.165304175473526049e+00,9.006813775802082755e-01,-1.420172667655087428e+00,2.137327136827680274e+00
6.043698434902868843e-01,-5.578998420856652318e-01,8.313411176200230512e-01,-1.051264154139278206e+00
1.553247633789971216e+00,-1.295815044161348073e+00,2.166512197614161028e+00,-3.021437664009882340e+00
1.136005958186322662e+00,-1.016721676087180226e+00,1.507462364352894824e+00,-2.186694648158949761e+00
1.553144887876878766e+00,-1.294524415107908721e+00,2.146938851179468255e+00,-2.969336597589523397e+00
-2.927264292536516446e-02,-1.006579499564576839e-02,-7.623440892166173655e-02,1.346893194669505633e-01
7.650969971473521591e-02,-1.107695154118440023e-01,1.606907998254554770e-01,-2.516994558326029474e-01
-1.145043560482622569e+00,1.030323243107485354e+00,-1.555500445640738638e+00,2.184740946445801413e+00
5.464747610774254305e-01,-3.615187159157818297e-01,6.589730788991220445e-01,-9.127949338150872505e-01
1.495627956553813753e+00,-1.205481582333401969e+00,1.866515906567462801e+00,-2.756406260740868142e+00
7.293872574629929328e-01,-6.705244099918736822e-01,1.039554079940959275e+00,-1.307489038976547446e+00
7.951117735772316175e-01,-5.589312291946897382e-01,9.626301802093901738e-01,-1.374022762059038394e+00
8.178913269409419096e-01,-7.446127976834741036e-01,1.173310630182365033e+00,-1.703449413332713380e+00
-6.453137192082034623e-01,4.953526504175278511e-01,-8.323015455087098280e-01,1.179835822130399503e+00
7.056664645295895877e-01,-6.372575406153063726e-01,1.081995014567911140e+00,-1.464324678162205462e+00
1.231328205825850564e+00,-1.115309112364928357e+00,1.713334225186327275e+00,-2.363496750817819514e+00
-1.151611648987956649e+00,9.815670999825419907e-01,-1.557939038990447722e+00,2.082555051547006819e+00
4.659691747684188146e-01,-3.819318084759089071e-01,5.245575943403548713e-01,-8.518078175643480909e-01
1.524956810822066355e+00,-1.294473413200851963e+00,1.968957254041190819e+00,-2.787096105146595448e+00
-9.554432173764711989e-01,8.895231376889665142e-01,-1.278128978522307779e+00,1.744067088934984966e+00
-7.200389459285694294e-01,6.145209952609563819e-01,-8.226577118281713785e-01,1.180692338804830266e+00
-1.519336514466628485e-01,6.627080394063464275e-02,-1.336593404697117293e-01,2.168619649858452014e-01
-1.060556917813092026e+00,8.534588477155655717e-01,-1.390172455363189785e+00,1.882733764851212133e+00
-1.228858575129418318e+00,1.102414955036128852e+00,-1.611596694443044431e+00,2.218004194912511995e+00
-3.438346508461770368e-01,2.505636848443121845e-01,-3.793332463681420852e-01,6.319023148604249185e-01
4.942925291802033327e-01,-3.789787205035700657e-01,7.296244420324566882e-01,-1.064256952494929909e+00
-1.440649543470444716e+00,1.187854010816848493e+00,-1.950315824572608436e+00,2.729559610678036652e+00
-1.555628911059088626e+00,1.235023214726095331e+00,-2.022848562060583610e+00,2.855107529569015590e+00
8.226850088912301961e-01,-6.997000157814344812e-01,1.172695644035446350e+00,-1.701969325835805735e+00
5.880059074238671579e-01,-5.976146739228642701e-01,7.413104961988993269e-01,-1.119023664934919893e+00
9.286235506210352986e-01,-8.785763960406919315e-01,1.358922718981644406e+00,-1.824396748191760675e+00
6.472136174437700396e-01,-5.971191423820899624e-01,9.073825245765939629e-01,-1.322933200122075936e+00
6.830377934662597295e-02,-1.057733824343475796e-03,7.444114497459733415e-02,-1.234444636049826377e-01
2.523116264134740439e-01,-2.790555117584406219e-01,3.689067409718500556e-01,-5.786493058363966213e-01
-1.506671402777719049e+00,1.332783658431111018e+00,-1.990668886564148421e+00,2.660127073072265258e+00
-1.608377221430361548e+00,1.332405378044889677e+00,-2.059303140494885831e+00,2.866013263742850370e+00
3.192252621681344604e-01,-2.424692955639163039e-01,4.396461433277101261e-01,-6.480903824776704791e-01
1.334498327137561668e+00,-1.064787162946969179e+00,1.742530963747980000e+00,-2.474781024182630240e+00
-1.028747205213728977e+00,9.308205637992233994e-01,-1.331970998043597199e+00,2.023155199889146605e+00
-1.546570668021873596e+00,1.296522091665787135e+00,-2.105353274179288192e+00,2.897386222165303504e+00
1.032588806616017818e+00,-9.092464548021297333e-01,1.536492050876975490e+00,-2.057581001480469407e+00
1.780274585513629548e-01,-8.372451171768349742e-02,1.627868052400055776e-01,-2.148437559774852568e-01
1.555679012843074416e+00,-1.406201745477720255e+00,2.090875462705471755e+00,-2.819913694558167094e+00
2.144537805074190652e-03,-1.829465860897734608e-02,1.960054117742100407e-02,-7.594065001360404688e-02
-5.804003425460908527e-01,4.894900978198537533e-01,-7.719862406169061275e-01,1.076082837554594773e+00
-4.007982209402942697e-01,4.428463541024950656e-01,-6.070015662229070186e-01,8.201553148399854942e-01
1.200116278055007424e+00,-1.001886357667382654e+00,1.697636981012455637e+00,-2.311326183665574518e+00
2.482118696462582708e-01,-1.799098060512829833e-01,2.771872062540469694e-01,-3.038888454289319641e-01
-4.499079546136918184e-01,3.429631438741878036e-01,-6.499111367524362803e-01,8.042426101983858322e-01
-1.917744886631147783e-01,9.227737107678692097e-02,-2.395558677682186055e-01,2.676406840934228981e-01
-3.361241850689497546e-01,2.818287073474685100e-01,-6.035100273297491213e-01,6.570855376668991443e-01
-7.064010237406795345e-02,4.794232170818950832e-03,6.180364810215678226e-03,3.439008111107363930e-02
-3.505420608510493863e-01,2.802994294369755557e-01,-4.585920256956313446e-01,7.269986192836784822e-01
-7.035200710307849548e-01,6.485893480577835657e-01,-1.013619841913288244e+00,1.394500512907932865e+00
-6.776676659686381443e-01,5.764289364525244652e-01,-8.540255353599935928e-01,1.282821902430643535e+00
6.350187716439185115e-01,-5.285499777889620665e-01,8.444387306854043151e-01,-1.192665940951407766e+00
1.083638334632827327e+00,-1.048099425332878809e+00,1.578109279485468974e+00,-2.210791205975371820e+00
-2.745793726895749964e-01,2.209706739199396863e-01,-2.884543430239437378e-01,4.550147549361679422e-01
-6.765507541783949419e-01,6.266406194721321210e-01,-9.708056422033548571e-01,1.309398657167125446e+00
1.453574605577464984e+00,-1.136896075285384722e+00,1.808168407769330743e+00,-2.489969016660176226e+00
1.046061500667293753e+00,-8.568940070358963546e-01,1.402036755429506565e+00,-2.001790904895971224e+00
-3.443352160431210063e-01,3.191922077334054531e-01,-4.322419977562576565e-01,6.802161976311256186e-01
5.623972565370092269e-01,-4.968147722837183977e-01,7.610189637588523626e-01,-1.078956704428083890e+00
-7.513793589515079807e-01,6.249173665025090640e-01,-9.107382235262582171e-01,1.315675107785703402e+00
2.627620903184148538e-01,-2.180799520846407602e-01,3.100431875596110221e-01,-4.760880382495776830e-01
-1.043577957559390423e+00,7.882007220343228981e-01,-1.321636976688814302e+00,1.992723142085023325e+00
-2.551059646626626098e-01,2.338910103540866037e-01,-4.053649781896458415e-01,5.195680666959939797e-01
1.552804448707540752e+00,-1.287805874014600116e+00,2.144083892557600457e+00,-2.861696309985286568e+00
-2.465729233018335298e-01,1.499340478273208099e-01,-3.944763742728356615e-01,5.411708201196328005e-01
-2.977146177148172757e-01,2.439887621543566920e-01,-3.943669647380422805e-01,5.027020480295263383e-01
1.329794597814593970e+00,-1.079884246935853609e+00,1.665833998309869113e+00,-2.398045034068161829e+00
7.726541647992347661e-01,-7.286655497653252711e-01,1.067247899009541756e+00,-1.413670011383261871e+00
-7.060960232566089179e-01,6.067680109514551612e-01,-9.448849188305566971e-01,1.287691412930752177e+00
-9.427195311679629208e-01,8.207178348880116436e-01,-1.253120289964779088e+00,1.852752303275599699e+00
1.012747961612584652e-01,-5.580369136957327725e-02,1.323209840711553897e-01,-5.652207168315222935e-02
-7.498071651510566094e-01,6.066736048921914648e-01,-9.918148751512988470e-01,1.394355044392782572e+00
4.139793919199437067e-01,-3.775055429810765806e-01,6.130221377318096909e-01,-8.176419142670510176e-01
2.531077664477837108e-01,-1.755753573092682096e-01,1.695572243102646814e-01,-4.374825355027884277e-01
1.366831942865379013e+00,-1.139440886562027133e+00,1.747136365801380320e+00,-2.547411800286438321e+00
-8.496929361477435494e-01,7.205413145493934080e-01,-1.020015991744902761e+00,1.402184103884168698e+00
-1.459063636905970851e+00,1.140272892141096950e+00,-1.976391068950021035e+00,2.754533271122316496e+00
5.458236943113962125e-01,-4.904982404064698320e-01,7.597856497479902327e-01,-9.789211028788737945e-01
1.111473199833069136e+00,-8.688914062021888540e-01,1.389694647137306394e+00,-1.897535399138213785e+00
-1.537336520177530641e+00,1.325297878336340718e+00,-2.122173113979585413e+00,2.941240955849547145e+00
3.666178046115484146e-01,-2.851480804740971764e-01,3.956479470442154645e-01,-6.759469155411024222e-01
1.469039324228283760e+00,-1.085798578895128985e+00,1.853361357373398244e+00,-2.643202650455994007e+00
-1.442120647906682818e-01,7.479654711529529210e-02,-1.403164293078734970e-01,2.299770216307097104e-01
1.330741036715163528e+00,-1.073618914652623157e+00,1.685099276991652406e+00,-2.323605916485258938e+00
1.131458406484295853e+00,-1.003901303580550408e+00,1.604864212280427083e+00,-2.172827215255395128e+00
7.538354916013673135e-01,-6.701343323676679509e-01,1.002603038575083927e+00,-1.423747974250372472e+00
-8.226854372181391373e-01,6.833232317782518273e-01,-1.132579167541875265e+00,1.542380407810193921e+00
-1.386166614131904229e+00,1.156063975562576784e+00,-1.858364091975492238e+00,2.592945634890977846e+00
-1.376079359546337422e+00,1.134950574614702612e+00,-1.838532959927149601e+00,2.620248979475372941e+00
8.942701970596826921e-01,-7.513097862558995033e-01,1.237713837681379658e+00,-1.714926150225902113e+00
1.244611958520481121e+00,-1.029160572514965732e+00,1.635410972217464343e+00,-2.379071565204964323e+00
-1.133974861764973419e+00,9.501411076855609261e-01,-1.363273723584651931e+00,2.031448372528052104e+00
8.409630295473860540e-02,-9.240846283815806750e-02,1.841279953332271291e-01,-1.970352846601670649e-01
-5.124896723991086978e-01,4.747486939174495602e-01,-6.404893382015166559e-01,1.073675392503714798e+00
-3.092441410830925053e-01,2.425435853131043817e-01,-3.474116296223308531e-01,5.397992676521221611e-01
-9.124098536644668078e-01,7.366771212961031878e-01,-1.187476080881089802e+00,1.755651809393098395e+00
1.213843356584465072e+00,-9.364690947898798301e-01,1.497403386648880952e+00,-2.120449896951651869e+00
-9.378678471615672363e-01,8.002869294926425736e-01,-1.292168019865685080e+00,1.862951813848077398e+00
1.597482434916795979e+00,-1.366544894975531665e+00,2.170535438998487887e+00,-2.928082700839506280e+00
-2.055587138041908291e-01,1.842339410945244838e-01,-2.817577228142786883e-01,4.785635817833465699e-01
7.142220164945086713e-01,-6.032989235267335326e-01,9.198087519280414570e-01,-1.242708029973100592e+00
-1.311876215230573406e+00,1.053481714170700911e+00,-1.568626311746610380e+00,2.275321565326466011e+00
-2.478867201514376728e-01,1.555975655575629613e-01,-3.754334222362182838e-01,4.341660090511738068e-01
2.223608548660755968e-01,-2.527328091827326650e-01,3.597779286582892255e-01,-4.532674729924427992e-01
-2.530269463611300451e-01,2.074220748007873649e-01,-3.146178587080780686e-01,4.966029944946012131e-01
-1.600564622601828635e+00,1.279144663347100197e+00,-1.999905050550303987e+00,2.843878284167554948e+00
-6.189792248152657939e-01,5.128674600488735136e-01,-7.733317044503550397e-01,1.124691062941792552e+00
1.351006616064599264e+00,-1.066057220554074592e+00,1.678972763548052693e+00,-2.439662030352891975e+00
-5.967920192291406023e-01,4.812794377123622569e-01,-8.001802981338753673e-01,1.219572740691313495e+00
-1.593592571728740692e+00,1.326180910490157405e+00,-2.007342138056922298e+00,2.926807224858272605e+00
-6.950318099986700915e-01,5.069840527488267412e-01,-8.838510822602984041e-01,1.330853190196845670e+00
5.094133834244236603e-01,-4.095952324284622414e-01,5.948686267633774838e-01,-9.227024811361803636e-01
1.261858104715572360e+00,-9.861654731285961484e-01,1.635323998315566740e+00,-2.199107591866115374e+00
-1.708523630137584459e-02,-4.560497538030935938e-02,1.172265498110711263e-01,-8.817992199324821423e-02
5.543271385248346173e-01,-5.602955918638103938e-01,8.181729884375641415e-01,-1.018193554637879084e+00
-5.921793493544218467e-01,5.313493484573375003e-01,-8.058104755748946024e-01,1.174046164980862006e+00
1.190012795140953150e+00,-9.427446254699650696e-01,1.410885221038737258e+00,-2.083194072797114771e+00
-5.730156038697474807e-01,4.637860353900171151e-01,-6.523538940894165750e-01,8.922292658599577653e-01
-3.979359087610517820e-01,4.214873138919402740e-01,-5.535901620361020070e-01,8.766179238147878694e-01
6.060710246616932695e-01,-5.143223760400702504e-01,7.470866074575209792e-01,-1.129739426165262683e+00
-2.765712297211700421e-02,5.368813454731388712e-02,-8.839216035200926636e-02,9.970101210652647372e-02
2.577433957187410529e-01,-2.003321612077638703e-01,3.461531176600619597e-01,-5.604869154850717905e-01
-6.159058627461942992e-01,5.100453649815751556e-01,-7.916861134674998413e-01,1.217627111234693915e+00
4.748159561064546619e-01,-3.878548199248041950e-01,5.655429532904089340e-01,-8.757586603728908514e-01
9.770211577111441448e-02,-1.864442102094815423e-02,9.195940817934865341e-02,-9.512478153955314375e-02
-7.150239532144633259e-01,5.868285746378584244e-01,-9.060498907673226743e-01,1.339413901505700943e+00
1.478541295989097781e+00,-1.244582330445362262e+00,1.983074827394734507e+00,-2.896423680473857676e+00
2.058623347539622478e-02,-9.376525154376817717e-02,9.754070017497330769e-02,-1.208074584895048181e-01
-1.140695566939686767e+00,9.563318883027311923e-01,-1.529791988258358604e+00,2.042583131508220795e+00
8.635436175817983173e-01,-7.644919123338509426e-01,1.159654053153905684e+00,-1.632032880746816073e+00
-6.058656784763286618e-01,4.304783216206717333e-01,-7.877807671816594581e-01,1.113726600985391890e+00
3.822489407586299737e-01,-2.705621566221522722e-01,5.542500797422486025e-01,-7.049298105312002960e-01
-3.286576094431224032e-02,1.158140387853469604e-03,2.409134052325759973e-02,-1.805973494981598371e-02
-1.521728753598674322e+00,1.244642463480274630e+00,-2.008923302845814884e+00,2.851366043429875319e+00
3.942892854282785686e-01,-2.939999005817839905e-01,5.282924290668038481e-01,-7.662742139827727339e-01
-3.926081887515672775e-01,3.048805384748711766e-01,-4.970495585635692493e-01,6.944565322115906492e-01
1.051631263364592117e+00,-8.855676322820726920e-01,1.436214671485185557e+00,-1.956121911321491380e+00
-2.839501920605910779e-01,2.457349313986903483e-01,-3.530661696434077568e-01,3.637284568365957704e-01
4.452642513229626564e-01,-3.806472490079798043e-01,6.427617536936262033e-01,-6.868909696215343974e-01
-1.574462666062215410e+00,1.324374437513773373e+00,-2.116713594626971950e+00,2.906606479937487997e+00
1.142428151221870497e-01,-9.344956463789326137e-03,5.065524961595083836e-02,-6.911724375040829982e-02
7.176186763326011242e-01,-6.510512154036921517e-01,1.087584280129703318e+00,-1.327305087969461894e+00
1.283072966126324876e-01,-6.950977520201059856e-02,1.260944360652234975e-01,-1.635613363373869533e-01
-1.048086181645634385e+00,8.698361889265326941e-01,-1.470077923933566399e+00,2.070838716815323721e+00
-1.115752397988819311e+00,8.582222939676504847e-01,-1.480720152762592834e+00,2.082309479200512126e+00
-3.014668635605965985e-01,3.115516646190602534e-01,-4.720495159147576891e-01,6.813980394418350794e-01
-9.533080144030132708e-01,7.312966125401855200e-01,-1.217668347787734362e+00,1.754607140882800786e+00
-4.106720215164815224e-01,2.705351544105107364e-01,-4.932595875470076607e-01,7.069916574030067347e-01
-1.448092287961050051e+00,1.160864735711077955e+00,-1.863757103348906874e+00,2.640302761169002643e+00
-4.477334986916488568e-01,3.316337485401087970e-01,-5.603367439961504104e-01,7.776045723183711011e-01
-1.095996749764001965e+00,1.099702443883631808e+00,-1.560929232412195722e+00,2.133814797554547837e+00
7.320749168678434282e-01,-6.266523461014517071e-01,1.071956660520129834e+00,-1.476074155356073225e+00
8.577656262606229154e-01,-6.962624639471935994e-01,1.177589364247363823e+00,-1.602011620455564556e+00
-1.056890759026151740e-02,-2.369732964710199313e-02,7.701086874247363434e-02,-5.431928563188970216e-02
-5.790292242283823221e-01,4.455942560087291504e-01,-6.372349832639162548e-01,9.872797387235333622e-01
-9.155513643822675851e-01,7.155420831016542360e-01,-1.217833739983434471e+00,1.653022247559794877e+00
1.051327553522677150e+00,-8.923155471425936458e-01,1.388104436855493784e+00,-1.880137472170230195e+00
7.365992341584362002e-01,-6.371136263909504827e-01,9.704539948428868579e-01,-1.341150019328036569e+00
1.736683239351395347e-01,-1.761184797451217643e-01,3.234934558865589782e-01,-4.991410616212134110e-01
1.072283022251326212e+00,-9.725218193723511595e-01,1.458991828548199088e+00,-2.009432759614331765e+00
-1.078238175323018799e+00,8.942824900883217243e-01,-1.374181863368121759e+00,1.967630390410614272e+00
-2.213858165121592933e-02,5.111656799644834909e-02,-9.636254855978061695e-02,9.281257862038304329e-02
-1.252493583863575566e+00,1.014942622083926604e+00,-1.619956934233510060e+00,2.250621762998477493e+00
3.431806549090080094e-01,-1.764911243972433486e-01,3.947587577505534684e-01,-5.656878537065420653e-01
-4.600060380369098700e-01,3.706433100549354487e-01,-5.536525916765023814e-01,9.610842875439838950e-01
-4.572980051708590565e-01,3.929016075447188117e-01,-6.097283753792407390e-01,8.006416052516687198e-01
1.101573305006800840e+00,-8.819757807885135747e-01,1.395840114450727087e+00,-1.953763912326581531e+00
-6.070226468369687156e-01,3.774227783847384776e-01,-6.782345009563559568e-01,8.796342488969826068e-01
-1.456795854370487753e+00,1.223851964867735731e+00,-2.002298117502383068e+00,2.727129536826570444e+00
-3.339996248985394600e-01,2.966382682048367969e-01,-3.192798724126094667e-01,5.633848682503561633e-01
3.995577336680986025e-01,-2.770043933405409442e-01,5.106087402643301187e-01,-6.820094846566954194e-01
-2.823127539756566384e-01,3.519315107942632692e-01,-4.942255898025093019e-01,7.453777261484576533e-01
-4.468250182208829413e-01,4.529056174760017206e-01,-7.008792884016231683e-01,9.109235497941531312e-01
9.670951044121405271e-01,-8.106317694299971510e-01,1.246761184884789708e+00,-1.759370771661399768e+00
-4.740353130315836938e-01,3.748228450993366101e-01,-5.926681039217250868e-01,8.686203424420034791e-01
4.034791527143492540e-01,-3.775299738305788466e-01,5.969679831532019865e-01,-8.682808264827022171e-01
9.569391318646217059e-02,-4.463208302603157568e-02,2.182351718821633757e-01,-2.352643961024456221e-01
4.366635416760166200e-01,-3.393849718906928326e-01,5.324440901849402108e-01,-7.539006852309829698e-01
1.276714485108312758e+00,-1.098367816399258068e+00,1.704645946169983217e+00,-2.445071999414512476e+00
-4.513963376617457501e-01,2.773170104655509061e-01,-5.702596317069000831e-01,8.495293464317710264e-01
-1.545835719249115003e+00,1.352859885734808199e+00,-2.141059724176753054e+00,2.981514327398433917e+00
1.091412694995576249e+00,-9.105488989581470571e-01,1.403157000939062815e+00,-2.000053739635742733e+00
-2.728770557756971527e-01,2.471042671343735564e-01,-4.010104708834734688e-01,5.801411770534405932e-01
-1.252925055123762732e+00,9.689980398794357797e-01,-1.638205751390258813e+00,2.217451890979253548e+00
-7.615177040904946848e-01,5.355905947500337883e-01,-1.001220114657316085e+00,1.392855430761319901e+00
5.631586562903369009e-01,-4.439015421169802411e-01,7.236164422748557756e-01,-1.000659027435302884e+00
-1.517393253039666545e+00,1.239027600208171265e+00,-1.987555067894571481e+00,2.818631639573914160e+00
3.113304881007522007e-01,-2.718052862769094191e-01,5.002009816437007483e-01,-7.472265711812053901e-01
-2.871117977976485047e-01,2.784428378018466987e-01,-3.166134406098675691e-01,4.777034852397749054e-01
-1.586360703401541006e+00,1.340762472495033997e+00,-2.108749780666008267e+00,2.861409081934495280e+00
-4.972940454470758387e-01,5.004894547804414895e-01,-7.400945985919062942e-01,9.417975153616466866e-01
-7.524727797497140491e-01,5.488032909927673675e-01,-9.267248941227989034e-01,1.353167961416468223e+00
1.466070273632225973e+00,-1.168955760942413713e+00,2.010965083017121735e+00,-2.761796828134051029e+00
-6.320176383421338695e-01,5.504139025880182556e-01,-8.373543883997228710e-01,1.186475949158718235e+00
-3.771668114439446495e-01,2.748906530691108130e-01,-4.418956438156331767e-01,6.102603514833789822e-01
-6.115866224696797637e-01,5.154091525361976789e-01,-9.286593713099959846e-01,1.289229417835746627e+00
1.001048526178354825e+00,-8.257463408190871546e-01,1.383066479747810718e+00,-1.856597782848412370e+00
-6.497867818043958632e-01,5.589285801031371737e-01,-8.362345711211947030e-01,1.108273430850775787e+00
-1.334293407982929391e+00,1.018085377454491791e+00,-1.672697559886821450e+00,2.387433832619295426e+00
8.238311900475554506e-01,-6.573972587398659861e-01,1.084191819927591949e+00,-1.482071353140423486e+00
-5.391165863600210217e-01,5.076641458843564880e-01,-8.130764018150744565e-01,9.578055352564666114e-01
-1.074951274970752796e-02,-5.349065134274735497e-03,-1.712365996673703358e-02,-1.709691388315078345e-02
-6.650653461477694650e-01,5.998926851693190399e-01,-9.266410177944831572e-01,1.340609628930036212e+00
-2.058688341837177083e-01,9.041178418979485543e-02,-2.579580711057803954e-01,2.648219428082740357e-01
-1.055944261075341339e+00,9.854872591417062067e-01,-1.461201391390885451e+00,2.203710114505148532e+00
5.213094412586452009e-01,-4.178211530267152973e-01,5.982573659254374343e-01,-8.272189900164299559e-01
7.756995771459188616e-01,-6.531198021130457665e-01,9.943172504366245557e-01,-1.426301439768944634e+00
8.377389610795364927e-01,-7.687035575281199185e-01,1.210666824188160406e+00,-1.619167495506723009e+00
-1.252906111707361714e-01,2.400034719713507736e-02,-5.490374829192384842e-02,1.241152089235620370e-01
5.552517698391794265e-02,-1.088058883996118192e-01,3.501146331699098863e-02,-2.124148386918185138e-01
-8.951365734052204592e-01,7.850196982172874538e-01,-1.191710578015244160e+00,1.627002760154931060e+00
-1.078290699186719825e+00,9.115294034721778127e-01,-1.447763306708296227e+00,2.045453112198100776e+00
8.381842145717174897e-02,-5.355322695771209257e-02,4.827567226365898218e-02,-4.343476186927043570e-02
1.148109635641266113e+00,-9.831326345234842057e-01,1.547864612277880525e+00,-2.201473202355687775e+00
-6.624811854929461008e-01,6.120664656151499905e-01,-1.001484718109929561e+00,1.393081200507272133e+00
-2.318900738891963575e-01,1.527106507022982784e-01,-3.316868291502285682e-01,4.768661801696330582e-01
-9.906133497130624743e-01,8.418624057376913328e-01,-1.261556726054599009e+00,1.889683061960359067e+00
9.010437038168486179e-01,-7.900129159031326065e-01,1.294646300461383293e+00,-1.834133358631772515e+00
1.518509727989736380e-01,-6.917991210608140373e-02,1.450221687452710184e-01,-2.668975456972726978e-01
-8.179224465717814807e-01,7.175212045197539856e-01,-1.087643280879479590e+00,1.571059078479202231e+00
-2.556266623576310959e-01,1.351649605875185900e-01,-2.374431630170038832e-01,2.862938368763949804e-01
6.775667396852680380e-01,-6.097123451460180199e-01,8.445740760163578109e-01,-1.170669134158636826e+00
-6.985640415040375029e-01,6.730630102124390834e-01,-8.450585736667268755e-01,1.344970137197399218e+00
-1.200692410551409184e+00,9.391957297112448755e-01,-1.629428109922738788e+00,2.268926292860452776e+00
8.748228120800546348e-01,-7.615441235867713710e-01,1.242377595833149329e+00,-1.703557800264330124e+00
-7.958145048833953350e-01,7.345171519686116701e-01,-1.047864678434967445e+00,1.490546457786071199e+00
8.364453671938802959e-01,-6.810320131515976705e-01,1.113787746917459964e+00,-1.538457040432718692e+00
-1.486413016301177059e+00,1.196322908308400601e+00,-1.850446007601964649e+00,2.642880314907813499e+00
-1.594124374434330749e+00,1.318325584497048730e+00,-2.158287966549675918e+00,2.929595075710409446e+00
-2.102074044651162238e-02,3.645880574278313052e-02,-1.099183552045294998e-01,1.971265658859472081e-01
1.038658123584936144e+00,-8.143969290719728082e-01,1.354587291774482560e+00,-1.955816371204966764e+00
-7.364621737691947612e-01,5.413656871267121806e-01,-9.739406189871995245e-01,1.322650119709990468e+00
1.198406866891963185e+00,-9.253263376832325804e-01,1.471592937645183730e+00,-2.141499801332980457e+00
1.271092133719110562e+00,-9.687007837092624918e-01,1.654683666212164228e+00,-2.327737919742011385e+00
-1.158305631065175589e+00,9.974451330661836534e-01,-1.668314816327871153e+00,2.202487598924437240e+00
8.691728069252006028e-01,-8.129851442472917356e-01,1.152913677753806931e+00,-1.611021321814267715e+00
-1.046512672297469221e-01,7.442671708533442343e-02,-6.394762789347346876e-02,1.361677880482001224e-01
-9.692080305592815082e-02,8.123010808362607360e-02,-1.506281424761443943e-01,2.217947432479664138e-01
1.617380420540486030e+00,-1.359753476154227370e+00,2.055890943692728179e+00,-2.991304638231514268e+00
3.719664230156177753e-01,-3.777553329245715852e-01,6.477465738218523006e-01,-8.537284832538073465e-01
-3.361061004168121036e-01,3.960307842257045352e-01,-4.744278743535401688e-01,6.788047834390377178e-01
5.872770796344359834e-01,-5.287333983008579708e-01,8.352501706348895993e-01,-1.239609457035539153e+00
-4.775580508427397231e-01,3.298368289148504440e-01,-5.622731898908734927e-01,8.206340147172755950e-01
1.477273550544845993e+00,-1.260671159526083329e+00,1.881027180687464995e+00,-2.606750226669304560e+00
-6.957929019053907815e-01,5.903212756819014029e-01,-8.420487261686276925e-01,1.213305692894249610e+00
-4.526538844872811107e-01,4.158647513572260590e-01,-6.416877897046687762e-01,8.197288749649713768e-01
4.564911238345702449e-01,-2.598507846677008959e-01,5.256097309205349788e-01,-7.722858083860646428e-01
-5.974396271845137107e-01,4.795485277678112612e-01,-7.790029824539046466e-01,1.074635317814477187e+00
-1.229868728270599565e+00,1.015222943633855790e+00,-1.690205339996949663e+00,2.310608711929267312e+00
1.454362490464063962e-01,-1.573397609287053578e-01,2.644229872806607151e-01,-3.466294270897195551e-01
-4.907178663383054418e-01,3.881453153007378698e-01,-6.309864306532699807e-01,8.242711621323861593e-01
-1.544271448960330195e+00,1.274195518690672158e+00,-1.913216568156064223e+00,2.767640595229827749e+00
-3.786459995251112987e-01,3.176146679945424656e-01,-5.476619301423133468e-01,8.211049167524054893e-01
1.488316936307695793e+00,-1.253178113216524503e+00,1.924609256937364732e+00,-2.694962016177780750e+00
-7.500671797404395713e-01,6.085193815551241947e-01,-9.837350797718956708e-01,1.271419287235887152e+00
-1.390238062845833289e+00,1.279311050919230475e+00,-1.856290186391740704e+00,2.705577089451267181e+00
7.511766783534242764e-01,-6.118877405292604266e-01,9.326291705527685050e-01,-1.319635117603610519e+00
4.045069227859808825e-01,-2.888456036211125011e-01,4.756673967144584569e-01,-7.393107954261981529e-01
3.990172883530868075e-01,-2.574422736627298147e-01,4.858225693154171743e-01,-6.580023945652707651e-01
7.062640736762354488e-01,-6.263162206996722992e-01,8.975702498493981496e-01,-1.279063935116924622e+00
1.109091244943593901e+00,-9.304980838057602677e-01,1.511383152217197878e+00,-2.030148867741904173e+00
3.090539108378446698e-01,-1.442666633376702146e-01,2.908020139688685113e-01,-4.431993032481262307e-01
4.319932338954721729e-01,-4.131398121920214495e-01,5.966959509116501748e-01,-7.881055639485505804e-01
-4.915949978116896935e-01,2.794829216440212205e-01,-4.841643485251622692e-01,7.426941068289165671e-01
1.019438379991678634e+00,-8.370253894051929988e-01,1.300308958312688556e+00,-1.744280217973901648e+00
6.877885028487216168e-01,-6.083907055190798108e-01,9.524211641270406981e-01,-1.355983713514279598e+00
-6.814385082278063832e-01,7.055052959467084106e-01,-1.039544355514879781e+00,1.468969631078326676e+00
4.347458263425065250e-01,-2.948877962876132464e-01,5.935066751915809569e-01,-7.679213250224453668e-01
1.504074966912549716e+00,-1.203837775233828289e+00,2.017439030519585952e+00,-2.791454129585063892e+00
-5.295941646770089273e-01,4.507542343164949172e-01,-6.347398805827538792e-01,9.254503242172504862e-01
1.178126113335898451e+00,-9.853442860210899212e-01,1.508863603138229870e+00,-2.073256670591370199e+00
-6.511024715480264735e-01,4.978884802681646793e-01,-8.041512598461699746e-01,1.179069451633966148e+00
-1.370406476374638638e+00,1.143446647340947697e+00,-1.815147727899383501e+00,2.507741199136064747e+00
-3.686935400784704386e-01,2.656498100234119253e-01,-4.709214885999192246e-01,7.157732617194029201e-01
-1.021831516387289751e+00,8.616788239094158586e-01,-1.345860442841021909e+00,1.849301039737356822e+00
-6.769768065434278448e-02,1.723050466935382649e-02,-1.807517433144001651e-01,2.166298247031644419e-01
1.381174125038414857e+00,-1.173925466065965706e+00,1.790747987577822498e+00,-2.483676747870168455e+00
4.785144669990217259e-01,-4.716243132588109899e-01,6.603233539176851519e-01,-7.949495478566891427e-01
1.080604694673709121e-02,3.445847311040604877e-02,1.505515345987127121e-02,6.183739805014543123e-02
3.062634101399996922e-02,-5.068118237395351222e-02,1.437140189840464821e-01,-1.501885975117647487e-01
-6.696730100233183602e-01,6.785087076055049682e-01,-8.271795256229488302e-01,1.234686508533799021e+00
2.577010787944579162e-01,-1.230492760323671497e-01,2.042417035216161914e-01,-2.708846360762542371e-01
9.312378654550619306e-01,-8.217277888043749146e-01,1.275653908640554501e+00,-1.842722869912389205e+00
-3.508025426237317834e-01,2.068016002521947116e-01,-4.121787314131066249e-01,5.880260196765281222e-01
9.150090224131302019e-01,-7.405363633605969165e-01,1.173505559910526186e+00,-1.602584472272024829e+00
-3.538740186037411806e-01,3.625114956034318769e-01,-4.769414128875500980e-01,6.908824019776255154e-01
1.220575317196732401e+00,-9.402577457417139462e-01,1.672943460749551914e+00,-2.195052565828498725e+00
-1.544574617696166552e+00,1.325225546688071798e+00,-2.120601441949381716e+00,2.970314036315491180e+00
-1.178320940140013207e+00,1.001544108531544852e+00,-1.558031310250400425e+00,2.233643965094926465e+00
8.465903486445824910e-01,-6.896632115734773194e-01,1.109173124516858122e+00,-1.563393859472195224e+00
-6.741526104844119960e-01,6.085989607355837272e-01,-9.100385159978154892e-01,1.324785971934267170e+00
-1.164224159507169176e+00,1.034146583268064523e+00,-1.622202293782429416e+00,2.316385537708357312e+00
-1.429940484760222841e+00,1.165616062288703514e+00,-1.949648454741040871e+00,2.691911240448693565e+00
-1.019434779603555219e+00,8.124099624291458710e-01,-1.382725955721873845e+00,1.937148930808454184e+00
1.369255714773968124e+00,-1.147419801760488189e+00,1.877486924466765794e+00,-2.619117745811395448e+00
1.658370151008720927e-01,-1.326662781745417130e-01,2.111324438199232156e-01,-1.481780327458704083e-01
8.829378814160815381e-01,-7.184062349833597594e-01,1.188160155184574629e+00,-1.690337883414733788e+00
-8.484604997174903795e-01,7.932235543430640190e-01,-1.143947706196493330e+00,1.606646086724158762e+00
8.876255992468559120e-01,-8.446526632661328637e-01,1.275860686147797685e+00,-1.715137624901405866e+00
1.635446315538461315e+00,-1.221494852670457210e+00,2.039942684466307554e+00,-2.859370131064139287e+00
1.361272038092094183e+00,-1.240658205544244108e+00,2.042918227681284282e+00,-2.807174172746167429e+00
-3.617272040277458856e-01,3.839938594172431219e-01,-4.294995724933436398e-01,6.496117069062929961e-01
1.194060124735369044e+00,-1.034649888513469396e+00,1.569340534848815860e+00,-2.169718549048609724e+00
-7.068930628271333783e-01,5.457122915970379351e-01,-9.341007260346014807e-01,1.278749680959314627e+00
-7.284800872281593787e-01,6.697331452693221499e-01,-1.030952910815801316e+00,1.378121987472091581e+00
-3.569374831563064676e-01,3.821795848162332643e-01,-5.602479990359142681e-01,6.953376650125487890e-01
1.249131196237238228e+00,-9.985881101195014375e-01,1.653560318587104616e+00,-2.249238728982684954e+00
1.218891019936534093e-01,-1.379019267985275576e-01,3.085270986164310308e-02,-2.307026279721064166e-01
1.531499992763029061e+00,-1.300517102369246780e+00,2.030301387585997208e+00,-2.871742980202568685e+00
6.140825536786215233e-01,-5.106458732670819956e-01,8.467867146950917023e-01,-1.115239925652025121e+00
1.040362138295991556e+00,-8.491153899490114787e-01,1.282741560332853359e+00,-1.804102623011224260e+00
-6.829585854881038420e-01,6.553850566112853215e-01,-1.006905451306298049e+00,1.285083253508307655e+00
-1.463340213234684883e+00,1.158665478979762353e+00,-1.974483477641652662e+00,2.727008077976194933e+00
1.118843755181614830e+00,-9.443193529124528363e-01,1.511155263674928362e+00,-2.129341896951034041e+00
6.577328181851301858e-01,-4.205235442076555308e-01,8.298734050336643575e-01,-1.195921695210506064e+00
1.396233907908662308e+00,-1.202921118232501474e+00,1.822435021004617628e+00,-2.523459515692745736e+00
-1.273698192503921911e+00,1.056304710566833505e+00,-1.661764725957906919e+00,2.416379524164018466e+00
-1.462200142683388382e+00,1.279951012019822754e+00,-2.048425507935776935e+00,2.842232014327494838e+00
-1.237457689094103808e+00,9.772177629173933733e-01,-1.698237908295502363e+00,2.313434958667520913e+00
4.262489830180393735e-01,-3.843410452013100165e-01,5.771944363905973097e-01,-7.122359282806638436e-01
4.402411177103022211e-01,-4.335562135036904463e-01,7.174209547255803177e-01,-9.679035625706825519e-01
4.512515307312638391e-01,-3.726595308905084614e-01,6.346320812243140264e-01,-8.521073846031500532e-01
-1.464368358354441346e+00,1.242642836583048416e+00,-1.843416490774517191e+00,2.650776698139864163e+00
-1.429190267361133637e+00,1.284118307459749975e+00,-1.945648772613404631e+00,2.740427754669273241e+00
5.347453847796288517e-01,-5.037467503096979549e-01,8.767617455321518039e-01,-1.092868076803928501e+00
9.110004964794709004e-01,-7.610915418437032010e-01,1.176501449870657412e+00,-1.742994672251704236e+00
-1.491752436410355598e+00,1.216685962242985308e+00,-1.863537796452573891e+00,2.811411712148238262e+00
7.858242640888029040e-01,-6.158407696447875113e-01,9.295111730387083382e-01,-1.381166673358801278e+00
-1.055693955698908670e+00,8.635507192754571237e-01,-1.390780801866356331e+00,1.944344581954115414e+00
5.661941607257654496e-01,-4.690256217683383411e-01,8.826048297182509383e-01,-1.157995835248644578e+00
4.286505394153368176e-01,-3.575310781946741123e-01,4.896734534705883268e-01,-8.721100113602860970e-01
1.074662392935867183e+00,-9.007427097359653745e-01,1.417411598789775073e+00,-2.086579443507051934e+00
-1.598758152933496657e+00,1.338970682709075488e+00,-2.041805248082391167e+00,2.871523054323469992e+00
1.086906789017611841e+00,-9.897013530855671704e-01,1.573027871947220824e+00,-2.084813035233962442e+00
1.462683587043439815e+00,-1.250410913447769889e+00,1.949834355065809266e+00,-2.733024858644944821e+00
-3.352882595746111694e-01,2.196008577989729815e-01,-3.479293892318620074e-01,4.617657399084759695e-01
1.205445051708773585e+00,-9.522702704148635622e-01,1.454056854183267911e+00,-2.131279022694565484e+00
1.319231823828332484e+00,-1.136701911186200453e+00,1.750447051827797695e+00,-2.451472781369971266e+00
-1.290816103234240009e+00,1.042817073647379633e+00,-1.593121905337569588e+00,2.277733751694313025e+00
2.752799986762706763e-01,-2.107452901769721887e-01,3.207363957539144383e-01,-4.230723273914413496e-01
7.428358984413402366e-01,-6.633032048612818032e-01,1.047672442761690803e+00,-1.353780375373716760e+00
-1.441966260738041461e+00,1.275963609273865762e+00,-1.849835799242336654e+00,2.671790702968934283e+00
1.066721597064365534e+00,-8.282849365069074876e-01,1.479381112346565885e+00,-2.064856410745597781e+00
1.589609322811467829e+00,-1.222231356306919148e+00,2.023018164535520746e+00,-2.846357064926455571e+00
-1.961843122125178362e-01,1.728369387146577729e-01,-1.836336406364121321e-01,3.981163890111301673e-01
9.612985509995063405e-01,-9.040684113279974232e-01,1.280010099151551062e+00,-1.894762421050455226e+00
1.403350373478179813e+00,-1.216375908475416656e+00,1.935861589989703146e+00,-2.744323086869407735e+00
-5.666111182521078593e-01,4.050644401460828381e-01,-6.258775798241767996e-01,8.800805280753107862e-01
1.377769732003852221e+00,-1.124158455786503419e+00,1.714303555435137127e+00,-2.426986496576277741e+00
-1.335230845021750934e+00,1.118542564100030612e+00,-1.701103713371171056e+00,2.294517324497923561e+00
1.417379367329086648e+00,-1.184824186503341981e+00,1.933893597700120148e+00,-2.812364285194936198e+00
-7.698854318041087330e-01,6.715971012096992876e-01,-1.112518851388714758e+00,1.438286568952307887e+00
-3.827327706721556644e-01,3.244887689728146452e-01,-5.315176198074816893e-01,7.569453584312642036e-01
1.144090318052177535e+00,-9.076013126286524013e-01,1.515437280252075913e+00,-2.162225191169758975e+00
-1.413706470600500364e-01,1.179627721004393587e-01,-1.534951080845790017e-01,1.733483972066348910e-01
-1.873340218770948029e-01,1.116118862164810210e-01,-1.666435058001750624e-01,2.748048773922638355e-01
-1.314350920002658740e-01,1.619800660367625433e-01,-1.963427748139612294e-01,2.810108003780526498e-01
1.026567793548328167e+00,-7.947873438791871470e-01,1.250460774802219399e+00,-1.717559030021848621e+00
-6.293103524673324678e-01,5.247018963208639475e-01,-7.860540955483226178e-01,1.150760793855301500e+00
-1.303947095593088967e+00,1.097850089365485893e+00,-1.769395776084638827e+00,2.479894101312584809e+00
1.130138121078308355e+00,-1.037750434976849379e+00,1.628157056145036252e+00,-2.230342560493003834e+00
-1.458247748663382026e+00,1.172308975519762653e+00,-1.896687868798505594e+00,2.772998247065373345e+00
8.028039168004841297e-01,-7.113364136572208896e-01,1.094147774495525915e+00,-1.493796425722801358e+00
-8.769030759663341001e-01,6.984803705744682123e-01,-1.171932363218188167e+00,1.574628795688854943e+00
9.576706841326402264e-01,-7.748951858723953645e-01,1.262364413112250006e+00,-1.701175115825525497e+00
4.821723610736317056e-01,-5.481702427901726793e-01,7.368116542629163934e-01,-9.971430053077013911e-01
-4.346235509145784937e-01,3.566901538858721077e-01,-5.636517482917493549e-01,8.236892954466982220e-01
8.045009553074410347e-01,-6.367703909162383269e-01,1.056227023988085101e+00,-1.441207510589234131e+00
