6.156968416892809604e-01,-1.750626068809300051e-01,-1.129893155169852337e+00,-1.334248772605160838e+00
-8.216717873074107503e-01,1.888800625570769554e-01,1.518036685693902710e+00,1.698815815484269631e+00
2.015402259404524832e-01,-5.301624394880070056e-03,-3.414797737879262662e-01,-4.057879776141757877e-01
6.635396769654455795e-01,-1.409680811101242381e-01,-1.238860634823554907e+00,-1.414134682786962527e+00
-7.509630281670144347e-01,1.573721567589601855e-01,1.379286936460760060e+00,1.572908944191828917e+00
-5.755952566093760492e-01,7.100276864762442020e-02,1.005519680301965035e+00,1.140545367865343662e+00
9.221228769052323138e-01,-1.488134546384448365e-01,-1.612830165023646956e+00,-1.780137110381111665e+00
-6.614998671321804524e-01,1.076481840363889414e-01,1.195955025946810801e+00,1.370219436916091382e+00
-9.931895534957143612e-01,1.891574149527916471e-01,1.701307347257385194e+00,1.893543129075181186e+00
4.988468740370380350e-01,-8.980690665907309356e-02,-8.900956790978565847e-01,-1.016010754561149421e+00
4.545087514768818004e-01,-1.135975193075480505e-01,-7.391342855380332866e-01,-8.793188724988710847e-01
-2.650529141402288014e-01,4.336395524033787030e-02,5.813128051989744360e-01,6.354665143945156247e-01
6.968027226714343936e-01,-1.528594096168985061e-01,-1.265981897176373439e+00,-1.425993050244051208e+00
-1.410771874800663961e-01,7.366008739706962627e-02,2.270002076325173812e-01,2.609855328924857720e-01
2.543256874470875006e-01,-5.952109876984774256e-02,-5.052545346616201805e-01,-5.374160486828645222e-01
9.178308454660338844e-01,-1.663013050324194664e-01,-1.579378512204841600e+00,-1.802074826874105584e+00
-9.168993547970141211e-01,1.955991515164102190e-01,1.634924675561849172e+00,1.802953100750655402e+00
9.494208328130113728e-01,-2.027117248755125334e-01,-1.719152261497958412e+00,-1.914563666996520030e+00
-4.730897297928753353e-01,1.217406010135087258e-01,7.947258789729854112e-01,8.961894432470580707e-01
2.822415450694880645e-01,-7.603511531808788970e-02,-4.823123329488848698e-01,-5.696467940892322446e-01
-7.290402570512106717e-01,1.775370124259790794e-01,1.261514494647634654e+00,1.441093610213554310e+00
-5.969548198644381021e-01,1.018856607659954921e-01,9.915672958585211028e-01,1.061829663503842447e+00
8.245286715874706740e-01,-1.595852914415308854e-01,-1.415227542932868454e+00,-1.637259692490396601e+00
4.912618464908746208e-01,-8.664997455658592085e-02,-8.523638778590121312e-01,-9.351179616512841353e-01
6.782787594134632725e-01,-1.880595361370253626e-01,-1.193708501292451540e+00,-1.349438722521865142e+00
-3.528877369326837710e-01,8.247966073732189429e-02,5.823058918712152865e-01,6.140323401774245848e-01
8.703482308758371255e-01,-1.553758307992439414e-01,-1.474412355778042416e+00,-1.680922689607257769e+00
4.913328648127747167e-01,-1.297909198083938842e-01,-8.714872275936538237e-01,-1.016621385813427425e+00
-5.965934656486500121e-01,1.200645661891476118e-01,1.069552562464686885e+00,1.215559303282948589e+00
-1.186322748094131574e-01,5.704614142207081739e-02,1.706950175915435408e-01,1.926444459069370507e-01
-6.075965403631691242e-01,1.317817135663513217e-01,9.982107243016328235e-01,1.086676248002368617e+00
7.338545495579519296e-01,-1.367093127509498296e-01,-1.333541686729621478e+00,-1.468628893583974193e+00
1.336846903843774970e-01,-1.040996499991825447e-01,-2.888814710169139710e-01,-3.064684221262264363e-01
5.365075333983441996e-02,1.407736995841596221e-02,2.066519201002460992e-04,-2.917589358790565954e-02
-7.114977501839354623e-01,1.044566462915230559e-01,1.191586803237010717e+00,1.324992729954073356e+00
-3.437485089321980491e-01,6.052857311698014997e-02,6.033670935083796927e-01,6.668356190764644920e-01
7.960208482585929834e-01,-1.819641615520136146e-01,-1.340385011855612651e+00,-1.548038149244333583e+00
8.388545497177982702e-01,-1.941681447562828566e-01,-1.476733733098495094e+00,-1.714948945653799406e+00
-2.101183767233813504e-01,1.343590467374529570e-04,3.170522478092969720e-01,3.599202912891731332e-01
5.321554643993843259e-01,-5.764271023453135245e-02,-9.301643068181221219e-01,-1.100252312164423873e+00
7.365314176081891873e-01,-1.796892677116057324e-01,-1.248598306933970559e+00,-1.436321977128249827e+00
9.550168229166567935e-01,-1.999487203369422483e-01,-1.704469633409128493e+00,-1.883538027775078838e+00
-3.437286162245971055e-01,5.307162391115971545e-02,6.410482232322821661e-01,7.179235187027113163e-01
-7.160528939267531978e-01,1.931774676322201012e-01,1.368282339142876225e+00,1.451384187755159205e+00
4.520286040422200058e-01,-8.960799394586994870e-02,-8.043483701327205360e-01,-8.798258132656036068e-01
7.326009245372850920e-01,-1.743981275145609355e-01,-1.310589970975871488e+00,-1.430895606743159520e+00
1.751758546369356906e-01,-1.061944362564045258e-01,-3.741627214202633001e-01,-4.095219139458487478e-01
-2.135870220138293973e-01,5.442468023733582072e-02,3.432813309002523128e-01,3.534992346779614603e-01
-7.371181546011312813e-01,1.692688755714036042e-01,1.255673966807040243e+00,1.426270708840695400e+00
-7.422359422075911484e-01,1.795233816998464682e-01,1.167129915428901432e+00,1.275120563912015559e+00
-9.601497739044019264e-01,2.077423392382487244e-01,1.658358104327737781e+00,1.887020297606183616e+00
-8.197004164511590973e-01,1.605404428500452341e-01,1.454732067722633859e+00,1.622826280679096511e+00
3.187439294308205273e-01,-3.859405448371486941e-02,-5.532252222920781559e-01,-6.300606131112568287e-01
-6.224902315699820665e-01,1.794023328907968784e-01,1.100049399056516108e+00,1.226059908550052757e+00
-8.890423412605964471e-01,1.894838013886412931e-01,1.575962514469285480e+00,1.730829599982159461e+00
5.905195278167311157e-01,-1.005453968884637006e-01,-1.037988272912828247e+00,-1.129124412300476443e+00
1.005291815294236252e-01,-2.870742308989794600e-02,-2.091153992388515293e-01,-2.726290119756366037e-01
-9.718001810180392219e-01,2.093415330696563881e-01,1.714594736307272882e+00,1.896712708866963970e+00
-2.953561404177015848e-01,6.690870341750275452e-02,5.268960253186503184e-01,5.320874192213871368e-01
6.954725085916807492e-02,-1.742863943679842653e-02,-1.326080304984724734e-01,-7.979894327714663615e-02
3.723197647240149011e-01,-1.026120306122756398e-01,-6.628100161069310214e-01,-7.874632836233262934e-01
9.481220460761047297e-01,-2.422968916032227638e-01,-1.569264747125597825e+00,-1.782525729008103577e+00
-4.923635810721573858e-01,6.531662567604036573e-02,8.562124219447841966e-01,9.322866460503861363e-01
-2.136923912886341814e-01,3.987191861587071479e-02,4.118224061861116558e-01,4.712470827871935164e-01
-1.002459052737446621e-01,2.295363863285622419e-02,1.330544740900324596e-01,1.913550294958132891e-01
4.075133953406903653e-01,-5.567983987114061978e-02,-7.231051453389982786e-01,-8.286643579762617007e-01
9.883763222570518536e-02,-3.935561680139798568e-02,-5.819660839735789348e-02,-1.227129496280274235e-01
8.184516167007614695e-02,-5.594045652059299184e-02,-2.431764463815043742e-01,-1.779678071789552174e-01
-7.984477713755830930e-01,2.083450554681232636e-01,1.488785954370029474e+00,1.677821024206533673e+00
8.441103106271585776e-01,-1.561179548511666404e-01,-1.439162667662090334e+00,-1.578611517907638762e+00
-2.363815009961131031e-01,4.161386739977349786e-02,4.769352945394521592e-01,5.971467753511837673e-01
6.062627810461167499e-01,-8.827014684040514203e-02,-1.079020813826825576e+00,-1.179288683875601373e+00
1.138889638025833984e-01,-1.653200857167384796e-02,-2.468398642296465717e-01,-2.801636831042609299e-01
6.501269259798194700e-01,-1.500104538831374956e-01,-1.199707702619954963e+00,-1.342395050238905485e+00
-1.599043202281022827e-02,2.595898437418548907e-02,4.622595904818968537e-02,9.507456455686745522e-02
8.648028227642315935e-01,-1.739802008420761326e-01,-1.613205941547712241e+00,-1.804680795889040290e+00
2.456986698514251610e-01,1.195594385901039766e-02,-3.974975925771292440e-01,-4.846715260052830154e-01
-4.154559708117989691e-01,4.974205698004571796e-02,7.851003131504578070e-01,8.882351441000112535e-01
7.101032167319102362e-01,-1.429642843727739754e-01,-1.231091595000942229e+00,-1.324651075428888491e+00
-6.337780987275316580e-01,1.002485370212165272e-01,1.082056610000909691e+00,1.257757892108514630e+00
2.947690478089802779e-01,1.270430562717608965e-02,-4.545930249458962624e-01,-4.983208839059137807e-01
-9.301774050579478814e-01,1.866611437106523719e-01,1.661140897056470722e+00,1.922623004474091513e+00
4.155426423957024329e-01,-5.669073951324093974e-02,-7.293847766700313207e-01,-8.164505158841369736e-01
-6.833899966700868189e-01,1.361178249411909014e-01,1.144045445967334373e+00,1.326272655760238672e+00
7.673846779414806862e-01,-1.241942346125289587e-01,-1.361026160435397481e+00,-1.516119191759993878e+00
-2.656067442824778801e-01,8.176688951006323702e-02,5.219680940089675980e-01,5.495472533930320091e-01
-5.293437644254425090e-01,1.045710393198875099e-01,8.268838703341657714e-01,9.954382044162364274e-01
-4.387670541813694647e-01,1.707862845977914101e-01,8.184916947612552729e-01,8.727158760786676295e-01
5.382921361446004749e-01,-7.602507321918394734e-02,-1.001286391620826333e+00,-1.058314977483635122e+00
-3.799000967658258121e-01,7.858536785756295440e-02,6.805499387775234554e-01,8.229085060442447030e-01
-6.666079558788912118e-01,1.530734953490583694e-01,1.181638421465624367e+00,1.335610506339887982e+00
-5.566092163011923319e-03,-5.571963720024287678e-03,1.121275474467705625e-02,7.860419968964804660e-03
-1.110825705536386404e-01,5.330625277132707701e-02,2.255939048063724250e-01,2.277160105837041648e-01
-4.974446457585515180e-01,6.472094718081468356e-02,8.571757041020625634e-01,9.343754142006377439e-01
-3.847216579865319619e-01,1.205308517999722079e-01,6.612163017750611882e-01,7.552532512674944298e-01
-2.442586834395677475e-01,8.646546734308540151e-04,3.940697149215933170e-01,4.559004428031653289e-01
-1.948195119746550796e-01,3.746152083285811396e-02,3.061212837021770050e-01,3.773189064604393073e-01
3.065685913991523376e-02,1.150351451704159297e-02,1.028808211466305383e-02,5.168346576788283159e-02
-7.329574991830237751e-01,1.699831424826194759e-01,1.416894154680651496e+00,1.552293675860322297e+00
8.349738730273109644e-01,-1.462612308133701688e-01,-1.287005747336322115e+00,-1.529500982623682059e+00
4.959046579899728524e-02,-1.894341541997987544e-02,-4.995781826275216136e-02,-6.861276403851084005e-02
3.205026801180239082e-01,-2.120910665535962261e-02,-5.589065360020957218e-01,-5.813991860109914978e-01
-6.666536810817662584e-01,9.605805236214230713e-02,1.029537332192582255e+00,1.144277301319668094e+00
2.941319127185578614e-02,-6.305994987356578971e-03,-9.315524713624120934e-02,-7.435589316742675925e-02
-3.235981280774496982e-01,8.092683629408324586e-02,5.676834541189196282e-01,6.313729852707787860e-01
-2.018317839742337916e-01,5.746256621500821921e-02,3.075821649059501950e-01,4.211848680454235438e-01
4.939994660462634357e-01,-1.143541295827693177e-01,-9.693388312802349027e-01,-1.044202270586521042e+00
6.738604239658373407e-01,-1.345161414147413026e-01,-1.193990179949589114e+00,-1.334677537457877872e+00
-3.134741873614481644e-01,3.026811629360092945e-02,5.360734706575490671e-01,5.585523601377032632e-01
-9.027543239073472225e-01,1.623719968492952914e-01,1.549557723082537031e+00,1.857892169597683552e+00
-7.146608675136636446e-01,1.833442329697149153e-01,1.342125572092674357e+00,1.431911663753158592e+00
1.083327981507042209e-01,-4.452127811101431326e-02,-1.991713300316133861e-01,-2.425569360256012719e-01
-6.687703515656739928e-01,1.565659833139307344e-01,1.190214133831814625e+00,1.364991261560026814e+00
-8.258348535915586153e-01,1.639802289648132350e-01,1.397397956674336417e+00,1.603401831601615646e+00
5.977092990468021450e-01,-9.878295750815513365e-02,-1.029212526413288753e+00,-1.220124307704201216e+00
1.426002838839658671e-01,-2.562618803768526576e-02,-2.109788948527671348e-01,-2.820836953551160153e-01
7.936183737957901163e-02,-1.928251095578320876e-02,-1.745274079416170021e-01,-1.654034457772282918e-01
2.970343579193884254e-01,-4.656204003656840701e-02,-4.281646778360237993e-01,-5.437990166089613497e-01
-7.362409405134969775e-01,1.395813378808643812e-01,1.332799973423503426e+00,1.546871957081808358e+00
3.869759018170261522e-02,9.352851767505615185e-03,-3.923577086953180387e-02,-1.037598680829313336e-01
-1.662931583644137734e-01,7.348170373871433167e-03,3.031864934006634482e-01,3.741886255935629180e-01
8.464563516717350522e-01,-2.127884470346176338e-01,-1.645268087640232357e+00,-1.859573390175332186e+00
4.610885690854651386e-01,-1.126866356550263182e-01,-8.478639691132796585e-01,-9.731388112942196411e-01
7.983726488789334441e-01,-1.330082634529351771e-01,-1.394572200104029935e+00,-1.577829394678652131e+00
-4.522125915299844423e-01,1.097969304613422709e-01,8.317044892100964315e-01,8.893905107624214823e-01
-2.077262913465789396e-01,7.119837697345467176e-02,3.677126493422879783e-01,3.967703477899532372e-01
-6.394565997446209904e-01,1.538385864396767388e-01,1.086631777084855921e+00,1.228772264791070379e+00
-4.643741019916263757e-01,7.407422752732610582e-02,8.643603195711933029e-01,9.477284747452184854e-01
2.241861166349224666e-01,-2.959315259146926003e-02,-3.918606122152718529e-01,-5.099483181678832189e-01
2.661927119018849264e-01,-8.748497790534960628e-02,-5.129248945683458905e-01,-5.486788983691658350e-01
4.180577121494261639e-01,-7.005761289080324195e-02,-7.260620289887668166e-01,-7.654604449899101715e-01
4.679602081086396415e-01,-9.845116934555613042e-02,-8.841355409788044240e-01,-9.920202354975986569e-01
4.425960511677887177e-01,-1.066397006435075567e-01,-7.648489959452973164e-01,-8.449743909296034694e-01
-7.229911784895250992e-01,1.173655185196515044e-01,1.288262887167356041e+00,1.456857940631552717e+00
-1.152176627931155439e-01,1.658523242040646842e-02,2.507848673028715836e-01,2.978510472264446762e-01
7.332620646551407662e-01,-1.735472334434154384e-01,-1.373817580600974253e+00,-1.500346111422930395e+00
1.532190168222501425e-01,-5.458861834043274991e-02,-2.647897731053681092e-01,-3.135034416926875678e-01
-2.823253107470797274e-01,2.458746042556572350e-02,4.859767585172367066e-01,5.870746802653582508e-01
1.841935650609611771e-02,-3.363003642728664561e-02,-1.141130938045580544e-02,-9.062539770714622689e-02
-8.824778245149502709e-01,2.122952770846768256e-01,1.592991519960205382e+00,1.832571750303150226e+00
2.827483143407895638e-01,-3.863874234318489392e-02,-3.602203176102187210e-01,-4.394757072025801126e-01
-5.920205170035661713e-01,1.330644230146775797e-01,1.062013089504970642e+00,1.150450397776569877e+00
6.864907755231954845e-01,-1.541620558764004445e-01,-1.257164238708742721e+00,-1.415161494218063254e+00
8.142375806023132156e-01,-1.838813177840792346e-01,-1.410189370500361417e+00,-1.628942798882988763e+00
3.635831218155897715e-01,-6.826895345105458979e-02,-5.927421958018561643e-01,-6.574436024658378841e-01
-9.327134267836706405e-01,1.814721157984668931e-01,1.671598069422739918e+00,1.838239765866627407e+00
-7.737132653798318715e-01,1.787378331773638585e-01,1.400543526901274038e+00,1.574157745152898080e+00
7.902671718300723069e-02,-1.524480292892565342e-02,-1.635766622886712929e-01,-1.263028679286408995e-01
8.083330899040956918e-01,-1.460454074157072624e-01,-1.410433495112956015e+00,-1.580768551799144328e+00
-7.757772253035848387e-01,1.834429123812850726e-01,1.414755183022482932e+00,1.556013702489770445e+00
-9.313316091397320085e-01,1.789234922888911783e-01,1.674128543503179189e+00,1.853347537528028610e+00
-7.375374235196423545e-01,1.751440363110229326e-01,1.326404905600039763e+00,1.439938289808884830e+00
-1.854180240882952191e-01,9.954925494029237543e-03,2.775800794882419265e-01,3.285369096493915841e-01
-6.153328743934759482e-01,1.115173714899125729e-01,1.151933823832815174e+00,1.294281769926645342e+00
6.768079525339744107e-01,-9.690828546995777781e-02,-1.194481728535000453e+00,-1.374645305052562438e+00
1.806150167725839584e-01,-3.577342742035540674e-02,-3.413833176990208607e-01,-3.850742212602882297e-01
-2.932873937702550338e-01,8.265464884489213959e-02,4.258988483025736849e-01,5.084264042760537894e-01
-6.553160934947557248e-01,1.686705668746971976e-01,1.068805624259030251e+00,1.201975562889326499e+00
-4.014278516714027134e-01,1.077546878574616868e-01,7.355861344454796003e-01,8.520724054001364012e-01
2.938189511354112882e-01,-4.404337145012972299e-02,-4.209399058209189470e-01,-4.394312468723670095e-01
1.552981915767718268e-01,-2.578041264120363441e-02,-2.814186046151104792e-01,-3.437969721331012307e-01
6.394243517431279500e-01,-1.031664188121021453e-01,-1.043915680618393571e+00,-1.181193260101464748e+00
-8.587420725373789976e-01,1.829742423047298339e-01,1.552333433709802479e+00,1.795051116766634980e+00
3.477052199442112745e-01,-1.053922954712209203e-01,-6.097313968041906396e-01,-7.420628054637354865e-01
-2.188132633278552786e-01,1.952223629212724437e-02,3.552295388802373388e-01,3.668479598258794772e-01
5.869918259054026644e-01,-9.959098859982329355e-02,-1.038332984891372490e+00,-1.193064772633340764e+00
4.925221900263553332e-01,-1.115773351831401417e-01,-8.302014658735337171e-01,-9.646316657082326662e-01
2.912819832350805327e-01,-3.359871125919847851e-02,-5.191263955866961544e-01,-5.631699545389602379e-01
6.194022428928623869e-01,-1.448635010691501079e-01,-1.105304613283545345e+00,-1.220006615288670826e+00
6.175208206076504558e-01,-1.405485046769972823e-01,-1.120999075256722488e+00,-1.248010588753904804e+00
-6.143940510970437030e-01,1.560644617267226697e-01,1.160704146586705399e+00,1.289815343582597418e+00
8.749198870590535471e-01,-2.086710508802363528e-01,-1.534177515528935887e+00,-1.770625130074688247e+00
-6.508309340805255028e-01,8.672947114548854031e-02,1.096104973342924671e+00,1.329495218083716734e+00
6.721237798830471677e-01,-1.893930443858403145e-01,-1.232395621862603541e+00,-1.399137030836715256e+00
9.248546403863463494e-01,-1.952474157931886056e-01,-1.574090586619440568e+00,-1.758751159779376572e+00
-5.923423947309276461e-01,1.171090949848457297e-01,1.035912156300862419e+00,1.095088429210936409e+00
3.285795137611932648e-01,-2.169870373243659722e-02,-5.742034526797323846e-01,-6.530717788501965160e-01
5.414084003363482944e-01,-8.500401993719110261e-02,-9.261410923239269399e-01,-1.033108874915904751e+00
-8.633800672612215177e-01,2.288267478111269126e-01,1.554229565652494927e+00,1.746856695015931882e+00
9.439603551556002836e-02,-2.491388597913370834e-02,-1.006033520634622008e-01,-1.188954775190898955e-01
-2.345242686747716632e-01,6.131174755957302658e-02,4.155910853622890588e-01,4.355306254810472066e-01
-2.016119233229175245e-01,7.400475011585753993e-02,3.676529207641539010e-01,4.941051725144914308e-01
-9.142142791615052166e-01,1.854162357000481154e-01,1.531828484364781584e+00,1.805014139711408117e+00
3.287080118558243225e-01,-1.097844943163211462e-01,-4.961288075742899539e-01,-5.914991829220889175e-01
-2.475906166282470233e-01,4.211183625761694138e-02,4.941681836591304555e-01,5.350531336588164599e-01
8.367531815514611671e-01,-1.645342727146494322e-01,-1.454468810741522011e+00,-1.625434049205536136e+00
-8.964178985065501815e-01,2.419889077953186196e-01,1.621544941523023642e+00,1.793407490670245297e+00
8.216258547553198510e-02,-8.187430925909042201e-02,-1.642883955737022006e-01,-1.248807765549736215e-01
3.922328498736270541e-01,-6.973382699957683672e-02,-7.390222333760838591e-01,-7.318011903552581465e-01
-5.775372751685132755e-01,1.373956704212674351e-01,1.014190135804457160e+00,1.158320758447217935e+00
9.218460793359076755e-01,-1.516169809011263248e-01,-1.640444025109246029e+00,-1.742362009876754936e+00
6.117253814262620104e-02,-3.194134484145913500e-02,-6.907199886029198599e-02,-1.169053253530051018e-01
4.691487179662857665e-01,-1.246747086255000081e-01,-7.770375802317054381e-01,-9.039776102713298345e-01
-1.840063487971460229e-02,2.378579849301448723e-02,1.460862194359715538e-01,1.484605965188035559e-01
5.868919904314289226e-01,-1.230348332417304236e-01,-1.047098980292558990e+00,-1.114562340400526708e+00
-1.896504653542298649e-02,-2.827461105727678906e-02,-4.553460600378275019e-02,-3.298343326295211098e-02
9.604003950244650589e-01,-2.442047743930235437e-01,-1.638062023829429004e+00,-1.822243958466379210e+00
-5.451796517930919128e-01,1.669388682651311573e-01,1.000778840363528932e+00,1.106710809229545012e+00
6.125032706563829921e-01,-1.113559391338623389e-01,-1.072928628362981529e+00,-1.197655279619986857e+00
-2.827284475540763897e-01,3.692686284169532929e-02,5.288221908821866268e-01,5.497081855917662629e-01
-4.681018186649018586e-01,1.413110246649603163e-01,8.242292918867653029e-01,9.626388700318724290e-01
2.108697246590947594e-01,-7.447825509668272448e-02,-2.960666969140666738e-01,-3.769858729459856783e-01
-3.269978897659952533e-01,4.151642236289166538e-02,6.184884852831170621e-01,6.776625562916007706e-01
6.903780237158793076e-01,-1.699453476897284376e-01,-1.195397171213663956e+00,-1.318303928868397534e+00
6.055779937613013919e-01,-1.350366747054224659e-01,-1.064055413865885980e+00,-1.227568192284273829e+00
-5.861058079806669152e-01,1.289653871421650444e-01,1.006801855907956345e+00,1.189114854121881004e+00
-2.798697005367920543e-01,1.274565617028665387e-01,5.226539507126721773e-01,6.184171057084270062e-01
-1.182236993252892832e-01,3.413528633489085889e-02,1.207723735364974044e-01,1.393637948946603866e-01
-1.753861025863113487e-01,5.130319919239536425e-02,2.126571021753975721e-01,2.460026586399362558e-01
6.036955899849253404e-01,-1.575475381592743307e-01,-1.139012270909665947e+00,-1.255754967352460172e+00
4.207609704680991269e-01,-9.952152194257968265e-02,-7.226108464938748588e-01,-8.561116296557808036e-01
-1.025860620235798049e+00,1.943091007632223866e-01,1.720414344048564637e+00,1.863946176662499621e+00
-2.166352586640243050e-01,3.650150290983668333e-02,2.571395460109301978e-01,3.202709083131582979e-01
-8.834169536090343833e-01,1.721344865558394888e-01,1.490126122215794213e+00,1.660944665953703048e+00
-1.262038225767047050e-01,2.893567525645001845e-02,1.710999873710180308e-01,1.455452396391796743e-01
2.035912594468014258e-01,-1.732578618616522140e-02,-4.081452707554992232e-01,-4.376387694085980828e-01
-8.744194134090481629e-01,1.843969545681822531e-01,1.526520714633999631e+00,1.755374550743250106e+00
6.187394516431224956e-01,-1.513107266105133963e-01,-1.032609735727882283e+00,-1.211720448170002129e+00
-5.840751683446294695e-01,1.077579454361693168e-01,9.899814429824753681e-01,1.171126786164103484e+00
-7.025474817465567900e-01,1.212632040192545835e-01,1.305837932823882497e+00,1.463791782012898723e+00
-6.499535889710873482e-01,1.020305582011399731e-01,1.099895286825951946e+00,1.239979984123232404e+00
2.151275522604011170e-02,4.490127913968921386e-02,1.554368377999142820e-02,1.120202882832404059e-02
-8.871164892787106737e-01,1.644395222503795551e-01,1.585433992021870075e+00,1.740054727095761811e+00
-1.966047759519550242e-01,6.009414613798181454e-02,3.185295214375939987e-01,3.334694139251184186e-01
3.031263571726183215e-01,-6.456610322194665519e-02,-5.400355681513533401e-01,-6.068213543561451484e-01
4.361809454471765601e-01,-7.467098629836106671e-02,-7.152961014636993742e-01,-7.903766684108528562e-01
8.195443319521985570e-01,-1.063485938159084015e-01,-1.416721609818401451e+00,-1.572100834458089791e+00
-2.365514092053453143e-01,8.651791531784522316e-02,4.255804425956580261e-01,4.159097635102168566e-01
-7.938191743130081912e-01,1.382359519124906067e-01,1.427563784411252978e+00,1.641673520263857267e+00
-1.466068027836780682e-02,9.247032223081168290e-02,5.186925156561622563e-02,9.583766576139039761e-02
-5.347231160450955922e-01,1.529024769094596281e-01,8.853476390826254816e-01,1.006279419253334195e+00
-1.767158910507903025e-01,2.096722660567727076e-02,2.879929119753310562e-01,3.482892098135514924e-01
-7.054474386174289791e-01,1.636263142266361215e-01,1.220198550049275132e+00,1.308363362669081376e+00
7.475604586245991889e-01,-1.412005628449048700e-01,-1.325714991841217438e+00,-1.489380621248618031e+00
-4.543545756492520793e-01,9.786563101752986105e-02,7.668271497911318679e-01,8.513611245173763331e-01
-8.579972110493397919e-01,2.252206970728874713e-01,1.451494770592100858e+00,1.702473805129028017e+00
5.761417387900262810e-01,-1.292598887576004718e-01,-9.502255517129079010e-01,-1.124973124549280001e+00
8.542508097823089397e-01,-1.940082072924449730e-01,-1.482804854882608048e+00,-1.627087526029816988e+00
5.607442031010894112e-01,-1.444501129318751520e-01,-9.376188917295277259e-01,-1.150317437849933011e+00
-1.137896969320715962e-01,-2.442514197130347259e-02,1.050958372668773649e-01,1.168147815627163938e-01
-8.250505712878130060e-01,1.517708545042823487e-01,1.450618500262589095e+00,1.628116966312783687e+00
5.141130436525077618e-01,-1.187686333317204690e-01,-9.218220188984007635e-01,-1.023926152713096061e+00
-3.804076558404276363e-03,2.909372903398895968e-02,2.609751841346118553e-02,5.772297367036561405e-02
1.043555361041158980e+00,-1.886917070979831912e-01,-1.730084209209773682e+00,-1.950617310824261930e+00
7.642268252640004311e-01,-1.447649591136604130e-01,-1.357167466531943312e+00,-1.433980567382639126e+00
9.660550030098163932e-02,-5.908293722715862728e-02,-1.714676840074200737e-01,-1.770956008937291382e-01
-9.554272415561905485e-02,2.073620635462755310e-02,1.659356213445481731e-01,2.006821939435871893e-01
1.617402135046028810e-01,-5.821222175082612499e-02,-2.828927979762427269e-01,-3.075800164228644218e-01
6.754616450757336965e-01,-1.427879055577014611e-01,-1.220612267169755016e+00,-1.367577597790937238e+00
-5.996535543624136322e-01,1.152924136313394216e-01,1.016319634425622231e+00,1.168318687744925866e+00
9.088989833956744313e-01,-1.600085395133040433e-01,-1.508232082072760161e+00,-1.647566836258105294e+00
-4.081920784760926235e-01,8.599196358853419819e-02,8.097629604469072095e-01,8.917294966266675615e-01
-6.343092376612198269e-01,1.007266769399799700e-01,9.764269186465343031e-01,1.150913508736733482e+00
-4.666787516576938466e-01,4.384457889475844999e-02,7.850734100796150639e-01,9.127904406880674726e-01
-7.374248517865275021e-01,1.583920421344413854e-01,1.222568837393794183e+00,1.353047775437751898e+00
9.247694862048949638e-01,-2.137081162512432797e-01,-1.668555906969237057e+00,-1.763013224326355877e+00
2.038511031094155379e-01,-4.648083029999311444e-02,-4.204182400675127163e-01,-4.952898202223493529e-01
-6.021219925162907272e-01,1.201395845030565346e-01,1.073595556775758686e+00,1.197134088363119409e+00
-4.725921432211516865e-02,9.726654142938207653e-03,5.411964828820657603e-02,1.321205237849252534e-01
-2.436753922314448817e-01,6.313866561145588252e-02,4.732449775053646501e-01,5.524899397317420968e-01
7.725575774639913407e-01,-1.929116086478906700e-01,-1.434588319791743061e+00,-1.616221732385928256e+00
-3.305155818544456836e-01,3.168900665103333014e-02,7.014627342857326919e-01,7.967396296905890907e-01
-1.427841874514821918e-01,1.990721093743332004e-02,2.666921024537454166e-01,2.631400626154167255e-01
-8.831083051049951615e-01,1.665860188306348966e-01,1.554611477625476690e+00,1.732165073789625032e+00
-9.000021888247009549e-01,1.840317632676993220e-01,1.616466567008188582e+00,1.769080737005758630e+00
-1.952871827788173198e-01,8.444813048757000840e-03,2.854608142542870430e-01,3.452437446669762711e-01
-2.121804650672441395e-01,4.066357539682682182e-02,3.383984216090759056e-01,4.330933999629975051e-01
5.487983577598697371e-01,-1.416308023719709264e-01,-9.330100101949194702e-01,-1.120032185476166786e+00
-2.314162538965439109e-01,-8.640781230035743431e-04,4.586426431451124941e-01,4.671531174874312131e-01
3.672201642733231575e-01,-1.233196469463853084e-01,-7.569229888193564904e-01,-9.137380430153444477e-01
3.973683446658506369e-01,-2.576796263946636370e-02,-5.886738201662613523e-01,-6.900426150999954267e-01
-8.152248606057107549e-01,1.590592568526953965e-01,1.435807041064661504e+00,1.567334721935709885e+00
3.456000794479300309e-01,-8.403918049221055508e-02,-6.492686924279958971e-01,-7.192086749753671127e-01
1.440712583227330423e-01,-3.698077331217627245e-02,-2.006548113839771719e-01,-2.644715493565147346e-01
4.652274602408374427e-01,-1.187837166418594798e-01,-8.872213188716209231e-01,-1.024503517043071854e+00
-4.096643206392219794e-02,3.471282691966069006e-02,1.802559743020510086e-01,1.449008625454245303e-01
-3.540220014656288439e-01,6.648125244166289138e-02,6.049884904254297924e-01,7.007827039707584804e-01
2.796753571951065068e-02,7.285726673037024731e-03,8.289131962130970310e-03,-4.622152880765226235e-02
8.076437599315927640e-01,-1.230668358899855014e-01,-1.304266331212253771e+00,-1.473740503484859188e+00
-2.154161759890482197e-01,3.666639231808861005e-02,3.292437459797959431e-01,3.661249213674462877e-01
-8.851593201445958625e-01,2.271782625263461530e-01,1.646663283525980237e+00,1.809671452049639084e+00
-3.356701787580737562e-01,6.165944877919291717e-02,6.558693746266320845e-01,6.972172942797939532e-01
2.183328911527212812e-01,-9.155426362361085077e-03,-4.296367721680737217e-01,-4.994684488104386699e-01
2.381594514630805959e-01,-2.629692690753501760e-02,-3.558640514038672875e-01,-3.588105390096024694e-01
4.294824685019234534e-01,-9.181003802516930767e-02,-7.319964995047586465e-01,-8.676650218305739237e-01
-9.928945194083164116e-01,1.829568868329040365e-01,1.668754531980076949e+00,1.885721804601966145e+00
-4.985772505312754954e-01,1.005233687539331539e-01,8.213105602230407198e-01,9.882956299822366342e-01
5.230750440321983996e-01,-1.164862080075327044e-01,-7.844038943428476296e-01,-9.351325771925628194e-01
5.780367890782568407e-01,-1.460388508997912671e-01,-1.048681990506840078e+00,-1.147140035630388022e+00
-4.678269997329581598e-01,7.519865714373089038e-02,8.242485695523771305e-01,9.576771037185417557e-01
-6.125465912167303850e-01,1.701555225240879432e-01,1.193955529574414420e+00,1.343279663569395987e+00
-8.441000967236276242e-01,1.886942139849613898e-01,1.523109221306789385e+00,1.745746597253943877e+00
4.923270468849031412e-01,-5.894246830931211545e-02,-8.569402108968436904e-01,-9.300882367249327931e-01
1.241368285580709552e-01,-5.415806156972157934e-03,-1.576530548601993431e-01,-1.982473103197668063e-01
4.573160495417955551e-01,-1.302032547862553569e-01,-8.541642609041121270e-01,-9.411941941545705070e-01
-4.993248396048671073e-02,1.320827773696728845e-02,1.585176848873581790e-01,1.309698744493954514e-01
2.605905495356787838e-01,-8.856175789216373662e-02,-4.960840970770523106e-01,-5.056120740035405792e-01
-1.506304698672131237e-01,4.864707901259765835e-03,2.743428342045280410e-01,2.724941454389777640e-01
4.866268320135291869e-02,-1.682457411817800397e-02,-7.611261797898336012e-02,-1.194105120017442123e-01
2.358358056937018277e-01,-8.487118774480212346e-02,-4.116100893304688313e-01,-3.931679900330925514e-01
4.662317777709859001e-01,-7.955757224458938348e-02,-7.924881287595313406e-01,-8.605427311256131917e-01
-2.806035040040439354e-01,6.764832053074987250e-02,4.403901525133330219e-01,4.762889463947971858e-01
-4.441826318261272166e-01,4.778634088121620077e-02,7.557738575129157033e-01,8.573920964309971193e-01
-3.160696479629313549e-01,6.396072904479531418e-02,6.020316593357714074e-01,6.338510327218118690e-01
-5.217887473689812872e-01,9.780686950518407974e-02,8.601540885690434068e-01,9.733839186862396353e-01
9.700223813848420085e-02,-4.357510097571768576e-02,-1.942901029447815509e-01,-1.575110233252930703e-01
5.218319503252890623e-01,-1.043461010865152777e-01,-9.333397174597486412e-01,-1.020897159317529113e+00
-2.613358270132782324e-01,1.042199511224803365e-01,4.786318030079125263e-01,5.541456037997516404e-01
-6.884034859639268644e-01,1.256175502962792734e-01,1.279949972534890845e+00,1.407141436049526906e+00
7.950285902732194196e-03,-7.711148733603561713e-03,2.891071894812042437e-02,-5.390121771489242604e-03
9.762099201831025974e-01,-2.338221403421958666e-01,-1.735196066033597218e+00,-1.912808212619860004e+00
-2.095381959693217166e-01,1.746569251261481659e-02,4.628083017726636883e-01,4.464599123900289124e-01
-3.393041796027292389e-01,9.125734459252698993e-02,6.190773117944152748e-01,7.288496480003503475e-01
6.395608002817952942e-01,-1.389696327614271532e-01,-1.177172411555463372e+00,-1.289678275258408391e+00
5.724510886114243524e-01,-1.235594351676383151e-01,-9.835802219401681423e-01,-1.055644246247065876e+00
-3.778683834740169667e-01,1.325686378094931284e-01,6.808997589687313390e-01,7.812606829675013964e-01
9.142347503720993362e-01,-2.057428828646567232e-01,-1.680018950842777858e+00,-1.891863958796740519e+00
3.387145263767811221e-01,-5.325138608171248178e-02,-6.684249149652539135e-01,-7.231095892200044561e-01
9.456984575096985535e-02,-2.912303739975262082e-02,-1.645077673369875204e-01,-1.503096386387329786e-01
5.635106447033882970e-01,-8.780920918245077589e-02,-9.886960023960935651e-01,-1.146911646383499628e+00
4.583898328902001329e-01,-1.051253680936385798e-01,-8.689082212870261612e-01,-9.986066072712028729e-01
-7.191996735050856238e-01,1.519422036175118174e-01,1.176394198999822560e+00,1.326029113678148796e+00
2.112742170889865823e-01,-2.228198209799564511e-02,-3.470086282955522905e-01,-4.354934113341610846e-01
7.376800059604566862e-01,-1.632688938039337789e-01,-1.329516384285333030e+00,-1.456351131677276589e+00
-7.544333931852689190e-01,1.541009931090743801e-01,1.336776780384133945e+00,1.556020086500458977e+00
5.790313402050839553e-01,-1.211775208314145869e-01,-9.878474402820264233e-01,-1.145576865700242530e+00
-5.885177924567531749e-01,8.777921308090985697e-02,1.050126223305781314e+00,1.154143483856528318e+00
4.584985854384685533e-01,-6.402114997615387937e-02,-7.909534699162042992e-01,-8.792897612755972148e-01
1.059912172402120295e-01,-3.179860562022175652e-02,-2.741333508183946277e-01,-3.066501254875417803e-01
-3.658961429379825603e-01,4.044381629928418126e-02,6.047082121622885387e-01,7.105275905653228863e-01
-8.194034181550870211e-02,4.725208126657745589e-02,1.209495746276266076e-01,1.316859630328798547e-01
4.995098828687182246e-01,-6.423294232240849000e-02,-9.414687920251525455e-01,-1.007964222936987175e+00
-3.910228118990204949e-01,1.415525804122617914e-01,6.657220090670250556e-01,7.586701414599534843e-01
2.358793439572102468e-01,1.638834774850824946e-02,-4.643022183396972036e-01,-5.518654563383088574e-01
4.506937379225672835e-01,-1.472279774734139846e-01,-7.450358646324710676e-01,-8.273158281347241516e-01
-6.759061361306260007e-01,1.817848742238741266e-01,1.173626878867480849e+00,1.318679493306748052e+00
6.704631494438924033e-01,-1.233646726422064910e-01,-1.214932490565708179e+00,-1.272016052888412574e+00
5.611485194598548887e-01,-1.225296593784635096e-01,-9.793041393584334120e-01,-1.098766724534969486e+00
8.810363633207396461e-01,-1.842733399046378451e-01,-1.475122659640341505e+00,-1.742950907383027603e+00
-4.847957234704838858e-01,8.808560378247222433e-02,8.872339706906947621e-01,9.770947394129578800e-01
5.812137787069553418e-01,-1.080479579193510259e-01,-1.040731226710866597e+00,-1.150374167861164310e+00
-3.282795709758735692e-01,6.746700109642055077e-02,7.442480913930764608e-01,7.900308502277684219e-01
-1.498687482336575824e-02,8.454483511368876547e-02,8.860150700730655415e-02,5.178775211300933046e-02
-9.122247881692262528e-01,1.776650435932518590e-01,1.581457804332128569e+00,1.756392389538089738e+00
2.273954625116557937e-01,-7.739559570365329988e-02,-4.681393353272615410e-01,-4.691004017566211548e-01
2.969086841723375669e-01,-8.044845597525608627e-02,-5.007289227946637444e-01,-5.515058494859093052e-01
-6.957089871127053460e-01,1.339357880444424775e-01,1.153436647214858279e+00,1.259064636863306053e+00
-4.638429262134267650e-01,6.386728561586696440e-02,7.102081819338250668e-01,8.338286781767600964e-01
1.991549624988056544e-02,-8.861330816306965327e-03,-5.091132711815454098e-02,2.738399946240386434e-02
4.874056344781617645e-01,-8.253003198385573669e-02,-7.020987038875363684e-01,-8.682810931046797132e-01
-9.510911457302670957e-01,1.797997071988650386e-01,1.669933805334147259e+00,1.910749492414336892e+00
5.076130116969338468e-01,-1.491165777803069026e-01,-9.264824874675116062e-01,-1.075875732620344971e+00
2.615124573823717768e-01,-6.977157143376250259e-02,-4.044294007096517207e-01,-4.972783234493748372e-01
9.740462946053060067e-01,-1.908088522291847833e-01,-1.725772265098351799e+00,-1.930908744118206233e+00
3.242848709764525883e-01,-6.120563864751930871e-02,-5.689295578451009083e-01,-6.678832547118622731e-01
9.445601815102599996e-01,-1.621020996659190971e-01,-1.646592814013810857e+00,-1.868517241483272473e+00
6.672479832186970494e-01,-1.566772033437924261e-01,-1.322726383687624852e+00,-1.444897215390400058e+00
-5.489007324178937219e-01,1.216851338039267733e-01,9.645660687860302396e-01,1.127382602483615548e+00
-3.245254246810741483e-02,-2.563110408501318230e-02,3.925178042930982381e-02,6.143163737996532037e-02
-7.305148769688303290e-01,1.293076043758453753e-01,1.230156868173953866e+00,1.451190949655829066e+00
-3.097892921789500292e-02,4.761655975072524166e-02,8.349803475526415553e-02,5.663240597165580120e-02
8.887301455001390682e-01,-1.471845796610172230e-01,-1.577515216110771279e+00,-1.767220288694521191e+00
-6.761425697044255723e-02,2.701905471708524603e-02,1.397898196398055515e-01,1.917817157151019969e-01
-2.597315816424599633e-01,7.260636380416674029e-02,4.362130628325593396e-01,4.426626940882177896e-01
-2.512464526438373965e-04,2.532827822434607912e-02,2.687098197285103102e-02,1.119280300089399438e-02
5.019820408343611540e-01,-7.447470648749907052e-02,-1.002177427452123348e+00,-1.123349804038576316e+00
-6.415522515994526165e-01,1.554060777827763473e-01,1.160637130391362515e+00,1.331185148436613064e+00
9.035085654963554980e-01,-1.541234924993669098e-01,-1.562402306423802401e+00,-1.749469855037735888e+00
-3.263904163289844673e-01,9.215119946996776223e-02,5.828028580493227473e-01,6.243267671022898480e-01
1.129756281947515290e-01,-1.875562016981334804e-02,-1.872971195391313626e-01,-1.776867693416562810e-01
-6.637489126335696099e-01,1.283196095650489255e-01,1.108775800698187819e+00,1.230480417624955081e+00
-3.802101012576895589e-01,7.148303748460274609e-02,6.685149915769057483e-01,7.381010540302194167e-01
7.601476877104397234e-01,-1.715939997632898173e-01,-1.297724807201408259e+00,-1.498733229036098624e+00
4.131735671233623952e-01,-1.131246256214291507e-01,-7.454246018838194265e-01,-8.332319985894395264e-01
-2.656264549984221346e-01,2.919700434475915735e-02,5.155758727861398105e-01,5.125083065556671480e-01
-2.718744999579797428e-01,6.441419756987307177e-02,4.077912632867107257e-01,4.687582133001435003e-01
-5.435198616233897217e-01,6.955002751306280095e-02,9.542550264952015526e-01,1.088224815107730503e+00
1.562435115276409048e-01,1.419940077825031233e-02,-2.318314684042457885e-01,-2.861495702986250889e-01
1.244428098985344844e-01,4.022894024935161350e-02,-3.295032172737146214e-01,-3.334678665045174850e-01
9.366515550371573573e-01,-1.882770269514328076e-01,-1.581614479225061043e+00,-1.814726105960723812e+00
6.827195037497298946e-01,-1.585452509371700625e-01,-1.253726403071703466e+00,-1.387599152990130147e+00
8.200377786362211818e-01,-1.840545420108604668e-01,-1.391168105910283614e+00,-1.586766585670746466e+00
-8.734259653713684068e-01,2.160337745801554910e-01,1.574528656326957154e+00,1.750547862799123333e+00
-1.519612031323511747e-01,9.596178258727253510e-03,3.244697053789168395e-01,3.436969576785264824e-01
-2.161375379432936283e-01,3.740552139359575035e-02,3.887737316497620332e-01,4.167847706288954068e-01
-1.434060441907858141e-01,4.881348368485072947e-02,3.271784186060195387e-01,2.874450640922524558e-01
-1.373096678766877465e-01,4.811259504062598974e-02,2.507529100436633462e-01,3.287995382918703635e-01
3.182098110226964094e-01,-1.081443847508062467e-01,-5.297876286246413491e-01,-6.142258951582632021e-01
-6.883271776173115475e-01,1.024884597995950469e-01,1.199234825654819980e+00,1.359384502631500347e+00
4.650073326298190257e-01,-5.388277045706051788e-02,-8.378463476262828502e-01,-9.331691639171189045e-01
2.240417334649244252e-01,-2.579108226570860779e-02,-3.592820146381523472e-01,-4.384290997483519248e-01
5.058972346175856227e-01,-9.448911585213198849e-02,-8.463553733273729840e-01,-1.009413369491892754e+00
-5.365169817679160680e-01,1.112470388183607328e-01,9.426622429811650772e-01,1.078235055997109226e+00
-8.367596927948846020e-01,1.842362236647797080e-01,1.482806177626732280e+00,1.690765713118667524e+00
-5.455849916053770454e-02,1.545611070969131647e-02,1.272967432540295374e-01,1.446348911366271139e-01
-7.443090003486898532e-01,1.270260085666006511e-01,1.268992746190733545e+00,1.413543025451792001e+00
-2.716824552564699458e-01,3.912483922593774227e-02,5.222741621946543900e-01,5.701135656992769585e-01
-5.849941846121393674e-01,1.028324593946876031e-01,1.066690254036521068e+00,1.123111614622208210e+00
-6.309676647352336909e-01,1.503331174919882995e-01,1.034645775723785022e+00,1.193205871200476276e+00
-4.422056165999466715e-01,1.044996256118516931e-01,8.680984635496781232e-01,9.693846430857180341e-01
1.084549818483152850e-01,-1.125635966017960246e-02,-1.117625026146640832e-01,-1.727816389226353722e-01
-4.060698285145589170e-01,1.494425493039391595e-01,6.767852682245247831e-01,7.657964519230611167e-01
9.861023266949011656e-01,-2.596096838654829431e-01,-1.685602369520499355e+00,-1.926419997735851375e+00
3.629349801059170710e-01,-9.135880698386274201e-02,-6.787258020601950603e-01,-6.973164833806093643e-01
9.037336557734029219e-01,-1.772005574943912865e-01,-1.543667790718345367e+00,-1.774615379738480492e+00
2.494693705523364780e-01,-4.709527689842023246e-02,-3.794615732997889124e-01,-4.023871291650484849e-01
-3.303026586668549869e-01,3.647686694563215259e-02,5.358650136553402277e-01,5.809497442880749984e-01
-7.714144221648369104e-01,1.172316250680493221e-01,1.354933774712483219e+00,1.590393075965129688e+00
-8.005634014350694327e-01,1.338328229430170990e-01,1.418302991167601501e+00,1.564501740668870822e+00
2.175382201907794799e-01,-2.833295144733844265e-02,-3.831203292942493843e-01,-4.305521296591888203e-01
-7.642646020382283245e-01,1.485140900660817109e-01,1.381880952938412621e+00,1.490042680525100138e+00
-6.544243318303222257e-01,7.272363761703624918e-02,1.169963027495891650e+00,1.364562602005724212e+00
2.654753288266224753e-02,-3.337125002754898900e-02,-7.331144468385747404e-02,-1.070002073202413473e-01
-9.330839397028217741e-01,2.330382975208334373e-01,1.601972463568747562e+00,1.863198903781938531e+00
2.610823118942192655e-01,-3.111175947996490040e-02,-3.789553106276852268e-01,-4.684805767331954862e-01
8.304448912115199866e-01,-1.883738110363175899e-01,-1.404165120470628247e+00,-1.610095501718668221e+00
6.951680644834533629e-01,-1.023779110913675960e-01,-1.114653375098398902e+00,-1.260666105291130101e+00
2.223440146281880914e-01,-9.618869123227713480e-02,-3.845519944344635843e-01,-4.216817474936697674e-01
8.906563628688911605e-01,-1.819677094003698259e-01,-1.612749704160173936e+00,-1.790542792114365289e+00
9.024378915463681095e-01,-1.754533011943347764e-01,-1.603579687435882750e+00,-1.751044546466754781e+00
7.301362686713010197e-02,-4.409296181255022845e-02,-5.642308654703456772e-02,1.713862132439698122e-02
-6.841203940888050949e-01,1.508619614802542974e-01,1.225076907534018433e+00,1.365749569233362770e+00
-6.248762111214883896e-01,1.531712338508611215e-01,1.136617323798303048e+00,1.203533549045200157e+00
1.952548302330840146e-01,-2.750546306475012970e-02,-3.754075049198067893e-01,-4.187915219056798644e-01
2.427412091440762920e-01,-5.671157498040562545e-02,-4.584344184144651946e-01,-4.652266244930599592e-01
8.666174040860455952e-01,-1.809702037992847179e-01,-1.558629820686948442e+00,-1.751710629314727763e+00
-6.583971105090498099e-01,1.836881226084751406e-01,1.244148186020245905e+00,1.380032808082196860e+00
-9.608635630905867364e-01,1.927322015439199843e-01,1.691703690160225815e+00,1.871513636794591262e+00
3.602392146060279243e-01,-4.515105012985068389e-02,-5.765604945209932275e-01,-7.263952629192478305e-01
4.083382467910141034e-01,-7.813413319477681418e-02,-7.213775805162232491e-01,-7.490826844432970644e-01
9.271199405834231744e-01,-1.774511449723070178e-01,-1.639721616831892215e+00,-1.886734875949466650e+00
-4.489739995844163611e-02,1.969637296910994873e-02,7.036639763806637471e-02,1.897342254390926158e-02
-2.621015670163014399e-01,7.787516094264981814e-02,5.302387094914301491e-01,6.043438998319154987e-01
-3.438247251724410591e-01,6.246421514324528024e-02,5.566076033600622086e-01,7.271780815008259680e-01
-7.728117544441590603e-01,1.283856799372873059e-01,1.395078579523698403e+00,1.601512438418154272e+00
7.717341710281985234e-01,-1.881685791292717624e-01,-1.293529967244784640e+00,-1.474638116194654680e+00
-2.050369605450473587e-01,5.299630936188018393e-02,4.459392140187549702e-01,4.661630596512983393e-01
7.480691724056138803e-01,-1.938775262524102261e-01,-1.325558091864748933e+00,-1.514681067060050790e+00
1.829219073496773929e-01,-7.111869756371867746e-02,-3.739462037527042648e-01,-4.382486229847546988e-01
1.919755166230809607e-01,-3.890753096006720202e-02,-3.459130071367779169e-01,-3.767633347912858199e-01
-5.690225034430792528e-01,1.143139823492967805e-01,9.989439435142477564e-01,1.114451734924085446e+00
-9.516306665623242012e-01,2.040540802580593505e-01,1.636486358012037456e+00,1.839992920434497359e+00
1.954003946595342378e-02,2.380483800504351946e-02,6.827363586957486963e-02,8.499778119782101793e-02
9.512556534533602726e-01,-1.795882791770519737e-01,-1.708302955728071559e+00,-1.896450313897216189e+00
9.034951434177567187e-01,-2.243132169748207616e-01,-1.515154820246359169e+00,-1.701408865459655972e+00
7.541873598001465062e-01,-1.766049152419228163e-01,-1.312702667530067480e+00,-1.461154573984090765e+00
-4.675019943059434135e-01,9.271617043489746579e-02,8.150094709342964316e-01,8.760388641053822312e-01
-3.372278777537223715e-01,8.545443584337102105e-02,6.577297280790442846e-01,7.305203620801534736e-01
-1.806855377896577908e-01,3.210270424237816889e-02,2.788906486904110804e-01,3.319919709790146722e-01
2.628635652239657561e-01,-3.932664793385953067e-02,-5.119559495789935966e-01,-5.624012420800649226e-01
-4.556725320688755076e-02,1.578902349963556134e-02,1.509912370442431130e-02,-8.052035695583313960e-03
-4.547735770809143152e-01,7.100388398514792532e-02,7.629539509011397103e-01,8.638984778467277970e-01
-3.181220499105952282e-01,8.045921862186314333e-02,6.168833966613657127e-01,6.840048589184986039e-01
8.311632612273360532e-02,1.480387466339564556e-02,-1.706044030846126380e-01,-1.054204688277973617e-01
7.100684995197873439e-01,-9.546241928542091582e-02,-1.245827943521940595e+00,-1.404648045617043595e+00
-5.741429105174999936e-01,1.018446891429309470e-01,1.003871678056813987e+00,1.112677124997476952e+00
4.155481942780744342e-01,-1.425014067793470840e-01,-8.874123729692270368e-01,-9.884340925761238017e-01
-1.745787279533093450e-03,-2.425404014857531973e-02,7.480652230003545511e-02,5.858366468660694548e-02
9.270971299606315386e-01,-1.666978661925423433e-01,-1.569375633479616727e+00,-1.733327654555790076e+00
8.808533068618259465e-01,-1.916994985301672116e-01,-1.609474119179104878e+00,-1.807730336786937286e+00
-8.536910317753236832e-01,1.921024480146779345e-01,1.407077834914033598e+00,1.597731450429314082e+00
6.011294604333529135e-01,-1.542244321287273845e-01,-1.061618281308561729e+00,-1.214220382858584690e+00
9.075388379013851203e-01,-1.740911101913850123e-01,-1.559696757600528061e+00,-1.768338637461303264e+00
4.701545960436477878e-01,-6.734692445309697906e-02,-8.473627852890387446e-01,-9.645284251821096833e-01
5.428001369098632845e-01,-1.108394063784757244e-01,-1.007222838747302784e+00,-1.089355122856727753e+00
-3.449064899030293008e-01,4.014622602089711750e-02,6.075921064567103569e-01,6.855525016510550795e-01
8.661345252012019325e-01,-2.060952187006853398e-01,-1.506249209373843989e+00,-1.642003032662554540e+00
8.815886903593886936e-01,-1.902176273322666034e-01,-1.506256945900962707e+00,-1.792478510891538646e+00
-9.415531709236503177e-01,1.365664280752042214e-01,1.642613605440778946e+00,1.863119458512716209e+00
7.746293151621720385e-01,-1.646979323436588705e-01,-1.357702772441823580e+00,-1.552834301658064353e+00
