-2.274829399642827044e-01,-1.936229855549644330e-01,-7.886840856448327219e-01,6.893012236300288809e-01
-5.391851847742628046e-01,-6.123431054700471110e-01,-1.884670978452785750e+00,1.682461170989512977e+00
7.944102207960158646e-01,6.687152745025961575e-01,2.250161701080249266e+00,-2.052498589661035044e+00
-4.878515892186333636e-01,-4.968209672808427957e-01,-1.742425705986880402e+00,1.752878904564429519e+00
8.131009488104753435e-01,7.714079014342910545e-01,2.771149556257241464e+00,-2.523989098335180259e+00
6.421549203332868050e-01,5.897703692436442324e-01,2.128155937375955098e+00,-2.033292331466373337e+00
5.659272267865392836e-01,5.334599734542735394e-01,2.028564346643074945e+00,-1.811872608329224477e+00
-2.848559771013222663e-01,-2.531229256927055582e-01,-9.987055856542753629e-01,8.774494028197282747e-01
3.195939338613045799e-01,3.013094112801436020e-01,1.031188276061384190e+00,-1.035024435543700827e+00
5.518412191326890204e-01,6.243554008330550742e-01,2.195098973480389404e+00,-2.054384345236522691e+00
-8.357569854880044780e-01,-8.318971698253432301e-01,-2.916734997793171580e+00,2.647140529054965441e+00
-1.028928336356745410e+00,-8.799718773375556635e-01,-3.208651166552359602e+00,2.859585992839684288e+00
7.654336111863232484e-01,5.367015501688446877e-01,2.103191283328136318e+00,-2.128111311806408779e+00
6.708231844116887554e-01,6.508505758759904891e-01,2.191742625708908321e+00,-1.951500658429013546e+00
9.799026245989500561e-01,8.959766487618467945e-01,3.242552938828807019e+00,-3.072379291966903736e+00
7.854294414990274920e-01,6.560900055691325505e-01,2.652228578208322141e+00,-2.367872546950426482e+00
5.327133196091744516e-01,5.082170360748723414e-01,1.762370927198814607e+00,-1.580426753084981151e+00
6.021903547250141431e-01,5.458391909576653100e-01,1.834934068887128067e+00,-1.696216120597996424e+00
-8.990197001654580689e-01,-8.150393752270923553e-01,-3.066289142824935698e+00,2.791629959442407660e+00
3.699011815323696162e-01,3.746316094582834433e-01,1.242568341811000066e+00,-1.111954629468753675e+00
5.972104428755039551e-01,5.925184094067735829e-01,1.924135442041782884e+00,-1.664176463300295339e+00
3.681157142405607208e-01,4.408551768793332326e-01,1.292756780505833758e+00,-1.305638395565128063e+00
6.192690801694222813e-01,4.792303250461721897e-01,2.138277957820233777e+00,-2.023457925675573144e+00
1.845149749105296777e-01,1.569251144295436273e-01,3.831693189930688859e-01,-4.026216123368835942e-01
2.366828576888240221e-01,1.437581863522365555e-01,8.254724173264924580e-01,-7.424269664768632371e-01
-3.318214621384282248e-01,-3.202491718623927119e-01,-9.237219296963575799e-01,8.521017991474071351e-01
9.636211622354061701e-01,9.103525840480257703e-01,3.029075309220050194e+00,-2.854049851398380078e+00
-7.213393028096506399e-01,-6.621703132692421390e-01,-2.347144435751528757e+00,2.109366707001837149e+00
1.030501661329412899e+00,8.488717159889166419e-01,3.149220230115698183e+00,-3.079741390707305904e+00
-8.673583408475766809e-01,-8.157890358775107265e-01,-2.981232317838024226e+00,2.715959072630409032e+00
1.864270661408775343e-01,1.538177727985652887e-01,5.406281628616745882e-01,-4.764195884370313605e-01
-1.624800485470979106e-01,-1.625695243934307255e-01,-5.137988865005479466e-01,5.333779019345760153e-01
-4.402349636644934394e-01,-3.550203970038928736e-01,-1.337670651395200805e+00,1.237376365349032836e+00
-5.581765531099794897e-01,-4.840633458805423950e-01,-1.693829950878106727e+00,1.623579701334035841e+00
-3.851571878566283358e-01,-3.526444774447298758e-01,-1.246476609767593668e+00,1.225113809486625183e+00
4.822423367467233990e-01,5.250204249909027343e-01,1.674432560738195797e+00,-1.511798188524390962e+00
1.118054707408545623e-01,8.614945176700322671e-02,1.771783135590702940e-01,-2.336435610797526763e-01
2.808120229376784849e-01,1.936936974489537611e-01,9.323359751625983627e-01,-8.518754515500304159e-01
-8.836802009568155425e-01,-7.481660509892145150e-01,-2.691606403298386851e+00,2.526651214195471784e+00
8.658041318388997043e-01,8.068913979493802513e-01,2.985564306224947284e+00,-2.686007980227584913e+00
5.975792829555608837e-02,1.565374531935999347e-02,3.199923269244493995e-01,-2.318306065276865280e-01
-3.315918399022213525e-01,-2.368122274569926522e-01,-1.159944515895972472e+00,1.061268902584041607e+00
-9.311034192861267211e-01,-8.109109508818277412e-01,-3.220184513487625466e+00,2.993740904820463289e+00
8.500528298008672712e-01,7.501284563091001889e-01,2.629273776496150461e+00,-2.288596672052593650e+00
2.355402604724081139e-01,3.046312597116266896e-01,9.348911180523742370e-01,-8.514278659348301082e-01
4.707339043285619917e-01,4.477755433911801419e-01,1.620677150295397606e+00,-1.533277654156454561e+00
-8.760993148523288365e-01,-6.976982430580759287e-01,-2.709185450963590203e+00,2.286748709452073314e+00
4.650734550808963141e-01,5.074644264827053997e-01,1.564891516336756050e+00,-1.446613980210668782e+00
6.643700874494101738e-01,6.267794280347043223e-01,2.195566693826975779e+00,-2.132220144016382157e+00
-2.040686191649027370e-01,-1.836041919350260565e-01,-7.889733594127716909e-01,7.397441748688925456e-01
-5.291211452762405454e-01,-5.052595135654195380e-01,-1.859069514532237122e+00,1.761509385822992213e+00
-1.942614346852086504e-01,-2.604759179988167528e-01,-6.199638281316270927e-01,5.242650894438559694e-01
-1.429231233535555590e-01,-2.836771762421301246e-01,-5.498963789348950693e-01,5.584671278414982121e-01
8.537548561301581129e-01,8.902674366360324720e-01,2.924259907654831459e+00,-2.696802284744860057e+00
-5.120797485077351052e-02,-5.850270916361181156e-02,-1.778913160518261760e-01,1.601740860852484682e-01
2.350414888496795418e-01,2.177499868994340615e-01,8.123833340131653147e-01,-7.089579738500038086e-01
6.220073481299053242e-01,6.172595878144452319e-01,2.031977570409223333e+00,-1.879163994403798554e+00
1.727508580735173660e-01,1.527532893578736894e-01,4.091621729012420161e-01,-5.017811534752194547e-01
3.083804748053995404e-01,3.236153078401491356e-01,1.018648759920301128e+00,-1.053897632946665830e+00
-6.408249276698911867e-01,-5.670862363650666094e-01,-2.087257148784943173e+00,1.908263201180330881e+00
-5.780948235656331313e-01,-6.131024675977577720e-01,-1.997376903342316101e+00,1.865220264515318194e+00
7.640151306898724792e-01,7.235845081871560280e-01,2.449599504566850161e+00,-2.397220425875031591e+00
-9.664330423279015037e-01,-7.960171575239175512e-01,-3.051863810170001301e+00,2.717177339804367708e+00
5.603121575952748623e-01,4.936629287010889100e-01,1.885485366498773407e+00,-1.618072677266661152e+00
-7.885448228626428246e-01,-6.941755633977729767e-01,-2.658167904911360235e+00,2.587177117872541565e+00
-2.832144446348953126e-01,-1.992823408848997391e-01,-6.797291543214789566e-01,6.283217020166412814e-01
-6.166454872403056425e-02,-9.567006720489540372e-02,-2.578108214121539454e-01,3.015437333867171943e-01
-4.357726737887558932e-01,-3.162095701097817901e-01,-1.273551038646368205e+00,1.152078986046519260e+00
-6.279929656362244483e-02,-2.330116010928279247e-01,-5.823740831305477261e-01,5.841507809014437891e-01
1.117273224814379767e-01,1.854622595208847979e-01,7.202626067831943146e-01,-6.017945337531791505e-01
-1.966471521443588499e-01,-9.821365116430748332e-02,-3.133744865955190306e-01,3.228699818412316680e-01
-4.096136514917081417e-01,-4.003123698223154947e-01,-1.511976641655956577e+00,1.411011773780172174e+00
-5.520407817037500386e-01,-3.955661717479267980e-01,-1.534455393717283567e+00,1.449042841334590825e+00
-6.102902670493453030e-01,-6.456454354656555594e-01,-2.055583984852113133e+00,1.868839644110426246e+00
-7.117950639402759183e-01,-6.224640480873653292e-01,-2.235798960642985556e+00,2.018129025119329345e+00
-8.498489549851755420e-01,-7.921764205805097436e-01,-2.783684946322678933e+00,2.521096683184525400e+00
3.607236120838621662e-01,3.420203673073846096e-01,1.188350395319888841e+00,-1.133150587525773245e+00
-6.363605262545640739e-01,-5.391479275385723247e-01,-2.056346734809620713e+00,1.874480904029072192e+00
4.593247063470072278e-01,3.908719858585714690e-01,1.643367408026563892e+00,-1.387361008138181750e+00
-7.680552129289822672e-01,-7.913856456398603578e-01,-2.726370880664194196e+00,2.380273157023013120e+00
-1.143842750172690659e+00,-8.608987138382193649e-01,-3.338316415680892213e+00,3.121161853838084088e+00
6.322223588847378783e-01,5.511676193555528069e-01,1.862970561619800902e+00,-1.711685249641924811e+00
2.932497517456252312e-01,2.925186939235460692e-01,1.012502950892322229e+00,-8.021106847137730034e-01
8.197232118435505699e-01,7.251332202119201709e-01,2.459999368976503842e+00,-2.416437569078042635e+00
4.203666222501082350e-01,2.819926107453639696e-01,1.102502951850513835e+00,-9.685585818142616876e-01
3.457759759974549651e-01,2.884000828512459647e-01,1.209348469707041573e+00,-1.158166426986352970e+00
-1.085320321121814313e+00,-9.376648449218593084e-01,-3.524635007515004137e+00,3.130360152407434704e+00
-1.029431807733315773e+00,-9.717135273971059251e-01,-3.409208949760824670e+00,3.174014596265160026e+00
-4.514612506690087179e-01,-3.802339834900128057e-01,-1.525546611087954307e+00,1.444943846474758375e+00
2.626617305196090602e-01,2.273211890407913494e-01,6.794063542477987161e-01,-6.501328789429416943e-01
2.800374488694775676e-01,2.411077894958962853e-01,1.037863590355523558e+00,-9.033452929156530198e-01
-5.908288691614840132e-02,4.940138984461049654e-02,1.501124251531000750e-02,-2.568136895223069316e-02
2.183208289881587716e-01,1.246574866918007535e-01,6.668900329723219667e-01,-5.129461647384053746e-01
4.320378432039590488e-01,2.918799355831864784e-01,9.753688624103846738e-01,-9.471747812341321238e-01
-3.140115542851917296e-01,-2.911085302511741135e-01,-1.034202674243607012e+00,9.015470156410888558e-01
-1.211998864678895810e-01,-1.099096478737760091e-01,-2.073577708050171886e-01,1.907770048056264267e-01
3.863834708902312287e-01,3.280208472542484599e-01,1.155018580945236462e+00,-1.072996925369235077e+00
1.016105798787513559e-01,1.758661514624786093e-01,3.400874425800450296e-01,-3.168410748552412115e-01
8.302578063900462046e-02,9.991798133077074706e-02,3.441111317880586884e-01,-3.007701548899068822e-01
3.957610703228802151e-01,4.831835534849027725e-01,1.631599908642907604e+00,-1.540055336457349711e+00
1.339675379626953100e-01,2.068374972867848549e-01,5.003857536027037645e-01,-4.327365941132429450e-01
1.331507757134020031e-01,1.775797065228729432e-01,5.674517292245624400e-01,-4.185580829513190215e-01
7.558890705241441133e-01,6.579452233351569257e-01,2.363852477461501955e+00,-2.131246849013880507e+00
9.416567064497829431e-01,8.184575278757713068e-01,3.073902073168539140e+00,-2.937453429318454212e+00
7.867892892459441567e-01,7.793505883866671535e-01,3.015819915280080643e+00,-2.751722069363132128e+00
-1.707356755289768380e-01,-2.331782077984904944e-01,-6.105026755077487266e-01,5.954280625371132230e-01
9.534330203052684416e-01,8.135097061317305700e-01,3.023885134010547482e+00,-2.735107499909264828e+00
-4.235563944202255793e-01,-4.810268403614837984e-01,-1.566713274408316980e+00,1.470782227741149750e+00
-2.149735273980790118e-01,-1.732968604389632794e-01,-6.864592405173004508e-01,6.699153321817084006e-01
3.150695000870714635e-01,3.021367906576112317e-01,1.088054545597064049e+00,-9.924842031274190290e-01
8.948900436783999712e-01,8.999147484546201614e-01,2.852473283300420270e+00,-2.738228407438217715e+00
5.944239051182185207e-01,5.628901253028878449e-01,1.757501374855607201e+00,-1.764588670633963297e+00
-8.842567617303758176e-01,-8.440905476798237217e-01,-2.849853957541862215e+00,2.672270023347325107e+00
3.067784846826026590e-01,2.165803514070884506e-01,9.642779833124858202e-01,-8.751212282117991625e-01
3.227210279043141727e-01,2.426439424850468374e-01,8.463991031130135845e-01,-7.942276977235083191e-01
-3.183036172045379808e-01,-3.200936044988511031e-01,-9.657149877465310839e-01,8.157332671275048241e-01
-7.199014701189564436e-01,-5.986457128167138597e-01,-2.223135056659060638e+00,2.111665220222560979e+00
-9.050093549272469895e-01,-7.466238507844591421e-01,-2.773238558184114577e+00,2.550003876139897319e+00
-4.014285817744394497e-02,8.617210379368669959e-02,1.047109947999597113e-01,-2.540808944402425662e-02
2.141001786480040137e-01,3.451406620145525683e-01,9.457049604496343687e-01,-9.291585891087582594e-01
-8.286915525048337283e-01,-7.182032961154440898e-01,-2.837384424971352903e+00,2.674097293499059891e+00
1.882067988161938432e-01,2.634654723343449745e-01,8.261562597401763686e-01,-7.720336636580510392e-01
9.767481553139205352e-02,9.136107211572114251e-02,5.165930525011617203e-01,-4.978231559489477709e-01
-4.166005975935822142e-02,-1.465936537182174759e-02,-2.323262190277650407e-01,1.084903854901304726e-01
-8.626027325724471284e-01,-7.215269937128568900e-01,-2.679359414615436474e+00,2.452519022907313939e+00
7.955112127192549565e-01,7.475747970635702178e-01,2.795421680987268509e+00,-2.665177087061713745e+00
3.481444355532608004e-01,3.175729258983709946e-01,1.111437833998101921e+00,-1.002473353366626796e+00
-8.679951855023350094e-01,-7.514657451597663851e-01,-2.735440528468260357e+00,2.653103791699402692e+00
-6.249108538927686807e-01,-6.313896135385967945e-01,-2.442086509378826431e+00,2.144939074010484781e+00
3.991828471297199088e-01,3.590830086954149847e-01,1.275418146622226523e+00,-1.239527877506195086e+00
3.818747005531633598e-01,2.560225488032168983e-01,1.087289170629324619e+00,-1.048469907102892451e+00
6.189927039486587956e-01,6.660617792271538162e-01,2.056877758322184668e+00,-1.871268027552208668e+00
2.224304501287280023e-01,1.704196469891113841e-01,5.780739297390637965e-01,-5.280457558822881925e-01
6.107074065677676744e-01,5.143854153824275466e-01,1.825191623880306757e+00,-1.782245810613386272e+00
6.323141004861316805e-01,6.787392675960103317e-01,2.342205387540688744e+00,-2.107950068144010203e+00
4.071683003854787986e-01,3.477941263375913805e-01,1.193892881367318859e+00,-1.177707397538779510e+00
-6.999268274967270775e-01,-4.758480241699146740e-01,-1.974047703811566246e+00,1.781358670671887134e+00
8.452613789674092715e-01,7.189544885847755085e-01,2.997524709910572849e+00,-2.777904100099215512e+00
4.338068245563255765e-01,3.256223028652218687e-01,1.457762710486394608e+00,-1.473205090366036751e+00
-3.166503368012097419e-01,-3.211544944710335581e-01,-9.769409953022919479e-01,9.738488823413751216e-01
1.265543829586182056e-01,1.492799305193328874e-01,2.317960988650701326e-01,-1.173357732754670285e-01
-4.977189561260839112e-01,-4.224315849554975411e-01,-1.571631278626579808e+00,1.348026159810973956e+00
6.361052223124619154e-01,5.296685318531250131e-01,1.877179697526877744e+00,-1.696954192855306243e+00
-7.569533004322226422e-01,-5.157643932680792132e-01,-2.407780488866087865e+00,2.244201907852180433e+00
-2.919440963811781309e-01,-3.583050987901952311e-01,-1.076087716410854211e+00,1.142682995591772555e+00
-8.765831208901869731e-01,-8.315272202680266123e-01,-2.959146260788775962e+00,2.761304042773240486e+00
-4.243010800687049278e-01,-4.526467068262754467e-01,-1.358140641412371341e+00,1.226214307469717157e+00
-6.489319439077276819e-01,-5.993425283832277684e-01,-2.230626237921244925e+00,1.999363572460222338e+00
-7.326711064739281909e-01,-5.924412952030989610e-01,-2.264884587911736524e+00,2.087829165575973089e+00
4.462431317798780661e-01,4.621994392860126477e-01,1.473041799643214578e+00,-1.449978079603466474e+00
7.886100025055144125e-02,8.252582064279506691e-02,2.051623175601695603e-01,-1.600451306310859134e-01
-4.789141846282127801e-01,-2.840332073236957466e-01,-1.506856620522481593e+00,1.263700592886616292e+00
3.695729025325390077e-02,1.270767216075426032e-01,4.762452351111527427e-01,-4.105163308574079073e-01
1.247964849995217285e-01,1.786264035237727921e-01,3.374916381268126542e-01,-1.757034894620731758e-01
3.113801075449294520e-01,2.582293034340114590e-01,1.084130779856906424e+00,-1.144023619248934587e+00
-6.122011358300291084e-01,-4.767937532797404954e-01,-1.944793242992182591e+00,1.672106905163308399e+00
-1.018492254332521219e+00,-8.885609138781839222e-01,-3.245427216527015712e+00,3.094854978506245580e+00
3.128393239992036667e-01,3.777718199311670411e-01,1.060863766324220192e+00,-1.004548129918056754e+00
9.173213240264036505e-01,7.937052173355458873e-01,2.976439643657007750e+00,-2.790054122676569381e+00
5.920173149937464629e-02,-2.349879011516548596e-03,8.596919899447452718e-02,-1.715459714898369958e-01
-5.857937479696857519e-01,-5.304844516129728627e-01,-1.671886673652698496e+00,1.670237922616512494e+00
8.902446377258262933e-01,7.563052045867461048e-01,2.849136272910896217e+00,-2.626214154796372657e+00
-5.775166820014904223e-01,-5.207872131709617713e-01,-1.927001868985878774e+00,1.709855531052377975e+00
-3.669346654561679855e-01,-3.859731833061506023e-01,-1.379586502752187860e+00,1.294503191879321058e+00
-5.121631215926379932e-01,-4.548252171597985671e-01,-1.689012302681853095e+00,1.459090583259729179e+00
-9.130565588456182047e-01,-9.086035381798260868e-01,-3.221097108818703703e+00,2.873627253836954942e+00
3.490643937392711171e-01,4.092514186852333480e-01,1.450579001157005443e+00,-1.236738898156885647e+00
-7.977625205226998029e-01,-5.881336394403700041e-01,-2.367323735679436325e+00,2.177510056606181355e+00
8.524741327035065819e-01,8.994055209778606397e-01,2.960379470658063727e+00,-2.762175932402672895e+00
8.364050067854900128e-02,2.387668481969264581e-02,2.638346130449130134e-01,-3.065765816325785043e-01
-8.182660869289817285e-01,-7.547086151602360182e-01,-2.714155317399587375e+00,2.488001564580499814e+00
4.934496534729373440e-01,3.829177584287659086e-01,1.583628551042423505e+00,-1.494986867288608190e+00
-4.731828772841480402e-01,-5.506820876999279912e-01,-1.798712214199884363e+00,1.507792429300017112e+00
3.804496503793076134e-01,4.808778349442395794e-01,1.449280195806351257e+00,-1.370980509790263424e+00
-3.418537208852887033e-01,-3.042504417339124134e-01,-6.963009286482046978e-01,6.966231398443153422e-01
-9.918134892435036543e-01,-9.071500071297602386e-01,-3.390585398027595065e+00,3.160026171669523265e+00
-2.876516161284087270e-01,-2.363509222553918376e-01,-8.492760906549354782e-01,8.010029290301334814e-01
2.150512971730404732e-01,2.752737985657569553e-01,6.789191276239381345e-01,-6.914020248651048250e-01
-3.813668618404528754e-01,-3.431555138136163086e-01,-1.268482704057053878e+00,1.247628158178685664e+00
9.381921473262120337e-01,7.646325333782745259e-01,3.001994275194737494e+00,-2.752419257032187261e+00
1.925643172978910300e-01,8.695098374470287828e-02,3.423372182949741549e-01,-2.528123894992012621e-01
6.639938475509128413e-01,4.969213540857454481e-01,2.121097413290976341e+00,-1.917594698608432902e+00
2.874665475953133709e-01,2.929793201213418685e-01,1.122957625448343988e+00,-1.021631969945266283e+00
-3.741633701190097971e-01,-3.532078540395097166e-01,-9.740489524176199065e-01,1.017006868689212862e+00
6.314284036744954864e-01,5.266490177887739321e-01,1.982818600312564739e+00,-1.796194433132983770e+00
-5.955322705561786334e-01,-6.165686443993977361e-01,-2.258255878266477001e+00,1.995490844910176254e+00
-7.922960704234218721e-01,-6.161769922845493630e-01,-2.547710469323129612e+00,2.429839064288939365e+00
6.785839289341315528e-01,5.177176425020456607e-01,1.976979007507760233e+00,-1.923285746793540030e+00
-9.948252206750931581e-01,-8.054862637829555139e-01,-3.311879367214861425e+00,3.004445353976906929e+00
2.780400225170122086e-01,3.666613126493724062e-01,1.240154281167220374e+00,-1.084990521474036518e+00
5.867972198272560780e-01,6.250592479688552583e-01,2.046032135834362720e+00,-2.012028322637671174e+00
-2.619307275746465269e-01,-2.210333480581552767e-01,-1.170746446081041947e+00,1.046808357727661898e+00
7.807515409128310546e-01,7.033260863995401957e-01,2.177561742753347129e+00,-2.133950943078878559e+00
9.752678203564085768e-01,9.118693200336619453e-01,2.971921878681491602e+00,-2.813876180269805349e+00
5.989334120533407191e-01,4.832081342787167277e-01,1.903731241554154519e+00,-1.689391376931720812e+00
-4.093631752488836040e-01,-4.200200072778393912e-01,-1.720607779824152805e+00,1.564595566811492588e+00
-8.571997232406139977e-01,-7.079218694450958305e-01,-2.482369466351072695e+00,2.267895475022803087e+00
-8.541411852883845635e-01,-7.842734109898643613e-01,-2.619853019040232045e+00,2.310428956424834812e+00
2.827959603278008549e-01,2.907495500908242048e-01,9.822621053459978935e-01,-8.746820935044202772e-01
-1.870347181803795611e-02,3.821141818415035168e-02,1.227697206273738045e-01,-6.343315976653633725e-02
7.313957729476793235e-01,7.528366948685911719e-01,2.522955976725479665e+00,-2.290039874477147297e+00
-1.033857704157040702e+00,-9.832664714723831079e-01,-3.530851864023667019e+00,3.112189888595743970e+00
6.975248454087799033e-01,6.563716658803923076e-01,2.368104622792779779e+00,-2.183287564760544974e+00
-9.768606239929637780e-02,-3.237664712948642998e-02,-1.724417723965666199e-02,1.328297172784528336e-02
-6.352431920428222023e-01,-5.484253100169037554e-01,-2.167591580437180365e+00,1.889881495590138405e+00
8.067841236343041844e-01,6.064774187807105976e-01,2.496277157794618340e+00,-2.278282806999044841e+00
8.226404327312440978e-01,7.750150276775347180e-01,2.693719119599705447e+00,-2.458988270081081673e+00
-1.079036700896250034e+00,-9.297945750080930383e-01,-3.307361118564260405e+00,3.037289341269684861e+00
-9.188464936154886464e-01,-8.161564992572339916e-01,-3.049254215199339590e+00,2.792501522062484032e+00
1.007840958223911620e+00,7.906561185882595710e-01,3.069297542893524966e+00,-2.805204057932110029e+00
-4.295469330003436337e-01,-4.732702290826917846e-01,-1.440806720797589202e+00,1.388179682557948214e+00
5.452027448417026134e-01,3.989380868209664865e-01,1.650734781314134869e+00,-1.525549755949641817e+00
2.330696176217373489e-02,7.347021029063206810e-02,1.749314917905239047e-02,-1.146006091246824787e-01
-2.812141171844230181e-01,-2.832287204692497395e-01,-9.300638898856293801e-01,9.399534292560965953e-01
2.673733741608241843e-01,2.262157649965547412e-01,8.975286379526895564e-01,-8.626374108588606981e-01
6.532351592093347259e-01,5.428645180972296869e-01,2.035927081623566171e+00,-1.844931971526387882e+00
6.937008537692985755e-01,7.331587774688232972e-01,2.392526494386567393e+00,-2.242175037010638583e+00
-4.812869913901359764e-01,-4.407710186191814983e-01,-1.575387954706368498e+00,1.512257465350045793e+00
-6.602644293637611739e-01,-7.102044742110916742e-01,-2.392925455470926721e+00,2.114357301768488906e+00
-4.859932404379722071e-01,-5.139601276062408797e-01,-1.814168744155310486e+00,1.792880384876960553e+00
1.078597991114647936e+00,9.167227665925556934e-01,3.531229848829258167e+00,-3.267009245968024000e+00
-3.742493199423912453e-01,-3.210157282354336172e-01,-1.133503516106256104e+00,9.483586671287020931e-01
1.396731621020701475e-01,1.704851105220688279e-01,5.594359478069873548e-01,-6.077648395121544311e-01
7.802668215527929219e-01,6.769637830611950902e-01,2.323278343485364772e+00,-2.127299756417837973e+00
-8.924494217091551995e-01,-7.978269914997810908e-01,-2.694548980106840297e+00,2.458539007321605574e+00
-9.335305053526420094e-02,8.850416177609090468e-03,-2.655369215584748033e-01,3.105421186680565881e-01
-3.856155147559832685e-01,-2.476094086779270786e-01,-1.246501162581334254e+00,1.096412150612216863e+00
8.620361410962518178e-01,8.944564773790905088e-01,2.992514784675447181e+00,-2.729229007634838222e+00
9.300384741521109389e-01,9.831170266533405533e-01,3.451284839177029440e+00,-3.127681030104996207e+00
-4.694263964407142942e-02,-4.642910135568487778e-02,-1.729923475466477734e-01,1.952911270761481799e-01
-9.558639742120946803e-01,-8.371357335850330150e-01,-3.049560646998561886e+00,2.760593864944544507e+00
-6.864023910858856325e-01,-5.224451572090381690e-01,-1.998513465402556255e+00,1.841295556726094240e+00
-1.066928712560534009e+00,-9.147900100908394894e-01,-3.462158152694834179e+00,3.184949164559682355e+00
3.467600190549591233e-01,4.800450269312084850e-01,1.491807078668156983e+00,-1.430182133170306846e+00
-9.659129395972321230e-01,-8.301573371170128945e-01,-3.184157856168234879e+00,3.002752966361944775e+00
-3.693754451979106013e-02,-9.926048415810215242e-02,-4.290923971198943310e-01,3.785847083321577933e-01
-2.139630300840121568e-01,-2.476800751299148007e-01,-9.883425534546528279e-01,8.219246233773370713e-01
9.569569738346527243e-01,9.986636523782670416e-01,3.344438529392716575e+00,-2.963587394325286617e+00
2.175610329017165778e-01,1.533950935334373045e-01,7.358252230515595071e-01,-7.021263384223977999e-01
-8.527741697294927148e-01,-7.800864432367720092e-01,-2.988383679004099847e+00,2.678342619713826256e+00
9.577491545337455392e-01,8.356795044205681533e-01,3.009716410455927527e+00,-2.857932315057631012e+00
-9.331524600532917768e-01,-9.299315043855759244e-01,-3.140457736161125446e+00,3.042444687216256050e+00
-4.399311847522717756e-01,-3.503344014024352138e-01,-1.169507753549539952e+00,1.116008667652835129e+00
8.007969154009225710e-01,6.894354773880563281e-01,2.625042418014975176e+00,-2.422125410354317498e+00
1.060324800215107777e-01,1.078064811409476798e-01,3.447206580237855422e-01,-3.203303050853396061e-01
8.531085513529182984e-01,6.708495119998109102e-01,2.431542147674829124e+00,-2.374037492645243219e+00
8.730388405909950134e-01,8.215541623636183344e-01,2.685691643292179354e+00,-2.560042823134383916e+00
5.320122127249236055e-01,5.748110697372925681e-01,1.940879097074433846e+00,-1.704693728368885663e+00
3.346109185638639349e-01,2.509608873279213781e-01,8.357140281816678451e-01,-7.688728419240977718e-01
1.049384003172981750e+00,8.936943698543745596e-01,3.424069111337955551e+00,-3.277735663500445540e+00
1.567683696383254388e-01,1.463904877128011928e-01,5.024147537377734452e-01,-4.979847887068121759e-01
4.002427437320683623e-01,3.424779212959323527e-01,1.288745573379894260e+00,-1.218796624768514247e+00
-6.481706227893063721e-01,-6.167231668808950129e-01,-2.219807600024634286e+00,2.017752755894380634e+00
9.174506043268104705e-01,8.714093428059781488e-01,3.024003327705549804e+00,-2.937419802724143825e+00
-3.366048620338336628e-01,-2.466365376728976988e-01,-1.115138276710057053e+00,1.085366277076273089e+00
-9.977969146203624629e-01,-8.442918350567777397e-01,-3.114226711356424371e+00,2.924297158751400616e+00
1.143942181747197528e+00,9.510343010094228777e-01,3.471378309137447715e+00,-3.174268229389999085e+00
1.023679575999270730e+00,9.631997386861532728e-01,3.449645737918828559e+00,-3.148273686932228976e+00
1.915672507868555197e-01,2.617467991736114885e-01,6.024153582881481839e-01,-5.529303863401058283e-01
-3.588347327341465665e-01,-2.872070486895632047e-01,-1.025854853077997397e+00,8.770135926354315492e-01
1.048989862059693134e+00,9.251730270168977421e-01,3.429606904842110726e+00,-3.109642893785105056e+00
-1.016216063456676588e+00,-8.993917814554233114e-01,-3.255959979442991425e+00,3.035718724871832475e+00
-9.856723398592505403e-02,-7.150597831762404988e-02,-1.876377602489046337e-01,1.995315937602970269e-01
9.471447604869953629e-02,-1.118015451333292942e-02,7.831291358370913447e-02,-9.755325254672095325e-02
-6.420858871616526020e-01,-5.602791305967566027e-01,-1.963407897490682119e+00,1.937899329530393233e+00
-7.656051443026860026e-01,-6.629613270068440700e-01,-2.480799137887781391e+00,2.351486998895865543e+00
5.240813751515748242e-01,3.996778056788457545e-01,1.648425176283541127e+00,-1.459275763620504263e+00
9.972575575983806395e-01,8.548042618943251236e-01,3.025966458540181314e+00,-2.844167842863597251e+00
3.210415976700409790e-01,3.132110346900486286e-01,1.395413383847056155e+00,-1.223313827424606703e+00
-2.711168233273353323e-01,-1.586342372275483248e-01,-7.180420977725827658e-01,6.940686717847142084e-01
-1.008913051305324160e+00,-8.084297015407558851e-01,-3.289828533857679371e+00,2.988424305531136138e+00
6.510338279603404728e-03,-1.329791521590302783e-01,-2.237931687094479039e-01,3.414871863076361369e-01
-7.765695271800236998e-01,-7.985550077349092835e-01,-2.436723055054453191e+00,2.324798357734900733e+00
4.265536134223527065e-02,1.479238136443135065e-01,3.533525453502618929e-01,-3.590275600276122137e-01
8.565634399230769025e-02,1.115062150005094177e-01,6.014701010988641183e-01,-4.719785075332502133e-01
-4.806592449118806676e-01,-3.074703326336664655e-01,-1.390149974352801188e+00,1.360092148455245065e+00
2.645665136665280581e-01,3.430440533692002414e-01,1.115469746011613861e+00,-1.098356255963242489e+00
2.752963680092805898e-01,3.247792821533408425e-01,1.114454019617282077e+00,-1.153446815095211742e+00
9.096015315844810933e-01,8.452998574835434153e-01,3.114965243123723582e+00,-2.808081441039305570e+00
-8.500610700972963674e-01,-6.861676317791295387e-01,-2.821727946128452125e+00,2.528976501113138653e+00
7.005500962307792401e-02,2.737717888242281045e-02,9.097908186165711009e-02,-6.006832487258880610e-02
8.135469075782923998e-01,7.608071553194722947e-01,2.696978487521873635e+00,-2.430308475633301768e+00
-4.305643986382837185e-01,-3.464385455123947799e-01,-1.229734447398170616e+00,1.216889975723200346e+00
2.059531095945015267e-01,1.748425167756629262e-01,7.089155841763228327e-01,-5.939339599130741831e-01
-8.685342676565555031e-01,-6.620375923990932110e-01,-2.475788717238438963e+00,2.330380717347402708e+00
9.420157401338646874e-01,9.063487592771379830e-01,3.486155072235693098e+00,-3.272056938444479091e+00
9.425738428488761311e-01,9.121920303344888126e-01,3.186066907412599125e+00,-2.892034838786916140e+00
-1.369258399913098889e-01,-1.631964611109321950e-01,-5.135335176138937641e-01,4.523001637269962183e-01
-7.869046306973143112e-01,-7.139699535756444115e-01,-2.404847256527112176e+00,2.240139856359759651e+00
1.017759151394651118e+00,9.779778863335393257e-01,3.372496045146707200e+00,-3.025207745001950776e+00
-3.774029452989533517e-01,-3.400327448010632136e-01,-1.269721461781210481e+00,1.226295549678599217e+00
-2.811619677695887942e-01,-2.533086035690922388e-01,-6.827836177955702857e-01,6.091307889864927549e-01
-1.037757101709100571e-01,-1.488068784103552256e-01,-5.563408832556844263e-01,5.384309260892082838e-01
-5.652229732215808822e-01,-5.335744149608079301e-01,-1.923981234324345202e+00,1.836840822804160611e+00
-1.857697853438425653e-02,-8.526326866429524351e-03,5.715642527318787885e-02,-3.427427752719801324e-02
-1.032469790238388363e+00,-9.197648250797941794e-01,-3.339880174627234855e+00,3.062417062932369038e+00
1.001972691169719321e+00,9.324684859507605950e-01,3.275630527613371701e+00,-2.870765929321134724e+00
-2.172281216218457101e-01,-6.748048465808272056e-02,-4.516135586736156893e-01,4.208756998484108336e-01
7.095269766469355366e-01,6.393871083432692837e-01,2.125103283172578017e+00,-1.907836721490119292e+00
-2.208309236879995308e-01,-1.999666729118023401e-01,-6.425332905409425477e-01,5.893423675190193611e-01
-5.517295977766185633e-01,-4.890364766023659326e-01,-1.624510149035837347e+00,1.506921000037512171e+00
2.830157942514054392e-01,1.884818156707665504e-01,7.608591873461295618e-01,-7.489919903303160487e-01
9.236599456152115584e-02,1.618825581856076223e-01,4.310271869503869979e-01,-3.139090819299680257e-01
8.519172567978732236e-01,7.018198194304071658e-01,2.665964214271043353e+00,-2.501784547104304313e+00
9.990393175256212510e-01,9.725448669068855745e-01,3.184982591957180365e+00,-2.987372175713302713e+00
4.949942151603590190e-01,4.452573975610364942e-01,1.751305642140324803e+00,-1.620518555463220656e+00
-6.155731106462336566e-01,-5.072461555820860779e-01,-1.939306025141395384e+00,1.819023989926730867e+00
8.839729134184128867e-01,9.154530127575253307e-01,3.081246852703160677e+00,-2.914037932240887141e+00
1.190902205550109783e-01,2.255242246337204326e-01,6.922308206008273013e-01,-6.765575551809605015e-01
-7.382896494167999757e-01,-5.520620792489028261e-01,-2.256760346010338480e+00,2.092118405603103248e+00
7.816673208671756634e-03,-1.724768819442250647e-02,-5.404339002203180364e-02,1.687031066423776843e-02
-6.501472338051201838e-01,-5.454704823448093265e-01,-2.031809282234037006e+00,1.907035665074615638e+00
1.032420110055923157e+00,8.568215156671847854e-01,3.331497077054198286e+00,-3.086181206751376749e+00
-5.709853958779518290e-01,-6.302809971131122513e-01,-2.161362795256058789e+00,1.988866757400477248e+00
-4.228749233734934720e-01,-3.078714576486131782e-01,-1.159486018290667442e+00,1.006088186889753544e+00
3.117491267372762831e-02,4.819786890588902833e-02,3.485207266057543940e-01,-3.065104797318656260e-01
-1.023610185729578181e-01,4.359866523746984586e-03,-8.054476038979817287e-03,5.432440345451819246e-03
-8.765429170438492346e-01,-8.404720980032829303e-01,-2.934443934534121112e+00,2.766162118428431516e+00
-7.210180668517176539e-01,-5.409312427943062662e-01,-2.262168904574676009e+00,2.065303678343513472e+00
-9.088931563851436746e-01,-8.367144468613089137e-01,-3.046364946681532793e+00,2.754163421230150899e+00
2.701409563066852204e-01,2.793579817013458477e-01,9.096426674067925600e-01,-7.137337475049296831e-01
1.024845631051343409e+00,9.469459018496181324e-01,3.362189662160154580e+00,-3.063080145068227012e+00
5.906623292733492736e-01,5.466178814912343586e-01,2.174875870716831638e+00,-2.062362784373082736e+00
-2.638243441354700680e-01,-3.215713699927827962e-01,-9.743009221687888299e-01,8.535125496045615767e-01
9.145795897751149983e-01,8.587395590762744169e-01,2.859579843913342856e+00,-2.628461530868107410e+00
-1.054462834623466794e+00,-9.045739313283612804e-01,-3.276622551222882596e+00,3.006087701920734379e+00
-3.098558019651267981e-01,-2.622411302137558908e-01,-9.153152350884188326e-01,8.459247015129830460e-01
3.157020817817667302e-01,2.556279313633149641e-01,9.821088511237741070e-01,-8.756612158473536800e-01
7.002873372277175212e-01,6.741078325797785764e-01,2.377491869018629522e+00,-2.161626353046532056e+00
9.635999731629913967e-01,9.258541221942614419e-01,3.286964539201104429e+00,-3.045870716040796289e+00
3.336469643939207752e-01,3.095895173569013226e-01,1.316107762931240766e+00,-1.216492793106356274e+00
-9.235490325365024455e-01,-7.985366310448795968e-01,-2.944392903788103588e+00,2.777333606854948123e+00
-8.416173126036157193e-01,-7.950626392777467855e-01,-2.936899718153117789e+00,2.694274931300255638e+00
1.580644028687297753e-01,9.040516266070726392e-02,5.745382799902377657e-01,-5.969511612460495220e-01
-7.864209906149041140e-01,-6.626445367984863388e-01,-2.514797200136666522e+00,2.290321726233200295e+00
-9.929612460108386829e-01,-9.684907531203332809e-01,-3.328124184998770829e+00,3.011849643202262339e+00
9.739262520700117109e-01,9.446734266485832254e-01,3.294441695300141859e+00,-2.980642835257500067e+00
-3.723053737589316348e-01,-3.035091191081663031e-01,-1.066471124508276525e+00,1.068870812883868870e+00
1.557102174354436930e-01,2.104654995152779873e-01,5.615121290556376321e-01,-4.953337967189526680e-01
9.143406894683202557e-01,8.880405381122974395e-01,3.128418846498250527e+00,-2.835893987145477801e+00
7.920038778904487931e-01,6.686432461771110169e-01,2.651557885063245745e+00,-2.372352577171206622e+00
-6.896078004419256557e-02,-1.186231303126902420e-01,-2.445024770642272860e-01,2.247301960093605333e-01
1.640348599058175372e-01,2.119443334215632413e-01,5.582370956919894267e-01,-5.902645191569966254e-01
5.143111735816587871e-01,4.804393099451090832e-01,1.544694039785532880e+00,-1.423910948595769499e+00
5.651099390924843036e-01,5.325492305794969905e-01,1.994849431063376866e+00,-1.791760551943675006e+00
-4.496697446452730396e-01,-3.935433223353203558e-01,-1.339253122279346009e+00,1.322080078499217715e+00
-1.675388928007787159e-01,-1.753835932004111919e-01,-5.045133430015515952e-01,4.634170733220670524e-01
6.815167147085445798e-01,5.333861634202262669e-01,2.094021362338640113e+00,-1.856737864404513605e+00
-7.060645673309399184e-01,-7.220855257342005951e-01,-2.608535318612795084e+00,2.311879756365772476e+00
2.773384404830213090e-01,2.086571363501080190e-01,5.436799476229162709e-01,-4.570089924442723439e-01
-9.872278319992533469e-01,-8.415971444722091244e-01,-3.101693139644861485e+00,2.880233379917318537e+00
-8.419455028894750059e-01,-7.902336724591210171e-01,-2.879602747154940356e+00,2.663905684138734298e+00
-1.817183376029466169e-01,-1.677048171079683903e-01,-6.680505333677599911e-01,6.673930464173158938e-01
9.945959024335333520e-01,8.554742790495365456e-01,3.380142998613666183e+00,-3.094023373642102559e+00
6.317394961026631117e-01,5.250555465829098711e-01,2.145331305843018566e+00,-1.931049486384400105e+00
5.001837374081489207e-01,4.869001391676424650e-01,1.648212862778567267e+00,-1.539382043887399520e+00
1.075953054749311466e+00,9.934527549932212764e-01,3.385831551757145341e+00,-3.211375648797475613e+00
2.820079652975197512e-02,4.872989909549317600e-02,1.112431242449461455e-01,-9.672916980413658050e-02
-3.994873092488147037e-01,-3.396171511272221832e-01,-1.403528638449636379e+00,1.354848690783709841e+00
9.584738572570256077e-01,8.458232095724448341e-01,2.778306828369172976e+00,-2.577004923136047232e+00
-9.376763863364435680e-01,-9.158328938388708984e-01,-3.155097000012278663e+00,2.879723594999261227e+00
7.648841239377600354e-02,1.903932508015828695e-01,4.457029582505006027e-01,-4.968157399030812549e-01
7.817273071764120618e-02,1.170052104144718302e-01,2.247720274447927158e-01,-2.434793976290166029e-01
1.041140663678686851e+00,8.382825213043515467e-01,3.309767635801981189e+00,-3.007170972105202900e+00
-6.004981441248286034e-01,-6.277543319872792571e-01,-1.922929761013918881e+00,1.775352709187775213e+00
7.667138941846115552e-01,7.723231687818047364e-01,2.650032130546007725e+00,-2.324308711699509811e+00
-1.103892143688796290e+00,-1.041597107196776895e+00,-3.558536812356209111e+00,3.339949859698326584e+00
-3.409930161027165951e-01,-3.376603630277556500e-01,-1.162809719771323635e+00,1.140717881372808273e+00
6.037683758399383649e-01,5.546537025048736691e-01,2.235946250711387862e+00,-1.938804708581732372e+00
2.832805338858851996e-01,1.824027079672519147e-01,7.830783946621593383e-01,-6.771948653023341924e-01
7.441533622863832909e-01,6.956127875340053501e-01,2.389392837174540762e+00,-2.135803342734032828e+00
7.289962314174495139e-01,7.198019190149659297e-01,2.618333925962347930e+00,-2.456232446966752914e+00
7.376162033493386394e-01,6.931626972603034398e-01,2.637968978252433594e+00,-2.401877883107075284e+00
1.632222119576482444e-01,1.609458244526807968e-01,6.965196702328183553e-01,-5.559221062818997527e-01
4.103458672518921491e-01,4.596754483604622576e-01,1.699431740948258218e+00,-1.552726246170953672e+00
5.098179102752364855e-01,4.500632169148729989e-01,1.424785515778849376e+00,-1.411360193064387314e+00
9.665933704713596253e-01,8.795360864262337097e-01,3.041628515703175939e+00,-2.709001116322383496e+00
-2.847195775489309577e-01,-2.215716890459666910e-01,-8.317662928022345747e-01,7.592585941547720374e-01
-8.186115592925556905e-01,-6.689565808099696698e-01,-2.459685472247057803e+00,2.313366534673580777e+00
-4.545350668404258276e-01,-5.399657735812862791e-01,-1.747768241795300881e+00,1.657828492886220140e+00
7.592765027987268267e-01,6.777281687488639905e-01,2.521143550772932951e+00,-2.408301797111769282e+00
-4.011220242855865759e-01,-2.792471428225416497e-01,-1.166936214458095034e+00,1.118677922378550127e+00
9.262483381740641009e-02,1.335396095316917220e-01,5.072188665071394320e-01,-4.955480557186804913e-01
-5.522906749647820135e-01,-4.314962819820210016e-01,-1.762233597867897350e+00,1.694280323424584900e+00
-4.246389216004010647e-01,-3.707515213952471966e-01,-1.663675879908089073e+00,1.541728329754958660e+00
-5.238325809021741053e-01,-5.091346597354332593e-01,-1.923598051189699509e+00,1.796014739611562661e+00
-1.018874602563111909e+00,-8.722812660553719288e-01,-3.393584615083032663e+00,3.115229725962674667e+00
2.399101788406697577e-01,1.438454973103718004e-01,8.734085374550236702e-01,-7.542794546222389984e-01
8.110213122634926108e-01,8.100499690789224605e-01,2.564433530466335043e+00,-2.425510873316451210e+00
-2.664080504868989729e-01,-3.473442471575631241e-01,-9.138112799603559377e-01,8.867925655184357714e-01
-1.056919355508500802e+00,-9.431908334729177668e-01,-3.466242345659586555e+00,3.250538035142431781e+00
-2.430967720253102426e-01,-2.480174368642515670e-01,-8.612132339589647634e-01,7.196606811054241382e-01
-8.753152987095371707e-01,-7.753838674764993444e-01,-2.633307833965009337e+00,2.442820376586949838e+00
8.900711253328342787e-01,8.116295603015134530e-01,2.756230087978762011e+00,-2.513391362629777248e+00
1.240501637221003844e-01,9.102883731772891396e-02,4.402590598959271184e-01,-3.973430625853789921e-01
1.583493837787993963e-01,2.491936608841844591e-01,6.462984374618965244e-01,-5.707979805188423406e-01
7.609501873305459796e-01,7.415046630614781087e-01,2.610674709237590818e+00,-2.271164634723723097e+00
7.472451026797718443e-01,5.612581912546000806e-01,2.384312086480391724e+00,-2.106539634728783472e+00
9.654304774712620107e-02,3.156795153243842078e-01,9.554483047360484704e-01,-7.919311936376038918e-01
4.980089143547983266e-02,7.631359127564188438e-02,8.023668800717463634e-02,2.969000101262969649e-02
-9.423374024007524774e-02,-1.024827851331406164e-01,-3.230638171109689316e-01,3.070838655230760939e-01
-5.068975195847291726e-01,-5.210129933412056547e-01,-1.705460987319668664e+00,1.618074509962875052e+00
2.669303589128195764e-01,2.461174856405006772e-01,1.105141651830532368e+00,-9.599105342453858603e-01
-1.565867958080771616e-01,-9.028850878587008078e-02,-5.580463473455586909e-01,5.072951517391461884e-01
3.574808717748628739e-01,4.593487489548614411e-01,1.556260185614960490e+00,-1.276023796603975802e+00
-7.549626940205143022e-01,-5.873552285085297253e-01,-2.354234446754583043e+00,2.105527611625383155e+00
9.986939681327675622e-01,8.702086365221608499e-01,3.122522902601379435e+00,-2.948009398355329047e+00
-4.583555412805945806e-01,-4.263127284290782470e-01,-1.462574520005040180e+00,1.369756728451974048e+00
1.031497570446774148e+00,9.621451266507844435e-01,3.404742308415520835e+00,-3.117509821128193082e+00
-3.569342995500406346e-01,-3.836285341117768311e-01,-1.240739115361229938e+00,1.204058658238921442e+00
5.169018392584646682e-01,4.156324713733874354e-01,1.613788799916227035e+00,-1.519522596543703585e+00
-5.676233658270189997e-01,-4.985241953581808216e-01,-1.838051211066946244e+00,1.737187228899132352e+00
-1.559426768255774143e-01,-1.665962684463626331e-01,-4.432614107018291172e-01,5.455664179615939968e-01
5.938827078500317214e-01,5.654304919546775388e-01,1.809107160630244238e+00,-1.628572000533185848e+00
1.703403967871960079e-01,4.133176335561369874e-02,3.105827646407697262e-01,-1.578640569139200533e-01
1.345834545695713813e-01,2.196806407512505444e-01,5.294110178955490076e-01,-5.481066848474666076e-01
9.359842419779158540e-01,8.934267800610184995e-01,3.103064433855207582e+00,-2.762216807159353138e+00
1.468408191138889374e-01,2.166644986676224266e-02,3.924932415512119577e-01,-3.732612154379310043e-01
9.351863799188488979e-01,8.991866257183644962e-01,3.325550991322633099e+00,-3.016397089073723503e+00
3.933757229919256915e-01,3.829298642579708756e-01,1.384524581318097969e+00,-1.258322197689910160e+00
5.677306647210436097e-01,5.835339443409264248e-01,1.846166446593510813e+00,-1.684902424896638662e+00
5.754095561119166868e-01,4.181696833490904930e-01,1.928353625077363631e+00,-1.703114627934806613e+00
-8.167893513903631275e-01,-7.306850609136434915e-01,-2.742725710071850731e+00,2.483941340382746610e+00
-9.507097663722414715e-01,-7.608290862024579271e-01,-2.993135528252933053e+00,2.715831101607645959e+00
-7.090708943276461396e-01,-6.059841331386677243e-01,-2.140132551276394679e+00,1.979879892362192306e+00
4.318911128693742607e-01,4.290738170409247876e-01,1.434351609356857571e+00,-1.339089540368772147e+00
5.102779815257417473e-02,1.236470038929431692e-01,5.397330624857112069e-02,-1.448796463935719467e-02
7.115933050495698575e-02,-1.562264234965339386e-02,-2.391353472991435657e-03,2.591739987043011062e-02
9.814965273541218505e-01,7.979948777028749163e-01,3.094745189389655593e+00,-2.745091324635283936e+00
3.272758700507339413e-01,2.972593973320867833e-01,1.136584073787567872e+00,-1.091731291497904044e+00
5.002231461274142532e-01,3.825820906778218400e-01,1.529390189404363998e+00,-1.432115780752853285e+00
-9.053139781440922018e-01,-6.904464528093899878e-01,-2.552069688041081807e+00,2.415231650221799420e+00
-5.140016434251687416e-01,-5.279920594730089789e-01,-1.817937092901551255e+00,1.700324485607530578e+00
-1.993978647175946306e-01,-1.397780503210414582e-01,-4.800631515502823965e-01,4.244610165043618544e-01
3.566776450895046136e-01,2.632307001616887576e-01,1.087818141259487170e+00,-1.031979961256439315e+00
2.135044941957243425e-01,1.640793440050405672e-01,9.450474325404112363e-01,-7.273755015228143828e-01
-8.699474978565906458e-01,-8.600097418710646036e-01,-2.968843056591696339e+00,2.642187158923560375e+00
-7.372100240145385008e-01,-6.561168201381303300e-01,-2.477341679323235013e+00,2.245574040911000324e+00
-1.878370616204351473e-01,-1.715106622113128088e-01,-4.636392732204484557e-01,3.868376518665301300e-01
8.020587458841375861e-02,1.693285415710830133e-01,5.109883398508541230e-01,-3.459287227946627463e-01
-8.128752576551572240e-01,-7.725785230278588989e-01,-2.739384854179184092e+00,2.468031306267177261e+00
-9.669567549203088308e-02,-1.102136435552489024e-01,-3.738671775611508430e-01,3.564430960604773047e-01
-9.854431464450088551e-01,-8.797224516942632189e-01,-3.216139355384929122e+00,2.955239019487751140e+00
-8.335285436161660177e-01,-6.563264231789988079e-01,-2.557212388732680086e+00,2.270873991162723371e+00
-1.292989795278010057e-01,-1.036157933419116356e-01,-3.882309459099940741e-01,2.749726078652194317e-01
1.902819202138906762e-01,1.598526622095498284e-01,5.886348356681604388e-01,-4.944990827519302190e-01
-1.814671439083409554e-02,-1.363868547380651386e-01,-4.376128394014429657e-01,2.788539942495741886e-01
-8.887435570457272727e-01,-7.425855196008285253e-01,-2.758073360068925783e+00,2.529927714476732259e+00
1.087713603865577472e+00,9.572658285441912884e-01,3.306357361284160579e+00,-3.154939736999491373e+00
-8.075771645850363667e-01,-7.589404763704659107e-01,-2.631615697747251126e+00,2.439038269057976827e+00
5.521844343379548464e-03,1.185992566086394168e-01,1.711848082842503949e-01,-1.214918026824772374e-01
-1.107003872591380667e+00,-9.509889929963989408e-01,-3.502531589459616068e+00,3.139939066928788325e+00
-4.076424402702922833e-01,-3.898124120001406623e-01,-1.318522460557672416e+00,1.185728801812681477e+00
-4.385262774675525166e-01,-4.455817734132179742e-01,-1.575385999350703337e+00,1.454368348748125817e+00
1.071419286748098720e+00,9.854100586894426472e-01,3.261196153485339533e+00,-2.958436053908539698e+00
-1.041590581096572432e+00,-8.940183569155941701e-01,-3.390343493726879931e+00,3.164642119615160620e+00
1.976908150857367430e-01,1.443665326637317003e-01,5.319940635546268615e-01,-4.830560242883860655e-01
1.028195155010466655e+00,9.742413418638987688e-01,3.332556491029317502e+00,-3.147843500592920840e+00
6.189947774213089976e-02,1.392620714119608416e-01,4.330070960880488817e-01,-5.484152094151416579e-01
-5.719494827329842934e-01,-4.840163138741647719e-01,-1.786224078293476181e+00,1.639083106245983412e+00
5.061601577487663262e-01,3.920273931581265692e-01,1.548621727042279739e+00,-1.437779048203413623e+00
8.661300455927271047e-01,8.144648608587882199e-01,3.104859979953647819e+00,-2.985913096389619881e+00
-2.067409982139008229e-01,-1.722070065255319193e-01,-5.167575450944553728e-01,5.609590236513297690e-01
4.734010808053331076e-01,5.624535992784339689e-01,1.770892935837007132e+00,-1.660949855246390605e+00
-8.618976119650088030e-01,-8.347140331291696969e-01,-2.879456258662975277e+00,2.689486178034969921e+00
-7.237704733486887143e-01,-6.747109013881951167e-01,-2.390409087210990879e+00,2.163922000388083688e+00
5.261403935195050341e-01,4.632846195806963330e-01,1.614515910423317324e+00,-1.496026911141228100e+00
-2.366927211397516218e-01,-2.142534783977175783e-01,-8.008489427001196370e-01,6.473833337017721457e-01
-1.663307376303850837e-01,-1.663117237650759694e-01,-6.478712329364126887e-01,7.209191699635497663e-01
5.371078350991029815e-01,4.163316183335087906e-01,1.812043117465740538e+00,-1.667616554827603403e+00
