-7.080156630310235899e-01,2.941947134850741441e-01,5.366074012613105682e-01,5.869041601314239909e-01
1.188589914104489331e+00,-5.102267642764688471e-01,-8.674863034820934349e-01,-9.727285986226796854e-01
-8.033449909682299772e-01,3.294375732838696891e-01,5.747232728958231451e-01,6.145936943871949110e-01
1.135567284430065271e+00,-4.611454195497567410e-01,-9.072038182107211579e-01,-9.479367725756382423e-01
9.107347540698428334e-01,-3.377615354359863598e-01,-7.355536490471770161e-01,-7.284958496427008656e-01
2.525455596354985177e-01,-9.418605519175403396e-02,-2.249861687778716701e-01,-3.093992499896794923e-01
-7.292408488556864077e-01,3.096984817735831674e-01,5.825871870337331337e-01,5.561651080630037880e-01
1.065334955147253737e+00,-4.587612559121581612e-01,-8.349524764741308447e-01,-8.813663486754450549e-01
-1.328790090981195382e+00,5.175664617468748174e-01,1.057741199995789305e+00,1.132320983560069827e+00
2.913487680714266781e-01,-1.398165601196654784e-01,-1.690128362844122711e-01,-2.552507628486834768e-01
6.692601895990142324e-01,-2.856763691896932467e-01,-5.496219486632242246e-01,-5.266270027246918728e-01
1.081344685129175476e+00,-4.622128450884981365e-01,-8.994984322412488131e-01,-9.020590318606024338e-01
-2.213311657536275456e-01,1.051000992342740054e-01,1.342557084668637990e-01,1.537022408237510851e-01
1.460856080763857978e+00,-5.151735540527289103e-01,-1.123434984782000434e+00,-1.152860398429288447e+00
2.525399918338629493e-02,3.377332735278362752e-02,-1.183586583132558746e-02,1.207263176358395286e-04
-8.150377399185110283e-01,3.310890946013704816e-01,6.018186032449948097e-01,6.606507457440828901e-01
1.640092113444796273e-01,-6.466330384711600765e-02,-1.333481182108977037e-01,-1.385456478893125065e-01
7.926517792563056997e-01,-3.162234749616406049e-01,-6.463920717035849250e-01,-6.350042045807507973e-01
-1.000454390038144403e+00,3.733811472922324293e-01,7.598453393988284787e-01,8.174825342824642016e-01
2.817170943732153487e-01,-1.287923859564061857e-01,-2.275375290101910308e-01,-2.721043517623550900e-01
1.390728110448522514e-01,-6.664539024731258587e-02,-1.180995986644370194e-01,-1.264740943619822033e-01
1.496441354240887422e+00,-5.956977967965431109e-01,-1.191582858303436687e+00,-1.201008484512821939e+00
9.481317104301670851e-01,-3.773709756848906416e-01,-7.424684411666188089e-01,-7.558925367338379386e-01
-9.765044752888187851e-01,4.085882259605492228e-01,7.918630390538708985e-01,8.152116754625946538e-01
4.094746651408142646e-01,-1.432244426638417112e-01,-2.948030824998091881e-01,-2.976343259105209693e-01
-2.536377131050523426e-01,1.010884582642701673e-01,2.393724750823527925e-01,2.525021744958235170e-01
1.434723394096145688e+00,-5.792689866502598317e-01,-1.209339282300112117e+00,-1.169055915620190955e+00
-2.448040917223415769e-01,6.887165796695624009e-02,1.840432078177284547e-01,1.872483478654963507e-01
-1.074780789807076448e-01,5.513816317507493764e-02,7.365514794574004598e-02,7.405035497299532199e-02
-5.696502667217560045e-01,2.096532791273913454e-01,4.486469611923068479e-01,4.689370266639336093e-01
4.505620746719645742e-01,-1.718426017666536132e-01,-3.900801593079585294e-01,-3.569526706037688402e-01
6.863406203309432296e-01,-2.722673843371100078e-01,-5.372944035215627689e-01,-5.920486857980179485e-01
1.298944667794027952e+00,-5.006754399985022808e-01,-9.999169103731139208e-01,-1.063406988149555810e+00
8.969914083423393691e-01,-3.459298993971072766e-01,-6.798385460969543770e-01,-6.761424344228448291e-01
-1.289639290646457992e+00,4.963293272260130840e-01,9.910450108697328453e-01,1.005368986802225306e+00
5.285244176028736085e-02,-3.871981334914932626e-03,-6.923475249281713095e-02,-8.061759518670080782e-02
-2.049998774871046037e-01,6.736012146747782925e-02,1.399314978782782160e-01,1.422103568219575398e-01
1.350621212344347510e+00,-5.529069377487721981e-01,-1.066874502880167608e+00,-1.076926332128698149e+00
-1.020737942423790789e+00,4.333720554787510171e-01,8.063785189495331629e-01,8.211482785574923948e-01
-5.743424648237298591e-01,2.304002846593325715e-01,4.491161682223563378e-01,4.524484951964795054e-01
-7.236446623979228554e-02,2.958215361974879734e-02,1.655726137917740105e-03,1.536880260211038671e-02
-1.490421577492563043e-01,6.510447518557219149e-02,1.019443991569508601e-01,8.907192979980682601e-02
-1.427504750509798637e+00,5.885175682478679393e-01,1.214647230548266288e+00,1.219447476325963731e+00
-6.095361913084591104e-02,4.531838613285875048e-03,5.921667416744964829e-02,4.181045508449332537e-02
-4.994258288869327100e-01,1.949745630841153154e-01,3.802165430200614149e-01,3.821102521377739425e-01
-2.381280049562748968e-01,9.699857086682528440e-02,2.271345494656848429e-01,2.104432857734740703e-01
-3.068282783511674938e-01,1.404807727419241370e-01,2.742926460806107691e-01,2.326290701765874880e-01
-4.732664341406683239e-01,2.074272958562250468e-01,4.148892284877396808e-01,4.383048028873872681e-01
1.407754701497597294e+00,-5.477856887592037483e-01,-1.129867492507362847e+00,-1.123878305504560915e+00
1.056595038226974398e-01,-1.931104522289670347e-02,-6.461292447203180467e-02,-7.169432539364505030e-02
4.686495236630272565e-02,-5.427786668950223409e-02,-1.524946253786657879e-01,-5.185339872465637850e-02
1.364574453469430848e+00,-5.498005203917383232e-01,-1.011413066755809220e+00,-1.060024131270364434e+00
1.179932152646817611e+00,-4.492697721133340205e-01,-8.546766525157858396e-01,-9.223834108122337394e-01
-8.789577594576839514e-01,3.557025030488006334e-01,7.178102742562749716e-01,7.249547944965729629e-01
-1.344567886006312385e+00,4.670619173414148895e-01,1.075200524880067121e+00,1.080275040734490544e+00
-1.316247545095932336e+00,5.567382134827273399e-01,1.052723438691868907e+00,1.065419875273220018e+00
-4.737536717625430716e-01,1.416209469503627305e-01,3.745089774500838242e-01,4.175970673747455009e-01
-1.227882777582981033e+00,4.838100633593986344e-01,9.491687841206523091e-01,1.010610316366058470e+00
1.305488334470309875e+00,-5.174940174367396173e-01,-1.039980457222619670e+00,-1.016489027978039195e+00
1.473016045468169111e+00,-5.955253216505501657e-01,-1.163978438749177613e+00,-1.146954578830794880e+00
5.054441917717362731e-01,-2.166891979601833496e-01,-4.328680042142356577e-01,-4.352515072408101870e-01
4.367666492060262029e-01,-1.658498882835236221e-01,-3.668652227783671393e-01,-3.610282553122163285e-01
2.587496558198429386e-01,-1.672932678605832113e-01,-2.028199699483042018e-01,-2.324578022287983325e-01
8.113620202155510386e-01,-3.172461165862499599e-01,-6.770758589741592282e-01,-6.801116222383016829e-01
3.182747815953379522e-01,-1.566305836807203866e-01,-2.054770146170058209e-01,-2.366933530783154882e-01
3.962178507334449540e-01,-1.719314713058583965e-01,-2.781707793227656822e-01,-2.604527009170682916e-01
-3.918375144062511972e-01,1.857810712848611268e-01,3.172706770647305552e-01,3.306769077236522691e-01
-7.229658291992562269e-01,3.077747200786253301e-01,5.418193526522793180e-01,6.024559097011575881e-01
1.568290134007224390e+00,-6.227805301497063573e-01,-1.239566867495820901e+00,-1.278114762263298898e+00
-1.135546355975758814e+00,4.231904599509581089e-01,9.189226313658325207e-01,9.118521233162418804e-01
8.538780475386436031e-01,-3.268928560425481411e-01,-6.484033588420174965e-01,-6.695055400142934099e-01
-2.587686773647433491e-01,1.076506259608958627e-01,2.256982107521521008e-01,2.418068801795608680e-01
8.370820977337682933e-01,-3.361782152349189756e-01,-6.635459020952537701e-01,-6.736668162298541374e-01
-1.157857736250461178e+00,4.584226061536939567e-01,9.145425446481237897e-01,9.584596908046787433e-01
-1.132946143916756965e+00,4.509785962687700711e-01,8.973600077898256089e-01,9.668403276844920180e-01
-1.222295381490764887e+00,5.086493998788220727e-01,9.816059178943623564e-01,9.931343619606257667e-01
-1.661680557096492927e-01,6.416707303076955859e-02,1.431168350707398840e-01,1.700875448655383704e-01
-8.286772969830700220e-01,3.273107906675635226e-01,6.366947873078914188e-01,6.713804405334241610e-01
2.039799688855121751e-01,-9.639128589774888234e-02,-1.776226860893385384e-01,-1.451839267294169900e-01
-1.064333625845849118e+00,4.293907227879916189e-01,8.339126499412922167e-01,8.818174815919508358e-01
-1.745661923545891725e-01,7.491194237300108361e-02,1.646483008213804333e-01,1.741636018879889336e-01
-1.274198010846003815e+00,4.636724841572607558e-01,1.009569935995109580e+00,1.041196472006418183e+00
-2.063707956006320399e-01,8.876891382465776359e-02,1.684602736766870612e-01,1.633132825903051144e-01
3.574943579392745874e-01,-1.615883559492141686e-01,-2.478739396041035603e-01,-2.507991078278221653e-01
-1.161428280747287684e-02,3.628822925595895366e-02,4.602963546091665137e-02,5.174913895308031614e-02
-3.432272397786820806e-01,1.432894350146069473e-01,2.724288936089971358e-01,2.568584494972198651e-01
-6.840201615733539908e-01,2.570726453423591851e-01,5.138954819080906455e-01,5.656917107730926597e-01
1.351026402144029470e+00,-5.754604521799574490e-01,-1.040505378375422341e+00,-1.119731820962481583e+00
-1.105857466874764050e+00,4.609636713689004850e-01,8.197800709254530194e-01,8.642646983604641564e-01
-1.438920347039143177e-01,3.285570305986647982e-02,1.444179706257625873e-01,1.432786594548075276e-01
1.338816803245421516e+00,-5.175811298656157744e-01,-1.076205592640616437e+00,-1.081923419866707148e+00
4.997995847575673611e-01,-2.279081639574396523e-01,-3.743331551721258421e-01,-3.946411183002724865e-01
-1.214947529754679012e+00,5.102975105027999225e-01,9.674401740581312081e-01,9.823301798526153927e-01
-6.833136238408138441e-01,2.858357733442112303e-01,5.069683366134412061e-01,5.374691419969080952e-01
-9.452892506841111819e-01,3.581954696418015449e-01,7.348563705276202063e-01,7.170668516192822972e-01
1.078119661780667426e+00,-4.318044397885859031e-01,-8.602551015567713177e-01,-8.715093669692830503e-01
1.390571298580955295e+00,-5.377711876071175068e-01,-1.129656323355696657e+00,-1.097534791139259891e+00
1.447721118729040357e-01,-5.114024933271142659e-02,-7.865499070809252313e-02,-8.887589096593910554e-02
-4.566835041105894444e-01,1.616553125973166916e-01,3.470030533243391724e-01,3.823669264136202450e-01
1.219474304859005792e-01,-9.527861046018647195e-02,-1.030347203026310970e-01,-4.364875826554568544e-02
1.442006223678574006e+00,-6.063449821997338729e-01,-1.177865581803841044e+00,-1.211014809010968252e+00
1.386520013270628571e+00,-4.910251734082207720e-01,-1.083567743979237719e+00,-1.125270722486985120e+00
2.530922876979680436e-01,-9.919163380449003142e-02,-2.096950519005083280e-01,-1.995651822864411562e-01
1.246558470555915399e+00,-4.921907602248749569e-01,-9.104005071946528194e-01,-9.766433840946175948e-01
-5.903913516602565803e-01,2.763657486913150274e-01,4.755080439592139774e-01,4.850402511403343331e-01
1.354290690952435483e+00,-5.214608120211688957e-01,-1.061767725770081938e+00,-1.080164343724418607e+00
-5.671685630253456845e-01,2.498227426635547255e-01,4.351348194344248355e-01,4.771189798059973231e-01
-7.801040807009639311e-01,2.996867035293998005e-01,6.175104019890568230e-01,5.910465229279820987e-01
-1.412257548797416461e-02,-9.776642902804005483e-03,2.229918104412085406e-02,1.941419163151647878e-02
-5.984397863160002551e-01,2.336342566780653940e-01,5.013700074753196789e-01,5.155080284821088599e-01
1.298691388854706474e+00,-5.194633162496670176e-01,-1.045662720460817097e+00,-1.071672906484995469e+00
1.564739868546175527e+00,-6.048344368252632774e-01,-1.247604488879022089e+00,-1.226564796049596229e+00
-1.559071488117205861e+00,6.261688483968566032e-01,1.250205922539977976e+00,1.230145903598165669e+00
-9.581365214078698678e-01,3.873104953526279037e-01,7.673162255845424884e-01,7.924230826329659028e-01
1.342382616593480238e+00,-5.632320288959195009e-01,-1.035396032278418144e+00,-1.079850228067033457e+00
1.072779119037741591e+00,-4.067757139759103913e-01,-8.238684038112247254e-01,-8.783283720122940785e-01
1.383707211463147679e+00,-5.602176238374622086e-01,-1.088190413181321592e+00,-1.204028206004612578e+00
-9.774464516733245567e-01,4.359546038184676786e-01,7.824116164962977571e-01,8.331550343494114053e-01
-4.122580151286207029e-01,1.632564314418506746e-01,3.093382813268679699e-01,3.065952169793331739e-01
-8.307779670656035842e-01,3.498777982552701560e-01,6.253463704892735509e-01,6.704402171571040014e-01
1.168296070077637916e+00,-4.185970519577387750e-01,-8.661938783174752965e-01,-8.850609952311804252e-01
-5.720456808665143333e-02,7.854821640625639367e-02,3.785496037548052167e-02,1.137229558800317980e-01
-9.389392501577203953e-01,3.692978829462242318e-01,7.395766518417692392e-01,7.740121457954869388e-01
-5.771765538841523435e-01,2.291278125572899504e-01,4.118418342349341454e-01,4.911228688946707721e-01
1.101921634295780716e+00,-4.220917008230682388e-01,-8.368374641989548834e-01,-8.770833166740320541e-01
1.832667908173619686e-01,-6.965720612536999146e-02,-1.131902427071796308e-01,-1.505711080334312113e-01
7.883058673608234201e-01,-3.638014195727350408e-01,-6.818109281145312561e-01,-6.291122624260933049e-01
-1.520082147436148556e+00,6.018111924788442924e-01,1.192213694686799164e+00,1.203964370858889854e+00
-9.528007107185654245e-01,3.388417184859856546e-01,7.230116766214673696e-01,7.644350888466490135e-01
1.248426043683866560e+00,-5.042090801085655771e-01,-9.524254964001074297e-01,-1.019479785199905342e+00
1.178712590876939803e+00,-4.716255274725559277e-01,-9.426981345686143987e-01,-9.103542178680021912e-01
-9.905210992809722059e-01,3.685878509233762035e-01,8.164203194903565386e-01,8.376151624510083105e-01
-1.407149357949727175e+00,5.639950677433416271e-01,1.087105337992192222e+00,1.138086091043414294e+00
-1.839080801984280811e-01,7.439091114020210393e-02,1.730725566895223444e-01,1.566456362739510888e-01
6.068394639818024405e-01,-2.376426430466761497e-01,-4.609869379150751123e-01,-4.604139581255051739e-01
2.735143298469252526e-01,-1.307435389659978575e-01,-2.282279255119550598e-01,-2.607702140098407395e-01
-1.019501692469888532e+00,3.664794032101764687e-01,7.287704274024644491e-01,8.164891228344259844e-01
-9.438501663512395279e-01,3.595481347189170562e-01,7.096988221407385389e-01,7.709990535048620863e-01
-3.877991452596489252e-01,1.300036556600494275e-01,3.203987184772632557e-01,3.341769684954383202e-01
-1.077020567805155205e+00,4.287604357695731783e-01,8.702693227915696550e-01,8.459869530447508001e-01
1.446671980741041308e+00,-5.121180297250939040e-01,-1.106755672119956291e+00,-1.147427478415870894e+00
-3.423310394048980076e-01,9.546528346051041947e-02,2.600474772805846935e-01,2.499772999156010533e-01
-1.016617977323711397e+00,3.966247632671707768e-01,8.085357682709095606e-01,8.383761900812271017e-01
-1.315290382778147915e+00,5.428685576520855260e-01,1.073346599937257784e+00,1.063624151117298133e+00
2.377236568159526442e-01,-6.638435674071513359e-02,-1.792029948620552371e-01,-2.046118053410377335e-01
-1.058568298736569213e+00,4.393562704298443200e-01,8.712927354980125605e-01,8.646208542866191671e-01
6.148788270112875987e-01,-2.757929461905411217e-01,-5.552251356635462542e-01,-4.993137808718933202e-01
-9.196267755908579256e-01,3.578322763421544761e-01,6.707892870577543132e-01,7.547819975439499229e-01
4.942464859412430966e-01,-1.449370014162442988e-01,-3.344245376123216595e-01,-3.530583534326587336e-01
-6.526649581150280044e-01,2.745090866314117695e-01,5.252742106909906727e-01,5.268056887679904987e-01
1.230463125865721707e+00,-4.692965575034381276e-01,-9.036199925432577551e-01,-9.861791524967020717e-01
-1.527369474242389336e-01,1.022621029610586846e-01,1.429404085556555681e-01,1.532598198264092937e-01
-1.154322452242714681e+00,4.826096266699098636e-01,9.304917984956458943e-01,9.536930770615515973e-01
6.118460819136226636e-01,-2.505841646162907388e-01,-5.170957713522829069e-01,-5.181914068422190933e-01
-9.615076849292991668e-01,3.858611004278833523e-01,7.634557641753407786e-01,8.674508181070053059e-01
1.238203981044334157e+00,-4.715204624295310509e-01,-9.690691608249916156e-01,-9.966288491202269784e-01
-1.401885190490900879e+00,4.881910130988295071e-01,1.062333525432909154e+00,1.190496135862646465e+00
-6.416582545153993733e-01,2.286608716127531138e-01,5.316958794723759540e-01,5.210275184883321753e-01
1.473571652324853654e+00,-6.219482625025457567e-01,-1.195150979225397592e+00,-1.250461687331547278e+00
-1.405048244575621608e+00,5.373546937272165591e-01,1.122973384862695045e+00,1.135168180502289514e+00
-3.745049187412385350e-01,1.657657688369797433e-01,3.335176851688579913e-01,3.265034505746496341e-01
3.861749098252298951e-01,-1.175869830719206144e-01,-3.470430889508736017e-01,-2.799524457649607556e-01
-1.088143074126914023e+00,4.491817198935222355e-01,8.287893874858061061e-01,8.847037477297131636e-01
3.013330828223425087e-02,-1.481569235883024556e-03,-2.880989054582060865e-02,4.597053408126892948e-02
1.997677132137647416e-01,-8.026789855232534243e-02,-1.177373432101549849e-01,-1.138846502457634413e-01
-1.918238362512760531e-01,9.246835377031374648e-02,1.665036201035689500e-01,1.619101048475179438e-01
-1.142223896815995898e+00,4.517548224186971328e-01,9.314356735584412572e-01,9.514330330163748295e-01
-4.394672049696338734e-01,1.779074802042183712e-01,2.978585065388713038e-01,3.169073289877141208e-01
-1.161745658760132915e+00,4.619766991332212025e-01,9.709294621833314265e-01,9.379669641482395459e-01
-6.737023770896540809e-01,2.674585437897655793e-01,5.164399585648751234e-01,5.557973146852585034e-01
-4.716167953126026435e-01,1.726207404758520469e-01,3.347922764060053402e-01,3.734466344036699859e-01
-8.100502396324481547e-01,2.797569471195413549e-01,6.282304942443025508e-01,6.450880757163593993e-01
-6.991563844689543394e-01,3.099555746361412067e-01,5.728079814963443761e-01,5.063968684447833768e-01
-1.067000265151868188e+00,4.704482419848001196e-01,8.564189318106739668e-01,8.622237171015205703e-01
3.206013688885916424e-01,-1.583424366976514952e-01,-2.576579525557539663e-01,-2.699953256320066219e-01
8.974617959947159829e-01,-3.465660184304036884e-01,-7.455213795492312556e-01,-6.701304784318183883e-01
1.499565381567460554e+00,-6.169803073073045763e-01,-1.180592332915769704e+00,-1.196121533701183015e+00
-9.047890669288335963e-02,1.668711938991011140e-02,4.226927383194505061e-02,8.435865229423819556e-02
1.391161112031147118e+00,-5.562679094686121539e-01,-1.090917791934577163e+00,-1.134010609211149490e+00
4.072631773980181502e-01,-2.004498779586098844e-01,-3.095262602719198730e-01,-3.216655995564301485e-01
6.076827346932238694e-01,-2.298970236291624780e-01,-3.974443501328498440e-01,-4.120330594840352911e-01
-3.491862146906068443e-01,1.472244096141482328e-01,3.060322554172872356e-01,2.486610512837614251e-01
5.781686458531459794e-01,-2.409664687356887491e-01,-4.638609808565452020e-01,-5.050619984194193446e-01
-1.569463485369182232e+00,5.930636922866868721e-01,1.249504307557232075e+00,1.277576083786863270e+00
1.214944169799303975e+00,-4.663122158992994426e-01,-8.974577478054840407e-01,-9.848021029369348200e-01
3.404543952895581760e-01,-1.310878191181654440e-01,-3.172639635476117159e-01,-3.282099143428227062e-01
6.904302005030641398e-01,-2.490241501395768775e-01,-5.433208428107312304e-01,-5.391536156573610850e-01
2.002014547964809932e-01,-1.407549568942997598e-01,-1.910201231533932564e-01,-2.164555250083001758e-01
-1.337630595861915461e+00,5.209454821714728512e-01,1.037861914481424064e+00,1.096360973620854384e+00
8.929083598233555907e-01,-3.614100719907004655e-01,-6.861309292750048527e-01,-7.481466422195602872e-01
1.258687086199997918e+00,-4.676264082703013303e-01,-9.521986528649858395e-01,-1.087524181409435187e+00
-2.423806106291218343e-01,6.790905256782690802e-02,1.328408367243988086e-01,9.246938680278760092e-02
-6.438621090136262826e-01,2.395917583483449242e-01,5.796357540037933020e-01,5.415629124970247066e-01
-1.041013387378271871e+00,4.075073336678309843e-01,8.276206194473567646e-01,8.887010527302701135e-01
4.755222440885661372e-01,-1.566063876960450407e-01,-3.680466565085426245e-01,-4.466065631529902435e-01
1.011556758050467186e+00,-4.013761482042003115e-01,-8.066709641228688721e-01,-8.310148864984256978e-01
-4.809874806466124531e-01,2.209789146767715817e-01,4.240689823208039222e-01,4.245514904348546836e-01
7.040537975668722526e-01,-2.635877258755874863e-01,-4.964699709772769087e-01,-5.475436648171330134e-01
7.782227909306437263e-01,-3.120667315004522768e-01,-6.015603281011325798e-01,-6.293564067296417708e-01
2.140839297703989730e-01,-5.803806009994796206e-02,-1.435788354793302302e-01,-1.096221479691174422e-01
3.177055416810677935e-01,-1.382006663832989757e-01,-2.432388452778405930e-01,-2.364148591922776710e-01
-1.464276495204071438e+00,5.976753003549000187e-01,1.203025096579107167e+00,1.189903420001413359e+00
1.237360856287887056e+00,-4.833308120776408368e-01,-9.649378565727081414e-01,-9.934091206374978666e-01
-1.327830007300941084e-01,5.207884482307414964e-02,1.033685488054636864e-01,1.108578690057353683e-01
-8.168349923428473991e-01,2.971509583031739510e-01,5.903189854152620653e-01,6.256585326496441057e-01
1.318829447246923081e+00,-5.778181784067296656e-01,-1.037260553558797094e+00,-1.110176815435543363e+00
1.397536551538788974e+00,-5.470894721311746478e-01,-1.117161283146402395e+00,-1.154557917806600109e+00
1.485013539241734737e+00,-6.038903047367226717e-01,-1.130730928449817041e+00,-1.118018346997654122e+00
7.626385508167979888e-01,-3.164700246466630174e-01,-5.698919348135623730e-01,-6.109956161701480815e-01
-9.677830844672293820e-01,3.974308313044873087e-01,7.745452749569440298e-01,7.425508286692481530e-01
-6.653207844925920211e-01,2.962575765953475715e-01,5.539084634816389130e-01,5.807219599881013883e-01
9.763882882028767085e-01,-3.594006802527369149e-01,-7.546609433111844956e-01,-7.850750863365202337e-01
-7.232937488908346146e-02,3.628932041450987078e-02,1.181503249463837224e-01,1.002729944092475012e-01
-1.230725832541956333e+00,4.975724828770295427e-01,1.005643206835465930e+00,1.079171250115573910e+00
-1.217746584300090640e-01,6.705486163767064578e-02,6.072329201606359306e-02,9.536702818240531954e-02
-1.471689446512546517e+00,5.700648650981594567e-01,1.141381791026027104e+00,1.146466146947548559e+00
1.046058443630796919e+00,-4.486578721561233496e-01,-7.955220943456234872e-01,-8.991274005946852110e-01
1.266473968019270924e+00,-5.005579750910000847e-01,-9.903433461484162370e-01,-1.038021864427190577e+00
-1.026326258461896623e+00,4.268206630397664569e-01,8.207818469561132257e-01,8.687958369842575523e-01
-5.512472203178662156e-01,1.890880490257095536e-01,4.276585884749194988e-01,4.380822843752243401e-01
-1.377677432161924509e+00,5.293928838438867190e-01,1.077036765319439260e+00,1.080648107284560844e+00
-8.975320004840650068e-01,3.680696909301036102e-01,7.031874355580778335e-01,7.378857544092610743e-01
-2.878386748355410071e-02,7.447153407435865013e-02,6.500234117727747563e-02,5.128017856831189325e-02
-2.268011963355886507e-01,7.612414993833563348e-02,1.522384385547727315e-01,1.834123480098063808e-01
6.613854836739391230e-01,-2.725847252035766277e-01,-5.077686051624409336e-01,-5.347324955970568228e-01
8.362973700493679940e-01,-3.397052917241119019e-01,-6.476432416526293201e-01,-6.486537613123311008e-01
7.110716672024669505e-01,-2.758228629712525803e-01,-5.437194724390241873e-01,-5.333453091836033444e-01
-3.175349984573178630e-01,1.434604659035338403e-01,2.925881522532582379e-01,2.669400540098115782e-01
6.488664423949085380e-01,-2.379465432254733170e-01,-5.042196944276962078e-01,-5.710542421925621781e-01
6.481486977675454675e-01,-2.736299069984336474e-01,-5.292252444212244278e-01,-5.282023057095880381e-01
7.709121085217853775e-01,-3.165680516533296296e-01,-6.335168275767806279e-01,-6.723207911614041965e-01
-8.853611439582688147e-01,3.320211166723985863e-01,7.101123493965202371e-01,7.497016846245355692e-01
1.298239658525700335e+00,-5.352814067529203523e-01,-1.070280211012213378e+00,-1.059933156036730439e+00
1.074225784671953177e+00,-4.027355449627618711e-01,-8.304529615967259915e-01,-8.605162309879623717e-01
3.992967814748109023e-01,-2.183061411290952158e-01,-3.210380996991547553e-01,-3.599653137989035079e-01
-1.604302518573714531e+00,5.739211869839050406e-01,1.211790481787695883e+00,1.269128984486594280e+00
-1.515684301376335918e+00,5.720284602053995471e-01,1.188280373313790328e+00,1.234416085267408869e+00
1.539270574692685800e+00,-5.722093055322028388e-01,-1.224393763145049663e+00,-1.268763789130097352e+00
4.396517602025338256e-01,-1.422162851261586647e-01,-3.371206993114012618e-01,-2.943255345049215488e-01
-1.002187729248083636e+00,4.001720677402078596e-01,7.899029742358980588e-01,8.459638362139368928e-01
1.278869146582597871e+00,-4.779857201578822656e-01,-1.065574451602800288e+00,-1.028794234854738976e+00
1.609005908556116582e+00,-6.410611062704864027e-01,-1.167040489436286244e+00,-1.267234582361297823e+00
-3.568912635377058384e-01,1.075911443301144355e-01,2.604524909694317381e-01,2.673273590291750934e-01
1.345372326474211899e+00,-5.187128081772689470e-01,-1.060419106774377784e+00,-1.080531505091328226e+00
-1.847615284577893563e-02,-2.264219706104620214e-02,1.445645840484605094e-02,5.166716103965818263e-02
-1.549689823764630381e+00,6.213037119731313895e-01,1.260008733981307527e+00,1.220621433464568639e+00
9.058473381703893157e-01,-3.469907309566497289e-01,-7.063925883390731464e-01,-7.152637731958885192e-01
-1.009243569969446641e+00,4.078827981366862088e-01,8.000867146942226560e-01,8.064056805128586580e-01
6.134997179686233482e-01,-2.582120688545880838e-01,-5.076271773546867649e-01,-5.078366053470372288e-01
4.809781466446816922e-01,-1.706484101775908035e-01,-3.662833799009657110e-01,-3.922239500845537963e-01
-4.622160010985295608e-01,1.804919539515925098e-01,3.878410974935028177e-01,3.660381362980536513e-01
-1.508555068375178276e+00,5.736894127633758167e-01,1.162930260838665353e+00,1.217242525154914601e+00
2.917872082978310022e-01,-1.051539234524680039e-01,-2.430407730366638264e-01,-1.897645290931800621e-01
-1.214656464724311435e+00,4.648160892406838496e-01,9.253698040119499035e-01,9.710155388674589494e-01
-1.330751745526545404e+00,5.785278244751599352e-01,1.098537933576979597e+00,1.087257723045093938e+00
8.618190318025035213e-01,-3.378388110414412560e-01,-6.831227965099945232e-01,-6.498348622473157921e-01
1.905324559453598077e-01,-1.226798384723473273e-01,-1.651622432409033114e-01,-1.844576515143131756e-01
9.883658713541770835e-01,-3.900888072645899984e-01,-7.838014720213535291e-01,-8.281638620046652965e-01
-2.800215414101564493e-01,1.401458901646961408e-01,2.762427061439026721e-01,2.598762906565527664e-01
1.412969582484622899e+00,-6.024486507465881546e-01,-1.122088353924401316e+00,-1.160560778009281035e+00
1.500490075163685599e+00,-5.939174945202356781e-01,-1.273560235696113319e+00,-1.201283806956324307e+00
-1.280202502631808237e+00,4.811881990141176346e-01,1.025659071383414167e+00,9.982503358248376868e-01
1.108137307144262840e+00,-3.944263749061385771e-01,-8.959351879277974717e-01,-8.716681102908362400e-01
-4.912133196539000268e-01,1.989336390290458723e-01,4.173798265551200148e-01,3.867660622450389551e-01
1.214225307878268989e+00,-4.820088506335822309e-01,-9.374822239838666027e-01,-9.824155144442824339e-01
-6.698097158193166978e-01,2.564152893743112949e-01,5.382231104497668950e-01,5.111639576122894990e-01
9.258181671145550018e-01,-3.642880234828552166e-01,-7.290822469262208116e-01,-7.715797497661968096e-01
-2.097544017880595413e-01,6.898151794914765544e-02,8.711750507695739665e-02,1.782088904965471177e-01
1.310418243693559859e+00,-5.023421951428699295e-01,-1.011728688348845218e+00,-1.084356598956477180e+00
-5.313546824629590271e-01,2.026179577176200619e-01,3.427706959120483399e-01,4.338712557597477759e-01
-2.959785561921860486e-01,1.525847672214837025e-01,2.648444386703962539e-01,2.364272234862600797e-01
4.337321163676916558e-01,-1.929236431800639973e-01,-3.419004219766081931e-01,-3.211114931418906360e-01
-1.417073410853919579e+00,5.483449496660434130e-01,1.158742491960531806e+00,1.166448401575370664e+00
1.631659203600744484e-02,-1.691990157244009640e-02,1.138215003480015294e-02,-1.052866797425667383e-02
-9.512142660059226262e-01,3.730832523834055614e-01,7.532035534594788695e-01,7.700339076387161530e-01
-4.199523665645859549e-01,1.797847526152097641e-01,3.717879732729648667e-01,3.223266980696115613e-01
-5.450155438467039204e-01,2.480424710578380543e-01,4.634772889787092676e-01,4.911650672813605012e-01
2.661751817900385175e-01,-9.244322017503237010e-02,-2.308420508557146311e-01,-1.954136035352196932e-01
-9.743676533435691178e-01,3.727812854380169738e-01,7.861111615059444002e-01,8.524285460360769839e-01
-9.741348507020926029e-01,3.850991738161266831e-01,8.196541327201468663e-01,8.242951255542316780e-01
1.385221508539772328e+00,-5.235688490792068661e-01,-1.094418571702205245e+00,-1.173299676995176677e+00
1.589969057324603030e+00,-6.392952505982237854e-01,-1.270052453124324021e+00,-1.264411772969863401e+00
-1.107804732322798247e-01,2.771824546814819976e-02,3.449247452127662122e-02,1.124006590819973672e-01
-1.795782861929180463e-01,5.284646839832378429e-02,1.135461975963043685e-01,1.574967025537752641e-01
3.618513469295042140e-01,-1.110526398406190968e-01,-2.369876793728814268e-01,-2.721804204778188740e-01
6.309147325509486537e-01,-2.598803801409812486e-01,-5.043988293156292935e-01,-5.288590508200213813e-01
8.200299683977614329e-01,-3.250386473306223767e-01,-6.263019245234178189e-01,-6.850588785881890352e-01
1.479766902427351205e+00,-5.624085181957547697e-01,-1.179223963207645332e+00,-1.218014432158974758e+00
1.291229019266577405e+00,-5.203823894284889118e-01,-1.031163105637187716e+00,-1.046446875658498588e+00
5.770493260719101736e-01,-2.309987946524586222e-01,-4.312535112706831764e-01,-4.507097022033851319e-01
-2.397755940035735389e-01,1.006547889880763103e-01,2.218425318831179771e-01,1.455098089121626415e-01
-8.194206119822022849e-01,3.149429762979643055e-01,6.864474413561432176e-01,6.719239558319325401e-01
-1.526877847063088822e+00,5.708633554128514920e-01,1.172449681929671250e+00,1.251122898466825895e+00
1.600303792656738500e+00,-5.692579035882505689e-01,-1.222943358451636486e+00,-1.229504085037335548e+00
1.111152922126395604e+00,-4.729867706496846402e-01,-9.341351555315046129e-01,-8.863612622758797466e-01
2.542972026196962942e-01,-1.234141393000556947e-01,-2.480108298935388977e-01,-2.585918680763069633e-01
-5.726178618804848020e-01,2.182532175688230436e-01,4.105971799871791506e-01,4.413910468519172681e-01
-1.211002900547242467e+00,4.765544869218695800e-01,9.374039828695824861e-01,9.753873764800379265e-01
-1.491943030210426180e+00,5.918324133768511075e-01,1.189455606331661253e+00,1.226941237955685438e+00
-3.295808611243762343e-01,1.540296185142123186e-01,2.681715331831317495e-01,2.706961132603054598e-01
5.809950813509097145e-01,-2.423163465274358608e-01,-4.794690359463736340e-01,-4.135574016456438629e-01
-1.178382587378866253e+00,4.813592827010147457e-01,9.666250855453608626e-01,9.651597358913430735e-01
-1.257665139286806122e+00,5.056496476218235170e-01,9.859584284787347164e-01,1.041667657348955167e+00
8.872609717724280198e-01,-4.093788322248398392e-01,-7.140224975179476630e-01,-7.228110532674865141e-01
-1.493764944665064709e-01,4.301264018026477315e-02,1.211232564032150572e-01,1.472981954289452611e-01
5.179561722665610990e-01,-1.708960623033234094e-01,-4.051626635142134281e-01,-4.710279673984216764e-01
5.539574535282839607e-01,-2.529312811975930608e-01,-4.958855005169973129e-01,-5.119214249323055244e-01
-1.747340995109817607e-01,4.153092396957899085e-02,1.088371985088419924e-01,1.704911767086669250e-01
4.841555206397735733e-01,-2.067845441960356745e-01,-3.377792816389582620e-01,-3.706144227952852255e-01
3.545390172833765008e-01,-1.395552217624768387e-01,-2.671690313420589380e-01,-2.332040756298241202e-01
-1.023039226544477875e+00,4.046938842636954581e-01,7.890164542171290707e-01,8.375255389613759371e-01
-4.885492219462442276e-01,2.318615867512328343e-01,4.536513828067872400e-01,4.246298737474859530e-01
-1.399868484529314561e+00,5.676179635883917829e-01,1.080193924618944035e+00,1.138584457574522979e+00
3.742661796542739450e-01,-1.461537101044650400e-01,-3.124417793711764535e-01,-3.401965348180758242e-01
4.634688209061374464e-01,-1.679018592128299625e-01,-3.339966116236812166e-01,-3.778585866118983061e-01
-1.072535595445699569e-01,1.909060293831642968e-02,3.496098071203444096e-02,7.266248031719396705e-02
8.200432255458462993e-01,-3.422284982728322489e-01,-6.536209549066837043e-01,-6.612400826699188494e-01
-1.539899316438325116e-01,5.046343424734793526e-02,5.905264369710183647e-02,1.352415813728032323e-01
-5.614616891772922225e-01,2.353302662242496568e-01,4.750746743341558997e-01,4.411087893187934927e-01
8.730542907186067403e-01,-3.584660867333653855e-01,-6.877741951838828305e-01,-6.756457054709680277e-01
-1.368693542934271035e+00,5.578291141235190986e-01,1.029122938815896449e+00,1.128109190302724496e+00
1.037813327369155658e+00,-4.077150129535531131e-01,-7.786075435760692054e-01,-8.132943361004274507e-01
-3.783541689006471587e-01,1.454271858210502699e-01,2.680859686633808581e-01,2.960248612095877641e-01
1.073516047234247095e+00,-4.280266499643456957e-01,-8.640823757199311839e-01,-9.095489410765037475e-01
1.280972829994697193e+00,-4.504176468975735204e-01,-9.820686114936325595e-01,-9.983916335791946928e-01
-1.093217856784260311e+00,4.459319628975550454e-01,8.503897353633633749e-01,8.123336104574573335e-01
-1.414369120725579965e+00,5.786485929821055807e-01,1.129972378610771599e+00,1.135618231548799484e+00
-4.319447209861436709e-01,1.721624154103323368e-01,3.215770745719630508e-01,3.975938062086689651e-01
1.544071181888332922e-01,-2.419119699442156060e-02,-1.252253157381709447e-01,-6.818258893260961684e-02
1.311270779872788284e+00,-5.480952444406288482e-01,-1.008181472938590284e+00,-1.051442209853894472e+00
7.272212573968682703e-01,-3.298715764045878074e-01,-5.768005134426565927e-01,-6.217114496678489699e-01
-1.331640292514290946e+00,5.433529277752252584e-01,1.086128899836770190e+00,1.055695944944905484e+00
1.004550545220992547e-01,3.002503348485035650e-03,-4.666265393859230642e-02,6.526503594759002803e-03
-6.026001493434890444e-01,2.578861123649061060e-01,4.822530517108116754e-01,5.126724728862359637e-01
5.324107607064514358e-01,-1.886769241121571128e-01,-4.268521468645475325e-01,-4.072077471306679297e-01
-1.322321520815689100e+00,5.200324822533698432e-01,1.060175542859504993e+00,1.078175285532648520e+00
1.401189921609643063e+00,-5.433542796739557756e-01,-1.133814402343909178e+00,-1.182311401932404138e+00
-4.991991722526789577e-02,5.542958747886901454e-03,4.468582778961184554e-02,7.350896121388549032e-02
1.433925446745205834e+00,-5.704830685488359032e-01,-1.105958003478157758e+00,-1.193284728445533460e+00
-1.181045283789481593e+00,4.589180835612936549e-01,9.517568739408192036e-01,9.439585688644174244e-01
1.380941049688511946e+00,-5.764706887298975957e-01,-1.094958619447082615e+00,-1.167165716618738358e+00
-1.315116624549305113e+00,5.848331240371660300e-01,1.066219618358402288e+00,1.060172129593338841e+00
1.149266245892900828e+00,-4.395600337035653338e-01,-9.197880721422743155e-01,-9.615334375712706327e-01
4.324168750495840929e-01,-2.080945771751233631e-01,-3.856331584299324544e-01,-3.811952023876837292e-01
-6.771630366503211818e-01,3.219715986579437805e-01,5.321019267304962774e-01,5.367060872915918601e-01
-1.022960165007283706e+00,3.951171946555024905e-01,7.724101200978618076e-01,8.588019398674414662e-01
1.353818920996366026e+00,-5.528461822463213160e-01,-1.082775817644053618e+00,-1.149291441215741560e+00
-5.290671778055908714e-01,1.926966497332128769e-01,4.282139760138474194e-01,3.832222784019668760e-01
-1.095443755152694099e-01,3.395845811407151998e-02,6.812521446859914898e-02,8.090844219004107718e-02
9.977655343241186303e-01,-3.905729665505945358e-01,-7.888926490573568984e-01,-8.332536377484146550e-01
-2.200762199768485083e-01,9.892727356341303457e-02,1.620249877814873007e-01,1.834149649347066313e-01
-1.199948874327525283e+00,4.670517275451854800e-01,8.536025296364250226e-01,9.384893971954576530e-01
-9.374656195866296615e-01,3.109776495991824485e-01,7.344282561298536294e-01,7.003192805637196150e-01
-1.155370548446514212e+00,4.430357569827780839e-01,9.320136745591791616e-01,9.419605420532392026e-01
1.010041878492905276e+00,-3.836056912082181358e-01,-8.076554704829338460e-01,-8.090938140047608806e-01
1.480277011918124996e+00,-5.905680496485797848e-01,-1.142059513195883280e+00,-1.130751510918438507e+00
-1.010278058152095815e+00,3.937355685639450931e-01,7.254184259142054669e-01,7.991260328412129743e-01
1.510790377895327996e+00,-5.967887952209207647e-01,-1.168465712666228784e+00,-1.216856436918822171e+00
1.410698961228702863e+00,-5.669377866793637866e-01,-1.110148516044602740e+00,-1.178312409461178767e+00
1.065422210903191003e+00,-4.187654587340042256e-01,-8.251259470502282367e-01,-8.594702767854558445e-01
1.210484352525400764e+00,-4.695115046992255903e-01,-9.357443369896892849e-01,-9.633179765901854763e-01
-1.253719623898701840e+00,4.570161521904853585e-01,1.018100208705608578e+00,1.003491661846553917e+00
-3.232324572017992725e-01,1.174764700409778179e-01,2.638521686423040968e-01,2.469272621587612904e-01
3.815809521604516252e-01,-1.336376469183990223e-01,-3.480931589137595816e-01,-3.278763035840248641e-01
2.068083990470971287e-02,-3.902881881846678030e-02,-3.877244119986345688e-02,-4.781163109214284918e-02
2.891511452860653919e-01,-1.012271228038345156e-01,-2.427202557569637098e-01,-2.595948521244184626e-01
-6.277515111563031214e-02,5.194227396442524514e-02,5.878815525984978918e-02,3.595300325738570030e-02
-4.932850616486670337e-01,1.673617076142202564e-01,3.683229271983181063e-01,4.021738705662306068e-01
1.014099652883688085e+00,-4.624998704664553539e-01,-8.005769344322486436e-01,-8.138121754636218341e-01
1.773390021870780700e-03,7.922844682398795524e-03,-3.516078437306221355e-02,-3.254191410372750393e-02
1.155939939201491962e+00,-4.651466725763794829e-01,-8.840804656043811383e-01,-9.442515798911291780e-01
-3.485652686485481988e-01,1.297200038278993606e-01,2.817549778217226519e-01,2.876892997353309167e-01
8.259577711186139037e-01,-3.520976433246543746e-01,-6.458306393521228150e-01,-6.314697859363008758e-01
9.151751530146112756e-01,-3.666825645888966423e-01,-7.029428517003666332e-01,-7.569582377553636388e-01
-1.101437300312945400e+00,4.197861275299860639e-01,8.107470053529393095e-01,8.566259017034461021e-01
-2.143811576549890796e-01,3.174102281495885108e-02,8.668605148797987880e-02,1.360369837967627393e-01
1.476567912559292983e+00,-6.018079914606648817e-01,-1.154755214167881849e+00,-1.185395522511807798e+00
-8.307895888154254171e-02,5.059225520542682403e-02,2.348300470426699024e-02,4.659121857242580489e-02
9.028319333957227633e-01,-3.725516448576042250e-01,-7.006494329781194352e-01,-7.649753055330379414e-01
-1.122318545133554446e+00,4.149788189409237549e-01,9.172609935923750069e-01,9.101598911171702166e-01
-8.657734614077405508e-03,-1.264541694815703859e-02,-2.273518319129103418e-02,1.935919853933634749e-02
-5.456981442613856315e-01,1.868894358915457465e-01,4.449326852720743575e-01,4.375541082665743153e-01
1.455495740231971036e+00,-5.518880051611472215e-01,-1.102459623657940702e+00,-1.139905162042171849e+00
-1.054016949460228503e+00,3.979219837959037664e-01,8.256135792327577994e-01,8.482923261557122618e-01
1.074360336102970104e+00,-4.364394062557117038e-01,-8.929575033465555478e-01,-8.545135783538573282e-01
1.348584198014284530e+00,-5.276572559068580803e-01,-1.048591290610459081e+00,-1.039836117458960318e+00
7.953993905652055885e-01,-2.769262006756635919e-01,-6.036764311798292759e-01,-6.270904056093469237e-01
6.987056499437607204e-01,-2.811814137671567182e-01,-5.455305058475540259e-01,-5.368640467410779049e-01
-1.310280954562815570e+00,5.403934206704456011e-01,1.004113377364673765e+00,1.035000689912971117e+00
4.576537743644130095e-03,-1.328520776164616654e-02,7.243181999581529973e-03,-4.110303695281411485e-02
-6.278516823886984843e-01,2.132735291645219133e-01,4.759143106118005617e-01,5.066302741084515171e-01
-8.072281935096248251e-01,3.264496142528529599e-01,6.794466895939603734e-01,6.765985446275222248e-01
-2.177999715384399404e-01,5.803850371835171662e-02,2.157561738255477646e-01,2.208235722591471162e-01
1.265085390343775096e+00,-5.144457313078901750e-01,-9.113498296574527036e-01,-1.008796184075209101e+00
1.373899238812287926e+00,-5.435469294353039160e-01,-1.076023316282955555e+00,-1.052445762037355070e+00
-6.218076285449316565e-01,2.173572002016478100e-01,4.582408146586674502e-01,4.820584332559992302e-01
-2.121486274009614925e-01,4.089784730786745481e-02,1.639376405030029127e-01,2.182205260354133647e-01
1.602002940609670079e+00,-5.652594033233638848e-01,-1.262391974608929601e+00,-1.285205862206493688e+00
6.195143981982490500e-01,-2.080197422709477717e-01,-4.931491897454443607e-01,-5.077274092666530514e-01
-1.038126881575468063e+00,3.966991175647724965e-01,8.375302611345163406e-01,8.658586934999892293e-01
-5.362703503663658333e-01,2.476176668489116217e-01,4.234523906253145342e-01,4.397358223484666984e-01
-7.704193489027765240e-01,2.969263217280619371e-01,6.665632743203219190e-01,6.761904027351158808e-01
-1.459895836146190007e+00,5.554785042964458519e-01,1.129517141429223326e+00,1.163792763790518103e+00
-2.435046178984717757e-01,2.983534570601834718e-02,1.735026000656408329e-01,1.954470490503761870e-01
1.007211407715724150e+00,-3.877683620956422494e-01,-7.822865542929117177e-01,-7.878818540828983474e-01
-1.415480810993202887e+00,5.794540190255599299e-01,1.148530304218088771e+00,1.176755938201599738e+00
3.877580016979683131e-01,-1.706851918581599736e-01,-3.298171650228692298e-01,-3.240240463907470003e-01
-4.231756438951995714e-01,1.611046630191337314e-01,3.042183645436023487e-01,3.104668114103689702e-01
1.069313716836355344e+00,-4.452115856401357985e-01,-7.936485140241433811e-01,-8.776148297209606097e-01
-5.634692152529516829e-01,2.635613897257925164e-01,4.651160279474380044e-01,4.296907097828257527e-01
-1.244577313181488565e+00,4.871745500943302498e-01,1.018854947156751845e+00,1.029987018047956671e+00
-1.414774661847628234e+00,5.400103591409483039e-01,1.059479742395154300e+00,1.099293651200724087e+00
1.299501150964435525e-01,-7.275236466441269145e-02,-9.379558872702437045e-02,-4.841982675495141303e-02
1.403525969081240943e+00,-5.628294421332568076e-01,-1.120261900761180041e+00,-1.134841264219489609e+00
-8.839033878995177229e-01,3.644565927395034821e-01,6.974888771207736760e-01,6.980309651072743593e-01
-1.391737120028297081e+00,5.335425330448371195e-01,1.083691680723926520e+00,1.102291341384012524e+00
7.443781515330749610e-01,-2.926124565205677763e-01,-5.274480328671748985e-01,-6.028284662083701617e-01
-1.313571347554614910e+00,5.188307277112161886e-01,1.044710333628399157e+00,1.093187201861881341e+00
6.379738252072497673e-01,-2.163730059299552033e-01,-4.897705322176632570e-01,-4.875389810402254165e-01
-9.655288489665999618e-01,4.387222705566371506e-01,7.289555700207006605e-01,7.529870143564163509e-01
2.973694897717814034e-01,-1.028274092895663239e-01,-2.358476407734710345e-01,-2.321159057860752439e-01
5.533070521651123341e-01,-2.435627337764111888e-01,-4.405347373709360692e-01,-4.711868265015871637e-01
2.595333116153292763e-01,-1.598487090604419347e-01,-2.267075353059098686e-01,-2.421961931335729901e-01
4.256104872837647712e-01,-1.605118191748877710e-01,-3.528857485230803559e-01,-3.079367464215791994e-01
-1.295179243703930450e+00,4.963298100801369350e-01,1.020631342057999769e+00,1.069768036880630158e+00
-2.684097932314956636e-01,1.343581356215752254e-01,2.087173904534013469e-01,2.195156013390952288e-01
1.130130311727704839e+00,-4.698191309915090708e-01,-8.481671633304791458e-01,-8.655668554564872608e-01
-1.244852002692518056e+00,5.085065053245517719e-01,9.876826223133248206e-01,9.878025919251320897e-01
-1.514093677524389170e+00,6.089532354476359099e-01,1.179049214368048881e+00,1.197100208111647968e+00
1.053953559288429931e+00,-3.915968665869631882e-01,-8.001016411086554481e-01,-8.929652891757329236e-01
-7.717969387776767443e-01,3.396714474855910271e-01,6.312621699027521904e-01,5.841940565471024360e-01
3.076746053099432276e-01,-1.288660674501259651e-01,-2.459203415168707274e-01,-2.416454295982077005e-01
5.896680633568871510e-01,-2.298711917451643771e-01,-4.372393980453382900e-01,-4.188849474289124131e-01
2.012366828449584089e-01,-1.298192446186940685e-01,-1.492402220243971844e-01,-1.378094263481434989e-01
-1.543002845427670522e+00,6.226638086569742381e-01,1.264104309293450301e+00,1.279409283552334520e+00
3.381492124169904745e-01,-1.310513632715046561e-01,-2.368726748741586952e-01,-3.030304734894815888e-01
8.647417352618341768e-01,-3.410233149056642876e-01,-7.084802710885373944e-01,-6.987039343357233090e-01
-1.074811955514560768e+00,4.310578457815977815e-01,8.356030874103128614e-01,8.858070172394738595e-01
8.619053684824157235e-01,-2.746059878373773855e-01,-6.806948483021357799e-01,-6.717398679132173811e-01
1.627480033931121561e-01,-3.451059101247373057e-02,-1.326283449308370277e-01,-1.064846742907479688e-01
1.176804987533210500e+00,-4.681978684014881931e-01,-9.161614686701770038e-01,-9.157941150412804987e-01
6.424666948745582085e-01,-2.163590201740470398e-01,-5.315061834440617528e-01,-5.656310815439019590e-01
-1.437347356204785598e+00,5.598708297736258999e-01,1.198640776539340980e+00,1.168596139973115955e+00
-1.484699935542518556e+00,5.986856430770466364e-01,1.170445097335237827e+00,1.184277576513220298e+00
-1.323784617026441124e+00,4.916195356736594579e-01,1.045828490876689054e+00,1.039273635306079413e+00
9.976669262490601708e-01,-3.784746821880106693e-01,-7.441691453657207633e-01,-7.872030818463607860e-01
1.433368518371381350e+00,-5.136855074652858510e-01,-1.176000604463987464e+00,-1.195784054309627642e+00
9.929625079774617724e-01,-3.776904887462245175e-01,-7.877884913549243473e-01,-7.909300883585447250e-01
-5.028842635953258977e-01,1.759428123079257722e-01,3.278846526587841925e-01,3.873119041657689388e-01
-5.513703654073212057e-01,1.813428406802499449e-01,4.215153565974286143e-01,4.217688491453259747e-01
-1.475785364631109653e+00,5.931951938203769981e-01,1.119536473458158099e+00,1.140496519446562829e+00
-1.238192533902716441e+00,4.521947728741724237e-01,9.655753977095988816e-01,9.813308925814613337e-01
-1.506915925637235976e+00,5.847024764994482871e-01,1.139228484339621650e+00,1.200483920433708329e+00
1.225948087415711152e+00,-4.729079121993706170e-01,-9.808509211604646838e-01,-9.681918647036873438e-01
1.410801591428279655e+00,-5.525803696145987765e-01,-1.099795856424765850e+00,-1.126637267723315627e+00
-2.820686152751306769e-02,4.452495042518661572e-02,1.139631478259474535e-02,1.849452147884554989e-02
1.367012890179211126e+00,-5.553058311116505497e-01,-1.069414423756277932e+00,-1.120796497456046703e+00
3.428994598984139719e-01,-1.253056076338883162e-01,-2.985285679766722100e-01,-2.815027737336790459e-01
-6.651110439151877163e-01,2.688400028459432267e-01,5.020337800302655529e-01,5.456541809265900156e-01
8.923248352915970072e-01,-3.469509416544849789e-01,-7.050226249348886531e-01,-6.891997227275071802e-01
5.879189947174110475e-01,-2.623291979308560729e-01,-5.713786723691302027e-01,-5.085525943385251768e-01
-7.570616487352980206e-01,3.523144610892469109e-01,6.235338096861421375e-01,6.220869922479803638e-01
8.576975111926294915e-01,-3.316621699228669007e-01,-6.685474491401942609e-01,-6.864573394936109851e-01
-2.797105753667626649e-02,-1.098878876306644270e-02,1.905305314834462513e-02,-1.562899414506367310e-02
4.618562045327690435e-01,-1.740737563431812296e-01,-3.385841688774787750e-01,-3.713843786769767674e-01
2.181636869676055002e-04,-3.630662074655293531e-02,-2.697078473933232912e-02,-3.678476621421434417e-02
1.236521597480952916e+00,-5.380447452016442478e-01,-9.358381279129398544e-01,-1.006784174464601334e+00
1.357996095595034314e+00,-5.189684062668167286e-01,-1.062983329378473618e+00,-1.117832321022685704e+00
4.068404056074805264e-01,-1.163013988714746288e-01,-2.762550066477377775e-01,-3.057470698750045512e-01
6.033645008628647499e-01,-1.955389024116115371e-01,-4.294910236661463321e-01,-4.853529767309184284e-01
