-5.473571595311255145e-01,-4.397161798530234700e-01,1.911510918119094793e-01,-1.615580475074013256e-01
-7.764894581457828515e-01,-6.616360003422090408e-01,1.860068828991237253e-02,-1.024126217946281642e-01
2.127083774688540430e-01,-2.438774090652807980e-01,-3.849559374789108812e-01,1.876327979716546634e-01
-1.995643979940995572e-01,-7.384531662482345625e-03,7.593020422894982942e-04,8.340923925526990690e-01
8.218643046506743932e-01,-4.228725932519779296e-02,-1.440886813389620769e-01,-1.669768085947611891e-01
1.317606963736290930e-02,-3.625984950184304445e-01,-1.449279199304977228e-01,-2.957670702848142485e-01
-5.401095812194305346e-01,1.806979668038972975e-01,-4.415150930792295370e-01,6.502117177849392471e-01
5.105913926481970844e-01,-4.257751781143845893e-01,-2.626478506151787573e-01,7.996445255693469811e-02
3.364137967973841042e-02,5.226344532145286159e-01,3.724413310737753613e-01,5.082295290518789033e-01
-2.989846023301478417e-01,2.531904352981309003e-01,1.768181121968231961e-02,3.897378844628714978e-01
3.812653427959726282e-01,3.205464037938147714e-01,2.416660093892826766e-01,4.200789234480856171e-01
1.338174047718167746e-02,6.151695214838913683e-01,-3.410028252055842812e-01,1.124148433535155367e-01
-5.876436390112501629e-01,-4.964300531621388402e-01,5.189352721080919828e-01,-4.249845938877260809e-01
7.545783867324920569e-02,-2.647111841838052128e-03,8.669485211255131274e-01,8.552775767595350437e-03
-4.716059939840393511e-01,-1.838635556729954768e-01,-1.172957489438439388e-01,-5.411446785410141125e-01
-2.835432923186805287e-01,-7.681901218723874436e-01,-1.550262620320135565e-01,-5.547082287801943234e-01
7.931231297589244056e-01,6.931265426187981360e-01,1.106817133988148849e-01,-4.914259949380797576e-02
2.343560013209214088e-01,-9.901235790218113619e-01,-1.881305213618334193e-01,8.301906499193835443e-02
2.787486538787998236e-01,3.072582246471395884e-01,-8.335215258796659921e-01,4.882750264508291527e-01
2.910783536622497669e-01,-4.138588217317594187e-01,6.418542102946085681e-02,-7.750715958165386998e-02
-9.415023169401659509e-01,-3.929403571904350745e-01,-9.146216346524262131e-02,2.523373788206049184e-01
6.942106761562502060e-01,3.486940078775739305e-01,-5.696372879728390792e-01,2.337727520663087644e-01
1.271153001435294881e-04,-2.800803136824930317e-01,-1.379531807286274725e-01,-4.607003827809537100e-01
-2.686789795829065963e-01,-3.555036854441993160e-02,1.355629050781959333e-01,-1.872966562830627180e-01
-1.748918227467548270e-01,-3.401326652824580576e-01,5.911776658954543961e-01,-6.256672657628135070e-01
-1.195405116709962468e-01,-1.444900949570793458e-01,-6.367273788105870524e-01,-4.282851255680361069e-01
6.426939729949802116e-01,5.104675802902241405e-02,-3.264539380483302833e-01,-3.032043681701146812e-02
-3.070476325834405329e-01,-1.804301307034942015e-01,5.811347514477070708e-02,-7.246364166909979865e-01
4.542835084587438788e-01,-1.999210212921329333e-01,5.967586860893845380e-01,-3.390579174997862544e-01
7.063197979714233576e-02,-2.318815940210592896e-01,-5.410960564985199499e-03,-1.171159653179859317e-01
6.875214915825210715e-01,2.076834070490168604e-01,1.233913434251714403e-01,-5.361547063950197201e-01
-2.162162921610571720e-01,-8.306695822855069133e-01,5.910756511379675615e-01,-5.328887715527465263e-02
1.313987896051954096e-01,3.716959954203864491e-01,7.170744850786325841e-02,-9.300501648641569252e-01
1.749014148040493877e-01,-4.158444471625636352e-01,2.037784826933613236e-01,1.955971516497030382e-01
5.930768372830704793e-01,1.070580645524079333e-01,4.372735333890963583e-01,4.182410954218723220e-01
-2.886582726785043018e-01,-2.014002108648116351e-02,7.124410695213335698e-01,1.382357826003280665e-01
-5.213800331754482320e-01,-6.838915907703592145e-01,3.954065573368467090e-01,1.571456498691992942e-01
1.463501465276663416e-01,8.060628167650006962e-03,-5.644748260820089403e-01,7.432319435682746001e-01
3.929404624347280356e-02,4.824281185068594047e-01,-3.222444292986804959e-02,6.400660329642792190e-01
-3.445991087888803928e-01,2.207993346821351399e-01,-8.080204121015212015e-01,-4.774693213798205660e-01
-8.834215449535831599e-01,1.790438282018513294e-01,-3.502319895337296374e-01,8.385805196686239860e-02
-8.239546912809825319e-01,5.074381589412642057e-01,2.543524702555445272e-01,1.278014818157484078e-01
4.118686436099883719e-01,7.539709314566646337e-02,-1.137025865139515146e-01,-1.988697260540480682e-01
-5.189537832030759884e-02,-1.102861250468575686e-02,-2.274160557752269718e-01,1.256022330636522022e-01
-1.122941514165505111e-01,-2.304968193010354660e-01,1.086618881242207985e-01,9.912811713313041118e-01
3.234401050194501970e-01,-1.416988175999440158e-01,-3.987575209941855436e-01,-5.022003069928550056e-01
-2.931996916162230016e-01,-2.622725202961767241e-02,8.917847228495977552e-01,-2.157232106696588825e-01
4.391352371842464075e-01,-4.344561416564890477e-01,-3.701302323164696872e-01,5.570368557682734423e-01
1.232765707278947187e-01,5.658948595184565278e-01,2.471451912461750111e-01,2.925232200556682760e-01
1.192863836859217735e-01,-6.719603715980200231e-01,1.514604810508650423e-02,6.356262195443398433e-01
4.305825476327186929e-01,5.926003538822938177e-02,7.756420424007486047e-02,8.271711179933004532e-01
-5.958211268364154156e-01,5.426850650700099088e-01,2.610371973914755173e-01,-1.389684335834514284e-01
6.385418429373623805e-01,-3.230085861907583400e-01,2.239433496136073939e-02,3.946134968587746705e-01
3.577432408378739548e-01,6.941956211634718425e-03,-6.526474357754148414e-01,4.138048700979818917e-01
-5.834567029123900461e-01,-2.761554906912514484e-01,-2.980916333177354161e-01,-1.193644061850205294e-02
4.902974869367842659e-01,-4.590789150319622008e-02,-5.464708815371298600e-01,-1.089724316315541786e-01
1.449757792537632317e-01,8.227815975086341105e-01,-2.705465330723031414e-01,2.204093432361055316e-01
6.114036307747597876e-01,-2.522106933765193570e-01,2.813587978382837140e-01,5.781751869562558044e-01
-1.453679931743508680e-01,1.016091350184329611e+00,4.191820724116897268e-02,-2.435198934450038266e-01
3.054602737495963893e-01,7.607614691682633434e-02,-3.741613902660763658e-01,6.805169992375212917e-01
-1.692470065715637462e-01,5.830999305487251094e-01,3.904713463181286315e-01,7.107032878077589322e-01
3.410688266307446703e-01,2.201853424193826736e-01,5.626148943947577585e-01,-6.589505192817074475e-01
6.140456570430425920e-01,-2.840939992608512155e-01,3.838511319099504049e-01,-2.337493139450398383e-01
2.199099826765907872e-01,5.609480671837551169e-01,4.562090444704393066e-01,-1.424826694212767524e-02
-4.598318117771960645e-01,1.175915094100447311e-01,6.429355201342166204e-01,5.362426876757361294e-01
3.279961521693396942e-01,4.508198899640213364e-01,-6.268199875965265733e-01,4.120992865598676058e-01
1.887378138430148844e-01,-4.179121416477594719e-01,-2.019011246931090298e-01,-4.282702983989861156e-01
6.299256478948005444e-01,1.830318789614679420e-01,-1.016770687022092307e-01,-6.182082313314919420e-01
6.167855424891423022e-01,2.353819470939636643e-02,3.616872865767031264e-01,-6.681315628472767054e-01
2.810431549830552100e-01,-2.603223769425669909e-01,-6.777100354960967632e-01,-6.506269642842562595e-01
-5.356273197558144572e-01,-3.078008791091652596e-01,-6.000167597921971518e-01,-4.572933875814925164e-01
6.640628448904072334e-01,-5.807306776843181723e-02,4.953253859606134291e-01,2.853013562340662168e-01
-6.178935389159393443e-01,1.801876314288772263e-01,-3.686095267558233690e-01,5.599614816082392199e-01
-7.440160682068227560e-01,4.289973218271774247e-01,-3.230070927942398917e-01,-3.473805771874006326e-02
5.159401494514477271e-01,2.152619620069410045e-01,-4.808501552017513392e-01,-7.557335421219525395e-01
-1.510803013273023798e-01,2.482878767772267181e-01,-1.581551735002195702e-01,-2.095255632629941245e-01
-4.303736950294291819e-01,4.658738754111635405e-01,-8.909697052934020811e-02,-4.005394981124222875e-01
-2.788220130977837885e-02,9.205970651276415562e-02,-2.147526015244328457e-01,-4.917706497937275878e-01
-2.849170535439624619e-01,-1.189099989483146380e-01,-5.920809615230989698e-01,-8.040253137478347023e-01
-6.754087683215354021e-02,3.709560063927074824e-01,3.660147040086357273e-01,6.735549841750005928e-01
-2.405858262653686602e-02,-4.218469741387589900e-01,-7.703670001182039151e-01,1.137821512684540626e-01
1.474459550243904238e-01,-7.147277493567936180e-01,-5.056551465140415313e-01,2.280480812035459437e-01
-3.338295716249364276e-01,-1.374759251688960904e-01,8.326122870029861733e-01,-1.671964656686622530e-01
-1.777914145160385540e-01,1.225647929809538378e-01,-1.750776872676570450e-01,8.816096969617283063e-01
2.494333493668312862e-01,-3.211527593907514966e-01,4.420057447819591423e-01,-3.585230762880752819e-01
-4.906417004878927957e-01,3.792448693549753114e-01,-6.407167221945408997e-01,5.022028428181334325e-01
5.028927302944433686e-01,-1.167591515889852549e-01,7.650257468959883456e-01,2.049708227419200779e-01
-4.560265253729521295e-01,-2.890004941295217823e-03,-5.969746145727935493e-01,-1.713331239243341408e-01
2.421686151946276511e-01,-6.355600329938285165e-02,6.160514031241562938e-01,-4.079876907796038954e-01
2.377534217673486772e-01,5.668111643774570441e-01,-2.836061088965166621e-01,-6.988422132061558600e-02
2.313436511615230562e-01,-5.776116222859637439e-01,-1.880741407958362310e-01,-8.862941948659315561e-02
1.900376230910472419e-01,2.107882234562101220e-01,-3.194436168056138253e-02,-1.018102798832741573e+00
-3.456656968350667047e-01,1.573534110134969799e-01,-4.387896962209349438e-01,-6.983695888961486409e-01
4.417951846702735108e-01,6.021679335378005149e-01,-7.233254950086155377e-01,-3.390227881506432950e-02
9.190063312414809005e-01,-3.119290730636619657e-01,-4.063645848122838800e-01,5.050969593477081659e-02
8.223076364035418473e-02,-4.909442796041331436e-02,8.609599548165647320e-01,-1.469833735902526251e-01
-7.129332650682359551e-01,4.519606862681057047e-01,1.775741052985645996e-01,-5.756476317196947967e-01
4.514273511059667121e-01,2.319511636687105263e-02,-6.270294937939459023e-01,5.170961471568573664e-01
-2.639499195498005713e-01,8.278570164847570689e-02,9.316360935926073505e-01,2.439943204318121006e-01
-1.967595417203847064e-01,-6.412986100937504430e-01,2.202236917498399671e-01,-5.322828070899527919e-01
8.437643059297839088e-01,-3.946665502562988759e-01,-1.132297998439878162e-01,1.287504176217997287e-01
3.962603360349825077e-01,-4.576375353597014056e-02,-4.419065520423767213e-01,-2.895158086324979216e-02
2.504082505288341975e-01,-2.362404620416497514e-01,2.563860030425347269e-01,6.087028598248801492e-01
-6.258898162612670513e-01,-8.687522562310708019e-02,-1.750228931180720648e-01,-4.091953256033304398e-01
-7.241109818794736475e-01,-5.139145988837183765e-01,-8.648153598277924514e-02,3.000002230232133860e-01
4.054924650199224767e-01,-5.562503815993496969e-01,-8.000372413818779282e-02,-4.585844376997970651e-01
-1.632590740133554527e-02,1.184327262447341378e-01,3.261492464862008611e-01,9.611447966110827634e-01
2.690021945171251483e-01,-8.058982746966070199e-01,-2.249488336140287592e-01,-5.535937957086672911e-01
3.495393743783752338e-01,-7.763695767848661777e-01,5.250987703684735219e-01,-8.352816929470724405e-02
-2.875941751565879723e-01,3.753798250643395340e-01,6.749309870140931533e-01,1.077910880391048376e-01
-4.703081650015121240e-01,8.732161787948806708e-01,-2.953354105866880519e-01,3.823956785385665413e-02
5.716364120372042779e-01,2.113912343055644460e-01,-4.164317637799850869e-01,-1.250057232760937997e-01
-4.002355537025419907e-01,-4.313945143712663577e-01,1.223387003372023718e-01,-7.572574350102901919e-01
-3.755250138422258632e-01,-5.316657274921883225e-01,-7.675036874560893230e-01,5.103698773829515485e-03
-1.438646438367345293e-01,-2.196150326906244343e-01,-3.875117002818616041e-01,-5.348200955102577758e-01
7.721737465830971203e-01,2.070047901819050407e-01,-2.990619983786148572e-01,-5.015281825447559516e-02
5.390661175959506890e-01,-5.966732528534227642e-01,-5.699840034637999597e-01,3.593158937379258011e-02
-1.774108281140956145e-01,-1.758245792561973497e-01,-4.576946594312710781e-01,3.879699255936813196e-01
-8.202879770745949983e-01,-1.288883080299882411e-01,-2.302029596398685596e-01,-8.859891090213843634e-02
1.584373404985743583e-01,9.880329781968398561e-02,2.492813583042040593e-01,9.469709221312805347e-01
-5.834021192448916038e-01,-2.155430324065515102e-01,6.455246689642201163e-01,4.426317126254746825e-01
1.553916263749344495e-01,-4.694143083593279586e-01,6.218793820546618667e-01,5.864516911895137352e-02
5.503139489348239932e-01,5.792684372103211743e-01,6.585627655848521611e-01,1.903525485189430932e-01
7.735184335703486624e-01,-2.415964969091204950e-01,-7.006904088523001339e-02,5.778309027798760322e-01
5.970352597566778163e-01,2.933474532560507164e-01,-1.579510962503490878e-01,-3.837129580994311229e-01
7.531806190841293658e-01,1.961457901758528743e-01,3.447388328567397853e-01,5.329679627762851091e-01
-1.414173559191838625e-01,5.779354873768856038e-01,-6.063143107091327755e-01,-1.197371411611113240e-01
-4.740155926870366354e-01,7.070870190672866595e-01,-9.707904081140364405e-02,4.123730665432726039e-01
1.190360006518532826e-01,-1.839957049684052548e-01,8.347949843524630209e-01,4.594446981094903459e-01
-3.623787042010359616e-01,2.129921997737155015e-01,-5.816632175844445030e-01,-5.286571687485128734e-01
6.894580385927129296e-02,-7.467213576328788349e-01,1.631982268554053872e-01,-3.125968842247919266e-01
-1.909712935879908924e-01,-5.081605085409841571e-01,8.428169392994152576e-01,-4.233362557776569612e-02
3.773006353223625209e-01,3.604479073515554077e-01,-9.910992232930725121e-02,5.402354706370988691e-01
-3.191387694343374437e-01,-5.603396935625757358e-01,-9.176931740934862747e-02,7.955013731117570597e-01
2.688055927972299308e-01,7.589003588257728361e-02,9.193653426543318963e-02,-9.209276337018985625e-01
3.785632816921724597e-01,1.537716433897938217e-01,-1.182272933358115702e-01,-8.041285409048565258e-01
-3.305024799221434328e-01,1.998628639146478869e-01,8.963233210686789576e-01,1.170147653827837836e-01
7.940171275465791600e-01,-2.009001724106459497e-01,7.781998422512089158e-04,4.034860741015406926e-01
-7.422066224625655240e-01,-2.225112497836612135e-01,-2.357593162216611027e-01,1.751925194977166020e-02
5.377703502687355280e-02,-5.839052654875765969e-01,-3.898784337462390254e-02,5.704257755314096068e-01
1.959848665437923312e-02,-6.721448006444349366e-01,4.710413987880466835e-01,-5.236733459411468949e-01
8.891371359463048352e-01,-2.355688368145998912e-01,-3.677233987852349117e-01,-5.302226575992820268e-02
-5.681078994963879580e-01,4.981756214888166112e-01,-4.845302116947607929e-01,3.941708527032575793e-01
-8.520747169246615238e-01,-1.371112017166075392e-01,2.596404177022674786e-01,5.343173603820130513e-01
-2.348564132326148857e-01,1.621444379999250063e-01,-5.736986583405500051e-01,5.528588229170479373e-02
3.403020875837600157e-01,5.024023699886922406e-02,-3.765488363817842132e-01,-8.833204035869278714e-01
-4.065128312361539487e-01,2.103753629754788468e-02,6.177174151605796526e-01,-3.585991676253564298e-01
-1.590399497712787213e-01,5.588041988298651092e-02,-7.226778300876166572e-01,2.628825926669118296e-01
-8.439901013998889479e-01,-1.472444001877015046e-02,4.039077264908527698e-02,-2.733030306957032751e-01
-5.464970804905223689e-01,4.809993589055899799e-01,-5.934430234959244821e-01,-4.747923240830864144e-01
-3.249342693180410357e-01,4.499941727856395235e-01,-2.403713264603480337e-01,3.680053314671497544e-01
8.330659707074777875e-02,5.900252023338576901e-01,3.987321983364637279e-01,5.916782696610446424e-01
2.197840111828262277e-01,5.979883485739412308e-01,-4.076887782593577314e-01,5.843204035002822483e-01
-5.356370643436871859e-01,-1.441189880053311556e-01,2.158263337988833297e-01,-8.001749835776867936e-01
9.527601833733000125e-02,2.713922172883370121e-01,2.856230351045013771e-01,-7.106405406049028928e-01
5.909284361493967463e-02,-8.028367052637086498e-02,-7.972755508172281458e-02,-4.205476293917403963e-01
1.133393964984047084e-02,1.961027364388601701e-01,3.886909556318752235e-01,5.602976093240225053e-01
6.818593099117190581e-01,-7.722672036381104943e-02,-3.318535690027917262e-01,1.695308619826912111e-01
3.751036976968527559e-02,-2.739045452298289884e-01,-7.050406983789530013e-01,-9.244016907286901896e-02
5.457183044206150857e-01,3.916217045935880270e-01,5.858537590164349940e-01,-4.000047773728744316e-01
7.312796824507206139e-01,-8.550606915937540575e-02,-4.232107964383016174e-01,-4.964628296359126503e-01
-8.593695067208918514e-01,-4.528418320638655237e-01,-3.985907901322868208e-01,-3.667151671382969103e-02
4.162673868273751299e-01,5.751646898957246679e-01,-2.330327347339303801e-01,5.990588219664799707e-01
4.467918875646497562e-02,2.291837920845791743e-01,-2.437326329023850879e-01,1.575410748703770236e-01
1.360847920742091766e-01,-1.574044276989480518e-01,-3.140765604028153968e-01,3.465139632662243563e-01
6.270554771534397887e-02,-7.745818218625504237e-01,-3.929453556484548971e-01,1.741826828731998789e-01
-8.425726692501335213e-01,-2.095427664692830205e-01,-3.884649583198284684e-01,-2.365640021848746666e-01
1.525858420406774052e-01,1.447733984087650472e-01,1.903351737260188248e-01,7.950604325039511977e-01
-6.807606132148273925e-01,-6.512399828858037587e-01,1.244255272222781483e-01,-1.164744442113282569e-01
-6.251215761864197251e-01,-2.583190709190792966e-01,-4.546192435697049006e-01,2.260360706392720576e-01
3.912587989429900936e-01,-4.113800628521184499e-02,-7.994252953047208399e-01,-1.352808255544537264e-01
2.143461319757992145e-01,3.409451858345089598e-02,9.229323396946689240e-01,-1.648328383738861536e-01
4.763120430869298150e-01,6.449491045440578496e-01,8.740569559969692259e-03,2.127912625709683925e-01
7.731357382441897408e-02,1.920720169201760863e-01,8.230014473741751324e-01,-5.662285771270259005e-02
-1.632320509220803323e-02,6.957220506102503865e-01,7.061237308900190079e-01,-2.864594237216290251e-01
2.418797594299623432e-01,4.427953882304191957e-01,-6.540357577866442451e-01,3.642385259190927260e-01
-9.163799493007374064e-02,4.754739535745661216e-01,-3.657153102351665130e-02,-7.605709246585422578e-01
-4.710201372277394438e-01,-7.156379620159546151e-02,-3.720427865017856828e-01,-4.151639972928156674e-01
-9.932342009865080534e-01,1.414595053757941312e-01,-2.096498494106195654e-01,1.729304584057159977e-01
4.366285315186609062e-02,9.059302861495047154e-02,-3.271935160899239192e-01,9.863708316201801329e-01
3.472968427263571911e-01,-4.586022720748957060e-02,7.766161492165446489e-02,-4.475143546910617665e-01
-4.419500566153788945e-01,4.793584588815458236e-01,-6.836429205614059645e-01,-3.382366141806851245e-01
6.196916738577407102e-02,4.740651874351870521e-01,-6.380360002942002673e-01,6.230667750742285849e-01
2.524384730497439833e-01,-4.283548889070996069e-01,1.974237684366218215e-01,-2.790737524202264314e-02
-2.098393598720418862e-01,-4.635513757938417578e-01,-5.704914524536165432e-01,-8.808047408806157774e-02
2.423406692821159780e-01,-8.439702287761571831e-02,-3.711828119196048381e-01,3.309468437265956214e-02
-1.362832889573118988e-01,2.584276803151446256e-01,-3.238935813350036219e-01,-7.314939065086957237e-01
-2.594267154448947066e-01,1.009743954970161381e-02,4.834068279449061367e-01,-1.977742828147150411e-01
-1.377061328104711713e-01,5.066648388683097845e-03,2.342896631147741229e-02,9.333258843089661250e-01
2.770461871473443027e-01,3.998218631297424386e-01,-5.536852922102842856e-01,-5.813564794424600640e-02
7.829947323937508363e-02,-3.692313716098929444e-01,-3.699441837296487678e-01,8.358807680983291674e-03
-7.996284218779101671e-01,-3.024479262311406957e-01,-4.472999317258907759e-01,-2.125848921391339519e-01
2.133946260740331446e-01,3.411097177726740148e-01,-1.415944120290751340e-01,-5.746813280955173631e-02
1.931241824035346000e-01,4.075849011607083905e-01,-2.330541114782135048e-01,-7.354401447624963062e-01
-1.224141846838515575e-02,2.686157148546406415e-01,4.631940494822985727e-02,-3.752207361231160027e-02
-6.777398312610454223e-01,7.614294042630627424e-02,-2.687649651923598726e-02,4.635822635127134217e-01
5.945684821934008601e-01,4.822009403349557521e-01,-3.454493061483526750e-01,2.609717872694936602e-01
-1.529495961805444337e-01,-1.434306701173654608e-01,3.008644317422926595e-01,-6.170711968839511785e-01
5.642806823668979899e-01,-5.994347621491467049e-01,3.831163859295020346e-01,2.115339005032116637e-01
-2.443955668139705384e-01,9.632638962299587548e-02,2.854838010594465403e-01,7.493115922124223838e-01
-2.587683130141013033e-01,2.747019496253281720e-02,-2.352880627992002538e-01,8.367641758718015188e-01
-2.721114712803472946e-01,4.451981126181374648e-01,3.588693658412406839e-01,2.978871981237339872e-01
-2.662068206769375167e-01,-3.306832636753963550e-01,2.742728940389458914e-01,-6.382209104011696832e-01
2.168131987357465040e-01,-2.143910529689068700e-01,8.168803499544297075e-01,-1.219333006766461225e-01
3.142760102212528994e-01,-9.784409761638231950e-01,-1.148325335612705028e-02,-4.645084120129600556e-03
-8.088145392229176833e-01,-4.987233339997366316e-02,-7.069154589403009448e-02,4.120579729886556519e-01
-2.081340820178529949e-01,-6.533724220407191030e-01,1.142032826605238333e-01,2.423563226441653451e-01
-1.750884234118054578e-02,-8.358478024925590777e-01,5.541799574177737053e-01,-2.623507363202342568e-01
-6.974179192897893564e-01,1.070755509951804157e-01,2.756111465771495239e-01,-2.460860209893983019e-01
7.648206602136383703e-01,-3.975611047610430049e-01,1.762075066773153842e-01,5.757109101799273709e-01
2.110203403340727424e-01,6.414491215936226620e-01,-4.494614423067199716e-01,-3.893869786695647317e-01
-5.572221782600215167e-01,2.115550749848662815e-01,2.339169286636110304e-02,-8.543587243236925310e-01
5.066061987347636464e-01,-6.304946737447274518e-01,-1.461508341464881622e-01,2.747258996796538288e-01
-2.004306855335386273e-01,1.003816900650021798e-01,-8.945829251098149637e-01,8.646537163144027427e-02
-2.025451695045174250e-01,-1.144731552258072133e-01,6.293097920986293614e-01,3.602483312508096835e-01
2.800598524826418134e-01,-1.557407249329534060e-01,-5.493906388180056499e-01,1.676512423997367496e-01
4.704180509414944145e-01,-3.528112138324325797e-01,3.414808901233173932e-01,-5.007252929600627400e-01
1.274292893529648529e-01,5.937768219668738690e-01,4.347823606505644978e-02,-7.935363519167533131e-01
-4.735331946587428287e-01,-1.613240428529822967e-01,-2.524481674441726442e-01,2.955287881730642718e-01
-4.042382311539604034e-01,-1.375780870817830126e-01,-1.113456055311879550e-01,-3.329011898464054320e-01
-5.622424184500827149e-01,7.022569575547824572e-01,-6.299656635537172200e-02,8.885376226073646300e-03
-1.211774726106675804e-01,7.719751472216846988e-01,8.831935083064745839e-02,-4.617288629932415622e-01
4.321167473627149369e-02,-5.290547933181463103e-01,-4.157550242453711409e-01,-1.543751822462359202e-01
-3.199570207467855032e-01,8.081503594480586861e-01,-2.679675055906793335e-01,3.522935292482277103e-01
-3.596226144560977778e-01,3.232328998431840406e-01,1.040636670196529306e-01,-7.446130198892193519e-01
-3.472499781286245701e-01,-6.101323548674721792e-02,-7.508109885852546350e-01,-5.276735597051929183e-01
6.150371952406173959e-01,7.226847312263950940e-01,-4.377607974937174906e-01,-1.243007910868371563e-01
-7.470234401717165129e-01,-4.176053618755978802e-02,4.057979224883836999e-01,1.570271867754644002e-01
4.720956428195768328e-01,1.152677463468800428e-01,4.469103718635741296e-01,-3.092983923214516762e-01
-8.474779871617067473e-01,3.753685560452597603e-01,3.959180945597738366e-01,1.181274290952192274e-01
-3.186725554564458496e-01,8.069063180495308907e-02,-7.013759995951810433e-01,5.197396161799416880e-01
5.750587969907662300e-01,7.406181638270491474e-01,-9.308441232934572263e-02,-2.485153750171167353e-01
-7.311587495239997292e-01,-3.908710475326847567e-01,4.392809533475506290e-01,1.899406895378339954e-01
8.417042238641948559e-01,4.996912155023285063e-02,-1.452592551741286042e-01,-2.078005318028564863e-01
-1.152107447554783295e-02,5.100240683931016594e-01,-5.225344205911091056e-01,-9.062982350352802308e-02
-9.459935999632940185e-01,-6.218885223682814323e-02,1.637629757472890135e-02,4.581669026292451742e-03
-3.926768710782953531e-01,3.133890649747879675e-01,8.506356326771752352e-01,-1.639805603110067733e-01
4.359415517112743554e-01,4.038573726119605856e-01,5.274922973741150711e-01,5.887535151355436369e-01
-3.405730588978006512e-01,2.725190720001497979e-01,6.917598164474419997e-01,-5.076367726472710284e-01
1.217059233992584810e-01,-7.174415672922398457e-01,-6.146444736997274116e-01,1.395465671212320347e-01
-8.918264879303580139e-01,3.410424493095690623e-01,-1.428937481664920711e-02,2.396806679054321321e-01
-1.135339654195458015e-01,3.405373820230473969e-01,-6.851876373226047923e-01,3.908110908512206216e-01
4.292712609712664440e-01,5.250067288348807260e-02,-7.816613208915066391e-01,-4.655034485818845269e-01
4.237480015612070106e-01,-2.342779700535128629e-01,2.841549765541044326e-01,3.803830134410433050e-01
-1.555182265984595413e-01,-8.233784160638280003e-01,1.942993803907192285e-01,2.963342042285335709e-01
2.612480657732360045e-01,-5.051578398995730801e-01,6.070289107809715423e-01,6.331982832698352937e-01
-1.659864084584872224e-01,5.238782899106340096e-01,3.567709012566278037e-01,6.489866901651126785e-01
-2.460458941548447909e-01,-9.344980205289338260e-02,3.055094334844102311e-01,-8.821398376609579373e-01
3.262814748032872858e-01,2.963250962220108087e-01,3.134060871700553585e-01,-6.933803155971309806e-01
1.428684000822133815e-01,-4.687921810085973751e-01,3.392213523124379959e-01,-1.233535545183054999e-01
5.714352462601351990e-01,-6.050571508716778846e-01,-5.532519899838680422e-01,-3.449867710090084305e-01
7.998184583083111088e-01,-8.216119443673797207e-02,-1.185734002295456557e-01,-4.853765724818791538e-01
-3.320024317142167836e-01,6.647326140438459818e-01,6.958821959465202878e-02,-3.817523021573054898e-01
6.400864576470934875e-01,4.310219937916719424e-01,3.395449197565049704e-01,2.133896407515693816e-01
-5.204025421196424306e-01,4.433268215176071336e-02,1.569908450270008915e-01,5.919172680503806960e-01
4.065092894760223841e-01,-5.561990218915153772e-01,8.028082322035715590e-01,-6.429606973142928950e-02
1.515200278398222411e-01,-3.455962516068663559e-01,8.216459152466130123e-01,1.981878628384188545e-01
-6.261300043346871291e-01,-8.357744332419422828e-02,-5.163649933457087338e-01,-2.616989167953425732e-01
3.286402736378606915e-01,1.480488991990645542e-01,-1.733129720277597208e-01,8.901913158121269598e-01
2.816158480062235236e-01,1.644062027931152414e-01,-3.312032472742240108e-01,4.238686433838593781e-01
6.077350665350501890e-02,-7.328849543493703295e-03,-4.591152754314619111e-01,6.655553253562044302e-01
-5.490766522385945869e-01,-3.687278376617508235e-01,-2.848232639270610878e-01,-2.569724581641284478e-01
8.428650849625131392e-02,-2.289931532851962603e-01,-2.747703560599599193e-01,4.430698794363697735e-01
4.460985652822074266e-01,3.610764241839207744e-01,-3.730347011214044106e-01,-6.615571144501897205e-01
3.441943952349054703e-01,3.464845615857461980e-01,5.987091630487706428e-01,-2.937352566844473878e-01
-5.837417868743457472e-01,-3.215801796278076607e-01,4.733108676539173054e-02,4.324105710770224653e-01
-6.998210487994982465e-03,-1.396250465919857409e-01,-3.054910041163178547e-01,5.637264175577885172e-01
2.530927431842166508e-01,4.062886645423973153e-01,-7.050218841093639499e-01,-3.413332919240834595e-01
-5.442406421851880838e-01,1.288563146575906759e-01,4.376105072212572167e-01,5.446905821259691027e-01
4.366501624077692156e-01,2.379257034999082698e-02,-3.469336199354394051e-02,7.703085273044349979e-01
-8.161486724241563684e-02,3.186393156015529526e-01,-7.812610009995427651e-01,-2.183172818724272435e-01
-3.816258032204429274e-01,3.160190928267971877e-01,5.484152505718609127e-02,8.883980198439758169e-01
-1.474059754874434969e-01,-2.481110983812850612e-01,-5.676384508981668908e-02,9.448688773587424761e-01
1.842614802160215393e-01,-3.158281018261038797e-01,7.062512633791129257e-01,-4.256945082697524141e-01
-1.096599704505145656e-01,8.741629874975657133e-01,-4.564166164576674567e-01,2.760101627688875681e-01
6.362480234085494679e-01,4.101525487148017235e-01,-7.215527524132216985e-01,6.456930907776305129e-02
-4.423813308997177063e-01,3.566396403433514384e-01,7.389892454670795585e-01,-2.429755133773242315e-01
6.784759601227340342e-01,2.361341717647772245e-03,4.514492047679838360e-01,-2.796849436894696672e-01
2.035669605212898636e-01,-7.903694085349838305e-01,-5.897246101374746807e-01,-1.590153449183229484e-01
-8.296228162270585793e-02,1.215333499728942918e-01,5.610984661451358102e-01,-6.711241045724316567e-01
-3.803554061141580234e-01,-4.454964439930760856e-01,-8.712556643982209692e-02,-6.435744577319275628e-01
7.512990409839187533e-01,6.010005126488923016e-02,3.931916557326102790e-01,3.693133357266957691e-03
-2.292818704190937307e-01,6.263656538427687659e-01,-8.041602053527928395e-02,2.566004505802896296e-02
1.887299546540411321e-01,-1.394253851220712825e-01,7.278190337698584589e-01,3.760355907914653129e-02
2.094965342055115920e-01,-7.815229748931152853e-01,3.472613173751102900e-01,-3.508460960810306783e-01
-8.471826137323884565e-02,7.042249478481237279e-01,3.346360832356632953e-01,1.532132393356969435e-01
-3.717484373603348047e-01,-7.022474257759770966e-01,-4.413650125600933061e-01,-4.499062794395182752e-01
2.498058392084397672e-01,-3.013501535791677233e-01,-6.155950369118734500e-02,-7.957632309244450086e-01
-3.604400266730786728e-01,-1.718532606474158092e-02,-3.239204695835710135e-01,8.469214484867505499e-01
-2.948006776510986304e-01,-5.475915567520647231e-01,2.295959618916293410e-01,6.503195360395084279e-01
2.682689113449741869e-02,4.265973184572462995e-01,-9.284732003286539914e-01,-6.222114404539424298e-02
-1.463108274461157599e-01,-3.707950858618816459e-01,3.564632286685679996e-01,3.086610139051131907e-01
1.792569651523539254e-01,8.350852056404031165e-01,-7.696629884676851885e-02,1.553024398094574876e-01
-3.814973941980482047e-03,-8.529525688194991018e-01,2.531326846088186033e-01,5.319646727160445288e-01
-5.565260854134493895e-01,7.044128374569155193e-01,3.122345913786080951e-01,3.353183099308089110e-01
-2.991583569161663791e-01,1.245748531939216280e-01,-3.278962803569530071e-01,-9.357214197115186760e-01
8.643250668546861304e-01,1.869560129504365675e-01,3.714316731641102431e-01,-3.630196198356955284e-01
5.018728438316456542e-01,-2.442080895861708720e-02,-5.010777781834397926e-01,-5.418991661170414753e-01
5.001965865332875377e-02,8.358432595269219556e-01,5.226194818257986485e-01,7.345277969503813398e-02
3.950579908873087520e-01,-1.561929897192084783e-02,9.637774770452849360e-01,-1.555820472499508667e-01
-6.052028114578800189e-01,-5.910985525449571343e-01,6.169572421079851932e-01,8.032330220155031730e-02
-6.839238431554678366e-01,-2.701889042588304646e-01,-9.161155842788759607e-02,4.882506856873593259e-02
-7.012534967804189279e-01,-4.895139543792698666e-01,3.749103416797883725e-01,3.593905466352315115e-01
1.596871300647673408e-01,-4.083794561399511913e-01,-5.071332842009472763e-01,4.786159289737778044e-01
-3.293219748030862815e-01,-2.370789835065881812e-01,2.264708174404330976e-01,5.534543701685310513e-01
6.051093585333340297e-01,-6.451694192867872824e-01,1.054988756686243007e-01,-5.525874431413707599e-01
7.300176461972620601e-01,2.795742638008229530e-01,4.300127626254778845e-01,-5.396701096719440371e-02
-3.230116345860009064e-01,-1.995690587928748427e-01,6.522073596768636072e-01,-4.108822596395845794e-01
-4.965407412594561865e-01,-5.541009302710314666e-01,3.998472858239978667e-01,-5.132341947969262241e-01
-9.695454170920593528e-02,-5.677434099401852396e-01,4.306352852487896343e-01,6.821743030849933831e-01
-6.440503753136098131e-02,2.911878124607655827e-01,6.271819092279729002e-01,-3.414926581193209465e-01
7.131505250497713333e-02,1.923531001660192530e-01,-4.294427905963118519e-01,4.984083258621216928e-01
9.703534438274497020e-02,-4.350737369555089384e-01,5.533966418139613097e-01,-1.604816147139731530e-01
-5.349366546978175929e-01,-2.972403213077757234e-01,-6.639594990917546680e-02,-3.062225143091692331e-02
-6.462962864535117813e-01,-5.966984036541703729e-01,3.312676421875240806e-01,-1.964732644201581391e-01
-4.588164195793962841e-01,4.366418082748879659e-01,-6.707866962679854828e-01,-1.057743875337923550e-02
3.326819723298843345e-01,-1.175230320495223163e-01,4.871285760598291770e-01,3.122305972934449197e-02
5.895172628642120216e-02,-5.439300331752305873e-01,-1.170353327725844189e-01,6.755030373074282224e-01
-1.947641440404898616e-01,4.239875375039999228e-01,-2.138160172563347006e-01,-7.372643522556414641e-01
-3.499986343865845728e-01,8.000263038112256919e-02,1.526022628488090394e-01,3.213475624062016034e-01
-3.291002409172861243e-01,-2.941685655262239463e-01,4.661100892061640355e-01,-8.021951514601166622e-01
5.744638977979004135e-01,-3.569461766083952825e-01,6.132649205560256611e-01,-9.723350035880871933e-02
-4.791390893781266591e-01,1.758613546905232194e-01,-8.216353044617437096e-01,-2.324717090800211827e-01
-4.496749002200554624e-01,4.053272925839866425e-01,-8.504860630965643820e-02,5.675468936134014410e-03
1.263554454852901798e-01,6.871545795644573573e-01,-1.604838724766748381e-01,-1.874386177888599236e-01
-2.082035859191651017e-01,-1.026494907994054406e-01,-9.307409142847865580e-01,3.164732165485656945e-01
6.219373267781176384e-01,-2.827791812395215043e-01,3.094317816539435273e-02,-2.963915400267267963e-01
-4.558008437140422253e-01,5.600368949383599526e-01,-2.412642863746003175e-01,-6.170938573583883979e-01
-6.077381402481268902e-01,2.352020386218455494e-01,-1.111245951692403774e-03,8.177350323929204468e-01
1.563158880552798502e-01,9.594774573534893269e-01,-1.184853936795863816e-01,-1.885737051002759831e-02
-6.654630463335451385e-01,5.656713291520096831e-01,2.196104266506535840e-01,2.219013718111025879e-01
-5.256250210112716204e-01,1.633304980541419038e-01,5.390251363912853533e-01,3.015085896178708591e-01
-4.157502370993058638e-01,-3.108564108515439739e-01,-3.901311063336782570e-01,2.336804016892159719e-01
2.576276870529033425e-01,-2.006400758175897608e-02,1.060004391701773185e-01,4.044400960707570380e-01
-8.194534183723346521e-01,1.768521914145756713e-01,4.543601489650117009e-01,1.435684264486102868e-01
2.329058139895139323e-01,-4.800000012371258978e-02,2.578101889751513442e-01,-4.989501176872761234e-02
-4.632563313446029230e-01,3.577117087947860319e-01,1.786326435578652061e-01,-7.310702048001062048e-01
-2.690767685460240255e-01,1.653895989470835493e-01,-6.847795528390855369e-01,7.100106422309826470e-01
-1.237881378758781820e-01,1.227065088590818288e-02,6.146276519923300485e-01,-5.031612896064556750e-01
5.258235190782176716e-01,-2.766704254181585054e-01,-1.099864239750045630e-01,4.433297151108807066e-01
2.445455408602006664e-01,8.826972672152758048e-02,3.315952116007309658e-01,-1.633004588058556972e-01
-8.274953512104898934e-02,7.917984342276224163e-01,5.062490140506279435e-01,-4.347297141719987379e-01
-5.841326314663310981e-01,-1.406533961532117905e-01,3.704615839813575340e-01,5.266346537675786754e-01
-2.569334557650509443e-01,-6.616058713733578844e-02,-9.962406730591669146e-02,-1.928125691467912350e-01
3.373484951552594979e-01,3.908018608133582705e-01,-7.333714650574059135e-01,4.020293719409411271e-01
8.130194607553284381e-02,-3.023349139122707419e-01,7.906531892953615470e-01,-1.186926082540269572e-01
2.351962801790632995e-02,6.213573733089539086e-01,2.294488181082272593e-01,2.460569824454144627e-01
-1.059275075885168643e-01,-1.496667414220174963e-01,1.439957927569014175e-02,4.295474970167337814e-01
3.415928111659179978e-01,7.559326895967430904e-01,-4.057810836494939871e-02,-3.404013394166802153e-01
5.528153477862834952e-02,-9.742196921603600568e-02,-4.793298918166245121e-02,-6.137878998790816804e-02
-7.688354566998714668e-02,4.280821839127513795e-01,-1.728703904143016612e-01,1.407142350290901123e-01
-6.405266968750321643e-01,4.344720222852797853e-02,-4.488954080543896552e-01,-6.237714216900490660e-01
-2.172145998721238813e-01,-6.669229118661436084e-01,4.730980408023474082e-01,-2.245527543559316663e-01
4.374319795710370773e-01,-3.194921022350238893e-01,-1.574508693963548867e-01,-8.957107196351550282e-01
4.989540160626155796e-01,-2.321848292461527463e-01,-7.762365801858935876e-01,-1.574301339116697396e-01
-3.979142350986271115e-01,2.371801689605129437e-01,6.929223893120592948e-01,3.956698254180304186e-01
2.968715034175238854e-01,4.113945206077779804e-01,-1.763536555023872410e-01,-8.347282384985327264e-01
5.284060930485058316e-01,2.623888831198245564e-01,7.417668606068287263e-01,2.055598136976689513e-02
6.492335854351737323e-01,-3.685927939934495745e-01,-3.739791840344505180e-01,2.549564392336881036e-01
4.311076595877518236e-01,-5.047728034360166038e-02,2.077316879549786777e-01,2.583879469342589275e-01
-8.322959128413510987e-02,5.079724846815203421e-01,1.611043833620414562e-02,-2.718377887180331021e-01
3.908081951987359415e-01,1.707962379771886807e-01,-7.534987413165671333e-01,-5.764142166100126863e-01
6.181793586597316148e-01,3.621024966285970592e-01,-6.465689068722467736e-01,4.290389507744339359e-01
-7.998894008345548423e-01,-2.755205415324754048e-01,3.322827288797887690e-01,-2.416126032520005962e-01
-9.055994336588309157e-02,-9.676256130508633646e-01,-2.655762392144129791e-01,1.824100169694783946e-01
-4.271491250160651676e-01,-1.372233151992233446e-01,-4.361315949028415906e-01,-7.565737534275343013e-01
2.296191276043445598e-02,-3.659546308270527626e-01,-1.033152287650693640e-01,-1.231656727569545653e-02
3.843178915087681613e-01,-8.793682782116380992e-01,3.854333652232823371e-02,-3.432018302752120054e-01
-6.155924751465184919e-01,6.801561158870723933e-02,-1.323826057902663944e-01,2.182466487918935105e-01
2.383831080190421947e-01,3.218014637522704224e-01,-6.250289037610569087e-01,-4.740231011408008732e-01
1.349974275247213806e-01,3.204638482656229082e-01,-6.187521443033027202e-01,-6.581134915901005744e-01
-6.913010574356782956e-02,-1.370801014788166662e-02,-4.902012954291622426e-01,-3.210373848492714122e-01
7.998458107427958153e-01,-5.211078011074283811e-01,1.217457821579304295e-01,3.771406717094070715e-01
-1.510267710465354463e-01,6.981648261979500614e-01,-1.056110775328033130e-01,7.086328116817979250e-01
-3.105270794798288270e-01,-1.574283400236105579e-01,1.930418564241042911e-01,-3.641762573315062701e-01
3.815933438516109222e-01,-3.587203533434268343e-01,-8.268454941470667618e-01,-4.886598826765879700e-02
-6.468940492275719878e-01,-3.013196568008516540e-01,5.211855492901800169e-01,4.812804143081672592e-01
2.983185891464584794e-01,6.540974422885524886e-01,2.683658440481317409e-01,-4.407302822427285882e-01
-1.243127793162648737e-01,-3.601478174477876770e-01,3.078813121444680667e-01,-6.341505144883369249e-01
-2.148400620487448953e-01,2.484658910352052497e-01,-1.851356977276493732e-01,2.851145143849876940e-01
3.658252984961324339e-01,-5.921263947747955614e-01,-2.725106904354071546e-01,-2.339867551728045184e-02
-2.954651921395886061e-01,4.391710600436882217e-01,-5.999561025386052071e-01,-3.462945935728301006e-01
-2.728018111743764629e-01,6.888016403899648310e-01,5.598494706365544360e-01,2.771414736447365690e-01
7.681395263877991431e-01,5.635935651818807512e-01,-1.156848977313540972e-01,8.793139587858389561e-02
-7.692538703843956882e-02,-4.029022982467122538e-01,-1.072669734368375677e-01,-5.502946356441491549e-01
-1.555619211920430955e-01,-1.964631949502215480e-01,-5.780314115926079577e-01,-4.429548534149149175e-01
1.825991462450674285e-01,4.733018075260735924e-01,-8.957223293406332276e-01,2.266609028272311699e-01
7.128815466099330811e-01,6.141917827696432436e-03,-5.603298641070926234e-01,5.358514321848105721e-01
8.182042887788830710e-01,-1.670138156787264946e-02,-1.196812507668485077e-02,-2.464874327076068683e-01
6.817606299745408993e-01,-1.531532236240278622e-01,-3.832891683146871786e-01,1.552914277112854291e-01
-3.932978320471856859e-02,1.201815405596324271e-01,-7.067652009684275427e-01,6.226129166152224448e-01
3.694786730349557402e-01,-5.242741734484082095e-01,8.294833102657388213e-02,-2.712332797717553756e-01
3.846497295317077292e-01,7.606649538567471225e-02,-1.798564272480800141e-01,3.569192421871582588e-01
3.927590270926556437e-01,6.200544496292629271e-01,3.645595642049470064e-01,-5.029857341888306355e-01
-3.106159087800299257e-01,5.146185853414347866e-01,-7.777103682158571785e-02,7.882014181535007546e-01
2.557365045290725392e-01,-3.268763338858975409e-01,6.507760445671582072e-01,-4.202627019705853367e-02
1.590990209583705850e-01,-5.835403349171092158e-01,2.821602308739261100e-01,-7.600848950633904977e-01
-1.491922698434900441e-01,7.467927425555527196e-05,-4.430595857554084915e-01,-1.568794305020748403e-01
1.521682376578466778e-01,4.664511411149945830e-01,3.936620316489606308e-01,3.881440940531402650e-01
2.915162809222182627e-01,2.559167167973411261e-01,5.162755451166706200e-01,-1.393370616792935224e-01
4.443302035204642064e-01,-1.217726790124307318e-01,-2.212344511930304236e-01,-7.189523270893578566e-01
9.335179325776182813e-02,-5.693408874259192620e-01,-5.307567077301433150e-02,5.321906062021494188e-01
6.220126611834866370e-01,5.621549226155859724e-01,2.963627203192711335e-01,-6.676516132419421656e-02
3.367267318950526445e-01,6.246055486242128030e-01,1.007933090009614265e-02,-5.732097343431774572e-01
3.485476145461712805e-01,-5.876884055793919481e-01,-3.051656104228622213e-01,-7.490476615270702521e-01
-1.989418799559635187e-01,-9.236211916311261316e-02,2.740317073293388472e-01,3.275838634995381637e-02
3.020624198272402472e-01,8.157876826990444197e-02,4.705745949804128747e-01,-8.040389889980359417e-01
1.381367483092724724e-01,-3.960585616242500162e-01,-1.443328079869972969e-01,-2.653820365054165853e-01
2.879903859100394481e-01,-2.374598163265015036e-02,1.431480255866353878e-02,1.261036272194420993e-01
8.180673536556077874e-01,1.568840542868658039e-01,-3.944231325568190449e-01,1.251309944995631640e-01
-2.309996740493884815e-01,4.916643772636819509e-02,2.673139085535586879e-01,-6.380420083218186766e-01
-2.671658316164856051e-01,-2.150228208047717804e-01,5.171581306479198226e-01,-2.161284841676528734e-01
3.471956741212096076e-01,4.075159087252197554e-01,8.676540008618213728e-02,-5.711963535152017046e-01
-6.377018560406114145e-02,-3.511074069983549650e-01,5.954970777174848351e-01,6.445748521258727326e-01
4.722365933904673074e-01,2.115188207428488898e-01,-4.152750967349718159e-01,2.676346886337397923e-01
2.768490613563267533e-01,2.047540344379333577e-01,2.844947367338371280e-01,1.098607549344340628e-01
4.265992758597554890e-01,-4.321199915314705708e-01,4.243703202497683957e-01,-7.810441970700197911e-02
-3.690804698270594431e-01,-2.249971897318680525e-01,-6.620812104485339633e-01,4.888141019356185279e-01
-1.236540139489280404e-01,-6.757714487722001895e-01,-1.380697451567321210e-01,-6.518285327953148300e-01
4.462266153243238942e-01,-4.001877949309755045e-01,3.382609090698243670e-01,-5.320831588731884665e-01
3.767029636303257933e-01,4.248378814481844068e-01,3.179152387324273299e-01,8.343348407154593804e-01
4.036876747427652345e-01,-1.532482738641526288e-01,-2.686162554331466001e-01,1.777955211428291771e-01
2.942716837179648603e-01,3.663744116632945413e-01,1.099259804567275234e-01,-7.623466806123285755e-01
8.254297671797153346e-02,9.343975144387114962e-02,5.299719110783388532e-01,-5.781210832016145940e-01
-2.903980673404619323e-02,1.336286407489602895e-02,-1.646991224704131007e-01,4.000391769388493834e-01
4.917437852687153027e-02,-9.073451311617830584e-02,-6.790556749820618743e-01,6.209667229494810758e-01
3.460027223066621804e-01,-2.468071933428408749e-01,-2.857190780337575675e-01,2.255260125847939334e-01
-3.171974329442264207e-01,4.337040942971921442e-01,2.138041068896184282e-01,-8.523083442284045130e-01
-7.220929312556113588e-01,6.560016033489988185e-01,2.127067967230795442e-01,1.451400463740583520e-02
-9.824841765316480457e-02,-1.810034995246558309e-01,-2.051792617994004642e-01,-4.023708485452349159e-01
3.463210938098371106e-01,3.500305845882941136e-01,7.526535027719551962e-01,2.886544720157874222e-01
-7.439035300926155614e-01,1.108476421641986787e-01,-5.749538782628919042e-01,3.957855137473048623e-01
-2.200855454427553815e-01,-6.124635643865545820e-01,5.801469634383533691e-01,-6.443347639969673746e-02
-4.278500764881777718e-02,3.782026827366132826e-01,-9.381333345899061094e-01,-8.880860155187489391e-02
1.942436922023189905e-01,-2.828980584727462944e-01,-4.643740167721265855e-01,3.247090980500390578e-01
5.441840968410326385e-01,5.181151957154872534e-01,3.381743389409885281e-01,-4.294698821663689992e-01
-1.816132317906577198e-01,-1.938215961585586511e-01,-3.259874129508927298e-01,8.558470408128246998e-01
4.056688382453582098e-01,-1.804769853642363697e-01,-2.025985388558366462e-01,-2.527277311883585065e-01
4.433961204335206130e-01,-4.605142229316080971e-01,1.511890192026434619e-02,-3.210232987601657206e-01
-2.732121213406007998e-01,9.119763077488892700e-01,-1.247188860581813774e-01,-4.142719639916578322e-01
-4.504786906203725461e-01,-2.578938534473329547e-01,2.627613131494973414e-02,-2.476005420335395529e-02
-4.768083395250540812e-01,-1.910975268906930369e-01,8.163206639234978912e-01,1.967472284682129646e-01
-1.202015940663266613e-01,-6.044111964289596850e-01,3.612821273971581482e-01,2.144624585462153732e-01
-8.449832247212178959e-01,9.816049810538278464e-02,-1.858250437915257569e-01,4.750004332238154658e-01
7.438157407694848677e-01,-3.885195019090547652e-01,-4.301014189933357601e-01,-6.580033818445318872e-02
-2.547776341281073331e-01,-6.538710198469507295e-01,-4.427551676129232172e-01,-7.225607139171222326e-02
1.749569972031544268e-02,7.468745262856912870e-01,-8.022577503956605793e-02,3.466542829230288836e-02
-1.858098041312458149e-01,-6.941662683093777764e-01,5.583947046058159724e-01,4.129385418693798937e-01
6.467614929344492336e-02,3.554929454358390362e-01,4.553289428298755714e-01,-5.673269029638198235e-01
1.907395165968246986e-01,-6.788330742095765036e-01,-2.399489515200354806e-01,-7.115720388449394695e-01
-3.488014845964223509e-01,-6.551848748321815741e-01,-3.814794351731121136e-01,-1.746304240599966251e-01
-3.363357179860128610e-01,5.116711003057544671e-01,-7.418861954374205148e-01,-2.783866692231787843e-01
-1.506281521347251906e-01,-9.959795349245668949e-02,9.447432807390269138e-01,3.181901876172474886e-01
-5.191714080933330644e-01,-1.882373966483913141e-01,-7.912183946268516177e-01,1.443153479911482573e-01
5.136273847235119788e-02,2.418354767589318000e-01,2.370260333593515734e-01,-3.530081737222837690e-01
7.100886341250083333e-01,-2.223283818920264443e-01,6.432668923036183317e-02,6.758656974315437882e-01
-2.227676700249500430e-01,-4.638167697715449567e-01,-7.035759450437149010e-01,5.775981364755247149e-01
-7.820270103915159809e-02,1.818832853345004330e-01,8.906023051463168860e-01,-5.086354824447181233e-01
-9.739989466469707313e-01,2.902065860566839794e-01,2.140350450748279842e-01,2.860279316244344373e-03
6.851512692421675155e-01,-2.642012884332297640e-01,-4.015000919778368149e-01,-2.168594071227154252e-01
1.755192927742725006e-01,6.312532895245315245e-01,6.298049515056520775e-01,-1.657054330034641032e-01
3.824221163865376694e-01,-8.898219741487372048e-01,-1.539364116958996187e-03,1.889598480310332174e-01
2.643864082340374733e-01,5.884054852358969884e-02,-3.671509418092405164e-01,2.853143986876756077e-01
-1.535332452636920808e-01,1.217335264424294350e-01,-3.580686301815701467e-01,-7.992765372733493523e-01
2.110104306869395666e-02,5.859892070955826648e-01,1.434805869474825302e-01,-7.643393940097528150e-01
-4.793523430956164039e-02,-2.196510452129732394e-01,-4.152417823955548842e-02,-2.706431059106890746e-01
-4.063820354043764516e-01,1.075722901888510469e-01,-3.862506224201120442e-02,6.486181479483416057e-01
5.549227116475107247e-01,-3.932233338877275108e-02,-4.416739173532680529e-01,7.870795130521437422e-01
-3.344130537316999940e-02,2.944822014833392218e-02,4.747903163961825213e-01,-9.230673604212422667e-01
-3.487217380736696293e-01,8.352413903676004781e-01,1.865155326108879352e-01,-5.199633982637864582e-01
