-2.622916513026928076e+00,2.360134728430886231e+00,-5.581354913916922733e+00,-1.768879173045599495e+00
-4.336050450612472851e+00,-2.194726594906158290e+00,-4.539843672888337345e+00,2.493990372256867261e+00
-8.105652763976377573e-01,-1.453225389284945157e+00,1.158042464671679372e+00,-5.002744905633598194e+00
2.054375157598445689e+00,-3.955530154746428106e+00,-4.700634034902127389e+00,3.236179750128777677e+00
-1.909636243748007445e+00,1.626281699210083032e+00,-2.658403807372220484e+00,4.468719589663144198e+00
5.580784259354366617e-01,5.484209602505809578e+00,4.904145888753052573e-01,-5.004480985238762614e+00
6.182203745109073445e+00,2.202041481472573725e+00,-1.768813078709090547e+00,-6.141380188464470868e-02
3.594869935390392346e+00,2.177098082757290332e+00,3.548987992629554888e+00,3.411838942939367403e+00
1.468718098883883050e+00,-1.965499181740214318e+00,5.176645405579924031e+00,1.825668653402247266e+00
6.799708678897540270e-01,-4.412980257415781260e+00,-2.363186161707260702e+00,6.102958083870098083e-01
-1.838849719732549515e+00,5.289982456945703682e+00,7.118424590524598250e-02,-3.593166817104081368e+00
-5.495009873106528886e+00,-1.009094650873205712e+00,-2.909765246482557632e+00,-4.918844917974948827e-02
-1.539360202661523847e+00,3.617430487571268172e-01,-2.547829531906045109e+00,6.780583557802662753e+00
-2.353616894734725129e+00,5.365164347847165338e+00,2.478326871695060163e+00,-1.423498744957089945e+00
-1.979415467105372972e+00,-4.369987060394168843e+00,7.828705368845371160e-01,3.659700698156475251e+00
-1.009237672253727736e+00,2.628398459577091728e+00,-1.020186504103793190e+00,1.068192471451931969e+00
-2.909429645444745027e+00,5.141522966756654434e+00,1.039902532054944428e+00,1.117346059631485922e+00
-4.053146578491262808e+00,2.686218057117848890e+00,-2.276435060067477423e+00,2.449347936317755270e+00
2.256250394595940900e+00,2.242357702919462348e+00,3.393942376845625386e+00,5.740665369306934274e+00
-1.381696067651102533e+00,-1.673690893256752688e+00,5.455765245947652886e+00,-2.943866136275953060e+00
-2.811085844111195442e+00,-5.269996325884855004e+00,-3.430994212998769832e+00,3.058227544106734808e+00
-2.645647064718932295e+00,-5.494741623361504956e+00,-1.437013568429638607e-02,3.345238032991013188e+00
1.965695859853701100e+00,4.351249872941791885e+00,-3.404262045691466287e+00,-2.215961909733090263e+00
-2.127752324472745649e+00,2.522688219711859831e-02,4.806479483032009448e+00,3.795967236643545295e+00
9.142256477066433851e-01,-1.097886629165682887e-01,-2.585100209817050576e+00,4.871843663255727819e+00
-3.882695690331011695e-01,-4.700682069859141166e+00,-1.256947143905261077e+00,5.715383168148617798e+00
-6.465465132920573232e+00,-4.394588675830634616e-01,-1.070773866218641679e+00,-3.346743861328040026e+00
5.403302390692201307e+00,3.227872614885776148e+00,-2.341072402772551797e+00,5.401041706461672254e-01
-2.291604881993108744e+00,-1.509774654765832169e+00,-5.189627788232197503e+00,-1.312796896995926277e+00
-4.567877557266700528e+00,-2.884629571140951976e-01,-1.441341838223560712e-01,3.318158276447113142e+00
1.689061555897301226e+00,-3.385070375756316086e+00,1.201243920703331858e+00,3.675367496181976001e+00
3.285323147819410483e+00,3.199910981626515660e+00,-5.602688576992566283e+00,4.360910346455894593e-01
-9.808230265699809935e-01,8.433734731299848963e-01,5.804050695361597789e+00,-4.408869520271911036e+00
-2.322841734061858787e+00,2.631945238493184736e+00,-1.469749624334954374e+00,-3.010530032157099800e+00
6.483548220424957265e+00,-1.042992647639148895e+00,-1.002444915453389873e+00,9.736808571350853425e-01
-1.140459756880734865e+00,2.903598625439931080e+00,4.201488843366021797e+00,-5.932797859441284460e-01
4.561330168989607969e+00,1.003602467204110615e+00,-1.449380210247518175e+00,-5.063395033525060818e+00
-2.551283771064722483e+00,1.841246575525052442e+00,3.242358774276977496e+00,-4.854857276101960828e+00
4.594885392361689469e+00,-5.208768257304912552e+00,1.628363589116280652e+00,2.150029518621379587e+00
3.391686684032907184e+00,-1.984099870685953171e+00,4.310290060749992769e+00,-4.382319809432327240e+00
-6.342557636461724435e+00,-3.155735899976837566e-01,-4.059723784967954052e-01,2.199579712031081158e+00
-4.001292425588157009e+00,2.243974377197560433e+00,-3.980195156709244730e-01,4.297805343504507825e+00
2.529485738478087775e+00,3.652266706553874087e+00,-1.868808689212115848e+00,1.331758758043060542e+00
5.884878027238012344e+00,1.812274108269898321e+00,5.188284236857207965e-01,4.143543947143978556e+00
-5.142765348641235690e+00,2.626918404495429127e-01,5.027439477718090188e+00,-6.942196909135767147e-01
2.334863370675603900e+00,1.292199674229274287e+00,-8.156070972287635668e-01,6.067289199134115130e+00
4.444578906648025907e+00,-4.927321747825520681e+00,-1.908748118072191247e+00,2.900624014365972503e+00
-2.029716721959261339e+00,5.772861670147163338e+00,7.236850280201637675e-01,-4.032006983359276653e+00
-4.524173856646503289e+00,3.487975625666636326e+00,1.428509489180843195e+00,1.694811401228854431e+00
-4.083702070183356625e+00,-3.970588812367735976e+00,1.943248806385932337e+00,-2.006667027530730785e+00
4.094348583724564783e+00,6.065814392209005312e+00,-9.242438007147215639e-01,8.288947716053269854e-01
-9.556505559955992268e-01,1.746492146046009220e+00,2.647631178748063863e-01,4.858367738833540450e+00
3.503747885104442794e+00,1.881414712231162856e+00,5.116655437171748311e+00,-2.849416553263427687e+00
-1.448066234442687339e+00,-2.126314086959035787e+00,-2.165653932075081389e+00,2.627168242751188654e+00
2.464944699610092105e+00,4.383121579940508106e+00,3.297134064061831182e+00,1.027294419837229578e+00
-4.601799289151277672e-01,2.060885660865598545e+00,-9.297911086421262183e-01,-3.272695975759888576e+00
-2.176527967798060015e+00,-2.160449481180851894e+00,-5.299160644767509254e+00,-3.162544031385291277e+00
2.290747666906073121e+00,-6.385278824110206308e+00,-2.306982951967371687e+00,-1.371472153166731545e+00
5.150990503180117308e-01,-5.529609538533820867e+00,2.954639148790618286e+00,3.739614963382498658e+00
1.776989625780079685e+00,-7.035964868316544329e-01,6.364692899714164298e+00,2.388428640463561514e+00
-7.951391766022314345e-01,1.544696225584093030e+00,-2.480991096526215856e+00,2.633171404552893335e+00
3.807507015758562763e-01,-2.686234984517418489e+00,5.949676827064209306e+00,-7.220097402404612730e-01
-5.369504126519190734e+00,3.137950389431146681e-01,3.528491821981878940e-01,1.411822455895950679e+00
-3.377017847263010353e+00,1.111668830402621877e+00,4.187040149080796247e+00,-5.423281883726480679e-01
-2.427571782295315117e+00,-4.814933410296903915e+00,1.282182231486720170e+00,-2.112974845467104679e+00
3.554740859026781052e+00,2.340859627615095029e+00,4.626757194938067030e+00,2.551530620642463720e+00
-2.158703523587733653e+00,-6.241160153782360220e-01,4.190515686684356034e+00,-3.446932354597701309e+00
-5.306349681810995200e+00,3.216586844553488866e+00,-1.399641965846138758e+00,2.413096128381392536e+00
-4.825282563662828039e+00,1.195846343599173522e+00,-4.789989197983850922e+00,1.259420025853557501e+00
3.920575452567356844e+00,-4.686641903849541713e+00,-3.363137300262003304e+00,1.683058489274350755e+00
-6.111246834315687160e+00,-1.418379619455220508e+00,-6.591128796470537843e-01,-3.028111238593366839e+00
5.182392302423401986e+00,-4.416971236175020188e+00,1.434893042771187455e+00,-1.374143726710941982e+00
-4.180947853284595894e-02,-1.762997814640028915e+00,9.112708571583316708e-01,-5.034656681746655593e+00
-1.696891328861718895e+00,1.292014208893422333e+00,5.454796872930770313e+00,-4.360372957120653759e+00
1.098359081740986731e+00,3.101067975618806427e-01,-1.189961426898345165e+00,2.618080483373165901e+00
1.585175835265264510e+00,6.144841864955990829e+00,-8.646510506314510902e-01,3.693988664542469991e+00
1.959558303928579770e+00,-5.063649932953467214e+00,5.114169855718420088e+00,-6.164950027785330855e-01
1.835270965461979431e+00,-1.640227013052227845e+00,4.866223272160262958e+00,-1.729090563450164986e+00
-2.355973605681005889e+00,-1.774690076194843869e+00,-1.492912897443430253e+00,-6.472978683742603323e+00
-3.287567241171939880e+00,3.925019991978481171e-01,-1.373636663301628147e+00,-5.405921744432329312e+00
-1.284512752198606389e+00,-5.438463378477542243e+00,1.839103426984160405e+00,2.404129251498392961e+00
-6.135606833229741319e+00,-9.633518901672656343e-01,-1.191306699389880652e+00,1.752825631485265045e+00
1.960837348719377982e+00,-1.090743286344272978e+00,4.981585396700597634e+00,-3.778738154043796538e+00
2.457816124626883703e+00,6.461370096482858649e+00,1.263138791600327604e+00,2.434535820961479580e+00
1.343988258118304691e+00,5.293403085339938308e+00,1.381015513647188220e+00,1.855606767334488039e+00
-3.113334071872927211e+00,2.592010190966323790e+00,-2.967375633599560469e+00,-4.967160020366479523e-01
-1.105416994385015395e+00,-1.003189198625213496e+00,3.329212074471891825e+00,-2.301656304226537220e+00
-4.912963781350098813e+00,1.893009036237318643e+00,-4.763211025546549293e-01,-1.299463268679952543e+00
-4.085228874758120909e+00,1.643043504457344817e+00,1.340420328477912371e+00,2.471197412290715434e+00
-8.977643110160100637e-01,-6.410512985159340538e+00,4.673398693661327125e-02,7.539265380015907070e-01
-3.486407461746618530e+00,2.058798337123862510e+00,-6.674256106227571816e-01,3.942185889164783852e+00
-2.614576923961506427e+00,6.088981383049654195e-01,2.452209144222382342e+00,1.631991854861990943e+00
-7.389418256436157684e-01,3.962135773626606072e-01,-5.009389500071523393e+00,2.993324206548049649e+00
5.998848987248331932e-01,-1.928829549320318248e+00,3.278672389772130824e+00,4.364997660101564314e+00
-1.676348683939659745e+00,-1.694809048090169856e+00,4.307468755120246406e+00,2.705576980774888174e+00
-2.401964747826812810e-02,4.704700916713596470e+00,-2.086853211183582246e+00,-3.916281207591342461e+00
-4.862923865186404626e+00,2.358511768138234377e+00,4.044523100453606190e+00,-3.299074012149780799e+00
-5.222191974926706948e+00,1.097743347754428944e+00,-2.174403845630223486e+00,2.783929609579033571e+00
-3.141391647913256424e+00,-1.744540646540415851e+00,1.213769498098880018e+00,2.387705314929730260e+00
2.076804060543611552e+00,1.072716078443773036e+00,-1.463174287479593216e+00,1.807388620225421239e+00
-3.532320223777685619e+00,-2.962087310504484705e+00,-2.125079404237494529e+00,-7.742356845260874865e-01
6.129167930662492658e+00,-1.370917911708673664e-01,3.318789786629277927e+00,3.000389270744906189e-02
-4.157297489788228440e+00,-5.492030798155181692e+00,3.486309800930832425e-01,1.232011636705239388e+00
-1.713966076142555139e-01,4.733369843093871765e+00,-3.653558276409360484e-01,5.370801075156031779e+00
2.687355845589536329e+00,9.422228523296279912e-01,2.389416729570868814e+00,8.460341554727383029e-01
-5.407136758059459813e-01,2.548484414376285034e+00,-3.262797511304392106e+00,-8.079985496269760370e-01
-2.233027062190158674e+00,-3.366209564026730217e+00,-1.512283426312966902e-02,-3.062439575268768088e+00
2.307305031964738795e+00,-3.626361684991504242e-01,-6.533939237593210159e+00,1.004687927343956622e+00
-3.170708779171053759e+00,3.729997818640148122e+00,2.987786834587276452e+00,1.369179000478334685e-01
8.529085814119926612e-01,-1.953620264917796501e+00,-1.786763411353319286e+00,-2.603006636278153985e-01
-3.666817795588248607e+00,-1.881082359496632828e+00,2.179339526428917928e+00,-3.303184608127855970e+00
2.061014903381245045e+00,-2.676879080434940050e+00,-2.083851309999330770e+00,5.128795259902015680e+00
6.182597290579641580e+00,-9.207297079104531656e-01,2.897524272960799507e+00,-1.476047864612123561e+00
3.561407478288305839e+00,-4.064913576292403796e+00,-3.459151820204720007e+00,2.923713640399801861e+00
-2.640229413463114572e+00,-2.962764858883573993e+00,3.484169214909992096e+00,-7.499363211670871943e-01
2.996834306740880471e+00,3.599325132560637353e-01,3.980121132545186846e+00,3.669610059552906645e+00
4.663838896825025060e+00,9.478806345336288075e-02,-4.994948159507239360e+00,-8.885675844379755661e-01
-3.111201864132259853e+00,-4.553684351049163137e-01,-1.307942613724554448e+00,-2.241028925416654438e+00
2.599778571308154262e+00,1.220170633366189028e+00,5.246225387575499610e+00,-1.797176334630932848e+00
-2.729330035423937151e+00,3.117903380566928728e+00,-2.593236233259223589e+00,3.114258639099109494e-01
-2.919692143386266814e+00,-2.953448793858150623e+00,-2.083257163290493263e+00,1.347964346560385884e+00
2.387740222480529972e+00,2.579501549822418749e+00,2.218818542145766237e+00,-5.247534489029032079e-01
2.002754478250909465e+00,5.791295107629375494e+00,-2.828128404353077663e+00,1.366136859161809936e+00
-1.889639836291940114e-02,3.326679946728969384e+00,3.974431689616916841e-01,2.686261446218590088e+00
1.955791670779022939e-01,-1.321308657542024645e-01,-1.364607446110654543e+00,-5.320617210819658105e+00
-3.253654167516471518e-01,5.114759742603209425e+00,1.064138820503369165e-01,4.005064432932347707e+00
-1.189702880650685302e+00,-4.148194525719757664e+00,7.125687925850137105e-01,-9.453422398377917535e-01
2.990617494381059061e+00,1.290498981635446740e-01,-3.382306109160391649e+00,-2.627882352057685278e+00
-9.096287606728814534e-01,3.011543732827400288e-01,4.030364905315698465e+00,-3.514618249558325580e+00
2.694637688474061932e+00,1.468006168158410452e+00,-1.951611760217618396e+00,4.000661760524092614e+00
2.817697327710984911e+00,3.284236530466965731e-01,-1.879256760339825583e+00,2.784654768590274720e+00
-6.996978274986471291e+00,-7.450560976318346684e-01,-2.362570528855021834e+00,-9.034759255368213227e-01
4.004387014426032287e+00,-4.546055797446569291e-01,-4.480718481124677410e+00,-3.991380118478974559e+00
4.346176854099757847e+00,2.369641342922718774e+00,4.336392164103981983e+00,-1.267254368310189117e+00
2.158067354756130651e+00,-4.346408507351493533e+00,-4.690149815279323620e-01,1.718158286804679857e+00
-4.005624454964255676e+00,-8.734132898448467852e-01,7.346056699839884629e-01,1.379164847291550977e+00
6.830625938732297620e+00,1.750315008273845230e+00,-1.506497986581314175e+00,1.117649290857954281e+00
-1.687802208719631825e+00,3.852058444829117523e+00,-5.673378787861186545e+00,2.655704468013531105e+00
-2.928892564482656447e+00,-2.213863643570701090e+00,-6.414838116992408246e+00,7.895819035117656037e-01
7.372954289067221723e-01,-4.222160963998769390e+00,-2.873117516109465197e-01,1.568802549616793662e+00
2.411116483503839447e+00,-3.254217181156682237e+00,1.657988885011245195e+00,3.453370004311777652e+00
-1.423241730950842054e+00,3.992705397014369328e+00,5.857771607257896029e+00,4.238558801327562686e-01
3.975004063462831194e+00,4.679482502987116987e+00,-1.180707069125196407e+00,1.237521291418299585e+00
4.141045665252827135e+00,2.816453908432355657e+00,-4.528619645859361498e+00,9.801620229516182503e-01
-1.581558485408295356e+00,-4.453971347736838560e+00,-1.435614511420771677e+00,4.857351677220066222e+00
-5.953368016754843062e+00,4.639626609612169661e-01,2.698109505122908036e+00,-1.584156670633261044e+00
-2.574371362950936604e+00,-6.078589036320547478e+00,-2.726352640436357611e+00,-2.094757803950365371e+00
-2.740555225151409147e+00,5.013908298397270258e+00,2.576144891235435885e+00,-2.287658380956549831e+00
-3.833375975006823921e+00,5.194537224647409523e+00,1.459079750985968538e+00,1.244247844760858035e+00
1.636573118760658030e+00,-8.340978668916840949e-03,-6.935582400698271144e+00,-1.631099654007977184e+00
2.302739389687666005e+00,1.057285476504435717e+00,-7.082146083885839660e-01,2.303566083333649761e+00
5.944283341264569920e+00,-1.761356409306688464e+00,1.264667570009625486e+00,-2.509786174925006108e+00
5.748663082913172850e+00,-2.954860904294439594e-01,-8.894868980728876107e-01,-2.986348995241770776e+00
-2.145852711348128494e+00,-1.009578991985067953e+00,-4.427824627411541591e+00,-4.790508097943734889e+00
3.299249204932114266e-01,2.495439069679869171e+00,-4.556127081865829709e+00,5.161300713230947856e+00
2.231370859146912800e+00,2.239330294533754540e+00,3.006706519188283799e+00,-2.131371897291755302e-01
-2.079534630229592229e-01,2.590728152508852133e+00,6.655682090215794489e+00,1.954643594214544866e-01
2.038298983504832407e+00,-5.086481824318477507e+00,-2.549332970805894938e+00,1.052696823198178810e+00
5.448694086609382481e+00,8.371234441657179337e-01,2.743747460546960948e+00,2.037883017991736434e+00
6.021646374608056185e+00,6.484292777081037684e-01,-9.852933259824104839e-01,-1.814677148755872826e+00
2.025382041653420284e+00,5.496912204108077127e+00,-3.298216368105718388e+00,-1.100531177460426724e+00
-1.749208270291502165e+00,4.182970838065612540e+00,1.455600088632785338e+00,2.812489297190377879e+00
-2.884508457636621337e+00,4.056469938633647132e+00,-4.325489539933293770e+00,1.770034500227980923e+00
-4.149959503538284800e+00,-2.598035372451251046e+00,5.495214765901047516e-01,5.425100277893128542e+00
2.719070570148590438e+00,-3.415727140314239740e+00,5.325947317036888506e+00,3.013895437113284004e+00
-8.958643175887697208e-01,6.868449157477668487e-02,3.837585719050532251e+00,8.117437935733747834e-01
4.708459880958351995e+00,8.886640560994648608e-01,4.549348348066540204e+00,-2.530221429918090958e+00
8.144015041958861667e-02,3.730094872479302825e+00,5.497306957362674495e+00,-3.514942655585298947e+00
-2.061667575812354603e+00,-1.153422510954480451e+00,5.998505571311702589e+00,-1.800641070363079965e+00
5.295393619290459597e+00,-3.396314548769067354e+00,-4.420634434126757273e-01,-1.430885427751917627e+00
-6.831238307007174271e+00,1.031819733859024923e+00,-2.160804472477088345e-01,-3.822411386814690837e-01
3.287961469676797255e-01,-2.196218138431984546e+00,1.005778188896066627e+00,-5.526689232539334640e+00
4.023128573653942830e+00,3.478240524893812413e+00,3.026564429742433671e+00,-2.189293248685353799e+00
-2.313098474322020426e+00,-3.837370527617390170e+00,-3.021971970877376013e+00,-1.072215322208309951e+00
-6.032692910641439532e-01,5.256057993915796089e+00,4.582443919169141289e+00,1.403977747021832201e+00
5.004514258065674071e+00,1.394198311846248872e+00,-1.915973941374440326e+00,1.523720878448884708e+00
-3.984020026284332605e+00,4.233897907644409209e+00,2.114476046144714516e+00,3.939530785803611046e-01
1.312407140731295829e+00,6.099983501138113162e+00,3.959779288686758214e+00,4.469866428059078300e-01
-5.840779681120740641e+00,3.605501576924581286e+00,1.263947662458531518e+00,-1.343389601932244160e-01
4.635403207306868723e+00,-4.248613714415767184e+00,-2.685333390071443116e+00,1.998097635887791323e+00
1.286431469024603258e+00,-2.552194265356856118e+00,1.204556582247682028e+00,4.202326056839279289e+00
7.630339864543375095e-01,-8.503586414772346114e-01,1.593053770363071608e+00,-1.763737568548509493e+00
-4.181260679249281687e+00,2.738148030569345082e-01,2.635789129702521993e+00,1.094030686401662011e+00
3.197276481926860647e+00,-2.180690043437287784e+00,2.436097947250529749e+00,-5.303722768983817559e+00
2.833517219442379886e+00,-3.073831622062130897e+00,-4.586369322383368363e+00,-1.909351112168633513e+00
2.110197308274187833e+00,2.429375883195738606e+00,1.734721694770323452e+00,-1.465388489025849950e+00
-2.436928576402336954e+00,-1.707509319748112153e+00,4.595178673829957816e+00,-7.091891500141285221e-01
5.307122804542895089e+00,3.023521637140788254e+00,-3.087208504224644989e-01,-5.753606655309886353e-01
2.037351527880170821e+00,2.932472447406875293e+00,-1.654494766446040321e+00,2.202312787747684464e+00
-2.687548513964458152e+00,-7.358472750519613470e-01,4.869779166960078065e+00,3.354155046648144456e+00
-4.368014796517747933e-01,-4.841886022927842426e+00,-3.494874481296023072e-01,-3.663495964531413129e+00
1.110355309541234181e+00,4.377601245810852859e+00,4.421303238989324313e+00,2.594903140025746957e+00
-4.345662347181572516e-01,1.102549142549874128e+00,-3.998112524248102151e+00,-2.728447957660547374e+00
3.420092162321215934e+00,1.560562062518912052e+00,4.655978048978426820e+00,-1.223235292213018521e+00
5.517294930806543318e-01,-5.356046630745235682e+00,-3.831989558168361398e+00,-1.474307155366265665e+00
-4.523314620849585133e+00,4.109174663901746349e+00,-3.365784974600182000e+00,-1.090327911402513505e+00
5.361543412464251368e-01,-5.416653763723369153e-01,-1.024884416870554205e+00,1.169290567971219330e+00
2.318646166751924476e+00,7.156279153698005269e-01,-4.637263511604279742e+00,-3.338957110079779245e+00
-4.102002985637621890e+00,3.159953342510341656e+00,2.166639756024929309e+00,1.662126520668214313e+00
1.643171541011497760e+00,3.169438135318817906e+00,-5.219644834552265245e+00,9.796003129933651687e-03
6.782936215838826222e+00,9.248750518461835712e-01,8.881068157097803395e-01,-2.460776188654180796e+00
8.437573981856523186e-01,-2.213120435252731610e+00,2.394058336185498348e+00,-3.425619142252778193e+00
-2.259952825725556558e+00,3.314224338734628184e+00,-2.339042542043543893e+00,4.903601940059734154e+00
-1.215580955590686241e+00,4.440382073854086009e+00,-1.569447529031746891e+00,4.178355486233050198e-01
-4.469217966066245218e+00,-4.299892701922086502e+00,2.881978659584934821e+00,9.246771354729582670e-02
-3.473591038705788669e+00,1.893668925156195559e+00,4.119477217724696327e-01,4.794843182704890516e+00
1.348820627608751987e+00,3.860530905974958404e+00,-8.795380291497211234e-01,4.569853316814810995e+00
-5.009812959221318529e+00,-2.424204790825506883e+00,-4.565962842384108100e+00,-2.412182395743415753e-01
6.801620068169527134e-01,-5.883510492655100066e+00,-8.853555190526912755e-01,1.491376001868582435e+00
4.732706888638219311e+00,-1.004856452607517436e+00,4.996122337586570872e+00,1.621395654771627282e+00
-2.808304060633623589e+00,-1.970084169599553015e+00,-6.519214614048366441e-01,-5.560494424251335666e+00
2.219960062702310555e-01,3.543924106723645551e+00,1.088381396887623698e+00,-3.931067761672911054e+00
-6.603498955607495446e+00,1.798290342310323586e+00,-2.585801405008285592e+00,3.108135944641723936e-01
-5.098706139503188239e-02,-1.466652224530912818e+00,-4.486281555591768111e+00,2.545371590218679980e+00
-4.313635528735896840e-01,6.789726090450910689e+00,2.052349785102195234e+00,-9.791985432348686569e-01
1.239678108934308298e+00,-6.540850824100327365e+00,1.682417989760829347e+00,-2.119198409511878545e+00
-1.608678627797346605e+00,3.916589198626417634e+00,2.968319537516806772e+00,9.779607424788969716e-01
-4.429813774354355971e+00,-2.960194488216246533e+00,5.340381254816022327e-01,3.355359021603793401e+00
-1.089590716788919389e+00,3.608676075304110942e+00,-1.804480796701225964e+00,1.001453612908709934e+00
5.315142665494744456e+00,3.395102524287793688e+00,-9.977016163654622849e-01,-3.454756250551460628e+00
-4.273313440035181543e+00,-1.183032704480467601e+00,-5.269281910938110602e-01,-4.937662871812318777e+00
-2.627124734513818893e+00,-4.951323236287389351e-01,3.222817710314566098e-01,-5.802739418413465522e+00
-2.917836360249845384e+00,1.891517307184668484e+00,4.999538243358172984e+00,-1.586982990360647161e+00
1.921665271246627338e+00,1.048808742600744748e-01,-2.353881636120761289e+00,5.016165205518774428e+00
3.148301834054168413e+00,4.703473253623193351e+00,3.358968135167790692e+00,-1.982608346169205393e-01
-3.520300551846742731e+00,8.219136613129266467e-01,-1.235484412310555946e+00,-4.822113605456377350e+00
2.797447481858931440e+00,-1.936216011026382411e+00,9.761687342148250845e-01,2.556629189716345785e+00
-7.947178682082124412e-01,1.939715922755029576e+00,-3.852001917287711574e+00,-3.342318512943764475e+00
4.314439449841315444e+00,-3.240877086110102168e-01,2.335084615505330363e-01,-1.086276577628163986e+00
3.563867565480818733e+00,-5.920221392147692052e-01,4.167646042047750576e+00,-2.381093957079192247e-01
2.495805632906905824e+00,3.217207056038000612e-01,2.718176622995746250e+00,-1.674864634392615459e+00
2.678079320387997342e+00,2.269464442961204309e+00,-5.104779981286490909e+00,-3.913917696519749079e+00
-2.249377236914825939e+00,6.181992675863050568e-01,-4.405033049389443178e+00,3.128070176454597728e+00
-4.364495528504821031e+00,4.212792775545265989e-01,2.125862225149025342e+00,5.715603460083769072e+00
-2.298621545916838205e+00,5.169516061220472025e+00,-1.643356851980013744e-01,-1.606405900260739594e+00
2.792421023943510328e+00,2.158649846612401113e+00,1.380196437683464561e+00,-4.486427655096399292e+00
4.285408129359795204e+00,1.176114682852825721e+00,-2.886351631404413975e+00,-2.886584222174892744e+00
4.387483801050326093e+00,2.852204711577644769e+00,-3.828197648334283332e-01,-2.995261037221742306e+00
1.209988134537209215e+00,-6.588457645789254080e+00,-3.305217918259935606e-01,-7.110545594173459660e-01
-2.539965314016503495e+00,2.174372284329950222e+00,-2.813077613128961207e+00,5.811128929207453275e+00
-2.288264802013718402e+00,-1.950456666824766996e-02,-2.744477878716459873e+00,1.440857438363323917e+00
1.720021659251356416e+00,8.596810714442776336e-01,-5.723120284754168452e+00,4.492261663040994613e+00
-6.186712363824600658e+00,-9.434994100605250678e-01,-3.355445788749339187e+00,9.253031974889368572e-01
-4.289906321927351662e+00,-7.774824750768762893e-01,3.625369559898671490e+00,4.140542132605040671e+00
1.548204090912126130e-01,-1.381606563157770973e+00,-1.620775054256067493e+00,6.985567271476836204e+00
-1.863439123754634608e+00,-4.990920188784427225e+00,1.744939527122516099e+00,-9.174488937571764202e-01
-3.369231214873164015e-01,-2.810813805857228953e+00,5.153793269982450909e+00,-2.419512741685926560e+00
-1.140230528517660380e+00,2.036884396154487131e+00,1.201746155091539592e+00,5.756976895560693031e+00
1.769207727304004107e+00,-1.559315929552753444e+00,3.053358796676553411e+00,8.092656967153242231e-01
9.526682361769297502e-01,3.458957873784643144e+00,4.578439111246388471e+00,1.052776005503657020e+00
-2.388673421047074807e+00,-1.045929019738154553e+00,5.758086749038602292e+00,4.170440058071010481e-01
-4.674203635926149403e+00,-6.951872510761796242e-01,-2.691149393742310547e+00,-2.896175437597328095e+00
4.033434582617486441e+00,2.464609549750848227e+00,3.110590102112055000e+00,-9.008204428855371981e-01
-1.489836430185152549e+00,-1.284902759344876078e+00,4.824310422179866609e-01,-7.165387480177002111e+00
1.622783430868266707e+00,2.256684170007647428e+00,-5.624010211203502863e+00,-1.988765418189578194e+00
-5.067299186756572205e+00,-1.028456868217309639e+00,1.787624088502498543e+00,5.152320243170524172e+00
4.366473459401657209e+00,5.994071623755541367e-01,4.260393158880277475e+00,-7.655677650390181610e-02
-1.452385391348494759e+00,4.443909371930470975e+00,3.563521770949684697e+00,-2.791536978459602469e+00
-2.630598642065038462e+00,3.562139043104600500e+00,-5.580242458665041205e+00,1.757013631947966781e+00
1.970087661320997885e+00,6.051192006452122962e-01,-1.292607832667647116e-01,2.342550680919250894e+00
5.458137733723305907e+00,8.136656174588752233e-02,2.727907070706437676e+00,-3.389702112423632840e+00
-2.163931210837245267e+00,3.808512211381183121e+00,-4.119132437155557547e+00,1.972704716778971967e+00
1.967945260393413331e+00,6.610219320358992068e-01,-3.381083226647413564e+00,-4.715708845645097291e+00
-3.561741483061424685e+00,-2.211508760157631759e+00,2.646492759083978186e+00,-1.560198311684728445e+00
-1.860265202679426855e+00,7.149019995484244827e-01,5.094429390727500007e+00,-3.960057780807380023e+00
-1.795839585198834909e+00,3.996261370376738675e+00,-5.512849197241050270e+00,2.021370151192328546e+00
1.460539134562512276e+00,2.178050065428702275e+00,-5.199461601405206856e+00,4.487798861081600421e+00
1.566774848649214791e+00,-3.795362427434680885e+00,-2.506877889579003593e+00,4.268496128231947573e+00
3.733512217695924118e+00,-2.645051837896320812e+00,-5.600353704327105220e+00,4.484439035299516707e-01
2.214394865777955523e-01,-2.249493841134164451e-01,2.171878374158480174e+00,6.254459449389817571e+00
-2.568469225722339599e-01,7.314559778125111045e+00,-1.126830570225726830e-01,-1.184383427499978270e+00
-9.106862004843276903e-01,-1.546890239494729258e+00,-2.678878208243542947e+00,-2.736995424690753520e+00
-1.624630637091635466e+00,3.005121752470654606e+00,3.482445428774688656e-01,-3.156547161866253060e+00
2.112573716888127340e+00,3.233933222012761455e+00,3.984166035223231095e+00,3.642331905381269497e+00
3.927591086401843068e+00,1.699919182287513708e+00,-1.886098773787094895e+00,3.620416770732271861e+00
1.000475792330516089e+00,1.629085937821559638e+00,-8.436441003690933194e-01,1.042146545000960822e+00
-3.154200810828138746e+00,4.683360692303229628e-02,-2.717087951961054237e+00,-3.882497159308138546e+00
-9.762418949578971494e-01,6.634064973039619062e+00,-2.614806048791834314e+00,-1.169952173727955680e+00
1.069333886926256139e-01,4.506324226864231175e-01,1.262081249895589563e+00,-3.984136548284078483e+00
5.581598107438492384e+00,2.351004638722733187e-01,-4.333787586891986621e+00,2.657119666085629106e+00
2.379376740263668299e+00,-5.803531169080694774e+00,-1.849783807774919797e+00,-3.959066154301153495e-01
-1.390909456250041476e+00,5.282689545421264121e+00,3.156476081389412602e+00,2.210707316189187033e+00
-3.365747208031616200e+00,-3.851605544239429690e+00,4.947590904636383513e+00,-1.974780044642691523e+00
1.394111930884573081e+00,1.982138289912936058e+00,-6.442451751370072976e+00,-1.302062907189873997e-01
-8.941579963122135988e-01,-2.118537895722022224e+00,3.749735708808519696e+00,-2.872528622064309367e+00
3.151573002782094068e+00,4.762829964200133936e+00,-8.765816227624669832e-01,-1.804827520194477231e+00
2.654981645772328314e+00,3.431295178506887478e+00,4.556378729984917442e+00,1.637994008618676389e+00
1.108228880943335826e+00,-4.145578103061606789e+00,-4.476294969695284287e+00,4.014652224912372169e+00
-5.335467166171006248e-01,-6.290302625057255792e-01,4.460098287091794345e-01,-3.293145255448336250e+00
3.362499452054097393e+00,3.540486838985592133e+00,-2.729958682629506583e+00,1.855058654488942027e+00
-3.359213918223649120e+00,5.902866204668457684e+00,-2.089195557924634905e-01,-2.788504762281650340e+00
8.697057760772748392e-01,-4.791442188658886714e+00,-9.618337904070715094e-01,-4.798559015091512059e+00
2.313647462588021564e-01,-5.351395559675243163e+00,3.619159576654353838e+00,4.950187165030222047e-01
3.944320224352753090e+00,-2.109279243860987307e+00,7.293667246735997534e-01,-9.318304201937922526e-01
6.619573646009143664e-01,1.303016482961069089e+00,-2.521522225566992681e+00,-3.874759797813573936e+00
-2.918366878070809967e-01,-7.906508709105716237e-01,2.862863684269394415e+00,-1.104216719085405335e-01
5.412963683685005911e+00,-2.768072125844231124e+00,2.609409820772075062e+00,-2.471664235074368499e+00
-1.529260287473527491e+00,-1.356156956072688824e-01,-3.032378968714122269e+00,6.306159194100124488e+00
3.122004703875739029e+00,-2.621174710662159679e+00,-2.214190267814529101e+00,-2.488233085820026780e+00
5.648428783540053288e+00,1.926630182121687879e-02,-1.453452619678199165e+00,1.273543261144306771e-01
2.663591441387871406e+00,4.514115934729782786e+00,4.306918287264904777e+00,-3.073626701017580398e+00
1.779616771866110891e+00,2.357165621761512231e+00,-4.466135410863530275e+00,5.192433806330464030e+00
-1.785195773997034996e+00,2.325546137717386497e+00,5.914052778813442046e+00,2.411703533702576507e+00
-4.806332077083267151e+00,-4.203825848067576310e+00,1.183277288619959844e+00,-3.473709174522367493e-01
-1.808095729748049774e+00,2.824461828085056858e+00,7.048428229048078197e-01,-5.900944149282911333e+00
-2.958198702508983313e+00,3.062069934596889365e+00,3.094263392922091960e+00,-2.071070718847676240e+00
-1.530810867087960103e+00,2.910171623071388769e+00,4.094067490246720453e+00,-2.750198147628065914e+00
1.015223229192091070e+00,-1.250511078267152909e+00,-6.252515307147927359e+00,3.412718733599207077e+00
-2.006664767712999620e+00,5.777491614049942825e+00,2.554429199020763708e+00,-3.416883990912689129e+00
6.149005568848492587e+00,5.077459050556502040e-01,-8.686850831740737799e-01,-2.170528856405404827e+00
4.814002632246747737e+00,-3.377095684850742519e+00,-6.836985853646018185e-01,1.966189691956654606e+00
-6.531287693211239587e-01,-3.376086001982144591e+00,-3.225120163260213335e+00,1.896108010571263991e+00
4.659614820276789082e+00,1.670122403528896682e-01,4.142815689020538983e+00,4.025110820597009642e+00
-8.305985908164725817e-01,4.915368529271939124e+00,-1.427742030718972766e+00,3.440015033978242598e-01
4.362682822620334910e+00,-3.886119913875260234e+00,2.859597776830561155e+00,-9.187128484600940448e-01
-2.535707067669760395e+00,-1.242519616478154676e+00,2.058780301020339376e+00,5.435770228345710109e+00
9.548939783746552834e-01,4.885488352922005895e+00,6.277742797395338137e-01,-3.972563594759198402e+00
5.721242940099187990e+00,-7.361504848197452100e-01,2.371372768630203520e+00,1.167596867671953920e+00
-2.629491645844193926e+00,-3.531377004773088135e+00,1.311422582494923272e+00,-4.264968483036584601e+00
-2.870341002529519514e+00,-2.621442964621817140e+00,-4.038736963768394972e+00,-3.754285866965772822e+00
2.373174642337275930e+00,3.297921667366466636e+00,3.968840688568011088e-01,1.148262592123622916e+00
-3.738559763216449561e+00,2.170775814230265333e+00,5.857269320104945720e+00,-1.358923999203985877e+00
-4.994721673665205586e+00,-2.493346520420383516e+00,-1.515639455523860812e+00,2.840775980352899799e-01
-6.565315271559909682e+00,-7.853929510377084533e-01,2.468888831463178501e+00,-2.570006429885129950e+00
-1.609127086107744908e+00,3.684525839208906195e+00,-2.477393624187210541e+00,1.261659757540914750e+00
-4.459682605490737362e-01,4.043458326466956798e+00,-1.791413504108738008e+00,5.210099180100247196e+00
1.147840605001720693e+00,-4.148796435868304933e+00,-6.685502518826803575e-01,4.438432974330370762e+00
-3.847697832118070593e+00,5.915305271541355658e+00,-1.904561846135893077e+00,-3.739329398755440043e-02
-5.057073924613378679e+00,9.286526895656976865e-01,-4.562338811347426137e+00,6.050333249808609315e-01
4.001521045226400730e+00,1.947855145315189329e+00,1.736885976713627322e+00,-5.463377596511016066e+00
5.986202601225233677e-02,6.228009523537772374e+00,2.186477196193211903e+00,8.017963578958425819e-01
1.378831563881680378e+00,3.981279919665902334e+00,-4.655074533917803563e-03,-5.504112622166251079e+00
-1.417873548038737885e+00,8.247482288415897145e-01,-9.661590964356893130e-01,4.816981280312221614e+00
1.780482767213718898e+00,-3.134842686516771781e+00,1.739533928565328624e+00,-2.567671943705558402e-01
-2.189590831228725332e+00,-5.866947510330057014e+00,1.729363842155665187e+00,-2.710726881771834851e+00
3.047862485487394579e+00,2.560912522761347176e+00,-2.966321391771317706e-01,4.248856744287205500e-01
-4.764068135375924662e+00,1.524333341349645154e+00,-5.408929791069454929e+00,1.537477306648179276e+00
-4.390073454760058169e+00,-1.138494340334673671e+00,2.501965373135131218e-02,9.976774872277663908e-01
-9.067509758009993925e-01,2.490610441615876525e+00,2.080869217104364566e+00,-5.644493669182133466e-01
6.160238952487568503e-02,-1.602876883714619560e-01,1.890906615404413516e-01,-6.500134786294904821e+00
4.172018856075955462e+00,-1.586215751118815964e+00,2.609862023433955347e+00,-3.498747785531471255e+00
-5.783863186011942048e+00,1.422908192534969807e+00,-4.561258168959201775e+00,5.229293015267290068e-01
4.216391206505315736e+00,-5.663257417792361359e+00,-2.563802580055076774e+00,6.809407386611545654e-01
3.812333694446415899e-01,-6.748130588166512567e+00,4.474444111675203728e-01,-2.828205442295523842e+00
-1.263789204723204884e+00,5.614859718359258345e+00,8.936891874512250533e-01,5.254604508925417861e-01
-3.009861316582776780e+00,-1.727655003407462253e+00,-4.792469340100886654e+00,-4.543951467337136840e+00
-5.341565302651129166e+00,-2.350412726395236795e+00,-1.400258574218300911e+00,-2.977183140802337924e+00
-6.343697932822100150e+00,1.183441847118809953e+00,2.644136435041773314e+00,-2.808187300505702866e-01
-2.380202252613376590e+00,4.067749944720587152e+00,-4.256579746011285081e+00,5.885022449233209274e-01
5.050732958262085681e+00,-3.737505515164411207e+00,7.418596904220520205e-02,8.187059936634120128e-01
-6.541071379934333407e-01,2.202804225778047797e+00,1.047469797152387194e+00,-3.200445933843368174e+00
1.819827935377676731e+00,3.580227519135995018e-01,2.342999125158594431e+00,-6.827441572018010163e+00
-5.920865441095048531e+00,-2.381228481617972736e+00,-1.939053786620805186e-01,-2.007467711563776902e+00
3.544701323589544373e+00,-6.672947843219918518e-01,-1.976137275019579143e+00,9.475594080750746606e-01
-1.872292001249761251e+00,5.819563929298955607e+00,-1.468479480835312101e+00,1.371296857255054791e+00
7.816051691707632809e-01,-3.207552219501209390e+00,3.655204498460486562e+00,2.556620822619497524e-01
-3.280570531963047376e-01,-5.173808096348807339e+00,6.987228544639471073e-01,6.285518938970160452e-01
4.494325626760065084e+00,-3.849813054885123709e+00,-1.827942216078110582e-01,1.313378080760518651e+00
-6.768447056163880982e-01,-1.426649850737805370e+00,-5.923976511492693220e+00,2.467654280054809579e+00
-7.601015508884116298e-03,-3.900026584065124702e+00,-2.671361810396273739e+00,-4.855042158109514006e+00
-4.419425768135441857e+00,-2.710267084082455202e+00,-2.847312683457827731e+00,2.388713119264783968e-01
-6.123001358127927674e+00,-1.711627312807264545e-01,-1.495734772102678800e+00,-5.844167355421470145e-01
1.982124171328819129e+00,-3.228735292434394277e-01,4.010130926679283725e+00,-1.520935337617292493e+00
3.269274455660510448e+00,-1.415939464815336279e+00,-1.919521962569216589e+00,5.176986624375498280e+00
3.222210531019023882e+00,-2.699920050971886365e+00,-4.143574505371991457e+00,-3.601547260185044230e+00
-1.064549497114789522e+00,-5.406150077817404309e+00,1.631754409817697038e+00,4.667625373289379653e-01
-6.378108242066302225e+00,1.426461128309020943e+00,-8.453827154703706936e-01,-2.618573824014303497e+00
3.735588722496416825e+00,3.236706357453106531e+00,7.375923202692760139e-01,3.757631937836384051e+00
-3.693449994055021168e+00,-1.501091151724596728e-01,3.367846316841161869e+00,3.683897009754772522e+00
3.522606525962861390e+00,-4.770076383471779202e+00,8.193463008479341392e-01,1.085195380058786352e+00
-3.554737183975973380e+00,5.747995271172532838e+00,2.230931487305962690e+00,-4.470031332942052682e-01
-1.060543477194926920e+00,9.975515812686858164e-01,-5.741103094193047873e+00,-3.090494358134334707e+00
-5.489429180273821984e+00,-2.276469848413345431e+00,1.271653602080291989e+00,-4.085413849745751058e+00
-1.723107050190215039e+00,3.745551973003899526e+00,-8.829096875758956076e-01,4.023718692888801129e+00
-4.245492975100593647e+00,-5.731793976453427586e-01,8.276875230691491669e-01,-5.876784354601911176e+00
3.546954067988786097e+00,3.126290619471002952e+00,8.936647926783202189e-01,-2.406808850038789416e+00
-1.455208185021867662e+00,3.960606661481575141e+00,2.070625661292756270e+00,-1.846626688862072596e+00
-2.646001940791190776e+00,-2.746275952102733342e+00,-3.611044839212853574e+00,-4.165443102655872920e+00
-2.849640625960910167e+00,3.804093888175136495e+00,-3.533704800315558892e+00,4.159199684739784075e+00
-1.077491949569748253e-01,2.237517408392122320e+00,-2.469945543190239512e+00,4.587335367313199797e+00
1.684131505321913691e+00,3.835092117101388531e+00,-1.002788242243215500e+00,1.803407277479971205e+00
1.666704713991486786e+00,5.561394084119108960e+00,4.540326154238477407e+00,-1.097817590014890099e+00
3.960995484116009546e+00,-5.704392981371049665e+00,1.013283676491828267e+00,1.514824238550926960e+00
4.242412581498495427e+00,-3.728880632963243791e+00,3.455406064869447347e-01,7.296747360653053072e-01
-4.210494969549650079e+00,1.055668012048353921e+00,-6.707592401188144926e-01,1.511327095823514544e+00
-4.416202882609671088e-01,-1.590231498900336604e-01,-3.957964506108479608e+00,5.328893127936924046e+00
3.141407284426371849e+00,1.824671099790785567e+00,4.872530031021556352e-01,-2.694415663578766940e-01
3.188768342175506643e+00,5.679294453781378316e+00,-2.908285753571104859e-01,-1.271954771404036899e+00
2.537341970245582168e+00,1.721627278073331047e+00,2.673376873485129313e+00,5.907757633824367360e+00
2.712404717524884656e+00,2.427784652248262010e+00,4.479504259192975013e+00,-1.492255046068795110e+00
-1.276688805405263194e+00,-1.412821156363843311e+00,-2.612282278212826547e+00,-3.088533487218486417e+00
4.739400554733251170e+00,-1.656997504679955879e+00,4.661980327607904151e+00,2.395936130813567377e+00
3.849784739320773586e+00,3.633754802592710664e+00,-4.589579469295850256e-01,-4.531461000248329540e+00
-2.490470192494707025e+00,-4.040287136277763702e-01,-4.260884265598190446e+00,8.215433128584574973e-01
2.696735990908588843e+00,1.995642075242886726e+00,1.324792716500667433e+00,-3.197029365127623368e+00
2.521245149169897726e+00,4.017398338906349231e+00,1.151166312731676911e+00,-2.213643323623721848e+00
-2.158152718193144803e+00,2.044334718306818566e+00,-4.531879333792851461e-01,1.038372144388298723e+00
-5.681919441977311358e+00,1.505861726421233726e+00,7.185707061536863449e-01,-8.913027198919567518e-01
-4.262343042640102109e-01,-5.170121647015499811e+00,4.324319367375784040e+00,1.004813603231989205e+00
2.033199296640227693e+00,-1.423209872430785949e-01,3.131131320827338360e-01,-2.782017843793165857e-01
-3.627739545780640784e-02,-4.009449156826631722e+00,-4.564849648001258586e+00,2.026926089705411105e+00
3.463688559127821587e-01,5.743963706810416348e+00,-3.301553592986319341e+00,-3.327610950935408596e+00
-2.548802226583594607e-02,4.255416429311986715e-01,5.065435683832743230e+00,-5.494443697284143724e+00
-2.417993198095582219e+00,-2.339954916524801920e+00,3.570486983058920871e-01,-2.123370908712526040e-01
-4.575560505602756511e-01,-4.711373279457563790e+00,-1.491518794643361012e+00,2.446842900028530554e+00
4.053511292667686394e-01,-7.881253086121727813e-01,1.224978970052683414e+00,-3.860325600054108186e+00
-4.193051354152791954e-01,-6.227207280936361222e+00,2.890196190885285787e+00,-1.209814244368409675e+00
-1.315734027925548499e+00,-1.540664894578750888e+00,-4.965523406691197295e+00,4.196708918575196456e+00
4.472185935005686813e-02,-6.631170002059161739e+00,-2.350722608755247967e-01,1.819918684908985007e+00
-1.719802339930001756e+00,3.395829559277938170e+00,-3.706239956129662616e+00,2.080943150312162704e+00
-5.708143786926950902e+00,3.236743392206590020e+00,2.088924957497051871e+00,-3.003923703981240756e+00
-1.858005791224964565e+00,2.596925908291580321e+00,-2.721370626158046591e+00,-4.725718602857852169e+00
-1.718459228800312877e+00,-2.830451726665895951e+00,3.544230861326234550e+00,4.243463220487506682e+00
-6.017422533765017789e+00,2.951283066625071783e+00,1.327232993922940363e+00,8.786186967568114792e-01
3.518272084894478180e+00,9.014864267776171447e-01,5.639428575217586115e+00,-7.584258659388606327e-01
1.742227384234385390e+00,-4.736196016951170762e+00,-3.761469000787738715e+00,1.834807291255503126e+00
5.677974560718285879e+00,3.669446306671304003e-01,-2.889215692048398232e+00,3.020630419873029382e+00
2.379540471189105943e+00,2.811297207193641512e+00,5.261421617049691690e+00,-1.437340421797505652e+00
-2.748272253841185897e+00,2.885415636210865165e-01,3.170240710580303212e+00,-2.219230159880204223e+00
-3.039472371606749324e+00,5.976231998592505867e+00,-1.868709320218762127e+00,1.844111402252213150e+00
1.125962251660226121e+00,3.526139192599627048e+00,-2.573603082264651842e+00,-5.513653963498064137e-01
-2.936043816986396049e+00,-1.936621661173371756e+00,1.417278166616730894e+00,1.184103663997749356e+00
-3.369667274852353067e+00,-1.903885400135469252e+00,-1.525140474278382952e+00,3.444739360069379863e+00
4.413906826316498666e+00,-4.976208315606090338e+00,-5.213846674448260887e-02,-3.108790338141685261e+00
-9.603752225549420096e-01,4.003492804723300935e-01,6.061437830040860675e+00,-2.084456343345624241e+00
-3.015873885633534535e+00,-3.123663369340122564e+00,-9.572418688885819815e-01,-2.918543039545373752e+00
-3.619998525431427527e+00,2.864196497166111133e+00,-1.005615115586683928e+00,5.470409187055832234e+00
-1.509396676997762254e+00,2.167234118030929579e+00,3.641658648294519907e+00,-2.167018818389655266e+00
-2.403642223147866852e-01,-4.707143430339684187e+00,-1.435924286548454942e+00,4.995403305568554941e+00
-4.920463055108458938e+00,6.929243836642677845e-01,4.305790010361759457e+00,3.392171059912960196e+00
-8.988444826232545593e-01,4.185000538547929416e-01,-5.496513172582782047e-01,2.578198828723826108e-01
3.482953324864746847e+00,9.985211317214370830e-01,4.481402238316781528e+00,2.387439547429062614e+00
-4.718018337230642345e+00,5.244509063616740185e-01,1.894212950795788108e+00,2.825784723017951361e+00
-1.858370244245780567e+00,2.413509018011681662e-01,1.314101274797350838e+00,-4.991678443953476929e+00
4.864569985491782766e+00,-1.341009392710406090e+00,1.144344420280089425e+00,-1.535684953885341208e+00
-9.378809262853623485e-01,-3.675827544033840155e+00,-3.874279485222321018e+00,1.148734833862020022e+00
6.249801827293476331e-01,4.149310959830959433e+00,-5.145990426294049236e-01,2.121501112255681942e+00
5.586233330637604411e+00,1.257100685283840003e+00,-1.203563648142374626e-01,-2.371271162934982524e+00
2.185629693204241164e+00,-4.958800249905035429e+00,-3.284227518689291525e+00,2.224376469847496374e+00
-1.572621889328396083e+00,1.465052315641277136e+00,7.373261615336821340e-01,5.261692087340725799e+00
1.145589223077997154e+00,-2.449283280664223295e+00,-3.469914796693879477e+00,5.709538740443519167e+00
4.133337047754573668e+00,2.409096428684090796e+00,6.295120924228096992e-01,1.328913005546206394e+00
-4.544683465635696251e+00,2.869964986899760095e+00,4.399687842310998631e-01,1.969008034087727621e+00
3.695181591466065729e+00,2.947447274857665889e+00,5.806413806803549349e+00,-6.584629472422295349e-01
-6.359298356012134112e-01,-2.636598913346501760e+00,2.497230879090674538e+00,1.868335798847025053e+00
-7.510648368647464546e-01,-8.791765553719974591e-01,2.278104656163584263e+00,-1.184134473805504850e+00
6.937027341721417883e+00,1.980508673465104286e+00,3.586771221568813700e-02,1.209734770337057563e+00
-2.100862302272476612e+00,-2.515420395433507927e+00,1.129154360759702547e+00,1.106112687177086551e+00
3.317552886969408199e+00,-1.519661234096740809e+00,2.886107442812417379e+00,1.450480533702938057e+00
-3.511596985915776958e+00,-4.493178229396321832e+00,-2.402980416390534391e+00,-2.193136330455680127e+00
-3.067163258511434343e+00,-4.243975839266413530e+00,8.883894507320678757e-01,-2.867013736004819791e+00
1.021371887636056131e-01,4.399209051024417505e-01,-3.526583661096845734e+00,-5.153575103624167930e+00
2.804633589203995747e+00,5.638820988741445606e-02,-9.933210426655078029e-01,5.320616746470253844e+00
-4.518166518286424349e+00,-3.991444224632961557e+00,-1.635137756461920722e+00,-6.918849018002979356e-01
-7.568287780728883973e-01,3.263494170921462101e-01,-1.153312442049990283e+00,1.049560923939855561e+00
-1.530602275463482487e+00,-2.859747978826593595e+00,6.091554812825277665e+00,-2.342647490130019605e+00
2.220107828817742046e+00,8.150969662832689977e-01,-3.373758515732453223e+00,-1.665376544619125987e+00
-3.657936061174795195e-01,4.547988055945602071e+00,-7.542759803257916007e-02,-2.027979222160449346e+00
3.401982823820996149e+00,-2.058578903655383208e+00,3.713978696480518149e+00,-1.452939361694556286e+00
5.878859926191544183e-01,2.383337223819932404e+00,-2.532446061638448653e-01,-3.531036561104819338e+00
3.168752862901764278e+00,-2.427077249274202320e+00,-4.879081658847083780e+00,1.328527775999151617e+00
-5.486208962862690441e+00,-1.625519630351635714e+00,1.528745517104775020e+00,-5.363398266694481553e-02
-4.191308285770162456e+00,-6.080861303104604376e-01,-1.491355692886871420e+00,3.668077468348611259e+00
-6.235092057674725297e+00,3.545159552848633933e+00,1.075879917383114837e+00,-2.513328883408961767e-01
4.164878767622450795e+00,-2.079283839813954593e+00,3.154283308694203036e+00,1.935411292273482076e+00
-4.927401369878195325e+00,5.144546551897484221e+00,-3.885859275452808181e-01,-2.374126610254328196e-01
4.804160461028004203e-01,-2.502427508445606019e+00,-5.147029061217277324e+00,6.649067473306949916e-01
-3.881303005403811568e+00,1.434882372489735824e-01,-3.583096203756018117e+00,-2.130702910572312536e+00
-9.214803790315948540e-01,1.364177381449262483e-01,6.272897059414935583e+00,1.282181474362914964e+00
4.652586275599540633e-02,-2.128751786537361745e+00,-2.935778363638115618e+00,-3.490388759861895007e+00
