1.217028720222319560e+00,1.891462999325711714e+00,-1.106544269412356618e+00,4.636624990728999585e+00
5.649083300119293938e+00,1.327373442353267263e+00,-2.255729363095229534e+00,2.518486240475350080e+00
4.090377192980993115e+00,1.442178097211892718e+00,2.704618833719899751e+00,-1.302433479051663179e+00
3.870059886735902843e+00,-3.694705784631655554e+00,2.423963466854133664e+00,2.285442570180741928e+00
-5.154867667061662218e+00,4.605313224832887187e+00,-1.156857035964028446e+00,1.430615410430586820e+00
-1.804413917540857115e+00,-5.937300273977836440e+00,1.375495272856213980e+00,3.514258495771563351e-01
-1.140970490398781623e+00,-6.003728427111056476e+00,1.950316862108220084e+00,2.970271542166955658e-01
5.198906817640846612e+00,-2.683016795590821069e+00,2.401577597879032577e+00,1.436270035592961403e+00
-1.804183682249508036e-01,-3.052269095711924507e+00,1.012465630150939822e+00,-1.602348079120318847e+00
2.402131010705047309e+00,-1.433452955407493734e+00,-1.581405170008810979e+00,-2.452190812946409282e-01
1.325027645182545344e+00,-4.784084195668452999e+00,3.192156547429580105e+00,-2.043886845661915697e+00
1.838480102488193824e+00,-1.698075135862229912e+00,-3.254235816639462264e+00,-4.399189956881012442e+00
5.148014973064580779e+00,8.960208545807743508e-02,-1.377021394346317429e+00,-5.092818018905859168e-01
-1.185177652878003363e+00,-3.959658043867154475e+00,-3.108842421912366039e+00,-1.346639560110167277e+00
-2.452464209683685947e+00,-1.777736372047209690e+00,-4.940588519564896863e+00,-2.877918431395320553e+00
-3.077967681926354615e+00,3.441794950901930328e+00,-1.870247509988320456e+00,-4.603166479109446207e+00
-3.087453987683092649e+00,-3.127434013460509643e+00,-1.902744755135994614e+00,4.225242665352971549e+00
-1.140847134767948745e+00,-6.144163252659238239e-01,-1.617944263735927590e+00,8.663949893913389655e-01
2.274465846210235842e+00,-2.781923892231171092e+00,-3.854805211756836769e+00,1.642599897757865968e+00
-1.477709248226077632e+00,-3.408652979534650407e-01,-6.411067396107137384e+00,-2.660597961249762999e+00
-1.520717430868970155e+00,1.653061509885925151e+00,-5.297240305226782020e+00,2.894977930056074733e+00
2.340409247212361876e+00,2.984316633842389876e+00,1.900450243685620988e+00,-4.486875768777157880e+00
-3.718307099988257480e+00,7.532035973175088550e-01,4.566017643283965199e+00,-9.478594349631959126e-01
-2.470845930939112201e+00,-3.592189509259156921e+00,-1.227472475084490366e-01,3.637539898207842626e+00
1.210588435680005848e+00,-2.342770472155463413e+00,-1.692521268015565239e+00,8.325097250196108467e-01
1.980591989994852975e+00,6.406397137883842463e-01,-3.043335454451641553e+00,-4.647408219172237231e+00
1.062861400458835481e+00,6.626268570157716198e-01,-7.047816254780292500e-01,6.283038539514701704e+00
-3.777920115941209911e+00,1.618015441857396430e+00,-2.770570044845658941e+00,1.487966512392806306e+00
4.556601039239803974e+00,-9.608092646463287645e-01,-8.492386129018374419e-01,2.874150380489675083e+00
2.649113181249894478e+00,7.612694243158037999e-01,2.978280213119107067e+00,2.760282235027043285e+00
-1.093374108851676407e+00,5.613189174290836192e+00,2.190049999892955679e+00,5.432819161072143244e-01
-1.998847051246367634e+00,3.677313533632552645e+00,-1.719715012047398073e+00,-6.282562724866557202e-01
-1.327983940844367661e+00,-1.168988146186696886e+00,4.658016086897646346e+00,-1.604340096267867999e+00
8.088479377156841954e-01,2.355755019218527480e+00,-2.225440830623457433e-01,-3.360195900808395031e+00
-4.625731960348761773e-01,-4.159749125455701524e+00,-4.110473724104158677e+00,-3.358561169590290163e+00
-3.925455301070200242e+00,1.090581954836254530e+00,-5.899280416507707986e-02,-8.064693798158244498e-01
-7.409907598239723336e-02,-4.802086727565529678e+00,-1.424804351895324839e+00,-4.031667008751217696e-02
5.311999976124113232e+00,-3.701034028107261786e+00,2.681185891938641763e+00,-6.888649197516932832e-01
-4.063452170334433511e+00,-2.782498971877463312e+00,-2.354724188399329510e+00,2.729083065043592438e+00
3.674427953473482500e-01,-1.025611383556596090e+00,-6.571828378963126660e+00,1.459338720317579163e+00
5.440737055050530735e+00,1.354464175063100351e-01,3.706618673385647433e+00,1.158690685731127434e+00
1.308096144080472589e+00,3.882135312965450336e+00,-3.137547444834658528e+00,-2.645878156330497610e+00
-1.901187753667750613e+00,-4.680721914567433473e+00,-4.212396625542675910e-01,-1.751016550721290477e+00
-4.303442664591814903e+00,4.189147169600358489e-01,-1.867294257631585630e+00,-4.594208253464275415e+00
-8.288456721712064712e-02,5.795199651375106953e-01,5.250892416155836351e+00,2.448770402121906997e+00
1.481471444649512970e+00,5.132349096437327951e+00,3.914604952139636995e-01,-2.494799984819609406e+00
-3.174299427629666770e+00,-1.183097073104069974e+00,-4.414951475262650860e+00,-4.937143572392188595e-01
2.475333276272427274e-01,4.632743008830629172e+00,-4.153865367185884061e+00,4.762872578912419330e-01
5.541341540053577930e+00,9.902845548972559475e-02,-2.313699837987487129e+00,-1.926700721722375720e+00
3.859988137657924590e+00,4.422294680585353355e+00,-2.490197895757629176e+00,-3.611920605142231455e-01
1.409559617834978074e+00,-5.673638589708889235e+00,5.686719690750525746e-01,-2.204207471137246799e+00
1.787505406035260203e+00,-8.828746028894454145e-01,4.864798049408760150e+00,-3.558358974678388909e-01
-3.648796948765494541e+00,3.661452269117243308e+00,-6.359661352022265568e-01,-3.451916698800197469e+00
-3.263144171903767377e-01,-3.086635039777659184e+00,-6.738331251307606573e-01,6.163974541426703091e+00
7.677271295586445277e-01,3.159322212805370178e+00,-4.248636013719419680e+00,-2.399250956088668119e+00
2.051758667507092682e+00,6.597215900261673704e-01,-2.682568057566468767e+00,-3.202122933041082753e+00
-2.966489839202693268e+00,-1.492446194827618422e+00,-1.137417391231086095e+00,3.326213234768944371e-01
2.496585000562480339e+00,-2.338950485800238344e+00,1.629580804955781170e+00,5.768418235722978515e+00
3.667301067580917007e+00,-4.704080703252113693e+00,9.667030817479204119e-01,-1.669640513636902801e+00
-3.434090987382852900e-01,-1.804897406757402789e-01,6.711192201838080074e+00,-6.480794591042553510e-01
1.842048259226343410e+00,1.557599320190807601e+00,9.352575129226556871e-01,1.951124437629267794e+00
5.955469713589008895e-01,1.366655647345180524e+00,3.613923091942858323e-01,-3.707607038045689585e+00
4.402606108707821875e+00,4.306980896555977267e+00,-1.581405633450023718e+00,-2.615246005371062665e+00
-2.608776019830075121e+00,-5.393459393317916906e+00,-1.051571464541487755e+00,1.465829946084591828e+00
-4.864116387224117766e+00,1.172398961508797965e+00,-2.902091159611927651e+00,3.175434929290566810e+00
-3.200752860044538739e+00,-1.247585286603310584e+00,-1.299162018480493896e-01,5.485754166718234792e+00
2.924366017929062256e+00,-2.075171760575752700e+00,-1.873260658774647425e+00,-1.068991584717167154e+00
-2.215725467264479498e+00,-2.985542770496791287e-01,1.856730168445086537e+00,-3.295124628735800476e-01
-4.280540172771787333e+00,3.766458078273969168e+00,1.976075496486001670e-01,-1.306056718492039304e+00
-7.091889732619190666e-03,8.338897089854853117e-01,-3.718449950808431770e-01,6.820749251385832324e+00
-3.036180586181493002e+00,-3.148889130220781318e+00,-4.766799835129602592e+00,3.040254056119944259e+00
2.632927786174673823e+00,2.667707350899899410e+00,3.061076658531788341e-01,-4.423238262497398487e+00
1.515713904777465038e+00,1.422249778674985476e+00,4.040965678416244877e+00,-5.372079596990523953e+00
1.403664519103648423e-01,3.412507531474491707e+00,-4.164486628656629996e+00,-2.021140391124522095e-01
-1.860642979436077038e+00,7.892266525988238524e-01,-4.043616498874881948e+00,-9.631667930546027045e-02
-4.174965424938202219e+00,1.039840303289512047e+00,-2.267451344341787856e+00,-1.335609529590786604e+00
2.367311189079809974e+00,4.158462504347390620e+00,3.772934506923603104e-01,-2.921547348057440985e+00
-1.603569561451493319e+00,-2.164435965308874721e+00,-8.269475558971031148e-01,8.068699534286155606e-01
-2.987438044705436280e+00,3.339857646981697847e+00,1.746332762978657804e+00,-2.179656003956281118e+00
-6.336558376955773175e-01,-1.028889932388704853e+00,-2.399512979139413194e+00,4.611612801031973241e+00
-5.970950733002375443e+00,-1.292855273927790094e+00,2.592808041761978100e+00,1.368255302035898291e+00
-2.749571596219476888e+00,-4.860861094761296464e+00,-3.535305472549351347e+00,-1.398413258900712330e+00
-1.821615601472477364e+00,7.629561900014405484e-01,-4.418837856344150161e+00,1.692019590779601401e+00
-2.078462894563537777e-01,-1.429130052817727092e+00,3.476796081171341868e+00,3.329339790473425431e+00
-8.376086387601646699e-01,2.847474345170401211e+00,3.559843761530568501e-02,-6.222488526595277847e+00
-4.772518830959929126e+00,2.970313698431206628e+00,-1.985298001353142716e+00,-2.636453080897791068e+00
-2.614112400033854033e+00,-2.495537679453667668e+00,-1.862741909364636683e+00,-3.561912963707304591e+00
7.638842997895813891e-01,-2.728485198398217015e+00,2.852464104622698837e+00,-3.293898154203878659e-01
1.650631469873010237e+00,-4.807616272443708816e+00,9.338700313269698849e-01,3.684654806875117039e+00
-5.260654342419865959e-01,1.791846060166067289e+00,2.510530336663070461e-01,-7.928907719038890134e-01
3.254302164351398297e+00,-3.788332905717613386e+00,-3.007746542926094779e+00,-6.419679850027848467e-01
1.990217899846434157e+00,-2.815809940242596898e+00,-4.710140472203376838e+00,2.955606265025374046e+00
6.277777114445599160e+00,-7.083011226996933640e-01,4.793296718815685531e-01,8.908243261203476759e-01
3.468067336319144545e+00,7.357411253798055162e-01,-1.959686311561277039e+00,3.741742664013633313e+00
-2.231893440078213331e+00,2.669320154223289165e+00,-3.351318788825805584e+00,1.875081255090589760e+00
-4.839641620817649148e+00,4.276775699934190378e+00,6.839259106390919163e-01,5.658539467769877485e-01
1.111379643352136348e+00,-4.225509632672818761e+00,-1.153501652099942820e+00,2.207268079079827583e+00
2.850202000776711930e+00,-2.407379165870360271e+00,-5.737352230844287027e-01,-5.652152936460089094e+00
-2.952015534011255937e+00,-2.078516051532935727e+00,1.018214661993635417e+00,5.987057620711620842e+00
4.597527344638637103e+00,-6.293749854885958284e-01,3.843695351532767202e+00,-2.006972168261356604e+00
-3.454551481038880212e+00,5.338159300487077985e+00,2.445413254162711159e+00,-1.028109344334277253e+00
3.771710508022964703e+00,3.308984228803529826e-02,-2.322276207622533395e+00,-3.798822864368561980e+00
6.045623623699170057e-01,-5.794752322486044882e+00,-3.441955992689187838e+00,7.719040108010670476e-02
5.412437726708982932e-01,1.490523256190982915e+00,3.852579703146055135e+00,2.651310149426566287e+00
2.456986243931776615e-01,-4.654167928965302070e-01,-6.939338034587426707e-01,2.056641716057829861e+00
3.785292383313000109e+00,-2.216959356745791698e+00,3.188329443134704455e+00,2.254468643555450402e+00
1.110538542999677247e+00,-4.222213371454856201e+00,4.019319143808329997e+00,-1.393920260165056657e+00
1.760464552119847204e+00,3.683543214785424347e+00,8.586777186646228355e-01,3.290603960497315406e+00
-3.261497905156343968e+00,9.923704899055584283e-01,-2.315233902489632900e+00,1.019929517871122210e-01
1.768691597080370048e+00,3.275069858193089267e+00,3.044720519017495963e+00,4.190948001468722595e+00
-1.368273040627675075e+00,-3.367570423739746577e+00,-1.869390672964610367e+00,-5.392855956488621594e+00
4.487887793698981942e-01,5.185585739444706022e+00,-2.318349465235852502e+00,3.914759922619304167e+00
-1.464171940639311220e+00,1.748040598192681427e+00,-5.858113921410854630e+00,1.683744623883805192e+00
-5.177753538466272509e+00,4.451589305949869235e+00,-3.213572379290441372e-02,8.527355551779093323e-01
2.029408019018144937e+00,-5.773200409268187450e+00,-9.684099236872957261e-01,-3.239979199396661791e+00
-5.999535846704207920e+00,2.509052667301608364e-01,6.046254577512135686e-01,-9.989991937028506186e-01
-1.015715038558992367e+00,5.259578774748347563e+00,-2.084203724129539914e+00,2.177617421780131401e+00
-2.543205257906796746e+00,-5.857894276565143825e-03,1.422776385359599605e+00,-3.766672318920457618e-01
1.965238199303250832e+00,-1.675366974777271034e+00,-3.373600269771770410e+00,-6.492370149486204056e-01
6.447851827797417279e+00,1.291848479105687453e+00,3.086539309457027591e-01,-8.082357357879618176e-01
-3.107440717670836960e+00,-7.244676247849145545e-01,1.183151064985150436e+00,-2.269403465053027258e+00
-1.664614609381819266e+00,-3.213205810870791712e+00,-2.069983982949357593e+00,4.235804018897364465e+00
-6.131925249527400701e-02,3.575893607160858689e+00,-5.249991440822128652e+00,2.746399214096550079e+00
-4.011021915025359874e+00,-1.568259442492063727e+00,-2.700250892206054409e+00,2.983426154918241924e+00
5.552117546034201823e+00,2.554595501028982807e-01,1.131262756199991282e+00,-3.940701502639575526e+00
-4.520851249023409402e+00,-4.569065260564154407e+00,-1.722316938349811144e+00,-2.610159358207573277e-01
-3.154211098724380435e-01,-3.029497220348028819e+00,2.980041111316535041e+00,-1.674760623264185400e+00
2.499513931670304778e+00,-1.725775663182493869e+00,-4.160699705169073503e+00,4.012174759124275347e+00
6.142385035507731850e+00,2.263944704900833660e+00,-2.538682873051153255e+00,6.866742951146313778e-02
-1.102476538041558873e+00,-1.805821039078329582e+00,1.220354401895248353e+00,5.520042289661232893e+00
4.451023515222930271e+00,-4.333433814981128229e+00,1.601527713150041388e+00,9.177535968548986567e-01
-1.670687448433191280e+00,-2.416516875984293933e-01,-2.156031626265080714e+00,-4.706462861307254997e+00
5.254970081695473638e+00,-2.372221066357334429e+00,9.824314385473753575e-01,1.202419177592654487e+00
4.471874829300795717e+00,4.320211087732213073e+00,1.492445322753558790e+00,-1.794792184538360091e+00
5.346391216482835773e+00,2.192105276717955409e+00,1.769039413322565091e+00,7.535684132407302060e-01
-6.366205312197846800e-01,-3.669598927119284149e+00,-3.195761090120783909e-01,2.486491758039464539e+00
6.475106847340859062e-01,2.719734061647205881e+00,-5.419320006719744676e+00,5.545718908849586182e-01
-4.104468086867174015e-01,-3.761561962100777201e+00,1.810329972362377138e+00,2.758986243291220219e+00
-2.867779882842370398e+00,-6.798196238903466693e-01,5.547729722850710310e+00,-3.364548517481602108e+00
-3.559793908649303340e+00,-1.254683662994804605e+00,3.809632080843307733e+00,1.092769234766370223e+00
-2.827848814704636560e+00,2.678435004295233846e+00,1.585254762667657635e+00,3.563443496688509349e+00
-3.308043227357936988e+00,8.369657525166981360e-01,2.438689445168010228e-01,4.999034012577643793e+00
4.880371157254948855e+00,2.020852442721509323e+00,2.434611738255669344e+00,3.378977193099133913e+00
9.211156366188316680e-01,2.490979412561052264e+00,-1.300312848768728324e+00,9.844310276848450281e-01
3.830649900386533524e-01,5.528275566332208513e+00,-5.991124208713730775e-02,3.427244774245329140e+00
4.925846206114468551e+00,-2.329806545669129036e+00,-3.310171781163380178e+00,1.646287342663861966e-02
1.178420044702483960e+00,4.830140728921602289e+00,5.058691381598062975e+00,-7.991231479993381459e-01
2.061329095161019254e+00,3.331714097065746838e+00,-3.038449843652432758e+00,-4.201621443089546659e+00
-1.261629499902965357e+00,4.040786298003403942e+00,3.826496261291466028e-01,5.267627775126598522e+00
4.193153359112212542e+00,3.930942508299797855e-02,-2.186856365772411159e+00,-3.864033564192427495e+00
-4.255798941201141439e+00,-2.710575022501609865e+00,2.420108816122818585e+00,-2.274915510888955605e+00
-2.591316367406839127e+00,1.193328391428363444e+00,-4.147057363283737530e+00,4.553526279844252400e+00
-3.040982107190148831e+00,2.171915465548288182e+00,-3.936721754594384226e+00,2.766814727214775615e+00
-4.151819853655819514e+00,-4.346846404554129961e+00,-7.072251772409813286e-01,-8.165878702290519930e-01
-7.717809999801245047e-01,2.079982458227767506e+00,4.148090106499744856e+00,4.622202744541723085e+00
4.120989179865163443e+00,-1.919739412181711291e-01,1.696126072320254696e+00,3.474490791960180402e+00
-1.244045303903763555e+00,2.176520304503523739e+00,-1.647965826858825533e+00,-6.308060197202775221e+00
2.349098790111724178e+00,3.146292748675749262e+00,2.841731136579038974e+00,3.646213723822000485e+00
-1.100598376587438088e+00,4.706983878116073328e+00,3.761078336729530847e+00,-2.328974241697721048e+00
1.959023750442453471e+00,-1.070063971218071730e+00,2.011005512931105521e-01,6.164960053382470662e+00
-5.722913370569527203e+00,4.515858976614099962e-01,-5.083085309832320320e-01,1.459494515114959201e+00
-3.612936564225513791e+00,-3.426469320419321285e+00,3.447484609616962903e+00,-2.084808113429166276e+00
2.427123443761093347e-01,2.374056952938252696e+00,1.335625740403563633e+00,-4.234142759261880773e-01
6.001256305734588459e+00,-1.096032623480843959e+00,5.607863043719605312e-01,1.502714841496107123e+00
-3.935642032228318099e-01,2.527245750843851280e+00,6.009174281477375423e+00,-1.486310961729260915e+00
-1.313222152532507847e+00,-2.703093158023126552e+00,-4.001998168278650958e+00,1.082847148627906098e+00
-2.128797474013026214e+00,2.940014666464510817e+00,6.508305476464184558e-01,5.744237676355979261e+00
1.652545504088361650e+00,-1.638523454464978713e+00,-2.890450809601210480e+00,5.119536031070741622e+00
-5.112197372478905599e+00,1.327918523005355400e+00,2.167120969293633015e-01,-4.415898723442163387e+00
-3.184859110210855881e+00,4.342170380088001380e+00,4.395845284969172262e+00,1.437803766030540720e+00
-1.932566749795778582e+00,1.109970157315524619e-01,-5.218550997329476360e+00,-4.354882272607603966e+00
-3.755207622615397867e+00,-4.347811784795296397e+00,-3.482063361151202852e+00,1.775776682308279009e+00
-2.540355795754751789e-01,2.753524379944898737e+00,-4.526435211081366816e+00,1.814018464667445318e+00
3.817723647310379054e+00,-2.363105103017288489e+00,-2.283434260498771740e-01,5.150301459696389195e+00
3.070429185478358303e-01,4.741351630045526733e+00,3.293151131658724307e+00,1.629587131336762695e+00
-9.757813154799144240e-01,1.335281641228601934e+00,-4.549178058105319167e+00,3.500045064366723579e+00
-1.341959916850123502e+00,-1.222498172000787697e+00,-5.494395933785203745e+00,-2.848895705862617422e+00
-1.967254169202264258e+00,1.358777057250551534e+00,-1.986262585841152672e+00,-3.698448699769557590e-01
3.612597415942143897e+00,-1.201165216024325355e+00,5.350858841171767466e+00,1.325459897715368207e+00
-2.481262732566175133e-01,1.744648247504038130e+00,6.433754471272720821e+00,-1.379142448919519204e+00
-1.728134491982205478e+00,1.204774977181592321e+00,-1.852472628411734323e+00,-1.283846465857388486e+00
-1.543158577957609134e+00,-2.771639345737190840e+00,-4.014330871261214462e+00,7.458701840770688429e-01
-2.903264498432141849e+00,2.041056891730284040e+00,-1.747332762498227332e+00,1.721262611651571905e+00
-4.807346887534570956e-01,3.638742006154471298e+00,3.520068110220312629e+00,-5.748083115105725449e-01
6.733333368243149764e+00,-6.240857550090548322e-01,-5.590773721962381121e-02,-5.523694906453663345e-01
-4.029102832874888129e+00,-9.793667230880239716e-01,3.788966987372252682e+00,-3.252582648984271962e+00
-2.624681253542490822e+00,-6.478138922191013505e-01,-2.813065567097284170e+00,-3.649481986584230064e+00
4.943216659183274686e+00,4.439202635892013915e-01,-2.481359693595735827e+00,-1.705686429033183293e-02
-2.238746126044321716e-01,-5.476371151689824579e+00,1.673545313407088231e-01,-9.350879077422383778e-01
2.460391694032330712e+00,1.765329209656595344e+00,5.824365103090272555e+00,7.410003555912129114e-01
2.573113633106687725e+00,-3.018164613511588268e+00,7.223099393821972303e-01,-4.463822065999458744e+00
-2.648466999148650025e+00,1.712104206693540576e+00,2.101792237640099703e+00,-2.614421384451978358e+00
1.645269733241308208e+00,-2.467010111062716504e+00,-1.286392026567961290e-02,-3.490346354760835546e+00
7.279953994706614973e-01,2.236687820070306199e+00,-8.529338574946175866e-01,-9.119076803297689882e-01
-1.423582740301382543e+00,7.281086120070980883e-01,8.947952349716681297e-01,2.675189920535734789e+00
2.574340588629326021e+00,-1.088473435364458064e+00,3.144048569827432971e+00,1.174385947418914861e-01
3.344101718221777375e+00,-9.226637445027564555e-01,-2.435098323504872653e+00,5.332476780107223036e+00
3.878134739913568385e+00,7.548471185019924867e-01,4.278894366555795692e+00,3.674486900454999372e+00
3.844174728848164246e+00,-1.972446206489082199e+00,-2.070044142309298341e+00,-3.111408791422079378e+00
-1.396555866826914682e+00,3.985726708322261835e+00,3.858024567748630229e+00,3.312223507820834634e+00
-4.925342355803952188e-01,-2.869684445891793168e+00,-5.414424462158868856e+00,1.079403818651267777e+00
-4.755500033240155133e+00,-8.677929245187041563e-01,-3.371293127720816241e+00,2.276284583558842112e+00
-2.427760558339462083e-01,2.835283445633544286e+00,6.810018670181680056e-01,3.350886579136185817e-01
2.954355218185477749e+00,1.560806792496652662e+00,3.318444514214942576e+00,4.042062080587048634e+00
-1.988430696614246207e-02,-2.472929144105850963e+00,-5.717353896269584013e+00,-1.910763518634371660e+00
-1.434868526686552181e+00,4.475069919218059411e+00,3.509131997924052282e+00,9.235316180010840759e-01
2.691407982547276312e+00,4.040808404159630385e+00,1.016416589396358816e+00,1.891914066664600602e+00
2.364212199249053903e+00,-2.715529702814822421e+00,4.244619553388353062e+00,-4.863538585167635486e-01
-1.354887531131764522e+00,-3.053116591700413274e+00,-1.048951420586211158e+00,4.629028749014342914e+00
-2.341055310962176783e+00,-5.319762404084035445e+00,3.203898821921502105e+00,-9.727419973500914252e-02
5.463909537565432295e-01,2.500788395298187083e+00,1.671839152526276573e-01,5.197499781754822551e-02
5.187189751202250676e+00,5.069778361669763367e-01,-1.176491527020071315e+00,2.390607964801878094e+00
-9.469916831379022737e-01,-3.320161325132161778e+00,-1.499946580492291570e+00,-5.127732491240486468e+00
-3.741856433870676568e+00,-4.310015637999590865e+00,2.400361608674601133e+00,-9.766481041592116608e-01
2.457668687665256257e+00,3.616419149612156492e+00,-2.330898068783468613e+00,-5.032770287766131112e+00
-3.634490310623416320e+00,-4.950911758370664550e+00,-2.244827206104802020e+00,-1.786711707527204734e-02
3.337351578304176059e+00,1.812018250663454122e+00,-2.192282739248529122e+00,-3.262941180573466493e+00
2.845602543161523723e+00,-3.500880217364815028e+00,-2.417742725705404716e+00,1.592803118214591862e-01
-1.679306021105558155e+00,-2.511593027894735708e-01,-5.276065083355903074e-01,-1.633350785073661271e+00
-4.433587604441442953e-01,3.851384889926065203e+00,3.701749627019226274e-01,-4.597392105864082978e+00
1.269480841278623817e+00,-6.796567981988166363e-02,-2.920004290081062770e+00,-5.873342569609316666e-01
1.992079803969962093e+00,3.970100897318175726e+00,2.776665536658508571e-01,5.073906327862471421e+00
1.707492227157368259e+00,-1.728420239883290632e+00,-1.568258759244683498e+00,6.235619506987966076e+00
1.014021946349734415e+00,-3.866787827529047927e-01,5.544982045870908038e+00,-3.932694843697534193e+00
-4.176863074268858611e+00,1.761423137447163612e+00,2.517966024709784811e+00,3.914557634260072305e+00
-3.205871902031912413e+00,-2.345536859598903234e+00,-1.047547768558801495e+00,1.515694404645888449e+00
-1.001809077986614005e+00,3.298969315591015139e+00,-3.014831158739839978e+00,-3.902872687696253173e+00
-2.564710942260187032e+00,-3.135803742363598712e+00,1.772182590199574470e+00,-1.657652026754292907e+00
-2.459813042171440145e+00,-1.637315079870018897e+00,-3.641110933313892684e+00,-1.106667205550850630e+00
-1.260873219670588297e+00,3.749897298598275364e-01,3.441895493868662115e+00,-3.808829431947653443e+00
1.605320508687112069e+00,2.483654596552831606e+00,-3.056738470678708186e+00,-1.574813418571107793e+00
-2.969655039047863987e+00,1.782117031556219366e+00,9.320912146273218069e-01,-8.820127959417589647e-01
-9.746233374135367944e-01,2.061097491537795534e+00,5.598603038723315883e+00,1.881820533698258524e+00
-3.349112839682991893e+00,-2.663874214200761426e+00,-4.020010506277734152e-01,-1.537018516146257729e+00
-4.615803849575407014e+00,-3.911190728818851436e+00,-2.074497724305255808e+00,-2.062895893405219283e+00
4.234143244977567555e+00,-1.653068230863891319e+00,-1.692887476775128741e+00,7.629872359269375404e-02
4.421567858110201144e+00,-4.834068528757846650e+00,1.369519339552172532e+00,-2.272326599503206035e-01
6.223326519226222986e-02,-6.371364940452799885e+00,8.711891515735082914e-01,-1.218595658245168023e+00
4.395558972857600999e+00,2.864449262845375710e+00,1.550695775674550969e+00,9.753239390030743472e-02
-8.194712196218717493e-01,-1.584855526765793499e-01,2.695887287383109676e+00,6.372687598864139602e+00
-2.525605778241032606e+00,-4.718735377126561104e-01,-3.631969113187786036e+00,-2.367574391399334566e+00
-3.500500057637114804e+00,1.534460069191428078e+00,3.203029617133262619e+00,1.480697353550154194e+00
-2.661815814509853162e+00,8.259210649877675170e-01,-6.301808848019725851e+00,-1.389868338738374343e+00
-4.892461298498913536e+00,7.132145111295193907e-01,8.939388791844893323e-02,-3.959904657006876327e+00
-3.228414549578932036e+00,2.683517099192267996e-01,2.957542468954740045e+00,-2.968610937516107384e+00
-3.982100046219065437e+00,2.094340063158099507e+00,4.438842303615668783e+00,-3.284123907659713293e+00
-3.210846761107490899e+00,-3.673660819670544253e+00,-1.509186814765061113e+00,-4.794956564044390857e-01
-2.335673986848225692e+00,-3.228025911877209442e+00,-3.403462348158488582e-01,3.430203119992440985e+00
-3.415585031817271577e+00,3.666432452190632851e+00,6.068370205394891803e-01,4.235238191011201914e-01
-1.222921203058221495e+00,-2.095489230924698187e+00,1.351879269753969659e+00,5.890086652156364622e+00
4.885571799630453071e+00,4.559976750702182891e+00,2.265185109325169865e-01,-1.085455282044694325e+00
-2.537572831289687247e+00,3.575035663922033979e+00,4.807501042468677710e+00,2.238734419986413648e+00
-5.344708496425363720e+00,-1.130880665977030519e+00,4.133315847744423621e+00,9.547014593612616062e-01
-8.445173662744079879e-01,1.611773395165362999e+00,1.845565925743751334e+00,7.762993947953715779e-01
3.374455906875219124e+00,2.642342689008460699e+00,-1.070844656882055101e+00,-7.916553294840639188e-01
-3.387883592833348168e+00,1.850913138950323500e+00,4.707954826079599364e+00,-3.654977651131551930e+00
-4.201080884639338819e-01,-1.810837648455861704e+00,-2.198281527396728219e+00,2.753984452094938362e+00
-3.246684538809446519e+00,7.791460052543248693e-01,-1.473914544291232698e+00,5.700549470551807829e+00
-5.274487025964528897e+00,9.773608158299624815e-01,1.686613001693902270e+00,1.137407166781468471e+00
3.685615210243311957e+00,-5.407924622731464126e+00,1.597858723672316961e+00,-2.390084394376680965e+00
-3.782099457058991199e+00,-3.126257704514812552e+00,3.339593639393917401e-01,4.566938352609111185e+00
2.262641177392298530e+00,1.561915013205865232e+00,2.162992014487195913e+00,5.328247592061221560e+00
3.672673749410029220e+00,-1.327385998208597595e+00,-3.088412979426549132e+00,-4.853158701280138487e+00
-4.718901312181855157e-01,-5.289404451980382227e+00,3.580801331943222809e+00,-2.506655150673839483e+00
5.237712138600545408e+00,2.311225693550631899e+00,-7.871179017558800339e-01,-2.066667345091839803e+00
1.729727569669563758e+00,-5.489453661222245096e+00,2.218483929622161455e+00,-3.280932495166140939e+00
-4.615890641762174340e+00,2.227174209126182802e+00,4.027746416848872357e+00,-1.184897765851573803e+00
-1.848706050696677039e+00,-2.124657952590201848e+00,-4.865504915590453727e+00,-7.802156088554704771e-01
-2.771980695032430830e+00,9.757314371673040387e-01,8.185808706877257812e-01,2.555830373704903291e+00
-1.802845296149506171e-01,-1.028568975455154355e+00,5.141394913808851719e+00,1.866611826253546713e+00
-1.693752575752888456e-01,-1.025246693575105006e+00,4.209036232843900160e-01,5.911801672444658706e+00
1.329771993872031821e+00,-2.460586779075867980e+00,-1.929393012838205745e+00,2.984607784299084798e+00
1.813254930476446036e+00,-2.220448697527003912e+00,2.068160137774752272e+00,9.033331950901183349e-01
2.615664199537246493e+00,-2.692093777678266964e+00,-5.560442378325078927e+00,-1.082857260019266743e+00
1.591011845787731749e-01,4.042530440924476665e-01,-3.281596224346534196e+00,-4.277930010496589830e+00
-4.707974124707698493e+00,3.421826472504463812e+00,-2.062975409978667241e+00,-3.205271626795807904e+00
-3.417022557040232833e+00,-3.041990792514100317e+00,-1.846405587615467470e+00,-3.659306677757436344e+00
-8.977815059788962770e-01,3.461659338889630178e+00,-1.856157418142310389e+00,-3.787671564033128213e+00
1.966152475297829660e+00,-1.569272792022559315e+00,-3.384561163348109858e+00,4.257785939842607448e+00
-4.591726150100533310e+00,5.014376631660375505e-01,2.652009733509967382e-01,2.663850599075498149e+00
3.119142298311917028e+00,6.089567463980163353e-01,2.541354061304404333e+00,-4.378961742169489746e+00
4.095929038530909061e+00,-1.504107280792178258e+00,-1.897698724171792417e+00,-2.588904696634071190e+00
-5.793561654288297724e+00,5.926392329801464243e-01,-7.532540015442393821e-01,2.342049593030208321e+00
-3.990566190912577138e+00,-1.763513240846241448e-01,3.440988779331338954e+00,-4.118019531365615826e+00
1.617080921914987979e+00,1.165274168528146470e+00,2.087050401295690971e+00,1.041525855596905803e+00
5.230669292960949512e+00,-2.980629677014846379e+00,2.361283062710575198e+00,2.446536558856264865e+00
2.227971323806970272e+00,2.954308318071106942e+00,8.313921643172853537e-01,2.224434555098567134e+00
5.072289760056276187e+00,2.081806403806496508e+00,2.960492953539337613e+00,-2.462065055962329385e+00
1.890182047026661705e-01,2.176887274582955278e+00,2.367377880092988995e+00,4.658532871586745117e+00
-1.213885922617583768e+00,-1.126510369116194843e+00,-3.132047974477434327e+00,-4.946107708102646328e+00
4.941120293078409276e+00,1.020287921479773541e+00,-2.996290576371892111e+00,-2.876566138150297824e+00
-2.726232961377664576e+00,2.819002016507223818e-01,-3.719564895406634264e+00,3.154624004025137651e+00
1.449316343831944076e+00,2.388547918196163966e+00,4.237965181096117639e+00,2.531446196256958103e+00
-6.113066194552222443e-01,4.315372091810530719e+00,1.736221438457633548e+00,3.218752519588627958e+00
-2.993274404387884946e+00,-4.572455442056887698e+00,2.386790936385712047e+00,3.721658781098404756e+00
3.745683899676713335e-01,-2.161120190182085121e+00,5.134529876495670386e+00,2.482459598121323996e+00
3.604341776042915502e+00,-2.294917725375354767e+00,7.619264136849779323e-01,2.379569779530184004e+00
1.849503108833399745e+00,3.152251577905681224e+00,-1.821493814054843119e+00,2.892197114771065447e+00
-1.903604565709259289e+00,-1.155207989021568959e+00,4.540030642966669028e+00,-3.595795766310485142e+00
-7.614808333840415999e-01,-3.211823654763990898e+00,-1.255420318233239740e+00,-4.721407214704821165e+00
-3.162289983769693169e+00,-2.813956820315428597e+00,-1.680038244330409380e+00,6.781572165903152483e-01
3.909330750513484443e+00,-8.342356566475914725e-01,1.274930028356265899e+00,4.999682615065643709e+00
-4.569018360990268590e+00,-1.626370998864633544e+00,1.997930987692042137e+00,2.055464066057080430e+00
-2.506156157530403661e+00,1.244363849768631569e+00,-2.631446534879661403e+00,-2.703513127045933384e+00
3.403771608905822310e-01,3.781471999095436853e+00,-2.822003210290146225e+00,3.657159562949744203e+00
1.947685619469734064e+00,5.719598135900897162e+00,3.526158280708798554e+00,6.386391619114737406e-01
2.526291989791211279e+00,-1.841057686990138720e+00,-4.759326178113403749e+00,-8.576405041027117537e-01
-6.705755426269528030e+00,-7.338878515608745490e-01,1.343324901111216940e+00,1.809352528342267119e+00
-2.512069225856867205e-01,-3.440711393508661953e+00,2.705990311682528571e+00,2.157669909064741542e+00
2.934132605794793403e+00,4.261683724680419338e+00,-7.536350453365402435e-01,-2.386845568098606929e+00
4.310388287333430490e+00,-3.570199868274618549e+00,2.189004540078152150e+00,3.850584160559801461e+00
2.438784238559942974e+00,-5.470737027154560783e-01,-3.208061600066609564e+00,2.823093888268441098e+00
5.537526759602743986e+00,2.037682911871208091e+00,2.530214025132769162e+00,-1.351781843436788755e+00
-1.838732986434548300e+00,-3.465563340184910412e+00,-4.992104458467065520e+00,-1.255285592900869052e+00
-1.005828154148888265e+00,4.539765493424958720e+00,3.915722286932490803e+00,1.996154333108536960e+00
-4.567344036838457910e+00,-4.106421935810605994e+00,1.859173852824154427e-01,-2.290596236168278566e+00
4.563003519924841433e-01,1.287907824274442836e+00,-2.974545738228786096e+00,3.739226530874389720e+00
1.394968455695345444e+00,4.103004404615303441e-03,3.763243635494470940e-01,3.287758509210852775e+00
1.045354169728407223e+00,5.074469740812677543e+00,-2.463865804339385512e+00,-1.686640653136261214e+00
-1.468220122080309054e+00,-2.254271510710612603e+00,5.574870230957450268e+00,3.190469209036900011e+00
3.896198824997275878e+00,3.029903757803288911e-01,2.390929837416813919e-01,-8.968314214936680129e-01
5.203962240094315739e+00,-2.766807956272931524e+00,7.641547515202752328e-01,-3.540984452641220415e+00
-2.187343075963492645e+00,-6.078894078491826392e+00,-2.135898214718690902e+00,1.454296159858172954e+00
-1.679253747654398277e+00,3.094238165486089098e+00,1.709387912366372442e+00,3.259711195137405593e+00
2.600976647194332525e+00,-4.035311346938492139e-01,1.767278367259742966e+00,-3.016875399856866036e+00
2.903092139967555774e+00,-2.101761039683589516e+00,4.609120110005670234e+00,2.003110720050538696e+00
1.631354841037907066e+00,-1.307820449475681546e+00,5.544145633573124954e+00,-5.756973483470041453e-01
6.439945520993247685e-01,3.400985787071079791e+00,4.269460504741937057e-01,-2.216228814935883751e+00
-5.151865719308688085e+00,2.660412936052956923e+00,-2.324046409375537525e+00,-1.148616240756604734e+00
-3.173798201289472320e+00,-1.884734101610073154e+00,-3.228600533247230064e+00,-4.375214089763724168e+00
-2.837019568215295884e+00,6.105578063497357766e-01,4.002973746645102082e+00,2.910064364322368480e+00
1.447708577527556661e+00,2.683255582780442516e+00,-1.069107383675946599e+00,3.277840312149104651e+00
-4.752316479602821109e-01,3.797972754327279876e+00,-1.623925721393562949e+00,4.163623319728150918e+00
2.401719704163383373e-01,-3.139847433797286591e+00,3.995863007651422105e+00,2.682243109558364758e+00
1.965947745021467741e+00,2.927388146444385608e+00,2.578807072955103585e+00,3.427336978758228181e+00
-2.384930613105957331e+00,2.055913140083362178e-01,-3.002069865880467425e+00,3.509948212309858651e+00
3.338650175334487269e+00,-1.402758706330563321e+00,-5.134265277161262020e+00,-1.295191680313953597e+00
2.131503496733344605e+00,5.465655318745251456e+00,1.897725407769542905e+00,2.539509427611406633e-01
-3.737385718963953229e-03,-1.120233036740588273e-01,-3.303331099740669075e+00,-7.279190788037002147e-01
-1.336470670892672796e+00,-2.287336193544180940e+00,-3.222302916116402294e+00,4.526956761319825162e+00
-1.086007941929230558e+00,1.264932318524024435e+00,-1.802012561766723087e+00,1.828895459160072567e+00
4.497621328330847490e+00,6.432397858909288946e-01,-2.134087410594720957e+00,-2.440550374540316481e-01
1.751562683590562663e+00,-9.516452273045528099e-01,2.527598525799113482e-01,-2.870439858730088556e+00
-2.200998376168871840e+00,-7.538629782613166519e-01,-2.729266959624108146e+00,3.914814419237460541e+00
2.515652860842156446e+00,-4.530764969608529924e+00,-3.328683365737596045e+00,1.912152987507713231e+00
3.624392495079618914e+00,-4.763027422142967815e+00,8.449661452168900633e-01,-2.616023301155760095e+00
4.703263867578991508e+00,1.917801433582536408e+00,-1.404184671970968301e+00,1.839947342251213813e+00
-2.580986412268844621e+00,-2.118089274466970373e+00,-1.110828989324884830e+00,6.098553045542376427e-01
1.373649781142093573e+00,1.605176133320422860e+00,1.150647628852115162e-01,1.912088059903566339e+00
1.384068691408306961e-01,-2.985743938863089308e+00,1.860036513146163806e+00,-6.120347426896730170e+00
1.944332559338497468e+00,7.290535720992469271e-01,1.686404032903350947e+00,6.340096738751561212e+00
6.274645675428143221e+00,-1.990753695699260840e-03,1.662187189592529313e+00,1.216333473913937979e+00
-3.419956596549750039e+00,-2.377509384852947605e+00,8.557628076364644232e-02,2.721056947654074243e+00
5.278555439942715033e+00,7.429515052173271128e-01,1.416930044262225463e+00,2.925903147130278548e+00
4.647415754177579572e+00,-1.424262324316301287e+00,4.959624367297264413e+00,-6.274854779612979438e-01
-7.641075380731385813e-01,2.482701095896107102e+00,4.529021661490113537e+00,4.182644193819639589e-01
8.356956983282425311e-01,1.476796258339698520e+00,-4.297318351702490880e+00,9.360188253513417322e-01
2.886470244692011633e+00,-3.452779259517710475e+00,-2.343670911853104943e+00,-3.271003315651794363e+00
-2.477990572973330696e+00,-3.235269123813553804e+00,4.249363829936751991e+00,1.542754957342329591e+00
-2.441039506045901142e+00,-5.187587993961479071e+00,7.129705639550169005e-01,3.065241407594856415e+00
-1.225789816641324137e+00,2.949409211954019394e-01,5.843577460373494681e+00,1.535325312254024466e+00
2.817582691992738031e+00,-5.976349397847535716e-01,-4.156458761014190983e+00,3.469964219331701738e+00
5.485834929435532414e-01,-1.987990184864014243e+00,1.224251867793531456e+00,2.484564647898478640e+00
2.722024907844556640e+00,-1.973440503838697069e+00,-1.389473959840467066e+00,1.462561290294615013e+00
-7.713796080001951161e-01,3.512517576525167939e+00,-4.132879568940154513e+00,-4.208647791299175434e-01
-1.844036812249691071e+00,2.377822115633079214e+00,2.200375912126867339e-01,-3.061975528096328780e+00
-4.228660270026631807e+00,-2.689293358651541066e+00,1.036522597721111882e+00,1.730381201664702662e+00
1.981857861897598383e+00,-3.194511725860900153e+00,-1.817983034091714911e+00,-1.499811311524472668e+00
3.330426909875495167e-01,-5.940137916434740539e+00,-1.252302529326895009e+00,-1.634667590641680768e-01
1.507760996930546105e+00,1.462157880244388530e-01,2.809147471713707933e+00,-4.685848731366709097e-01
-3.598689698109759916e-01,7.244746156634827017e-01,-2.942487910144156338e+00,-1.600271428129965923e+00
-1.475871256313016966e+00,6.184050209399363673e+00,2.433520826299666151e+00,-9.523416930493456833e-01
-4.231101327283344204e-01,5.764560114852981698e+00,1.308398630948623076e+00,1.762778091698752991e+00
5.329339247758738907e+00,1.771750596751592521e+00,3.527119093514259340e+00,8.201230888938003671e-01
4.443301738822140301e+00,-5.592599294844313285e+00,2.766019094399901346e-01,-3.906481682688183743e-01
-4.370532565802922598e+00,2.914313637128235435e+00,-1.377748899027128493e+00,2.552487952584294728e+00
-2.374296320337501154e+00,-4.269202381933879797e-01,1.647377347175211337e+00,-9.393850111792435564e-01
-9.799883851129297385e-01,-6.265195018557832896e+00,-2.072036648696823136e+00,2.425494321224696659e+00
-2.570183285298053733e+00,-3.162763259271622829e+00,1.992008895796052892e+00,-2.546519738010293299e+00
-1.904788950440840178e+00,4.985933040845809572e+00,-1.827837233251762727e+00,2.755395281806293895e+00
1.531055467987737062e+00,-2.100211742024209016e+00,1.123837280699555352e+00,3.605247148419063574e+00
1.401491721982265348e+00,-3.391016076115927813e+00,3.275203659237228671e+00,-4.948251138789338199e+00
-4.156974051029221351e-01,6.387428465139875833e+00,-4.642049099339327634e-01,-1.267494563034331501e-01
4.521018448003934154e+00,1.352479896581463947e+00,4.255414913498302809e+00,1.840237593597079169e+00
-4.596947263033733577e+00,3.111851763352070921e-01,-3.148863220570911281e+00,-3.648126741053415945e+00
-3.859255201806282898e+00,4.088069175092818419e+00,2.761124530035163893e+00,2.957929693154166539e+00
-2.920927644735570095e+00,-3.205333620690773433e+00,-1.715791313127515774e-02,-6.912359287721506762e-01
2.633762664120565145e+00,-3.083143756078317033e-01,-4.806251369477982038e+00,-1.509671723697614265e-01
1.925836214724046536e-01,1.877238831340530156e+00,5.887953070138324918e+00,-1.571630101226378029e+00
-2.122628384573119753e+00,-8.962025626724031691e-01,1.393464824168121785e+00,5.274132668580777228e+00
-2.702816610534588104e+00,3.766310904226584988e+00,1.137168496504156856e+00,-4.725038074549276601e+00
4.461985540748441004e+00,3.856691578581522339e+00,-9.492438253027732920e-01,-2.125650395763750922e+00
1.805954161978727379e+00,-1.244516125109311616e-01,-2.953700697513394591e+00,5.831633104972768322e+00
-1.394745838867037291e+00,-3.457235330136704254e-01,3.360059017125950120e+00,-5.190026895816541419e+00
-6.811342323014462075e-01,1.867328214222543581e+00,-1.725322090816388654e+00,3.642019010815446656e+00
1.926183668148922390e+00,-6.129328782284658494e+00,2.268911839792160379e+00,2.150987577641784831e+00
9.241353284404616453e-01,-5.699280522060926835e+00,2.084797256995296166e+00,-3.631475003996019191e-01
-5.986314653570923738e+00,-5.676646981063191433e-01,2.102500625013867808e+00,1.541078328003001596e+00
-4.712234800305727944e+00,-1.333329450463422328e+00,1.774039605100450112e+00,-2.748937626401116496e+00
-9.114282963932401893e-02,3.693562988148772597e+00,-2.819359830065616968e-01,-5.283239088995546950e+00
3.811765386795631816e+00,-4.957320438393828965e+00,-3.444043418038158499e+00,-2.208335127083383698e-01
4.470468810996756304e+00,-3.321739901197596989e+00,3.330503888654727351e+00,6.653459363633292822e-01
1.168219843872942310e+00,-1.098817097811367605e+00,4.023364951867936412e+00,-4.066855682670967198e+00
-1.652448748613142282e+00,1.912896781781756594e+00,2.091289107399827985e-01,-5.125990107258160400e-01
5.543587021361853218e+00,4.262786467312155159e-01,-1.465336450032380888e+00,-2.392662019096089554e-01
2.544555662557611786e+00,-3.360242758598086965e+00,7.089758177827510943e-01,-3.712831326247521435e+00
6.368296046535501631e+00,-1.236757652439162136e+00,-1.611370751437961601e-01,1.952688002442016124e+00
5.219410499052495878e-01,-4.317058560339974704e+00,-5.967279697944747330e-01,1.197861957917830900e+00
4.507126001156465556e+00,-2.172897870021218036e+00,1.797760718116329537e+00,4.733678019244869084e+00
-2.128540732105906219e+00,2.751216490769686995e+00,-3.939635303256673882e-01,1.248383916042298702e+00
-4.320197368957168216e+00,4.240147903945128416e-01,2.690266081569213430e+00,-4.547497541449770253e+00
-2.382642255428191191e+00,3.542301272652613076e+00,-2.905539439039677596e+00,4.410171881272017223e-03
-1.927763598249639942e+00,1.072219768237775428e+00,-2.060748630076301158e+00,-4.488619520896103943e+00
3.890557923752980818e-01,2.346108658078821296e+00,5.059157470674777279e+00,-1.841658569057035955e+00
-3.631999996191984437e+00,-2.809252937621666835e+00,-2.958545571248274886e+00,1.261837553580510640e+00
5.549561830599088808e+00,1.984214003921577429e+00,-3.605634388802568258e-01,8.355704439365739811e-01
-2.151361130779220865e+00,-9.917512055676935834e-01,-3.679134980288321533e+00,-6.611285528079716839e-03
3.163559834691031192e+00,-2.417340201674699873e+00,-4.915123730261397483e+00,1.951563944146828655e+00
-7.748085250961274095e-01,1.519921225373234375e+00,-2.323407984633223844e+00,-2.380399074469472520e-01
-5.804589952308453427e+00,-2.877396221115473551e+00,1.608336924595455075e+00,-1.359408731444063489e+00
5.035758294191711393e+00,3.861814401293671928e+00,1.103679667963890720e+00,1.692490143187490137e+00
-2.431519666049019257e+00,-3.677389430427828731e-01,2.016303040027276783e+00,6.056546005266580934e+00
-3.308591831972807373e+00,-1.829366854834253653e+00,-2.863195976968181622e+00,4.378111568138365328e+00
-1.230550871138563984e+00,-3.537951003107645320e+00,-2.912400135612434937e+00,-1.088255916445483917e+00
-4.696903842293258080e+00,-2.927785001815371491e+00,-2.794211509252600312e+00,2.036203169022254400e+00
4.840799986532320909e-01,-3.729218027735704322e+00,2.802058853256459869e+00,-3.479438432168738160e+00
-4.000131214470311392e+00,-4.885943983208641761e+00,2.633985805469181152e+00,1.136381809393585129e+00
-1.817507524889107329e-01,1.225633371509173397e+00,3.061288574783272765e+00,4.842768393924632875e+00
-3.040809848784996050e-01,-6.995376236196853004e-01,4.080759422344794274e+00,-1.892187513288035472e+00
4.736352427531238085e+00,-6.489076334228142118e-01,4.776189334961989386e-01,-3.668408124444785035e+00
-6.219152011486992926e+00,-1.743031913281385126e-01,-8.789804702402043146e-01,3.062324559869194385e+00
-2.726021040140374385e+00,1.742453135580988244e+00,1.793888744663832135e-01,4.939996101928246119e+00
-8.882209763584978379e-01,-5.284189951477280545e-01,-6.136980286268277851e+00,1.815364551733125609e+00
2.604703834274000762e+00,-3.883027411208086477e+00,1.308216879711297187e+00,-3.019259287756113519e+00
-5.553821890045556486e+00,-2.422200126572126688e+00,-5.511666186962171921e-01,2.366916310486517627e+00
8.492918852629964821e-01,4.037031174761478880e+00,-1.377825173187407826e+00,-3.721149510587670406e+00
-2.354840845984025322e+00,-5.243921334822318592e+00,2.268048459081605461e+00,3.074379258182426966e+00
4.265323468368903415e-01,6.021616554188985448e-01,-2.456955197104047972e+00,-4.032145047898366919e+00
-2.469647453798373249e+00,-8.624157188449189937e-02,-9.740052204905098598e-01,4.881778460916614826e+00
-3.216249981398354718e-01,3.928776155624331273e-02,-6.997358292930718981e+00,-2.428597720098262802e-01
-2.524599625704535111e+00,-2.642045584937656066e+00,-5.370036734683229618e+00,1.481741127717316919e+00
-1.778755937160357292e-01,-5.255786893234976276e+00,2.669283360553929896e+00,-2.407097098212525488e+00
-1.770683628444258639e+00,-3.613505507028838437e+00,4.371195823558243987e+00,2.211078732877331254e-01
6.320844566657474184e-01,-3.368895053734390910e+00,3.142767649370068028e+00,2.353826404937921613e+00
-3.808000089855583248e+00,4.884094739853341416e+00,2.065564228698449689e+00,1.036133983146495963e+00
-2.268508827182830423e+00,1.619198823683200450e+00,3.055726084964273337e+00,4.679275246678636258e+00
1.817701505086374736e+00,3.127086259011583103e+00,2.707523123988633262e+00,-1.405691533438566010e+00
-2.690595278434934623e-01,3.829622211559562395e-01,3.242144271991375337e+00,-1.205846324503079936e+00
3.965369080384567368e+00,-1.419199466185897540e+00,2.604290606483274373e-01,1.037499739465595372e+00
2.151550964950295519e+00,2.654971141817662694e+00,3.469083223277179773e+00,2.005872837719532509e+00
5.804001490863331725e+00,3.074035607321037755e+00,-2.217721743731421835e+00,5.114642347212629003e-01
-4.370769971137714371e+00,-4.159462577906110070e+00,-2.731906541412880141e-01,2.289912956369944741e+00
5.135740170377719238e+00,-1.695984810621135486e+00,-4.148666167954099815e-01,2.942598281132470905e+00
-2.045763097991940782e+00,-5.081679215806231831e+00,3.223271578045322716e+00,2.402161727587884155e+00
-7.972841514485454750e-01,4.653672816182909955e+00,2.897046651027299635e+00,-2.166710549240844497e+00
-3.282218403358482472e+00,-8.429267706657421755e-01,3.818415209302257196e+00,1.631306851559315430e+00
1.101776280215521098e+00,3.813707382700299853e+00,-4.190972896773948797e+00,-4.453602937645420035e-01
-2.742268816341829840e+00,-4.799389875309933551e+00,-9.267757130010882971e-01,-1.213171990557991409e+00
1.238230884264684972e+00,-4.262847596069374134e+00,-6.431800928732279710e-01,-6.916628723184570227e-01
-3.472300802630974736e+00,2.436056505334633027e+00,9.564049451395362222e-01,1.321020493875275648e+00
4.274076032347155163e+00,-9.490116940169466275e-01,-4.739476846490681794e+00,1.685654644989188933e+00
2.889883731101660747e+00,9.857185790261731029e-01,-3.123231786688566713e-01,7.288496302340394251e-02
-1.056884942726497245e+00,-2.644420869462293044e+00,5.547083061981322061e+00,1.354362065355668499e+00
-1.153897994353123346e+00,-4.373332117118048146e+00,1.329069124181076200e-01,-5.523176774482674745e+00
2.591532540670502982e+00,-4.708407116464031539e+00,2.921019295786639880e-01,4.330032061794598874e+00
1.799048163342488627e+00,-2.485298357520153711e+00,-1.757771896075404960e+00,-4.612201942968016666e-01
5.625539947451090317e-01,3.981722131390527775e+00,-5.591045144812522238e+00,2.741109184388852982e-01
5.014895898279208453e+00,-3.029895909150514210e+00,-2.782543427736005714e+00,-2.141089911591600725e-01
-2.550945116007627522e+00,3.948489290755686554e+00,3.237149618085959357e+00,-1.843403397321159209e+00
3.244387978300540709e+00,4.669615136881277717e-01,1.080237734311492726e-01,-3.723499483024025558e+00
