-3.360826145976353097e+00,-2.028550662043214992e+00,-4.790497936070321927e+00,-3.827099737048163863e+00
2.128015103026643651e+00,-5.270084763778097869e-01,5.078236681982606804e+00,-9.307853082860042537e-01
5.185623594410450288e+00,-3.833122275705670212e+00,1.647399567281258026e+00,-1.150477809427016718e+00
6.059546856161721173e+00,-1.834931182116457116e+00,1.576526004075254228e+00,-2.478946624260555787e+00
-6.123438316509064450e-01,5.520018911460025990e+00,-3.327440759270941406e+00,2.792654771240390410e+00
4.948565820080016664e+00,-3.566941570764317060e+00,-1.873633342093985674e-02,-4.048995200080604207e+00
-1.818695864372057658e+00,5.416555992758491200e+00,3.573270656975048087e+00,-3.472087052163111975e-01
5.067446485729078631e+00,3.961895325179624727e+00,3.221132902992962510e+00,-2.006966070721702688e-01
3.737121243707991702e+00,3.511650488985825547e+00,-1.189605565828034894e+00,-3.058360418389347135e+00
-4.450832982163593243e+00,3.513401785276060618e+00,-1.485710881296345764e+00,-1.700491716376058449e+00
-4.168639146287336672e+00,2.733313772593302660e-01,4.779483871528134920e+00,1.229220733763847662e+00
5.306751145888177312e+00,1.344350563953289779e+00,9.208214961021921052e-01,4.554892338698293131e+00
1.115307171253148821e+00,5.526082020011344298e+00,2.799583634607885951e+00,3.628653939054714339e+00
4.928307204784482920e+00,5.422442183918096958e-01,-4.461276983636839333e+00,-1.333590360406069042e+00
3.589376864926058008e+00,-2.549065513598181454e+00,1.325929553028800945e-01,-1.358152341553096276e+00
2.321869814676376098e-01,3.155823353879447790e+00,7.103222765977748043e-01,-3.959564531216062555e+00
-1.267981143260132670e+00,6.698633450245473853e+00,1.672067085920832686e-03,-4.882979841234245111e-01
-5.325902689486991526e-02,-3.772989577164726605e+00,1.319480283157801193e+00,-2.959994684633850959e+00
4.183692707790141796e+00,-3.909626988467642228e+00,3.592770835928301931e+00,8.085065633682135822e-01
2.190548786256357516e+00,2.025983559333244699e+00,-5.541282316775952843e+00,3.639409510510861701e+00
-2.267209642793459601e+00,-3.720186698893417354e+00,-1.457211518501241976e+00,1.378856258964312298e+00
-1.123711144440007415e+00,5.556564936665930432e+00,1.173496673920454869e+00,3.831252188256879077e+00
-3.734450691509549891e+00,3.484242281507991201e+00,-5.460598678599785094e-01,3.696782955006594484e+00
-1.200251152471359273e+00,1.678300704778092900e+00,-6.369807487404195889e+00,5.284722015017907504e-01
3.567582943456918176e+00,-1.757247204683563879e+00,-4.399915313007857876e+00,1.052716518758629372e+00
-1.746698277112167075e+00,2.121895562629589893e+00,-2.352121915413865949e+00,7.732202390708547979e-01
-3.836719686180116273e+00,3.698043590596722829e+00,5.064675891290681964e-01,3.913251868218939666e+00
-1.776937056790516278e+00,2.832026592329372150e+00,-5.668916595088616672e-01,3.025729005190247456e+00
3.086143720412906633e-01,4.392128220241183101e+00,-2.040532513275927329e+00,6.266530965792432850e-01
-2.475143022797466674e+00,-8.673070930327466677e-01,3.665510692635914336e-01,-2.057342626605877189e+00
5.024514447721696975e+00,-2.082441251239702140e+00,3.200180049476039290e+00,5.214942037109201456e-01
-6.560916773078875330e-01,-2.161222082549238976e+00,3.990935826623173810e+00,3.990740568973629721e+00
-3.760078321305152738e+00,4.936670673837812551e+00,2.499028679263133323e+00,-8.763116204005000354e-02
-5.438894046534786142e+00,1.735049221909865880e+00,1.212634800390627321e+00,-3.783305817896044587e+00
-4.344421415041555434e+00,3.471851868553927911e+00,4.938812171955747621e-01,-3.604676514478062366e+00
1.047018644329315018e+00,-4.617993751625688148e+00,4.358301533114710580e+00,1.229496712193913988e+00
7.958487789403260182e-01,-3.706157625694356028e+00,-3.709926606306165997e+00,3.655541155634736139e+00
3.810475512100819806e+00,4.750060524942576912e+00,-3.935180766635042016e+00,-1.761184947990247496e+00
8.094215636057519592e-02,-2.109987878760779978e+00,3.096164095007350348e+00,3.655784687737515526e+00
-7.389155227077661703e-01,3.137929995581976161e-01,-6.553263104294276609e+00,-1.174424063297044629e+00
1.849760739238751395e+00,2.151865873134845675e+00,1.135548155068402565e+00,6.046032959159902909e+00
-2.015031269394308211e+00,-6.179030618710875444e+00,2.801340444185649869e-01,2.714546913020443153e+00
2.289127137328959449e+00,2.739880372308538092e+00,2.154242701289477424e-01,3.169565081830628905e+00
1.289314996484598463e+00,-6.918142068233371633e-01,-6.970282136897252734e+00,-1.518277165778886495e+00
2.554267824415608512e+00,2.588043891547652020e+00,-1.403403996531099818e+00,5.873641264523434380e+00
-1.260325595095138640e+00,6.186495463736735090e+00,-2.997270143033648804e+00,-1.566048845125672662e+00
1.103110443459699663e+00,-5.643861842573604903e+00,3.551023071571219436e+00,-2.307153791651050057e+00
-1.904263730342824479e+00,2.727229834772229466e+00,5.327483411877395270e+00,1.908976485259488154e+00
5.341128582111391410e+00,-3.976874258464035528e+00,6.266306750886480037e-01,2.705722958387857258e+00
3.876034397082689598e+00,-3.834188545883319588e+00,-1.449338250866723188e+00,1.856287525466139843e-01
3.518054092800171340e-01,-1.357839272694799204e+00,-5.118552989528513120e-02,-5.867634289657027935e+00
-1.675137774296143078e+00,1.181044090779505673e+00,-4.465547307906026830e+00,4.328120200295526132e+00
-1.442267347704767610e+00,-7.701639410526626150e-01,-5.618468026200408583e-02,-7.157259824208179744e+00
8.327043394063516901e-01,-8.072466372383522160e-01,1.445695877656174799e+00,-6.910642767004715026e+00
-2.932795548104913053e+00,-2.995367905853072887e+00,1.256289777279167019e+00,1.716634975295035170e+00
-7.042705450289727054e+00,6.430416540951516824e-01,1.068895142253854624e+00,2.675157179307456334e-01
-6.401781577117923838e+00,1.879199534465760602e+00,2.225662928624402515e+00,9.857287053453218928e-02
2.748043793669336488e+00,1.873053487380362814e+00,-5.616290330858169089e-01,3.105878495654486038e+00
-6.318594043848113628e-01,4.780578386994366547e+00,-3.304523307735831583e+00,-1.705983056186145985e+00
4.416158746301250382e+00,-3.995400521596889298e+00,-2.470252681488231961e+00,2.971498951900706231e+00
-7.274298398874279314e-01,1.773412911854820528e+00,-6.453681157426332859e+00,2.176909687667452520e+00
5.283883456341886387e+00,7.593699054824575301e-01,-4.740451126785369063e+00,-1.266139006907821329e+00
-1.424022253638354885e+00,-1.653887943544257055e+00,5.660867022141577110e+00,-3.936377612600335141e+00
5.470872644891744407e+00,-1.360128430478021011e+00,2.393386776944230743e+00,-2.703179545941260642e+00
-2.088371239574656535e+00,3.584775160104508807e+00,2.112775670459551502e+00,2.629796890630291983e+00
3.372700256822495302e+00,2.449168319036811314e-01,-1.981153392598255181e+00,3.332329448958021967e+00
3.102144078145642858e+00,2.425257018308776935e+00,4.625109845300828582e+00,-7.347163970877083061e-01
2.895921269962885791e+00,5.703454587536201714e+00,1.171754076643509501e+00,-7.223204839862017446e-01
4.818273824652259840e+00,-3.461551243156007818e+00,-3.532448565554913156e+00,4.262937453579726532e-01
3.345694242136247443e+00,2.867383591624580674e+00,-1.276955097079982782e+00,1.426263653466012249e+00
1.721132117756037916e+00,-3.931705238782158052e+00,-3.780353363096173869e+00,4.271858319776239199e+00
4.582841068132887941e+00,-4.981244284023799707e-01,-2.407508591571876799e+00,-2.923459389796890129e+00
2.393559932642299160e+00,-3.783853570247006082e-01,-3.377826152063050369e+00,-1.783323264806801367e+00
-1.382079231733884361e+00,3.297069267240179347e+00,5.539958273235744635e+00,5.697149835886013980e-01
-3.665908154315822287e+00,2.626232186783786920e-02,4.444998821003323997e+00,-2.934247979786428484e+00
1.710386364304864459e+00,-3.370434065846034777e+00,1.741907409489829028e+00,-1.780381330417547758e+00
6.423856440826273273e-01,-2.152038332925493069e+00,2.213572819711016493e+00,-1.780539017999789753e+00
6.853078081241836372e+00,7.843169576562397660e-01,1.974311176542011825e+00,8.034265934542363929e-01
-1.443696094102407124e-01,4.411152832469329432e+00,-2.928473689989745665e+00,3.020397910998565472e+00
-4.878150818421883805e+00,8.938631453194721965e-01,-2.880017250023322095e+00,-3.498442213611482998e+00
-2.591604766888976119e+00,-1.712039985424473443e+00,-7.250157728238360022e-01,-4.568122738887475442e+00
-1.657024986007988865e+00,-1.072331411068780271e+00,-3.896728155869313426e+00,-2.985161040878256067e+00
-3.260898338259165641e+00,3.263392043257191233e+00,-2.483464168764710323e+00,1.548382434801951257e+00
-3.552989934360448299e+00,5.288217608749658183e+00,2.198195232261005216e+00,-1.315475690032777145e-01
2.918093942201455127e-01,-1.614395021267709618e+00,4.754235006508097605e+00,-3.225324941860493677e+00
1.488825412683580263e+00,2.493422354797481422e+00,8.869328279575707796e-01,-4.471681326482930707e+00
-4.217765811323513248e+00,1.666806337014199724e-01,4.621341103544104989e+00,-1.670039438927595210e+00
-4.843532924471405821e+00,-1.824282173998651890e+00,3.934851920077344190e+00,3.168080378842336398e+00
2.429748242762630461e+00,-2.082497554357997938e-01,5.266107160907802509e+00,-2.785343532172547487e+00
-1.665203517816563616e+00,2.947514667659262955e+00,-5.501077759019485036e+00,2.018599824109398533e+00
-6.313205202020531814e+00,3.458874264381596175e-01,-2.124118211274005130e+00,1.621913197620548308e+00
3.070191839354245444e-01,-1.080269387688301830e+00,4.660632991458905749e+00,3.287169728215300069e+00
-3.644363025226522446e+00,-3.673179926001505780e-01,5.314180825071321834e-01,6.403129359490721484e+00
4.567252234633971675e+00,-1.245350887388861683e+00,3.709182392513985072e+00,-2.705209230365600792e+00
-1.700239400225501407e-01,-3.823126451485425292e+00,4.188073578909984995e+00,-4.638247769534828535e+00
-1.012424908400434642e+00,2.179988545020361101e+00,-2.047607291866768708e-01,-9.828256461315305892e-03
1.220374141170870869e-01,1.070236140577015105e+00,-6.448739617311780137e+00,5.776724048268480072e-01
1.020992947034702114e+00,1.354548879029357389e+00,-1.996395113120360998e+00,5.417346161522472947e+00
-7.574348140259833384e-01,3.827561786166703062e+00,4.456913841925680408e+00,-3.637649633818958339e+00
-2.062622027050665885e+00,1.961298575554013102e+00,-2.027591843431655771e+00,-6.125716528030224595e+00
4.600325197282579270e-01,2.893937131602376311e+00,-2.045091268527602146e+00,-6.361520616028252917e+00
-1.395506832161675703e+00,-3.247588819609168898e+00,2.512133086541198601e+00,-2.554158000743808610e-01
1.027425733777431738e+00,-1.517352167302434274e-01,4.387900597715538531e+00,4.767979479152288036e+00
1.351344348618702007e+00,4.099813717621921150e+00,4.249874893241455176e+00,2.360369967813538139e+00
2.403688950274017078e+00,2.778197341487809613e+00,-3.133726516259992323e+00,1.378305021793747365e+00
5.143546068022868401e-01,-1.381381831502441759e+00,-5.059967952197959029e+00,-1.539116720625604673e+00
6.385513062430872466e+00,9.329403417315720315e-01,1.068664158709147882e+00,-5.120704372542742577e-01
4.361995002480459682e+00,2.463302484017448890e+00,-1.583941254165568691e-01,-4.215352104855454307e+00
1.764104970429777097e+00,5.358295926920699781e-01,-7.540825571462124177e-01,-1.628138315279695103e+00
8.872566035833907572e-01,-3.531107345916021600e+00,4.483357345411272954e-01,-5.541167923605491374e+00
4.047048161728620030e+00,-3.323807597475289644e+00,-3.164987845560099267e+00,2.028864978841590894e+00
-1.591303624497012681e+00,-4.612052756178745549e-01,4.886111574999474350e+00,4.278996502778870115e-02
-4.787110848172439481e-01,4.032562880635184754e+00,3.197596979276575158e-01,-5.162074784938817551e+00
6.213589407828647104e+00,1.484387356777155276e+00,-1.772678126561492151e+00,-2.910561936791408399e+00
4.988410192492396811e-01,-3.560818080993375823e+00,-1.725140713840147111e+00,-1.376871936520957185e+00
-2.115472555604068550e+00,4.125956129289377827e+00,2.363838837459538045e+00,-4.787598602462751707e+00
5.130578359914714781e-01,-3.583097162427080762e-01,-3.398971102801938482e+00,2.508364333414078828e+00
-1.187763164339171035e-01,-8.722032210212676828e-01,-4.047323366157251634e+00,-2.321167927376968532e+00
-2.965106971034334737e+00,8.443059922009821250e-01,-2.292186399004800368e+00,1.569231873338906125e+00
3.709806280262394118e+00,8.153912777562575265e-01,-2.746816145043112556e+00,3.915728169269406589e+00
1.054143046327709055e+00,-9.398089644891833849e-01,4.469641170486394977e+00,-6.864936923101588873e-01
3.613473867888418178e-01,-9.782636555649831811e-01,1.332081568908826785e+00,-6.940033523175954677e+00
-2.163088686217042866e-01,7.343896042808263636e-02,3.662932156913458748e-01,4.223248611988929646e+00
-8.208526542659032588e-01,-1.582009641816694012e+00,2.265013794486837373e+00,-4.478302522253295059e+00
7.226923192861868239e-01,-1.202981278010101907e+00,2.910715902793610255e+00,2.246099692021697791e+00
1.901810648942900084e+00,-1.506912924353976058e+00,5.989099972002336791e+00,-3.594391351384773614e+00
-1.045715934587734042e+00,4.060834944030383475e+00,-3.536824110099787699e+00,-2.977840151805125846e+00
6.501518213875463026e+00,2.984504651224026972e+00,-9.372757964265910902e-01,9.612603812161131245e-01
-2.085944581539163512e+00,-8.981064450506693886e-01,-2.003412965712117799e+00,-5.753770472646062117e+00
-2.138658631037392954e+00,1.256865252902144237e+00,-4.221935186339222379e-01,-1.156189216124597019e+00
-2.212120645693846033e+00,-3.468609584243167454e+00,-2.730994716028222857e+00,-2.868288146358673352e+00
-1.874454804359903859e+00,-1.318812607939354509e+00,6.657766644545821677e+00,1.218256590690964147e+00
4.842830594727710825e+00,1.554944058182128330e+00,4.235536964740514776e+00,-1.975448448324101491e+00
3.093705906379885295e+00,2.721269954494061505e+00,2.884931043926105332e+00,-2.957651736830669176e+00
-3.657771957903482640e+00,-3.392871907678649546e+00,2.463957353118658045e+00,1.864961043479850922e+00
-4.493143953973294913e+00,-2.040245464590292102e+00,1.629205126130968351e+00,4.561519303332271846e+00
6.715799369007618758e+00,-1.499017781355564072e+00,2.089533695153722448e+00,1.134006852789766207e+00
2.861648458327283873e+00,2.371820028497759192e-02,3.262230613506038601e+00,1.292117369981792940e+00
-4.722614189752762037e+00,3.933925575781807016e-01,-1.492933576259092066e+00,-1.843339043652334253e+00
1.969888903732579966e+00,1.817099682826500029e+00,-2.506807945916135871e+00,2.069759960196076776e+00
3.603797832728401929e+00,3.216563709031672325e-01,-2.359385629966619824e+00,-3.943134164697357225e+00
-1.045533605306216973e+00,6.304560431407994159e+00,3.454257839721456835e-01,-9.674440374641241069e-01
-1.886369267315004317e+00,2.860544704224254886e+00,-3.196759853858996414e-01,1.328132962897746738e-01
4.846069007546008223e+00,-5.095836613521672609e-01,1.721333157217600940e+00,4.509806548034030804e+00
-2.685631174050695957e+00,-3.334036129747195432e-01,-4.576349388351696135e+00,4.649130206741607374e+00
8.860913109594008574e-01,-3.419089203766783935e+00,3.559166554522283032e+00,-4.151191755865074384e+00
-1.279934062403548456e+00,-2.289803900730667863e+00,3.379260691019567719e+00,1.867929095876179613e+00
2.196960990909666123e+00,-4.295635204983915045e+00,-2.015431125200760398e+00,-2.119751067517049226e+00
-1.327884487957722071e+00,-5.172163988823471392e+00,4.776757300097321135e+00,-1.391268058141963637e+00
1.743128102260481649e+00,2.593227246585591672e+00,3.553172968604636939e+00,5.601818092265408389e+00
4.492203194678277889e+00,2.213258206272811890e+00,3.742247347062565677e+00,-2.965667747836009394e+00
4.217611588074683837e+00,-5.286601177575533939e+00,2.622814882195339425e+00,4.354437701081539935e-01
2.837421713991123529e+00,1.584057873626639745e+00,3.169859482483134094e+00,-4.776043254022342310e+00
2.604289346481331591e-01,-3.411600415160089383e+00,-2.701978407148063255e+00,-9.537111024222048039e-01
4.072851158824148499e+00,-3.050242185331236922e+00,2.232558686229227721e-02,4.414406964106277975e+00
-4.785667786180464844e+00,-3.184067959327677944e+00,2.482690580635816269e-01,-3.390165892646928913e+00
2.347021175297742346e+00,1.595507398685379163e+00,6.477058577325084388e-01,5.330816098519633783e+00
-5.468040967230397342e+00,-4.047699201471697705e+00,-1.119778821687027026e+00,1.929458238605266773e+00
4.010997328015109886e+00,2.834080410095166869e+00,1.629775504783854023e+00,-1.215130276444971402e+00
-2.911367109736661796e+00,-4.439713549244744151e+00,2.750176220940172112e+00,3.683310797810579906e+00
5.025032544742779050e-01,3.090861587058873816e+00,-3.779655401277134952e-01,2.501921040148332942e+00
-5.152618498859670382e+00,2.617854945646930442e+00,2.579684644638089441e+00,2.131755329150137879e+00
-5.142225024731718719e+00,-2.947794768456295067e+00,-7.862756685329731487e-01,-6.519226638091859538e-01
4.247500584021770997e+00,2.064426348445023596e+00,2.962464911943271773e+00,-2.026534083314533330e+00
4.483210661415164111e+00,1.619101261538859582e+00,4.815138323174017465e+00,-2.432743343498771527e+00
5.514252753523389394e+00,2.337716974667111369e+00,8.239808941850541579e-01,4.137187286419586663e+00
1.829943369276577858e+00,4.968985148847557376e+00,3.033319920897115107e+00,4.255089012197697862e+00
3.093553068507879922e-01,1.320777379682659403e+00,1.316137196059103953e+00,-3.258507944654330579e+00
2.733461143247085445e+00,-8.132045526269117142e-01,-5.050778632134639068e+00,4.823866333076503587e-01
-2.005845317380400061e+00,-5.686758644596735801e-02,4.636554369561310729e+00,3.861097345905996292e+00
1.584582988563409955e+00,-5.228475798479523817e+00,-3.616050295725211861e+00,3.253543298324908850e+00
1.774956277390265846e+00,-9.489516946667782005e-01,-2.972258524787366962e+00,1.254650318792464581e-01
-4.899036349602385876e+00,3.132225741487507098e-01,-1.715221213812619938e+00,-3.656908997361581815e+00
-3.357632608689696596e+00,3.481240096904614667e+00,-1.290254498702675910e-02,3.559131162384042923e+00
2.073674856515791629e-02,-4.181211686003415196e+00,-2.324787554804044754e-03,-1.676346377575183455e+00
-9.217664947982087131e-01,-6.673436701093219403e-01,-6.006820698352933086e+00,-3.095584223673048196e+00
-1.533867773962468650e+00,-2.351696428680440043e+00,-2.266839108896546939e+00,-2.581657105779028072e+00
9.276537425500031020e-02,-2.014543868835095175e+00,2.807151189560896487e+00,1.793360333622752378e+00
-2.123024596922864049e+00,-4.262092373908949128e+00,4.292771528984051344e+00,3.405753929514329315e+00
-2.215266693492301098e+00,-5.620109473044647697e-01,-2.967667291005477548e+00,-3.483190609861218645e-01
3.723841798308340501e+00,5.477820964888327815e+00,2.441415430437830825e+00,1.845905147600877649e+00
-8.792955125273208342e-03,-1.708150260259666542e+00,-6.251971282120810436e+00,5.012444391993946535e-01
5.700084258476911359e+00,-2.704809951649517763e-01,1.115184763110332877e-01,-8.311577569200239157e-01
-1.734571977864765246e+00,3.511247839801066473e+00,5.887855117398840044e+00,3.381366968375721371e-01
-4.242325784326408389e-01,1.460722035645918016e-01,-2.695083456548471812e+00,-6.184024110556332055e+00
2.724066690184809847e+00,2.725651169689504716e+00,4.517543034111365374e-01,-3.847136823117502935e+00
-5.408214049190534389e+00,2.836644101334390822e+00,1.077483191403669105e+00,6.208994429428033035e-01
4.933977551802337658e+00,1.815960589428403216e+00,9.264999234355386637e-01,-4.242511973050604901e+00
-5.276871699636348723e+00,-4.089518689835588638e+00,-1.925045919475582568e-01,2.621264544452796219e+00
1.443416124738385431e+00,-2.786525527472994757e+00,4.143982430043851473e+00,-4.332920485635029517e-01
-1.254691827125029024e-01,-3.227460228244010132e-01,5.893295863779143495e+00,-7.244601273494070126e-01
1.208515695837969695e+00,1.201436988688785235e+00,-4.504908394582533226e+00,4.027007205328223094e+00
-6.634157509792708574e-01,-4.502079220710620611e+00,-3.272505168513374141e+00,-3.018206123976884925e+00
-2.097144874241950063e+00,4.761731707419285087e+00,-1.413653999738645126e-02,2.147475183722654446e+00
2.216950818586314931e+00,2.037127922488453091e+00,4.670994251474186676e+00,-3.487911181311584841e-01
-1.328250067534679113e+00,1.069112464414904151e+00,-4.011792442392099645e+00,-4.219106406025977307e+00
2.304919990579526790e+00,2.274557555395225195e-01,1.944273372597204785e+00,2.600043864555500406e+00
4.747748312143238003e+00,-8.789332571437925568e-01,-2.527324631029450042e-01,-2.011328613810075883e+00
-1.616687092984518681e-01,-3.260666075397455010e+00,1.041907804338274124e+00,5.290639324898344098e-01
2.587708708417511438e+00,1.775474295134353175e+00,-3.768259122754107904e-01,-2.477702102965844588e+00
1.883788212998849687e+00,4.555304495016967437e+00,-3.758569394507552452e+00,3.440868945294099923e-01
-2.672938493459444231e+00,6.176071180291214269e+00,9.394364567549251532e-01,-2.646244927818760306e+00
8.152911524566476276e-01,4.729046212002953276e+00,-1.094222263603033651e+00,-6.503646129532190123e-01
3.048735098605037219e+00,2.489734066667423473e+00,5.444004827733632368e+00,1.682218518465066426e+00
-5.679680508793413907e+00,-6.400450318737002098e-01,3.462866623040750103e-01,-2.288183698925869258e+00
-1.521616214365340447e+00,2.167755551538782299e+00,-4.604253932255008230e+00,-3.215648088273857841e+00
-5.056179153971983808e+00,2.057411887037897902e+00,1.763810762006475796e-01,-2.179423713240519866e+00
1.521875890070645054e+00,3.659366525357323208e-01,1.903871566471841303e+00,7.121543834174554055e-01
-4.892103061048120871e+00,4.528385538142469802e-01,4.411602456762994784e+00,2.598974041293035775e+00
-3.951567977640255136e-01,-3.437185206304415597e-01,-7.380059337835412903e-01,5.615578833361195343e+00
-3.209171514385080748e+00,5.179578292568941755e+00,-3.056067608089944709e+00,1.074073450862642831e+00
2.668965811554622647e+00,1.498626216919247967e-01,-2.359931334221576193e+00,-5.119129617907983487e+00
5.524586040893093575e+00,-1.121216771470523232e+00,-2.672474694610323942e-01,-1.918496881807628895e+00
-5.971345012857481649e+00,2.329716482417198281e-02,-3.306644040398785567e+00,-1.008791630906220815e+00
1.472357440543235141e+00,1.543108196059393089e+00,4.968696991258562790e+00,-3.201596354590105609e+00
-4.116573364670100155e+00,-1.191714688765088903e+00,-2.448671524971213653e+00,2.096684422786025070e+00
2.569984849751592915e+00,5.983758607531306950e+00,6.885704313186863379e-01,1.539818991238118828e+00
8.117830421213723113e-01,9.646211679977616527e-01,-8.759739832073232257e-02,4.131437151697865851e+00
2.379810684268101051e-01,1.236415867124433632e+00,-4.947411801573243784e-01,-2.872308239733609714e+00
-9.055962494995377643e-01,2.526681358030608671e+00,8.957730390194630354e-01,6.251633540774887088e+00
6.492598060570589524e+00,3.374250079256635892e+00,9.853360613489424713e-01,7.754200731401369451e-01
4.744972899674332112e+00,3.145588538710011761e+00,-2.473044315574902452e+00,3.415555524204241244e+00
7.109401232045268193e-01,-4.087590881471097504e+00,-3.574681205687088248e+00,1.102390480473538770e-01
-6.474111868892135746e+00,-5.558112018921075315e-01,1.933022112715315766e+00,-1.562189032341471773e+00
-1.323823547673665058e+00,-5.004550113474206530e-01,2.869264773256559042e+00,-4.244280380778145734e+00
-3.404184509574980311e+00,-8.481797723574172609e-01,-4.496908811884114954e+00,-4.375163424492478192e+00
4.808292483185143240e+00,2.348861555945909174e+00,-3.659416269178952241e+00,2.830821394258767665e+00
3.015073297196058988e+00,3.823285369673645739e-01,-4.786579818658323937e+00,3.085355868664910517e+00
-6.800992987962805714e+00,-2.593410096452284375e+00,4.170712466719554423e-01,-1.479987939341067094e+00
-1.598149063799500613e+00,4.939845265575063316e+00,-4.927074234985465040e+00,1.413282337192615090e+00
3.945291648916502858e+00,4.510432913403288779e+00,1.966866080753936430e+00,2.281457294370897504e+00
2.669598944662033846e-01,1.807364470906986265e+00,-1.297523380206026866e+00,-1.424012676954770740e+00
-4.559039810324161834e+00,-1.391951980400953359e-01,-3.574376224909230348e+00,-4.117931072731821907e+00
3.299589316518669602e+00,4.168022229755089292e+00,6.419932130051737573e-01,-1.526798783070051124e+00
2.604495755538568158e+00,2.005630600565686095e+00,-4.566964775580707681e+00,2.091477469779998266e+00
3.524091164727919612e+00,-5.630319428701747064e+00,-2.877539996560185998e+00,-1.341842883989658786e+00
-3.085087008534501685e+00,2.428319521916524781e+00,3.733708336151040919e-01,-4.319579144410571558e+00
4.129477429636559727e+00,1.107291171729286372e+00,3.919818285749227638e+00,-4.243866289371799105e+00
-3.068872044727967818e+00,-1.685463492842784294e+00,4.322542469027851553e+00,4.955702967602554132e+00
3.555650822829027558e+00,5.004938789458739379e+00,-2.260227636497568859e+00,-3.761527739130117176e-01
6.423710637834927351e-01,4.074023437544610715e+00,2.778282648454946990e+00,4.425005830273607721e+00
-4.245260173971464823e+00,2.806000400422513863e+00,-1.037991156271961479e+00,-3.577341118772233042e+00
3.113132356039266746e+00,-4.523555726092257423e+00,-2.783847588876081414e+00,-1.160756778091238117e-01
2.368791429665042081e+00,-9.768660514421207974e-01,2.995464957187953470e+00,4.763722039244156825e+00
2.796199356473536568e+00,1.546835174952169600e+00,2.712158442271694447e+00,-5.622532107516608590e+00
1.246226814979074282e+00,-1.992013084098562814e+00,-3.436060011188551755e+00,2.618571309778126022e+00
6.814024161865259166e-03,1.211880880485934453e+00,1.320018823695175980e+00,-1.309354242937548651e+00
1.101166636612588512e+00,5.326041751026750148e+00,1.337042872925092163e-01,-5.742586782655897393e-01
4.280962852126284079e-02,3.772879023364639206e-01,2.523537744779944081e+00,-3.290141961882920629e+00
3.489874254043679347e+00,4.654877892515527193e+00,-3.179251849272861197e+00,-2.920034676241309413e+00
-3.356642320062710461e+00,6.501783309540326572e-01,5.374636361838469156e+00,-3.720769440514768878e+00
1.659073485514715784e+00,-3.076670203112252366e+00,1.506518697004497476e-01,-5.245057013628994902e+00
2.507141881111328185e+00,-1.854831701087203522e+00,3.129358381489987462e+00,1.988436399318876502e+00
-2.452587166525426188e+00,1.340521487007283241e+00,2.236007958913408533e+00,-6.464463698224545141e+00
-1.086302946747468301e+00,1.291412521605313835e+00,6.093374029548562554e+00,-3.439121964622460226e+00
3.074318846924017912e+00,-9.644261206058881708e-01,1.083963857674301812e+00,6.169482140541877158e+00
-5.728012119060754692e+00,2.520663742688903142e+00,2.850920154505282245e+00,1.369117236893905076e+00
2.100626553682965358e+00,-3.098440775750772147e+00,1.840371745710231322e+00,5.068293420623441570e+00
-3.473272665942430670e+00,1.358447991846045033e+00,-2.844649718162621355e+00,-2.994564114821048673e+00
1.073929186312285067e+00,1.697850877858101848e+00,4.834545875937873660e+00,4.128341522105139383e+00
2.281224789618585991e+00,-3.144513555886806699e+00,-4.145595105516027168e+00,4.568194593061055464e+00
-3.034841764669476749e+00,2.972766630726809911e+00,-4.822009019251183304e+00,-2.678853973567987712e+00
3.322323778081421430e+00,-3.316025107966004803e+00,4.587634732196939957e+00,1.085811290049682132e+00
1.359300026165642716e+00,1.345484903394513321e+00,-6.406859081184094862e+00,-2.314214913231344983e+00
-1.704188435655868084e+00,7.845796682534462996e-02,1.033542222801566712e+00,-4.458657334077706480e+00
-4.582709872013244201e+00,-3.739753188358756919e+00,2.243129034238793285e+00,-9.672443644599281187e-01
-9.935094462941870264e-01,-1.897568512266461838e+00,4.987811192381905734e+00,-3.465586996749280946e+00
2.305862240896941362e+00,-3.267269593208125045e+00,2.550968268538472694e-01,-5.176997449034330678e+00
-5.558604784475004168e-01,1.395090034966398052e-01,-2.369292508831127630e+00,2.121826820851025808e+00
2.427802713312866345e+00,5.211438947890470352e+00,-1.766058302074119846e+00,-3.961787622664521891e+00
1.585381837761611568e+00,9.446874205866726548e-01,-5.226837947402079187e+00,-7.095450334737209985e-01
-5.121478503065097776e-01,-3.479809087600295836e+00,4.445062849403816685e+00,3.984373776143191659e+00
-4.633128085543724239e+00,9.550652016154920210e-01,2.999580306629525239e+00,-4.826324366428297985e+00
9.720267553746751998e-01,3.726072976831038552e-01,-8.849373943317455637e-01,-4.752695521265092538e+00
-4.630326724243579051e+00,3.149622217588055939e+00,-2.637969423222373599e+00,2.233930564385833151e+00
-1.625172554018459392e+00,-3.076778903927285924e+00,-2.335504186314562580e-01,4.099700169064735888e+00
-2.615541317020974699e+00,2.958150354896367684e+00,-2.627685962706012734e+00,-3.304216713674325234e+00
-5.076355056657178011e-01,-4.938565616189145580e+00,-4.209658620832787967e-01,-4.300415804477445647e+00
-9.757965687923015885e-01,-3.257517326737189300e+00,-7.837007149808026263e-01,-2.247055166691257266e+00
-5.470158923641182724e+00,-1.235764419516012680e+00,-3.916943003979123095e+00,-1.836075837387306231e-01
2.943487289286149666e-01,1.318005861737304718e+00,-5.399966908528509357e+00,1.731757853441568518e+00
-3.534972778841956487e+00,-6.748170002741532558e-01,1.936395770170560082e+00,3.918660946039945525e+00
-5.444802095822010024e-01,4.583921561541252632e-01,-3.684711091398782390e+00,-3.683821606667219584e+00
-1.320021477602425941e+00,5.123534594070479287e+00,-3.296206875735604669e+00,4.070440340774252874e+00
4.532466966607610281e+00,-3.621521849138300553e+00,1.991145207087352764e+00,-7.871888146626725424e-01
3.158401375875781181e+00,-4.506536652684257627e-01,-3.732674947481336769e+00,3.550576240185160382e-01
-1.905856257665681008e+00,-5.635430870389003033e+00,4.139909972748909261e+00,-1.216035000546516809e+00
1.839050456303722880e+00,3.969632205448418105e+00,1.718362473966771109e+00,3.539082598554389669e+00
1.108348206349334397e+00,4.561165113977093455e+00,1.465143388615270270e+00,-1.764162255881799313e+00
9.483527739793935485e-01,8.324661827605875919e-01,1.482789156120889018e+00,6.138292064222299338e+00
-1.950654918898194090e+00,-2.093166347090773094e+00,-6.486184168426741004e-02,2.386588965751440750e+00
3.624162162473756332e+00,-1.657313942631732928e+00,-3.456740091779319624e+00,-1.205929715672277025e+00
3.705981341946583463e+00,-6.568556632661398664e-01,-4.887045526644442361e+00,1.752031375680562331e+00
-7.682077554563442323e-01,5.033256637531390965e+00,-2.805663607727572284e+00,2.104667952908668482e+00
-2.011749694858713688e+00,2.479282056440189841e+00,9.972559976405427629e-02,6.313105163993724567e+00
-2.149084642663341871e+00,-1.315727776063869481e+00,1.077333032362413068e+00,-3.645242460316067579e+00
-2.367970023781471145e+00,3.522723996504970145e+00,8.184602454480059963e-01,5.688264662719257458e+00
-5.564552480975250681e+00,-4.109144509317035343e-01,-1.846841051377020371e+00,-2.888241662095663020e+00
2.886872003036426104e+00,-2.699623691033479655e+00,1.507579740373730770e+00,-4.810881551897778330e+00
8.509622971401398228e-01,4.527075383881799198e+00,-3.546257709698866112e+00,-4.570716185692398348e+00
-5.064207800174299834e+00,4.165176926388956424e+00,1.223244144446248571e-01,-1.442709874168324857e+00
-5.858526886289251223e+00,-3.832882632597604200e+00,-6.700457537013909670e-02,-2.611032070488097823e+00
3.269014340103758354e+00,3.739399603233055203e+00,-1.775731878511311645e+00,-4.112462418303470812e+00
-5.123291428761625355e+00,-1.321193629274054926e+00,-1.579091192528039533e+00,4.155825543704537495e+00
-8.406441637127128885e-01,-7.266956404508734479e+00,7.708665859072746374e-01,8.657587357376143045e-01
2.254790216009928017e+00,1.785622323121191513e-01,4.156054290131325213e-01,-1.882695367798755404e-01
7.790380337688268542e-01,-4.584385884944834899e+00,1.240947934311960044e-01,2.107544605790650838e+00
6.995256822792850215e-01,-4.704165692599939774e+00,1.485410238927683091e+00,-4.075413390549235793e+00
3.428289043242924716e+00,-3.539168663671216630e-01,-4.691820381022927755e+00,-1.357076036158066268e+00
-3.610545389013366524e-01,-4.138171827939252645e-01,3.480882417678674123e+00,-1.804176639652446790e+00
-2.879753651515433166e+00,-3.784037756214176706e+00,3.477291423423575889e+00,-2.516605644996014135e+00
-5.756493485014380518e+00,-2.973726012066477686e+00,6.906822715991561834e-01,-2.143503765249457516e+00
2.718939840753446635e+00,1.774247536342737241e+00,2.660856682172619614e+00,-1.819532841840230564e+00
2.018982146472926509e+00,3.240660873598943503e+00,1.772007961670973408e+00,2.126829043137470787e+00
2.546652584255810758e+00,-3.068899550056081171e+00,7.865501628835747105e-01,-4.168356087083641803e+00
1.870318361620718184e+00,4.244424790714794504e+00,-1.142192684403237957e+00,-5.538270876045361391e+00
-3.855727149097468942e+00,-5.653303337359289138e+00,-1.186964314107312291e+00,2.250824617795387450e+00
-3.120092636670417807e+00,2.389233734831541334e+00,-5.847545742240962241e+00,-1.772834680074046876e-01
-4.596754525323886398e+00,-1.477255277095945729e+00,1.375433157186069399e+00,3.321255860579253039e+00
-2.468694075919675601e+00,1.236552319441200698e+00,-1.094902613119136614e+00,2.751537852947350871e+00
3.300763777064566362e+00,6.205381671178010095e+00,1.181793092559968228e+00,9.709136969800445660e-02
-3.403478341563217047e+00,4.358091427157068765e+00,-2.296939549865359143e-01,1.808974525226566987e+00
2.873548780133317937e+00,-6.011805998341210433e+00,1.516966136900887774e+00,2.631357633466797186e+00
-5.922037183403478622e+00,3.108961051180974433e+00,1.393513505702185906e+00,-3.926902391060044240e-01
-2.464575685490821844e-01,-4.226638557790616701e+00,1.723800347674964817e+00,-1.373339993816810267e+00
-2.983902649706502430e+00,-2.011888892213684166e+00,2.196628268795681294e+00,5.906920317395151221e-01
-3.936147651746849108e-01,-2.490012447973689813e+00,3.864755284546307124e+00,4.109794741219274350e+00
4.697069780957285445e+00,3.297368004282691167e+00,3.778364645565094104e+00,-1.186421439700528824e+00
2.216293572835936754e+00,3.635789173674918162e-01,-4.233399399108621175e+00,-1.403137954305965440e+00
-1.354777151843345129e+00,-4.906124789430488242e-01,-4.950546258641847608e+00,-1.002600606347066492e+00
8.846975990297628600e-01,-6.205342498952376218e+00,4.074264419788342639e-01,-3.665184258738624079e-01
-2.383595884739965420e+00,4.358313871142382112e+00,3.869237666645890528e+00,2.245922010672599001e+00
-9.986832623643238094e-01,4.922393345542278809e+00,-4.323855408818779722e+00,-2.726865134730513063e+00
-7.774739428019250553e-01,-2.565023898574008587e+00,-4.791670423859874517e-01,6.123733768111004672e+00
1.259811526995857633e+00,4.190517322037383252e+00,3.785325922619741768e+00,-3.019317743267098120e+00
-1.932145012344941293e-01,-1.081093109330322655e+00,-3.196712719137990266e+00,5.800581931288872894e+00
1.433399447720331787e+00,8.116297953664232401e-02,3.174321466259265367e+00,-4.129290964334302871e-01
1.645932863001670077e+00,1.774784211870871653e+00,-1.156977472166332843e+00,-5.524994622408973655e+00
-2.555524503109944057e+00,-5.934723969729564175e+00,-2.011430725105055828e+00,-3.137875503103440877e+00
-2.979202356152219178e+00,4.725306188658493944e+00,3.081996101718408987e+00,-2.817700633752302508e-01
1.752082549730518135e+00,6.499769232963773291e+00,3.187542600829889050e-01,2.661117671725097722e+00
-3.531832389548058004e-01,2.258561699566100367e-01,5.455624525431702621e-01,1.102423102885179695e-01
1.461101422277841511e-01,-2.660612018901907572e+00,-2.497026563183693870e+00,1.554309847092642194e+00
5.376444622628612890e+00,1.068334000829546770e+00,2.535127050877892696e+00,-3.528496117403987498e+00
-1.695316288971006724e+00,5.606579661085574706e+00,4.202300752501547443e+00,-1.293797178338239373e+00
2.306734592156158836e+00,-4.484932364018774820e+00,-2.422113285344350331e+00,3.625759143499510007e+00
2.785749883708673824e+00,-4.906477011091247675e+00,-8.056256828704095874e-01,1.838579914932704451e+00
1.570007532575186771e+00,-4.219538107107800862e+00,4.307720183108805778e-01,-4.437948380933695702e+00
5.782679014675489171e+00,8.716500185265791956e-01,1.000064387197155291e+00,2.191990214077427890e+00
-1.274869324483577371e+00,-2.159046097837835632e+00,4.243267785404870374e+00,-2.583183620249254631e+00
-3.389237834339882571e+00,-2.654536255263979516e+00,-2.951814887585960889e+00,-5.663878963476590700e-01
-3.058873159432729416e+00,1.543552037161539880e+00,-2.239029476982763445e+00,1.821905016643849740e+00
4.133560691162646350e+00,-2.206804607693821918e-01,6.442349921209196140e-01,-1.242144970940688209e+00
1.209364653963128783e-01,4.496332722153773886e+00,9.994848168229436558e-02,5.525332527389156922e+00
2.305575845984494610e+00,2.798702574721266600e+00,-6.392792391128119256e+00,8.243056066425443751e-01
1.934902093662168102e-02,1.088639981706957860e+00,-5.423571942876912466e+00,-1.316313415859033276e+00
3.477657109378888833e+00,-3.694464954941110157e+00,7.287886871508767461e-01,-3.990035371998904790e+00
-1.746381011057316079e-01,-4.335545663290013785e+00,1.490056975939443307e+00,-1.919969263060637532e+00
3.206134639409760290e+00,3.771272694462769692e+00,3.897982370584920808e+00,2.845584628151302531e-01
-1.502161079112715347e+00,2.400661152488865024e+00,-2.338760274336319611e+00,-4.650143728292893464e+00
-5.497379462843701603e+00,-4.025104561268784131e+00,-6.317138260481223178e-01,-2.071519947876231671e-01
-6.169591546823393280e+00,-1.849306669446387330e+00,-8.377813319019800087e-01,-2.198987236754268881e+00
-7.567280420839181954e-01,-2.976777384721378539e+00,2.296212217503524222e+00,2.653649532969290625e+00
-2.096887594839975222e+00,1.238364751893592075e+00,-5.075518103627607580e-01,-3.047852967875887220e+00
-5.382155366864051160e+00,1.000877113854434564e+00,2.081853909346717213e+00,-2.763161019177676092e+00
-2.179562424767175433e+00,2.424573709404342026e+00,3.515448910683625527e+00,3.889884024532217932e+00
-3.773209272088606792e+00,5.121335773297149174e+00,-3.076652940582095042e+00,1.018693598326287475e+00
-6.231228721949437777e-01,-2.936461415721624224e+00,1.446112992301178179e+00,-5.624803073886551097e+00
-4.419204914721133193e+00,-2.409766254655366924e-01,-1.253623816672035041e+00,3.937180998837614521e+00
2.644978543387774383e+00,-3.662961621060733197e+00,3.508171001289041691e+00,-2.886485075777140086e+00
2.322029928109498265e+00,2.795180174413704144e+00,2.003869307570030234e+00,2.255963574311531605e+00
-2.847192312358174604e+00,4.069267734533856817e+00,-9.495593464399451067e-01,-3.913220410048566134e+00
-4.055080316058347734e+00,2.608638567302556943e+00,4.497679664880056549e+00,1.677827678286511581e+00
-4.707168375839986929e+00,-2.794279766874129933e+00,2.424107455121237709e-01,9.233679141782930033e-01
2.971665202777146408e+00,-5.642709596697547347e+00,-1.185460770548761644e+00,-2.028021045095916186e+00
-2.537338752359375338e+00,1.557444931225532958e+00,1.200293959468569760e+00,3.727339877268216028e+00
4.153636458241583007e+00,4.234301326688660438e+00,1.011411183569774774e+00,-1.746640985507737831e+00
-3.208165619665147017e-01,-3.002578563532401823e+00,3.816958597143973897e+00,-1.627180079870957474e+00
4.925517989397426022e-01,2.714960908303998721e+00,1.950989095681190166e+00,-2.731322936694388748e+00
1.694324900496143593e+00,-6.283407321826595116e-02,1.147472027700110697e+00,-3.231450397243652795e+00
2.049367642232698739e+00,1.834087827923876812e+00,2.272806275881773530e+00,4.732867639993110664e+00
-3.585164308481390449e+00,3.902562809500498275e+00,-4.076466932175931035e+00,1.052211987760340861e+00
-1.707849518508826936e+00,1.012923455315648313e+00,-2.129726828975250008e+00,-3.332989561336172191e+00
5.427944183526497213e+00,-1.521880405952189763e+00,1.699914923111935705e+00,-4.386207025176765306e+00
2.729764748870736391e+00,2.017794383899588428e+00,3.838618562111123733e+00,-1.622358412119788484e+00
1.669704378796849742e+00,-2.356153918988923568e-01,-4.648614355980174473e+00,-3.667299724657184790e+00
-9.866645692920805732e-01,-1.083140938944947146e-01,4.433334359483635190e+00,4.457695806269093453e+00
-1.368936642221467270e+00,4.235561794211046838e+00,2.861922635412902594e+00,4.626551625513990906e+00
-3.684346581549116095e+00,1.692352308200168798e+00,8.395824491446055582e-01,8.318436233777857236e-01
3.401842064237905028e+00,-2.983740152779699617e+00,2.176970118566810553e-01,-5.926277640693973225e+00
5.793213677794382122e+00,-4.057420059821497560e+00,2.029068766058143236e+00,6.614281927846719089e-01
1.953927044666111890e+00,-4.778038406633641766e-01,-5.040434227511178200e+00,-2.152479023654939372e+00
-2.451748295747957940e+00,-9.967386960524394768e-01,-1.006570084527118603e+00,-5.462315391596151315e+00
-5.929529085018609535e+00,-2.426241110590900529e+00,3.423691812499853326e-01,-1.124875190630157507e+00
2.073572996988321648e+00,-1.717401747380420396e+00,4.093121428989094923e+00,4.779158168404605611e+00
-3.709448398412244163e+00,-3.427293080189161234e+00,-2.616472728787892610e+00,4.355792166934741694e+00
-3.864078378716223838e+00,-2.706653710547096470e+00,1.441424948600907197e+00,-7.244541172306283583e-01
-2.946840541394260438e+00,4.630270583549342511e+00,3.294235898588032896e+00,4.384581813946367701e-01
-1.991026300588524700e+00,-3.559775525388623407e+00,2.433147440310960530e+00,4.049420067276822688e-01
-1.124127813257131958e+00,-4.809871354019953138e+00,-2.498315395131982530e+00,3.187047874943043979e+00
2.062388954317169620e+00,-3.975595415498105911e+00,5.276802547651869624e+00,-9.235635705010699636e-01
1.827850684611483700e+00,8.088894909266425293e-02,-1.090118909576864414e+00,-2.512512748635792548e+00
-8.734240063711165014e-01,-4.295524460242126530e+00,-5.208942637145879129e-01,5.993278422975767405e-01
-1.210113404788766944e+00,-4.900668077494266583e+00,2.990383095731540486e+00,-3.146540062997395637e+00
4.048113247029774264e+00,-1.076336455873351694e+00,-4.590012155799274574e+00,8.743876485659626274e-01
-9.681623675698319831e-01,-1.960607623262836885e+00,-2.627279291835025621e+00,-3.392089978245359294e+00
-3.618825430379792429e+00,1.508067144332082110e+00,-5.379021111642608766e+00,-6.704686251969086408e-01
-1.154070753973749364e+00,-1.356796169715114297e-01,-2.643368967807525394e+00,5.058741008041726772e+00
-1.894079137420580761e+00,-3.852053816741082937e+00,-1.405018264793143901e-01,-7.285162353202691010e-01
-9.259969745616891679e-01,5.522857323663528994e+00,-1.219812199574897615e+00,1.248630999207209324e+00
-4.801211078419012956e+00,3.001272304264363200e+00,2.917086135981564521e+00,7.594093898822946720e-01
-2.674529829503201395e+00,4.636259501998700294e+00,-1.851927238715877611e+00,1.930239474719240844e+00
-1.978386750421716744e+00,-4.086655367788065152e-01,-4.435986421724050111e+00,-4.684210254104617110e-01
1.488135273922617241e+00,9.502860911778878705e-01,1.749960568191150978e+00,-6.023397721890988876e+00
-2.404313658989975622e+00,2.419888371257861603e+00,-8.042809140246370836e-01,2.767970066157557696e+00
-1.369571210383716986e+00,3.355386952761175712e-01,-2.515380619697601960e-02,-5.439250465499481102e+00
3.434043197403823466e+00,-2.608965371213586071e+00,3.427433034309584348e-01,5.258577856379052839e+00
-4.711069493109360629e+00,1.364152203873555624e+00,-3.564448990440270304e+00,1.194123731763086643e-01
3.467683744779099353e+00,2.928918730276089288e+00,4.287494510061379493e+00,8.968427590435184005e-01
3.859258300297229827e+00,-1.514146963337793306e+00,-5.957960590212156404e+00,1.658115245189699216e+00
4.230078944417074438e-01,3.123449912877424683e+00,1.312228963763982348e+00,-5.889873980959021260e+00
2.218986701995195432e+00,-1.006203263908045376e+00,-1.389687146131586504e+00,-5.124592990664303294e+00
-7.958182837569917345e-02,2.559014680574787981e+00,-4.262070241267461590e+00,1.409726888776759168e-01
-3.173459714227801598e+00,4.206400419518178779e+00,-3.860269363554977295e-01,4.781111445997481724e+00
-6.642714301077217165e+00,-2.560591854657555011e+00,9.069511379601262746e-01,6.837234945607867376e-01
-3.484046053558811806e+00,4.454079567105380555e+00,2.185819428010602472e+00,1.860387120487342782e+00
4.596921622385718109e+00,-2.101099133851517919e+00,3.203080970663339411e+00,-3.329503520818674289e+00
4.551020580878237354e+00,-4.885896662653140154e+00,9.672929088305909362e-01,3.314574455967704281e-01
-2.475039756781183264e+00,-1.434381988312250611e+00,-4.249362670262597064e+00,3.847644854370213974e+00
-2.372119561371612395e+00,6.807677912021037336e-01,-5.993194568869875560e+00,2.706172416919589097e+00
5.970207693674145499e-01,-1.776032934756226700e+00,-3.296832755071449128e+00,4.712778908789977628e+00
5.706791338536932878e-01,-1.691402023751905404e+00,-4.337247207937899168e-02,3.073020711493278601e+00
-4.390230283610455864e+00,-9.285226474157135534e-01,-2.966851897185596609e+00,-4.021189252535021241e-01
-3.781220485305797130e+00,2.230700410091908559e+00,5.004460841798123560e+00,-4.901286047941247892e-01
-2.172223527618360350e+00,5.172499444589758966e+00,-6.233905986921942644e-01,2.862781034656628698e+00
1.009808197918882433e+00,-6.003142423822216855e+00,-6.415636264720466775e-01,2.552739178769838357e+00
3.534152873291814601e+00,-9.407631284770788804e-01,-2.105466615004413899e+00,-2.885324043464453148e+00
-5.896981580765515929e+00,2.114507021946144594e+00,1.212692355314306081e+00,-1.193797712528846949e-01
3.742991776146990190e+00,2.080981574872183160e+00,4.954661671692976554e+00,3.977297245210654753e-01
2.671821173410078742e+00,-1.587945197155907762e+00,9.228538321622188345e-01,2.962137269694431030e+00
2.870600545705784157e+00,-1.019169228842265351e+00,2.574560494927363496e+00,-6.246167290453370491e+00
-3.256161340752078193e+00,3.354676919482788566e+00,3.315627987080831840e+00,-2.619687832910023495e+00
-4.460282643271652248e+00,2.537730076987787076e+00,-3.077147816944261760e-01,1.393084359260777116e+00
4.406506716480199093e-01,-2.334395522682984669e+00,-4.117585032440502779e+00,-2.220444457541497219e+00
-2.656123137253667998e+00,3.032602327138335330e+00,4.173865279409796791e+00,-3.071801490969631176e-01
2.829140811527603550e+00,2.343519735630818168e+00,3.929765001637798072e+00,8.724596997544367127e-01
4.969194752043867069e+00,-1.367170246810835099e+00,-6.710525264192565009e-01,-3.610393475402978058e+00
2.031546536460054675e+00,2.213125447724157091e+00,-6.124966674527911881e-01,-1.070626309782520380e+00
-2.954504216466064648e+00,2.197825634859894350e+00,-4.191165546380315909e+00,-1.212758019912634211e+00
-3.192773812796590782e+00,2.610912844605771888e+00,2.109167110420480107e+00,-3.542981150406045998e-01
-2.003689550442254941e+00,-2.673487900840622600e-01,-6.996084773944970525e-01,3.484659505231406218e+00
-3.830194516484403344e+00,-4.205513396196027265e-01,5.266143271630551403e+00,-2.201653315881529238e+00
-4.647172664437153600e+00,3.451481194992827461e+00,6.357605137837114562e-01,1.643804599789331078e-01
-6.382287655194351927e+00,-2.021008084763557533e-01,-2.002176204698354223e+00,-2.630562954239083151e+00
-2.119942931867125235e+00,-4.069257769808765524e+00,-2.641607239714872879e+00,-2.839235124658152198e+00
-1.081985214803858009e+00,4.098450255652494434e+00,-4.026979496465465935e+00,-1.814366198709641775e+00
-3.671143816446883479e-01,4.567016220569430018e+00,2.565606835281748044e+00,5.222586918973984638e+00
4.067866858350976500e+00,-7.428215140906078151e-01,2.074232482873574757e+00,-5.270657529528802065e+00
1.528992184854611192e-01,2.859010490043966346e+00,9.107410046094236433e-01,3.418077426867014434e+00
-1.776871587659472951e+00,1.636391025003742339e+00,-2.284866933909005304e+00,3.863637424134432674e+00
5.204881884300542438e+00,-1.871876556626611343e+00,1.243841238507828351e+00,9.633918667256993196e-01
1.398252345884309022e+00,5.325298966596085926e+00,-3.320613737899279716e+00,8.664872874357596455e-01
-2.742315100369320437e-03,-5.351464403232825795e+00,1.742991339342864210e+00,7.338570169266267484e-01
3.782687679833802274e+00,1.569509031773910435e+00,3.012561005543602732e+00,3.295351816926653576e+00
-3.263977405053962944e+00,-1.644349557818077345e+00,2.907389238615703420e+00,-5.579202531816608968e+00
-3.712769946618801886e-01,2.690651601541639959e+00,2.640701255979499784e+00,-4.832745934265605392e+00
-2.027275041623588514e+00,3.616923976824717446e+00,4.242302055372285885e+00,2.198615109870054596e+00
-2.952900609319006442e+00,3.825097744395924981e-01,-2.823970394218696667e-01,7.785396110882143450e-01
5.575768958884702586e-01,4.959882662589537361e+00,4.282036206690268187e+00,-2.589213351139213248e+00
3.443553287935263718e-02,-1.134240109916936579e+00,-1.172800132382610716e+00,-5.501104120415596377e+00
