-1.395759591711407621e+00,-6.044133202116508841e+00,-2.809236683141512092e+00
-2.375821467609029458e+00,6.325213976414659101e+00,4.073738873850862419e+00
-7.821873789680101829e+00,5.004507622279004142e-01,-3.152735371178855495e+00
-3.892312424932130810e+00,-5.810224794683195526e+00,-2.369643717383464576e+00
9.122896782943292759e-01,-5.308243926465054940e+00,-4.351599699947279909e+00
-4.434474944479463332e+00,-7.524530524082450045e-01,-3.702005964022856421e+00
-4.883793365274785359e+00,-5.803518713486581326e+00,-4.553751987608778862e+00
-9.397569459098914502e-01,-4.542059413383336519e+00,-5.611707626732099996e+00
-1.277069239514217136e+00,-3.381024518455378214e+00,-4.336186630754693461e+00
-3.579249177145717553e+00,3.487509626104335680e+00,8.962706686995806082e-01
-6.690572233122604295e+00,4.750396868858095090e+00,3.480815303611703992e+00
4.098548984122986627e-01,-5.858814216234740968e+00,-4.820506019913099571e+00
-2.627068650278532314e+00,-2.309697086082339812e+00,-3.622123292250914339e+00
-4.195908675749488559e+00,3.180994389023109381e+00,4.470267692754726241e+00
-4.601444620137778330e+00,-2.398008584153735523e+00,-2.073032803838183724e-01
-5.220676899527748382e+00,-1.209487413613149487e+00,-4.546795289630402692e+00
-3.689750681335195903e+00,-4.288838660816105985e+00,-1.211552609718477225e+00
-6.979149722845640724e+00,-4.707044387883282610e+00,-2.889656796840630371e+00
-4.564543891192485603e+00,-4.623374049623465432e+00,-1.167487944866971938e+00
-4.452449346818999842e+00,-1.698987968567662987e+00,7.152753491389460261e-02
-8.575449012112562386e+00,2.693581787755261914e+00,-1.748548987828333900e-01
-3.837309939300907136e+00,-3.617045680374476380e+00,-1.055105742658613899e+00
-4.247973826047258150e+00,-3.691917550972901307e-01,-2.602066767271673076e+00
-4.869393946192808187e+00,-6.084596648144988684e+00,-3.865180207025955550e+00
-7.153625291809492914e+00,2.701847403717058338e+00,-1.397625196916944645e+00
-4.509744651257364012e+00,-1.016411712570004955e+00,2.459590024292978849e-01
-1.775218582655022637e+00,-4.002758760129646376e+00,-5.592633907764386514e+00
-1.917687319080767727e+00,4.502569655141815730e+00,2.737060788422733815e+00
-8.967801940357436052e+00,5.718554410303043900e-01,1.130337535277787797e+00
-8.147064420774851046e-01,-3.620201533776096881e+00,-3.855061976000418333e+00
-3.249713747821068477e+00,5.413698030991667132e+00,1.779450424331074032e+00
-3.772358439085518711e+00,-1.837405356913164978e+00,-1.191793294724234675e+00
-4.021494945493361506e+00,2.570613758493565548e+00,3.759790031355404683e+00
-2.718415166847635511e+00,-6.051362076280256908e+00,-2.655140763307549001e+00
-4.869132413670410386e+00,-2.336592300674520395e+00,-5.199226554852091731e+00
-2.965631134562267235e+00,6.264033917723007328e+00,4.249755630348851732e+00
-3.798290632842752590e+00,-5.765170406568671524e+00,-2.164937584967023376e+00
-1.327623543963448505e+00,-5.804641549064740502e+00,-5.537878790594501055e+00
-5.201485883126522047e+00,-4.164287777437847282e+00,-5.408929937395091869e+00
-4.980574851925169355e+00,-5.335622655299903094e+00,-5.165963702548810765e+00
-4.709203614997706566e+00,1.113083204106307234e+00,-1.723053604794919869e+00
-5.285303084258473838e+00,-7.464379108970407850e-02,1.988287940759537520e+00
-2.030338265190587244e+00,6.001244842619662734e+00,2.813278453125642287e+00
-5.191166720051500150e+00,3.016827684836146606e+00,-8.870027074575251858e-01
-5.312464262664144066e+00,3.340791511514692669e+00,-8.156353971928806956e-01
-4.598013782514482450e+00,4.477756362911833321e+00,4.868409918485975041e+00
-7.466970750582605731e+00,-8.563367800859112977e-01,1.699200207539246499e+00
-4.140150013064769041e+00,-7.931723921440528291e-02,-2.179461117702871320e+00
-4.272374160115516517e+00,-1.163516552804337023e-01,4.698783045047847384e-01
-2.918869702206860595e+00,3.293867061256387174e+00,3.810327961166615207e+00
-4.339818335428287099e+00,3.543500086641875324e-01,-1.336744019609335199e+00
-6.723759867029158954e+00,4.650477887465516602e+00,3.517392316161762178e+00
-6.764621980059621009e+00,1.642430268938749771e+00,3.618047207921603281e+00
4.938933037799521641e-01,-5.771614898804234173e+00,-4.654572370598956788e+00
-7.583740934011420798e+00,-3.249327249736077672e+00,-4.131241485888504927e-01
-6.343748287694398469e-01,-4.123521786698340463e+00,-5.092508424417340862e+00
-7.055305392087193317e-01,-4.357456140486221763e+00,-5.270933182943665862e+00
-6.908944692585909486e+00,2.225678027632743972e-01,2.645843828319108137e+00
-4.327101265365024041e+00,-3.475516169292859558e+00,-5.730126721239479082e+00
-6.575982050903555809e+00,4.370336509937526315e-01,-3.438850728805314727e+00
-4.367882507196278574e+00,-2.597344580938257153e+00,-5.273694095463263842e+00
-2.117219188119352502e+00,-5.773539049976428750e+00,-2.641084298121650686e+00
-5.580831849442940751e+00,7.222314406337937420e-01,-3.181159466815959735e+00
-8.339188931560510554e+00,3.410222677212939146e+00,-5.254643030658365938e-02
-3.363578758644153233e+00,2.683681346836666481e+00,1.935986304269111447e+00
9.669624855660031992e-02,-5.757361444428132025e+00,-5.232365338219227446e+00
-3.202336836969239986e+00,-2.428177100841829361e+00,-1.969860842590433814e+00
-1.743277431439533620e+00,4.018621915350491847e+00,3.825283934986516865e+00
-1.038950238974391649e+00,5.390174900847762629e+00,3.783184053163499705e+00
-2.660018303744931423e+00,4.431118628890318156e+00,1.782833312235174716e+00
-2.288622054684641416e+00,-5.801801381749458031e+00,-2.329009527828736825e+00
-8.375480357545423971e+00,-2.274382342867038442e+00,-3.217499519628972404e+00
-8.144344567565626747e+00,2.375085105225730686e+00,-1.460440638083428277e+00
-1.602364154716408473e+00,4.191164404596253057e+00,3.538455475407225492e+00
-2.871119837165219124e+00,4.615769813159319668e+00,1.810901143507245292e+00
-3.037755154573418714e+00,3.366991064857632221e+00,4.089991329408153575e+00
-3.135810863576221408e+00,5.202831392619271966e+00,1.650041938988255907e+00
1.841620580222527032e-02,-6.188400053018436431e+00,-3.495919854505214808e+00
-5.189010093302434790e+00,9.796807844816520783e-01,-2.629002541150363026e+00
-6.663358039980818326e+00,-2.596536434358523326e+00,5.439716083296460836e-01
-8.307181713694824055e+00,-2.014086237937668500e+00,-3.232009117834873990e+00
-4.134999111154859186e+00,-1.763606621772421390e-01,-1.226504677895014828e+00
-4.169343884306589310e+00,-5.362482470805958634e+00,-1.882586296607214660e+00
-6.246076714484431136e+00,3.022667818738285384e+00,-1.448766347604620197e+00
-3.957745638365877117e+00,-5.300226756588272137e-01,-1.904751182906834206e+00
-4.847594811212074362e+00,2.694778186719173352e+00,-8.922157329108414414e-01
-2.391051488812447889e+00,-6.630876429755496737e+00,-3.739419813833289918e+00
-4.170328792635890736e+00,1.100121826616548670e+00,1.646340363816211627e-01
-1.671490609879823008e+00,4.524930237761478402e+00,4.640484744496149005e+00
-3.277554705205600438e+00,-4.410211340765237686e+00,-5.766616852871081278e+00
-2.534288784417951579e+00,-3.207335927770647022e+00,-5.350125480402394551e+00
-1.425165386603759021e+00,5.200681965633409121e+00,2.938207538452449974e+00
-2.491219247043961360e+00,3.464370383463528213e+00,2.811768894813231778e+00
-1.805244980422701762e+00,-6.144605646001429555e+00,-2.875050983856970888e+00
-1.368206457924782349e+00,-5.214818879037250277e+00,-2.504834665571485264e+00
-3.895741997475183904e+00,-1.658697641882399543e+00,-1.247579459013553160e+00
-3.789066345995087737e+00,3.337523817006672555e+00,7.276737533542964043e-01
-1.190059966841949812e+00,-3.958013766352828089e+00,-5.272103995042926705e+00
-1.967575199462030522e+00,3.867622895320033560e+00,3.348192786083406425e+00
-8.321095153112931797e+00,-2.019465423057198450e+00,1.465863651179366289e-01
-3.104893958282546329e+00,-5.528744749754095800e+00,-5.583852891038325161e+00
-7.804208782026640812e+00,-3.702635223080690263e+00,-2.878334124579021491e+00
-2.460647935928963026e+00,5.790233562769646625e+00,2.474051263855699734e+00
-1.377542807725816498e+00,-3.420430523036236181e+00,-3.592164404206993567e+00
-7.358900964498912955e+00,2.948349021792445956e+00,-1.352896259939248003e+00
-4.914848003674750387e+00,-1.173675337952099662e+00,6.862120333168488795e-01
-6.326383281354359234e+00,4.367339319527118846e+00,-1.401438346579357841e-01
-3.858927393111192039e+00,-5.303668255384397234e+00,-5.652788550109987042e+00
-1.432142581358114342e+00,5.902535890688145770e+00,4.496740066142068670e+00
-1.255750438699416938e+00,-4.197166620326855835e+00,-2.712519313701676982e+00
-8.550092760194003105e+00,-2.664474411784782060e+00,-1.830646316733475665e+00
-5.096294208063546272e+00,5.907815049469093971e+00,3.453368317344529537e+00
-6.313390941730180117e+00,1.971317553831847702e+00,3.721077589746911940e+00
7.295083100249285524e-01,-5.809947465141533485e+00,-3.823031816042231412e+00
-8.229807484393697692e+00,3.425559499918910511e+00,1.669775088918038497e+00
-5.845549198117397260e+00,-1.907304251368276526e+00,9.785461141854925327e-01
-4.824535793558443864e+00,-5.917821506169155477e+00,-3.893555452270450967e+00
-5.249350051621004987e+00,-5.443896506116605138e+00,-4.849672900943838627e+00
-4.898841413199954253e+00,3.127487768250464040e+00,-7.430326111301652769e-01
-4.938571094515213034e+00,2.258343573476013333e+00,4.087891082878167381e+00
-5.728003819039285682e-01,-6.657859331488636734e+00,-4.139726960260397881e+00
-3.884044577144534660e+00,-7.267236838786028663e-01,-2.386054091063613658e+00
-4.431582995365427102e+00,9.519182613364242096e-01,-1.159425478120846620e+00
-2.595599149318127630e+00,3.262782612408412053e+00,3.696245133252328507e+00
-7.612426852216588102e+00,2.794278318623256485e+00,-1.513661097565067282e+00
-2.266511110136624207e+00,-5.804518406842507972e+00,-2.525271722307260269e+00
-5.341731839089106870e+00,-4.863915721997750907e+00,-5.273065797740568605e+00
-1.748550321405911268e+00,-6.672227255375525523e+00,-4.496026757220803027e+00
-4.902432644602131795e+00,3.848766985263694096e+00,4.712614036436625575e+00
-1.554268446868004583e+00,4.397285403416269389e+00,4.376672745453109137e+00
-3.226837871107379296e+00,-3.719065005440734595e+00,-1.550258606622678670e+00
-3.996536935086958842e+00,2.178124037303914129e+00,4.466970942358616803e-01
-7.265907352807103869e+00,-3.863663960896860372e-01,-3.835269501489634969e+00
8.205084411371046382e-01,-5.308632151667206145e+00,-3.793202066063940059e+00
-5.669330471805187344e+00,-2.561201981278552697e+00,-5.201500611637441374e+00
-2.145008493855118381e+00,4.133035677132513186e+00,2.676584264602232199e+00
-4.796253517270469224e+00,-6.783622659719530379e-01,9.005362361762915269e-01
-1.746378587256100179e+00,4.551338810594332429e+00,4.674739447398412295e+00
-1.982650916557543441e+00,4.255055883699827568e+00,4.336588758904637686e+00
-5.237264479911102555e+00,-2.812273563823137201e-01,-3.800513890261507655e+00
-3.605535299911998504e+00,-2.494074001036911348e+00,-4.980062081690449283e+00
-7.857133528997382044e+00,3.970369357034009283e+00,5.325372097857217213e-01
-5.907645050037915624e+00,-2.541488107752909009e+00,4.165528884176638025e-01
-4.623151651639417103e+00,6.102592620980248128e+00,3.428383642036455292e+00
-1.688195403387739102e+00,4.191366158078849935e+00,3.645526204378569446e+00
-5.902547034536334891e+00,1.321704574797328391e+00,3.419994729875238448e+00
-3.965965458809233901e+00,-2.744648605527244101e+00,-5.346569544557958409e+00
-3.345725229235172016e+00,3.143058236385024795e+00,4.155363812067141005e+00
-7.947364240531363144e+00,-3.170364827996208223e-01,-3.423353837473268158e+00
-2.714539289031069558e+00,3.587757450845422635e+00,4.439321533369434469e+00
-1.255415436369561544e+00,5.833155218641182138e+00,3.976581241622062279e+00
-7.595601870358670737e+00,-3.670357597239366054e+00,-1.012113982579530447e+00
-3.588046854098353666e+00,5.324686048313991726e+00,1.528384119359140314e+00
-7.741965328651575717e+00,1.331503220722789704e+00,2.847363022941691746e+00
-5.138789160115640797e+00,8.099705157617355100e-01,-2.376149370845256126e+00
-2.033936222025001239e+00,-4.417387601514538353e+00,-2.364560337282603175e+00
-1.286165621531556225e+00,4.495060504541195101e+00,3.466978210994066778e+00
-3.300978213970819364e-01,-3.975504303171141451e+00,-4.202306661154413092e+00
-8.078625528171558656e+00,2.927714431396134298e+00,-7.676359679774136247e-01
-1.893364357964444578e+00,4.005300019203171580e+00,4.193874741772610548e+00
-4.548155460489276436e+00,-2.731376751706786177e+00,-5.514634850958501922e+00
-5.911546956522971463e+00,-3.808796752316666812e+00,-5.244753714200742323e+00
-2.440738215477655348e+00,-5.045337691079085474e+00,-5.749363010804704466e+00
-8.496147116752817752e+00,2.701183977892541499e+00,-7.562930702864437693e-01
-2.056358968688886346e+00,-3.143050938346913625e+00,-2.727115103822512765e+00
-4.238594575397323538e+00,1.240927424416906621e+00,8.275914762083462772e-01
-8.946968470371521320e+00,1.273109751641089860e+00,-1.261530332023322210e+00
-4.994054320408031877e+00,5.360032255780711630e+00,1.023796057123300463e+00
-2.558049425872436444e+00,-6.088067783828884139e+00,-5.365004266894348284e+00
-4.518381144292170859e+00,-4.912158427379605397e-01,5.508311205355903573e-01
-2.421918599597771227e+00,4.409787628138277071e+00,2.019512183804575312e+00
-3.543723998642528961e-01,-6.493273007218947512e+00,-3.728901463883899758e+00
-5.573609497793645673e+00,-5.189725662284139229e-01,1.772752759594123262e+00
-3.513350880658049902e-01,-6.316488520206021917e+00,-3.582030941207285490e+00
-5.774139139791723885e+00,5.079623378058099048e-01,2.656171468760822663e+00
-6.545456643358035009e+00,-3.013865341153133315e+00,-4.955782068866897205e+00
-4.218160240722373722e+00,5.983370217147143677e-01,3.309062031252880676e-01
-5.241902116053837268e+00,4.509952655326023852e+00,2.327949098133436645e-01
-1.198700063933269555e-01,-4.164663011260028469e+00,-3.902327568216759968e+00
7.057475929541956461e-01,-5.512193662895533031e+00,-4.710254716498018190e+00
-5.445872267321867355e+00,5.282041709087809345e+00,1.024808879482653312e+00
-8.317300798455805833e+00,-8.898815347680855137e-01,1.288683228107466716e+00
5.455777365523192257e-01,-5.778264782785734965e+00,-3.548914971674075325e+00
-3.724282893991811783e+00,-1.311627445246603685e+00,-3.297229161315509138e+00
-8.152550583546528173e+00,-2.987546465828363029e+00,-5.369040909974074349e-01
4.872064226350336646e-01,-5.129778472551469903e+00,-5.022472359541827025e+00
-3.012912278924073095e-01,-4.053399262940769354e+00,-3.718931997589398630e+00
-4.379919682686842286e+00,-5.021346428362545744e+00,-5.485497315553734765e+00
-4.505600717255921595e+00,-6.070606273376385253e+00,-2.899860663673590633e+00
-5.927928581116350237e+00,-5.542519523838932649e+00,-3.113464101109669535e+00
-4.406900304818533343e+00,4.877948372514344655e+00,4.960951726662029770e+00
-5.198871481571383235e-01,-6.140685343057910472e+00,-3.300422742126172260e+00
-7.820897493123137423e+00,-2.234427761701684556e+00,-3.839130398467954564e+00
-4.525507055878226659e+00,3.163781659626138776e+00,-1.897879368499258701e-01
-4.678891310863284581e+00,6.016381315058173307e+00,2.930245174245109219e+00
-2.865625335034654775e+00,-5.960619240009600084e+00,-2.596368834455845320e+00
5.623075021565934195e-01,-5.268976236724721929e+00,-3.296132985209234256e+00
-1.399501457594581000e+00,5.494470470974061271e+00,3.157302062385801467e+00
-7.222665778045384677e+00,1.676448750924081743e+00,3.263964377442266418e+00
-6.657911878506368453e+00,4.087203966053666093e+00,-3.074027834568168749e-01
-8.838159588611000927e+00,1.384634001819674332e+00,1.625771848313983803e+00
-6.506472120181164165e+00,-9.201791300866309087e-02,2.474559627082344448e+00
-3.790671808787214214e+00,-1.749560313142550783e+00,-4.232600139140801687e+00
-7.507144316278489882e+00,-5.385590801744382095e-01,-3.897350898938265029e+00
-2.448072091783966897e+00,3.994596340885954167e+00,2.084861450173011832e+00
-3.704737869321394594e+00,-1.348224885968513753e+00,-2.800815017118008399e+00
-6.921398785196891668e-01,-4.922236390948842910e+00,-2.731135622738356084e+00
-6.859263543642255101e+00,-7.204407003472645911e-04,2.487647668532829037e+00
-1.119456187759034327e+00,-6.474759236627305015e+00,-3.382988169348316809e+00
-4.999486446086990554e+00,5.115569340837045065e-02,-3.170136120600389074e+00
-2.832201865749339298e+00,5.035489663479311595e+00,1.829019003720265824e+00
-3.510468633194509636e+00,2.958877229739054648e+00,1.437071485908183233e+00
-2.835800506464774884e+00,-6.117933048223346937e+00,-5.383535197202232503e+00
-9.015768211353133665e+00,3.934904741759605029e-01,-1.501047794277191594e+00
-4.435870287419190205e+00,-1.190137572919428344e+00,2.432822939741089048e-03
-4.486364102292196065e+00,-1.505200215650622786e+00,-4.453311601786836604e+00
-4.170593421758596264e+00,-6.066812618220758679e+00,-2.583080036725491802e+00
-1.118864615529516326e+00,5.520405090384557845e+00,4.216953026087820078e+00
-7.089040295211360920e+00,-3.315888006557055623e-01,2.178730590229425168e+00
4.910157755649207645e-01,-4.969404050721684563e+00,-3.430889026029765532e+00
-1.550764431946746402e+00,5.632755250452309070e+00,4.545480527723697151e+00
-5.588531365318457844e+00,1.277339270478533573e+00,-2.744707031935878838e+00
-6.896554447290978551e+00,2.639474524496554508e+00,-1.707462771142922886e+00
-4.610787019799570174e+00,4.647426981013481062e-01,1.553537496257101802e+00
-7.330027706037371971e+00,-3.098730582015425949e-01,2.082766850152117488e+00
-7.931520339616795923e+00,3.967977146100525765e+00,1.443756419174173189e+00
-7.026651071647192381e+00,1.332799070173141739e-02,2.405808282080827532e+00
-2.160312599260090671e+00,-5.912459666446743256e+00,-2.477610194800998755e+00
-4.162558166170176932e+00,1.281062977147659820e+00,2.546914609083733017e-01
-4.716828944631487275e+00,5.488016737039425941e+00,1.154443733371510517e+00
-5.614842736038150761e+00,1.804927843684862809e+00,-2.099400944649910006e+00
-4.234899289923033550e+00,-3.069894216134479992e-01,-1.598839131020154403e+00
5.212901673677999836e-01,-6.007019957154959400e+00,-4.160630770600044492e+00
-4.372148710291616780e+00,1.241161052116176444e+00,-8.498398164783399489e-01
-3.159526270301445283e+00,3.748689767433857956e+00,4.687995826433368762e+00
-4.149089178488265084e+00,-7.884045880355765590e-01,-8.896106769231898470e-01
-5.006606665886597085e+00,8.540819382316526820e-01,-2.470258365543619217e+00
-5.291942412776352356e+00,-4.443868756815593457e+00,-9.158888551401367373e-01
-2.262089028051426975e+00,-3.136731164459189092e+00,-5.002872520548916846e+00
-5.030824325974033506e+00,-1.345281927117774723e+00,7.603071305696436077e-01
-4.447887055577386839e+00,6.247866465316179507e+00,3.502070193943322529e+00
-3.685400026302390497e+00,-2.261981306471713360e+00,-1.382598047085774384e+00
-5.680113040369359823e+00,-3.781838437020398569e+00,-6.189244772197558531e-01
-4.907665825523049308e-01,-5.817893006715307180e+00,-5.289758762167739548e+00
-9.058555880713814901e+00,1.231037884681204231e+00,1.105754365338713185e+00
-4.407092470389963879e+00,-5.438618451810969034e+00,-5.428106904273299449e+00
-5.043251611692264547e+00,1.027093911274607363e+00,-2.413375248407872764e+00
-1.328955790042723351e+00,5.889998128897081742e+00,3.651836670120411465e+00
-2.506835123010952682e+00,3.990715418412536852e+00,2.234381528873584433e+00
-4.594054853816936124e+00,4.438063024749193453e+00,4.781544814036210234e+00
-7.179609094761922883e+00,4.754401580313456499e+00,1.363876193899768996e+00
-1.824604600960229028e+00,-6.042895591699257274e+00,-2.674928086255093707e+00
-4.331739580707457016e+00,-1.621491904220176750e+00,-4.473694612610831456e+00
-1.655248301822479950e+00,4.322704630847484353e+00,3.382359187993996485e+00
-9.098462794611107185e+00,-8.626084687572143084e-01,-1.307643058871899022e+00
-5.050620194961352283e+00,-2.450551603779977494e+00,-5.192880943412022887e+00
-8.681433083306139276e-01,-5.453454713533812281e+00,-2.620630245649334000e+00
-4.097276107233802200e+00,-1.214429302806853128e+00,-5.637378989204890889e-01
-8.572879126504137304e+00,3.227470528681027351e-01,1.377816160212026242e+00
-6.588913057859249633e+00,3.597992736786955081e+00,3.951460782381827741e+00
-2.200365598354248942e+00,-3.117365583137789553e+00,-4.916964765035475082e+00
-7.362075862866306331e+00,1.700079562984345705e+00,-2.352915028789888119e+00
-2.505739694130231676e+00,-3.224515024932673946e+00,-5.180788433198021181e+00
-7.139158877416194038e+00,-6.354686817273206279e-01,1.914625522331323992e+00
-6.686476444803947317e+00,2.358822995636284059e+00,-2.066606591926128722e+00
-4.607976212192204102e+00,-1.700623761753121022e+00,-4.931144035755774979e+00
-4.945537103058467387e+00,2.720096087983461253e+00,-9.425480228918673431e-01
-1.439903953403822712e+00,4.632757885416383559e+00,3.312524244564494236e+00
-3.685880456863610100e+00,2.797251348467929777e+00,3.966534323466419210e+00
-6.643096674208971208e+00,-4.141755038168208891e+00,-4.400790059444739555e+00
-3.918237564039928511e+00,-2.249627642638000857e+00,-8.995465218264607765e-01
-4.297359175597743608e+00,-2.024584583844949923e-02,-8.353149492181103364e-01
-4.992169428072663173e+00,3.722153886420662694e-01,-2.933268514730803744e+00
-5.599221242662887121e+00,4.946609755126555541e+00,4.371321177193278729e+00
-4.382216335050991063e+00,-6.206766245951673255e+00,-4.456387759596372788e+00
-2.700377407293318655e+00,-5.183777192874578610e+00,-1.975965585796975343e+00
-3.575847453658139052e+00,2.784453964569771234e+00,3.747003799921782008e+00
-2.600409185248345523e+00,-3.119581697769308271e+00,-5.160548496545273700e+00
-2.491170557120694351e+00,-2.922713297946763600e+00,-2.702047420149223278e+00
-1.843256167320565853e+00,3.846387769112662891e+00,3.325689447453445524e+00
-8.229367249802619355e+00,2.801121792017104539e+00,2.483619435087087268e+00
-4.288209684808657052e+00,-6.202214818747342484e+00,-3.263743713090509591e+00
-2.780881735572353630e+00,6.193755552267871778e+00,4.393597864304410017e+00
-2.533313971198632331e+00,4.248147409163370192e+00,2.153519901580529528e+00
-3.861743112045534776e+00,2.744819235189676299e+00,5.439831606355258753e-01
-4.094648609622359103e+00,-1.201477923463728947e+00,-3.992925823023080856e+00
-3.141436476907767616e+00,-6.260101030481974860e+00,-2.682887979638538312e+00
-6.113340369593938561e+00,-9.974597075332956031e-01,-4.503830441556265995e+00
-6.392793471240399761e+00,-5.193983930603341292e+00,-2.423473825861385933e+00
-7.924647788230283929e+00,-3.672409679182332187e+00,-2.850879587255120473e+00
-7.711130956510486634e+00,-7.250163331582084592e-01,-3.724533729153080230e+00
-4.526547292546724499e+00,2.225271684458766774e+00,-6.084679345860954935e-01
-9.117179896320358523e+00,8.399194120320867540e-01,-1.162723118107838571e+00
-6.514478044027289805e+00,-2.100440293519545421e+00,-4.846628525496008422e+00
-3.398036872237903072e+00,-5.263225758122789699e+00,-1.798424391955018464e+00
-6.880265237162304537e+00,3.063537093284620094e-01,2.624092587457065306e+00
-3.576930825358558774e+00,-1.461324408103711558e+00,-1.800860920967456869e+00
-3.728654532139091593e+00,-1.210337679819710743e+00,-3.430023612599338634e+00
-1.792375160754094976e+00,5.181047030316094038e+00,2.657270396766739928e+00
-1.542447687867752659e+00,6.070999308370782721e+00,4.355273019514648958e+00
-1.506685065612725638e-01,-4.355985733327289111e+00,-3.554443503212868283e+00
-4.092141960179280780e+00,1.523111910917306133e+00,2.496938310045574205e+00
-6.844779103169999601e+00,-4.663827519119472242e+00,-1.755704191698969296e+00
-3.321269897718446273e+00,2.698954778501271967e+00,3.440327071116429547e+00
-4.341651255247459318e+00,-1.907499490023550903e+00,-4.779803650086899558e-01
-1.078802379875219319e+00,5.544364912964062420e+00,4.035646221300369874e+00
-8.456793276949266414e+00,-2.319798013995727270e+00,-2.624089640665692169e+00
-6.613556169997029777e+00,9.652517921153831448e-01,-3.096727810326582286e+00
-6.220901426551765923e+00,-5.185435449212651093e+00,-3.792082169233484290e+00
-3.899501270436434464e+00,2.074020958676560333e+00,6.104212208337055356e-01
-3.801344032892799429e+00,2.019379234416118329e+00,2.033691603846374374e+00
-1.098733064781199031e+00,5.612203903036725450e+00,3.580332808223086083e+00
-5.099616830029405357e+00,4.787810034465410092e-01,2.178919905854033168e+00
-2.328480131924554719e+00,-6.515011587860870534e+00,-3.039331363304528910e+00
-4.271185788591346899e+00,3.197444150477423364e+00,-6.562255421990281778e-02
-2.789634964631315217e+00,-2.619310119170891404e+00,-4.508874982117115238e+00
-4.626623396709654834e+00,3.970952135313092768e-01,1.600634123367132844e+00
-4.216529892675427327e+00,6.063486064321997659e+00,2.136813815566760422e+00
-5.859099787722297670e+00,3.733927064454912959e+00,-6.750039916162583475e-01
-2.670320200149234324e-01,-4.163330843642456536e+00,-4.791711220389807124e+00
1.327587218941772840e-01,-5.563345488248574000e+00,-5.300076479313541533e+00
-2.016937628821767969e+00,-2.951360041711364790e+00,-4.760959302639196089e+00
7.458061323378024909e-02,-5.888098224417801063e+00,-3.331444240856277439e+00
-1.855646712617713412e+00,4.823459062446538326e+00,4.907274755077969175e+00
1.909698955831231129e-02,-5.003907954047486228e+00,-3.160093604933269518e+00
-6.742218621334664874e+00,2.585080881488854843e+00,3.712499226872933544e+00
-3.612347715674016690e+00,-1.801305959227855080e+00,-1.339628491569203383e+00
-4.486934158537629891e+00,2.397109444621291274e+00,3.751670094159191837e+00
-5.619544381879070016e+00,-5.006140182015823115e+00,-1.586382958234819229e+00
7.502478678703442538e-01,-4.948761004487198356e+00,-4.571282620820228182e+00
-2.342651093621351599e+00,-2.673714805787592574e+00,-3.079153269217598243e+00
-6.297168413899157713e+00,3.310897424531370259e+00,4.213351875837590299e+00
-2.611642703005951915e+00,3.196157019432789959e+00,3.062146039639466633e+00
-6.908977684524646445e-01,-4.623100157462004312e+00,-5.491840521152240306e+00
-1.195880467861849539e+00,4.661816975440002508e+00,3.591676433496547638e+00
-5.086637225848694044e+00,-2.444434396300750212e+00,-5.146289069888569934e+00
-3.631511756543903680e+00,5.810537348711003247e+00,1.891127407284502793e+00
-3.665851793815448012e+00,3.461526916454702008e+00,4.630584836747632771e+00
-5.994800434035834513e+00,2.391015549663067397e+00,-1.836467666057430170e+00
-6.082506473825091575e+00,-4.244193310347078807e+00,-4.928758891083365512e+00
-3.114973030217280225e+00,-2.172742833143296526e+00,-2.399687221285476735e+00
-4.661241588030659244e+00,9.782312394256286181e-01,2.464630091641898613e+00
-8.784796172219058619e+00,-2.369196941640502985e+00,-1.714828117740430757e+00
-6.786180527641857196e+00,-1.313647043409599258e+00,1.504527786932015498e+00
-3.779832856613375647e+00,6.111407490944031018e+00,4.147368209304884701e+00
-5.675444104750639873e+00,-7.834032813167350895e-01,-4.159424896504420488e+00
-5.039918469550289104e-02,-4.734841254449084325e+00,-3.177196305109213359e+00
-8.209215332877235483e+00,-1.765238802127650830e+00,5.747869506140804718e-01
-4.064524914996491489e+00,-1.163466376571393068e+00,-3.950969668116124822e+00
-4.030603294693778871e+00,-2.422100904573807334e+00,-6.893660157394498889e-01
-4.584166913387676345e+00,4.455350877987547809e-01,-2.422617833237241669e+00
-5.354940793399543431e+00,-2.648674351505764690e+00,2.890376695260848394e-01
-2.608873601895334016e+00,-5.701383127688677277e+00,-5.683080551788233237e+00
-5.665867795121280359e+00,-4.733629438736251416e+00,-1.095370785678462466e+00
-8.761835953221938311e+00,2.036005011087410832e+00,1.612252192072187285e+00
-6.119654849233255867e+00,4.538303756842591241e+00,3.906100968246546845e+00
2.031066667179281249e-01,-4.252567485717880125e+00,-4.100597421146462196e+00
-4.586006387818350127e+00,3.947414198201201430e+00,6.050176867280734894e-02
-7.319318194816383460e+00,1.668634193492488788e-02,2.356978471937168695e+00
4.666383532302658121e-01,-6.139452495177152080e+00,-4.219847226620631275e+00
-4.989806393574234278e+00,-2.851305809098465538e-01,-3.571397666104265678e+00
-6.405270524006437149e+00,-3.635683650202303774e+00,-4.863074183019185703e+00
-2.173395186389281086e+00,3.773001439566895598e+00,3.408608022638903279e+00
-4.768526472146271011e+00,-6.267718163835614975e-01,7.895381114398201117e-01
-1.373219276332220407e+00,-4.397533637849581289e+00,-2.501765517466736366e+00
-4.121249658840419272e+00,3.968505991516204090e-01,-2.533074989758995685e-02
-1.184757418206932922e+00,4.547364048534432435e+00,3.665841374110798245e+00
-2.616239640878077921e+00,-2.577319386848680338e+00,-2.639407754060290934e+00
-2.655068044180191933e+00,6.139991939211070004e+00,2.645639132202633803e+00
-8.840846182365812211e+00,-1.040373968448364383e+00,-2.640440639548440327e+00
-6.273161177408390188e+00,-1.614977905650850865e+00,-4.807791699055558254e+00
-5.335995518036454222e+00,2.236256881449178557e+00,4.011866951533750836e+00
-6.678442298871178018e+00,-1.842280054109498799e+00,9.174148605424061742e-01
-3.187552097205180068e+00,5.595770855906575747e+00,4.824180913021817396e+00
-3.344721509269342086e+00,-2.469739571401201594e+00,-4.853024284330157201e+00
-9.239218591282501336e+00,1.590523912427946607e-01,-1.332907989890846689e+00
-2.666868533713974365e+00,-2.667399784530294582e+00,-2.702400074328796364e+00
-4.418442717429278410e+00,1.390330363445835271e+00,-6.987245905277295055e-01
-2.910274231049364335e+00,-2.363458545740425354e+00,-4.143219862567238287e+00
-8.265302027410593722e-01,-5.569703504289587492e+00,-2.834994304275850752e+00
-4.019553427210881935e+00,-1.956984945134233822e+00,-7.248692889019594521e-01
-3.152423847720915440e+00,-6.546972517907124534e+00,-3.652670333406594416e+00
-5.460450829799585293e+00,-5.220630293275547729e+00,-4.761518398335881308e+00
-4.151316796358857530e+00,-1.433738156177966294e+00,-5.114390257396920214e-01
-6.225144646339147769e+00,2.132214586910477383e+00,-2.071949724982217855e+00
-5.513623116641045430e-01,-3.851969500979407268e+00,-3.714718627392139094e+00
-5.514377658688018435e+00,8.410581635201511697e-01,-2.983729139001999542e+00
-6.059970709007898471e+00,1.935232274300667132e+00,-2.292075045291716684e+00
-8.107132822319331744e-01,-3.963441437051437699e+00,-3.166169778579300154e+00
-7.726514872072644202e+00,-3.859150746935231080e+00,-3.394900500014097933e+00
-4.644413116260185603e+00,2.254176032256832052e+00,-7.803829704177199789e-01
-3.859308781591851201e+00,1.747430817314774343e+00,2.059370242242359428e+00
-3.533020025061074154e+00,4.355195375255630275e+00,4.943375607084148804e+00
-4.117649465908646889e+00,3.717481646756944258e+00,4.800068146166348804e+00
-4.418327359315777692e+00,-5.499780517565480586e+00,-5.216742096740778933e+00
-4.823625391898631598e+00,-3.273116482134642014e-01,-3.535735252998757794e+00
-3.373907858764160661e+00,-3.827270090881280673e+00,-1.287581436356050046e+00
-1.293447275755937875e+00,-6.027033033104101101e+00,-5.385867306721427106e+00
-2.201580107833748912e+00,3.780402901265042193e+00,3.052409515621952618e+00
5.648505616870195256e-01,-6.001259717078375466e+00,-4.149521024211483500e+00
-3.769948902838817340e+00,-6.160555989516719677e+00,-4.976791561539831932e+00
-6.195365745725884388e+00,-2.194068890625658685e+00,5.746458107593784836e-01
-4.427266834744637336e+00,2.132027161292964212e+00,-3.709929921056374091e-01
-1.859474920680103560e+00,-3.553362239961211699e+00,-5.183831358949255730e+00
-2.649569956572906282e+00,6.319438372822625993e+00,3.606598343745029300e+00
-5.331359386755265994e+00,5.901570863592966454e+00,2.711343998904047314e+00
-4.872011381985381639e+00,-3.616166673857323044e+00,-5.480300180011210553e-01
7.579208760034087389e-01,-5.857308226324588141e+00,-3.893280448416283512e+00
2.041652592488683027e-01,-5.470953929019260364e+00,-3.282335589694757694e+00
-5.627929783474504788e+00,5.519886439074937062e-02,2.224140493968601806e+00
-5.663216507218307605e+00,3.482816722319871161e+00,-7.547146340595307645e-01
-3.216838794517543842e+00,2.745674011971660278e+00,2.369473578512836465e+00
-4.705480005950438027e+00,-3.140032676444347803e+00,-4.045342767143825791e-01
-3.373736960045390365e+00,4.205174521411580990e+00,4.917296421591972333e+00
-5.083034839825719686e-01,-5.048421779795896569e+00,-2.994719798541173983e+00
-8.188574886564056854e+00,-1.756712806804878957e+00,5.012930342453041366e-01
-6.097054975428079615e+00,1.747357337810336197e+00,-2.477924258375931110e+00
-6.637894058326271995e+00,3.708879287171158001e+00,-8.666160673664341507e-01
-9.104490047063682923e+00,8.071230481121850486e-01,4.658344075383906158e-01
-5.826967010397959612e+00,5.419324220361647626e+00,3.654492192689312358e+00
-3.294276655031543655e+00,-3.562468253998392509e+00,-1.477447838223361343e+00
-1.015014765548590825e+00,-4.688728995317825721e+00,-2.532647894606300465e+00
4.827671367646531042e-01,-5.096125956941164326e+00,-4.974746727665239732e+00
4.458857495670477955e-01,-4.584275582292974605e+00,-3.633882704199957736e+00
-5.938046921174768400e+00,4.327290770129834208e+00,4.262139608853839690e+00
-5.806194941184029013e+00,5.000590205587151615e+00,4.194384094346634839e+00
-6.020035618068904526e+00,-4.014396266177690187e+00,-6.661270240281079724e-01
-6.284989801292299560e+00,2.938176615041156126e+00,3.991860078488708830e+00
-3.885059434665998790e+00,4.005192527621844967e+00,7.406235614544488532e-01
-4.325569851411022348e+00,-5.721391136605721961e+00,-5.146827395731491173e+00
-2.892220327743365016e-01,-5.928777167325671726e+00,-5.022329086507596685e+00
-7.514773883248465403e+00,3.363389510063669263e+00,3.421935777832457948e+00
-6.467829047273595755e+00,-8.802416106367880744e-01,1.812025529881228447e+00
-4.772367313777941433e+00,-1.142712418692119813e+00,-4.447656885651602998e+00
8.001825212917821339e-01,-5.244163772210967522e+00,-4.642746450491451071e+00
-1.433515544626310589e+00,-3.787209474430019096e+00,-2.868790977791900065e+00
-1.321005257576048697e+00,-3.426225669688625519e+00,-4.755912993317701343e+00
-1.992324493106913286e+00,4.943857648289840867e+00,2.459209331540061161e+00
-4.318353649810106276e+00,-3.170017136191220164e+00,-5.717781080572572616e-01
-5.583094305156589776e+00,4.031617448568931117e+00,4.536270976641796793e+00
-4.378138020120968754e+00,-2.024417755007493547e+00,-2.705042829820096251e-01
-6.374614783154527231e+00,2.911839711914992357e+00,-1.398354278040844223e+00
-5.100234998950950782e+00,2.263313091097509666e+00,3.973889773871282394e+00
-5.995049519488026668e+00,5.195951802891774385e+00,1.153274079245424799e+00
-6.656791998901121943e+00,-2.311584678063843157e+00,8.580540221497809927e-01
-8.672342862091099391e+00,-1.530138913197893968e+00,-2.919245503238183659e+00
-5.021642720085855771e+00,4.098529031373630005e+00,-1.041313569764507618e-01
-4.171208379327884685e+00,6.616894943077761271e-02,1.955334267585200347e-01
-4.115046505197680560e+00,1.476127472657223549e+00,1.998971799407397887e+00
-2.335679203858332720e+00,-4.271525216155568572e+00,-5.811923722000329029e+00
-5.611568836776244851e+00,6.035742203682153972e-01,2.740386792908374058e+00
-3.820263943700801246e-01,-3.911707314955471748e+00,-3.803340229458573862e+00
-7.512408919793199580e+00,2.435945069586153977e+00,3.235575545571009570e+00
-3.717770552082898750e+00,3.578703943507070662e+00,4.604135364036746836e+00
-1.440669698285643507e+00,-4.280809065911308942e+00,-5.551211925165381977e+00
6.571209737109474647e-01,-5.637810808782467653e+00,-3.688892141590534468e+00
-1.832178597902852202e+00,-3.416341276511678515e+00,-4.937883166240732535e+00
-3.916179588273752010e+00,-4.922789614965851435e+00,-1.553902614187419928e+00
-6.405243629512834325e+00,-4.073532525935939397e+00,-7.983527805135822719e-01
-4.550817800829741522e+00,-2.231163646838775216e-01,-3.137754620987682763e+00
-4.421748557484772135e+00,-5.044048750003265330e-02,-2.418441026544192241e+00
-6.568454165827667168e+00,3.036702045056582477e+00,3.965450604358980335e+00
-3.373847554637597668e+00,-2.127047442635423113e+00,-1.983738575662108872e+00
-4.784874441247310983e+00,5.057253430113015646e+00,6.458133556885158333e-01
-3.802849611606002433e+00,-9.749787350839524969e-01,-2.317837570656068102e+00
-5.355296093748544983e+00,3.422914468773958774e-01,2.457881172362583744e+00
-3.932431693974439924e+00,-5.314181172599569791e+00,-1.870060255066434252e+00
-6.311596757604334584e+00,-1.289879793519491002e+00,-4.553616843925339275e+00
-7.967837543951584500e+00,-2.591885304928458922e+00,1.840291040478228557e-02
-3.790035789910911390e+00,3.585775960326656353e+00,6.004030260451141965e-01
-1.656067545615724557e+00,-6.716101399526024807e+00,-4.146871957330606762e+00
-5.992208834238875959e+00,2.185884934508155741e-01,-3.732285088237652815e+00
-3.563039003968037743e+00,-3.225009617581466426e+00,-1.319307422591512235e+00
-4.796730108137526649e+00,-3.027041753371252142e+00,-2.471987922648489766e-01
-4.374702706129845353e+00,-1.242082636052307842e+00,-1.284583766084566592e-01
-5.150878282910003492e+00,-3.790229284801789333e-01,-3.882008894398482290e+00
-7.682400023004931633e+00,-2.162034526886956076e+00,-4.102746290991976075e+00
-4.156762935957587501e+00,-1.630427976760012720e+00,-7.442588195426088626e-01
7.280084788621167258e-01,-5.862995540261732863e+00,-3.936710456529690205e+00
-1.610922368227371893e+00,6.002221681146723498e+00,3.411559221026537525e+00
-6.420130682315601689e+00,5.467967853004713774e+00,2.050674933696332136e+00
-3.897680873783802014e+00,1.628943408461771991e+00,1.253829206301033672e+00
-4.285678389431593516e+00,-2.266526342298692542e-01,-2.683589281239310953e+00
-2.112447577231346685e+00,-3.632070840645511112e+00,-2.499318895505548088e+00
-4.781040486369291465e+00,2.636576486674305997e+00,4.253790001688493305e+00
-3.348589239622042690e+00,6.211475719784576910e+00,2.587780111044062803e+00
-3.011275760625293341e+00,4.939393673788845085e+00,5.046925038927951412e+00
-1.586288557377718789e+00,-6.223626104589081720e+00,-2.930858883447220453e+00
-7.724178804824743949e+00,-1.087577636320389951e+00,1.351589690467004390e+00
-5.669324214587731170e+00,1.643913276177082050e+00,-2.248120508003049078e+00
1.440005461515796170e-01,-5.000099085912735219e+00,-5.237843193372946793e+00
-3.243641032653577394e+00,4.258070106658089493e+00,4.943879772689094843e+00
-8.074092204234135650e+00,3.127336199412959594e+00,-2.820688896677150392e-01
-4.010658059615234694e-01,-4.597641549747558010e+00,-5.319568573121553179e+00
-8.961435801260881462e+00,2.298465556314709113e-01,9.482555208848095774e-01
-9.365181044491861784e-03,-4.152774757904696301e+00,-4.209916543382513865e+00
-7.593356455714898701e+00,2.123255404889683895e+00,-1.866859403298157138e+00
-6.699277110915623723e+00,1.089661999713839480e+00,-2.977849849709870433e+00
-5.927845096189422236e+00,-4.105779900320185964e-03,2.441718832702631126e+00
-3.180827536872588013e+00,4.887193993027781680e+00,5.024320810577949104e+00
