3.332346557348672356e+00,-1.205383215921337570e+00,-1.511122108890101012e+00
4.246761869300185843e+00,6.185260740252195022e-02,-3.359701400369618618e+00
3.326673583397602663e+00,-1.345147742387423628e+00,1.852806454687657922e+00
5.088039714908616062e+00,-4.389988551255564753e-01,-1.672556553207564356e+00
3.015212517229827416e+00,-8.484054285034733356e-01,-2.429389980591706966e+00
3.366494095904918993e+00,-7.686915438828482161e-01,-1.387811904028811938e+00
4.051288966405370395e+00,-2.254783816207609259e+00,2.766964226071506605e+00
4.030346745762261484e+00,-1.021406133520006643e+00,1.899124266335088684e+00
3.041838301776216280e+00,-1.096801332165670662e+00,-2.395458183369690186e+00
3.665859633834383402e+00,-8.298848818953982187e-01,-2.899879097085593660e-01
1.972332723371204022e+00,2.319475898993279828e-01,-4.264569168958275647e+00
3.631494858918519419e+00,-1.161988921334452307e+00,7.501055843987838312e-01
3.989498288236037915e+00,-2.635507377281075758e+00,5.495335626046344846e-01
3.932943029026769732e+00,-2.260986275534120349e+00,-1.152180909362266581e+00
2.162182469522674122e+00,-3.210300443912391666e-01,-3.881305322369963395e+00
3.865699668180019977e+00,-7.422400411212611848e-01,-1.833344342809342664e-01
4.947373910583692691e+00,-1.538976074573936037e+00,-2.441610964537138884e+00
2.103981399742909097e+00,1.363222680313116719e-01,-4.463942251844297715e+00
3.453950818630834529e+00,-2.165483629455998482e+00,1.122512670548997837e+00
2.937419618113949138e+00,-5.141128765131979250e-01,-2.485970796871062927e+00
3.672053115530491851e+00,-2.267747678891979479e+00,-3.300352992091828974e-01
3.289109153778379202e+00,-1.800826514298830672e+00,3.404162059575310817e+00
4.870119091045524762e+00,-7.490334799286808565e-01,4.364466230350823039e-01
3.452509014699189471e+00,-9.974368784532871013e-01,-9.644254757318264648e-01
4.929471427468828715e+00,-2.309223753754360953e+00,-1.157495927547876224e+00
3.270063033707135691e+00,-1.126066885084835656e+00,-3.733357426241371346e+00
2.432274646378632443e+00,6.079461883352447193e-01,-3.943902795064912592e+00
5.575794160265840738e+00,-1.097991479056358965e+00,-3.378417929004139952e-01
3.465394659703322056e+00,-1.423625355162752459e+00,6.070215529213450756e-01
3.768731371563508237e+00,-1.016517385045551114e+00,1.876727866772961661e+00
3.875793410355459656e+00,-1.826635129960003878e+00,-2.580278181289739958e+00
3.328166790675650244e+00,-7.127618699862267038e-01,-1.551639817704817625e+00
3.814969705327596383e+00,-2.712585000546158476e+00,2.063028716308182187e+00
2.075162605190611131e+00,1.103090941239840972e-01,-3.678055027503575491e+00
3.139558352873764502e+00,-2.031585433194102119e+00,1.788055122793931861e+00
4.990700222204694114e+00,-1.707733823762529024e+00,1.731545375408145793e+00
4.464768022839254336e+00,-1.559929669207182901e+00,-2.885357600993281757e+00
2.980412328447248793e+00,-1.842248369963188637e+00,3.476910134303822009e+00
4.331443049241619825e+00,-1.830274140530758487e-01,-3.356247594091252839e+00
2.144069258549329060e+00,4.159783063994298424e-01,-4.435808580466217066e+00
5.166241706785464238e+00,-1.565330641137798739e+00,-1.978988365890821610e+00
3.500727869467477049e+00,7.747884369536045535e-02,-2.236055311713114335e+00
3.612212403092670776e+00,-1.786071711772356130e+00,-2.544124250387806097e+00
3.048516373546688918e+00,5.827878377305540925e-01,-4.022211197012052430e+00
2.317113853376284727e+00,-3.467237177874736287e-01,-4.278637126983973360e+00
5.470841108019694587e+00,-1.098364406866633836e+00,-1.164934525988730929e+00
2.315282795153332351e+00,5.732414456172162387e-01,-4.215655337483065423e+00
4.337784233544540236e+00,6.876781861330150125e-02,-2.649910686196181864e+00
4.580534012773552988e+00,-3.094627149961343693e-01,-5.775055831807707207e-01
4.330469023375980164e+00,-1.517581287264126555e+00,-2.979863167282161829e+00
3.099352905522939849e+00,-1.127354111888160926e+00,-2.185527204117485134e+00
3.429868471259128526e+00,-2.252054384184265956e+00,1.239141258521788247e+00
3.970841054547165960e+00,-2.429631763392763322e+00,2.586404237534513317e+00
3.914403855832850887e+00,-2.781289864475671170e-01,-3.978119879904745027e+00
2.811539411083378681e+00,-1.988297003896714266e+00,2.778852237389438873e+00
5.212850635848226055e+00,-1.749893476088932198e+00,-1.750614013819498327e+00
5.625948658446914052e+00,-1.300446224921377736e+00,-8.657986754429574106e-01
3.211797021495262694e+00,-1.674550753714824092e+00,1.514339451912683376e+00
3.777462705336013471e+00,-1.123770158267186403e+00,2.362846635689377361e+00
4.221532641355606685e+00,-2.415591795738325498e+00,-6.101731966116434869e-01
2.217008204931443238e+00,-3.362595842692529535e-01,-3.617187939669507468e+00
5.225873449943017057e+00,-1.218050300830939792e+00,-2.212532076349267740e+00
2.854183714615131873e+00,3.505956072632106513e-01,-3.293266216734120899e+00
3.452296429488532326e+00,-2.519954813083513656e+00,2.478869577550476322e+00
5.156914917755889505e+00,-1.287516496423571022e+00,-2.361815490838832687e+00
3.279162747238437703e+00,-1.351504582424907230e+00,-1.681802843699200078e+00
3.933337594562514639e+00,-1.469552278181558869e+00,3.010653573134768557e+00
2.194732259960504805e+00,-2.144103459465885597e-01,-3.847603348777748788e+00
3.635022531895409692e+00,-1.103738391937898466e+00,1.403053993633473606e+00
4.639816363761454454e+00,-6.662918930806892293e-02,-2.305054442131897474e+00
1.946563303340836937e+00,1.118309245640672772e-01,-4.076547549783092528e+00
4.587255525690947522e+00,-1.494223257094177360e+00,2.386610955922849442e+00
3.392503330291343655e+00,-8.508657070546915557e-01,-1.237004322167560622e+00
3.513853684372153285e+00,-1.487463587516960839e+00,-6.074986467605001383e-01
3.208623564323648925e+00,-1.346298860350839011e+00,-3.081680599977766111e+00
4.468314748225859390e+00,-6.779771922455288258e-02,-3.131182468724878376e+00
3.502495696216441079e+00,3.688635083715124940e-01,-3.908464817749149223e+00
3.554888763798973006e+00,-1.723414960775676574e+00,-1.469886116629621098e+00
3.126421178154350944e+00,-7.979163496050486470e-01,-4.164521864509206139e+00
5.032991908986473639e+00,-1.323627043716084417e+00,1.442837611016944965e+00
3.351328565985059793e+00,-2.091460878454417749e+00,1.374903428824620688e+00
4.800444373039325363e+00,-2.249895107625400126e+00,1.902059995707098494e+00
3.072951835075826477e+00,-1.671992354032653672e-01,-4.480331353183529153e+00
4.260371877446534228e+00,-2.735403928337339252e+00,1.303326539068025536e+00
3.263767797980077212e+00,-2.322755484999631026e+00,1.754456610717367804e+00
3.183742067855754421e+00,-2.069766610102824256e+00,1.645466179442998778e+00
4.317881845120398410e+00,-8.042972776164322157e-01,1.298140355302351390e+00
2.386158928468477658e+00,4.975448694083993706e-01,-3.658942082996925471e+00
3.916235296431139989e+00,-2.567248732082573426e+00,5.662268787894686461e-01
4.445578274994927526e+00,-8.577113308470943331e-02,-1.526500882781457236e+00
3.141131785848721325e+00,-1.185174753225487709e+00,-2.667380133097939865e+00
2.502069859956880471e+00,5.044843932951542653e-01,-3.753679295261468596e+00
4.974892132873593553e+00,-1.096883475785263906e+00,-2.651825306895517542e+00
4.140579919010094478e+00,-2.411879296628602898e+00,2.791381579199185392e+00
3.435591176495411236e+00,-6.644670914312377219e-01,-1.505769761530162620e+00
3.639708056210331666e+00,-2.289776265672638811e+00,7.690915988847877305e-01
2.194640739368734383e+00,-2.906618209674013964e-01,-4.119416789784301258e+00
3.740370346768384646e+00,-9.831130166255817038e-01,3.720447601953231209e-01
5.135879754475507042e+00,-4.976799394269153520e-01,-1.867500790938485311e+00
3.193022410089448204e+00,-1.245546936136596949e+00,-2.456013721701844066e+00
3.380930508657331579e+00,-1.430264090951590905e+00,1.088009707514716151e+00
2.154744311532104994e+00,4.748567211701537061e-01,-4.293037780212608290e+00
3.181875225023420573e+00,2.380560391332584291e-01,-2.981164388428338974e+00
5.615167979675574017e+00,-1.440159333976431810e+00,1.611892785567758946e-02
3.859366856148576552e+00,-5.506898990468862554e-01,-4.010911860009707119e+00
4.926757113333379401e+00,-4.565657076626880029e-01,-2.721123768000220711e+00
2.885095089610496100e+00,-1.913687513933167716e+00,3.425801347595049506e+00
3.696200186164883661e+00,1.520982022093996244e-01,-2.434501820777927872e+00
4.658622226338472672e+00,-1.049905069902138388e+00,1.320379770989401402e+00
2.642517317386411602e+00,6.329489904344873796e-01,-3.890917201123501812e+00
4.505412287663880022e+00,-2.606499367915397603e+00,1.404903024829991631e+00
4.207359527621995277e+00,-6.811324536500433791e-01,4.125056278968408652e-01
3.333484165322829540e+00,-1.422395518585230167e+00,1.666760054427692817e+00
3.746196063921824138e+00,3.581364715427662326e-01,-3.218012600995979078e+00
4.160124671213746517e+00,-6.808905320072380363e-01,6.322963175421496551e-01
2.903011993120340417e+00,-1.146378815742735258e+00,-3.228635909787663572e+00
3.433297050246844506e+00,-7.054544183230208876e-02,-2.241329451502968251e+00
4.736613148884420532e+00,-1.537200272148947777e-01,-1.510335260486608711e+00
4.447559955177801783e+00,-1.212327379298385188e-01,-1.508010387381609974e+00
3.329913613512565096e+00,-2.001266758235227192e-02,-4.408833832912908868e+00
3.035765817790844867e+00,1.274280754267998264e-02,-4.465662281932504030e+00
2.333657162125284401e+00,-5.784468467260249769e-01,-3.815967280010486018e+00
2.321156648456459415e+00,-4.566451574216600501e-02,-4.424365407455352006e+00
2.599492862689653183e+00,-5.450958291864720362e-01,-4.206998592682995586e+00
4.677486299066369924e+00,-1.103549390834386745e+00,1.723841715349512471e+00
2.108081448804864699e+00,1.349010981156208433e-01,-4.459709226280124561e+00
3.336153596863792536e+00,-5.700865952675350234e-01,-1.587991605028045816e+00
3.500037192174183964e+00,-1.506817344013514637e+00,-1.332026905971696595e-01
3.358928798898915602e+00,-1.330503156694199607e+00,1.578120404694156154e+00
2.716133584224305952e+00,-1.977730336946888823e+00,2.819361005055996738e+00
4.503589831981464009e+00,-2.763831120592932233e+00,1.301763009597566745e+00
3.381993484548568851e+00,-1.496113004721039141e+00,-2.103617759603813475e+00
3.426422357626702109e+00,-1.898518973756463835e+00,3.511270831332901299e+00
2.721761542578368331e+00,2.082058230417954958e-01,-3.106934453091390047e+00
4.102011187315971696e+00,-5.541435390169876518e-01,-1.119076404392824048e-01
3.290523427172616255e+00,-2.517746814627050966e+00,2.238042450410501871e+00
3.949322369162580060e+00,-2.563259852436060360e+00,7.794125890176760718e-01
3.404301635157607642e+00,-1.778202068589664231e+00,5.466785559893277968e-01
3.028017066760429366e+00,-7.057339502928053898e-01,-4.129322433447369711e+00
3.798851437945917731e+00,-2.026621828753587540e+00,3.175218070826040240e+00
3.652392869536885023e+00,-9.503589339119992152e-01,-3.765409627138642801e-01
4.040320699053414621e+00,-2.606099143482614178e+00,8.683076597572796373e-01
4.342046705261919826e+00,-2.890325710185453686e-02,-3.352883079688468104e+00
4.026521588403046970e+00,-7.982140867247230487e-01,9.727595281433035757e-01
2.922630747034288046e+00,2.456903877115786117e-01,-3.017453610424049693e+00
3.286870102657185821e+00,-1.424406042266079808e+00,1.757294513902067035e+00
4.849055423392129249e+00,-2.508297842518425913e+00,-5.609124252487073248e-01
3.988842585140196739e+00,-8.672627226996919569e-01,-3.792375644801182499e+00
3.010734646684225968e+00,-1.202439654164075389e+00,-3.158957699989497492e+00
4.185247133848387868e+00,-1.192507872911415356e+00,2.422429430662230487e+00
2.429630627573342583e+00,-7.141008939574033931e-01,-3.446746087877694986e+00
3.864503094183471266e+00,-2.476694505662603074e+00,5.700634497255885336e-01
5.324952218974982721e+00,-9.082989056416118645e-01,-1.079410571016325537e+00
3.014348096253534948e+00,-2.300323043483578633e+00,3.118348770253982050e+00
3.305622505955394974e+00,-2.209843576497931394e+00,1.548501348132516497e+00
4.487844490536190278e+00,-1.175495750077056728e-01,-2.976953555556656195e+00
4.061584453462072197e+00,-2.331749673472988782e+00,-1.255879823282608720e+00
3.969322376790968665e+00,-1.740047009414195767e+00,-2.951084757890175325e+00
4.661063228146152149e+00,-8.722257326598272797e-01,1.040315124163783578e+00
5.477554683355421616e+00,-1.653829202668905873e+00,-7.974135376876211323e-01
3.573304642586108582e+00,-2.287655090217676435e+00,8.250487125086599649e-01
2.911997653695428401e+00,-8.714710261746424491e-01,-2.608994221683273551e+00
3.465737023510234938e+00,4.878744958780660834e-01,-3.639137445322504050e+00
3.834677038149107098e+00,-8.749452301182663039e-01,5.397747359670495015e-01
4.846353198469449453e+00,-2.126746586926122173e+00,1.914106687773411641e+00
3.514960821433180449e+00,3.808284555319500497e-01,-3.688018091712943480e+00
3.576148188190976462e+00,-1.946893981031199150e+00,-8.904891990852460415e-01
3.377760326682675007e+00,-1.492919767514171658e+00,-8.646563307608743365e-01
4.658086591046272318e+00,-1.926142546292367724e-02,-2.255199094147886107e+00
2.627387375360353161e+00,4.528502580517010379e-01,-4.418326949054148578e+00
3.340284389628070727e+00,-1.913019272561206519e+00,1.180344074075940553e+00
3.089585867223499704e+00,-1.141088685464862751e+00,-2.543166001673984766e+00
3.456470406826898767e+00,-9.024383711452385048e-01,-1.134982267414572643e+00
3.160611209885485273e+00,-1.112705009731747463e+00,-1.940696052268277016e+00
3.420363421261625625e+00,-1.547957348184734627e+00,-1.581633912916436735e+00
5.008385828045769372e+00,-1.892714180841552629e+00,-1.982570343205970476e+00
4.060352665962994045e+00,-1.574474259286260835e+00,3.052383194969651825e+00
5.160377779000877574e+00,-6.972230548167236419e-01,-2.840009052122825506e-01
3.753324743825687815e+00,3.597240043478032723e-01,-3.080113202085148494e+00
3.136845969160297010e+00,-1.296662251162378210e+00,-3.394312822663183571e+00
3.205467699164175510e+00,-1.228528940640091882e+00,-1.885805260821785456e+00
5.482647424572390626e+00,-1.987217814290656914e+00,1.452576027771660394e-01
2.762323530560578000e+00,-2.204868346916373678e+00,3.048527989823142992e+00
2.365809186224896887e+00,2.322903153223417616e-01,-3.534615999921018048e+00
3.878201356017591195e+00,-1.760171699040086857e+00,-2.879616291879981027e+00
4.369722472953951886e+00,1.455216512657696304e-01,-2.631821182935926373e+00
4.158902253856597397e+00,-5.645221128023217849e-01,-7.467339229757313790e-02
3.249159640213531652e+00,-2.806112794007070144e-01,-2.112443077962754767e+00
3.821849986058953874e+00,-1.667684041315371068e+00,3.108426697992062060e+00
3.562043333755366525e+00,2.261712349528951782e-01,-2.423148757313546398e+00
3.595329589230259248e+00,-2.789648926242346283e-01,-1.596888211308345351e+00
3.442482444256041330e+00,-1.562766633622576729e+00,5.546968601919570752e-01
3.131147087637529580e+00,3.736581781657464796e-01,-3.126647404694065102e+00
4.143248806555512864e+00,-2.660511283160773122e+00,1.940069213596454345e+00
3.831687155968962255e+00,-2.629349976195504368e+00,1.455657975987158848e+00
3.900287319174271516e+00,2.199169195386074804e-01,-2.544010284143253475e+00
3.183766044667558415e+00,-1.059084981494198940e+00,-3.890299944474896687e+00
3.207944124095785554e+00,4.986371160398426344e-02,-4.294216983315277680e+00
5.398692387621603750e+00,-1.836150859766647603e+00,-1.314165312221393211e+00
2.377511920205228613e+00,6.141105625729470496e-01,-4.231963175354199080e+00
3.786786486604490243e+00,-4.591778267212521247e-01,-7.942493991217957072e-01
5.043034134142112102e+00,-1.074436052721875701e+00,-2.700483903188464208e+00
5.074973480465700071e+00,-2.187564049378563080e+00,-1.059325070249309553e+00
4.493715145037241676e+00,-1.865604873871965941e+00,-2.265202012445998836e+00
5.086501242469519291e+00,-2.355628725960935643e+00,1.268329474868789442e+00
3.482963312224008678e+00,-1.410075806151452005e+00,3.162331737187289882e+00
4.256794561483105532e+00,-1.800688360482252337e+00,2.875090066923446930e+00
3.290846331334992048e+00,-1.304328114895148438e+00,-3.370968186248509024e+00
4.262351768527591567e+00,-2.418992287505482564e-01,-9.826271401605871647e-01
3.542555660123317018e+00,-1.156417786023050454e+00,-3.833958111203035202e-01
4.049829718510419063e+00,-2.545770784767146022e+00,2.456313295593639534e+00
3.021495780690413469e+00,-2.754491212163452385e-01,-4.440483629338729976e+00
4.614377336110755401e+00,-2.629936473656372953e-01,-9.768975406924750304e-01
4.327718225853089962e+00,-5.192971900411065544e-02,-3.324980014520987570e+00
4.051190724950472166e+00,-2.732228000517780142e+00,1.303999250896094253e+00
3.102050062010667464e+00,-2.262009606230623415e+00,2.008274209309184766e+00
3.378802776789275431e+00,-1.622742079261275006e+00,-1.900890921112213361e+00
1.961653329177293736e+00,1.496160836323014443e-01,-4.097724695776948423e+00
2.877019572619347709e+00,-2.140699186953689992e+00,2.788559281259447520e+00
4.854530202334774280e+00,-2.443350967241914695e+00,1.736550080259671835e+00
3.386168571938246163e+00,-5.572278557231066243e-01,-1.632282201909618591e+00
3.575107905876149239e+00,-2.378702939379622183e+00,9.905806506552241597e-01
4.827240961626194427e+00,-2.653214139291695806e-01,-2.256287157749853112e+00
5.148075755650810770e+00,-1.722346859012535480e+00,1.457611957845012629e+00
3.195260050859607404e+00,-2.137449102025610781e+00,1.932930456055920621e+00
2.878421553487163553e+00,-1.599825952001885154e+00,3.356478927995636852e+00
3.757240715505149709e+00,-9.279586206089407430e-01,-3.824666532992002210e+00
5.517959378779116797e+00,-1.478437513405220116e+00,-1.858341615077473488e-02
5.043561768292051717e+00,-7.028892645149693585e-01,1.680251538533255040e-01
2.944514082297427393e+00,-2.250754175728407969e+00,3.179626419601356613e+00
4.657883678018178486e+00,-2.069702441703940909e+00,2.274078524940347013e+00
5.233253324448519983e+00,-9.015716213934632517e-01,-2.195888281761218863e+00
2.191248575709968893e+00,-2.031363224815994906e-01,-4.285544672971576041e+00
4.493164241602345399e+00,-8.562425762838525856e-01,1.134527627661661819e+00
4.871927711438106101e+00,-7.878539507172661605e-01,6.525364245824250009e-01
4.250809574910543454e+00,1.107970131531197111e-01,-2.358429069081155571e+00
3.920227945009687076e+00,-1.556725292951564255e+00,3.041938814429492322e+00
2.247371628516931175e+00,-3.407028972962377056e-01,-4.130715127245498053e+00
3.467074827607427689e+00,-1.663641332424022012e+00,-2.121638595738322142e+00
2.592846814283423118e+00,-2.804989630253660882e-01,-4.493902494633712941e+00
2.777801520135618762e+00,6.041669057166138002e-01,-4.045111597342494925e+00
2.773655216043744431e+00,-1.931859764918690603e+00,3.324357788238276434e+00
3.344288169165205549e+00,-3.865960680735874289e-01,-2.031324134798655034e+00
5.037285149537972906e+00,-5.691379752552193638e-01,-5.243989367044182143e-02
3.580723172532290111e+00,-1.087518971127333200e+00,1.689122277820300555e+00
3.566804983372359406e+00,-5.317601763140525351e-02,-2.055625525656890940e+00
3.376768045928338680e+00,-1.347598437051878539e+00,1.498513701592269154e+00
4.023336786208981053e+00,-1.380561132993385787e+00,-3.362217495312006754e+00
2.174920659703489356e+00,6.391154574981903203e-01,-4.081036263256704544e+00
5.319977215553062244e+00,-1.697033174838420866e+00,1.287359151136600932e+00
3.404755403746753561e+00,-1.155587186471198180e+00,1.840948587811729986e+00
4.026341674755889777e+00,-2.259630233536853883e+00,3.022524514142513663e+00
4.010473724571100185e+00,-9.196050429816319260e-01,-3.732196905508331053e+00
4.861002450722414991e+00,-2.247835128153515605e+00,-1.329822384041648098e+00
4.337732694537535849e+00,-3.897203706733433082e-01,-7.675800456960374385e-01
3.094453982771468770e+00,-1.412047242092425048e+00,2.479227380589758223e+00
4.597548714827550675e+00,-2.208688610249077144e-01,-2.955369911395889559e+00
3.611571698016414977e+00,-1.150490228170097939e+00,1.132432697600721738e+00
2.875390254774172760e+00,-1.045657277050936473e+00,-3.215992916210635766e+00
4.871925886935684069e+00,-8.434701389498269197e-01,1.025933323766551331e+00
5.167825350040352816e+00,-2.135749416326852224e+00,1.134332602411688873e+00
2.835622457107714212e+00,-2.065296204337771613e+00,2.758259962730339243e+00
4.344901388527173225e+00,-1.843311677591075393e+00,-2.488579448423555274e+00
5.064027024896118334e+00,-1.343312641534653684e+00,1.456334463495268183e+00
3.067927187950199919e+00,-6.255928540990797204e-01,-2.184860251508921269e+00
3.677938150227449743e+00,-1.383176609347104735e+00,3.112894106985608200e+00
4.869484612559093151e+00,-1.768292135026219070e+00,-2.254042033889593455e+00
3.542933003943152137e+00,4.170408103337632788e-01,-3.024096255871394412e+00
2.221928513060886345e+00,3.167412665954688067e-01,-4.567642128671425716e+00
3.396149768594472373e+00,-1.530431171088531883e+00,1.228189298127162488e+00
2.815970196475257481e+00,-9.893910347490322277e-01,-3.366717997013159547e+00
3.408656652734306292e+00,-1.049382163156782788e+00,-3.920299355504782923e+00
3.017777273533641225e+00,-2.075706921840871466e+00,2.235582407972422025e+00
3.617382044950411046e+00,-1.024842354572646386e+00,5.490446151108482331e-01
3.062514586053177723e+00,2.785324973196174336e-01,-3.139117727628294663e+00
2.917148275098271792e+00,-7.754870426172605358e-01,-2.464547785747400965e+00
3.710551312873136443e+00,-5.626630806642552995e-01,-4.033682588447005557e+00
3.569106594101148389e+00,4.069879910294361136e-01,-3.447345208382518678e+00
4.310993031238667506e+00,-3.239798406288298405e-01,-4.647873660284325692e-01
2.181015833397595305e+00,4.835928251776367981e-01,-3.976135352250213639e+00
3.278305106619731291e+00,-1.258312550276585506e+00,2.316127199056367658e+00
4.248976232476221249e+00,-2.675402320900348574e+00,1.265248360872726519e+00
2.458427047878434468e+00,6.232458927102515478e-01,-4.122663227602658687e+00
3.816274383672293435e+00,-1.345770773760066596e+00,-3.473352689745506705e+00
4.118870874842841978e+00,1.499141770229072412e-01,-3.365987115606137614e+00
5.503527030682414001e+00,-1.964591533363891696e+00,-4.744501039303676282e-01
3.008149864041506305e+00,-1.571365386195736624e-01,-2.277860834487035913e+00
2.989424021730087144e+00,3.567981948879130338e-01,-4.277689610045975144e+00
2.975663928899848987e+00,-1.561507234315078207e+00,2.395564130455402729e+00
5.194263023063599327e+00,-8.009967142906481152e-01,5.114022844089034792e-02
5.386009868881536988e+00,-1.637789575929094799e+00,-1.483319042319764414e+00
3.181600763744611093e+00,3.401905587333051151e-01,-4.232184620313192092e+00
3.895223260426878831e+00,-2.048258332055224340e+00,-1.682114054965374361e+00
3.003901000484863637e+00,-1.284185305546524880e+00,3.055856458468524828e+00
3.276651925720197589e+00,-1.669271453857108733e+00,1.135163663074076679e+00
2.924758022341638508e+00,3.690451157144414296e-01,-3.312600849183958474e+00
2.130869510318255777e+00,-3.091825251119076357e-01,-4.071738037772707486e+00
2.410147893157968291e+00,2.197720847439874614e-01,-4.620219612917540353e+00
3.254997015674585992e+00,-2.438817509850564669e+00,2.261205407593060990e+00
4.294250034864695920e+00,-8.010126713859931913e-01,1.214094876265135570e+00
1.965797368227337527e+00,9.075989148321070288e-02,-4.200448509252027840e+00
3.058579924854901488e+00,-1.330372202830942152e+00,2.659899532988500681e+00
4.616254081641371521e+00,-2.232908282743135686e+00,-1.493747879022407243e+00
5.449598723336569250e+00,-9.791343158704306493e-01,-2.021430737484551932e-01
4.199454239773925401e+00,-6.937034545871298974e-01,7.178283254418866832e-01
3.628632409562941419e+00,-2.022332398266192044e+00,-1.016247234946894062e+00
4.066039349164240591e+00,-2.246676027270084752e+00,2.886212419107075711e+00
3.697171217757259321e+00,-2.612853654920974655e+00,2.160728128361424805e+00
2.823401857990918806e+00,-1.811082444004701530e+00,2.798932341486331854e+00
4.640979816318972162e+00,-8.191218462583651494e-01,-3.293325165017296996e+00
3.506779069016171313e+00,-1.195598783919966435e+00,2.424522921952907417e+00
4.768385857924249294e+00,-2.607906731794545685e+00,5.367279305775841669e-01
2.226201927542439396e+00,-1.234125200375887771e-01,-3.591178507528550057e+00
3.549922261859157491e+00,4.771328061609089732e-01,-2.953925471653041868e+00
2.713078738059907735e+00,5.640582099307617225e-01,-3.509113208547750329e+00
5.296147420916312853e+00,-1.352418621436953128e+00,-1.998498538471929376e+00
5.087415824298573419e+00,-1.594318102414737481e+00,1.629049987207065397e+00
2.815877828729487220e+00,2.650037935135380329e-01,-3.073486742791725845e+00
4.660519469036810136e+00,-7.020249984098914098e-01,5.025725496662211134e-01
2.829811037636032367e+00,-1.771122102397733267e+00,2.724662139372556968e+00
4.463173976830540290e+00,1.947378668784834760e-02,-3.151758213517079632e+00
4.038333672939374175e+00,-2.426807489350925717e+00,-3.911572354386765905e-03
3.388003681756872165e+00,-2.132751540912972421e-01,-4.363997306740580839e+00
3.956998274390577386e+00,-8.790950475866270430e-01,1.456184981542601342e+00
3.082191223901388888e+00,-8.151106758569718336e-01,-4.013830027906620579e+00
3.204866937526094528e+00,-1.369795671711356411e+00,2.192324634557925922e+00
4.963347618563443753e+00,-2.440737533415650695e+00,1.558529257516965139e+00
2.276413215529984768e+00,2.079444170549187565e-01,-4.520908914034891701e+00
3.445833031174947436e+00,-1.577788467373440584e+00,5.748119653083578751e-01
4.730688055537692449e+00,-6.697456687994266522e-01,-3.083328080918657399e+00
1.976047587962242558e+00,2.383993544144525079e-01,-4.201291382720129697e+00
3.821684830319369119e+00,-9.732120664322497783e-01,1.160890016720980578e+00
3.440656459626526775e+00,-1.544358433731219504e+00,-6.732828350107844528e-01
2.851203712873755070e+00,-2.099207995444599906e+00,3.228035859999545565e+00
3.203118522443218819e+00,-7.070458816919007461e-01,-1.960664233118810662e+00
5.500879244597009610e+00,-1.152571580590402212e+00,-7.690186577180956051e-02
3.910271949979190698e+00,-2.600663379054063196e+00,1.294502821312840002e+00
5.074698935645258757e+00,-2.270170885001633110e+00,-8.418960867474001297e-01
3.423693420971571033e+00,-1.077885219960832197e+00,-1.092495863801025147e+00
3.613248415638673716e+00,-4.397787051876628217e-01,-1.577522451432002315e+00
2.350749688745767951e+00,5.134722534228418622e-01,-3.978174629632609260e+00
4.123128469666848872e+00,-1.240476435564150659e+00,2.568421010910302282e+00
3.408620487974225455e+00,2.016149575624558501e-02,-4.240489582771950872e+00
2.936194378451808529e+00,-1.017243129447055860e+00,-2.923538232449136576e+00
3.090174744068472812e+00,-1.282625587252446131e+00,-3.114525816273922665e+00
2.603326851808155595e+00,-5.962161763402974435e-01,-3.322995977831289416e+00
4.836040911939547549e+00,-5.562265912776579446e-01,-2.934597954251571661e+00
5.239101634841345501e+00,-6.686443740968579519e-01,-1.677083491564214546e+00
3.696769269208650233e+00,-2.687134888037755243e+00,2.154851756458529888e+00
2.883817371511670835e+00,-7.661324089777657997e-01,-3.979256112199183626e+00
4.266547395627992678e+00,-1.820596542932086725e+00,2.798275751018572954e+00
2.819517922634093399e+00,-1.640733497161362742e+00,2.920909955293346183e+00
3.120855667781013310e+00,-5.012877181015042982e-01,-4.337379201128268136e+00
3.484150300179063908e+00,-1.361914546933610248e+00,-2.877710554577105895e-01
3.607027939206512990e+00,-1.141283917376825663e+00,1.470569368201226079e-01
2.423852070782686940e+00,-3.109398302572451978e-01,-4.472026389923559719e+00
2.998440964219937221e+00,-1.891520548212607844e+00,3.487405826957902022e+00
4.409675177058251627e+00,-7.695744435371718595e-01,-3.535555284319799707e+00
4.272053646746455158e+00,-9.039061515250564893e-01,1.648246236275410226e+00
4.807423772982597932e+00,-6.657732452349165442e-01,-3.145492305574533187e+00
3.361747858212198459e+00,-8.220326435289285749e-01,-4.067347852818953058e+00
3.271731925689823406e+00,-6.673529975924332724e-01,-1.822613391232572599e+00
3.266261532192920036e+00,-1.710541727000793655e+00,1.315500247410067436e+00
3.462712652911960731e+00,-1.403325985210688298e+00,1.372161531879788843e+00
4.001625444514008478e+00,-6.798599644001539488e-01,2.817640873256362088e-02
2.935454435790939343e+00,5.145638779597943024e-01,-3.505108294087648346e+00
2.905170797141510608e+00,-2.189058527669101473e+00,2.978556564982679511e+00
3.554114200277330493e+00,-1.906248724277278761e+00,5.764840638710551080e-01
2.096513581043886187e+00,-9.389042883724506294e-02,-3.866521687990175149e+00
5.187572921806221871e+00,-2.326962028387163706e+00,3.893467276206648564e-01
4.616823998989612043e+00,-1.044162167442477029e+00,-3.197971949657993029e+00
3.379390827888382187e+00,-2.221945142176132038e+00,3.286876211500188383e+00
4.534339036709040371e+00,-2.564154515763622300e+00,-4.815678240864607051e-02
4.095920439782598343e+00,-2.626079029932476772e+00,2.153858470338760878e+00
3.355671137714868912e+00,-1.695855772803347428e+00,3.413909607677451330e+00
3.660408134101320599e+00,-1.730907924414706534e+00,3.403291622270730787e+00
5.368021794985030404e+00,-1.117321883253672654e+00,4.340908592292865298e-01
2.087342502575567416e+00,1.700519801979672452e-01,-4.467001599508043874e+00
3.036752822852564648e+00,-1.392884713087070070e+00,3.312278243089405105e+00
5.174568169937127315e+00,-4.501824437378397215e-01,-1.172219611928924099e+00
3.691689917315763125e+00,-7.983369403705465883e-01,-6.362999552701400496e-01
2.966179966217302066e+00,-9.351739438076696054e-01,-3.780342700123799471e+00
5.407862599179487972e+00,-1.193113597049782593e+00,3.330694743305558925e-01
4.135592842617350051e+00,-5.097769448831216410e-01,-3.765639715885621186e+00
3.047860780665999858e+00,-1.648844119710729972e+00,3.473429706444651988e+00
3.428333464474471182e+00,-1.668570792032238126e+00,-1.824781054199787977e+00
3.815074981732684556e+00,-2.554185814069974914e+00,2.573358307706905546e+00
4.829845496897435808e+00,-2.940939482579113529e-01,-1.020221764378920426e+00
2.986465729369884414e+00,-1.846119791823490619e+00,2.220306996840037517e+00
3.410716398128608606e+00,-1.342681179672866154e+00,6.750425478330913664e-01
3.073265556810208743e+00,-1.035647494524290169e+00,-3.690735826783965834e+00
3.175282837454286522e+00,-1.572025470290338234e+00,1.970966961160831588e+00
2.566391263830081204e+00,-1.255070595841801251e-01,-4.593602381393679046e+00
3.013563067945971063e+00,-2.413730702493393387e+00,2.683457546913720293e+00
4.915369841160418751e+00,-7.943727126528290494e-01,7.423588139203188829e-01
3.466261503771407959e+00,-1.255419041867032348e+00,1.502345817770478709e+00
3.630726104170043822e+00,-2.527760230244802120e+00,1.288767275088561037e+00
5.203069408331920442e+00,-1.687311554585739115e+00,1.395054309068859633e+00
4.891632185041179248e+00,-2.437489215874294457e-01,-2.157812556353215339e+00
4.521665988967150440e+00,-7.535792043026701137e-01,6.194484284674673935e-01
5.152239415759177987e+00,-1.045274694295161844e+00,-2.435528419156168134e+00
3.700450457287753903e+00,-1.883723345167772845e+00,3.339218416341141360e+00
3.469615543853859396e+00,-1.673735769374907090e+00,-1.532784688698375142e+00
3.546964099798659564e+00,-6.053563244835250545e-01,-1.070571605243306301e+00
4.810501621408958428e+00,-2.565001199391504505e-01,-1.005398709671691204e+00
2.969467510258947840e+00,-1.020516593133357297e+00,-3.011333497739493215e+00
3.846897095304660397e+00,-3.230978797141587644e-01,-1.285360013698582549e+00
3.373776011351299342e+00,-2.494277159339926442e+00,2.489951550840555416e+00
3.067921406661179518e+00,-1.318670706856321040e+00,2.908143401521050553e+00
2.741705086854411721e+00,2.823307347402837647e-02,-4.526701368755975174e+00
2.818577499925502661e+00,-4.654127242281849153e-01,-4.377291414256278657e+00
3.410748017873166393e+00,-7.248168862257313716e-01,-4.097481019638565591e+00
3.274453708937715035e+00,-1.331400709281821415e+00,-1.785179479196345120e+00
4.140857325118457943e+00,5.595380454019296262e-02,-2.114393643346109020e+00
3.324407765590513542e+00,-1.319027356386834660e+00,2.940941428289186366e+00
5.321593903344608023e+00,-2.123139741128067026e+00,-5.419076913471903012e-01
3.509685806761222882e+00,-7.368843729387081209e-01,-4.179985549295333946e+00
2.561984321621738836e+00,2.288803016925976819e-01,-4.504874620639601090e+00
3.848800410801764826e+00,-1.430194163768970794e+00,-3.268424154104784485e+00
4.840821920055587313e+00,-1.516750355529285166e+00,2.119622591726720628e+00
3.642544539273508963e+00,3.755806773785142494e-01,-3.175243164409433660e+00
3.344048850287845820e+00,-1.107152642183938829e+00,-1.390033089287964208e+00
3.434891401469384320e+00,-9.438748070150924097e-01,-1.191164051689493242e+00
4.901138406479248921e+00,-2.997021322387618536e-01,-1.191848155372535301e+00
2.293708127070108738e+00,-3.592820318266210511e-01,-3.953078681420097773e+00
3.391541256391923387e+00,-2.537443141602154562e+00,2.607902161544087161e+00
2.786595890216357674e+00,-4.387618328683270952e-01,-2.757165713567601095e+00
4.346618737460538284e+00,-2.204064958148122866e+00,2.738803250368375686e+00
3.501323443129758406e+00,-1.926485114277006749e+00,3.376179354213286188e-01
3.320378722405029404e+00,-1.261696955834028522e+00,2.109379419496865804e+00
2.958692586288488080e+00,-8.232330051315385200e-01,-3.916278706387049446e+00
3.520542863474480200e+00,-5.062917262250206107e-01,-4.187821128625574651e+00
3.173362540435730406e+00,-7.165508797394860574e-01,-4.066339964606628499e+00
5.303186258260627284e+00,-6.515916448965909380e-01,-1.418738721540476089e+00
5.325282848757500354e+00,-6.818168575673432263e-01,-1.106808717051558144e+00
4.881229342540081007e+00,-1.091862880249498735e+00,1.390246810791931464e+00
5.130850223882749361e+00,-2.284417854607052156e+00,-6.449564521605050116e-01
4.386841099491038065e+00,-8.333054157139896390e-01,1.369572268597738285e+00
4.155648614511289196e+00,-1.422548966876965526e+00,-3.223867983811686155e+00
3.657804334300403415e+00,-3.976932016881006282e-01,-1.399696155296289657e+00
2.553929898228116446e+00,-1.590475180785255460e-01,-4.449367299030965839e+00
3.663991807364371134e+00,-6.792376184727215715e-01,-8.511263573665078797e-01
2.868060396678731916e+00,-2.078138260351952038e+00,2.718828845818896500e+00
3.255455391137013432e+00,-2.182443361375191682e+00,1.826600121798440224e+00
2.620336148382167440e+00,6.839891614072529658e-02,-4.567109638664357263e+00
3.685749124977532709e+00,-1.352257508109087514e+00,-3.488576093011226842e+00
3.322762097098593159e+00,-1.923931919589298989e+00,9.594518382040415627e-01
2.919068281384701091e+00,-1.408676162040470858e+00,3.214230208597559368e+00
3.654441771872839251e+00,-8.170896899080161147e-01,-4.645770894656326422e-01
3.165157773241769501e+00,8.012918780600339352e-02,-2.569488990144265905e+00
2.260583124683552825e+00,-3.966041698221568490e-01,-4.251705788269650732e+00
3.286919395543667299e+00,-2.672177303295444339e-01,-2.070872250147212323e+00
4.334777054188060141e+00,-1.313961125629467541e-01,-1.563052180622032772e+00
4.599299358267117555e+00,-2.853822806604469076e-01,-9.130987132312482490e-01
2.802432466517450926e+00,-2.130892932265108897e+00,3.031870860907732279e+00
3.634387225457325510e+00,-3.637778105020211816e-01,-4.178049313256516406e+00
4.805281543607040184e+00,-3.146020795542934789e-01,-1.002856253088441507e+00
5.028889229234003722e+00,-2.251378616152165613e+00,1.371499387183186203e+00
4.634274983707779683e+00,-2.681667320100461716e+00,1.218881324312645509e+00
5.414425063334791233e+00,-1.448850438232930804e+00,5.872130534498263277e-01
3.326941471794088834e+00,-1.310646517895857732e+00,2.943985009495650118e+00
2.950471801086044454e+00,-2.101450030836456762e+00,2.575212011378551047e+00
3.308879602251479035e+00,-2.123878835376552754e+00,3.378122623328653429e+00
4.504408249992012614e+00,-8.748344310594414752e-01,1.432321239556365811e+00
4.551093071721471262e+00,-2.581676178528772514e+00,-4.142725475927870882e-01
3.422505125101240608e+00,-1.937579448564408668e+00,7.891537063722160461e-01
2.744661109318142334e+00,-1.887713701724320403e+00,2.916204030276416059e+00
2.631390061304369699e+00,-2.559228482593808862e-01,-3.061485285709104165e+00
3.510583356457217530e+00,-1.328645056612729247e+00,2.815947966453588691e+00
4.968068346719141992e+00,-5.328811855619164373e-01,-8.626891604222923504e-02
3.490574966500291421e+00,-2.495391501445118898e+00,2.950906045065966765e+00
4.841893687017821968e+00,-2.454942700604693773e+00,-2.925806239939506281e-01
3.771531561140290201e+00,-9.975306196660598257e-01,1.084076542730018300e+00
4.774378581066754279e+00,-4.795220806355648402e-01,-3.882102437102410986e-01
4.035835773121106307e+00,-6.204284232424388534e-01,-1.022872806597655178e-02
2.570407118847972239e+00,-3.900132226115917700e-01,-4.343907381918032051e+00
2.908513994324548158e+00,-2.384166289103871808e-02,-4.520188614002958793e+00
3.189719841835353176e+00,-7.355232333221444208e-01,-1.973323422661314552e+00
5.484484896263531084e+00,-1.937247460151735545e+00,4.427047529794480574e-01
2.411712076571056240e+00,-5.734868568194106953e-01,-3.685534824516377483e+00
3.719791469506442461e+00,-2.697400353824328523e+00,1.844243137251338815e+00
3.331209635648872069e+00,-2.041159807375736879e+00,3.405733827644562339e+00
2.397478127840123818e+00,1.875564724822258167e-01,-3.427109278451085927e+00
5.556794866715936365e+00,-1.499314911938822936e+00,-3.816810857152143077e-01
3.439379829258151222e+00,-2.630382812300943396e+00,2.588957375396933713e+00
3.431963345704145851e+00,-1.273143920263967166e+00,-4.230229136067355511e-01
4.826481525007422668e+00,-1.780043330759388143e+00,2.123353523552554467e+00
5.274235579907605498e+00,-2.217595721737177339e+00,-1.641434325292145113e-01
2.141500073067708954e+00,1.736519874977622557e-01,-4.525071248040386962e+00
3.966711527206994159e+00,-2.632315582681418409e+00,1.766086698172465219e+00
3.495846959598528869e+00,-1.563986252947507705e+00,-1.460933871879668278e+00
3.294546854026870975e+00,-1.496929258900966397e+00,-2.372982277801881423e+00
3.563106915660205321e+00,-1.742426486953710940e+00,-5.414838082759642068e-01
3.257050130858176296e+00,-1.999376240343502475e+00,1.388585349497275745e+00
4.304238801015202398e+00,-2.335873939258899412e+00,2.545913949827656175e+00
2.550419168315873009e+00,-4.873349547129871007e-01,-3.218345432436754194e+00
2.763681347069316896e+00,-1.665754261261454428e+00,3.225525762042507516e+00
4.932533136375186977e+00,-1.156482697329360487e+00,-2.806625687602302577e+00
3.852145697325473517e+00,3.415265456904069685e-01,-3.469083307178034037e+00
4.836501866683730277e+00,-1.728265626115446318e+00,2.097987547896514204e+00
