8.003059374238232770e-01,-1.013957654042720202e+00,1.108420532777402379e+00
-4.243986144759634427e-01,4.253857299355679467e-01,-1.503701224235641787e+00
5.971821137389625722e-01,-1.267356091921927552e+00,9.321730518652433517e-01
8.598529373228296357e-01,-9.493322664542150902e-01,1.056116153225889143e+00
-3.104628436774189981e-01,4.053179776020193747e-01,-1.250115010536512417e+00
1.430052060568275385e-01,-2.817356710059191194e-01,-1.033461994204052603e+00
2.808866211531766410e-01,-1.161232683096001805e+00,1.810129535212972596e-01
-5.404147174614572918e-02,-6.971368779791693449e-01,-8.231475302065169863e-01
7.456286464722728935e-01,-1.700966235438965635e+00,1.662779172514086412e-01
-2.247155726296623246e-01,-7.032498942146563348e-01,-9.626227512279075249e-01
8.264980950471469967e-01,-7.534229048871583512e-01,1.046904517501974663e+00
-4.161958355491844341e-01,3.091262351093383987e-01,-1.166998563959650292e+00
8.377299645256754967e-01,-1.676167784432371910e+00,-1.822095401560358818e-01
1.051949696788417876e+00,-1.068166600435369373e+00,5.497911570714127949e-01
2.978457554512022876e-01,-1.510322960063245734e+00,1.010819367096966459e-01
2.374743559041718743e-01,-3.694628795440602631e-01,-1.029697194626052692e+00
-3.396304688262141019e-02,-1.010244011003839759e+00,-6.922394347051527008e-01
1.352514423832751611e-01,-1.288805904358569787e-01,-1.244214802704919576e+00
-3.847029350203273745e-01,3.694224690080527562e-01,-1.220574784534927515e+00
6.453509914293776850e-01,-1.717521387580583925e+00,-5.509390671386427130e-01
7.728632169877085456e-01,-6.956968864861043933e-01,9.112438736071460932e-01
8.299520342841099074e-02,4.244575457796788409e-02,-1.470342567829510561e+00
-4.251052756735636540e-01,1.335371782590307199e-01,-1.166691891022409555e+00
-3.455156793936455806e-01,3.355831829221276319e-01,-1.589865763039886248e+00
3.345632276338582844e-04,-4.426096574965954211e-01,-1.772124081766217385e+00
7.201221945652533929e-01,-1.436029893354923148e+00,-9.567018781037608388e-01
8.349547753700452268e-02,-4.490959997569671791e-01,-9.256618263928797496e-01
6.335054911911551512e-02,-9.499487865866477199e-01,-5.390117012078948777e-01
-1.123902160299679043e-01,-1.032247118690365451e+00,-1.467764486874275631e+00
-4.029588025578050708e-03,-6.582630475075258447e-01,-8.177957254908431173e-01
2.030965742607601376e-01,-1.522354499006318473e+00,-9.172195726512378799e-01
6.334604007110513635e-01,-8.125636031363727696e-01,-3.638904348448364634e-01
6.341840708932416915e-01,-9.172512555326410855e-01,-1.322377124547122529e+00
-8.216266505688533950e-02,-5.886173233174952779e-01,-9.122804033572173843e-01
1.353419001990164572e-01,-1.503451533004254159e+00,-7.147603146828299669e-01
3.175650861720510365e-01,-8.069012320979899178e-01,-4.561005173103338528e-01
7.199956583038015223e-01,-1.643927674857919019e+00,-6.916864576040062662e-01
3.539108202041405526e-01,-3.352746105430455259e-01,-1.242297708751123775e+00
-5.699804013513900536e-01,-1.148518470761733384e-01,-1.516671535234603407e+00
9.721956893747033535e-01,-9.694009650807919876e-01,7.153283141791824118e-01
7.755851682860480656e-01,-7.004075681350540039e-01,9.317634798638058102e-01
7.973552385887461291e-01,-1.709529693775703185e+00,-6.166639094214749345e-02
1.750467012675624989e-01,-1.584589860537379158e+00,-6.089507269158687119e-01
3.175111220923594324e-01,-1.149591092873180065e+00,3.696570832959713560e-01
6.263393923877069724e-01,-8.598931786755389384e-01,-1.110107460160095899e-01
2.509461937076711835e-01,-7.836128063028396928e-01,-1.647335214288036420e+00
7.378538270764848361e-01,-8.355311888779651808e-01,-9.444164456301501476e-01
4.855910431457974297e-01,-1.151541803383622886e+00,9.676401000846849287e-01
1.007259209841834702e+00,-1.035494698989220419e+00,4.451999049730928637e-02
-5.821786462864404765e-02,1.725519066231230580e-01,-1.473578836654545920e+00
2.925296918026243365e-01,-1.162570855218926447e+00,-1.467942262082913230e+00
-1.589498264631778734e-01,2.287176401187686337e-02,-1.707431273144158768e+00
2.335148243980504357e-01,-8.426812865364695648e-01,-4.847788042078544080e-01
-4.079487926603723169e-01,-6.338615113025354297e-01,-1.409922113597797511e+00
-4.304878313893868436e-01,3.437669532389129312e-01,-1.182492277198195829e+00
3.270297799379655035e-01,-1.304329616560703675e+00,4.497696532535944702e-01
-2.416870725938752851e-01,3.116930409037789729e-01,-1.554168122849397093e+00
7.639970951268295618e-01,-8.408265485859214294e-01,-7.215666003958788322e-01
6.373736098452990051e-01,-7.880980533529640120e-01,6.546274801478322303e-01
8.221704372355691515e-01,-8.948348302112766328e-01,-8.688201779311123529e-02
-5.087242921999082235e-01,-3.548588107428893301e-01,-1.493030281280048666e+00
4.210492953395563176e-01,-1.519969071690314255e+00,4.219704163442618006e-01
-2.845198200133913780e-01,3.438717232828932269e-01,-1.552484662233849955e+00
-1.321023223332935814e-01,-7.522071073674524433e-01,-1.694806117366743692e+00
-1.374724237571193219e-01,-6.890339092344898164e-01,-9.336761661245384092e-01
9.101503295923766279e-01,-1.491572444538413977e+00,-6.549823948780733041e-01
-4.382128737392586015e-01,-3.834756502938838629e-01,-1.609311268679238571e+00
6.378392314964670406e-01,-8.886725195964351176e-01,-1.302945084867326742e+00
-5.628630149037356922e-01,-1.618231126637817430e-01,-1.365626505310996386e+00
7.421216041437130873e-01,-8.010354219836427481e-01,1.161335666504457853e+00
2.295635534449955717e-01,-8.114071898129138205e-01,-5.604632505884965532e-01
-5.342347513145433158e-02,9.064721127320987670e-02,-1.608155959795375844e+00
9.274749573908708244e-01,-1.571658456881440902e+00,-3.508879168324360864e-01
-5.708482965783200358e-01,4.154387764826886764e-01,-1.310521618151094136e+00
2.611761223399029497e-01,-8.760452221776289239e-01,-3.349969572528886941e-01
3.040282274391398754e-01,-1.167045758516826126e+00,4.138194725676757613e-01
7.194885682281616512e-01,-8.313913353484078117e-01,1.166449163073046025e+00
3.956378176258174562e-01,-8.533474368079219108e-01,-3.712525607569996944e-01
5.447596320632667188e-01,-1.418726128762192840e+00,-1.165148054045990644e+00
3.328016461363270673e-01,-3.512023102371336636e-01,-1.159697240481856406e+00
9.136848244841287991e-01,-1.236276326135115511e+00,-8.061236032166239074e-01
-2.241303051569276672e-01,2.988450639419427124e-01,-1.554501197547274893e+00
7.581234202181696968e-01,-1.341982473569951928e+00,-1.061817407225339460e+00
-3.430548970230637984e-01,2.580741192864563494e-01,-1.199731421984357338e+00
3.694254385620823200e-01,-5.193941899769037862e-01,-8.814896097398939867e-01
2.964088362392992559e-01,-6.169654743174981526e-01,-1.625866093690346625e+00
7.881644271036514215e-01,-1.019113162565003172e+00,-1.019701210537563352e+00
-2.173771016021008307e-01,-1.013968903195164861e+00,-1.320232316791388971e+00
1.794682407916431410e-01,-8.540725862136857582e-01,-5.127510065816681673e-01
-2.782234946107276508e-01,-5.509675473721328265e-01,-1.020390426314967014e+00
8.761040811389516625e-01,-9.471427269239410807e-01,-5.212885342532797006e-01
-2.243805613296818713e-01,-1.794898540835914921e-02,-1.096549782771083503e+00
5.223675985444149461e-01,-1.683359073940048578e+00,1.104120500193265658e-01
6.708669233502015938e-01,-9.163133505488425534e-01,1.190772377778763991e+00
1.788909430039359039e-01,-1.436130469774612006e+00,-1.817496885718505317e-01
3.644666576102487676e-01,-6.686513224785539666e-01,-6.566489990990359571e-01
5.905133962659795399e-01,-1.724740811653103556e+00,-4.939406560777689914e-01
9.661608772901761899e-01,-9.538983024365377261e-01,5.737345414281178613e-01
9.271488746678053783e-01,-1.575942308520573487e+00,2.695756408978809415e-01
-2.559614988932633686e-02,-1.095948322533510488e+00,-1.447039733524452476e+00
2.534335413772039747e-01,-4.953438861338298471e-01,-9.073596439276903070e-01
3.288926349966261320e-01,-1.630991372245958138e+00,-5.110281216614776661e-02
2.726082641369663162e-01,-7.107002290122201860e-01,-1.660704939239997069e+00
6.894533008494705406e-01,-1.222792774885205880e+00,1.008535168114802039e+00
-5.894536233094440636e-01,1.348753192314169069e-01,-1.506887281855310956e+00
4.950974911104356058e-01,-7.267017591059126147e-01,9.079913842655489287e-01
-5.033105856779620524e-01,-2.377224347149258510e-01,-1.283441802358901374e+00
2.055143853801447706e-01,-7.945103267152673343e-01,-1.656823365607670295e+00
6.932641273568004303e-01,-8.535162521934177571e-01,2.092263010574911264e-01
3.605638805479433606e-01,-1.051710973740409560e+00,6.243205805829303845e-01
-3.239810033439334269e-01,2.457260889673538659e-02,-1.732269964160339848e+00
-1.892727353409708047e-02,-1.291026032098401277e+00,-6.504017919349678323e-01
1.172251055623202282e-01,-1.266417184188413980e+00,-1.359955322486806839e+00
1.018844340218911793e+00,-1.452801812092563205e+00,3.230765041741028853e-01
-5.951023147039758987e-01,2.810452298436560414e-01,-1.296192265494622964e+00
2.404585169084820506e-01,-1.566989830083282742e+00,-2.591672017649143678e-01
-4.632286544398511174e-01,3.419070569562016604e-01,-1.550393102091466080e+00
5.031675773092214587e-01,-1.583508177486318669e+00,-9.193905403504575302e-01
9.052015640826681642e-01,-1.126465900465443370e+00,-6.751066999048583872e-01
8.369353982771835510e-01,-1.038027766278310615e+00,-9.467124289498007883e-01
6.764935582144020465e-01,-7.413907335815010935e-01,-7.460758636297187829e-01
3.951504755310066841e-01,-9.569792324944443873e-01,5.005298823301382871e-01
3.904750349410751054e-01,-9.289495984323518085e-01,8.018032093662563753e-01
-1.765876435615832685e-01,-6.963337376302678461e-01,-9.525976849326162066e-01
3.346024901758886116e-01,-7.667696482138688374e-01,-5.056508781384350115e-01
-3.800351959625281606e-01,-4.979375715370001204e-02,-1.725684373965587604e+00
1.026272869511416941e+00,-1.456464240403416932e+00,8.737981795962104781e-02
-5.340222728685777298e-01,2.343013686319778688e-01,-1.203683978200789095e+00
1.312346911728317356e-01,-1.409535144450846378e+00,-1.115468028441229498e+00
6.852001472354840583e-02,6.503758071270859982e-03,-1.510258365173213990e+00
8.574026979665266834e-01,-8.065177979943110032e-01,8.739000237886124234e-01
9.482409116862912102e-01,-1.338509050948943679e+00,7.249304032027613642e-01
8.065176836961256424e-01,-1.328890883350617225e+00,8.435676473910053152e-01
3.808791777345903462e-01,-7.456834944605237325e-01,-5.924151271056748991e-01
-2.970558816501642219e-01,-4.650766843676825135e-01,-1.086405998007711649e+00
1.010119676032209091e+00,-1.549480068143368472e+00,-5.642160860270249712e-02
2.613648912033715854e-01,-2.035653723745678434e-01,-1.354658680705491891e+00
-1.614189879843936498e-02,-6.441334211515895580e-01,-1.746069165764152498e+00
-3.297907910845464530e-01,-8.378721235447386118e-01,-1.246236475848822689e+00
2.722949627685865015e-01,-6.685690789451003146e-01,-6.970320599233904568e-01
2.242393768521981912e-01,-1.147689121494753106e+00,-9.740745540295860094e-02
4.729624504096471282e-01,-6.321128335134631460e-01,-1.453282923768369761e+00
4.509205919039643851e-01,-1.471308456734609749e+00,5.555269394248600889e-01
9.515543865266156143e-01,-1.009386504901013337e+00,-6.506909882628249264e-02
8.514654246315107589e-01,-8.227705893611331200e-01,5.609828106756826749e-01
-6.603014078967903155e-02,-1.280945450111959705e+00,-1.021868087829237881e+00
3.234392047052726121e-02,-4.167839813096108625e-01,-1.759416035448573279e+00
4.842310571459043089e-01,-1.337952668830339586e+00,7.791703249175550017e-01
6.508161249261545933e-01,-7.341313143606599256e-01,1.174706101577271067e+00
4.779205765655848426e-01,-8.615624652771565195e-01,-2.291587461117456648e-01
3.744661405892919515e-01,-9.850077601604902977e-01,8.843905884916863913e-01
-6.587672410278176682e-02,1.311333095469276455e-01,-1.255878315431433911e+00
3.746409975256673741e-01,-6.957580950755986038e-01,-1.585555196937229239e+00
-1.253462924847363047e-01,-8.312987319326961000e-01,-8.381112747952778053e-01
4.706590733010002081e-01,-5.563487749423333684e-01,-1.410970493187066133e+00
-1.816992900070964201e-01,-4.165224949185381553e-01,-1.755739133493902537e+00
-3.928945653529323789e-01,-4.609275819199856739e-01,-1.155099720955209630e+00
5.324339584736863529e-01,-1.626777501457597808e+00,3.176589744872523324e-01
-4.112742947694317808e-01,4.630000779285122214e-01,-1.404074729241832298e+00
6.573843742434370974e-01,-9.224330605068732369e-01,-1.276326101419208436e+00
4.499284419500494403e-01,-7.402089899675416973e-01,8.530299828093846903e-01
3.671454099903077584e-01,-7.029643141275090379e-01,-6.519586449583394394e-01
1.066857244063508681e+00,-1.326591168554480449e+00,-1.331316373012930709e-01
5.717533982133115034e-01,-8.514283029552256465e-01,-1.491047827898477895e-01
7.064882285928480998e-01,-8.192834221235870684e-01,1.188326663203085776e+00
-9.599708419969837925e-02,-1.881062465167677999e-01,-1.064474848779616956e+00
-1.489967152306751752e-01,-5.911611854539280952e-02,-1.731537965533636481e+00
2.751601154006469985e-01,-9.862574451949512877e-01,-9.904445098987843532e-02
-4.697342195027472411e-01,-4.173629212776058806e-01,-1.242822817679191783e+00
6.905274458189571973e-01,-7.956808323422245310e-01,5.037586966893060625e-01
5.099146094357692727e-01,-5.161095161643687312e-01,-1.272223415335982377e+00
-1.460295381921761504e-01,-7.088378533351638033e-01,-8.757567878353164081e-01
1.282501959814109360e-01,-9.194008076766591389e-03,-1.355121275309975726e+00
4.088530502005481293e-01,-9.405148447360817121e-01,4.415955208319010672e-01
8.782917029685077814e-01,-1.148200863043695730e+00,9.822808640017204329e-01
-4.074189628951837561e-01,4.277319113843542908e-01,-1.493606771554199852e+00
3.871808480158335231e-01,-1.231580959776536810e+00,-1.368693243032240492e+00
-1.468034934275540271e-01,-9.995490661905641616e-01,-1.447691519208576860e+00
5.767834833067999600e-01,-7.663539427792813719e-01,1.184198681419766919e+00
9.244463277279633129e-01,-9.876973682584123670e-01,-4.585476149956513314e-01
4.143905209440003068e-01,-1.032037156983176773e+00,9.056505835909643976e-01
6.085005905480231903e-01,-6.549171809637774899e-01,-1.044757258383878673e+00
1.521649768098065902e-01,-1.365470696373534354e+00,-1.648303795722977638e-01
7.041356833894258926e-01,-6.914460728546436563e-01,1.068038628733760875e+00
7.483406383504060955e-01,-1.648472132994961203e+00,2.897730898004882705e-01
4.787188481362540382e-01,-8.932946971319805085e-01,-4.719216600455929111e-02
7.085169382895453172e-01,-8.232013033252729706e-01,-5.499818399571245742e-01
8.528136857492284451e-01,-8.667213836173794927e-01,4.812426089014190667e-01
-3.075575507730882174e-01,4.415519930666756410e-01,-1.350566817559196720e+00
-1.442628408680110032e-02,-8.498246903214330406e-01,-6.914437159122367449e-01
6.622996382980965713e-01,-8.039960868077572487e-01,-1.188266710762258649e+00
-4.360669885948083579e-01,4.425743611127768706e-01,-1.450941689227662534e+00
1.046924242794478321e-01,-1.108122016705767737e-01,-1.189839020521013868e+00
4.322427939981726697e-01,-5.028440527431802254e-01,-9.983558534087602077e-01
4.384694832612222037e-01,-7.265126416461169523e-01,-5.500422332025999284e-01
2.492680343602424464e-01,-9.616432095770971467e-01,-3.004739672798657502e-01
-3.269990715651011626e-01,3.241325799626094128e-01,-1.192047311300296508e+00
9.927766380791354095e-01,-9.549472878881272164e-01,5.911247875862843948e-01
9.159382314556522298e-01,-9.907730692214717916e-01,-3.081201343117130342e-01
3.020566974715409025e-01,-5.185205362947989949e-01,-1.636901084338379331e+00
2.615579320803916863e-01,-1.414281670462024909e+00,-1.209890755060795131e+00
6.863443967134860157e-01,-8.530443188296686907e-01,-1.400314759120332986e-02
5.892456490353463749e-01,-8.226535348138563908e-01,1.217296691094507333e+00
8.279393981028661254e-02,-1.062399368136848432e+00,-4.199776345126789434e-01
7.667214253872217666e-01,-8.543349989870103744e-01,-7.517207101216075715e-01
-1.309025392422122069e-01,-4.316832186407023458e-02,-1.718499568327694904e+00
1.026991197906474307e+00,-1.021742015603771758e+00,3.547649026365737868e-01
8.135475575591657460e-01,-1.031908035761685660e+00,1.112576763817473724e+00
-9.418856114585216766e-02,-8.853404978355323696e-01,-1.615770418095582084e+00
2.029545014043913076e-01,-2.202611936002218662e-01,-1.174928471691085052e+00
5.626905369605990082e-01,-8.081586450617466166e-01,-4.105696968192512619e-01
3.519182000859303328e-01,-1.016792845224575581e+00,3.786687462957729622e-01
6.668097479123203941e-01,-7.277366454896326831e-01,-1.065965166014357868e+00
1.945422701120574360e-01,-4.516671853809183235e-01,-8.989148828148717518e-01
5.277775255241594632e-01,-8.614997808067474949e-01,2.396758012691002637e-01
-2.262244664631006263e-01,2.943189673056749722e-01,-1.561192511251000781e+00
-1.968475718390714224e-01,-8.220006222846485411e-01,-1.596572048537470367e+00
-3.420441608904929431e-01,-2.232247124193192100e-01,-1.099768419610974934e+00
3.558429370319763363e-01,-1.106684888981826820e+00,-1.468677774697594085e+00
-2.077041023861087542e-03,3.646539957453352743e-02,-1.219045340843045722e+00
1.010941074291180908e-01,-1.138515058530875868e+00,-3.692931220272139825e-01
3.942390610447856769e-01,-7.418739227728581298e-01,-5.313551897194602747e-01
-4.743539410619998509e-01,-1.874088268173918770e-01,-1.187910672726248063e+00
-4.527380759700285195e-01,1.333640978936348753e-01,-1.173769777701527461e+00
6.162597424055498152e-01,-7.889019534526944266e-01,-1.326314789129735772e+00
-1.241230452023279474e-01,-4.047015658659062765e-01,-9.854494262440236518e-01
-2.275619266781714611e-01,1.371822658645725501e-01,-1.144457054573909449e+00
1.559093092284758730e-01,-5.110010721638181819e-01,-8.553800022345666720e-01
5.628741488348492084e-01,-8.980581407646188730e-01,-7.825468727948280134e-02
-3.979123595506543487e-01,-3.524458322929821530e-01,-1.137714520577042476e+00
-1.791961933716870459e-01,2.928631667450455334e-01,-1.484048528460348848e+00
7.921232418146062493e-01,-1.239114640024042258e+00,-1.067211753295283394e+00
2.370250633231692911e-02,-1.237294638569868876e+00,-5.493454541499195320e-01
-5.643285721639358377e-01,3.237509679231291293e-01,-1.279753757469871411e+00
6.620044915976847077e-02,-1.439808408016649777e+00,-5.888348466569740536e-01
-2.864119338500401360e-02,-1.322268496660816917e+00,-9.262517826914583585e-01
-1.321169308896553152e-01,1.703977448155103436e-01,-1.588002942332386258e+00
1.975593470981976685e-01,-1.289568631296944767e+00,-8.191451253269101118e-02
-5.339887440475936664e-01,-1.478107209643440834e-01,-1.466237877921992006e+00
4.243537961889755072e-01,-1.710519308363432245e+00,-2.053515927427075061e-01
1.536150121119193301e-01,-8.041040677007820214e-01,-5.645116741007585315e-01
2.160190621016465640e-01,-1.233020676003026672e+00,9.379153798473757742e-02
-2.297957516863279384e-02,-1.248133024610958763e+00,-6.172881410097945665e-01
-7.345411621585699879e-02,-1.139926182689541934e+00,-7.357474102853031050e-01
1.009486070034343763e+00,-1.247605628590868987e+00,6.877879282201863065e-01
7.407005523540178826e-01,-1.705260609024651375e+00,-3.663125570115227658e-01
7.549334191498535684e-01,-1.046137460672394992e+00,1.104246732772068640e+00
5.962231865106499828e-01,-6.279620459155650369e-01,1.048568573007770510e+00
-5.782674117773830419e-02,-1.282744855537305328e+00,-9.558971673323485296e-01
5.147110524930444964e-01,-7.486906352514869356e-01,7.729843538264011826e-01
-1.647105447596045324e-01,3.393864995366201870e-02,-1.116503226906089274e+00
6.580842145768940332e-01,-8.579596224544870919e-01,1.190152344808492080e+00
1.491132539945955182e-01,-1.090633680162529789e-01,-1.235639537789412490e+00
9.393406173363736400e-01,-1.319051043186799221e+00,-7.019671587528171219e-01
2.234288683495406491e-01,-1.043208955362724399e+00,-1.744855719159670582e-01
-3.738853262764574303e-01,-2.283388512028389217e-01,-1.132850371679632984e+00
5.339022599316926021e-01,-6.677468571198749148e-01,-7.811515666935641145e-01
-5.256981921681487258e-01,4.391069087970639884e-01,-1.274580352716556453e+00
2.927597320210200693e-01,-1.645418923039149606e+00,-6.388424407636925650e-01
6.877585143094835374e-01,-1.542935690801466642e+00,-8.980804006402355322e-01
1.046162669910709608e+00,-1.061424300587109570e+00,3.395073384200978928e-01
4.470731255144371752e-01,-5.569070732925068823e-01,-1.482189860054319519e+00
-3.125725498502366362e-01,-3.773809571079438374e-01,-1.108040884581925178e+00
3.713941235660377926e-01,-1.248749146806284349e+00,7.008969420602755296e-01
8.524400048532880803e-01,-1.497178056497844967e+00,-7.381198991309956270e-01
-7.743514299088787023e-02,-1.089009475357843870e-02,-1.702200159368646659e+00
7.676286159690745015e-01,-8.725227514627517111e-01,1.224082478735415980e-01
7.983672142043599651e-01,-9.001876725325836937e-01,-8.269199802957338807e-01
7.692051685103504788e-01,-7.038349622315780429e-01,1.010199290624584023e+00
-5.739365968238833160e-01,-2.497285758294449931e-03,-1.296211098906570491e+00
7.028211493724172421e-01,-7.057700046350786627e-01,1.133087708796541859e+00
2.483490095294325350e-01,-1.562133236665123270e+00,-3.405006479749174697e-01
-7.499541992221288311e-02,2.127620821075238144e-01,-1.490166073997341911e+00
-1.691436209852730799e-01,-1.145465580936161798e+00,-1.036608063310791472e+00
5.003075627043233192e-02,7.193556086073665812e-02,-1.436209909031229248e+00
4.521498858690125577e-01,-6.242442248705871721e-01,-7.532893339851984837e-01
5.893399639320344718e-01,-6.630028207247099514e-01,-1.238486091558788749e+00
9.181076577767608438e-01,-1.066548903473651277e+00,9.288160875849779119e-01
2.865049918380774274e-01,-1.467228070697659925e+00,2.522697200067187673e-01
8.120489915392312685e-01,-1.644115881607089769e+00,-5.284575791699018810e-01
-4.018314029477692562e-01,-6.724150025245696494e-01,-1.161425786661101300e+00
3.125276044550199250e-01,-1.086808792209790653e+00,2.596977568535254743e-01
8.151148778710064491e-01,-8.826101945798662252e-01,1.708067677866894896e-01
4.260403347661429474e-01,-1.261084532348146325e+00,7.436714456632192993e-01
4.710738881688308899e-01,-1.614089800484075132e+00,2.565361080978483255e-01
-3.064425605705536904e-01,4.269577206028830618e-01,-1.357896365021057816e+00
7.050926452998397265e-01,-1.121492716274501200e+00,-1.223165718041137495e+00
6.286399234520192447e-01,-7.866862496862307985e-01,1.186127208320675974e+00
3.424813675439232208e-01,-1.035770598606263304e+00,2.953541808072062125e-01
3.599857949425227521e-01,-1.306379562737356448e+00,5.555392416867145355e-01
-5.943703931663495421e-01,-1.313887646371707761e-02,-1.479902818386451546e+00
3.044562088344583972e-01,-1.657245624739770662e+00,-5.986774671767683964e-01
1.691731155845107304e-01,-3.402292576011641256e-01,-9.989826000973378584e-01
-3.901132248865727958e-01,-2.297809025683367756e-01,-1.706377128775183216e+00
-9.181677405911903289e-02,-1.196229637151580594e+00,-1.036021827929113792e+00
3.722863071871944096e-01,-6.368786503841638025e-01,-7.282708469700557297e-01
9.938814382820100324e-01,-9.911196093601577495e-01,2.488812564868078947e-01
6.735620388575964679e-01,-8.102306275279639314e-01,3.770609888581056834e-01
3.142536711881355194e-02,-1.296021969663734730e+00,-5.460921043820171628e-01
-1.349197428357485906e-01,-2.181913277522433969e-01,-1.778060511518528397e+00
-2.030924869197309746e-01,-1.033070770728253818e+00,-1.039235674871530346e+00
3.022359420535936092e-01,-1.232563750728546514e+00,4.182307834992403661e-01
-4.500232854273503724e-01,8.373886873304862977e-02,-1.156385363164543101e+00
8.958244163182388364e-01,-9.669189437700296264e-01,9.987129675946051499e-01
8.042274539548655010e-01,-1.686536133978967289e+00,7.089629407656050653e-02
4.855684279791802060e-01,-6.013109751252851964e-01,-1.485712618696167553e+00
9.223548872349442984e-01,-1.385955577984242071e+00,-7.398347369886127955e-01
-2.654760808856045928e-01,-6.941018476597874409e-01,-1.042836847629811770e+00
-5.231337363544351637e-01,-2.481469023220374270e-01,-1.577922356681359162e+00
9.104797566304753120e-01,-9.748232652111273877e-01,-2.803129817129831891e-01
1.031393232603399213e+00,-1.346036991586778475e+00,-3.038003433556294430e-01
-5.161972883748625618e-01,1.281884888762995500e-01,-1.608331107253702541e+00
-5.910395885612333977e-01,3.656267302211992365e-01,-1.282555499826708800e+00
1.046772304957183986e+00,-1.082417229233828548e+00,1.605178004270169656e-01
3.899326704936011134e-02,-1.213949228609247033e+00,-4.504954568844706797e-01
6.459582800331603591e-01,-8.881314797304162845e-01,-7.889432575398511865e-03
9.254866287455494334e-01,-1.524594300177437356e+00,-5.435453701312888963e-01
2.945582459742681070e-01,-1.369361240130417379e+00,2.732809151770010381e-01
-3.564614987338384222e-01,3.018345333469864000e-01,-1.618965813830153255e+00
-9.350507616379148679e-02,-3.320097581181709057e-01,-1.772325579921531835e+00
3.614727735814556309e-01,-3.487982905134043299e-01,-1.332225261874404820e+00
2.392267009561441227e-02,-1.272192435162553092e+00,-5.455489753685028864e-01
1.033920745600123592e+00,-1.206973506881484415e+00,-3.536146761638324088e-01
5.110815656020903930e-01,-7.748541236522862308e-01,1.154343083589329133e+00
-5.618255361002905124e-01,1.260453776434931616e-01,-1.559305858251511800e+00
4.755801140958957340e-01,-6.468168773541265182e-01,-1.502599028136320403e+00
-2.335515607216266110e-01,3.848662283852360977e-01,-1.371900373289636876e+00
8.054858930251996840e-01,-8.851050760793810479e-01,2.892120021043499689e-02
2.220380727162644952e-01,-9.094571030579761128e-01,-4.059902817371179307e-01
9.078899437026207719e-01,-1.090343018713872292e+00,-7.323219631893738146e-01
-3.715195904579484121e-01,-4.466999323979405911e-01,-1.666407184383109419e+00
7.270352397592757532e-01,-7.047315968295793098e-01,1.125855703201231073e+00
2.652804220835248139e-01,-7.719085651781654178e-01,-5.463297934182912430e-01
9.720446746950193173e-01,-9.170316718613618079e-01,7.473155896238132812e-01
-1.683951283842377855e-01,-2.503721400410015285e-02,-1.724523985525720837e+00
-5.750638556928161504e-02,-3.472487565956203781e-01,-1.771484699266146601e+00
7.921490134757157575e-01,-1.575727394505481938e+00,4.352113033027614208e-01
5.721908791190631893e-01,-9.428121279537786670e-01,-1.378096214190058566e+00
2.662668115581878214e-01,-4.462864784190157530e-01,-9.567257012701468888e-01
7.144460298693310341e-01,-1.600073209000669294e+00,4.752264286005135618e-01
2.994780068433565146e-01,-1.190678074522661500e+00,-1.427584870743244583e+00
6.952547794697243599e-01,-8.500514763107273053e-01,-1.701285417131155053e-01
-2.008259155884476177e-01,-1.005165866425121957e+00,-1.037508080743231753e+00
6.994867953072251288e-01,-8.073853238643109442e-01,4.487754315231112789e-01
7.206565678834947475e-01,-8.293076166312873809e-01,4.047450734798010985e-01
5.091277645373088606e-02,-8.928383308885277092e-01,-5.917200813078770105e-01
7.584868003320999197e-01,-1.524707090696088230e+00,-7.970192764819590270e-01
6.572198815598053953e-03,-8.346575438632323207e-01,-7.009079071674902961e-01
6.382828784848236792e-01,-1.290825701219199706e+00,-1.188675689758032172e+00
2.775636880318931854e-01,-1.368272741313490748e+00,2.365472205428417463e-01
5.907839498712406101e-01,-6.517423054206382682e-01,9.110853927734845481e-01
1.034579765439175292e+00,-1.425461618803617769e+00,-2.008933025105001102e-01
-1.537534625256631871e-01,-3.390329174005636270e-01,-1.805075702697485074e+00
9.614341745129448835e-01,-1.044299675085068602e+00,8.252808129205227994e-01
-5.930246591931646050e-01,1.475349135066396644e-01,-1.487569211000118186e+00
8.218495943551599181e-01,-1.341591321967960493e+00,8.437010750190655495e-01
1.055602099676038463e+00,-1.212453434719961587e+00,5.435847061571990047e-01
9.653982092343497134e-01,-8.902292696242852799e-01,6.488792499611835130e-01
2.079851416370899209e-01,-6.707941226408651314e-01,-6.628950635105411715e-01
5.954690950473718880e-01,-8.638512444497248310e-01,-1.366268082761029179e+00
1.387737810181071119e-01,-7.584754210616684311e-01,-6.378578033253456958e-01
-1.241583313412310263e-01,2.284363191067179111e-01,-1.532994965124222286e+00
-4.780811604846995078e-01,-2.587374674701409250e-01,-1.596042146959461894e+00
1.046591378596672284e+00,-1.211711041062672578e+00,6.203980994185902542e-01
2.670979187760920137e-01,-1.058526276787373543e+00,-8.785274781774564390e-02
9.549963500079947654e-01,-9.202503267267256870e-01,8.772902288843926755e-01
-3.645760003725479481e-01,-4.569686469059755507e-01,-1.667972015760319504e+00
1.053711837486735359e+00,-1.206288904103293591e+00,-3.132609083443312903e-01
-4.813381229044600418e-01,-3.233832594249791970e-01,-1.338194020018882213e+00
2.459785858516101431e-01,-3.341107104856307908e-01,-1.622369371631067203e+00
3.107640413387481593e-02,-2.427485116890678307e-01,-1.742406967051460587e+00
-3.575557626591560623e-02,-1.306581260128470090e+00,-7.870515838118899987e-01
3.568352155264321590e-01,-1.489290651042695091e+00,3.336869664715538808e-01
9.166378053306876994e-02,-1.114494875962980913e+00,-3.674257017093862099e-01
1.905440148640857034e-01,-8.884942820817700593e-01,-4.774583953758017030e-01
1.052661045426582120e+00,-1.414190749606698105e+00,-1.535368012860313658e-01
-5.802318295107188328e-01,-9.005096649593188896e-03,-1.355623873536617952e+00
1.106778191927037108e-01,-6.682980519715023271e-02,-1.221059492024765269e+00
8.077411358216151083e-01,-8.926649515869663487e-01,-4.158460561953939566e-02
4.379299575985802773e-01,-7.988931532852177053e-01,9.070279178122088171e-01
1.903067917790153551e-01,-9.051573154355935236e-01,-4.479751773050695274e-01
3.073137476759696396e-01,-9.468659608704725894e-01,-1.577351176639185115e-01
9.284278427412978596e-01,-9.439731732821382559e-01,1.806060031250404652e-01
4.872319473025087389e-01,-1.491704678020197017e+00,5.436195964384898938e-01
6.536893015395344175e-01,-1.672872786168812631e+00,-6.536410619633963304e-01
4.949946732152644691e-01,-5.226516940583195714e-01,-1.299665282051491566e+00
8.219937832276934531e-01,-9.001129803752269121e-01,-2.222198271624267474e-01
5.730201674304574722e-01,-8.955330555079907828e-01,-1.310353264778604983e-02
4.092830175420548722e-01,-1.273582295352918559e+00,7.588699533437730516e-01
5.889153572240550805e-01,-8.423029356593486616e-01,3.473940954317657481e-01
2.964372978712399576e-01,-1.595149041020248459e+00,-9.133580371341433191e-01
8.651150418743255299e-01,-1.132279216732776872e+00,-8.879016957041651059e-01
4.017630766932258624e-01,-8.038124202440388721e-01,1.007000820755847847e+00
6.619360240209974933e-01,-1.131447735832536772e+00,-1.258380928507387475e+00
1.506073854028947556e-01,-4.534182234296213476e-01,-9.344720053191843956e-01
7.495055084752558772e-01,-8.251561359285066732e-01,-5.945896107743960934e-01
3.668382849777949706e-01,-1.059576884652338347e+00,6.709640931073945769e-01
7.472603321319656877e-02,-1.292989465297345486e+00,-4.172601738968996776e-01
-8.134335415773612243e-02,-8.823431383765856229e-01,-1.632253352770583144e+00
2.374497016899691781e-01,-1.346083633410443126e+00,1.592920065912050431e-01
8.795655661277100856e-01,-9.502701260185324461e-01,-2.076435619984820166e-02
3.140715978164379529e-01,-3.884318495441840269e-01,-1.551590611284366261e+00
8.279814677630783493e-01,-1.182705693243011114e+00,-9.874004716382073221e-01
6.578923345105200937e-01,-9.833266728255005695e-01,1.145548586175153316e+00
1.053170778851649114e+00,-1.417795426511572199e+00,8.954166494275741378e-03
4.140209577110538497e-01,-1.268682786183444211e+00,7.690290433687394511e-01
3.547433473496430234e-01,-1.004530102439547212e+00,7.712957756187162339e-02
3.536742883674610094e-01,-1.528290442110576075e+00,2.322784964283438613e-01
-2.445313839512868181e-01,-7.595905138153374869e-01,-1.004283380505346823e+00
2.747028733087568120e-01,-1.575389581410924000e+00,-1.186772566781437582e-02
4.278554602997629575e-01,-1.708692445447081765e+00,-2.691874053434300529e-01
-1.834960976117100961e-01,-8.082781511702939736e-02,-1.098739606992003015e+00
5.729610991048630364e-01,-8.265875395302478834e-01,-3.072387741111565762e-01
3.731914726586163522e-01,-1.677349574025429391e+00,-6.008205437259270809e-01
-3.788815713612773695e-01,4.772070802706393500e-02,-1.142034392793275455e+00
9.857190265684520059e-01,-1.310807266843538210e+00,-5.955645028324139112e-01
2.380388041763725482e-01,-1.604484105070846267e+00,-5.294724127690008109e-01
6.239366407706301576e-01,-7.403888804402887214e-01,-7.227270420183167232e-01
4.368271581982324792e-01,-7.300185142298406538e-01,-5.992670809607064664e-01
7.809215176121147017e-01,-1.164820994162406365e+00,1.010478551314567763e+00
1.123711061223073571e-01,-1.466483868917825284e-01,-1.164471984575512487e+00
8.909147547379845378e-01,-9.487502395314952874e-01,2.047456957529221189e-01
-2.370009027751489306e-01,2.788189558750401309e-01,-1.560258467066930832e+00
-9.675210321149017856e-02,-5.315575870811382053e-01,-9.411823318673361305e-01
1.028735173987423090e+00,-1.098497613062517253e+00,1.841395230702125574e-01
6.224768585552639677e-02,8.248018566703066434e-02,-1.430314739363984122e+00
-3.099300126322741544e-01,-6.894776142988188194e-01,-1.530665304100132129e+00
-2.824781040635495066e-01,2.830028064584670378e-01,-1.576159112367394366e+00
6.797103658778258506e-01,-8.575608908414411591e-01,6.876847912813259522e-02
5.763292460176454579e-01,-7.487540576918798596e-01,-5.793133836965560501e-01
2.694530321923546134e-01,-1.635951737953581508e+00,-5.645344673863516016e-01
1.493738159035812307e-01,-1.213361263243345922e+00,-2.258213926699328689e-01
4.224863592142909519e-01,-8.646263761027089823e-01,1.011880622256610129e+00
5.971774899563403460e-01,-1.598191031322433009e+00,-8.613540076439589743e-01
6.316851029280320384e-01,-6.559340804476032627e-01,1.090043426815294536e+00
-1.250838465544349409e-01,2.472720475691114195e-01,-1.552003327592172965e+00
3.947849236230431269e-01,-1.604008516257425576e+00,1.637628475432401920e-01
-9.720061755002847026e-02,-9.074646042717706695e-01,-7.971941950904530838e-01
4.484532968722906299e-01,-6.973323218880955743e-01,-6.265272319854410243e-01
7.354786162993851018e-02,-9.758741832485439138e-01,-4.937373975899286282e-01
-3.281764894058173954e-01,5.084223619325645843e-02,-1.121451897998212432e+00
6.059802549225516977e-01,-1.740268480140511720e+00,-4.084825287323081144e-01
7.727978284912995210e-01,-1.396817104714940028e+00,-9.692253212997241629e-01
6.163397661208041001e-01,-6.848478962249429092e-01,-9.490077488409459638e-01
8.824042535847641533e-01,-8.571993169850328220e-01,8.794899228653108025e-01
-2.555035817485267757e-01,4.052329324221144446e-01,-1.365224342711265804e+00
7.362244447021579763e-01,-7.951527220915528549e-01,4.582012640493354771e-01
1.546181190941206540e-02,-1.478105509446101667e-02,-1.177008681469232432e+00
-1.503272973586370145e-02,1.035112409971851305e-01,-1.288736797237845622e+00
-5.269175422345845350e-01,-9.431986399962314846e-03,-1.236078755535709339e+00
9.451514311764919185e-01,-1.188299681143442754e+00,8.486823453723116861e-01
2.612391765177514702e-01,-1.452860832813645420e+00,-1.114167673287604243e+00
2.681265503014995666e-01,-3.708520593365449702e-01,-1.612373400453068983e+00
3.571250241065748732e-01,-1.022501116110837494e+00,3.227380660640465360e-01
5.056200389540287388e-01,-8.535907975798534553e-01,4.740812408902084774e-01
-2.030868785780949037e-01,-7.416989775366967796e-01,-1.653884155651252019e+00
-7.803144005295255259e-02,2.318613053108700695e-01,-1.476564373729525537e+00
5.306935535303684004e-01,-8.307214587860711763e-01,4.727166563016175216e-01
6.512516367517378058e-01,-7.237063378524759560e-01,-9.666211237088286889e-01
4.600309366550617840e-01,-8.508000385086925688e-01,-2.175334371462145922e-01
5.955102043282153312e-01,-6.685439347060891935e-01,-8.982329638639612313e-01
-1.726066013492181250e-01,-1.019082926571969860e+00,-1.349078372742229970e+00
5.053144007945302441e-02,-9.450342081677139960e-01,-1.628529731501886069e+00
-3.556215456747369719e-01,-7.203626327610423985e-01,-1.160837879581082310e+00
4.635356575651445321e-01,-8.706769922384139937e-01,1.126156291613561233e+00
5.701517914970311018e-01,-1.564625008706647780e+00,-9.389351261556759809e-01
3.368407745221016492e-02,-6.425574422241214778e-01,-7.986805041846795072e-01
-5.572412755589573052e-02,2.784427284818573323e-02,-1.192626713754131096e+00
-1.559517449735033923e-01,3.261041383868872878e-01,-1.410497174901722994e+00
3.336282487016070109e-01,-1.615693041213117853e+00,-9.744654693348205055e-02
4.581355336464714711e-01,-1.456335140645855120e+00,6.305903321521454385e-01
1.443572422211698569e-01,-1.282478343632961870e+00,-1.798227816422273417e-01
6.149764090990782472e-01,-1.602618798427023039e+00,4.700558124796310189e-01
-2.993462506321131755e-01,-8.721841420476138529e-01,-1.292094108497805038e+00
-5.180399292280536416e-01,-1.662868265333294349e-01,-1.237357974432383489e+00
7.161789463542690415e-01,-1.660651124024581149e+00,-6.473233604749364378e-01
5.790576760206774809e-01,-6.007500611342107000e-01,-1.025498897124664799e+00
1.011933797961606762e+00,-1.554525187810513076e+00,9.614803266850537045e-02
3.908138644553741381e-01,-1.591524528054458099e+00,-9.248476222831820692e-01
-5.250166175818436060e-02,-6.196430320344115117e-01,-8.620085451155965472e-01
6.376380441895129758e-01,-6.849098903709165409e-01,-7.909071088287649154e-01
8.237239548453832994e-01,-7.942770417098727886e-01,9.966972423174111917e-01
3.340750773373548088e-01,-1.664216789437314548e+00,-5.675734645734034078e-01
7.601690655782742390e-01,-1.388932010962659946e+00,8.068633246761245381e-01
-1.816848148705383637e-01,-2.147549609045146801e-01,-1.051363206204147804e+00
1.932389840898991740e-01,-1.322525728343648010e+00,-3.056931405481505548e-02
3.637804486295385109e-01,-1.164785413644301659e+00,6.863696062360929995e-01
-4.755816983772663264e-01,2.524574501679437977e-01,-1.591345853031754354e+00
4.366564043836119180e-01,-8.818157178558361231e-01,-1.716831640647046853e-01
-5.608161241148172937e-01,3.987812999644650414e-01,-1.394496356231040846e+00
-2.958700680780086412e-01,-7.433643142882904176e-01,-1.131461044707865460e+00
1.069286568577661134e+00,-1.188760640036379712e+00,3.130386478849719878e-02
-4.402314070137469670e-01,-3.972698108016078922e-01,-1.250639943163194490e+00
6.941298465204831514e-01,-6.996337095446153453e-01,8.334170055961339640e-01
3.468147280310757141e-01,-1.513359360558073963e+00,2.128259072277685626e-01
2.284889377085879414e-01,-1.301736231422194745e+00,-1.354447383063701382e+00
-2.756598671285826474e-01,2.954495368891158491e-01,-1.594099734662225876e+00
9.040886294278256408e-01,-1.571147423372895036e+00,-4.094023622266234619e-01
8.680606038551913484e-01,-1.533948772045902853e+00,-6.264433689993941234e-01
-1.676887984340970361e-01,2.302272490753779211e-01,-1.566322362439755311e+00
