1.597176793157814911e+00,-4.108714939904922758e+00,-4.588495700504280350e+00
3.037676293435758623e+00,-2.408373577242033381e-01,-2.670406048588573888e+00
3.181178062405548568e-01,-5.015610188173640793e+00,-3.648907633112916216e+00
1.592261822460448784e+00,-3.232039478292902945e+00,-2.459966897771605598e+00
5.753328638292223296e-01,-3.922830260728221052e+00,-1.845618733044451565e+00
1.218441568782724138e+00,3.866541750463434179e-01,-3.809904571691175246e+00
2.169111795729401215e-01,-1.175866087650145220e+00,-3.430676651526527454e+00
-4.918654324142918699e-01,-2.152611622830217009e+00,-2.930493158667204501e+00
6.316983526493361589e-01,-1.867515678918522104e+00,-5.443453417925403492e+00
3.199515166390062504e+00,2.356627909776618957e+00,-2.221003651244482402e+00
4.081418503432923117e+00,1.032869925730006688e+00,-4.252523319552317993e+00
2.533805464855308776e-01,-2.472209212207956863e+00,-2.221392345359434195e+00
2.277840556477563339e-01,-9.732864868880115594e-01,-4.020327236589651854e+00
-1.047299488236779430e+00,-4.111991632029784682e+00,-8.863380716530311343e-01
2.723394792663051955e+00,1.349185309777087394e+00,-2.345663314165707725e+00
3.902162154917807602e-01,-4.556934663233305649e+00,-4.479730704038660249e+00
-2.320120234681243065e+00,-4.383149826429465712e+00,-9.265237361809669503e-01
3.739218348236948319e+00,1.957843014252272251e+00,-2.326566118994063626e+00
-1.731064188227827150e-01,-2.204334074810739175e+00,-2.565321125272847169e+00
1.956016223131342047e+00,-9.204042540953740748e-01,-5.847930305807612861e+00
3.995527154613709886e+00,5.594964158033527424e-01,-4.735116870997956084e+00
2.244252300306452952e+00,-3.425743150153823358e+00,-3.251108514002074124e+00
1.208542285061372734e+00,-3.571285129883542186e+00,-5.328015254095546105e+00
4.323819109180666587e+00,6.529405055830510562e-01,-3.652605361015456964e+00
-1.531487297162290817e+00,-4.899809544607743206e+00,-3.099918567984972118e+00
2.094296845517144678e+00,-3.518388359219339012e+00,-4.823057966102737737e+00
2.975508341133625834e+00,-2.803541936994328854e+00,-4.602634247854313188e+00
3.979751144348494751e+00,2.311502030492276205e+00,-2.688329458480630763e+00
-1.383864891592365476e+00,-3.219402144347048189e+00,-3.894991875519292268e+00
2.410584722106520861e+00,2.301585629853069914e+00,-2.659113247116124956e+00
-1.373819481813153720e+00,-4.464320511529795255e+00,-6.984185004249372497e-01
-1.695668345649453457e+00,-3.693104704588169529e+00,-3.430245230864120920e+00
3.172545481240301335e+00,2.647654775856173037e-01,-2.590617377265003185e+00
2.574704383786866835e+00,-6.084220409294055498e-01,-5.807653417971592624e+00
1.714642800069426265e+00,-1.615117481665921062e+00,-5.873475440017061899e+00
-2.230201662226383608e+00,-4.378212018912477355e+00,-9.218789802819792323e-01
-2.039157642277638960e+00,-5.010320823617175456e+00,-1.455106003360302713e+00
3.233614889854917518e+00,4.412374450449131277e-03,-5.403534135408228245e+00
-1.612904489869303459e+00,-4.206311122447171869e+00,-6.275609043700345335e-01
3.782573660205018395e+00,1.104167330879512354e+00,-4.724117861251656336e+00
2.295568528243923101e+00,-3.184046054126466796e+00,-4.979448978302460915e+00
2.578886791683976387e+00,-1.099400165239733385e+00,-2.737818704101490752e+00
2.787859066656653617e+00,-2.769709535768450692e+00,-4.965372491896839158e+00
-7.730602953707020886e-01,-3.099268321373497503e+00,-4.519119937015169342e+00
-5.995503184601691515e-01,-2.560902209347394987e+00,-4.525381510758037074e+00
9.588296480475386740e-01,-1.977906216968356556e+00,-2.376770013652445890e+00
-6.087649822376710596e-01,-4.273637042834959487e+00,-1.125580213887757086e+00
2.934373080439347525e+00,-2.661788377405502892e+00,-3.841187461501420763e+00
2.400063029197177400e+00,2.499114654051706186e+00,-2.932971720857610265e+00
2.049228373818388960e+00,1.144992115405825128e+00,-4.907928922245764269e+00
2.802201461223231327e+00,1.682068556407230187e-01,-2.547103714136746966e+00
3.569092256055402590e+00,-1.339247795227186177e+00,-3.468313822333525476e+00
-1.719034710321763582e+00,-4.474056837048654423e+00,-6.909332759159323434e-01
-1.152807268751244063e+00,-4.306541185547938966e+00,-4.045939017167401452e+00
3.589187266989992242e+00,6.289452232857968283e-01,-2.713869152554252206e+00
3.637914009328711007e+00,-1.496090995981555816e+00,-3.967027920678880992e+00
1.022071152910220881e+00,-4.047516129371210525e+00,-4.905252545263894426e+00
2.268452094286903531e+00,2.065130289029749822e+00,-3.940393010502431181e+00
2.565448980994148531e+00,-4.914349629791555651e-01,-5.722838656149252579e+00
3.587178187774150206e+00,-1.721213368029438584e+00,-3.971284587531148436e+00
-1.218405884667251193e+00,-4.282636670517945277e+00,-6.892006352821906656e-01
3.857475755565839215e+00,-1.253126240918013279e+00,-4.283144732442457858e+00
-2.899029464986020987e-01,-2.162920192908191375e+00,-4.915082688283109569e+00
-2.228095971711829382e+00,-4.317069636233703989e+00,-8.958949976152812411e-01
9.902992095271472284e-01,-7.890414884067639134e-01,-3.059975692210167519e+00
3.370370694207201367e+00,-1.923932481377201853e+00,-3.547627716585458391e+00
2.375790707402959168e+00,-6.399214289893816465e-01,-5.774963030979544776e+00
-3.918978505497754949e-01,-3.197701905233537811e+00,-4.948868429897359533e+00
3.244699597843835104e+00,2.709169963524834746e+00,-3.723135281705140631e+00
7.585973407234125609e-01,-1.142613831627370846e+00,-2.888089522272301313e+00
-2.186650446016698446e+00,-4.418925831625633016e+00,-9.050858258298334347e-01
2.075162241138010177e+00,-3.247105951005075930e+00,-2.806576020417354655e+00
-1.619663321256489930e+00,-4.014871299258096826e+00,-7.626507217402503924e-01
-2.139793925127059460e+00,-3.792828265962124412e+00,-1.203344561716938488e+00
2.217999670005183610e+00,-2.601843748178555682e+00,-2.775847571041281547e+00
-1.205304990916389318e+00,-4.039939069454345777e+00,-4.078680331586658880e+00
-1.716115097874044704e+00,-5.096338145715485268e+00,-1.085244428798844751e+00
9.796631528544564871e-01,-1.358060296482342721e+00,-5.608178437609304900e+00
2.758463282028161601e+00,-6.188087431683654271e-01,-5.712907163492483953e+00
3.084530178707654891e+00,1.069647685796509595e+00,-2.327465033179986431e+00
2.264941956527198208e+00,-6.171893916660736376e-03,-5.627193425898379786e+00
2.011211292967340025e+00,-3.185048633739865132e+00,-2.713567173404078936e+00
2.337102665029427762e+00,1.829061837775274313e-01,-2.612137584207308016e+00
-1.482324725407166088e+00,-3.137038420642370706e+00,-3.450458221635071432e+00
3.379280841201754093e+00,2.902748163774927725e+00,-2.769229353559273576e+00
3.017160933330258477e+00,8.526068703490324863e-01,-2.396496071007542472e+00
-1.922712104694576374e-01,-1.558759664793416766e+00,-4.106959308338801407e+00
2.917765438679073675e+00,2.734332732245707276e-01,-2.567919684125421043e+00
1.249063110640569407e+00,-4.202183802781837563e-01,-5.449880065021360132e+00
3.467231232784565798e+00,9.941628532981005018e-01,-2.491400032888706484e+00
1.755533465426352357e+00,2.140581156799931939e-01,-2.879455337710334906e+00
3.960197825341801980e+00,2.103279300722508349e+00,-3.877553175622901804e+00
3.484920405636610319e+00,4.509079587633709196e-01,-2.594431393591815738e+00
5.490129783801331875e-01,-3.050919241522138670e+00,-5.392141801968337589e+00
-1.704521204289779046e+00,-3.580079438088131560e+00,-1.229917699570591605e+00
3.365011546025008737e+00,2.057822505540260583e+00,-4.476862815113239691e+00
4.710780087898217006e-02,-1.278146567033015213e+00,-4.442526496199987740e+00
4.177635393711126355e+00,1.129181182940310446e+00,-3.175042951700166594e+00
3.347704153782072645e+00,2.023614041184401025e+00,-2.269629538150505166e+00
-2.308020305960555574e-01,-1.650003335141542182e+00,-3.496724825452078189e+00
7.790795913084412883e-01,-6.866274886959753410e-01,-3.281635049361613543e+00
2.702273919611643205e+00,-1.050478437724552183e+00,-2.744689146998888774e+00
-1.287342566707045721e+00,-5.345181443162842605e+00,-2.277267417617294232e+00
1.702796547828619333e+00,-3.918894648698396654e+00,-4.705782739036142637e+00
-2.169050254947026968e+00,-4.322074094206122652e+00,-2.486768676317266724e+00
2.202380343232697602e+00,-1.866995257887708703e+00,-5.792439858653759543e+00
1.711387325792355363e-01,-1.709009562707522134e+00,-2.847377605795290201e+00
3.650451486668146561e+00,2.793959001748622217e+00,-2.613700806519799524e+00
7.669289336783808864e-01,-1.621118728390697372e+00,-2.708618092289971191e+00
1.201781022024359880e+00,6.853857036047404649e-02,-3.443469942967265940e+00
-2.178055581893674209e+00,-4.935234815621234894e+00,-1.721193730862290217e+00
4.273537991654600354e+00,4.248316345935649330e-01,-3.559075071397361345e+00
1.481812805342956896e+00,-4.220334437548983963e+00,-2.800129906023480331e+00
4.101865525356966025e+00,1.376531577097324099e+00,-2.850260577425444364e+00
2.594917443170141169e+00,-2.861506017354457754e+00,-5.074857698004967332e+00
2.933009159979749647e+00,-3.888966819914354001e-01,-2.683297687599586201e+00
3.774511424692749806e+00,-4.323920227200753752e-01,-4.928637023223236824e+00
2.649082721454188327e+00,2.137373847239350866e+00,-4.209101722240315091e+00
-1.049880692177187935e+00,-3.760355758034501505e+00,-4.345561596109524416e+00
-1.849564663257127872e+00,-5.086409791050789941e+00,-2.374667942361587514e+00
-1.116287591051317252e+00,-2.823068090797093532e+00,-2.386066549042973328e+00
-9.448344126748022820e-01,-3.894982605898625661e+00,-4.418276860336947998e+00
3.088423665608998725e+00,2.482216249660685214e+00,-3.956160088947596964e+00
-1.071813637338789649e+00,-3.289493027775153511e+00,-1.498609255372285398e+00
1.642124953686149524e+00,-2.739464786078506520e-01,-5.535522147878891630e+00
2.696881677750633699e+00,5.203664444151901991e-01,-2.457058735617431822e+00
3.421456972953078157e+00,3.533541484803680993e-02,-2.725265021658417108e+00
-1.573422392291499161e+00,-3.626359023600087994e+00,-3.590600495969961337e+00
2.298533350083786342e+00,-3.278861561498668031e+00,-3.195647952868434505e+00
3.816129341882470438e+00,1.780463686889263819e+00,-2.457560935668740232e+00
1.452567861198882149e+00,-4.339779703878083872e+00,-4.412533366060670481e+00
1.385004614553889679e+00,-2.186551275964430996e+00,-5.706499607472784064e+00
-9.959302768008109208e-01,-2.637273798454491835e+00,-2.564870280557637994e+00
1.853056367931500137e-01,-3.401563207978472558e+00,-1.668540979298691163e+00
-9.939524597434784559e-01,-2.593809539524631003e+00,-3.777578688335692547e+00
-1.921866970281233822e-01,-2.168785086276892482e+00,-2.629222609495005525e+00
2.774011620721882565e+00,2.557641046291307951e+00,-3.726345267197164191e+00
-1.993604070593970601e+00,-3.536677457834048521e+00,-1.598393044491927428e+00
1.802228875889346549e+00,-3.459119464120564036e+00,-2.700707369709495875e+00
2.633937618889366394e+00,-2.267635954539254595e+00,-2.883227646972379876e+00
1.395559294652421789e+00,-3.311736970709902028e+00,-2.314815493054023676e+00
-1.404735091660311630e+00,-2.940016765734890569e+00,-3.307732936756075937e+00
-4.259144317738918772e-01,-3.792837900729070455e+00,-1.275059805032560778e+00
3.298962760746425804e+00,2.753123122327912675e+00,-3.530065797804387007e+00
1.935709964139142647e+00,-8.770196539187834206e-02,-2.752414835941682902e+00
-1.272483380044980628e+00,-2.845744418612681237e+00,-3.079665146332193348e+00
2.455621745189393579e+00,1.956144899107175927e+00,-2.495979658061525885e+00
1.996704200062199730e+00,-3.693394855496895612e+00,-3.177354496789539517e+00
3.014995221498836919e+00,1.351618566882834827e-01,-2.595938398942741365e+00
1.706770508057845692e+00,-1.557151262444302020e+00,-2.601432755416550613e+00
-1.807825545346232410e+00,-3.366762177636617004e+00,-2.875264238987638166e+00
8.533727750724390271e-01,-8.964030088160018783e-02,-4.422968350362664225e+00
3.862036765795996640e+00,6.019154853572995512e-01,-2.860643712817461992e+00
1.626603728288119610e+00,-5.873670801650006101e-01,-5.677587980928915812e+00
2.903327808373860286e+00,9.040245388269599891e-01,-5.286490705007858004e+00
1.946808226204888470e+00,-9.298357236548335791e-01,-2.593518796840924789e+00
-1.725639285303239401e+00,-3.880617860442280520e+00,-8.820649280186594332e-01
-1.122856069934782930e+00,-2.612884500304137880e+00,-3.680349278887638853e+00
3.223534925495787906e+00,1.714424336848834107e+00,-2.182767891535986049e+00
1.325381814680893333e+00,-4.273021973944886476e+00,-4.551717683322834773e+00
-1.787282429958266805e+00,-4.854861100706790111e+00,-7.924064835087022418e-01
5.674199153671346529e-01,-1.645310612769114389e+00,-2.774511563447121798e+00
5.399123416739309844e-01,-8.329176888410823043e-01,-3.589292511184256629e+00
3.041791488917430897e+00,-7.148016889412561747e-01,-5.600760755408265901e+00
-9.258547558075467254e-01,-4.450761939744960927e+00,-4.130034448429401372e+00
-2.203143302861394204e-01,-2.706397014665984369e+00,-2.099305260316715938e+00
1.422617060911682607e+00,-2.008461539509690252e-01,-5.450506905201507379e+00
4.135692095314965400e+00,1.798178928660062459e+00,-3.907482080629145926e+00
3.934166180385913147e+00,2.253458090400244362e+00,-3.707130786896786212e+00
-1.743241883274695203e+00,-4.524113827654294262e+00,-3.179779207313810474e+00
-7.964399064770604220e-01,-4.790108987366883397e+00,-1.110974830810509850e+00
1.560948265467082541e+00,-3.748147949355009612e+00,-4.920938279018402639e+00
-1.470107602350071430e+00,-3.745059441510749210e+00,-8.846967145058689530e-01
3.369999812338012379e+00,-2.047920434997633876e+00,-4.021707331317893264e+00
2.555194037849227495e+00,1.551975968706064579e+00,-2.427485848809539437e+00
-5.413517878306521869e-01,-4.455480629061576714e+00,-1.095075719466106712e+00
2.294257651809557430e+00,-2.850648930172821949e+00,-5.285054696943103814e+00
1.968316225810946785e+00,1.078608115693472147e+00,-2.824350596699741534e+00
3.178104013367075709e+00,-6.304688074308130163e-01,-2.830606376376709310e+00
-1.301504589643245779e+00,-4.254025193283104578e+00,-3.915249489521494208e+00
3.532074319267997531e+00,-1.635734455563745415e+00,-4.821539799246087554e+00
3.536657878445037984e+00,-1.652625015049492996e+00,-3.603226453843330290e+00
2.728714458734632586e+00,1.520964183303212813e+00,-4.820951339606762254e+00
3.097924330960617034e+00,2.340400363225733305e+00,-4.183242932285266669e+00
1.880969918817802844e+00,1.631876250615027502e+00,-3.605715953489906589e+00
1.399431763062229106e-01,-3.631448133612177998e+00,-1.605171114051966441e+00
9.947291794507461260e-01,-1.831218923117951869e+00,-5.640643716092610838e+00
2.864352731024369270e+00,-1.365993736411392545e+00,-5.582667317151343234e+00
8.569413244562180676e-01,-3.831737239880491641e-01,-3.623508398310542944e+00
-1.173806170472896371e+00,-3.796248209693123155e+00,-9.017233062399939714e-01
3.781818805689744156e+00,2.255716403000390446e+00,-3.894328946105702016e+00
-2.202850215032504444e+00,-4.311899940661235497e+00,-2.418800571056511917e+00
2.393570962613086106e+00,2.137374859612191980e+00,-4.168162321464577325e+00
-1.440062335590774234e+00,-2.978999673255196434e+00,-2.460683012908333023e+00
3.865327425347630630e+00,2.177510108053014815e+00,-3.765818925271047668e+00
1.123977861528467015e+00,-8.261498122877027894e-01,-5.485501952059737896e+00
3.636093531638553866e+00,1.508622173059141591e+00,-4.705891975904526348e+00
2.957068825650586152e+00,2.922294489538071804e+00,-2.988575694964446416e+00
2.587869648425766389e+00,-1.804982134574282471e+00,-5.673425575543696198e+00
1.853853728365656706e-01,-4.873746009937632628e+00,-2.092526600532066627e+00
2.181615620802206112e-01,-3.847781385627398354e+00,-5.132759572870955189e+00
3.678331735056800778e+00,1.357458508776414607e+00,-2.484362167182573522e+00
-2.357793152139211479e+00,-4.237942197440156988e+00,-1.817066505786482988e+00
-1.972705786636132608e+00,-4.551477902950869847e+00,-2.795259345806852647e+00
2.671968115251366349e+00,2.842783579592470300e+00,-3.277957603766761707e+00
-7.826058331129027990e-02,-4.978433573952820268e+00,-2.044727603804862071e+00
-5.716614645121301796e-01,-3.393693825012620735e+00,-1.461319928136462387e+00
3.910249621121511865e+00,-3.752800745371968616e-01,-3.325606997681068044e+00
2.092645961648731845e+00,1.739842638334231362e+00,-2.997761495753357597e+00
-9.556856379188378714e-01,-4.139499378675568053e+00,-4.330534245443282693e+00
1.177863939157543172e+00,-1.447982589965220557e+00,-5.656633365685412862e+00
1.487284117308786069e+00,-1.569053548537931553e+00,-2.601286568150361855e+00
8.182428081061961234e-02,-1.394225952322574402e+00,-4.722654985837359654e+00
2.002857546430513391e+00,7.351546669683185486e-01,-5.224247584820617796e+00
2.148085013053393499e+00,-1.504943973824397707e+00,-2.603528039533841376e+00
-7.726107090484838347e-01,-5.347247192693090234e+00,-2.490382823119229982e+00
5.862123842233836202e-01,-3.892579842521964650e+00,-1.845078765426641620e+00
-9.689833408827724925e-01,-4.192365116296119076e+00,-9.427642281604611263e-01
2.182152198721991176e+00,-2.987184056849950586e+00,-2.787998691415851660e+00
-1.774238101139529844e+00,-4.121017864049550283e+00,-7.364068922436078912e-01
3.209928198366422958e+00,2.399892902400198036e+00,-2.146169666693491962e+00
4.079709234457770783e+00,1.261505055238933748e+00,-4.241518351379035323e+00
3.356706921954348832e+00,-1.136895472964567944e+00,-3.035363636908988916e+00
-3.723127342880845347e-01,-2.037875485524393238e+00,-4.644561580840732340e+00
1.684900133980415937e+00,-8.398296981102928438e-01,-5.755792620797501868e+00
4.142007793233644541e+00,1.323732136708414275e+00,-3.023937943339092271e+00
-7.041594336464110926e-01,-2.453480660794693513e+00,-4.460608323020248456e+00
-1.237584722333493037e+00,-3.936659506217555116e+00,-8.621657995455795920e-01
4.102291825804848635e+00,-1.429083421066761062e-01,-3.820234075250515726e+00
1.975719678468596252e-01,-1.300638488487185329e+00,-4.798663330054225185e+00
3.979762032572667252e+00,1.071111419344983107e+00,-4.474566636826940780e+00
-7.147059921823576412e-01,-3.138554818198861618e+00,-4.563343768223094621e+00
-1.635636128563485281e+00,-5.242872384708993749e+00,-1.501316828299974260e+00
3.964052779838882490e+00,1.508575749749463124e-01,-3.235164615752838202e+00
-1.064713051628567442e+00,-3.888303071882059481e+00,-9.782648463628423885e-01
1.014260702602312492e+00,-4.521576822818154540e+00,-2.655269884345759834e+00
-4.409358379175302156e-01,-2.854194681444996551e+00,-4.911443381236619388e+00
1.543396499012798406e+00,7.433039275621260433e-01,-3.377801543788625960e+00
1.949865428348799945e+00,-3.879930574490654038e+00,-3.376183256099979157e+00
3.867480126235758764e+00,2.286207055768098684e+00,-3.808565813080515117e+00
-6.843730487707924137e-01,-2.468386257967319253e+00,-2.681143545307180798e+00
3.613703041497584589e-02,-4.044690739854489792e+00,-4.929480300874653054e+00
2.958235577734703359e+00,-1.866158986128580999e-01,-2.616800053890911304e+00
-3.958754492252798962e-01,-2.774746789927893698e+00,-2.012107262490999027e+00
4.111656346139680451e+00,8.140262619253323395e-01,-4.394300442471157808e+00
-2.001273910048957383e+00,-3.955888728937512422e+00,-2.794773340994703759e+00
2.422504846483044538e+00,1.994275325260019383e+00,-2.585267506393338799e+00
2.946767784172524607e+00,2.696195240637202062e+00,-3.586413806655268210e+00
3.998184133752467617e-01,-4.760258480682188598e+00,-2.171994602143959785e+00
2.667230311134601295e-01,-4.890343435030850117e+00,-4.100217921627100637e+00
3.916112822380805270e+00,-2.515716832945530390e-01,-4.743475700848402532e+00
-4.910273644451604302e-01,-2.055270933790051657e+00,-3.211264470077409783e+00
-1.934480803889071787e-01,-4.705252201786476185e+00,-4.267328945342812041e+00
2.169427359827689195e+00,9.970503241208208411e-01,-2.686034757736560863e+00
-5.212287220107935104e-01,-3.730623595107408708e+00,-1.231500459834526939e+00
3.019009591517513691e+00,1.934925356481219882e+00,-2.194233342794919217e+00
3.782608089677903074e+00,6.677770873509478733e-01,-4.949877137843968988e+00
3.609589051676168392e+00,1.928889275168367057e+00,-4.384976184526588661e+00
2.695436495263193066e+00,-2.055120524144747607e-01,-5.694814135355271034e+00
3.213904594309641816e+00,3.005544334608538204e+00,-3.226247865086345090e+00
3.978673998330256811e+00,-2.345035877375903355e-01,-3.280645067636576151e+00
3.731578842423506792e+00,-1.396646891859004702e+00,-4.432464174864168882e+00
4.274978097628411966e+00,9.332096669913254594e-01,-3.804270669443248654e+00
2.324677695154336199e+00,6.957376609368850495e-01,-2.612604935490930647e+00
2.534912885931084769e+00,2.554403219593621710e+00,-2.687438283024451646e+00
1.501734517189231566e+00,-2.567085430694763915e+00,-2.362862426320649689e+00
3.370004774921058655e+00,-1.707599680882728066e+00,-3.452319145111371057e+00
3.181347732269519391e-01,-1.762427145888650681e+00,-2.710881537077108216e+00
3.601149968318090977e+00,1.324301027637635464e+00,-2.452341839958205760e+00
2.549611448630959121e+00,-3.319777907385833282e-02,-2.587286414579735627e+00
9.735065549174085620e-01,-8.071204712662646275e-01,-5.434086292293998532e+00
-1.827928706615500054e-01,-3.728498132780067920e+00,-1.492176213849989885e+00
-2.092906460539929014e+00,-4.960449953936485024e+00,-1.299768037955774336e+00
4.006258965974649477e+00,1.829903665812433244e+00,-2.635554186148044042e+00
1.184624275797915738e+00,-9.867538288654216228e-01,-5.676903599003191303e+00
1.648449603388985607e-01,-2.489552380497679795e+00,-5.296317235160109327e+00
4.056687635323714680e+00,6.448482545743952077e-01,-4.474844040083088004e+00
2.043838591731759191e+00,-2.359904226446843722e+00,-5.695647771044871632e+00
1.902361359886025172e+00,-3.527975649069245545e+00,-2.877311050427944661e+00
-1.416972201589334235e+00,-2.881944441799305423e+00,-2.763052723682922096e+00
2.369727536088102493e+00,-9.777333560086642894e-01,-5.901809135891297409e+00
2.848238690615550794e+00,2.829565891756304907e+00,-3.268607155644235540e+00
3.768600474116329480e+00,-1.159360251843961631e+00,-4.813167450626513855e+00
4.654478514025201519e-01,-2.307460962391695070e+00,-2.318831307597821301e+00
1.467147938821177666e+00,8.521674689119564938e-01,-3.835045816441024158e+00
8.480673786771679712e-01,-1.584860348914321371e+00,-5.603468494591160365e+00
-4.722735987556311854e-01,-5.374215711931784156e+00,-2.251906768659383218e+00
-5.589360847276344524e-01,-4.285153655952846918e+00,-1.077940884742327299e+00
-2.743303747837537165e-01,-1.994171951395740772e+00,-2.910445462108693260e+00
-1.489516353186337572e+00,-3.300393693033754072e+00,-3.495078475285459341e+00
2.446503621883884705e+00,-2.096230622280455425e+00,-2.823247492362224609e+00
2.928782412765366328e+00,2.826789995271273614e+00,-2.570772254145968994e+00
3.098497563534458266e+00,-2.043190820663434604e+00,-3.250367595864069425e+00
-1.247489658134412815e+00,-4.018886613855188195e+00,-3.922207811073036066e+00
2.544575237646979460e+00,-2.782569453837219431e+00,-5.172924271300046506e+00
-2.259482281744432441e+00,-3.937403845076455244e+00,-2.078356319724746992e+00
-6.879255007700517677e-01,-2.594207598864938014e+00,-4.481479912795007792e+00
2.154614876810215129e+00,-5.640833629805084293e-01,-2.632319549764339683e+00
3.316378788460499383e+00,7.096540508326771857e-01,-5.200933467227881302e+00
-4.533181339762718531e-01,-3.793025024512000520e+00,-1.296858134102415905e+00
-9.972176865672660595e-01,-3.286799106688026662e+00,-1.506550148943644363e+00
-1.957416301365544564e+00,-5.103896106732292104e+00,-2.162541319736198009e+00
7.762377123427982584e-01,-6.892841198458665719e-01,-5.093356964014095212e+00
2.974922756602045304e+00,-1.110355283720853681e+00,-5.567412236260916636e+00
3.716089762743550740e+00,2.068106904943142421e+00,-2.341850896932456738e+00
-5.705174762361958640e-01,-2.082270301629934206e+00,-3.377647482237473575e+00
9.606963004827445696e-01,-1.005688312177609012e+00,-5.453548267229016311e+00
2.445340477147052827e+00,6.214830114816030093e-01,-2.462699056669540365e+00
3.582109000623468376e+00,-8.353421433891090597e-01,-5.140407246305933597e+00
3.370573527426884652e+00,2.457191355522196474e+00,-3.982264961470139752e+00
-1.449256576187601731e+00,-3.234272001655755790e+00,-1.826816838860287451e+00
2.160149798889719808e+00,-3.765502596602309460e+00,-3.916344748534291043e+00
2.419764739095208395e+00,-3.404532881428034230e+00,-3.647408990584397603e+00
2.627141389349162193e+00,2.303747868121916564e+00,-3.936272907239776853e+00
-4.323373673668715056e-01,-3.368164978613342964e+00,-4.934675215200068799e+00
-9.919121566037170101e-01,-4.746506435988227857e+00,-9.615133821726690178e-01
-7.881860322341428526e-01,-2.607200111334757153e+00,-4.459649018749306748e+00
3.140655785306760706e+00,-1.474065596176178383e+00,-3.110746155478668840e+00
1.241707263478493362e+00,-2.162528186966063082e+00,-5.772494193347332825e+00
-2.293128258805632758e+00,-4.618153507379587630e+00,-1.792481006312751868e+00
3.292473848952480964e+00,2.822275729893469975e+00,-3.439096157530515452e+00
-1.900301322978412477e+00,-4.370164972190210939e+00,-6.753413258980733858e-01
1.108334823281425852e+00,-4.505092132224683965e+00,-4.238522324285868947e+00
3.086336686018093189e+00,1.544607918975543281e+00,-2.321940513558702790e+00
-4.724029053673742817e-01,-2.317231533594269699e+00,-4.630703204549721619e+00
-2.221202185417982200e+00,-4.419525862033654384e+00,-2.388924115812473215e+00
-6.229150733498324266e-01,-5.046629805626725584e+00,-1.495126482676935931e+00
6.297748581903037102e-02,-5.068111659479328956e+00,-2.422542393641711200e+00
-1.846251825947796688e+00,-3.340134801343558113e+00,-2.193855091825938075e+00
6.483956103620711620e-01,-2.032596003666325757e+00,-5.570011526373329858e+00
6.666233205800213835e-01,-5.390065485897052033e-01,-4.735627727910320495e+00
3.287847944957990265e+00,-1.951555525619984133e+00,-4.922677163072227913e+00
2.463449173492176847e+00,2.473931015272985867e+00,-2.977850097241429239e+00
1.991974780560114233e+00,-2.090032474898301018e+00,-5.809590010861967357e+00
8.778019107128826048e-01,-1.335266053007912124e+00,-2.734324905713775955e+00
-4.304702934521686952e-01,-5.219160787959782333e+00,-3.360606814188407565e+00
-8.854472965966858622e-01,-3.204720232989509032e+00,-4.517799237915737898e+00
4.182716293986969980e+00,2.274911265259080828e-01,-4.133644728054772344e+00
4.218556241829401365e+00,1.033865536855844702e+00,-3.192845778683630176e+00
1.687415558880799749e+00,1.199597661215325406e+00,-4.142834767545917174e+00
2.694620023773129702e+00,2.713395074334605805e+00,-3.190933776136392730e+00
-1.009416794182098842e+00,-2.524375777706152402e+00,-3.260232752645520815e+00
3.575639780140544399e+00,2.178779786685662412e+00,-2.261203809231416617e+00
3.252728664325204022e+00,-1.969250781613171020e+00,-3.429371518700950805e+00
-6.933058790403334726e-01,-5.131709148597474623e+00,-3.544295556061774821e+00
-9.847790805928803570e-02,-4.869276293262931432e+00,-4.019694034186011677e+00
-1.034233793781103472e+00,-4.780319753550274164e+00,-9.755522922605311953e-01
-1.965808427848607931e-01,-4.120777289414019329e+00,-1.347655875071325449e+00
1.356348859343530888e+00,-4.253332104181652973e+00,-4.516940273029127262e+00
-9.274911646312928859e-01,-2.457814087310779883e+00,-4.035137188530426577e+00
-1.885914759497187898e+00,-3.465333186944552502e+00,-1.799391191278683300e+00
-2.908789288615347135e-01,-4.226685014659868678e+00,-1.326008358190949865e+00
3.650514973763760551e+00,2.114978873622931077e-01,-2.681482455549906607e+00
-1.960683959692875344e+00,-4.616449514407702459e+00,-2.816544574101698117e+00
-7.588351754069871946e-01,-3.195165655219375456e+00,-1.671322351571797871e+00
2.491962784252209850e+00,-2.121866002766645831e+00,-2.795503227014314085e+00
2.725113022383847672e-01,-2.058532604656218012e+00,-5.384727758923446572e+00
-9.125884478644551434e-01,-3.726811311848825081e+00,-4.411614884388923130e+00
8.315627627522963472e-01,-2.415881903573285694e+00,-2.314023255119399991e+00
4.223017001936768544e-01,-5.004118999907448462e+00,-2.833130889125205165e+00
3.011111490993335082e-01,-3.991252180886844414e+00,-1.657392623194930303e+00
3.324531261232214874e+00,2.492596536989686751e+00,-2.195301443174984435e+00
2.861813516855856943e+00,-3.048375095158371462e+00,-4.572511244317655432e+00
3.659486575280182397e+00,2.821545210864367714e+00,-2.666624312076236514e+00
1.447464915351282855e+00,-8.760540002429350048e-01,-2.735991214987669284e+00
-1.870202622730199105e+00,-3.361095207152850595e+00,-2.467725382667895317e+00
3.167618361068701427e-01,-1.239358102195472044e+00,-3.305220794772800286e+00
-1.325761977644753564e+00,-4.573237483254230185e+00,-6.904775352008116762e-01
-8.532699733097157679e-01,-2.660172098165635379e+00,-2.388487406658997170e+00
-1.364920700202281401e+00,-2.762898546561102897e+00,-3.148696730325074356e+00
8.522483438944277179e-01,-1.560600778520416787e+00,-2.662290765437808293e+00
8.118412330190484250e-01,-4.340924949995748072e-01,-3.494748745407095125e+00
2.263963715333105142e+00,8.594283963801956361e-01,-2.657140910000093559e+00
3.264557061485952705e+00,-2.241958174515050750e+00,-4.802181485508898007e+00
3.493664720569082505e+00,-2.024233883911400245e+00,-4.528724244584245717e+00
1.289430287651297746e+00,-3.483606727654483315e+00,-5.374285929009407603e+00
2.333502527692878026e+00,-3.539093146870673667e+00,-3.954658244965600478e+00
-9.900433516532511913e-01,-2.766771733309886905e+00,-2.320581171644936713e+00
-2.050553037568910497e+00,-4.560318108790988312e+00,-9.176083896789380967e-01
1.834805328586695872e+00,-3.866658302806912084e-02,-2.813191584464483253e+00
1.875880422033035788e-01,-4.519406529043551224e+00,-4.496227766473007925e+00
4.109999984909790349e+00,2.162195421867370015e+00,-3.037645622080758834e+00
3.627437183362860473e+00,-7.512762872579750173e-01,-5.133018319139007524e+00
6.400484510542846506e-01,-9.063233854943174572e-01,-5.110006426099764631e+00
4.077481254976770941e+00,7.679253213124744848e-01,-3.133052640052570670e+00
-1.193652728896959392e+00,-2.922141682694391562e+00,-3.694115670985664401e+00
3.912176440721724546e+00,1.042286106227091169e+00,-4.651939433142103120e+00
-1.355005497669460990e+00,-3.826464934153450237e+00,-9.206139491890594773e-01
3.065568092148710511e-01,-4.280813090586875980e+00,-1.703988650816667505e+00
1.296346330139868108e+00,6.543044507744384397e-01,-3.720062776800867166e+00
2.463945232760448079e+00,-2.101363283689069161e-01,-5.680828238480763126e+00
1.826849783826717255e+00,1.326945407434363178e+00,-3.095100899243051984e+00
3.843320158666444275e+00,1.343969595075169554e+00,-4.584936980118148320e+00
1.937243021924229591e+00,-3.848471832384761537e+00,-3.373811310857886880e+00
2.977857916382091741e+00,-9.730022710890536830e-01,-5.553175831148332797e+00
8.052377157041640254e-01,-4.456009049619165663e-01,-4.811952070102201162e+00
1.271121577663041569e+00,-4.591851260302665771e+00,-3.186102151627236534e+00
-2.049220077596713097e+00,-3.856617328023954183e+00,-9.612679069658514042e-01
-5.419450503071195913e-01,-2.117762928038331882e+00,-3.024036917836892879e+00
2.788121259130710072e+00,2.158393927265136014e+00,-2.427990954085582853e+00
5.615632038488419520e-01,-1.678929085832458812e+00,-2.646211794343936496e+00
-2.136369108040688136e+00,-4.938006639005875442e+00,-1.155136267972562525e+00
-9.802245613210003317e-01,-5.037427814107227064e+00,-1.287218128569381559e+00
3.673240909836847923e+00,-3.852018712655095878e-01,-5.024296335270643787e+00
3.138326359953437894e+00,-1.110266612952167886e+00,-2.929577107365751498e+00
1.765792887275074552e+00,1.454932839866363459e+00,-4.215933868726859046e+00
2.921829469903797882e+00,2.906449879868105768e+00,-2.723937766338327737e+00
1.643767454350435253e+00,-2.856534588516218331e+00,-2.430667437659224106e+00
1.262077676557275652e+00,-2.058442258232795474e+00,-2.419696333350487283e+00
3.671943973348357648e+00,-1.028650896905860757e+00,-5.002142677338391685e+00
-6.104015986538859906e-01,-3.434428580019084354e+00,-4.731414962088610565e+00
4.771840138132495412e-01,-2.366449023513401695e+00,-2.240784100103791587e+00
3.822599732760408209e+00,1.205520648971852404e+00,-2.626307473214992250e+00
3.765390287425609550e+00,1.123324922314541841e+00,-4.807017951372962727e+00
3.905122865835468637e+00,2.450977969034951354e+00,-3.457949956628831423e+00
3.415831237893209416e+00,2.923523323216389080e+00,-2.675618663631893046e+00
1.019314794220763210e+00,1.226246539886804987e-01,-3.809160176142879273e+00
3.787807305415734405e+00,2.498600366629946556e+00,-3.604953975687336332e+00
-2.005348393376993776e+00,-4.436049496731533814e+00,-6.922116996059650695e-01
1.155047516936840157e+00,3.814905947319186530e-01,-4.044191054719902034e+00
-4.022135943251561319e-01,-2.179869898414287466e+00,-2.841312883405633816e+00
2.038532754776865019e+00,-3.079516018867366256e+00,-5.330458847768454689e+00
-9.780973894156886894e-01,-3.178329128870803544e+00,-4.375964392908569423e+00
2.524845678500827528e+00,1.093913835375835975e+00,-5.129336345619599946e+00
2.512867013083545764e+00,2.101945124349431815e+00,-2.441547092416915810e+00
2.269621457251613350e+00,2.061268230152784042e+00,-2.923375057944771704e+00
2.208735401110688557e+00,-1.604683214322984108e+00,-2.663949204955651240e+00
6.950020300079690072e-01,-1.233735129751306614e+00,-5.398057596119578250e+00
-2.158351398119427778e+00,-4.603390966613787327e+00,-2.336533950067267273e+00
7.694020115821655903e-01,-2.368198774680710106e-01,-4.210093353757709878e+00
-1.275834812447717681e+00,-2.838072936604820740e+00,-3.659490110586922196e+00
2.906053399246470104e+00,1.818316140026992489e+00,-2.260083250533312160e+00
2.511542131569989067e+00,-6.720612932824369112e-01,-2.628164737647337379e+00
2.867013383957588868e+00,-3.800140867866943356e-02,-5.659519081710183031e+00
5.204714515863910762e-01,-1.059778319684601122e+00,-3.279355737798813397e+00
-3.002521714510792972e-01,-2.219804351694754541e+00,-2.608945251449474423e+00
-1.998062600597528382e+00,-4.008458020817807110e+00,-8.545782735932284657e-01
4.126415097026848500e+00,1.657673831390851227e+00,-3.032383539739457845e+00
5.525823639752185379e-01,-8.890926367426670307e-01,-4.922984161350993482e+00
-1.581926539706915769e+00,-4.905985226649222319e+00,-8.533230592495554268e-01
3.336882634698642214e+00,1.259111314111861224e-01,-2.616315432895966353e+00
3.421805823562336535e+00,2.318253322575625219e+00,-4.183071413874057676e+00
9.168451148478315993e-01,-4.579081147380191119e+00,-4.116576157552899851e+00
2.154275466540369610e+00,1.442604658371042792e+00,-2.770796396717942756e+00
3.135309104911910172e+00,2.429460503835746632e+00,-2.202882763796305099e+00
-6.965554808410157062e-01,-3.226573880118544846e+00,-1.644337448572586569e+00
3.800753601800125558e+00,-3.844274606427552921e-01,-3.081618673569296973e+00
1.938048182083840665e+00,9.745284267522893451e-01,-4.953457484833913682e+00
-2.402972785333667538e+00,-4.401566008145606723e+00,-1.470349934181745866e+00
3.838286701015884539e+00,-1.123578788361350611e+00,-4.390908632187700888e+00
2.692604069063176730e+00,2.070067245847926785e+00,-2.274778917751123952e+00
2.712907377427220101e+00,1.415481533637740430e+00,-2.377938662520920676e+00
-1.216400697904229888e+00,-3.761940785250505570e+00,-9.871922867440290350e-01
1.896850064002619352e+00,-3.283212193152793112e+00,-5.244159494050808945e+00
3.170755369361466069e+00,-5.449495104498921494e-01,-2.741335719684780070e+00
-1.833544769759568815e+00,-5.093045877516090059e+00,-2.273136542166136920e+00
3.026654773035327928e+00,-2.425555716474857793e+00,-4.887779676347225433e+00
-8.501791704144984196e-01,-5.357370198024038466e+00,-1.777715062115645006e+00
3.572315044669948758e+00,1.071306823962647758e+00,-2.485575809722305962e+00
2.187556786083023841e+00,1.729361429795992944e+00,-4.434977054979616362e+00
-2.259701488576479456e+00,-4.830926548538370113e+00,-1.869746608393811460e+00
-2.118402583256232541e-01,-3.822674359032305791e+00,-1.395795298412473961e+00
2.227221696489698921e+00,2.237209795625591191e+00,-3.215920201967276792e+00
-5.851437708094208157e-01,-3.232038082939224122e+00,-1.606880145741756749e+00
2.726122686375417992e+00,1.310011563610184782e+00,-5.076389402195550460e+00
1.502824571540673615e+00,-1.402415458233405410e+00,-2.600643317123024101e+00
1.096356614158213061e+00,1.725059925721165732e-01,-4.622778154646205451e+00
-9.518285409653218787e-01,-4.826275890623209719e+00,-9.748971085384037227e-01
2.458239462378525975e+00,1.744213227368166752e+00,-2.409505789888547245e+00
2.340425280704582445e+00,-3.415685747063815114e+00,-3.359704086378431764e+00
3.096921497688894576e+00,-2.337061454206829758e+00,-3.645252911957624242e+00
2.271750708894006543e+00,-6.795621777956837306e-01,-2.663681468266673402e+00
1.940508326381655158e+00,4.949908407392070719e-01,-5.247745147321744241e+00
1.595368468619561719e+00,-1.117916639687248193e+00,-5.781550365227083432e+00
-2.049436937338418474e+00,-3.606128776556022597e+00,-2.504160064878659053e+00
1.106009879375179916e-01,-2.562330475843308975e+00,-2.096444859118233417e+00
3.174038566329639544e+00,-1.437720185752571211e+00,-3.098653261705888617e+00
1.484116730171531451e+00,8.590527250985063867e-01,-3.564151118672925556e+00
3.601773432007362441e+00,2.817691241566735449e+00,-2.545476922189616520e+00
3.212851097100473119e+00,-4.407970697117941095e-01,-2.760340328387050235e+00
-1.590843197637340056e+00,-4.380513426744488292e+00,-3.467586000197321550e+00
1.495263787799093747e+00,-1.830431483051247143e+00,-2.464058302271451506e+00
1.831702487415362457e+00,1.483124291936604555e+00,-3.390264298151604461e+00
6.254020620252800367e-01,-2.115515590796121614e+00,-2.447059809003590214e+00
-1.855641683671223507e+00,-4.601686472614708201e+00,-6.787614293907919816e-01
-1.090620459686970412e+00,-2.554212201157281203e+00,-2.971109318839112223e+00
4.185856930423255129e+00,1.337324460075500099e+00,-3.768131484125484931e+00
1.316664611766324544e+00,5.260249507259452395e-01,-4.407200220738949348e+00
-1.248053792635848980e-01,-1.710752145709239613e+00,-4.658012933559724900e+00
2.483383194892054835e+00,-1.428994721100006748e-01,-2.644025493051286535e+00
3.671523963926171863e+00,-8.804691128755900431e-01,-3.443181788273555810e+00
-3.027594462216324708e-02,-4.800261125743580770e+00,-1.714307246760152559e+00
-1.281524940023647918e+00,-2.981135562496128433e+00,-1.961315326376450896e+00
3.249255437468324903e+00,-1.173379542695569766e+00,-5.309129938484993261e+00
2.492829742954051575e+00,2.330189444038978319e+00,-2.644304335154898933e+00
-1.282314094410395289e-01,-2.431442291284740431e+00,-2.307024644674310121e+00
2.947141701104795342e+00,2.775945427616802519e+00,-2.453130557585105898e+00
3.548465761181487377e+00,-7.649163766883326776e-01,-3.191003586048289264e+00
4.129421599501013063e+00,7.113201886989269918e-01,-2.981353940827186744e+00
7.717961333962823911e-01,-4.444276579802671101e+00,-2.252580881939534319e+00
