3.926590886646371015e+00,-8.218122669961216431e+00,4.425932059133143248e+00
-6.221245654603514197e+00,-6.140983627739539763e+00,1.139286603210985049e+01
2.707217325215632506e-02,8.891675979912074368e+00,-5.341171530106884724e+00
-4.178625801194082889e+00,-2.276769158284427164e+00,-9.184442633307849491e+00
5.282980122409891566e-01,5.976094070965079830e+00,-1.255159574128757605e+01
-1.830196827829283057e+00,-7.474340504560983867e+00,1.059629170353099603e+01
-9.918667404825859180e+00,3.696290687057989910e+00,-1.047838949763602479e+01
-8.517751580732864980e+00,4.629260333773657088e+00,-9.711979803327521310e+00
-4.764962988227013696e+00,-1.261228048224958087e+01,-5.254568951064204213e-02
2.512139679570703166e+00,2.321465390762636360e+00,9.579027239381494141e+00
1.000339254376544851e+01,8.362551432822641573e+00,5.637598764059520207e+00
9.922446627852496093e+00,5.514862398990165282e+00,2.800193719853512953e+00
-9.975022269151883947e+00,3.769183502460483393e+00,-1.032202214122141193e+01
3.221702219966310565e+00,-3.476525743704947935e+00,1.226151292427021744e+01
-1.045591763319935907e+01,-2.094501727668079294e+00,-1.354090978342217255e+00
-1.120730646115653784e+01,9.338450665211597723e+00,3.619096823331781287e+00
-6.338629318887953445e+00,9.103215338502595344e+00,-1.991268312807148999e-01
7.937124653980466071e+00,2.185665537774801326e+00,8.925619606443049747e+00
-5.211922761069217813e+00,9.711735998295630168e+00,3.701587195677224496e-01
-3.762390239332353392e+00,-3.922302931380844182e+00,1.357213185224147800e+01
7.871355477709671256e+00,2.654450794843465022e+00,8.659342570418228746e+00
-1.166419893660086249e+00,-1.353193496041716060e+01,-4.236288526010005384e+00
3.090103863226767444e+00,-7.180686806429355862e+00,7.342626183385764449e+00
-1.043708636219765928e+01,7.069397365768821828e+00,-1.886616337950601796e+00
-3.478091053368875585e+00,8.943566208348165958e+00,-2.868911775834249056e+00
-8.452732167878268754e+00,-1.756579240913727302e+00,6.452748206899748595e+00
-7.810977412035393641e+00,4.105038356874559646e+00,1.051180310585660216e+01
-3.534578998275953676e+00,1.084061071542248378e+01,1.474438111657588868e+00
-1.164799948970947874e+01,7.489509820216472269e-01,-3.025604964703798139e+00
-1.129820298917720178e+00,2.261356365768257159e+00,-1.188462281903800211e+01
-9.688918258607241540e+00,1.418994712589530360e+00,5.069896421325530866e+00
3.136196828991751229e+00,1.587883893364357757e+00,9.834782926339768139e+00
1.034243317707277932e+01,-9.548422105665268944e+00,-3.238151277457800958e+00
8.413361594446381986e+00,1.879385241751079461e+00,-6.709164480135120456e+00
-1.138638192186735232e+01,6.041702064378899451e+00,6.549174718331884915e-01
-1.326691958594895482e+01,3.026430763587747652e+00,-8.443736458047652604e+00
-1.247957208117703498e+00,-8.830216067446340134e+00,6.254424036882874738e+00
-2.624590411808906509e+00,8.473841659960585915e+00,-4.208561512347788636e+00
8.070665429888304043e-01,-8.909505337658236712e+00,5.022097492705873023e+00
-4.510057284011844914e+00,-1.508541287080492803e-03,1.188885385337582967e+01
-8.364264547255059190e-01,1.184946703603485041e+01,2.531324439026604090e+00
-1.116302963077679955e+01,5.006382221256276743e+00,1.331631323798670552e+00
-7.513181243395081310e+00,2.355459118551858300e+00,-1.102746269010366476e+01
1.260013923123209700e+01,-6.184720341555681733e-01,7.815115664068501111e+00
-8.002337962046764730e+00,-9.903373381732492930e+00,-5.141809064213643587e+00
1.033018797680921974e+00,6.964851758144401828e+00,-1.118051894310743144e+01
-1.089841562323502444e+01,1.044212582503127607e+01,5.684887807488602895e+00
2.125375013315919048e+00,-8.757337632925997539e+00,4.400713077739450085e+00
1.191187721783200315e+00,-6.228719518043282832e+00,1.072026673002381081e+01
8.323444533424204650e+00,2.277474126773023855e+00,-7.069241415189490674e+00
-1.101517432803855456e+01,5.269875691310721422e+00,2.451028468200262989e+00
8.403388908319545436e+00,4.405970303388039078e+00,7.634992651212986203e+00
-3.261063845545074447e+00,-3.853532120472682010e+00,1.351837914759321180e+01
-9.024689257027999290e+00,5.174932697409797555e+00,-7.497980201451595939e+00
-8.906140050221569737e+00,9.172254869427378665e+00,8.295873892786435277e+00
1.548747608539269072e+00,7.997182417582973102e+00,7.116368360867134868e+00
1.109606007597395738e+01,4.518473345668494900e+00,7.319702740318738243e+00
9.804898963183412697e-01,9.873674829483039872e+00,-4.484797809990855200e+00
-6.667541603786022897e+00,9.205521376142090872e+00,5.061921137884446420e-01
-9.418886922168017151e+00,2.744542978942766887e+00,6.331060922650483036e+00
-6.646293388640725830e+00,-2.400604401619847172e-01,1.216780160770390040e+01
-9.469109649331688416e+00,4.999879828704145268e+00,-7.263864350061817632e+00
-9.733682312364251743e+00,3.385154043773435095e+00,5.183639309430824405e+00
-1.265830485185738707e+00,-1.260238722908251452e+00,-1.035495887732093401e+01
-3.349405439602375356e+00,-4.027802244587983527e-01,-1.019778274234231219e+01
-1.192939122483702263e+01,3.396976164438298529e+00,-3.044201701080871292e+00
-5.531154442327138376e+00,-1.050582427564218513e+01,6.080687098838693849e+00
-5.637451179078365904e+00,-7.740352808220252179e+00,1.258214861063334311e+01
6.576513557568105739e+00,-1.094172957062745866e+01,-4.210557592252841985e+00
1.925962319710182946e+00,-2.365201917584489166e+00,-1.017200332504805793e+01
-1.105519421584259732e+01,9.139202355940572176e+00,5.427650496110753231e+00
-8.325069336015497257e+00,-1.064258201799690262e+01,-1.637436730074971480e-01
6.381317785264002396e+00,1.328827191628650439e+01,2.773002827620775768e-01
-5.247348723929482261e+00,3.957258496821144167e+00,1.013957293720115160e+01
-9.988264349224523997e+00,-1.253734570607597965e+00,2.857580581533437081e-01
-1.069863668319069738e+01,5.472982561018707948e+00,3.642178470418137692e+00
-1.531134519845525066e+00,-8.601720978871016499e+00,7.155721631151045870e+00
2.221724617556825709e+00,-4.571250946437434570e-01,-1.128678422377519652e+01
-8.603483936024217016e+00,-6.400219929963378185e+00,2.575130108128844686e+00
9.147715329912765370e+00,-1.127516544548219990e+01,-6.672757071014115304e+00
7.314846556988963577e+00,-7.524839316309068771e+00,2.839779361506048705e+00
-8.589481028802389062e+00,1.008537450266074131e+01,3.891213662613997482e+00
-3.631536996147405993e+00,8.736275769600149843e+00,7.515688909453662525e+00
6.179598500862025112e+00,7.700422072297810061e+00,-1.061496799445555617e+01
-2.515111872312163932e+00,1.013193412493095691e+00,-1.134160590518635559e+01
-3.701860626458380654e+00,-1.334126451146427605e+01,-2.335094390300410438e+00
7.926315913427451676e+00,-1.037029408920374252e+01,-3.423134622810129812e+00
3.283791905485832885e+00,-4.186424473118747214e-01,-1.141309509005853151e+01
3.460773216832936150e+00,-3.081042100047632015e+00,1.184916049153626538e+01
9.215985983137795046e+00,-8.660584772192605030e+00,-7.987806971278077484e-01
-3.331843614170641121e+00,-1.328297758159061992e+01,-4.366526941602812961e+00
2.929752536014777142e+00,1.245453081551107921e+01,4.954478156658623789e+00
1.251919057581418215e+01,-2.989431800573145281e+00,6.229307327118061899e+00
4.427747581364793739e+00,1.005520402099145372e+01,-6.200110846000458587e+00
1.230790785200036019e+01,-6.013440645691384034e+00,1.530075002859402566e+00
3.686012893597623297e+00,8.942118101859964696e+00,6.563989392818878166e+00
4.645688249822135241e+00,-8.837468159863369976e+00,1.967237140083920810e+00
-1.436914592742337904e+00,1.169444749275631601e+01,2.309076929309748394e+00
-1.041367981315029745e+01,3.101098166793979871e+00,3.273997712611830480e+00
9.273533233182707392e+00,9.612028229169309768e+00,3.001189202339346718e+00
2.387955306130974176e+00,6.580200741717964874e+00,-1.309925490152788896e+01
4.751883622256773521e+00,-1.374020150811479657e-01,-1.177403861929814610e+01
-7.725909305478328548e+00,-7.211483389606377914e-01,-9.590081377899021930e+00
8.354141534139065683e+00,-1.532441577250346576e+00,-9.992933445315987484e+00
-3.945541904492476881e+00,1.015093306843490062e+01,3.551707555628991764e-01
1.480750056283265170e+00,3.459264469899870686e+00,9.171573663053322889e+00
5.287379387820631216e+00,-5.375369164998772931e+00,-9.453495628316757049e+00
8.394937897452011910e+00,1.145129379101353040e+00,-7.230175317327429241e+00
5.073784850529423629e+00,-2.766052317527824655e+00,-1.065409482261214968e+01
1.203406156486937206e+01,1.714598886601804928e+00,8.091187798560861566e+00
9.165802556330300277e+00,9.647977469559664954e+00,2.449488922090527154e+00
-8.404230474844712750e-01,-5.294338878121111591e+00,1.372245612668853809e+01
8.421638671373910867e+00,9.462514956631524754e+00,-1.763734858942743733e-01
-1.143202134658879210e+01,-4.904307113534788765e-01,-3.991753254782211435e+00
-8.269382830505676907e+00,-1.878401822535197274e+00,-8.855373636312528163e+00
-1.672148476364049063e+00,6.013528532965211504e+00,-1.116363274972214015e+01
-1.002214588018605923e+01,7.800169308457836514e+00,-7.375042791564555555e-01
-2.992815229141336797e+00,1.803813488904065121e+00,-1.159300979024421885e+01
1.056885028312765940e+01,-1.258738646149031970e+00,-1.727727988055102637e+00
6.779733363399847335e+00,1.078499460758512640e+01,5.060393205544671424e+00
3.652709080846023859e+00,7.881485186336625759e+00,6.944594817117786256e+00
5.066541197827645782e+00,7.709516338887315356e+00,6.799775271875575733e+00
1.264449533756836441e+00,-3.518474559081619990e+00,-9.740605194923773524e+00
-7.878501217387227307e+00,-1.363831712611256464e+01,-3.371525918412176193e+00
-1.914170904419165264e+00,-6.756198015785697564e+00,1.188347368761862910e+01
3.330254541471537877e+00,-8.909091586355559755e+00,3.012115531255333600e+00
4.964271720109945996e+00,8.035389497160347005e+00,-1.133669117220060052e+01
9.879588610124420356e+00,-8.267466429019604490e+00,-3.210068927533982208e-01
3.360947841658545876e+00,-4.299220266518831934e+00,1.273459986437912761e+01
6.658935868529010982e+00,1.355146505439137705e+01,5.932272295046530086e-01
-2.864445969018093230e+00,-1.074400621907621645e+00,1.207781090083148534e+01
2.386837724533588556e+00,8.968263493853719126e+00,-7.028037087175441400e+00
1.052871264632813819e+01,-8.289258190809974280e+00,-6.458262575653523463e+00
-7.501126025131044983e+00,4.929364499059097682e+00,-9.684314939869040018e+00
-2.498021971355395721e+00,-8.086630215145957479e+00,8.966001448419518738e+00
2.107404893594030160e+00,7.875024314939137682e+00,-8.948039047363982590e+00
-4.646138016673607041e+00,-1.182820298648575630e+01,2.346869602501711505e+00
-1.007527473051818134e+01,4.867574838888058864e+00,4.970713095806119419e+00
5.824474740518179594e+00,8.090338264741992802e+00,-1.177133172961162444e+01
4.924570361273575614e+00,-7.982624165639916392e+00,3.852548930131464378e+00
-4.735741336705888926e+00,9.844572480127480318e+00,2.769766046836242279e-01
2.127206023786821554e+00,-1.276944983639746667e+01,-4.996689695551454591e+00
-9.741988659727088162e+00,-5.243961038615022829e+00,-7.264838401821908098e-01
-1.137188288922769130e+00,-8.407970205164410515e+00,8.197592761931518979e+00
-9.548985901528860287e-01,7.629123104356286156e+00,7.841835701260154501e+00
6.372048635484873991e+00,-1.081180701531522637e+01,-3.489806113484466010e+00
-3.062043676369825107e+00,1.854319353987253116e+00,-1.179276973885594337e+01
6.068318554307406743e+00,4.584456143254659111e+00,8.107749404736846799e+00
-2.293684830902486205e+00,-1.185083375436131092e+01,4.821281687687676426e-02
4.921612048033516373e+00,7.513444965499626704e+00,-1.258850157042474294e+01
5.733712573272677915e+00,-8.706440163394276510e+00,1.522580992687130763e+00
-1.125893469157730209e+01,-1.611065566556475259e+00,-5.308755585666221855e+00
-4.808979932525847545e+00,-1.047946525150423192e+01,5.351773729600393992e+00
-9.225194566035973764e+00,2.430552234125434641e+00,-1.080222859088912912e+01
-4.589238935158497235e+00,7.804051618542229285e+00,-4.687171111095984166e+00
8.158546345334018568e+00,1.155384835432618829e+01,3.111893728179637164e-01
-3.315909554203016363e+00,-4.536262127406983424e+00,1.387063429197141140e+01
-9.251495040366215505e+00,-7.600738598986586325e+00,-8.183337708470500571e-01
4.772201954405760560e+00,-7.543866858647671592e+00,-8.274851660890080396e+00
7.608286571977157742e+00,5.958163120701517990e+00,-6.691744641596284460e+00
-1.068101872547629760e+01,2.802435460443764459e+00,-1.083442086761821876e+01
-8.489545852330998343e+00,7.395711311818471856e+00,-2.794767160002079365e+00
9.303911689733229906e+00,1.751005869050462405e+00,-3.418386351223434705e+00
1.041965685816210652e+01,-3.983113407509534909e+00,1.005292158468308195e+01
-1.125135537150530318e+01,8.384133927315311041e+00,2.711535004958438133e+00
-5.531805626082284100e+00,8.372069543361620347e+00,7.965906542207722651e+00
-6.952220514967571319e+00,5.773687937090723921e+00,-7.692593938013392751e+00
1.103733526238680085e+01,5.175012059404426878e+00,6.104901789486014252e+00
7.984988933582806148e+00,-2.906895544180197799e+00,1.112423217519238250e+01
-1.149459103281104788e+01,3.665770634336361411e+00,-9.469237355525049082e+00
-8.186303023971325254e-02,5.563375473645381319e+00,-1.368449161540460501e+01
1.163250013179514752e+01,-6.137594563557095206e+00,-5.314766565209134708e-01
-2.471041744186945444e+00,-4.912388715536346595e+00,-8.520814428868957791e+00
1.161344004292010190e+01,-2.356780488456066358e+00,2.424392813361051946e+00
-7.690372117386154116e+00,-7.475547327159903332e+00,-6.297556039134042827e+00
-4.260134934125778372e+00,-1.040318734928626654e+01,5.296102029039898795e+00
-1.101318910232880732e+01,8.771896287220025457e+00,4.567649418759009983e+00
-7.327058546697993613e+00,-5.639056335974735212e+00,7.649164927904532618e+00
6.944523908507896692e+00,3.135792630893931232e+00,-1.171601207866686245e+01
-2.300032960541977367e+00,-1.279117776391884753e+01,-1.720855732693934881e+00
4.851955965038226459e+00,1.431100063765517305e+01,3.528067524260326771e+00
-7.116971536681991672e+00,1.110722997075294138e+01,4.766299495243278450e+00
5.734460267449227544e+00,1.146286513662116668e+01,-3.539552843181030362e+00
-6.062958889450771327e-01,-1.198965860217749313e+00,-1.031304381264797065e+01
6.575434823780129889e+00,-6.709244079428480667e+00,5.921875713292575227e+00
-1.039951661261406635e+01,4.308872677122526085e+00,3.757595772832830860e+00
-9.415343325540460384e+00,2.651885175735976041e+00,5.846993785762757412e+00
-6.186520321345319928e+00,1.165796623720378733e+01,5.637903692744412609e+00
4.325909028864896477e+00,1.293868593761036045e+01,1.035253235105000780e+00
-1.249992024937661261e+00,2.195250113613643528e+00,1.023947578238087353e+01
-9.414276075712323388e-01,-4.120369140176423528e+00,1.338800944706448348e+01
-1.303898388280785026e-01,4.612821775978536820e+00,8.975223873043589151e+00
-5.410378726190260501e+00,-8.865806751087172088e+00,-6.048966360550842580e+00
-3.354861125535065103e+00,-1.103457847780977019e+01,2.942717579820645746e+00
6.322859394640017783e+00,-7.161741982350610769e+00,4.881977370373633107e+00
-1.192281589840436240e+01,6.816157810339804612e-01,-9.532358653463374409e+00
9.596261233447346939e+00,-5.727048078061745429e+00,5.965393727175645644e+00
-1.021916790019667687e+01,-1.994927489601410642e+00,-6.118990641971289168e-01
5.107632912513000001e+00,-1.077909237697626477e+00,1.084719564062267949e+01
-8.144258954211393231e+00,1.144272313023624088e+00,9.807221429835118798e+00
1.236254800104691354e+00,-3.587729709138094414e+00,-9.757210256068720611e+00
4.214918066322627332e+00,-5.428838004608157242e+00,1.078319335674072832e+01
1.140507726932748334e+01,-7.027032706983099786e+00,-1.478417447040573096e+00
9.246545556010305589e+00,-4.703720816713959252e+00,8.711035221825627062e+00
-8.734017191669943614e+00,4.052437747087569875e+00,-1.042770569396078706e+01
-6.454640225900794448e+00,-1.433113074765267569e+01,-2.837553670674484163e+00
-4.507750907275119290e-01,-1.285554095481634018e+00,1.168547834396318841e+01
4.598774000850490040e+00,-5.301364812866045995e+00,1.057018535151382643e+01
1.166771654968992955e+01,1.234156466913474581e+00,5.471322806932769289e+00
1.120485458767172382e+01,-7.346569254899824486e+00,9.973013637931970043e-01
8.024900068388225449e+00,-4.647930227050432350e+00,8.973082151750988444e+00
-1.118196324820305776e+01,-2.583999574946726163e+00,-3.758424487878547549e+00
5.323817945532026918e+00,-3.480506872344743208e+00,1.191129257687189735e+01
6.616980924463592650e+00,1.316851543686501280e+01,-1.838348635961441491e-01
-3.643732964539552643e+00,-4.998485612190880722e+00,-8.114618854038772255e+00
1.060380935413109516e+00,-1.280357293712108024e+01,-4.471913151830273492e+00
-1.112671241425177548e+01,8.688771187692871933e+00,2.158208400025866780e+00
-9.019613102282852068e+00,5.320356876987824002e+00,-7.234438940977086396e+00
3.187202420895384414e+00,-1.275786259158875557e+00,-1.101939015213921280e+01
5.521988746960857952e+00,-4.753358489566878120e+00,1.090576899634271335e+01
-8.459068919935408104e+00,-6.257762912009571465e+00,3.585546420043478566e+00
2.286019932189770287e+00,-7.227615157954913272e+00,7.655737580231436468e+00
-1.741058485430762248e+00,-5.076739219669260450e+00,1.379328469942285906e+01
-2.202633634156777820e+00,-3.379342337694513088e+00,-8.991056430860288273e+00
9.243151474200475448e+00,-3.249196787029632105e+00,-7.686547314821137178e+00
1.949763754872887223e+00,-6.987020774392841638e+00,8.694517513734419722e+00
7.198447677422033841e+00,-7.869114633048782892e+00,-8.562351815266243449e+00
-8.224346517597226125e+00,3.425641216499618835e+00,-1.138490026177004211e+01
8.438866950014228152e+00,2.669939662687176529e+00,8.506812489096446939e+00
7.920011054147358287e+00,1.416990265834895624e+01,1.281671645039567098e+00
6.050252038008777866e+00,-5.756733765475477327e+00,8.295594048284474553e+00
8.667130385357737055e+00,-9.966364398992260121e+00,-2.537966943436204215e+00
1.181931496312399332e+01,-5.370099573397304482e+00,5.185171478697935044e+00
-1.158425157886705037e+01,4.150830662668771431e+00,-1.216018729940814724e+00
1.060085839320981016e+01,-6.742549232654610591e+00,-4.583601718355271970e+00
-6.176621395071096643e+00,1.919740078209553502e+00,-1.111229597879097142e+01
8.588259805712107564e+00,-1.012244553042150841e+01,-7.619501796782320646e+00
-1.186014518055855760e+01,3.117735520714149278e+00,-3.177811410974074491e+00
1.200603792361251543e+01,-6.485812522775624700e+00,5.169006583526408738e-01
8.644056172767221824e+00,-9.189913926896252860e+00,-8.108592890658776753e+00
-6.898711973041010026e+00,6.429739383187862423e+00,-5.777658381266201459e+00
-1.164690067211996372e+01,2.210504744929665311e+00,-2.546838227223166662e+00
-7.547066657285868452e+00,3.005875176336186172e+00,-1.120576092339797114e+01
6.709239748811378412e+00,1.377494415829213104e+01,1.035519534938111885e+00
1.105859559550376936e+01,-5.279656773831845840e+00,5.728172392323767959e+00
9.508066770112225896e+00,1.622868857766070150e+00,-1.636789489360221506e+00
-9.285645779093581353e+00,4.662888444182805014e-01,5.424077123706428694e+00
1.095414422696523005e+01,-7.883756118451292316e+00,-4.514283703187479624e+00
6.990641447042746037e+00,-2.135375988109943446e+00,1.111769789256415031e+01
1.006790737152725512e+01,-2.943721456904357048e+00,-4.759031690135265613e+00
-5.663928118597992167e+00,4.310942463708805072e-01,-1.037441496228736604e+01
9.458882976873944415e+00,7.170229648445337389e+00,1.493581371712958905e+00
6.761498905363644063e+00,4.843623329259497901e+00,-1.105097740974935583e+01
4.875970916596765292e+00,1.060866595810253976e+01,-5.359387635007035300e+00
3.362863058662333593e+00,1.482860982626256430e+00,-1.236374279263892539e+01
4.365310623305592941e+00,-1.196907056686669968e+01,-5.004513488040427838e+00
-3.828954808913387797e+00,4.063532653842210962e+00,9.722155638209860840e+00
-4.054684354255610579e+00,1.125350285455189514e+01,6.531340227315381775e+00
4.739150025908135611e+00,-1.149951849249065816e+01,-6.501157385746912709e+00
-2.950424474386489582e+00,1.085255891993207555e+01,9.149084373294694705e-01
-3.118539102782008410e+00,9.590102951613946658e+00,-1.357770423325963538e+00
-7.654431052940200431e+00,-8.050773371511503740e+00,4.410304075420724779e+00
-2.727472452802178760e-01,1.300480312292803298e+01,4.723503581361968351e+00
9.795870263925504640e-01,-7.437672844363825142e+00,7.809681057716489683e+00
-1.069765049914972721e+01,6.016486418102386935e+00,4.745709662146297525e+00
-5.905122910162135419e+00,-1.679693023628804974e-02,1.203484160281013970e+01
8.764151407491089785e+00,9.258140570870834196e+00,5.447105328360433596e+00
-9.548585428489431592e+00,3.325232130776397454e+00,6.366957146188622296e+00
-6.988552812833240147e+00,-7.370783837576795783e+00,8.401178798731390174e+00
1.233100878339431894e+01,-5.245024183638220983e+00,3.031269921204783113e+00
-4.626628257508710540e+00,3.104698729581542249e+00,-1.170916350108761605e+01
-1.129178304811523681e+01,3.623968567566224763e+00,1.018991352440205833e-01
-5.707026442354821150e+00,1.466982751479666502e+00,1.131083845933939713e+01
-6.335703244861148775e+00,1.072365793537894341e+01,3.248702598199080693e+00
-8.352026896835862857e+00,4.442579302735944147e+00,-9.821077847458402843e+00
7.097808267191067166e+00,6.587187955945977613e+00,-8.155176766548038358e+00
-6.140464922261959835e+00,-1.209625337005294199e+01,2.969112067612193151e+00
4.824173008638895643e-01,-2.671682019525167262e-01,-1.103036937856487043e+01
-7.424109166997342690e+00,-6.124357503353774490e+00,6.867854272676588323e+00
1.021557658656901602e+01,-5.827493712766411704e+00,-5.144693892508890087e+00
5.930210059029374925e+00,5.897422876919145907e+00,7.356693896655619902e+00
2.378976239703696649e+00,1.117906637275279280e+01,-1.706732884406482409e+00
1.176472770487766795e+01,-9.300939768683694764e-01,9.762743398786948745e+00
8.746697224687693506e+00,-7.865379271062963085e+00,-8.704321647867807599e+00
-3.331667802456132588e+00,-4.658118178321196012e+00,-8.453213441886109791e+00
-1.492995471481135539e+00,9.603778671948888235e-01,-1.142192074013267344e+01
2.863041125305489043e+00,-8.257048659549219849e+00,4.846816388468654146e+00
1.347120257774142571e+00,1.132470575995515816e+01,-4.714975248326134238e-01
-4.753342377242167238e+00,-4.666833042093374573e+00,1.406843516361330337e+01
9.971522897419980325e+00,-7.012035007080950066e+00,2.089019347417018224e+00
1.031290402846764565e+01,1.802235867269791569e+00,7.697878784021666698e-01
-9.309186786169545869e+00,6.588023049545697896e-02,4.579085400200576750e+00
7.896134875945937104e+00,3.797132498892537011e+00,-7.562876539072896698e+00
-9.935647567170658334e+00,3.266961555392105421e+00,4.215877094738579522e+00
6.802409971435540825e+00,7.638419420494846790e+00,-8.604096583860721736e+00
8.843598872318615634e+00,1.157173824119256267e+01,2.788196536024613259e+00
-8.019345331195820492e+00,7.456693760760253475e+00,-2.966529662209388629e+00
-1.258491162848933698e+01,5.003020022408358081e+00,-4.218334669175356488e+00
-9.187446055116479826e+00,-4.684734594300190125e+00,1.234126712602412468e+00
-7.111259391259211249e+00,-9.466571153671418770e+00,-5.497712332982121808e+00
2.414291717543762594e+00,-1.154025177293844351e+01,-2.693062037963299460e+00
9.756813036511010395e+00,-3.172780970153019187e+00,-5.492971626483486247e+00
-8.164007672246722080e+00,-8.285472369089351474e+00,1.780440829149978699e+00
7.397828879508115740e+00,1.162568971147696217e+01,-2.125956661181840346e+00
-5.787705571996772935e-01,6.444522642599267215e+00,-1.081652054096537441e+01
-7.471093920314014980e+00,-4.654075201995043543e+00,8.217002735312636474e+00
1.532406817892846496e+00,-9.325243244305394086e+00,3.594392343049487515e+00
-8.536653519067721518e+00,-1.272821993049121936e+01,-2.850642135097170460e+00
-6.947678967608865719e+00,-7.895260560966313790e+00,7.299513655572463122e+00
1.185595888576788148e+01,-1.135761360722521429e+00,9.645957649854922877e+00
-1.081145328324117028e+00,5.074420446857049960e+00,-1.332987647798103303e+01
1.633773925760567680e+00,7.564690192263316959e-01,1.062872057488913846e+01
5.871699220802995001e-01,-7.699837751265720343e+00,7.678147094658922533e+00
-1.092227205959952308e+01,7.897823784411489356e+00,5.109826628841475760e+00
-4.432915684803470313e+00,2.424026094186872982e+00,-1.143788424930373893e+01
-6.907623367564501571e+00,-9.176183333505839812e+00,-5.836295108587179925e+00
-8.008729128916924012e+00,2.428161465384200302e+00,-1.105788822322846165e+01
2.950037235830048066e-01,3.993985849092161811e+00,-1.312124079908558194e+01
-4.673109635526778938e+00,1.209314935282974446e+01,6.244714964907842614e+00
-7.951847259727007788e+00,-4.727459166839031113e+00,-7.648366488235428307e+00
1.527128812056987917e+00,1.498052941160471718e+00,1.009100314749425920e+01
7.402873727062761589e+00,9.353675447517264985e+00,5.494309087894287735e+00
5.706312866444008591e+00,-8.865961949936250974e+00,1.670283086126260308e+00
-9.508117882307493218e+00,-3.082099892972864463e+00,1.912971357829935437e+00
1.000201231164308169e+01,-2.192841137293706222e+00,1.083439216125714388e+01
1.994532352222639471e+00,-5.695851749859656366e+00,-9.002240232598049730e+00
-1.051565383770246243e+01,9.511676080508863151e+00,3.635749620506616431e+00
-2.638930956683173790e+00,1.468648166629937357e+00,-1.140298195044912433e+01
-1.019818524566456475e+01,7.540882309754530333e+00,7.525492750051975932e+00
2.464719245617527754e+00,-6.375285219310308449e+00,-8.566704118030097348e+00
-7.151172499860939169e+00,-1.317757235585721531e+01,-3.859264149788272036e+00
-8.641364488755190365e+00,2.358753583288126787e+00,-1.098556052606716804e+01
8.183865450207418846e+00,3.333455219928009416e+00,8.100886112081196799e+00
8.466941297962316426e+00,3.259100743526103017e+00,-4.874285284294454179e+00
-9.459630517935957883e+00,8.133020963865662978e+00,-8.869805675999560268e-01
1.969129232368051596e+00,-1.008177485456216971e+01,1.491560369955052368e+00
-9.213497450208349093e+00,3.921389600889414240e+00,8.985345332441356803e+00
6.844020431357025203e+00,1.434367087581193090e+01,3.261816428898334230e+00
6.639043584842002632e-01,9.389910486537361933e+00,-5.272737427525247433e+00
1.507528179460203344e+00,1.005131255426802817e+01,-3.827675849215998571e+00
-3.242448350357855613e+00,4.992082384316238297e+00,9.104916672028211977e+00
1.042902732561629975e+01,3.276727893054233842e+00,2.102314407459844325e+00
3.361483980908764657e+00,-1.852227103167641831e+00,1.151622923464442394e+01
6.961003403151388547e+00,3.944610599995397759e+00,-1.032100681845670920e+01
1.164014720000732339e+01,-7.391394911132659118e+00,-3.960004697082099567e-01
-3.096774448277189951e+00,-8.956479462518071699e+00,7.006449617670910790e+00
4.707028246506952840e+00,-1.112794314872282264e+01,-3.764938127645202304e+00
-3.872100524930750798e-02,-6.574804741935203367e+00,1.103674339978105579e+01
1.032104501020890019e+01,-3.667603902166370666e+00,-3.245745510488146301e+00
1.087172183592381813e+01,-3.198628331701264926e+00,-5.443190699720439341e-01
-9.539109721057830171e+00,-9.623082253077789971e+00,-4.937712807438007445e+00
-5.997108256221942213e+00,1.103707765459574652e+01,6.930933632061988980e+00
4.481029530421818841e+00,-1.058878631151881500e+01,-1.698325899832212382e+00
7.158107606893399755e+00,1.304120467593215871e+00,-1.175393533386833234e+01
-1.038075414158717003e+01,5.074204627465682016e+00,4.778259469377903024e+00
-1.019339261506827299e+01,4.711934762384422548e+00,4.430782465230246991e+00
8.958452218227186847e+00,2.094281612922266333e+00,-4.826992473084803059e+00
7.121102774747100739e+00,8.095024373971559939e+00,-6.371475518363250323e+00
-1.153026167112172473e+01,5.312556889797022563e+00,5.356975791364971817e-01
-3.556034064718786691e+00,-1.104279343804722302e+01,-5.192250488338308045e+00
5.215701189805795224e+00,-1.035191219180831901e+01,-1.977626113209455472e+00
4.216244376815708073e+00,8.193901763415803785e+00,-1.016333065642930933e+01
1.199714303686827632e+00,-6.517090860367491523e+00,-8.279992338350441017e+00
3.078969055135216237e+00,-7.623334378293767699e+00,6.303108512525474438e+00
-9.161833756863213551e+00,1.070252447115047545e+01,5.554771199465948328e+00
-1.051855653727724382e+00,-6.525956771242211296e+00,1.176007318140225344e+01
6.629122417273984880e+00,9.224467687216888478e+00,-7.606213090927488096e+00
8.056488146235148307e+00,6.750059663833444468e+00,-3.462389672659016426e+00
1.027920915740472907e+01,1.278476823831269149e+00,8.979147337397973772e+00
7.768043827963175829e+00,6.686431125526205221e+00,6.837834268779648283e+00
-1.286412632740765716e+01,1.328924569756929852e+00,-8.513723580957815784e+00
3.977678445497808468e+00,7.819195077254897264e+00,-1.167531240075574850e+01
-9.042562741717665276e+00,-9.137511179048205534e+00,-5.579826716274742360e+00
5.912289484471864753e+00,-8.731743052936959515e+00,-7.932758255562587735e+00
8.985399092074231930e+00,-5.440419861217211661e+00,-9.671350529232880078e+00
4.191119290653029239e+00,-5.059526669248337605e+00,1.191497240519207956e+01
-3.047627006239961300e-01,-1.179680949554263414e+01,-6.896711604319950562e-01
-5.385961054295514749e+00,1.031667118295505281e+00,1.143130441207166648e+01
6.966593294150380977e+00,-1.144556587542102122e+01,-5.319305860721581958e+00
3.546967108401276381e+00,7.279173908214214173e+00,-1.227865824366173264e+01
1.008290117627035443e+01,-5.737784000238207227e+00,-5.679390636294880501e+00
-3.181561222056087157e+00,1.193340745015015436e+01,5.867884218849010125e+00
3.739894470598463361e+00,-1.178769542477976984e+01,-3.773576070584859110e+00
-9.948589891905838201e+00,3.656007628459412739e+00,-1.004322220308035440e+01
-1.166902042540358586e+01,6.408396500181238409e+00,2.380260815764778382e-01
-1.110689187721632720e+01,6.377054338017861035e+00,2.999864222306293460e+00
9.801205722258163888e+00,5.580712594540190530e+00,1.035001223514727453e+00
-6.564627026748517835e+00,-1.146206017022302959e+01,4.396549355873138332e+00
7.233446149667954295e+00,1.238028438059734526e+01,-2.474545742929763481e+00
-4.945224949493605138e+00,-2.844839445241794523e-02,-1.009829452087341117e+01
-8.081784767950484394e+00,-4.760192830209109438e+00,5.333444376627152650e+00
-5.276463246219912584e+00,-7.647830366268202340e+00,-6.742241839246029933e+00
1.083778654567891131e+01,-1.054279649103379413e+01,-7.633627967163762129e+00
4.343572277936717185e+00,-5.565131563593705089e+00,-9.178763105104211562e+00
-4.665615026482472061e+00,9.041736250074997372e+00,-1.337774893401993737e+00
4.454348708539532353e+00,-7.545449494735246176e+00,5.631292289565283049e+00
5.912378179729132377e+00,-9.958866679725730364e+00,-1.208014131851491424e+00
-1.054046310575319367e+01,-1.495968092126595428e+00,-1.488789754824805467e+00
1.005114703838624202e+01,-2.459962186950584329e+00,-3.438419771295481819e+00
8.629361112408910017e+00,1.204670817542344885e+01,2.394806213017512952e+00
1.056964223858118146e+01,-1.113448225166704475e+01,-7.436590399541294083e+00
-1.259350089208242096e+01,2.289719308724756708e+00,-6.666665929595334994e+00
-7.283775427978074646e+00,-3.943579451829360316e+00,8.823380293995263912e+00
-2.660879172178537200e+00,-5.292082944728279337e+00,1.408932319979254899e+01
-6.579514086656179650e+00,-1.201372757221150067e+01,3.187103997670567068e+00
-5.758140730715040512e+00,-8.758331202442445118e+00,1.015856194599519213e+01
-2.768556764996367381e+00,-2.530953073288314759e+00,1.262738727237442760e+01
-3.266122862701216434e+00,1.140032785233898771e+01,2.534146133453972549e+00
9.596178835155699360e+00,9.524148718304246586e+00,4.499677583111522772e+00
-1.838727407967897243e+00,2.902698122742771059e+00,-1.200983998320452173e+01
-9.483499782330191863e+00,-6.765613219445242521e+00,-6.477432980235104054e+00
-5.557780045533514901e+00,1.095929089720379146e+01,6.842178003729284086e+00
7.322503594631317725e+00,7.791707057498022060e+00,-6.518183667537501336e+00
-1.249006462675098561e+01,6.064618750547334791e-01,-7.747662417749412000e+00
-1.058528046029618608e+01,-4.424694461920881672e-01,-9.271219369709301716e+00
-1.231636486130447850e+01,2.006071482144387019e+00,-6.154485259785883677e+00
-1.010815533316361226e+01,5.953396588450690530e+00,5.964986939890820850e+00
2.430746207957730221e+00,-9.968096780512334831e+00,1.683890439447156107e+00
9.812870362740053309e+00,-9.560807273033187670e+00,-3.056581272773306601e+00
1.250646069880726685e+01,-1.451367256259395166e-01,9.271318832466421966e+00
1.044844416782300378e+01,1.283962714084694312e+00,9.053539128352564802e+00
-5.249796638442840724e+00,-2.355655738083920481e-01,1.205320336555647387e+01
-2.807388086517802250e+00,-8.562659633272858173e+00,-6.528582163019831519e+00
-1.034640645341927234e+00,-9.917647104045192563e+00,3.790549438889827982e+00
-2.540473358963866612e+00,-9.955082530814861386e+00,5.026799163160357686e+00
-1.213067634047059506e+01,2.321266337326170603e+00,-4.148242526023247834e+00
-4.707473147785998790e+00,-1.082760156260858864e+01,4.345078547391747037e+00
2.485455650939412120e+00,-1.051349886478797835e+01,-6.594056294377473648e+00
8.000598712122519718e-01,-8.772961326749596722e+00,5.430164239392842873e+00
-2.302635328277843119e+00,1.172943672720916908e+01,2.972463385488672394e+00
5.862044091638382248e+00,7.602934972905440070e+00,-1.194230749244095335e+01
-2.252689908233583616e+00,9.526632279021603367e+00,6.819741869010639945e+00
-5.014268972612480724e+00,8.607726763622487454e+00,-2.324238540568166922e+00
-4.857026925911207549e+00,-4.525147185883831469e+00,1.395646086825532173e+01
-2.226428229064423725e+00,1.271731096181096099e+01,4.843714295039049489e+00
-1.335259309667628713e+01,2.589714137421507800e+00,-9.204464194917093778e+00
7.047279125152942747e+00,6.657480806482501734e+00,6.860981842890749860e+00
-6.744069559250246648e+00,3.505357199609518748e+00,-1.150963517612926346e+01
-6.853955305980476531e+00,-1.157765274131811495e+01,4.580666273957999302e+00
-4.218503040423722261e+00,1.022925649390256275e+01,3.294042038266366546e-01
-4.809386003622278416e+00,5.808825798782111249e+00,-9.761925027353981932e+00
5.537153515097576140e+00,-8.409311393502237664e+00,2.594818573229555891e+00
-8.809339944966561475e+00,-9.868844617801393326e+00,-1.220029737980348639e+00
8.852122801169878485e+00,4.584266006406877203e+00,-2.854570064356898751e+00
8.091275474349105323e+00,5.167840705983433480e+00,-5.145423547312560686e+00
-3.094107871694806278e+00,4.791627302846794834e+00,9.284424833555963374e+00
-1.132590179988505419e+01,8.181931566797778999e+00,3.456039816179006241e+00
5.491368762566452011e-01,-1.259161384711966747e+01,-3.602888665596186701e+00
-4.554724112296949734e+00,9.987009051769161871e+00,3.864192912075846142e-01
-4.936832130130513363e+00,-1.211465961199938768e+01,1.515695924947706219e+00
1.141610936024403422e+01,-7.958689081562188683e+00,-2.602784972747469450e+00
-1.078862944312658279e+00,7.435443305912762924e+00,-8.620871035923730830e+00
-9.235962539305836216e+00,-7.359078231327430331e+00,-6.049710935665538747e-01
7.156745945612000170e+00,2.450462737631996735e+00,-1.108690817597491218e+01
8.577030825442221840e+00,1.030006452427136310e+01,2.248147818136311538e-01
7.594796498940612040e+00,-4.027468939920075819e+00,-1.037681343377581378e+01
4.978205353641701691e+00,1.041737592083044639e+01,5.412769909313047911e+00
8.858108100910065730e+00,-2.036106920023742717e+00,-7.985253676337555007e+00
9.043112617242261564e+00,2.489092392158731126e+00,-3.667413298448487957e+00
-5.517191021369570514e+00,-1.007892315369194591e+01,6.437297249160487844e+00
2.762468757396073116e+00,-2.520424589777522151e+00,-1.030703953103968296e+01
-4.795187911164480177e+00,-1.378138674096533833e+01,-3.960167248356244230e+00
3.104995384433356875e+00,-1.200297089872600687e+01,-4.516018164686392389e+00
-9.205541974729650079e+00,4.010420358287000830e+00,7.867806834878729561e+00
-7.732901370677510045e+00,-1.382364552390742496e+01,-9.071891322168529337e-01
-5.888060270619646985e+00,-1.208557975593865308e+01,2.991567064825112698e+00
1.442370929916057865e+00,-4.105690158505280740e-01,-1.102783880097460134e+01
-2.247331288291884110e+00,-1.223748835776735966e+01,-6.854307339485887773e-01
-4.795038549145085871e-01,8.604372690495498688e+00,-6.168995798538756681e+00
3.300966380457678984e+00,-6.754826544634325636e+00,-8.572190415661896878e+00
3.868423060561980265e+00,-5.794793779337451767e+00,1.003863314513046134e+01
-7.299218942010688771e+00,-1.103690915855574950e+01,-4.929500473406076111e+00
-7.926380853873374654e+00,-1.457751283179472601e+01,-1.982762817029721347e+00
-2.477213351284452969e+00,-3.815129967404645939e+00,1.318046104550323783e+01
-8.402432109862604248e-01,1.130226334575234803e+00,-1.150679650896496931e+01
-8.009792014813299943e+00,1.369519687657858031e-02,9.142838563179934042e+00
-3.756770947133817096e+00,5.974215798872845262e+00,9.038136937152389194e+00
-7.763497236890381181e+00,-4.439673705072178400e+00,6.797335857325212061e+00
-1.108255068846036906e+01,-1.325420324059485733e+00,-3.295974975386446904e+00
-7.810877922576078269e+00,-8.064049681588709717e+00,-6.093546641407221465e+00
-3.747242253153014069e+00,5.171123536936958587e+00,9.390887234149161600e+00
-6.299915681652263011e+00,-1.324968043084930081e+01,-2.306433230811688884e-01
-8.638164930934101093e+00,-3.887168932267121679e+00,-7.885126561967655157e+00
5.595708488308985373e+00,-1.167449125815728372e+01,-4.668611281485558706e+00
-8.005006648669127145e+00,-2.647770965634727691e+00,7.364744526719388951e+00
1.022042402643816672e+01,-5.585881116264110879e+00,5.834361107233648092e+00
1.629938454355323307e-01,1.276691325473433025e+01,3.779069843120282268e+00
4.428237699656528470e+00,-8.093938867708791562e+00,4.306675340697432297e+00
1.220813614263620295e+01,1.513866074254525351e+00,8.118827416742417924e+00
-9.615819644856038906e+00,4.376141748894274208e+00,-9.056583958525814992e+00
8.298122685630756834e+00,7.215901525659341509e+00,-2.542102159344910906e+00
4.368329776741724402e+00,-1.103014034467667059e+01,-2.713666237576317641e+00
9.641642914380433638e+00,-3.130828288941043258e+00,-5.830238484008317457e+00
-7.741223164693870729e+00,-3.152882804207492118e+00,-8.398800274247490094e+00
6.788637147940265848e+00,-4.577434379325780789e+00,-1.012664118405122693e+01
-2.193815537371637703e+00,-1.514890420018095707e+00,1.213858075267935277e+01
7.600301622227794596e+00,-6.121034135457937841e-01,-1.156973015880258870e+01
-8.009251862843226988e+00,-4.181543729855884628e+00,-7.920694482755047616e+00
2.316222493452628317e+00,-7.680226556484226919e+00,6.904886710481243028e+00
-8.904911357058290733e+00,6.101719811967483587e+00,-5.655978179499152603e+00
