-7.810547235746365287e-03,7.093199988082029561e-01,1.369504006879860514e+00
-5.410624941277730748e-01,-1.116408940985511022e-01,9.177595008814263267e-01
1.156336987472196404e-01,3.139276920629540668e-01,1.425911857650424386e+00
6.241756948820417067e-02,1.001243818058442869e+00,-7.474926408449487081e-01
7.856452171248071714e-01,1.410331132620980643e+00,-3.942011003429035099e-01
9.807554704217004149e-01,1.614674154143233842e-01,-6.019530460828673712e-01
-8.164233937011677877e-01,8.751698052274947681e-01,7.375619888458703234e-03
9.602123731702846277e-01,1.052869771667239940e+00,-1.828033959643926010e-01
-8.829143845609289665e-01,-6.070068822526722974e-01,-2.900442364184777633e-01
6.413594279605394632e-01,-8.580901155224660570e-01,2.659370976781202933e-01
5.145421252011326274e-01,-8.535849829509744024e-01,-9.575184288533514776e-01
1.466684245901027639e-01,-7.572935000550037321e-01,1.161735680303788820e+00
1.764532988127295587e-01,1.971329418346181861e-01,-1.221382717017662767e+00
9.514414515777913639e-01,4.234769339965026025e-01,-6.555331244062921892e-01
7.160934480512091138e-01,4.055323908933266552e-01,7.028277269463824029e-01
-6.202651902304643500e-02,-1.267607094214481922e+00,-6.960301498726145786e-02
-4.969220254552069727e-01,-1.506505928592087318e-01,-1.262319925916393304e+00
3.332456216249649605e-01,-7.168949954239395295e-01,9.797056723661212718e-01
-1.115695925788992682e+00,-1.619427839928558599e-01,4.826802176872639905e-01
-6.258158422254123110e-01,-3.730325187987358904e-01,-8.068788976720423500e-01
1.373031128853645422e+00,-6.523955386245886556e-01,-7.141763452528006317e-02
9.004743797451082443e-01,1.222962320018054827e+00,-2.552906001065964881e-01
-3.339564135892995056e-01,-8.398776221926822494e-01,-8.372301824999105468e-01
-8.621588077755387713e-01,-3.679417852544242251e-02,-8.117089955957679237e-01
-5.006923394323803400e-01,1.870721618714087375e-01,9.554307712385593510e-01
1.940107268290258979e-01,8.149596595564000401e-01,1.018749039572522053e+00
4.328178932261507461e-02,-1.336255705918258652e-01,1.400363586001130978e+00
-1.119886768175577085e+00,-9.881908283262796910e-01,3.236790748152074682e-01
-3.611645063206589401e-01,1.364490664726137892e+00,8.382000131191690295e-01
1.713183097373459640e-01,9.692664024025818836e-01,-9.458149840021735644e-01
2.455730387374964116e-02,-8.575383518307558850e-01,1.006706168999547790e+00
1.306811130812631561e+00,5.081752518945144015e-01,-3.300793258766745453e-01
-9.295607286879453701e-01,3.827577931568882930e-01,-1.175978344923075181e+00
1.687297766019710155e+00,-4.475001256239678482e-01,1.826720543818178832e-01
-4.891225870396511688e-01,6.922739851225293561e-01,9.692419832356492515e-01
5.161822017824866382e-01,-1.172891474557651526e+00,-4.706817001389299038e-01
-2.261740350660438603e-01,1.020501004517831767e+00,-2.763377984464809312e-01
-7.917713471643592626e-01,-4.905863827600503435e-01,-4.965305894309511858e-01
2.411453330198824740e-01,-9.736837608044072168e-01,3.949952582967363734e-01
-2.396983527865440833e-01,1.286809818129619698e+00,5.041288995886437085e-01
-1.096497757242961502e+00,2.806224024687433705e-01,4.872922841136043126e-01
-6.790794057444174969e-01,5.039965661644043582e-01,-1.291566066498436305e+00
-1.210256195619430430e+00,-4.531280074039163996e-01,4.121719732362996713e-01
-5.631879325277461268e-01,-1.223908290670971066e+00,6.829242365423161543e-01
-1.648086956279738668e+00,4.082694390480925972e-01,-2.154195649845785376e-01
1.153651448360502263e+00,8.223711383151753873e-01,-2.461173899512272001e-01
-3.049386827613097539e-01,6.425924207747146788e-01,-1.293001053962790081e+00
-2.948956678682126964e-01,7.016224859835633598e-01,1.132141060578922831e+00
-2.859314744983296359e-03,-1.015085378653827863e+00,6.681122799229380904e-01
-1.940360197750587989e-01,-9.709882871541601901e-01,-8.925451802031229009e-01
8.884665747086797349e-01,9.594019707328292901e-01,-7.082309469626142384e-01
-2.719554442341284295e-01,-6.303024976003182740e-03,-1.565993962798230665e+00
-8.106939093304857957e-01,-7.524368730947291750e-01,7.411967609982617056e-01
1.164651266675410080e+00,-4.970918739883589121e-01,7.258530807875671620e-01
1.380966039551553060e+00,-6.344560722845568046e-01,-2.674720500272010915e-01
-9.959612306303826657e-01,-7.120554419687613601e-01,-8.238130447361281805e-02
-8.196138913102778423e-01,-3.497634063729276321e-01,7.195095557191839575e-01
-1.497339809830915414e+00,5.192356916125694388e-01,1.849352999988467250e-01
3.267321582526479251e-02,7.783334391288057041e-01,-1.324608626208201745e+00
2.665754898959034058e-01,1.037514490927307520e+00,-8.405843065512536016e-01
5.949175817053844462e-01,1.376586840576780713e+00,-2.393323458644472934e-01
8.263769998266626837e-01,-1.017296008184229494e+00,-4.125308733121908489e-01
8.015800853806402948e-01,1.338838378535784912e+00,-5.416505406526452848e-01
9.013289696380315519e-01,8.914575589003991274e-01,7.042971587618382379e-02
1.106322203130814197e+00,-4.624275514696409295e-01,8.769912000693134146e-01
2.069690948335199399e-01,1.079512921158746197e+00,-6.711709039591355896e-01
-1.153635477769673345e+00,1.249681055654678768e-01,4.359165818804788817e-01
-1.660035197944308427e-01,-1.166422653740194715e+00,3.267379258899212879e-01
-6.570286972209247178e-01,6.490603563213795946e-01,-8.638313739373782996e-01
4.718381961861801699e-01,1.258082054098246028e+00,-4.295403327440094898e-01
8.836650550092409739e-01,-1.452472719102321230e-01,9.327563733739147045e-01
1.205024400801725459e+00,3.715891643407594480e-01,-4.229248116829376070e-01
3.501866950942533196e-01,2.978274030066515032e-01,-1.076875845688525457e+00
7.166605063770198347e-01,-3.890190037772835868e-02,1.086151695039233367e+00
-1.034498064572760612e+00,-2.972150018626971146e-01,-3.754330273274659180e-01
1.235771423686841564e+00,4.031262969440815858e-01,1.424097838052165374e-02
-1.298928403544758137e+00,-7.080984946640495048e-01,3.607328236113849229e-01
1.119874989086801165e+00,7.774774988127826081e-01,-1.193731973274615998e-01
-2.563396137036123013e-01,-1.180424165375300261e+00,4.244107609726620045e-01
8.934526692558114602e-01,-8.282578336360774118e-01,-6.325192147051618141e-01
-5.025522674412032931e-01,-4.661659986681897933e-02,-1.286082801961317079e+00
8.730473187525703560e-01,-8.538197367859614584e-01,-6.586748441812068089e-01
-2.094302224000096080e-01,-2.145885133146523682e-01,1.199903700420616115e+00
-7.265645480088153141e-01,-1.198125692627839856e+00,-2.214926438476725809e-02
2.964788695493139614e-01,-5.857690599897681372e-01,1.513630924485055429e+00
-5.284054878072104167e-01,-8.444893069837763333e-01,-5.492689826567515032e-01
-5.765288524830466249e-02,1.095002480115434107e+00,1.113542754349351904e+00
-6.942371711126312794e-01,-6.525539947403741214e-01,-5.310101117341794463e-01
-6.524089418898237902e-01,-6.154680766875877396e-01,-6.366455279546208157e-01
-1.984368729447061608e-01,1.257588634025911034e+00,1.148536922186748743e+00
-9.182917054590542527e-01,-2.765189789045117141e-01,6.586118158776885778e-01
-9.433795883160669415e-01,1.824302933502101876e-01,-9.411899369667634518e-01
6.398207195825675875e-01,-9.023015427832901114e-01,9.514683685348404585e-02
-4.988550749565042186e-01,-3.291479639913031385e-01,9.713367512905565215e-01
7.154089333109238114e-01,-9.440219844002825100e-01,-5.640561971732686863e-02
1.105517417944132275e+00,1.149106692142470187e+00,-5.217452544117134883e-01
5.486214882997745290e-01,-8.150138631104023590e-01,-9.102338437272745608e-01
9.769353038580075310e-02,4.552090041526698494e-01,-1.293091682739722970e+00
-1.090113604543516468e+00,-7.354523227155495002e-01,5.145284416285317297e-01
-3.496119838987009620e-01,4.879169830360722271e-01,1.056503823864464175e+00
2.506074090906532104e-01,-4.037267268887082677e-02,1.541082423851421801e+00
8.532987278946576604e-01,3.949441099696914259e-01,5.178465276972256115e-01
1.082027171481647176e+00,1.281465007235485842e+00,-5.335266235855784522e-01
9.802456525116436392e-01,-7.522205806529315142e-01,-5.656444274111530612e-01
1.728448634298496156e+00,-3.967357278008076804e-01,-1.019022149850887411e-02
-6.566165463709258132e-01,-1.046501265902557876e+00,8.653492773473919764e-01
4.599792648631970682e-01,1.617561586207642496e-02,-9.834408623883456046e-01
-9.434932438267275012e-01,1.023593192563140075e+00,6.119344265546958761e-01
-8.441779922703768202e-01,-4.335337343513075981e-01,-4.906560068122282625e-01
8.359277104836619898e-01,5.815055769630884663e-01,4.092242066064322170e-01
-1.589359620021098651e+00,3.870249907490415087e-01,-2.274167873437806797e-01
5.479982682963947527e-01,-1.175111399673686607e+00,-4.884806731049316508e-01
1.158975651822449077e-01,8.026032622668644034e-01,1.177390403640992345e+00
-9.362579072104283417e-01,1.033536190021058676e+00,5.738659962730020547e-01
-1.820185047663275824e-01,-1.216151747836452968e+00,-7.195978719263972367e-01
-4.457109973342386344e-01,8.993059622221210025e-01,-3.837293554140666640e-01
-5.717153544806479609e-02,6.055560248009456137e-01,1.306105807379881689e+00
-5.987628482107431038e-01,-6.361509120400595796e-01,9.014217055180197002e-01
8.001090140613782431e-01,-2.446900474267135472e-01,-7.261295170285031464e-01
5.240833091962570078e-01,3.022696507284358680e-02,1.276762650727799597e+00
1.058223461726378378e+00,-6.059326674900580301e-01,5.051679435179340372e-01
-1.104397560653272770e+00,6.212823038383165075e-01,-3.750332216057340462e-01
-2.952977882982969482e-01,9.817764078407580364e-01,1.130480436525341359e+00
4.290413890806025754e-01,-5.105957089895547529e-01,-9.996735413576225415e-01
-1.049662804275919070e+00,5.557425125134660693e-01,-6.812699660935033208e-01
9.255323804223443140e-01,3.221807492442361198e-01,5.141115315954108977e-01
-8.680983656283263183e-01,-1.197696665744388378e+00,2.033604681637499190e-01
5.903996847152913618e-01,7.857901926559104355e-01,5.251537365121414780e-01
-1.155100165113906341e+00,-7.331084849644948775e-01,1.359304447594823495e-01
4.315052899078719029e-01,1.331030079183260328e+00,-1.739422257425982388e-01
1.144127977820776909e+00,-1.034361866312018818e-01,-4.416398528052277173e-01
1.348168804176859137e+00,-5.391684708434665296e-01,3.394116305986306648e-01
1.184316553556157947e+00,1.352131932253629043e-01,-4.593106198558101205e-01
-1.162263978845848200e+00,5.028032668491162482e-01,-6.757394673565710885e-01
1.797391786972105665e-01,-1.943977156865937111e-02,1.485308193511310160e+00
1.405501031729386119e+00,-2.913283840224360488e-01,-2.550040141825342666e-01
3.944039765801777286e-01,9.484634635383755175e-01,6.170279154921954889e-01
-4.057231674022415135e-01,8.121464165940700530e-01,1.010342771438540677e+00
1.302830340476228033e+00,-2.633772960771503246e-01,5.415295674032122308e-01
1.250181023597791485e+00,-6.730050636357243210e-01,-4.085538339452353673e-01
2.758731053915615189e-04,2.181764613704897382e-01,-1.344188803514686281e+00
-2.562424343569120744e-01,8.107220976444791116e-01,-9.129279534311341981e-01
-4.602815092288554677e-01,1.285791623490400992e+00,9.697312460231510833e-01
8.346722265607042779e-01,8.889782089741754328e-04,9.261457181747169143e-01
1.803269533171562578e-01,-1.442376995344725632e+00,-8.390908417295607213e-01
-5.461481383192790667e-02,-1.142028150984801149e+00,3.078174876277437466e-01
6.417007143349563736e-02,-1.108256715498732392e+00,2.015882966352398609e-01
6.247014308345827382e-01,9.012339656378679509e-01,4.044465708261895664e-01
4.430827627706392935e-01,5.508605838821351020e-01,9.643035289371125751e-01
1.198908095241945748e+00,-7.652566442671296931e-01,-1.104610693957662898e-01
-6.407572937897408893e-01,8.818612713153296534e-01,-2.354245580068248800e-01
-4.955134418914233230e-01,-1.094665338266957999e+00,9.224226268770553405e-01
1.329164292266338032e+00,-1.245713382776491435e-01,3.774790384444645097e-01
5.710464877523095950e-01,1.283180244325204278e+00,-4.594076356686551121e-01
-5.502802816489990034e-01,-4.798457443970898240e-01,9.575482087357233274e-01
-1.483923971546405318e-01,1.393801389671542212e+00,6.745708829704446519e-01
1.171298122326150271e+00,-7.774564517290526444e-01,-3.912171361060509112e-01
-3.129238712117274890e-01,6.907081843917026731e-01,-1.225657715107574708e+00
-1.196442791676464390e+00,-4.242907828431412010e-01,-5.217692720498633141e-02
1.174281735223538181e+00,7.342610435869769692e-01,-1.828175170893790724e-01
1.332882258620256888e+00,-4.116422554757032115e-01,6.119058557412170307e-01
1.521635078493554782e-01,2.676934715864538461e-01,-1.255819434916734201e+00
2.778473373343520181e-01,-5.326327762469843519e-01,-1.140946016908622074e+00
5.782015787246205241e-01,-1.455428366414364683e-01,-9.089255410743193320e-01
6.205968174324010267e-01,-1.451235657113984223e-01,-8.807659737730135774e-01
5.470365967094971138e-01,1.302571244335321898e+00,-3.845002971389609447e-01
-2.374986384866286104e-01,5.849435343222590955e-01,-1.543999120734052877e+00
1.231092435071623692e+00,-5.766646024227237710e-01,-3.987770993755720417e-01
4.496619195958488913e-01,-9.754832851298014251e-01,2.237610447861124174e-01
-1.354659678030095404e-01,1.452034642750761551e+00,9.331959002983781781e-01
3.091432343191573007e-01,1.048074926753810088e+00,-9.086739810620455549e-01
-2.866718271875996482e-01,-1.405283096277672561e+00,-2.253997842984567512e-01
-1.005736211342352915e+00,-3.613092946162254626e-01,-3.321488524634060302e-01
-1.106472244690365203e+00,-1.224167573619052485e+00,5.237599322773323074e-01
-6.896015608509156736e-02,5.539093053351127477e-02,-1.433080452888605860e+00
1.157582799081138480e+00,9.523344345300343017e-01,-5.003063148021199558e-01
-1.429001727523206311e+00,6.225045660053238894e-01,-2.887859188769504801e-02
-4.508489144638899715e-01,-1.151923621457621866e-01,9.945782652329977491e-01
-1.081423549409611606e+00,-1.108538366251848650e+00,5.380282988990050530e-01
1.578717349033380291e-01,1.359017122011783707e+00,5.725781083386847214e-01
-1.224844200077257250e+00,-7.215907813886796029e-01,4.078915374830899832e-01
-6.286288819179883802e-01,-4.902628701656009391e-01,-7.283891425034745293e-01
5.838901687779972649e-01,-1.109314523006302400e+00,-3.659892451823741344e-01
1.332114496667353154e-01,8.874071813960815458e-01,-1.108688073826193943e+00
-6.642831296843221267e-01,-2.786999023427925160e-01,-8.866262520073054931e-01
7.897794126952848437e-01,-9.060612937135389400e-01,-8.471855615902965098e-02
-1.027283431098736877e+00,-8.166291208585321204e-01,6.700948106907353430e-02
-1.598437970514845929e+00,4.265566118348078084e-01,-2.840146141269913049e-01
-3.987163836916614579e-01,-5.492591389643286526e-01,-1.012317064493539975e+00
-4.688134231008878605e-01,-1.304023419137106954e+00,3.619882321595344621e-01
-5.550070803279500975e-01,-3.908669675235625363e-01,-9.508239602941588320e-01
-5.247278511591146888e-01,-1.421245268110497006e+00,-5.144417882855115143e-02
3.575050386902151045e-01,-8.572677674687672056e-01,6.477759134363255678e-01
4.684463716037683412e-01,5.127143323442097111e-01,9.404528344704695675e-01
3.991784889654034774e-01,-1.011400561565456296e-01,-1.043869685111068257e+00
1.659037953129518794e-01,-8.918265735895347657e-01,7.440482252825971754e-01
-1.166464641639432642e+00,-1.013318849830293189e+00,4.426495439441376356e-01
6.158900508049662825e-01,9.304315993620946301e-01,-8.888249497177928005e-01
1.316088203013822400e-01,-4.979183496095925809e-01,-1.242996176865433622e+00
1.288872453727420098e+00,-3.347309532583541691e-01,-3.546301213115989337e-01
-1.276266779669411378e+00,6.224579538931093170e-01,-2.553554379125795304e-01
-5.181078479381435731e-01,-9.748012556752337909e-01,9.599573692807081837e-01
-2.426603968596059979e-01,-6.313178083352858350e-01,-1.142409046869647060e+00
-1.111885933732650988e+00,6.579181142834994445e-01,-2.654645496716167008e-01
-9.826910434149825901e-01,-9.457165477675334719e-02,-6.117693579920067126e-01
-6.286874430885210918e-01,1.212950305165559461e+00,7.024206754708759437e-01
-8.608053242235546021e-01,7.875838415349736277e-01,6.555084380810257683e-01
1.173392644561872637e-02,3.493775670196311300e-01,-1.356840033146793356e+00
-1.418389253334367828e+00,6.623137524053516190e-01,3.600027718826490780e-02
5.083429690185039540e-01,-1.915804367920316553e-01,1.515548785679723620e+00
1.611090543056148960e-01,-1.359067829362988533e+00,-5.835695311615212155e-01
-1.373284948757716173e-01,-5.560294016606551898e-02,1.254960056287300230e+00
3.471010232301268150e-01,-6.684901538061280846e-01,1.236019912691532552e+00
4.286988596822054465e-01,-4.925900667346835848e-01,1.659522033654195150e+00
8.563297609493386586e-01,1.223237795579985160e-01,7.826790227773755548e-01
1.062781685887461691e+00,1.076038422813799578e+00,-5.770375467128642244e-01
1.474937071995098270e+00,-3.298182259279404671e-01,-2.111401926396658524e-01
7.961293725153009149e-01,1.231596492317640346e+00,-1.320616781891922609e-01
-3.537256524999433105e-01,1.398394576397057554e+00,1.025686210765362150e+00
1.406360675807328819e-01,8.988975619721617516e-01,1.006130395794411436e+00
-1.318434540954950496e+00,2.482743858115904478e-01,3.484324274350532602e-01
2.983633433114148414e-01,-1.091278735457216431e+00,-4.105703920498990356e-02
9.571481851971647137e-02,1.408085863795790260e+00,4.428685919345748956e-01
-1.088493487462712100e-01,8.072730661574236688e-01,-1.063109445987206580e+00
-3.610628873787978810e-01,1.222899456614912284e+00,1.078820471426748195e+00
5.219493042911347302e-01,1.437601135609053893e+00,1.354981990948825668e-02
6.651308462242989661e-01,4.791982190960264454e-01,6.993108411394485247e-01
-1.333020307140236005e+00,2.806707313769947476e-02,-2.864856631861923408e-01
-7.840700029119638259e-01,-1.359309492098486727e+00,1.935866102488093543e-01
-8.547508280526781022e-01,9.004041709132081239e-01,6.956955317283511908e-01
1.037525206794584376e+00,-5.310183723562073022e-01,7.571836194375951568e-01
-7.984762769358463852e-02,-2.320312068965145469e-02,1.290943619654878916e+00
-2.548219533323872188e-01,1.463934594237466413e+00,1.026618932806762086e+00
-2.481386341065151269e-01,6.156409101866544553e-01,1.167986513020608408e+00
-7.482992479673912234e-01,3.257839245530294026e-01,7.786100351750676607e-01
1.437262958375957300e+00,-6.647230670391638396e-01,-3.879973532741908676e-02
1.066660845006400229e-03,-1.177273119650767974e+00,1.144700151360179829e-01
-4.115781402021287394e-01,7.304729615602540971e-01,1.031845402747280316e+00
-9.632388698130237570e-01,-2.895018309958119485e-01,-4.700580439434704494e-01
-4.219902549492814126e-02,8.708640086493254495e-01,1.272383534649645487e+00
7.892517234917204583e-01,9.412847195558197155e-01,-7.520604124292917803e-01
-1.656998172353296994e-01,-7.521825295009749723e-01,-1.133666407464021031e+00
3.281199541352627924e-01,9.712808027557542356e-01,-1.093690165269107339e+00
-1.028055426360190650e+00,6.438829128756294595e-02,5.325673173417176942e-01
-3.753441962235729568e-01,1.275888643381748899e+00,6.156898717160654844e-01
-3.268160964727874207e-01,-2.565092431101348991e-01,1.105771459830257042e+00
-1.496996227960245909e-02,1.131004918927645209e+00,-1.838992646577158607e-01
8.583454909711901726e-02,1.038903402216503569e+00,-5.892449040163310059e-01
-4.330450508243771646e-01,1.138268024870488393e+00,2.776669970138374022e-01
5.943235205262424881e-01,5.197927800220117911e-01,-8.750991598115123171e-01
-4.712942618740111056e-02,7.727720932823982647e-01,-1.242054157296384798e+00
4.642668798161924126e-01,1.073120295486209130e+00,-9.779481697320164812e-01
-7.968952993905382698e-01,1.108968516784880100e-02,7.478937166980444973e-01
9.006976166087896640e-01,-9.582406654443698102e-01,-6.303082871112969388e-01
-7.820833318564465175e-01,5.431764376382319792e-01,-9.546061977636784990e-01
6.455141235730245119e-01,5.765188725549535292e-02,1.114381578360182035e+00
-7.419139089106685514e-01,-9.287656517364649700e-01,-1.980161523824832404e-01
-2.662016493019239358e-02,-3.418268481520750357e-01,-1.389501504149474931e+00
5.982593967500382526e-01,3.554362958457514265e-01,-8.829492281659062636e-01
-1.165568917117965730e+00,4.266896661240998090e-01,4.466195224739026304e-01
-3.860978378697845215e-01,8.493608598523043618e-01,-5.614374358729744552e-01
2.802998661334238917e-01,2.217718337797532357e-01,1.444167106983661908e+00
5.053100779222975403e-01,-3.581131092549496575e-01,1.637955048784103029e+00
-1.374272882239162330e+00,-2.719802941246133310e-01,3.565754726226168236e-02
3.516605375500073682e-01,1.122235078982445122e+00,-6.581721742667772101e-01
7.190067501867613009e-01,4.359098719276635059e-01,-8.197208540952395373e-01
1.150951321186741039e+00,7.843334854744019591e-01,-1.994301596363996509e-01
-5.237646809841496331e-01,1.025380569363438577e+00,1.275826520108687689e-01
9.253526547478606590e-01,1.088314680346106789e+00,-6.487495170514884224e-01
-1.489308214351101833e+00,2.093260076920324952e-01,1.893686399551277322e-01
-7.329989125129207639e-02,9.396916092862522829e-01,-6.709909870391634890e-01
5.888762767312010205e-01,-7.247600466365178296e-02,-9.016091891172515194e-01
1.078405740256102474e+00,-7.564948118594153614e-01,7.603605442349151144e-02
2.535935829521647755e-01,-7.682993865136305001e-01,1.019340842892845211e+00
-1.303254275745146851e+00,5.002523574242496718e-01,-4.846370497673812006e-01
6.833706900348727187e-01,-7.897114676881797912e-01,4.570358900612060404e-01
-1.542192523266055770e-01,6.417126419579020080e-01,-1.466432929850672640e+00
9.558866546331048486e-01,6.027886690667065839e-01,-6.093178747705058074e-01
1.146587071787848799e+00,-1.401834850289577494e-01,5.833766451559755373e-01
5.910048304715740386e-01,6.371688207874681709e-01,-9.208912188290766521e-01
4.332732678148987215e-01,6.789154564591657337e-01,8.331809923521501515e-01
4.099482666720971058e-01,2.362280272509172663e-01,1.288650062006090335e+00
1.242345901531820118e+00,2.498436795408569000e-01,1.453965039297488993e-01
4.773929650788568679e-01,-5.780502292877157666e-01,1.290050738052450852e+00
7.143576354033344122e-01,-5.765992283227109327e-01,1.031223345745883258e+00
1.135892125421168686e+00,-4.227208133831830694e-01,-4.683387650987297368e-01
5.130607312839359224e-01,1.247124125377890635e+00,-4.885007598052795164e-01
-3.965675049079013248e-01,-1.053224388232716802e+00,-5.598023521790506107e-01
6.866633241063053728e-01,5.791708695644732785e-01,5.867896192335365635e-01
-7.119270180635803857e-01,-4.702292882151308251e-01,8.109519098958134498e-01
-3.446042196221414389e-01,-1.185033471093285273e+00,-5.404762561508158480e-01
-1.089369377947932760e+00,-5.303945220882090583e-02,-5.375113088645008252e-01
1.513366001987634046e+00,-1.296598408765073929e-01,1.371317586292462865e-01
-3.748647094949164038e-01,1.121990041239008473e+00,1.912762836617876716e-01
5.521470709107332286e-01,-5.540087226678899190e-01,-9.334253330580288832e-01
-7.353558162412118238e-01,-1.170012480034874347e+00,7.899396970551252339e-01
7.915825227276960252e-01,6.771315856756596752e-01,3.893728971877282174e-01
-1.325622613064219024e+00,-2.995824460652621313e-01,-1.152675120305563655e-02
-1.637903591879895926e-01,-1.079053451953083220e+00,-8.414818211913422941e-01
-5.668265024860357215e-01,8.262933170092913171e-01,9.021503908715329256e-01
6.631320058419457597e-01,-9.893128070298259358e-01,-8.251910950330474392e-01
-1.293382666924065560e-01,1.093009564012414003e+00,-2.500438413862099418e-01
8.240282463541476199e-01,1.684455640812367594e-01,7.687057418124935149e-01
2.523846258743969173e-01,-2.166220592114940502e-01,-1.138147147760527167e+00
1.678902298003777382e-01,-6.062503733352582191e-01,-1.224347713443407537e+00
-9.824240875252927829e-02,1.133854285217015256e+00,-1.538363882814473560e-01
-3.696716556882010396e-01,1.374241031152927617e+00,1.020838622438680510e+00
-1.022082904507530587e+00,5.117735906930011014e-01,-8.171060759834676279e-01
-1.406434026654872493e+00,1.285659436985387982e-01,-2.480655828213811642e-01
-6.175469702237659231e-01,1.171341169781566549e+00,8.606896368886121085e-01
-1.144784803539138363e+00,-3.182179327833790650e-01,4.548588369861163438e-01
-6.198592040257073776e-01,2.874688729872043047e-01,8.665951834725639236e-01
3.399254446246041117e-01,1.095323458177467568e+00,6.392546942828837286e-01
-1.602462087507294353e+00,2.725109584168332044e-01,1.065199886196616930e-01
-7.012631919146189441e-02,-1.105658068898810686e+00,-9.136411598930599398e-01
7.583056671751371436e-01,1.390626617767696693e+00,-2.056138533522441081e-01
-9.553113161138749865e-01,1.008248005342107900e+00,5.198799691154460945e-01
4.216768581469562682e-01,-8.080694602103910551e-01,5.880110742992944450e-01
-1.077699665364841408e+00,-3.714722565614858585e-01,5.244207171582488947e-01
-3.807751842796983088e-01,1.265114255230711082e+00,6.070423199581226337e-01
-7.816484777542510587e-01,-1.420352832853056579e+00,2.678593069699855000e-01
-1.184747333555122295e-01,-1.485871751050079348e-01,1.260932968460568127e+00
1.675531461181259049e-02,8.020488125858099560e-01,-1.232133891811502346e+00
1.387873587904317751e-01,-6.616717824383667734e-01,1.405403742339828010e+00
1.295773748784949442e+00,-7.081619955922312248e-02,-3.717775553708760339e-01
1.334719554279924392e+00,-4.170741943999954904e-01,-3.170284596646072983e-01
-6.853102218270117341e-01,-1.423490865701676045e+00,1.852853462179000765e-01
5.818542373044609528e-01,-8.660017260934583794e-01,3.059434217691509028e-01
1.375454595811128833e+00,1.288334137760097087e-01,1.305165110441037224e-01
-3.374426677753510351e-01,-1.003696710377782964e+00,1.022669422519752569e+00
-8.353729846379000235e-02,-1.370845524210106692e-01,-1.418393760530362702e+00
7.932281803688769894e-01,-1.594232135093261449e-01,-7.168449240265648559e-01
2.529519445955870638e-01,1.305560824349310645e+00,5.260904088662836653e-01
-1.041226455703143206e+00,-1.169102406158703422e+00,3.932394863173710453e-01
-5.477868770691196598e-01,-7.854759998527711673e-01,-6.013457970271025577e-01
1.394267662407923991e+00,1.681468371053403688e-01,-2.839653243458516441e-01
7.618870185700135633e-02,1.085234162326983665e+00,-4.581435204680516238e-01
3.129894957100509134e-01,-1.022100184782564147e+00,1.366211084175357748e-01
1.072199968647805646e-01,2.629816976142302920e-01,1.436348882818251571e+00
-2.375456317982154453e-01,-1.103974592350684958e+00,-7.593725601136603887e-01
1.278731011179118804e+00,1.261524449412952109e-01,-3.499235573574856484e-01
-1.007190204511189791e+00,9.137199748970156188e-01,3.497049406356105283e-01
9.266312261370325265e-01,1.116959326455297496e+00,-2.062657620499861177e-01
5.450652877882833369e-01,-7.812759715507798797e-01,6.196273418790023690e-01
-1.279730418136727721e+00,-6.793502372667822309e-01,3.554547107562474606e-01
9.205375065913850019e-01,-5.197854572251164873e-01,9.560903970913304795e-01
6.374575240226387773e-01,8.947693446840567777e-01,3.500111291418637749e-01
-1.016998199255067625e+00,7.017886359059462009e-01,-3.178322572210288133e-01
3.697794387754831380e-01,4.271077644301107812e-01,-1.084925831250581840e+00
3.431066220026530167e-01,1.295210359588913729e+00,-2.459808854362584007e-01
-1.436272250683017782e-01,-1.340029268554256969e+00,-6.326716311521143332e-01
1.416953607797636128e+00,4.166502332954164500e-01,-2.290863118265811238e-01
8.982972515192101381e-01,-2.881465359162488360e-01,-6.477304101086085453e-01
3.223184084421199663e-02,6.348123404398037239e-01,-1.338483644172213882e+00
1.468219486817622932e-01,1.079436476748629303e+00,-5.715579007199098616e-01
-9.510051677527211478e-01,5.758666099366380742e-01,6.083370732251214275e-01
4.070035659540680584e-01,6.460692400297095572e-01,8.952475523704483962e-01
7.817210910790119982e-01,-9.622712631457790433e-01,-7.312369066575676868e-01
-5.722100029586344450e-01,4.310734035561755162e-01,-1.557149073925725657e+00
1.064002428277513790e+00,-4.580652029109626988e-01,8.796632598163515171e-01
-1.177049053648784094e+00,-7.718542414297944187e-01,4.487314189296480182e-01
1.475757351847862386e+00,-2.739537113609323837e-01,-2.007647144305471920e-01
-1.119375542916210220e+00,5.189922277340356382e-01,4.644126601557614364e-01
3.635680544981962359e-01,-1.107180547285736782e+00,-1.563195193390485571e-01
-2.709271384853164516e-02,-9.821809314353379117e-01,7.469757618704651048e-01
-3.776864814365566980e-01,1.198306252413118944e+00,4.508168972955435283e-01
-1.178321522234342611e+00,8.751518694713997792e-01,4.047469380095137792e-01
-1.010096192212516675e+00,3.870017733968963425e-01,5.644593950115521785e-01
4.624644539159404599e-02,6.952024123041428139e-01,-1.347330108892301537e+00
1.121684936866533366e+00,1.117798648167026787e+00,-4.810464009817772002e-01
-1.126040041595221419e+00,6.428917083306516789e-01,-3.933099355344872872e-01
-1.276812275474258573e+00,-7.334252328568140467e-01,3.047661366920660364e-01
3.301273562519995708e-01,-1.041109679998625914e+00,-1.096667207265858535e+00
3.106949710268168685e-01,1.013080466284882020e+00,-9.676766076564551344e-01
3.390247633196011856e-01,1.663408403676926439e-01,1.371213299190276347e+00
1.591448409090515104e-01,-6.893885915375156381e-01,-1.189961933157651197e+00
-1.649962128969796049e-01,-5.440045598896459111e-01,1.235921965031678393e+00
8.850743470932913581e-01,-2.583940231898239070e-01,1.071314325380338994e+00
8.662332250500948128e-01,1.436553501294532076e+00,-4.422252778442748444e-01
-6.136425392656882360e-01,-1.315372351722851052e+00,-6.040530270249239164e-02
-1.380889981746735717e+00,-1.042063857037428265e-01,2.613800946989296992e-01
-9.608748353660410135e-01,4.106301925124524188e-01,-1.110577818662446647e+00
-1.768609786935953387e+00,4.383878417341766642e-01,-6.518558145034879237e-02
-1.417077226496773701e+00,5.239162962902141896e-01,-3.224005230267932842e-01
1.169328874598120072e+00,5.866769008627987780e-01,-4.569493162826064880e-01
-4.308225256170808426e-01,-1.281835653765383665e+00,2.517968285021588426e-01
-3.903226256553558038e-01,1.308109099040921874e+00,7.248221159802690217e-01
-4.688764843265060267e-01,6.297652851390970197e-01,-1.101500470292568812e+00
-5.824920828992969923e-01,-5.197482343624781898e-01,-8.252669786337963886e-01
-1.671370554618351045e+00,2.415495091282234830e-01,-3.668819343165749536e-02
1.077215476250348747e+00,1.127540462443464842e+00,-5.379069968477443453e-01
-1.021515888945331296e+00,6.196806739717084511e-01,-5.399560607868442164e-01
1.254763542746162308e+00,6.273607438615081966e-01,-2.180932755601787953e-01
8.948819030388495133e-01,1.176588641035696048e+00,-2.243704752042271211e-01
-3.111603025780784737e-01,1.038109362273123226e+00,-1.316761008045680692e-01
-8.540959361032283148e-01,-1.318199703113784649e+00,2.792838562775188938e-01
1.304847445159164510e+00,2.619524014716506578e-04,-3.410935015390879621e-01
-4.765511216192097610e-02,-8.781073634056315580e-01,1.046640920640777406e+00
-9.601081231248826953e-01,4.063544828854289137e-01,-1.086834553007881121e+00
5.653640988109198684e-01,-7.739543904855674672e-01,6.584866225283255714e-01
7.800474895609986470e-02,-1.173560479760383579e+00,-2.112213291194206533e-02
1.017215295771690453e+00,-4.386733660178112060e-01,1.015610055529078126e+00
-1.386689651690425018e+00,-6.927188798501700273e-02,-1.087487345606079070e-01
1.231409247360476661e-01,-2.849962744519056734e-01,1.439676974296613121e+00
6.353939531330027313e-01,1.313258713669281930e+00,-4.733960798854965901e-01
9.745624961254329977e-01,-4.784504927956818171e-02,-6.041634590730169396e-01
-4.674115928891302563e-01,9.397442014473930127e-01,9.912876030970286800e-01
-2.433745854851849244e-01,-9.214168354314721254e-01,-8.989262638395151273e-01
1.184375214068035920e+00,-4.790513074214458600e-01,7.263273541338238770e-01
3.884347745349272518e-01,7.749831671201955485e-01,-1.092317819923066535e+00
-6.896006308388107353e-01,-6.169150242688071772e-01,-5.500041579300107841e-01
1.378133095277907394e+00,1.486000570599637638e-01,4.934756671417842716e-02
-2.009904250329969944e-01,-1.115856533978866416e+00,-7.336865483550005784e-01
1.608312771194245899e-02,-1.130320381263115181e-01,1.397715218740949172e+00
-1.019325742853196992e+00,-7.859338112806731891e-01,3.125723867118523902e-02
-6.251713846841544520e-01,-9.595767821285090537e-01,-3.540174165801800443e-01
-1.398280181984195680e+00,5.195145381784660454e-01,2.409190835462478864e-01
-8.615366201265746149e-01,-6.824995359198176015e-01,7.099884906501204851e-01
-9.682841948272471466e-01,-9.925046944436698437e-01,1.317607910262092452e-01
-7.188616784110849478e-01,-1.435272342701928050e+00,1.783970035871198789e-01
1.283242688526406772e+00,-4.839678769394002988e-01,6.176291666722480977e-01
-9.459973485753583322e-01,5.208687277142992622e-01,-8.403283831148734562e-01
-1.242993599172305341e+00,2.304731978991128860e-01,3.857707756142828015e-01
-9.372279595313089962e-01,6.530075405839358416e-01,-5.365024187836259228e-01
4.546131187485872444e-03,-1.337924227132806454e+00,-3.532031362499442051e-01
-1.191917401249202868e+00,2.667676408440274316e-01,-6.974015213587405615e-01
-1.139266207474912695e+00,-4.223215560096117011e-02,4.754794988127390987e-01
-6.015354810311841494e-01,-1.363560362052844699e+00,2.979360614608760893e-01
1.039429199572933449e+00,5.536383217930005429e-01,-5.863041913457308629e-01
-5.936429003883352262e-01,1.253992748874452001e+00,8.491347921675393984e-01
1.006047245374869226e+00,7.153219308403669929e-01,2.608188811155831913e-02
7.642521003377104050e-01,-8.921084793428051274e-01,5.972628837008091968e-02
-7.699899561371428280e-01,2.408562159467816377e-01,-1.209359633655651800e+00
1.365736351720171493e+00,5.337135776448310720e-01,-2.644922807813509524e-01
-3.299848949808101284e-01,1.180566060032348874e+00,3.110786764878076260e-01
-4.715684609215219925e-01,-1.255507522947999055e+00,4.561852801282756387e-01
8.682759657966948597e-01,3.598528912682920633e-01,-6.644681300739682106e-01
-9.558084347185255569e-02,-1.166639374052109490e+00,3.106145688712830810e-01
-9.633971997977403001e-02,-1.086845637764669359e+00,4.711753986661486038e-01
1.200643987350210162e+00,-8.119220441762706741e-01,-3.087926126519787706e-01
-3.097663373643063101e-01,7.766428086897204652e-01,-8.768024348213580010e-01
-8.003440455936958742e-01,7.589793343272127624e-01,7.024960819036001336e-01
-2.826110790876499874e-03,8.834123026025181291e-01,-9.463408467715435091e-01
-1.092438186319744764e+00,-6.960552324231416010e-01,4.763712673230879185e-02
-9.269494987951361065e-01,7.331895918794475997e-03,-8.009808861733385132e-01
7.262169979582366874e-01,1.344132512752256092e+00,-4.533009886506184638e-01
4.297182377845325529e-01,1.177065168514538129e+00,3.829876616897801567e-01
3.141587040078264170e-01,3.746947274189746935e-01,-1.119245598048619117e+00
-8.149876920418597237e-01,8.426085936221480166e-01,-7.938872828733411352e-03
-6.763073820768289446e-01,1.016195862142273310e+00,2.593296659140281735e-01
-3.062753962630487270e-01,-7.035885616726541558e-01,-9.495049693286393699e-01
-2.625204663981008379e-01,1.374607091155177763e+00,1.123747261480051662e+00
-4.169414413743713910e-01,9.477136866968403073e-01,1.013096617220358597e+00
-3.548638651596860982e-01,7.136760489943642094e-01,-1.063884457015169760e+00
8.716148069931247688e-01,1.230526315903807344e+00,-1.876455908316510268e-01
-4.084232976534230564e-01,-1.309022934479404432e+00,1.866856487382168028e-01
1.313894322085829014e+00,-4.554468626986549890e-02,3.456090929897596697e-01
4.993119243906110061e-01,-6.756020746332727124e-03,-9.669389688197784771e-01
-3.330288182067310254e-01,-1.212859682413636397e+00,-5.274619207320817571e-01
8.216739408663061850e-01,1.130715243540061365e+00,-7.503522558076838878e-02
1.067231494340338482e+00,-9.969591597997218291e-05,6.495691156319306492e-01
-1.038111323573052802e+00,-1.072015544788439190e+00,5.504367878670171077e-01
-1.415668591789411845e+00,-1.700136610269382398e-01,2.473010385567543656e-01
-9.946815065528786803e-01,-1.331789698036494052e+00,4.804795058109603278e-01
1.401235365731376303e+00,-6.004892002737629575e-01,1.394404580309085706e-01
1.062870102452664334e+00,-1.163773332404795524e-01,7.002297074689024514e-01
1.067649688989258605e+00,3.210430558685888891e-01,3.323809614407356450e-01
-1.124262760629523683e+00,8.832737786600066698e-01,4.650410291022358811e-01
2.915242422089536212e-01,-1.225538207545694203e+00,-1.098944013736283809e+00
7.590586279596049923e-01,-6.671188564046992564e-01,6.815735908602381654e-01
-1.432301546549109350e+00,2.423598708896048670e-01,2.447084629130479860e-01
7.741130297870466581e-01,-7.769646421436159356e-01,-7.349856525470600532e-01
-4.402946192806002634e-01,1.206332739339036175e+00,1.004236676729161060e+00
-1.458503890952345672e-01,8.791151867399096265e-01,-7.889699413771165126e-01
-1.054803485117068007e+00,8.497444610363950046e-01,5.212636101964328583e-01
3.272445922490209158e-01,-8.527761900695488562e-01,6.248877391966347616e-01
-8.068739469392632868e-01,5.275624138737416979e-01,-1.064719888222013244e+00
1.219495078961716716e+00,-3.640504860027794498e-01,7.356569273896671479e-01
-8.695274708870611713e-01,-6.345153061223638424e-01,6.680339414955230870e-01
-9.624715307748293869e-02,-6.772655381319597767e-01,-1.296622399569130835e+00
2.127992402172380337e-01,8.715883888964624793e-02,1.525280614682322122e+00
1.996002128078561422e-01,-1.470650965217441763e+00,-1.026861000417635283e+00
-4.561458998324001146e-01,8.251258906580165586e-01,9.794856635286358637e-01
3.998956722045976520e-01,-1.381704552225599292e+00,-9.216181177391964408e-01
1.195248476527740689e+00,2.821454498754542017e-01,1.639512445991602452e-01
-1.485158644287971619e+00,1.327392592825298590e-01,-2.085742302501115697e-01
-8.121741161743641912e-01,-1.178396877515995422e+00,7.561952392662993905e-01
6.201104279331682845e-01,-9.706212220496077125e-02,1.264292192221860844e+00
-3.107079830739211679e-01,-1.013297941853693152e+00,1.010436558844372001e+00
-1.305705778130906047e+00,-5.009838464784225343e-01,1.581295264649671406e-01
8.047868499382133667e-01,3.935599221564687888e-01,6.361004438161215191e-01
4.099544105458243215e-01,1.082795027323799397e+00,-8.892052546460200713e-01
1.132465000198085603e+00,6.091255535614223948e-01,-3.976240580289690935e-02
1.131470131065203777e+00,7.664704100471138037e-01,-1.130860226568714683e-01
-1.137866806729333158e+00,1.033063291892939162e-01,4.628158875090039315e-01
-2.649769637699098679e-01,7.218938895450887072e-01,1.152668396197881640e+00
-1.331972448036844892e+00,-5.110157735479816665e-01,1.703573660677243085e-01
4.323924611074255187e-01,-6.679478775528512324e-01,1.135164311894182321e+00
-1.999466393019541932e-01,4.747612591601773624e-01,1.193011045280628402e+00
4.939033031802474438e-01,1.178208012506343438e+00,3.097844709852760614e-01
