-2.389224700523776335e+00,-1.894261825579308667e+00,-3.542340927260751560e+00
2.337825683302713564e+00,-3.537142185322357246e+00,1.924515339006621195e+00
-3.239841083929246413e+00,7.617057695987067278e-01,-2.800329898144574337e+00
1.446709152665123010e+00,-4.480585300938469295e+00,1.606693266284825450e+00
-3.978224517703114138e+00,-4.737475643269185577e-01,3.216273297066768233e+00
3.060144459075876622e+00,-1.938232170152862865e+00,-4.878283128226141296e-01
-1.614482745354515636e+00,2.691802746004519076e+00,-2.385741790227256853e+00
3.270810159066214418e+00,1.624064687822421416e+00,-1.048021727328487307e+00
2.769183098596053494e+00,1.437395716250251976e+00,3.113526625638092238e+00
-4.077966406948499767e+00,-7.340691421195476574e-01,6.451638269044199792e-01
7.269941266737185437e-01,1.481825103867767668e+00,4.140505317758768733e+00
-3.492661181477661803e+00,-9.911487781689334309e-01,-1.332796414926299411e+00
5.490651822527724546e-01,-2.646162824451784079e+00,-3.389123739425146997e+00
-4.570637535563088605e+00,5.154763828874696641e-01,-2.709487592034477643e+00
-3.493624974125248972e+00,-1.727802425247227047e+00,3.365757830390451399e+00
1.589758170142837379e+00,2.740563828389253401e-02,3.408993262087506970e+00
6.014911763901852337e-01,3.888966191528891780e+00,3.156082060561569147e+00
-2.971923473198915922e+00,1.390486814526883608e+00,1.650825900883340136e+00
8.353094865582262329e-01,4.410608742547871941e+00,-1.087853581994025154e+00
2.365545609855488784e+00,2.331763761836873172e+00,1.078072454477270625e+00
4.440409427615348292e+00,-8.221509621586007288e-01,2.714994689396354761e-03
1.784086889414689070e+00,3.231420810091133689e+00,-7.060809526326933261e-01
-2.040394702731409549e+00,2.244922720678293793e+00,1.552317179286286875e+00
-7.030207571864053318e-01,-3.643206697895469581e+00,2.494585019278081184e+00
-7.605453153366884544e-01,8.563545576865293496e-01,-3.173369077545887595e+00
-2.506585010006383007e-01,3.751018539544179298e+00,1.798202411490739783e+00
-3.394987094151402207e+00,1.418601014560993745e+00,7.880391215805222505e-01
1.116350013933231855e+00,-2.602728819367319257e+00,-2.516929371803839466e+00
3.863693696851189241e+00,-6.524408652937194741e-01,-1.258231874756826629e+00
-3.229874964702936335e+00,4.159205572207524404e-01,3.023290954953827381e+00
1.711901361106333619e+00,2.596648238496522598e+00,-2.972840741368366846e+00
-1.271289671484169048e+00,1.787691938383008550e+00,3.841978072932851873e+00
-1.881128110256971908e+00,-6.205010582168112299e-01,-3.613433976202456321e+00
-4.873854434970819938e+00,6.612487517400199577e-01,-1.917899707392715314e+00
3.961742803749573660e+00,-3.673332332143005585e-01,-1.662183999943490864e+00
1.485865643627862109e+00,1.159814527481819901e+00,-3.494806064124812650e+00
-2.062991946144170363e+00,-2.993439885004939072e+00,6.447428052828632072e-01
-3.701777593919869602e+00,2.492685332827089706e+00,-1.826699003713381009e+00
-1.309121775208760718e+00,1.107172499548885192e+00,4.298198254246962335e+00
2.906755560980127218e+00,-6.495669659431329013e-01,-3.177146358227103118e+00
1.423222054638167700e-01,4.014997845086044848e+00,2.280457028399632602e+00
3.967752920756883572e+00,-4.162476196466087242e-01,-1.621779635725903557e+00
1.957419388691869822e+00,1.345024779252991243e+00,3.805069981457795958e+00
-3.162665287658727120e+00,-1.751365271539686352e+00,1.523644660099939596e+00
-4.158046424089321569e+00,-9.852007542122931394e-01,3.427362670521189703e+00
-2.628554321775293176e-02,5.418713547230319172e+00,-1.052095657200579959e+00
1.802628792364008303e+00,-4.074014209046916690e+00,1.451976159981722470e+00
-4.320336117032734791e+00,8.411061614419291788e-01,1.931070368117830949e-01
-2.254708899838417935e+00,1.590416888957754793e+00,2.393983292548044428e+00
-2.068154339878071735e+00,-1.058382686183716670e+00,-3.665674199341102835e+00
2.445941582228060990e-02,-4.535928155129346884e+00,-8.557658214384337159e-01
1.213048874149541101e+00,-2.396272880565309196e-02,3.453068362536590996e+00
1.111140644286351176e+00,2.097062471187610022e+00,4.195777162602071009e+00
4.379934457359682121e+00,1.694706051379041845e-01,4.030613045140917783e-01
-3.352020578899373771e+00,2.901643461591605355e-01,-2.962648402312062057e+00
2.120146302738979749e+00,-1.494267493918252088e+00,-2.818807498573281389e+00
3.424419984068273859e+00,3.080835794236596800e-02,-3.356628327816882695e+00
2.910112562125504621e+00,-2.027496816826086512e+00,-5.464355645721542531e-01
3.653716340891083103e+00,3.296024016469252804e-01,3.125253905105501939e+00
2.750859572580150569e+00,2.400262790227043475e+00,-1.940690488996576812e+00
1.304123017348990388e+00,3.255018323632827837e-01,3.559734633480373667e+00
-3.750800590371580867e+00,-8.410875959136528968e-01,-9.886216214300461713e-01
1.402163970097400236e+00,-6.842563720428664897e-01,-4.165591157334019634e+00
-2.364086569171330865e+00,-2.117854605345673491e+00,-2.548430375447764185e+00
-3.036222193058250252e+00,1.376107290352195811e+00,1.389838473668816965e+00
1.580293962038805455e+00,1.608437482765541660e+00,4.018905450974857629e+00
-4.163562824676629859e+00,-4.961436870247998288e-01,7.679656221683428541e-01
-2.067333545165529696e+00,3.957460423331895516e+00,-1.744103963923793632e+00
-1.188150494153305647e+00,4.686345169382743592e+00,-1.750339192816751765e+00
-2.290477051575259271e+00,1.958136496486663436e+00,1.617822797630481091e+00
4.434135679272734443e+00,-3.528808005970495709e-01,-8.934359562798905863e-01
-2.659286356676132890e+00,1.515817174428272462e+00,-2.589587897560235774e+00
2.844462411769359100e+00,2.745971582436508851e-01,3.307305648446976498e+00
-2.119440269062107252e+00,-1.513380433760876276e+00,-3.859110003216973617e+00
1.060814777210872251e+00,3.939170846435043671e+00,4.248739743545206227e-01
4.191964373616877459e+00,5.638256846377547316e-01,-1.114162043668140978e+00
4.311728923131976643e+00,7.559443648140685701e-01,-2.476541497046922391e+00
-3.514664118931836168e+00,1.327246184330559631e+00,6.468678353523846791e-01
3.782862764131961875e+00,1.349272460288623243e+00,-2.887216122777142235e+00
-7.146624718807473298e-02,-8.697859814341696305e-01,3.319224291570832985e+00
-8.030476374910645587e-01,-4.166874459267857489e+00,-7.978308099393948138e-01
-1.662240479269326165e+00,-3.154630575951891114e+00,-5.566007461222988173e-01
-3.143858402116126438e+00,6.988901518821658554e-01,-2.771289276394554246e+00
3.676296487727968465e+00,5.765998902420806926e-01,2.738311509718601489e+00
1.472320397563405270e-01,-5.049583943227957228e+00,1.797082985335870742e+00
-6.040373876565159339e-01,-4.548010315466824771e+00,2.196383775936407712e-01
-1.447564426840307839e+00,-3.054770376569981849e+00,-2.575307812477436897e+00
3.036087547708481882e+00,1.650781849459215467e+00,-8.550696275481295405e-02
-2.293889075580110681e+00,-2.360309753378159403e+00,-1.672488231871848141e+00
-4.034994295695483402e+00,-5.980921783330302999e-01,8.284475914216670178e-01
-1.599274327416343011e+00,1.803778743340268553e+00,3.206945692854286989e+00
6.327004340201468624e-01,-4.945313849727555500e+00,8.296553604792085146e-01
-9.501116500510894403e-01,-4.071483253133662217e+00,-6.043486692731869780e-01
3.445565423807178451e+00,1.312064869484227403e+00,-3.805124244935842448e+00
9.675893510183843915e-01,-2.699156958368687409e+00,2.497767859798816215e+00
4.110975757249512030e-01,6.719630637165779907e-02,3.633171789295881471e+00
1.581631670862838401e+00,3.512238122669915974e+00,-8.267612817900232836e-01
-3.755766566766546077e+00,-8.440180303749135193e-01,-4.426434890986774007e-01
2.308960333680889487e+00,2.722195892795043370e+00,-8.534232199903083460e-01
1.840411512075782685e+00,-2.342627087826953058e+00,2.455823324547679043e+00
6.494697733940086870e-01,-3.130151224926821296e+00,-2.389976985906864471e+00
-3.903461443835153588e+00,4.864341586928707106e-01,1.625946019930939457e+00
-2.013150155417725351e+00,-3.284019513460431750e+00,2.099018640072210840e+00
-1.522709205659864784e+00,2.920749226987800817e+00,1.163140237312401126e+00
6.048089612516944769e-01,-3.475101423690425406e+00,-1.759724723497802623e+00
1.688949364268573339e+00,2.975572914954452752e+00,1.965591053631619456e+00
3.833914675112478410e+00,1.272477323116373071e+00,-2.571654713935729752e+00
-3.207523940564640519e+00,-1.414087103968345138e+00,-5.363141752723884492e-01
6.980112251425965031e-01,2.982405868386158510e+00,4.708532530577969943e+00
4.551608012554657634e+00,-2.541699218992074516e-01,9.333793916574038008e-01
-3.849618563841695096e+00,-3.103282675338429608e-01,3.042992205496638736e+00
3.945618597591785459e+00,-1.585983602016088900e+00,5.576339321542154170e-01
-2.186265654624458765e+00,-3.112308814934832135e+00,2.461548512718631621e+00
-2.155355313474262235e+00,-2.499162014865941472e+00,-1.635670710245604953e+00
-5.444037627445523775e-01,1.477332240473335556e+00,4.276623403815178470e+00
2.348135520843734891e+00,-3.426658010984544145e+00,1.959777596656571141e+00
-2.584946959095697938e+00,1.646459718599279087e+00,1.718496774086516687e+00
1.201743742025780604e+00,-2.690187776114255080e-01,-4.007652922574814980e+00
-1.009793377137584214e+00,-4.006451839800315717e+00,2.400162225124189863e+00
-3.599899949552467504e+00,-9.079584369792521592e-01,-9.420882714812838232e-01
-4.140354501233197704e-01,1.545772502325578834e+00,4.238754644107197933e+00
2.352005349618545793e+00,-2.225119721633269432e+00,-1.043968046181051434e+00
1.744012548227562354e+00,1.555074943546543187e+00,-3.449747468726495292e+00
-2.158959501133903558e+00,-2.626814395006547453e+00,-9.673216734194562960e-01
-3.552233031352512449e-01,-1.669219217938033628e+00,3.140864344639449079e+00
1.497751168629485097e+00,3.878691596790720286e+00,-2.404396891083139920e+00
-1.364877694791513996e+00,4.363083854386743177e+00,-1.279545622315316544e+00
-6.529498914984478430e-01,-4.311345278035926931e+00,-1.182816735977074929e+00
-1.658069899208882036e+00,1.565114248845497213e+00,3.587465008359907337e+00
3.578800549859302293e+00,1.504930052698684184e+00,-1.871281608186377232e+00
-2.449706496550730084e-01,-9.282927029614486125e-01,-3.978889169222436184e+00
-3.835899662809714172e+00,1.062304380714097496e+00,7.613039124059616247e-01
1.800848607873233531e+00,-3.176319698244960854e+00,-4.274187634485066001e-01
1.161257958595972362e+00,-4.025245497377697212e+00,2.151668805207182233e-01
8.263320324595964106e-01,3.542888171482213022e-01,-3.788322060908363209e+00
3.694588861885531594e-01,-4.826438540040655312e+00,2.232425034627266991e-01
1.975865093995423649e+00,2.775936720057527562e+00,1.148295458411421999e+00
1.595758668504089206e+00,-2.258708584897045846e+00,-2.275284324541337444e+00
2.086282382760090925e+00,2.615959219762444832e+00,1.312349334173354309e+00
1.424754220449007791e+00,3.890006640773080004e+00,-1.953018779816187322e+00
3.119516762860832682e+00,1.337060957892555468e-01,-3.999839066251075881e+00
2.383943221502544674e+00,3.955630602965640175e-01,-4.018835362559106450e+00
2.911080450016792387e+00,-5.469709163604355995e-01,-3.106891796828780805e+00
-2.789869538592270271e+00,-2.003645845298161809e+00,3.049316130012299508e-01
-2.451241419436908764e+00,-2.374312196215920601e+00,-1.360602103835878152e-01
9.264958941524648051e-01,-4.864841731038588080e+00,1.427341851878557222e+00
1.370467092273796705e+00,-3.388497947992995307e+00,-6.048668729118644727e-01
2.716296681714359895e+00,1.572884452751085682e+00,-3.579034925883590734e+00
9.467963276583650778e-01,4.287058554612551475e+00,-2.302344577124954217e+00
4.514898015426032529e+00,2.594819619518334286e-01,-9.866207533777867633e-01
2.581979773316629978e-01,-1.710813808851324280e+00,2.966414676476035073e+00
-3.729906447109728962e+00,2.233365167488698511e+00,-1.415872316120070806e+00
-1.057537173666808217e+00,4.447462904092931879e+00,-7.918237821298763635e-01
-4.840362634206979209e+00,5.408775044951064093e-01,-1.172717840503963327e+00
-3.195167496640189536e-02,-4.208947957624158853e+00,-1.498017532389240181e+00
1.957881963209542331e+00,-3.337579559168819099e+00,3.171036279997973550e-01
1.307204519599090842e-01,-5.115629426520409417e+00,5.227687645800678240e-01
5.328916353808496043e-01,8.947007581237464979e-01,3.915925722251368146e+00
1.426094890203285059e+00,-3.402036473260487082e+00,-5.003439631857599101e-01
-3.313117684692775455e+00,1.086039468546428521e+00,1.608494263954474368e+00
1.010549336159040745e+00,2.242529665272045836e-01,-3.801531296700124685e+00
1.676752298561895449e+00,-3.603159542780162816e+00,2.796598128922780924e-01
-1.762975701225933722e+00,-2.939855556571975725e+00,-1.408908112227539533e+00
3.003927259903500957e+00,-1.226010338497528052e+00,-1.946205249840080143e+00
3.420899843403256924e+00,1.670221482894139964e+00,-2.431249323451750488e+00
-4.958294440708686857e+00,8.951256367152615745e-01,-2.086043595315377086e+00
-1.736790779318155620e+00,1.588661174009839305e+00,3.289771194670782606e+00
-1.330409515168414547e+00,1.299200383087532717e+00,4.463027073252975541e+00
-3.789814335416139546e+00,8.143896041701487176e-02,2.467106619931019651e+00
1.114799970144634944e+00,-6.835649564065496842e-01,3.181159046584500771e+00
3.006436956491560952e+00,-2.618799403657207647e-01,-3.600170276975161787e+00
-7.598410789887150019e-01,8.364555319592781313e-01,-3.153097679703841028e+00
1.798117689127593621e+00,-3.890810064035618687e+00,1.089938282041989170e+00
1.077001141237110993e+00,3.723118836221538164e+00,1.239154785571497941e+00
-7.642541109075332018e-02,-3.771723817783511734e+00,2.293627712481357772e+00
3.720734934566025665e-01,-4.873531796366883384e+00,1.845624563417111119e+00
1.456787064940595622e+00,-2.502983557861987229e+00,2.496403503829496717e+00
4.027149647104835140e+00,-1.617244111568450382e+00,7.723609679067687805e-01
-5.147283244122847101e+00,9.610081792533967660e-01,-1.469441504499682027e+00
2.545489049520644809e+00,2.384817606508705889e+00,-9.156393921521523982e-01
-3.214768041527600761e+00,-7.222930452138508206e-02,3.926013716883326676e+00
-4.302847493541211432e-01,-8.656644999359821568e-01,-3.905964819037513358e+00
4.738883168196172946e+00,-1.701411517279131980e+00,2.159722156382354541e+00
-5.186186028921013769e-01,5.122331859512534002e+00,-1.675479522618838812e+00
-1.933646613182345098e+00,-3.214703643783674458e+00,1.481833789509887422e+00
-3.385547665499380354e+00,-1.593210185103221210e+00,1.679462816702361083e+00
3.694223678819540613e+00,5.768773624420794333e-01,2.353465818735461124e+00
-2.827159797171444833e+00,-2.209851482158164959e+00,1.183169566334304257e+00
-6.818863903079276367e-01,5.078845072659973425e+00,-1.250103885721374208e+00
-2.161288775349245572e+00,-2.363446409583376262e+00,-2.127090586509869929e+00
-3.168177221036908797e+00,4.967829330322538484e-01,-2.866815866008304958e+00
-2.405257576355926297e+00,-2.863677546549479924e+00,2.509460477353144370e+00
6.768054807532316586e-01,4.406448219186480664e+00,-4.860904655273423636e-01
2.254495852953796842e+00,-3.499824688651238080e+00,1.237102946741116982e+00
-1.614880166341032375e+00,2.407098480846802779e+00,1.752289611467891195e+00
-4.141745107800372527e-01,-2.860938162142548702e+00,2.752942799004340024e+00
-3.931316176025837272e+00,-1.173997102377202006e+00,2.608607943847314203e+00
-1.530127552996359830e+00,-3.859819505607811063e+00,2.102156146511374502e+00
1.568318633122409711e+00,3.793710296445311325e+00,-2.540317196018530677e+00
-1.871663890860991275e+00,-2.573973149413240069e+00,-3.243091558381533179e+00
3.627732601934271717e+00,-2.007165462515735632e-01,-2.495300700245300263e+00
-2.048417907072259236e+00,-1.540791708031663543e+00,3.449462844969130693e+00
3.669811250669639424e+00,1.407982384311310176e+00,-2.728390375265434376e+00
-2.930917563946207505e+00,2.288158824680877612e-01,-3.078962090753440961e+00
-3.616042780419989278e+00,1.035594256640859800e+00,1.124827271905614046e+00
2.232356223268018525e+00,1.398771446247325523e-01,-4.021860745181722763e+00
6.292287676285929221e-01,-2.759592023768035141e+00,-3.107524487406206681e+00
6.909713150499913192e-02,-4.219012837134933136e+00,-1.255849096421319588e+00
-1.455753554978968856e+00,3.498804657542807561e+00,3.146055218186547542e-01
2.478662623495010653e+00,5.941661179692042660e-01,3.477414837980327356e+00
2.740236844867746324e+00,1.518475274407919517e+00,3.677739182084819980e+00
-1.422367979222720069e-01,4.384472981993945417e+00,-1.999916119529614900e+00
2.307047389378833468e+00,6.223217192812742216e-01,3.538671310782866009e+00
5.245911603510947652e-01,-5.356160894786939686e+00,1.484935692630147352e+00
4.115020858329506481e+00,-5.560681374723736026e-01,-1.140190090347736218e+00
-3.984729447301615490e+00,1.317780369093896509e+00,-2.768364248177639375e-01
-8.971146026659673200e-01,2.401539897344924235e+00,3.302821735650889323e+00
-1.740312672195368782e+00,3.318390599916639427e+00,-2.166212080085862191e+00
1.225869296730798030e+00,1.180197365140876808e+00,3.915720887936090744e+00
-2.172306963474048558e-01,-2.273923596678081083e+00,2.850739391820201973e+00
1.382586153207216784e+00,-4.266484219958997848e+00,1.117656075711891406e+00
-1.970154934362198018e+00,1.870810905740126540e+00,2.453790563255299428e+00
2.865470381186276505e+00,1.645851017891464929e+00,1.988640545513943758e+00
1.233663079042260691e+00,3.371319033227531570e+00,2.657763039615586464e+00
-1.759669450349125253e+00,-2.869215264472646520e+00,-2.125588540556939243e+00
-9.743880688120030165e-01,4.502720113369594657e+00,-7.047686443794386468e-01
-1.982540259053330312e+00,4.177745264735125974e-01,4.195990403094023158e+00
1.259088087577237225e+00,1.630974442273572134e+00,-3.304658357367869392e+00
-3.889282002403882998e+00,-5.789855775493419898e-01,3.640823033597134106e+00
6.256538790282680784e-01,-3.775409096831165101e+00,2.227598377120251882e+00
1.917083392280119813e+00,2.478570759375168464e+00,-3.092865608775061226e+00
-5.104199071071295890e-01,3.829133209999373122e+00,-2.176330562765906862e+00
-1.493261612567245100e+00,-3.139647218144572260e+00,-2.312204340370639599e+00
1.004376379309050327e+00,9.217238226096716724e-01,3.871107912650667338e+00
2.711396127043475879e+00,-2.644680819111421055e+00,2.792670587817815964e-01
-2.668928188523650213e+00,-1.415356553698058351e+00,-3.703386794046218622e+00
-1.055644125552631651e+00,-3.468636624835677917e+00,-3.224682666703408085e+00
-1.595746160587168117e+00,2.703027515594834007e+00,1.612586805480578978e+00
-1.113284649324716380e+00,1.367526630524595221e+00,4.393492747523920272e+00
8.248196179151739971e-01,3.647802595798079750e+00,3.591560093360643080e+00
4.088136745320180232e+00,1.645608942276173825e-01,1.717412132938627600e+00
1.249821932494223020e+00,3.063461375294926015e+00,4.154071347851744811e+00
-4.426295251405077735e+00,4.745836569602766009e-01,5.622699496698999599e-01
-1.114617643938359048e+00,-8.889593584402188942e-01,-3.884167737306770007e+00
1.124953586739042555e+00,4.033556786483892154e+00,-4.117158961569701847e-01
4.111803043621483411e+00,-1.739174573834435744e+00,1.099921987136439183e+00
-7.262325694106176455e-01,1.537377952320426955e+00,4.306455390355241164e+00
3.342792759835363503e-01,-4.109848972092171593e+00,-1.097814301949906479e+00
-2.551650703584357860e+00,2.748625218942830628e+00,-2.739417636886773422e-01
-1.544143945537809648e+00,3.596994590612338172e+00,-2.049071209722263254e-01
2.908528995354665803e+00,2.439530046559166720e+00,-3.260997467056047761e+00
-3.429588628001043027e+00,-9.689180482105863579e-01,-2.128675950208629875e+00
-7.774413231256227519e-01,-2.548657327959304109e+00,2.764199108978940611e+00
1.268551897832742803e+00,-3.749077697779011675e+00,-8.187133148538237870e-02
-2.207008977173531061e+00,3.343769683398623016e+00,-2.011149243408516085e+00
1.455426364147085261e+00,-4.380614394106854270e+00,1.365076234476977346e+00
4.242404833164890476e+00,-1.774581142916593079e-01,-1.556400504686558106e+00
2.499891045897779662e+00,-3.142796243618143581e+00,7.432922976924790648e-01
2.087648030857145010e+00,-3.678227651930566999e+00,1.351112703343959831e+00
-4.667605649682532665e+00,1.695616348132512607e+00,-2.210992202737225298e+00
3.694878129000820799e+00,1.461418166476219360e+00,-2.936070387437831108e+00
-1.508459726474930873e+00,3.970717134147559779e+00,-1.997511866046826290e+00
8.904535228976714345e-01,1.933158198968564889e+00,-3.118460308732270203e+00
-4.708611774541988648e-01,-4.653863698808245353e+00,-1.914673850906283836e-01
-6.874858654126673185e-01,-4.168675909884774988e+00,-1.431581288331174484e+00
4.274916170886193356e+00,-6.719680796026383796e-01,-5.367143490492377600e-01
7.835121410461745040e-01,-3.227354071665101909e+00,-1.997445117148168192e+00
1.344557247398638467e+00,3.778371643865900076e+00,-8.208280165231596204e-01
-4.242204852464503517e+00,-8.542807055038570407e-01,3.179479097628819861e+00
2.245718205350913266e+00,2.149889168275727958e+00,3.006696277589993027e+00
8.283747703532470252e-01,1.836784425635976659e+00,-3.087757794292822044e+00
4.296476048252388935e+00,-1.588422684596198620e+00,1.057325167249276276e+00
-9.887327450457467082e-01,1.905833414461869157e+00,-2.788880720097312249e+00
-9.069211809136142888e-01,-3.671380540719517249e+00,-2.709442940766942698e+00
-6.284764261179237588e-01,-3.845031415628538785e+00,2.447809905893383320e+00
1.990529046542047542e+00,2.819245605099337304e+00,9.447903186740955750e-01
-1.293113250154722893e+00,-3.053573672040882592e+00,-4.041256153065748258e+00
2.943429705286364051e+00,-4.585059027021615163e-01,-3.274898015439020593e+00
-6.422119147857456856e-01,1.499038963211290765e-01,-3.440378816470776702e+00
-6.077098825372518887e-01,2.806421514934436701e+00,3.170489550264660839e+00
3.866603481263975461e-01,-9.776753246330054381e-01,3.226500584935695581e+00
-7.282247293884713812e-01,3.200346032943913954e+00,-2.351362432203962349e+00
3.449767617674552311e-01,3.401068321952083195e+00,3.586582057803441970e+00
-4.770770183589128632e-01,-4.247313909872018733e+00,-2.400606093335747815e+00
4.679774578237993587e+00,-6.822587696439956773e-01,3.123224495782191967e-01
-3.012457004978289277e+00,-2.013405907377605164e+00,1.702218432891129840e+00
4.351907164890959301e+00,-2.475663228632206045e-02,9.735666562729675677e-01
-1.117229065101972979e-01,-2.741821822211994775e+00,-4.393195576599622676e+00
-1.176469387773846353e+00,4.210804147293619515e+00,-4.813560777909647870e-01
2.871324154652725280e+00,2.321058977786475186e+00,-2.119458444769254157e+00
-1.973401961925344006e+00,-2.885074867706093560e+00,4.324106515534232448e-02
3.699911054253275378e+00,6.508634473145760713e-02,-3.035395903924200667e+00
2.283579840404519334e+00,2.152527336526697699e+00,2.639087740257042292e+00
2.369273469433542445e+00,-1.026574306601057751e+00,-3.383480841436613762e+00
-2.374777026255658896e+00,-2.664666856038355292e+00,1.002871070594429925e+00
3.775937206067943475e+00,1.178565810804615754e+00,-3.895192172863331415e+00
1.035744961317503821e+00,-1.337043675726033554e+00,-4.376299728661833477e+00
-3.470847759142584810e+00,2.366310778175702456e+00,-1.202251287819665171e+00
2.589950726391963443e+00,1.918948794822673776e+00,1.837989921805236460e+00
5.192376863146389354e+00,-1.123146214634218376e+00,2.123275946723630625e+00
9.955932093414789907e-01,-9.434534848269117147e-01,3.175886861460778032e+00
4.395567792991834644e+00,-1.829874551293150797e-02,9.139760359770655596e-01
-1.540085793800751279e+00,1.509561090234515346e+00,3.702646683737599531e+00
-3.211046625084399420e+00,-9.383626738885857410e-01,-2.849108794551214352e+00
-2.958699910302113878e+00,-1.795109938685502948e+00,-4.306787405357028198e-01
-4.044550531757502121e+00,3.279944822329153298e-01,1.592355682782976345e+00
6.583955225560322866e-01,-1.318549701499613702e+00,-4.285056351318959678e+00
2.487051748502995707e+00,-1.329061880000415030e+00,-2.401569229395898564e+00
2.935970883839272627e+00,7.033448331721950941e-01,-4.048485626246836944e+00
-1.542031583612679890e+00,1.145139287675478457e+00,-2.996457416805185403e+00
-3.774838451528898631e+00,-5.676262174176996966e-01,-2.375009973951867970e+00
2.833023690741101053e-01,-2.527396213804717906e+00,-4.293780888791414618e+00
-2.519683202731542337e+00,5.525042689736308077e-01,-2.988761329224147723e+00
4.316988110343046081e+00,4.989423002872713786e-01,-1.683796184427827525e+00
9.668337412907147543e-01,4.565557575818598446e-01,-3.730250090247265060e+00
2.512896664371733646e+00,-2.637131893627882917e+00,-5.291396820293124519e-03
-9.414650847557778368e-01,-3.541482661333146709e+00,-4.209286485569895042e+00
-4.394605579423008557e+00,1.391708546583412920e+00,-1.104400287442409923e+00
1.182880994320210100e+00,2.487559745742201844e+00,4.359385055899315908e+00
2.107676374761128901e+00,-1.678963432078788731e+00,-2.319269863516567831e+00
-1.209362370970226364e+00,-3.940845271188738064e+00,8.542481492799630649e-01
3.530598005346008428e-01,-2.270252402100012556e+00,-4.351088989821847441e+00
-5.010698859417624107e-02,5.573722511968355775e+00,-1.198649426501888549e+00
-2.092190445729451120e+00,1.349784467523158060e+00,3.152507421693855783e+00
3.674307116610735946e+00,1.274956667443595926e+00,-3.837462463614647934e+00
4.418502011236871141e+00,-1.430837355973492153e+00,2.407903762090435773e+00
-4.858384847454024769e-01,-1.465212158051366842e+00,3.243644472910799159e+00
8.800655505287749980e-01,-2.517147225248185016e+00,-3.057842621299825758e+00
1.294774587509184727e+00,-2.827050008661862179e+00,-1.866080918528968624e+00
2.427116796736344728e+00,-3.491551967154415959e+00,1.990088334098516931e+00
-3.348908953140626865e-01,3.861383282240892889e+00,-2.138254010625344037e+00
4.336830256805251693e+00,-1.007939109465163380e-01,2.112090468496401918e+00
-3.760375373964752299e+00,1.303599166403300424e+00,9.665609547325325346e-02
-3.710720292372113427e+00,-6.071778364903247516e-01,-1.971511881539279365e+00
1.509488821599859643e+00,3.982606716741705188e+00,-2.418482291509923776e+00
-1.038215815462651515e+00,-3.508371779934973400e+00,2.612585237786507975e+00
-1.385398441209139575e+00,-1.588276083514285286e+00,3.334486991018927871e+00
9.947269420950477503e-01,3.672982582349561209e+00,2.438821680024969130e+00
1.702388237866679033e+00,-1.892024464578879961e+00,-2.793081209399842280e+00
2.334764616373951274e+00,-3.546112920112107325e+00,1.967145799102945070e+00
-2.742194447857182027e+00,2.004662796094613952e+00,-2.448258286930138805e+00
-1.754676105073535441e-01,3.904025815592325088e+00,1.742708609229000505e+00
1.431822625231326196e+00,3.765889864647847141e+00,-8.320740549791167950e-01
-2.782519239688669987e+00,1.443504825967482086e+00,-2.585866540175651096e+00
-4.206971740300843088e+00,-6.765395088843652038e-01,3.425659018365400321e+00
8.087607007377555224e-01,-1.009715709789432259e+00,-4.195486902049187172e+00
-2.287653930984899553e+00,-2.823724600232771831e+00,1.301386319743267794e+00
-1.399334027555410698e+00,-3.185088110247750848e+00,-2.671478521561879926e+00
-4.143241771446309230e+00,-7.800050343123678953e-01,3.520081666301029255e+00
2.910759730325227057e+00,1.622010050338557940e+00,1.508544812633762389e+00
1.618728676270243971e+00,3.744064307417552140e+00,-2.443785441573540052e+00
4.772517178932401016e+00,-1.412975368035810142e+00,2.244144641693327280e+00
-3.662792713409017242e+00,2.174253201679274827e+00,-2.233723574892344299e+00
1.888023558836253724e+00,-2.531111451267751278e+00,-1.426323751490380598e+00
1.587020970579185564e+00,2.838169321908168730e+00,3.286325456570226233e+00
-2.194707856365645693e+00,1.213476667630325467e+00,-2.849783684459502808e+00
4.795429411780991913e+00,-1.192682370741964260e+00,1.248886248299950097e+00
1.044092848653574990e+00,-2.887658246562066822e+00,-2.289872698241990356e+00
-1.797310751628450998e+00,1.776896824026117594e+00,-2.680277855081239391e+00
2.814363625636748356e+00,-2.328495713443554216e+00,-2.174913979396926322e-01
3.463561529812912099e+00,1.155421120915967270e+00,7.420015500020091803e-01
-6.506317051869735524e-01,-4.118375174390204840e+00,2.317843107847130213e+00
2.164347063719991748e+00,-3.590944813281795156e+00,1.945739463528325386e+00
-1.292532909258747642e+00,2.893834701621064820e+00,1.782512863293368222e+00
9.067939153135410324e-01,1.230230799924195484e+00,3.914330987883883228e+00
-3.653387203610217515e+00,-9.955987431625362705e-01,-3.046976957351144044e-01
-1.425257820547832233e-01,-3.904918946718833439e+00,2.306829761727072103e+00
-2.009221117697248982e+00,8.791289933794695921e-01,4.322215064953145003e+00
4.566250340678204900e+00,-1.162439089897512989e+00,6.437694807454249490e-01
2.680016741891296572e+00,-2.723727919858685009e+00,2.232471103838307602e+00
-1.695132189174407999e+00,-3.393173892748780673e+00,5.305888749445545338e-01
1.407309585505458926e+00,3.273114854787108730e+00,2.163736753244299038e+00
1.425273608060783737e+00,2.944337051763131097e+00,4.306751516408711566e+00
3.764103578126893890e+00,-1.210827552573598087e+00,2.559799542531742578e+00
-3.765502931708309298e+00,-1.159148330262637971e+00,1.806174659881516265e+00
-4.165349536911310269e-01,6.980011450178138510e-01,4.011623752378882912e+00
3.950699801762152852e+00,1.140636453448663046e+00,-2.574913628769189167e+00
4.258007443184784080e+00,4.738830184098641873e-01,-1.470233753523480846e+00
-2.216709370038953519e+00,6.906958091830758262e-01,-3.043052605257902776e+00
7.756231901396034578e-01,3.334482912382469966e+00,4.410350869986667810e+00
2.955344653648988018e+00,5.397884980394117571e-01,-3.961001463436102377e+00
-2.130141839398868697e+00,1.043068140282582767e+00,3.613827032219585345e+00
-1.054557383354843170e+00,2.678187041695706760e+00,-2.468222481185823547e+00
-3.588409824417149174e+00,-1.479626557059113390e+00,2.530838799025679098e+00
-1.675538743374633377e+00,2.409575064700855584e+00,1.979832647194605943e+00
2.322950432317265168e+00,-2.981195008521430712e+00,2.122465494244986650e-01
3.546352656699538475e+00,9.580006157187850313e-01,1.276146828468403882e+00
-1.655453682867294996e+00,-9.862953380644685630e-01,3.640692000279844631e+00
-5.032053556623680146e-01,-4.742652071358686605e+00,2.015211126954836313e-02
-4.059781345215110804e+00,-5.705855964713137940e-01,-1.323998405864886818e-01
-1.086167095138198091e+00,-8.457422182980685044e-01,3.480732168632619139e+00
-3.859728783944334385e+00,-6.245025177061213073e-01,-5.903357589443315456e-01
-2.243259196778914610e+00,1.526086040038126534e-01,4.184010486185582245e+00
2.861619875999767970e-01,4.949799217613248814e+00,-4.018408144262888317e-03
4.246396893356262581e+00,3.365005218190660341e-01,-6.946654879170850727e-02
4.858946235520167911e-01,-2.247072954153700231e+00,2.788088512201261970e+00
-5.678847948709055959e-01,-1.179001578665354710e+00,-3.978789721113191291e+00
-7.287364373394537020e-01,-4.263573495136441238e+00,-5.957788489682938060e-01
4.975059420343095895e-01,-2.893655248767139199e+00,2.587341093027318628e+00
4.555185913872177750e+00,-1.648683386850071375e-01,6.871714177030344706e-01
-4.202359516654464500e+00,4.718636825075193941e-02,-2.875030912935847560e+00
3.829323892806877350e+00,-2.028738787154942713e+00,1.057738682890102977e+00
2.406183192655914294e+00,-1.268667216373704498e+00,-2.811798789746406069e+00
-2.519783075958153540e-01,-1.271479596674040202e+00,3.300691575531291111e+00
-1.689868312732308198e+00,4.010162298191240815e+00,-1.001875057806420832e+00
-1.468682738665620713e+00,-2.733093886759893731e+00,2.913536051040706010e+00
-1.509812290045083216e+00,-3.610265784818291301e+00,4.245463661270441613e-01
4.141143615310353354e+00,3.325463505083146032e-01,7.417361991513785613e-01
2.042346168756206559e+00,3.033849473287214771e+00,-1.039942550686947076e+00
4.574785693467374514e+00,4.499071047014825686e-02,-1.293786547004127208e+00
-1.833813830778749265e+00,-2.769548809936711375e+00,-2.250264158489380772e+00
2.650151928628895259e+00,1.910496513724351031e+00,1.867351718778538006e+00
-1.226722015809719624e+00,-2.871472339788565975e+00,2.929235434380667691e+00
1.306972870612241433e+00,1.276232988659576906e+00,3.892236215346457140e+00
3.496697754729126917e+00,1.536065561571401394e+00,-2.218685416277371480e+00
-8.945972737202204650e-01,-3.771327523409160776e+00,-2.800745273693091786e+00
-2.655837963890521625e+00,-1.890177128114952199e+00,-1.285218794646242335e+00
-1.091249481525386145e+00,-3.428767943610600000e+00,-3.166683913379049642e+00
-8.519255259889438880e-01,-4.380226697616559584e+00,8.472430358793956451e-01
4.104657731791108155e+00,6.256589964342680332e-01,-9.405648286389819424e-01
2.159993095544087804e+00,2.649431330314072852e+00,4.343864702828490465e-01
-3.153591773257037545e+00,-1.085491611306864002e+00,-3.487673104166172156e+00
-2.993231385829762115e+00,-1.938843450746970065e+00,3.528298317503173909e+00
3.202790935936991712e+00,1.237023023744632688e+00,1.854018666160373696e+00
-1.096553368791014726e+00,5.078012291873790218e-01,-3.348632798992871695e+00
-4.515711830764247203e+00,-1.163368749448076278e-01,6.078476865720026101e-01
2.748062684649975829e+00,-9.451016417215429843e-01,2.838152370256957990e+00
-2.740028036057077898e+00,1.340159666818429685e+00,2.050002258738639949e+00
1.505230727669810475e+00,2.185790397960737153e+00,-3.160669774516149833e+00
-3.865040783703769467e+00,-1.114318218421897599e+00,2.153478364078018181e+00
-4.514262186612361560e+00,1.839346390006076915e-01,-1.637121531328997071e+00
3.592219505160306969e+00,7.264479257601331730e-01,2.397523360399457459e+00
1.593468753882313904e-01,-3.631498970771938950e+00,2.303570478103783792e+00
-3.367775434532901180e+00,-5.747751495137175537e-01,-3.384261256597452139e+00
6.983478070905182328e-03,2.524054214767525117e+00,4.617699201244326090e+00
-2.303391334106392740e+00,2.711902924215177646e-01,-3.100182614803006498e+00
3.448692226221570234e+00,1.297146406631138671e+00,-2.115021613179007831e-01
-2.585193556913982782e+00,-1.656693160495362527e+00,-3.448040271876673835e+00
-2.979240400770241104e-01,5.389059148592901138e+00,-1.076128776455602232e+00
-2.443686320028883863e+00,1.007111419607287228e+00,-2.911923130560671424e+00
1.218178125623126107e+00,-2.787030859314663989e+00,-1.974797624092743620e+00
1.223843044659139068e+00,3.154164814518807258e+00,4.230224895688289521e+00
2.921264873589253241e+00,-8.481368592607649859e-01,-2.501921579125671258e+00
1.361689949945515732e+00,-4.526377089790563524e+00,1.492592841733047182e+00
3.530977327600346438e+00,-1.977519996789690371e+00,2.310487504393243352e+00
3.262116762740136622e+00,1.771979679123108165e+00,-1.745327653921692201e+00
5.756048007641705322e-01,-5.244505889709727420e-01,-3.953120117212279183e+00
6.941031136517300526e-01,-2.437816449127519824e+00,-3.431115418196102773e+00
1.681894643286294122e-01,-2.839885265782593038e+00,-3.590072803005301516e+00
3.822450318767834254e+00,6.496055314050492857e-01,1.273333271639560227e+00
9.203456516171311386e-02,-3.030927268900661109e-01,3.586232538454614538e+00
2.688170901700098980e+00,7.667530026572348945e-01,3.483925653907179676e+00
3.868812924396161979e+00,-1.580723335967409993e+00,2.431828153728222475e+00
4.162931412367083084e+00,2.752641275928534026e-01,-2.452148101276932834e+00
2.037481941207992975e+00,2.215228692780206288e+00,3.620462651207796867e+00
1.179834642395092059e+00,3.717395414793437602e+00,8.569624370695114735e-01
-1.668176484209424437e+00,2.588411936466541996e-01,-3.273071083842487461e+00
-4.449146166392288215e+00,-1.687595753164185530e-01,7.590597719402084609e-01
1.576676692692317472e+00,-4.353264436608214605e-01,3.248913705200890512e+00
-3.834194799575638135e-01,-5.087968952548477475e+00,1.695927820676752518e+00
-1.604092336208659209e+00,-2.526402152690181868e+00,2.980637363496606351e+00
-2.307235543205613748e+00,9.242909427057284244e-01,-2.930980604308781157e+00
1.809774852099115261e-01,-3.078983608787371207e+00,2.465382522980252400e+00
-4.289986485302994090e+00,-6.998594102826728447e-01,2.757195984535235844e+00
3.776313627133812134e-01,-3.670774979922551307e+00,-1.704695808891098174e+00
3.135072164237377113e+00,-2.716443603546586649e-01,-3.445070398064705053e+00
-2.841925203518810950e+00,5.881729107104538556e-01,3.214294561258705052e+00
1.873775147828450782e+00,2.251700413007434509e+00,4.209184470518326115e+00
1.882916126063630236e+00,-1.209338277706734077e+00,-3.815728704449003139e+00
-1.318120822487486299e+00,-1.566917277748188342e+00,3.395401157418116878e+00
3.229949826345516417e+00,3.344120937393684628e-02,-3.582884396831552465e+00
4.074857308572413239e-01,-7.256789504892276199e-02,-3.761270960006147579e+00
2.213931870018070569e+00,-3.685888353429112474e+00,1.291359713719177682e+00
-7.775625900649353328e-01,-1.203684899500840483e-01,3.690188620286319665e+00
-8.785087068431993718e-01,4.711463408576826772e+00,-1.006046124767515870e+00
-3.809298636778934544e+00,-2.003762998218569513e-01,2.945869907742935556e+00
1.178891009757039865e-01,2.007795855685205577e+00,-3.000015182957693760e+00
-1.619258904732121529e+00,-3.100117652242174948e+00,-1.829672314659278820e+00
1.418550971397971594e+00,3.642633764056420365e+00,-6.691213429639366606e-01
-2.635399059587774317e+00,-1.991287454856727424e+00,-1.286525022685310882e+00
4.543962385031372619e+00,-7.917335814212828060e-01,1.094112998181942797e-01
-3.293956358411154639e+00,-1.899362424503625579e+00,3.429954416230906578e+00
-1.297644425817843228e+00,-3.094620331579646777e+00,2.729849650235057101e+00
3.668562975417263061e+00,-1.227373605652016142e+00,-8.058743912459062075e-01
3.338927112079144166e+00,-3.974818693549705961e-01,-2.761236147717188505e+00
-3.586131723718689379e+00,-1.422205639983775916e+00,2.339339662551447319e+00
2.823028697097124784e+00,1.424087417346570517e+00,3.234121952117768650e+00
-3.787994129784010067e+00,-1.236344469100516319e+00,3.914914324704248383e+00
4.319336290660375499e-01,3.234117256051549649e-01,-3.641343373153429930e+00
-3.892556324063531470e+00,-2.581840001448920119e-01,2.907428745779558010e+00
7.009329347434112290e-01,-7.901463470107952802e-02,-3.799389666625137441e+00
1.607583953625234541e+00,-3.194643124819199764e-01,-4.128802626376799623e+00
-5.045399979095052778e+00,1.304925820838614081e+00,-1.943563123326239372e+00
-1.183406467291539421e+00,3.228855127788367696e+00,1.146392341314893315e+00
-3.929627244437583933e+00,-9.398631681471778521e-01,1.652020219852393890e+00
-2.509581394209977834e+00,3.925875549045085289e-01,-3.065790537733216414e+00
1.187899156794717942e-01,-1.431985590390956631e+00,-4.211535679514238240e+00
-3.865554331599927451e+00,1.969994312786326418e+00,-9.092159138074705771e-01
-1.476119760585058005e+00,-3.126034072942614817e+00,-2.440179901464003098e+00
1.130799318229920303e-01,3.927853956780126055e+00,2.265530652210334672e+00
