-1.457595830705250561e+00,-2.215622266262395001e+00,-4.862008919854132749e+00
-1.028744707217251753e+00,4.864048285620570233e+00,2.258527134827521266e-01
2.302864562011716298e+00,-4.905209746294611151e+00,5.663653740499025036e-01
-4.907145746619737459e+00,-4.545062632502043343e+00,1.283852245271520642e+00
4.854215312774250890e+00,3.320799126298170201e+00,3.784099063875163704e+00
1.245574236475657098e-01,4.678868298219374111e+00,3.650548560957717736e+00
-3.844117876933939471e+00,4.917264205803149935e+00,5.404687048234025903e-01
-4.862440518006429180e+00,-1.713248090347697206e+00,-3.420638142380168500e-01
-3.534461901158747477e+00,2.263051421710943423e+00,4.717110982529816532e+00
3.627659839620370530e+00,-4.340385625497773070e+00,4.675399003986695945e+00
3.717648009608192972e+00,4.574712037167574685e+00,-7.010901066580215168e-01
4.564147681940690759e+00,-2.942740509594874876e+00,-3.267048964345395046e+00
-6.396236633466893806e-02,-4.805679027573627415e+00,2.905459675080188653e+00
4.764503491800688550e+00,-9.084847197990873757e-02,3.757941047166541981e+00
-7.928047239363898990e-01,-4.741062960810655369e+00,9.904047048740760584e-02
-4.747927785642772847e+00,6.639625329132643472e-01,1.722836742229422846e+00
2.697512911201451313e+00,3.177159141046572710e-01,-4.789092373212116449e+00
4.593530422235788890e+00,-4.175763597706419361e+00,-5.910945230123798577e-01
-2.531148227939610251e+00,-2.983144682637383305e+00,4.688998661196578155e+00
-3.391324970601741207e+00,4.821712292138290223e+00,1.749785629223767347e-01
-4.687251019419025333e+00,-4.582387661292100844e+00,2.080729292692292010e+00
4.680536919353928127e+00,-2.764537938438035525e+00,4.268003723972520369e+00
-4.837947202944377523e+00,-4.327906245756280690e+00,3.044450891465486642e+00
-4.666005080761099322e+00,1.936286139607033274e-01,2.638262618811532789e+00
2.714156704587296964e+00,-2.555128507230614687e+00,4.754627714855800491e+00
4.954426453356238547e+00,3.752111947020393412e+00,-2.339717101125589505e+00
-3.618414387214919259e+00,2.679334176817396163e+00,4.767292894641768974e+00
9.976052159587084356e-01,-4.247570957269237724e+00,-4.763868997516489401e+00
-3.258257621676778015e+00,-3.456954760848287567e+00,-4.835108405627479122e+00
-4.583612912123065541e+00,4.185748935108185798e+00,5.774943894819860590e-01
3.021979684514373599e+00,3.683423717756879601e+00,-4.751321592831175167e+00
1.259798528169799203e+00,4.725107263437037020e+00,1.962930236199368350e+00
-2.626052029623922035e+00,-4.696626973435698460e+00,1.514662925510999791e+00
-1.151601954175621279e+00,4.874362168069579226e+00,-4.258599182618267420e+00
4.641937670566906426e+00,-2.156693693802529399e+00,1.275896094577300799e+00
-3.678949040568592288e+00,-2.025773039763065331e+00,4.768303438601872557e+00
-2.364249254910232523e+00,-3.032127907563082925e+00,4.639133503515257217e+00
3.035009227273339771e+00,-2.245692377939497053e+00,4.741939904732458189e+00
4.725470387731787625e+00,2.574571621960590750e-01,-7.687328583795002279e-01
-1.935589978568504232e+00,4.874931562118450579e+00,-4.382300765873870851e+00
-3.904190216837810201e+00,5.053026426979192465e+00,-4.602563273485679396e+00
-6.643412999586248979e-01,-4.737772877730604293e+00,2.305328388701262554e+00
-1.847014358912409504e+00,-2.643867625174832980e+00,4.747998619077497651e+00
4.215555948203219216e+00,-3.264836840078788605e+00,-4.852481898627292622e+00
-2.023902946244573009e+00,4.896257799311843684e+00,3.797612864671052524e+00
9.625557428787532288e-01,3.435433428815902968e+00,4.800957354641662178e+00
-2.155566656271348247e+00,6.401233927867315820e-01,4.776257135495421302e+00
-4.546437140261660126e+00,4.413342267144032327e+00,-6.690900888874731223e-01
-1.493472812690148421e+00,4.815823546936608857e+00,-1.579088130391771649e+00
2.000253459465461070e+00,-4.869831851061167782e+00,3.949040697579767389e+00
-4.450074133355012229e+00,-4.506739640793447244e+00,-3.094563347447807367e+00
4.442123158834900387e+00,3.667685979477537828e+00,-4.752109244463328608e+00
1.435567329065729758e-01,3.997321706576967948e+00,4.799991926231667705e+00
-2.850795511428035667e+00,-2.766004606833571078e+00,-4.723003973229388031e+00
1.650368912200302907e+00,4.640967391960683308e+00,1.047739446421848575e+00
4.553636799120648782e+00,-3.357895002771147386e+00,-1.690286918949794659e+00
6.464430181792124586e-01,4.809241612138683841e+00,-1.664188907463052924e+00
-1.154100721239986083e+00,3.738373189463338186e-01,-4.806253501306555265e+00
-5.025297673760095840e+00,-4.205047344230920636e+00,2.108319068262481277e+00
3.184870211630259629e+00,-2.780043949136496995e+00,-4.777868915790447701e+00
3.595328685388716305e+00,-4.728971424902604248e+00,4.678008757978305177e+00
-2.870768456868897811e+00,-4.672041931869204134e+00,1.849169208478945503e+00
-4.779035384219486815e+00,5.085701511943999664e-01,-3.778114178269872614e+00
-4.593264749808666281e+00,-8.448386064142155982e-01,-4.736749954204373836e+00
3.399120864972064560e+00,1.891252745872970431e+00,-4.674471326820347272e+00
4.574184511054300017e+00,-2.662697954900307806e+00,-3.529509036540452449e+00
-4.836233943937144453e+00,-2.061338781102792339e+00,-3.383309641041351568e-01
-2.567010324119909370e+00,3.875539009664718648e+00,-4.737961793865347992e+00
2.249281153377304054e+00,-3.364298180881933331e-01,4.721467634197234808e+00
4.684199655361002357e+00,-2.356482964318318718e+00,4.309164723509955941e+00
-4.895149569317284843e+00,-3.332328035067775307e+00,2.926767652392058494e+00
-9.404559092426106881e-01,4.775934576130585363e+00,-3.407448869682848436e+00
3.824935559702268062e+00,-4.046640501859825712e+00,-4.871135538001623466e+00
-4.722307616047101142e+00,5.044288492499710008e-01,4.510258166416214465e+00
3.083981574933449821e+00,4.691983061141280942e+00,-3.923711005374438177e+00
-1.471424132938791596e+00,-4.706858948256277486e+00,2.195403960359288309e+00
-4.804946608036074096e+00,-1.261406917988794563e+00,-2.958751677117937628e+00
3.581058753258153704e+00,4.371828604289216713e+00,-4.701574853337365134e+00
4.825181140023872217e+00,-3.205312455635380559e-02,1.183475637860051277e+00
3.484598889588126358e+00,4.385113479972637118e-01,-4.788763986991237509e+00
4.930964701978409970e+00,2.240236932707174500e+00,4.351662132237844816e+00
-4.835399280411291301e+00,-2.644012243553814034e+00,3.844399095639249087e+00
-1.819948427582791739e+00,-2.248300059632276415e+00,4.771928045222398218e+00
-4.639861328499321758e+00,3.804830958237433336e+00,-1.404063434531763077e+00
-1.547554128178374455e-01,2.972829086610807359e+00,4.751349454562709518e+00
-4.685485475601109506e+00,8.263860662847798411e-01,-2.534571997674340160e+00
1.989313211873172893e+00,-1.312979008421602867e+00,4.656501759521680661e+00
6.555472583833182876e-01,9.282657998326850901e-01,-4.753290702299858062e+00
4.226686051612351669e+00,9.822738125300075132e-03,4.781787353103193361e+00
-1.922100663432266154e+00,-4.577624021951448796e+00,2.033064687186115993e+00
3.780833854293146334e+00,-3.125237717141797322e+00,-4.834769623287352935e+00
-2.831249126182028952e+00,-4.607624071260820742e+00,-4.130987183586786848e+00
-2.983151096282874448e+00,-4.583281961945854022e+00,9.653792420168239019e-01
4.672020158207836893e+00,-2.102546456289115628e+00,4.602775665593397569e+00
-5.015080746518413291e-01,4.807201140914380666e+00,-8.931136947073387011e-01
-2.985608567878603736e+00,3.734002015762424853e-01,-4.774338785442341582e+00
-4.809432357070086539e+00,-1.744585950392574469e+00,1.579510108038461480e+00
-2.382435434654284645e+00,-1.840908916810840346e+00,4.729627258454732086e+00
4.768601452134552332e+00,5.177656606345785173e-01,1.328731189204326757e+00
2.909075937771287812e+00,4.550173193489949419e+00,-3.950043725155275798e+00
1.007845650558255812e+00,-4.844183880497728190e+00,1.863549788948031249e-01
-4.625929577177675611e+00,1.677721582445452553e+00,2.217893952739888146e-03
-2.029362629289966691e+00,-4.575466681263034907e+00,4.688402321340606527e+00
-4.258457437912437804e+00,-4.556007201457676459e+00,-1.456743220335908084e+00
3.727692194320947117e+00,-2.862701696212113234e+00,-4.837162055538587246e+00
-4.121595873360351381e-01,4.490997210923469041e+00,-4.705655567434573250e+00
4.685901436045750046e+00,4.207733135832303351e-01,-4.325755961455118204e+00
1.467009321350232209e+00,4.697650142000821205e+00,-3.689715710508241209e+00
1.316702671146032566e+00,-2.807404789931942979e+00,4.668517342900080358e+00
-1.187727318204273796e+00,-4.635990499483532368e+00,-4.369305322415201864e+00
-2.319764641160529717e+00,-4.669336427780042875e+00,-3.399903665683322807e+00
-3.254228869392815082e-01,4.710038570976358585e+00,2.050355945117567913e+00
4.865449785575553854e+00,2.911128070147483093e+00,-3.705347734830563677e+00
4.456087128524670149e+00,4.582301140774649895e+00,-2.232867119823370050e+00
3.177375198067967421e+00,4.621210780629017911e+00,-6.130785035101883329e-01
-4.959638527514274031e+00,-4.450321024503001155e+00,4.708246177323997195e+00
-1.212791756315941383e+00,-3.411330472980649842e-01,4.750373499898262075e+00
-4.321531684420623076e-01,4.712077740693825234e+00,4.672534623649105434e+00
-3.279072753332784362e+00,-3.197114546141296199e+00,-4.760812397464595058e+00
-4.680540426138089849e+00,1.822716432125576880e+00,-8.328203642378662064e-01
4.911421132716506932e+00,3.840276480639269963e+00,4.088487938050083814e-01
-2.987029344402782005e+00,-2.698310626451514871e+00,-4.743894386216385151e+00
-4.885784027469233237e+00,-3.661587542736918888e+00,-1.456248074981334462e+00
3.039070620248819132e+00,4.597821247427349434e+00,4.567804560852374962e+00
-2.200516338097182167e+00,-1.949403120863428818e-01,-4.805757106052600314e+00
4.907282749296008051e-01,8.094138643006554279e-01,4.746646639292102066e+00
3.600131700509340060e+00,4.612008406022887641e+00,1.905027143338891449e+00
-4.663165355645459087e+00,1.419191656872004881e+00,-1.731116178429959185e-01
-2.182115944521434425e+00,3.004020675249936101e+00,-4.722174071480756297e+00
-4.673990072994687495e+00,-4.543269931988276333e+00,3.937544091139399960e+00
-9.157990648258582667e-01,-4.655738059579022980e+00,-2.984853328153324270e+00
2.778699564812981970e-01,-5.280793801409564558e-01,-4.802947518342544519e+00
-3.796718792047203639e+00,1.233437405914319163e+00,-4.703765512126177661e+00
2.637779080262851572e+00,-2.135446168467723282e+00,4.774579746152510573e+00
-6.423614931427216179e-01,-2.436673917067306849e-01,4.728116582464680917e+00
-2.682542408954552648e+00,4.828865088527270366e+00,4.486965888513438472e+00
3.213586204110682853e+00,-4.907434575935869070e+00,2.992600320220133892e+00
-1.492523431603212103e+00,-3.134973327436401114e+00,4.719606098504459446e+00
-5.427636322488050835e-01,-2.631633055224341433e+00,4.799119860110345748e+00
8.948525158317816031e-01,-2.884794890674792889e+00,4.684789020101330692e+00
4.857110299438212486e+00,3.795458609833608055e+00,-3.955545758375887733e+00
4.623215653139934878e-01,4.705752220941724850e+00,-1.177971652976484762e+00
-1.103531745570727418e+00,2.519046679729995741e+00,-4.555066345852766041e+00
-2.068719069634222585e+00,-1.157751289578152099e+00,4.717683282014706769e+00
3.001150250922621332e+00,1.304604616407120776e+00,4.814483237837602125e+00
2.631604554281968156e+00,-1.554438547651162628e+00,-4.682235325078127453e+00
-1.070665547394561434e+00,-2.459975767078080633e+00,-4.776968476789071438e+00
-3.326399346740913643e-01,-4.725543112188016259e+00,1.038449264626894353e+00
-3.361146407946840942e+00,-4.257275635050882912e+00,4.747242769773531990e+00
2.504588627854859695e+00,-4.824364120622449903e+00,2.290665827334637417e+00
4.595397508900934014e+00,1.359870351521348830e+00,4.747358780609808093e+00
4.706416459997733170e+00,-2.617671476729967472e-01,6.493489529627932688e-01
3.951595047049884180e+00,1.584052511036449840e+00,4.809279432487067574e+00
-4.767380739436068104e+00,-1.823115450882200061e+00,1.476035623739287761e+00
3.584665906497902732e+00,4.613556404958599089e+00,-1.617374187211236602e+00
5.004074514525967743e+00,3.749966662082758528e+00,4.642945338472115324e+00
4.772780774543535109e+00,1.054125415245349418e+00,3.599628470568397853e-01
3.625455222186722892e+00,-3.689635883891797086e+00,-4.735336395979619972e+00
-4.586138525346105332e+00,3.007141081937903415e+00,2.292990796975972412e+00
-4.729800587305020620e+00,2.962097094953187737e-01,1.124857390440889171e+00
9.946074279812546770e-01,4.693523849114266788e+00,9.871829672108480835e-01
-4.075473979701307314e+00,-1.535230342955025806e+00,4.747532411638380800e+00
-2.170846418657411458e+00,-4.624095455809205113e+00,-3.524234442967383529e+00
4.637389576440525296e+00,-3.283977331116914034e+00,3.378776491384356095e+00
6.366327473820112548e-01,4.724938423228489448e+00,2.822385034298522832e+00
3.783724937047920456e+00,-4.996743016267860327e+00,1.752744872830254819e+00
1.663271392615878752e-01,1.085127922741708911e-01,4.762264326869282804e+00
6.771825652226393100e-01,4.756328933288097360e+00,9.220975114322238486e-01
3.170175012187113062e+00,-2.378162557121423770e+00,4.705775301506060160e+00
-1.759863927471730261e+00,2.835712618850918965e+00,-4.717887854322187380e+00
5.015810734026356243e+00,4.257174051905387557e+00,2.406302437977376307e+00
1.601174215340209095e+00,-2.524399706665539256e+00,-4.837093909191823471e+00
-3.061796518494602992e+00,3.213467668443091174e+00,-4.582654935901917526e+00
3.127401485848781526e+00,-3.589381237371820355e+00,4.740881994760208329e+00
2.621363707719529312e+00,3.349892246226956694e+00,4.744788433247344450e+00
4.711528970577962383e+00,-2.924965351736481978e+00,4.657904359019966911e+00
-1.226488970547678248e+00,-4.043447708806454877e+00,-4.815327451450926333e+00
-4.078021120984261394e+00,-3.404188949545977394e+00,-4.757537120783091211e+00
2.441811150709689571e-01,-2.744441094709502149e+00,-4.747834203016300769e+00
2.781746578794894287e+00,3.528446644362414286e+00,4.745191319925760709e+00
4.816910732157030139e+00,1.569856648595445159e-01,9.607720910600596742e-01
-3.966919000012566254e+00,4.936094227989568317e+00,7.016765456510634102e-01
-4.959948174495837137e+00,-3.842765193800536494e+00,-4.403309173084424266e+00
4.316467907658495307e+00,-2.596817273125707981e+00,-4.842432260645404440e+00
3.806185052143166159e-01,3.549762372522333287e+00,-4.737709710548406505e+00
6.913240337081429931e-01,1.667852725375038037e-01,4.810377112355625151e+00
2.916910949878281922e-01,-4.563303160481773091e+00,4.672910177300042101e+00
-3.442183679823383358e+00,2.568366328765000262e+00,4.809145734980925901e+00
-4.252455879405538930e+00,4.823458377393833096e+00,4.810061685724630109e+00
-8.826154322847096223e-01,4.802188327022895997e+00,-8.009098346149995384e-01
4.763748524092778602e+00,-1.269150174823918675e-01,-2.729420015045765258e+00
4.540432623800489509e+00,-4.821552160982658819e+00,-4.224147638893450130e-01
-1.799165700840747339e+00,4.825248126962307538e+00,-1.206992560800859815e+00
3.998532093278043487e+00,-4.962096941934386884e-01,-4.804013206070563591e+00
-3.866710373834172376e+00,4.917017426173053707e+00,-2.503483827708345544e+00
-3.517139281182712462e+00,-4.501273755806193044e+00,-1.599010565859177557e+00
2.614477156457887808e-01,-4.795924437141225738e+00,4.123563806953502997e+00
-2.317924357962529491e+00,4.857337369217404444e+00,-2.995924835647650220e+00
-4.566697017390457525e-01,-4.765425037391727514e+00,4.332403623026963579e+00
-4.850023502311401558e+00,-3.107821726535937579e+00,-9.763153290769652215e-02
6.898847599645611117e-01,4.691423054871785681e+00,-5.960438299529406958e-01
-3.423516837115482936e+00,4.938252088979074195e+00,2.977411104391017194e+00
2.783980743631957466e+00,2.691616598400712768e+00,4.714757469258944234e+00
2.274577539060167464e+00,-2.151913257809031421e+00,-4.798442818043983316e+00
1.671913158240470321e-01,-4.768063800890142367e+00,-3.317073023988961200e+00
-4.719071271003616452e+00,-1.737645718911812631e+00,5.807702019490637024e-01
-3.179144066164307225e-01,2.391185950516385716e+00,4.799424989085201432e+00
-3.699417632543931411e+00,-4.635907874549240582e+00,4.319155708561124740e+00
1.469734443983172545e+00,-4.917714586196063387e+00,4.441685740306914987e+00
-4.912141812413412190e+00,-3.150626891988971501e+00,4.336019187727577773e-01
-4.879724524128710605e+00,-3.184513423390876063e+00,-1.196995149502484646e+00
1.694196547591636737e+00,4.697828045153813470e+00,-3.203239270546866191e+00
6.997353182805786664e-01,1.297193314372385053e+00,-4.764823425375583454e+00
1.683555578949457843e+00,-6.948175961180926841e-01,-4.773288671814566619e+00
-3.411701229848490002e-01,4.740665416426351086e+00,-2.368876196041015181e+00
3.514231061994994132e+00,-9.344015019862640381e-01,-4.851462640504356827e+00
-2.224877370302313029e+00,3.194608847282417230e+00,4.817042964412405759e+00
8.432398617780885175e-01,-3.062343470269424550e+00,-4.820946043271512771e+00
2.000878142032692431e+00,-3.545346656548020725e+00,-4.778979847799565306e+00
-4.649938012018977496e+00,-3.133825886831949514e+00,-4.788157774487253882e+00
2.521573917571247325e-02,-2.823122600385613801e+00,4.721174537441639174e+00
-4.837633844214949796e+00,-1.792635148434550185e+00,-1.678072236089212410e+00
-3.724709611577627033e+00,6.558537450156545212e-01,4.788082223872515364e+00
3.593809475172117018e+00,-4.950464249979290798e+00,4.173245977719047595e+00
4.140103947639175885e+00,-1.471494806654989773e+00,-4.802309261458368894e+00
4.804022650588514409e+00,1.598837579293134414e+00,-2.704278221077889732e+00
2.810617286556558625e+00,4.611638207747724927e+00,-2.920621603815021228e+00
-4.282323113202264331e-01,-5.664856056058140688e-01,4.774387929160271327e+00
3.072919241543980995e-01,5.619263575083726092e-01,4.746627934308556895e+00
4.853744666448559286e+00,3.485765355869193893e+00,1.018381961542379033e+00
4.843433770049800913e+00,2.175239707531608335e+00,1.478089761562401128e+00
5.001829603288691750e+00,4.411591460075745097e+00,3.539606725575749735e+00
2.615140237618665875e+00,4.227394918640965393e+00,-4.706056744606974540e+00
-1.609730710106293206e+00,4.872970876507690896e+00,-4.503976645142001800e+00
-1.086923720038774355e-01,-4.790738344191582065e+00,-2.736608590805629682e+00
-4.592524902438166023e+00,3.346095157090446470e+00,-8.330232543531748135e-01
-4.707426615369137757e+00,1.236826921429983406e+00,-4.404352339491333090e+00
3.751220056489185661e-01,4.675035429625729932e+00,3.590582043100700282e+00
2.367103783195751099e+00,-4.873688705921071396e+00,4.337255096279871158e-01
-1.444558347495701334e+00,-7.494415562014022925e-01,4.705974927390098372e+00
1.425355589112255794e+00,-4.854138411418984056e+00,-3.153796430767292214e-01
-4.805222294905224345e+00,-1.362175802752140230e+00,2.732459578196273053e+00
4.733615112223843013e+00,-4.562994648174817369e-01,3.073872521021386639e+00
3.778557237774876842e+00,4.576038080528353369e+00,7.564467225115488747e-01
2.727675676649254033e+00,4.616606490562808141e+00,8.506081457628773546e-01
4.317436224370142739e+00,3.979903157292358440e+00,-4.761520976555979168e+00
3.898959667460221157e-01,-4.755467707413518319e+00,2.817834599453187927e+00
-4.625792042844969032e+00,3.058007313787350689e+00,4.433851381398851821e+00
4.833062229450525216e+00,1.816147419915415284e+00,3.795103585758057729e+00
-4.845669316909291702e+00,-4.518820992071582943e+00,3.313720509083303845e-01
-4.598540429039029931e+00,3.764657418892915608e+00,3.916790999101650517e+00
-4.081945760873023410e+00,4.852851304444667058e+00,-2.359302490372145567e+00
-4.253950870819206642e+00,-4.524961682405336028e+00,-3.546666361688838531e+00
2.925873677174079202e+00,1.881193486125870562e+00,-4.848830420846928391e+00
4.541419092398494506e+00,-4.035601135633316794e+00,-4.369005812479797690e+00
-3.031955405213311236e-02,-4.718293385795548467e+00,8.984158038489975517e-01
8.522340131111663108e-01,-4.762988083630332881e+00,-2.855289844093427565e+00
4.579770802950557496e+00,-4.608267289889275808e+00,3.808686605584334028e+00
-3.098771433595758129e+00,3.496408370761196593e+00,-4.685313690894258976e+00
3.507623375883007544e+00,4.617120941957768565e+00,3.935193762499088255e+00
2.824263315987365353e+00,3.269812618341175536e+00,4.746182217417846516e+00
4.898012038550601410e+00,4.606946151370861386e+00,-4.419626837735785685e+00
-1.298480903661447527e+00,-3.479824456069281757e-02,4.811957543041335938e+00
4.079177035979753008e+00,-4.974651783504127067e+00,1.710906855483518008e-01
-3.983847670699788512e+00,4.112098424806421626e+00,4.810064500981583890e+00
4.452278075230698740e+00,4.557695467094750263e+00,2.754114597135268738e+00
-4.675432589600858613e+00,1.351429187849818137e+00,-5.560766234386116391e-02
4.522473353401598395e+00,-4.374671091575802251e+00,3.746956456212789721e+00
-2.909385307138852905e+00,-3.424940226325759340e+00,4.782371930497018475e+00
4.699004430321607195e+00,-1.988378816201603172e+00,4.243084521584720825e+00
-2.222080081595828371e+00,1.101632351157093792e+00,-4.676563036465633871e+00
-1.672035999893739522e+00,4.842592675331055752e+00,-2.601260952819618666e+00
3.661270895412672921e+00,4.612561553611887355e+00,3.978490559973795637e+00
4.845328818584482278e+00,1.141001005378277755e+00,1.335394992780498002e+00
-4.716628861641449788e+00,1.798359930834891207e+00,3.085427200526838387e+00
3.688761068078684424e+00,4.649258886971775695e+00,-1.874199143033057124e+00
-4.742323446742418014e+00,1.140137912792750896e+00,-3.943487643103064766e+00
4.969099748093722013e+00,3.596440693833809377e+00,-4.726587229039430627e-01
-4.371544192964781139e+00,3.476482469640287398e-01,-4.761520496648960155e+00
-2.386520336223936223e+00,-1.346442708659010501e+00,4.738412267493874452e+00
3.847481115196230039e+00,-4.877614365805387209e+00,-4.504448940226422948e+00
2.558039945910613344e+00,-4.878586801377367443e+00,-2.719413613034305843e+00
4.721767573804348750e+00,-1.003050894539149640e+00,3.608085396882966034e+00
6.005646844989717126e-01,-4.652002939504608747e+00,-1.993391193360947833e+00
-4.816550639393530453e+00,-9.310780328847881870e-01,1.492661003404683884e+00
-4.915062224061252039e+00,-2.595098843892575058e+00,1.929109964196667748e-01
-1.251041359851865931e+00,-4.616299166833330858e+00,-3.579456835501825474e+00
-4.783186301374039218e+00,6.246324396538741608e-01,2.618588743468355240e+00
4.639149206762944289e+00,-2.885598153021312839e+00,-1.289294542733738114e+00
1.892521605592684786e+00,-1.548135529378595443e+00,4.679061377279229106e+00
1.983850512444613745e+00,4.587792572899013877e+00,6.524613359932324164e-01
4.599809443533966480e+00,-2.223727298393501695e+00,-3.662969983608581059e-01
1.932804560166955676e+00,1.246962039530395083e+00,4.771904871315091334e+00
-4.701525886455048209e+00,2.032968304369526358e+00,-2.920824810689393036e+00
-1.088934061482616844e+00,2.902177091695728350e+00,-4.720055642738329560e+00
-4.958293700014480443e+00,-3.169413357133715525e+00,-2.192423448641262151e+00
4.923661947644663250e+00,3.785579993907077334e+00,1.502354313174717459e+00
3.250482215637997996e+00,4.534986753510049873e+00,4.754455573191773254e+00
-2.984506989771733565e-01,4.764559838287125260e+00,1.047348213621170698e+00
4.799166870227190351e+00,2.153534499671049041e+00,-4.447224912601481783e+00
2.755463740882743817e+00,-2.028026560086847230e+00,-4.713688476079848755e+00
-4.891439339890023774e+00,-2.546054723187638480e+00,-2.149876279980172278e+00
-3.670460534305984623e+00,-4.593127307210929544e+00,3.609821320180132354e+00
-4.162708502339675043e+00,1.275371428842632548e+00,-4.761305959388891118e+00
4.858544183612706568e+00,1.706055243152042156e+00,9.345170646689059391e-01
-8.981238002409120957e-01,3.213129545946473709e+00,-4.736393800048531055e+00
-2.268638157884729445e+00,-2.084853225901559526e+00,4.775394870519490631e+00
-3.990432800075800035e+00,1.110236547327311252e+00,4.799240368858110450e+00
4.380820007611653466e+00,-4.977667085929817326e+00,4.491127788511236396e+00
4.043997666428057691e+00,-4.892704497231348704e+00,-8.255028445888212829e-01
1.133541078007864522e+00,-4.680343854514102730e+00,-2.028601368700346352e+00
1.546564449280302123e+00,-4.845825035722573837e+00,3.715113622616131872e-01
1.106140473849418271e+00,4.724005184716670414e+00,-1.269281224739932989e+00
4.653393197488322919e+00,-4.132522462630584315e+00,-2.069443348317979936e+00
2.122029153759084075e+00,-4.494133711282151999e+00,4.697200290886692109e+00
1.359340908200054931e+00,-4.006236343451601734e+00,4.637337086697472799e+00
3.407464644958830391e+00,-2.851463791691251082e+00,4.739367207324681530e+00
-2.086032218064006294e+00,-3.456293108209794518e+00,-4.812678946040775507e+00
4.699900008524476647e+00,1.626372914805362391e-01,4.683977070957387134e+00
4.374034778120615918e+00,-4.924873824986258697e+00,-2.279885566199177038e+00
-2.895856743500858643e-01,9.193113701045272368e-01,4.735079957613301360e+00
-1.800424024494552633e+00,4.757101459972942870e+00,4.078812018240485671e+00
4.644078894236343125e+00,-1.068031829730958560e+00,2.388158986308601239e+00
4.585782896303822298e+00,4.480164401099136384e+00,-2.793301780769290144e+00
2.507745715588490132e+00,4.637190314597182450e+00,1.383615475388716431e+00
-3.853526387054483138e+00,-4.596185172540131703e+00,1.581101462347643594e+00
-2.553865120826570578e+00,1.227781549642097403e+00,-4.731887679472510655e+00
3.135158121929832564e+00,2.510662844722753917e+00,4.809471503240879464e+00
-4.668153779654952373e+00,-1.504139653009566382e-02,-2.417788713105620602e+00
-2.271002843925444381e+00,4.805279137251154964e+00,-1.996422982247797462e+00
-2.637292833762308053e+00,-4.609178717261163349e+00,2.015574892700605858e+00
2.132548759551724959e+00,4.389993201487456531e+00,-4.707617357118006218e+00
8.666261920771778371e-01,4.679320808597830172e+00,-2.371511070344328953e+00
2.999171090428344177e-01,-4.764082423407293376e+00,6.735148108962731861e-01
-1.327052843672918314e+00,-4.647055894725813374e+00,-4.634350133427996177e+00
-4.814700167280044241e+00,5.091124560092481488e-01,-4.603258568178849153e+00
-1.469136200616751875e+00,4.138065576503421106e+00,4.835193153250127551e+00
-4.215646447806380870e+00,4.820695850797791060e+00,-4.614739284036777356e+00
3.576689301033809443e+00,4.670187452304960796e-01,-4.811705076182304808e+00
4.746005190127044138e+00,-1.056628509766000201e+00,2.872297798752597497e+00
8.406116515620255525e-01,-4.713689667558042196e+00,-1.087698477882583781e+00
4.810811055405478598e+00,-8.006592827737372964e-02,3.334184073144689453e+00
2.768955385057906060e+00,-8.838150842689418418e-01,4.735556204398903901e+00
4.318536013501937276e+00,1.130519278537100325e+00,4.742240952076993032e+00
-1.978218858221861609e+00,-7.278054436396248494e-01,-4.778119969844628834e+00
-2.700245122972705136e+00,-4.587923049555440613e+00,-3.090192140095879392e+00
3.614452406445497701e+00,-3.385504635859502010e+00,-4.862010264494746714e+00
-1.331952451943406723e+00,4.878171488446044535e+00,-3.477517330431926901e+00
4.640771482200027442e+00,-2.774054231099233103e+00,-4.107432880820491405e+00
4.765210608670015446e+00,-3.778908931507216629e-01,-6.939249022202759187e-01
4.903032913247729496e+00,2.956525154924479093e+00,3.023697507205118207e+00
-4.512897330868821832e+00,3.786484514538054569e+00,-1.480785792870675133e+00
1.994880687202535974e+00,-4.764806622032870642e+00,-3.185104888271338641e+00
-4.587012207074590009e+00,4.376572777868436681e+00,-4.364782118939826816e+00
4.877231162634256378e+00,3.457050113310815131e+00,-1.247301103316510229e+00
-4.477390070203520978e+00,4.767480166898552696e+00,3.606396470046628888e+00
4.251243322114073742e+00,-3.125133285289174889e+00,-4.754138763343849661e+00
4.234722290065334960e+00,4.578274794609711762e+00,3.502961701643868775e+00
-2.477949400149491499e+00,1.062065393746656428e+00,4.839326490716689300e+00
-4.706188557655376137e+00,-9.856329627580989738e-01,1.267741121961474482e+00
-2.405237207699874702e+00,3.044835821967805334e+00,4.797055012804165131e+00
4.701364419049163246e+00,-8.294612744074915112e-01,-2.694379145733625691e+00
-1.507817121736760857e+00,-4.677508325259753796e+00,3.169304949787838943e-01
2.544738824957628043e-01,-4.339684898660741474e+00,4.702483882142780125e+00
-4.900357834392425893e+00,-4.196909067295324647e+00,3.615882312891600670e-01
4.892747193999354316e+00,2.870579574043565785e+00,3.103685433476766065e+00
-4.715796888579045998e+00,7.048111116546985633e-01,3.076585789451483866e+00
-2.645643396672288095e-01,4.836862216351872412e+00,-3.547633294507950286e+00
4.656596949715623879e+00,-1.528585796332381452e+00,-3.036539160585955965e+00
-2.798821109508755178e+00,4.880694936143553875e+00,4.484097765874938801e+00
-3.897603231033450744e-01,4.381028504526773837e+00,4.779856459122681756e+00
-4.756936991810885473e+00,-6.509461716366355954e-01,3.384280165889362202e+00
4.681170637115739552e+00,-1.534228409604837307e+00,3.398005896829900951e+00
-3.057878272432028588e+00,4.813775303983852893e+00,-7.102011396717024250e-02
1.924977325437809306e+00,4.605208034453522004e+00,-3.701590979005153770e+00
1.201348586628396831e+00,-4.722798315870465835e+00,-1.980799625518893103e+00
-4.802707246566046528e+00,-1.206837083868595784e+00,-3.796536261165804227e+00
-3.502677718515309069e-01,4.786754155185725779e+00,2.087702307736349017e+00
-4.588602067517932426e+00,-4.562108739682878777e+00,-2.288736266801461472e+00
4.642249263717366681e+00,-2.819659281611503587e+00,2.592315918714302558e+00
-6.663506690237963603e-01,1.144294144098868760e+00,-4.664441408322562488e+00
-2.446233134689091759e+00,3.202079801219875677e+00,4.795645792220238235e+00
6.421682660723113667e-01,4.672912472316391508e+00,2.043949843011366507e+00
2.680801219484277187e+00,-2.858520335909586318e+00,-4.882117703346873228e+00
-2.637998466942019782e+00,4.874455183402558234e+00,-2.944468186507475771e+00
-4.647094155221584089e+00,4.609454121614843913e+00,-4.351757984617304231e+00
-4.652152061348751921e+00,-1.778352650082409170e+00,4.758495666123634393e+00
3.031365824206758042e+00,-2.210452452831201064e+00,4.646661944616561790e+00
3.277625087833685669e+00,4.583427195810859445e+00,8.514983220070786452e-01
4.491085379543565459e+00,-5.038731335716708060e+00,-3.121366855748277658e+00
-3.233430445546880083e+00,1.621263445259476743e+00,4.758362740313742734e+00
-4.852664138325875953e+00,-2.996173673577565477e+00,1.534307634727133385e+00
4.773889606487828452e+00,-2.277645506106677764e-01,-2.259967703572129949e+00
-4.803930909412226669e+00,-3.518367190768946440e+00,8.259812716390194653e-01
-3.369439973494332108e+00,-3.207628639081071320e+00,-4.773215175853780856e+00
-3.605177146003555877e-01,-3.390144989202125370e+00,-4.798644281791829336e+00
-3.350173376306852635e+00,-1.735254539904979243e+00,4.785600008284926155e+00
4.701606168949329145e+00,-2.716921053953762488e+00,-1.354724948352125091e+00
4.600603781296090489e+00,-3.019231408244147374e+00,-4.312090638535008402e+00
-2.522969296957539242e+00,-3.521222381225794784e+00,4.738941198239425390e+00
4.691557858250948954e+00,-3.224080761678635998e+00,-1.307005323585910928e+00
-3.739843232762184999e-01,4.713949224870876975e+00,2.645953078693549787e-01
2.724876582589684126e+00,2.976949906551418779e-01,-4.723840912857996344e+00
4.602368775420936586e+00,-3.065000157353455990e+00,2.162367983722028875e+00
1.289252043785361401e+00,-2.667032839784561737e+00,-4.797113323446629884e+00
-1.315620116041328114e+00,-4.653607236020916638e+00,-1.336611264900264620e-02
-1.884907042226894092e+00,-1.714442641556424562e-01,-4.683995280241021852e+00
-4.889650881742055866e+00,-1.547670135309259898e+00,2.354756193820569887e+00
-4.669102748168232786e+00,-2.896085522660959422e-01,-1.454146090132140690e-01
-4.678626173377523401e+00,7.115091511784974454e-01,2.301414591994639380e+00
4.904479681415402581e+00,1.313648342161481075e+00,3.979903949230289673e+00
-3.165446988070805379e+00,1.350719295799242214e+00,-4.732757640895299822e+00
1.572371706359638743e-01,4.781812217443366819e+00,-4.616545380833952272e+00
3.669765353688188458e+00,3.380110644654787944e+00,-4.650802241935598325e+00
4.932423025094260893e+00,4.006741421683323701e+00,1.220808518574171497e+00
-4.706042476601362878e+00,2.323626677007286201e+00,7.747570773815173339e-01
-9.196212399028418361e-01,-2.445461578790069090e-01,4.766554573503184677e+00
4.567243686177817175e+00,-4.088446508548900127e+00,2.421673604807252023e+00
4.179553570054148182e+00,4.527418784555278464e+00,2.666353902628063821e+00
3.824376352425383097e+00,-7.516435737186184518e-01,4.767098616659763977e+00
-2.093662597373522782e+00,-1.489686729134088505e+00,4.783621164365488454e+00
4.934463450519499972e+00,2.091579837413264364e+00,5.562680833719071405e-01
-3.625214244677263498e+00,4.883352183014619818e+00,2.667010938762760297e+00
-1.273338615580182465e+00,2.688236575182763932e+00,4.810795341648218759e+00
3.726589467627042129e+00,3.727875835559252948e+00,4.868823049598764108e+00
-2.847666868082806779e+00,-2.401056742455833781e+00,4.751165416457070023e+00
4.628896022651048270e+00,-1.607773563476656564e+00,-4.041810606118372284e+00
-2.171620366472739150e+00,4.852706572130585094e+00,1.234078360431540428e-01
-1.039233648247068764e+00,4.828962751929160468e+00,-2.686692680797871713e+00
-4.674630287792385097e+00,2.809051492571358555e+00,2.374868751452779148e-01
-4.027753837310532603e+00,-4.548915469887914398e+00,-4.379134942209031323e+00
4.636625291205745292e+00,-3.217517409368389369e+00,-1.820642230007758045e+00
-1.483661315175152318e+00,4.802350839696825524e+00,-1.658597903735284484e+00
4.213609562678293230e+00,4.516509611891823539e+00,-2.028480271753253739e+00
-4.086015199098024020e+00,3.699825242479875875e+00,4.816701276469419923e+00
8.692013564912569601e-01,-4.846063442676781463e+00,-1.173385303590330997e+00
4.758924236984336531e+00,1.122817519359755600e+00,1.446547560209962668e+00
-3.402362748628205313e+00,-4.486552846477438017e+00,-4.066568474177006287e+00
3.857061833214165514e+00,-4.811379731505693869e+00,-3.864915133743621389e+00
7.957720362433307049e-01,-4.769464460636720027e+00,1.744003349483783938e-01
2.251644647584510217e+00,-2.859878829866411731e+00,-4.813992390059524951e+00
1.642569848484285000e+00,-4.784639426671624562e+00,-2.217010368712161839e+00
-3.883879291186787430e+00,1.939638067240786468e+00,-4.665647079215567317e+00
3.753902050364430032e+00,-4.892632825489794612e+00,-2.961015557999178593e+00
1.145521145998664725e+00,7.134247752362979887e-03,4.736730914145846683e+00
-2.334129213938316738e+00,-2.691858444009873619e+00,-4.757273986202474880e+00
-4.860386194799221293e+00,-2.278085597160162123e+00,-3.121666938872458275e+00
2.030018538085359481e+00,4.659523979250475456e+00,4.692719424939993722e+00
-4.793411478212454391e+00,-2.031587137138478383e+00,-4.108105889369130459e+00
-2.344534228021157019e-01,2.899747644150709736e+00,4.643244919171164220e+00
2.933539403981543447e+00,-4.925329029453270557e+00,4.209812331571720634e+00
3.679731441268415670e-01,3.613918345098239726e+00,-4.756742302413169199e+00
-1.606265021333562082e+00,1.445267635284555485e+00,-4.721337164263974984e+00
2.872693820889807625e+00,2.522820331552852569e+00,4.739264124530319755e+00
-2.855465364862671773e+00,4.762966943360319227e+00,4.007600926992589407e+00
4.856764652972030305e+00,1.429790986181169510e+00,1.693587417690640029e+00
3.361329971473908440e+00,-6.138506763872823013e-01,-4.821875843504773052e+00
-2.439662787077546413e-01,-3.114041891320187716e+00,4.758629006274567530e+00
3.393811170417287304e+00,4.618605007992246492e+00,-2.089431385745776026e+00
6.833286900450796786e-01,-4.389441247672314361e+00,-4.825093138330372788e+00
4.849087851018360595e+00,9.882914622650414982e-01,1.806877948754082475e+00
-2.234764351414359473e-01,-4.717517865046477965e+00,-3.978211153157558133e+00
-1.520321559544483225e+00,4.105793562723390799e+00,-4.726723457241392090e+00
-3.126856593224345726e+00,4.881475336564024659e+00,-1.501314745628828939e+00
-1.297521439164293300e+00,-2.276249248033092698e+00,4.706626732335761787e+00
-1.220084477874162188e+00,4.384583688304911853e+00,-4.672339680076524893e+00
4.830459712183832188e+00,2.108301684204557880e+00,-9.143763753950071571e-01
4.872268859264060836e+00,4.479136792152941915e+00,-2.116009502008375343e+00
2.836505738091260387e+00,4.557146769352906190e+00,1.165430495137268929e+00
-4.866542473350962794e+00,-3.698267487645860996e+00,2.344290615522174992e+00
-1.003367205751551472e+00,-4.760343723184985443e+00,1.852357353372632520e+00
2.694100375085184851e+00,1.120183325447316580e+00,-4.789074547658597858e+00
4.202514299107390272e+00,4.598710152127978290e+00,-1.525102687840300453e+00
3.262442383885127306e+00,4.667296335471398550e+00,-4.269263925561590511e+00
-4.822630878190219406e+00,-2.113993753947307930e+00,2.835026177615872278e+00
3.791914541888573797e+00,3.033877193150433360e+00,-4.733293763787219888e+00
1.366023233656339153e+00,4.668425199076100540e+00,-3.575978971917660232e+00
2.606633409456569517e+00,-4.779164303513394607e+00,5.015202762610884157e-01
2.074568885689445974e+00,-3.781500432803987621e+00,4.728021279949643940e+00
-3.219720763229474425e+00,2.398566205138267460e+00,4.831537272384935910e+00
4.861635468954863981e+00,4.366632747663986569e-01,4.607592849440733218e+00
-2.322094561035678684e+00,4.936730007266941556e+00,-3.029314216910625746e+00
4.222575667729733695e+00,-4.895554830219507103e+00,-4.850779607949935901e+00
4.640069038014742020e+00,-3.532141918825762783e+00,4.319717400014940090e+00
4.357323304033083211e+00,-4.927007487069277936e+00,-3.109675465878580791e+00
2.244679039878441085e+00,2.777358002472920084e+00,-4.717852967160729882e+00
-1.818401767914646916e+00,1.734169643750889334e+00,-4.718848098175602246e+00
1.084481559652257676e+00,1.507957950677548453e+00,4.753990535512475191e+00
4.748065962526267114e+00,-1.716743031315966173e+00,7.002146329330615204e-01
4.175481459257638583e+00,-4.927453840565554799e+00,-2.580356721841372991e+00
-4.697454357079996257e+00,1.842727639374264204e+00,2.107326801700278029e-01
1.315414580660669186e+00,-4.918193053211194155e+00,3.707530992336460329e+00
-4.310337373561508478e+00,-4.667607287265338023e+00,4.928607278377777345e-01
-3.303932248269239924e+00,4.222197667360647166e+00,4.810262526612877565e+00
3.622966688046590278e+00,-4.876689718232150916e+00,-4.585509536877698800e+00
3.268528476755540257e+00,1.079556421107986219e+00,4.735606398626988955e+00
-4.585947859540235427e+00,2.428084153587998895e+00,3.976072506380521343e+00
2.311406870559563398e+00,-4.790750636614143687e+00,-2.287794678889021771e+00
-1.542101875280950107e+00,-4.741855224281315451e+00,2.531652967342096439e+00
-3.389583998335434778e-01,4.784591717257285381e+00,1.934289296634793320e+00
