-5.759552665984116970e+00,1.669900028470343578e+00,-5.843115146292405804e+00
2.034258418469663710e+00,3.355010661606343536e-01,5.953263190555980522e+00
5.823733753967885285e+00,-1.317636908963405240e+00,3.794390706914483768e+00
3.438599335932179812e+00,3.908518364001062340e-01,-5.945363101446863752e+00
-4.632648021970528163e+00,4.626077678829126683e+00,2.362619331546851775e+00
4.370539503865213504e+00,-5.900755575920348051e+00,4.651598485605471289e+00
-7.240463482564196696e+00,-3.735792961475546292e+00,-5.814226582945454247e+00
-1.079626545410269589e+00,5.913891047529459932e+00,-5.764837480917194057e+00
-7.230972570438432001e+00,-2.869216906619100449e+00,1.519649735289501313e+00
-6.516372432001374726e+00,-9.108589117877488039e-01,2.683257003223868953e+00
-6.904579797717047107e+00,-1.751266864861426020e+00,4.281078355200165220e+00
5.619854536879075546e+00,-2.433436004086251270e+00,4.999902777155077693e+00
-3.147987884397879466e+00,-5.172481156210391617e+00,1.662160135975546016e+00
-1.911434496696117868e+00,-5.380179291398187402e+00,-5.814529958832060252e+00
7.370816203247160248e-01,5.924022447759642596e+00,-4.260976110704827735e-01
-6.901323152104173353e+00,-1.924426084131222625e+00,1.580835381630043335e+00
-7.201665259739369329e-01,6.697143473145297676e+00,-2.760648154450837666e+00
3.138016065564152690e+00,3.901958074886176409e+00,-5.911073006932647367e+00
6.856571053343718525e+00,1.720329690652818710e+00,3.039587568123771066e-01
-1.316928878323491370e+00,-2.280215721990646482e+00,5.828828648390851797e+00
4.089491482352408447e+00,-1.976719800362914059e+00,5.775847993120327040e+00
1.032472889157242391e-01,6.135346908482706141e+00,2.668204848698198517e-01
4.742268758618747526e+00,-4.476017977250673852e+00,-4.443760188967034175e+00
-6.854389112676914309e+00,-1.623587110914740839e+00,-5.593753655402527336e+00
4.216632634984992301e+00,-6.085354090355764356e+00,7.734754364860383369e-01
3.420305794936626675e-01,-1.427483315879234826e+00,-5.980555898109993329e+00
4.406738223782738828e+00,-5.947642748104854604e+00,5.666546670540895114e+00
1.014932119789392129e+00,5.806583327167842867e+00,3.541946993845562108e+00
5.658287891111424273e+00,4.316368365249099170e+00,3.271107800718439318e+00
5.533432530215308454e+00,1.757040461459880687e+00,5.965129533810415552e+00
2.671024327860443304e+00,-7.170714921817157972e+00,1.685948662408943255e+00
-2.579768694025195597e+00,-4.350152953178182180e+00,5.797650265318955221e+00
5.696378831344695470e+00,1.534354085618667929e+00,-5.870118165821216927e+00
-3.484075922261849811e+00,-5.084838439795448473e+00,-2.165856550050287321e+00
-3.840521942665953592e+00,-4.868537112145062018e+00,-2.754077693578373509e+00
-5.030163682035934114e-01,6.712793980739061972e+00,-5.260056534962592956e+00
-7.434474564183104484e+00,-3.179091950892374729e+00,-5.955134814454079439e+00
-3.585971771405913611e+00,-5.068541759706064909e+00,2.132414901629291482e+00
-3.044274864993095964e+00,-5.091884462383639232e+00,-2.169499810670219020e+00
-2.996580185527456752e+00,8.104447437256264708e-01,5.974751090122479624e+00
-1.257486806085540421e+00,6.730227380963342831e+00,-2.654968156247545341e+00
-4.799813333024218309e+00,4.539869314880996320e+00,-4.257496814778159333e+00
-2.487642568956762279e+00,-5.496270523605526037e+00,8.648389870145928304e-01
-5.255357364038342638e+00,-4.031115255036724854e+00,5.785520235240101172e+00
4.325886016064145245e+00,4.971724098976958217e+00,-3.036433680771290611e+00
5.650001222734317707e-01,-6.599995575085269905e+00,3.444283131801823217e+00
1.945475653428998752e+00,-5.520696987416751966e+00,-6.068127370665544085e+00
-2.153429351661290791e+00,2.151749129978933972e+00,5.952230399223839008e+00
3.672180220844333487e+00,-7.372134483803652216e+00,-2.118405343018946674e+00
4.722019139585388992e+00,-4.496272792820893649e+00,-3.464718095894959937e+00
2.283655840565098405e+00,5.349765207042306514e+00,4.157733489282177786e+00
4.818770169157934546e+00,2.233761918255349421e+00,5.932454007306687593e+00
1.512889037822402249e+00,-3.718307569126196643e+00,5.796286012427508183e+00
-5.788373888206165496e+00,9.117700473425166541e-01,5.493625051348295152e+00
4.669900152194143672e+00,-5.028527967463713999e+00,1.283128959642505507e+00
6.826672879012582462e-02,-1.316775149161962810e+00,5.826654487648229797e+00
-6.807800736580583489e+00,-2.057870918720110076e+00,4.882934981891535742e+00
-2.683595344245425007e+00,7.159001727017484384e+00,-1.963179712695083623e+00
5.108852170483952015e+00,-3.114990653921750674e+00,-4.468832499942489989e+00
5.269002898232593601e+00,4.364316717097141307e+00,5.945125788310494208e+00
2.690188706137151886e+00,-7.126928109575250581e+00,-3.065433955674296218e+00
-4.718516234869839288e+00,-2.933972887104693505e+00,-6.003699190588012158e+00
3.012029123030917965e+00,1.502616977207624327e+00,-5.980525962534360751e+00
3.438534982038778942e+00,5.285262547467961980e+00,-5.547641365760398457e+00
4.271493945894095035e+00,-6.022000733552896001e+00,3.413528551524778187e-01
6.854074240309557808e+00,1.991538828149896245e+00,-3.139757112970620767e+00
4.918053871509734165e+00,-5.603938721403224354e-01,5.908861040273879262e+00
-4.207969637430647225e+00,-4.941795625955738736e+00,1.736360041084925365e+00
-7.350655614037138186e+00,-3.193158130613455103e+00,-2.337132749069195548e+00
-2.777173777251396469e+00,6.123805750260905789e+00,-5.784481066387389347e+00
-6.187780275901937799e+00,2.016599145423205938e-02,-2.665576688751707946e-01
3.308742898364044116e+00,-7.322230433877919609e+00,3.673332497184961243e-02
-4.523543020083259592e+00,4.777572718977009636e+00,2.745477069915749357e+00
-7.097022481772692792e+00,-2.692045074031373719e+00,-7.669673827022667201e-01
4.860892986015005413e+00,-4.174909009283225281e+00,-2.117370992781709482e+00
3.324995679521638436e+00,3.845709591760785306e-01,-6.033645623970544491e+00
-4.043684462921460110e+00,6.070743833195767714e+00,3.746128525734694126e+00
-4.458163629508818282e+00,5.551074024942395546e+00,-9.335535870780263812e-01
6.344007322302468443e-01,3.942028050972435915e-01,5.991747059071012238e+00
2.192984054745312328e+00,-3.671592509639163726e+00,-6.098123270288678732e+00
6.057627924069713288e+00,4.320944283852747425e+00,-2.708295000133270403e+00
1.317336213555766466e+00,3.777394305585326073e+00,6.052986769264466105e+00
4.287933196833394689e+00,-5.480102126913383387e+00,-8.845331431726149995e-02
-4.840722974731375139e+00,4.126627669896581807e+00,4.895638605612318450e+00
-2.748990275209262535e+00,-5.469377285873571637e+00,4.071632595338302352e+00
3.848790789250572608e+00,3.200053967050775494e+00,-5.881748209367763103e+00
3.872626478603433675e+00,-7.201264269270163609e+00,1.809510671708262741e+00
-2.515039083179909873e+00,-5.520390238949849149e+00,2.633876158189963235e+00
1.786301382598552756e+00,5.395027519694702178e+00,3.975007838789282655e+00
-6.420912640740692900e+00,-3.981236398644218522e+00,-2.081358952101292292e+00
-5.312604257031871668e+00,2.798996790884901387e+00,2.751905525415134779e+00
-5.384545845537679121e+00,2.604981936064309611e+00,-4.874246496010101737e+00
-7.026011066737751498e-02,6.224195901374315554e+00,1.954182142384208287e+00
4.929858736075757975e+00,-4.646210659930760656e+00,5.727790638098332998e+00
1.835670596820998757e+00,-5.883859011554669394e+00,5.723369838441846547e+00
8.332271315674382173e-01,-6.376237681510308342e+00,-2.729258046905997048e+00
5.910061741186973805e+00,-1.314455339860768124e+00,1.764046237160554975e+00
4.561318832221494368e+00,-5.109059119349183220e+00,-2.738055956900590449e+00
7.049201635346782346e-01,6.023877358055703013e+00,2.511404635225486515e-01
-4.172861394614397312e+00,-2.294258164157664925e+00,5.881120198852188174e+00
7.105343058366553777e+00,3.934944177528328701e+00,-3.556394013756297934e+00
1.478148293870935603e+00,-6.826015634354038575e+00,1.814342991415911266e+00
4.119953944084976172e+00,1.489336156339745365e+00,5.961470871784133152e+00
-6.275736191515725260e+00,-2.590070335357451903e+00,-6.064953337998806759e+00
-6.288153573182196643e-02,6.416188066524183498e+00,-5.497866005897675379e+00
6.065224223606449527e+00,-7.485268814594353559e-01,5.852279350034342187e+00
4.959694809557546602e-01,-6.318772676525893139e+00,-4.671483240972925444e+00
-3.484644340485067548e+00,4.024683965521286488e+00,6.129045332793173095e+00
2.752498354537280978e+00,-7.319087268563282400e+00,5.310030315623468056e+00
1.482369330732066670e+00,-1.427677408420090055e+00,5.839185551406395724e+00
-7.306363198416602422e+00,-3.526684454463303364e+00,1.687903059594053179e+00
5.644482827935012104e+00,-2.347720159804368656e+00,5.262930773986600030e+00
5.195616386747488491e+00,-2.810690344428413479e+00,3.715906512219421032e+00
-1.222446828201283253e+00,4.016258772752232531e+00,6.090955730167284088e+00
-9.298254848097824432e-01,6.352426910973399288e+00,4.734962206433794840e+00
5.925831198194675409e+00,2.273004925748045579e+00,5.912094579105926506e+00
-5.004115903001210341e+00,3.316815232082792164e+00,5.615714673374170296e-01
-5.076394545638208688e-01,-5.881904071784012977e+00,-4.596374201712057683e+00
-5.449199144430959763e+00,-4.398023242520341825e+00,-1.446937997352691685e+00
-5.211189104953215967e+00,-3.064481761597143361e+00,-6.202747524253748423e+00
-3.743282258409418084e+00,5.460085153582251216e+00,-5.673707006202180381e+00
-1.273087416896410806e+00,-5.959232520108509235e+00,4.396940278915166367e+00
-4.349673589910453053e+00,5.959597550365196561e+00,-4.911035562645422736e+00
6.854394370271582382e+00,3.814258097848390427e+00,4.066909362540449102e+00
7.291950885942079630e+00,4.006643616585782830e+00,-3.059623168915049263e+00
2.460970276592306050e+00,-7.086877383865714641e+00,1.528503462433127291e+00
-6.687428909275668687e+00,-1.592876222510796191e+00,1.832227910908385882e+00
-7.188967567629873656e+00,-3.167814792347930286e+00,5.062452995644209253e+00
-6.127400274550444337e+00,3.440344649378787589e-01,2.267347945275302035e+00
3.793845299715602248e+00,-6.510688459234885705e+00,5.642052337314867216e+00
-3.120253914645018778e+00,-2.621827709124736616e-01,-5.903941496910777964e+00
-6.061368686647073289e+00,7.970494192581716320e-01,-2.988117129485148737e+00
-3.213964915412267587e+00,7.307776730686183164e+00,-5.576305798972731598e-01
-1.102598243943440082e+00,-5.742294432949328176e+00,-4.094611103119451201e+00
-4.804734889203476023e+00,4.213986952008139220e+00,-6.763279263017658582e-01
-1.085778231620717627e-01,-2.967728245019341404e+00,5.785550619087211466e+00
-1.762516676619368505e+00,6.800310489661968383e+00,5.977797630984155175e-01
5.764006991116548129e-01,5.958959292135320496e+00,4.950635993452723760e+00
4.531261220432300507e-01,-6.440400282587550151e+00,2.509177415264328470e+00
-5.430699855396835252e-02,6.050078393488604434e+00,4.671898058437851553e+00
1.722023906116199932e+00,-6.682576805480858972e+00,-3.894137777873144302e+00
-3.581173259540018972e+00,-4.461529013614281780e+00,-5.973683066884756698e+00
-6.626859327991485582e-01,-6.124788578404487538e-01,-5.995290988752067562e+00
5.272452741812363008e+00,4.535555926752322442e+00,-5.627907748828873125e-01
-2.348608047712158253e+00,2.494626765207815566e+00,6.015421975587286418e+00
-4.686860143507680654e+00,9.796000062446448275e-01,6.021179771850058593e+00
3.580256175864201751e+00,1.641673016092731308e+00,-5.856119134648433366e+00
-2.302214915751460644e+00,-5.357588603468466104e+00,-5.837541727425677784e+00
5.640442662923481620e+00,-1.840500425962162900e+00,1.625322937666079104e-01
-5.614321273066050111e+00,7.164388366460685414e-03,5.963597287193279861e+00
-7.081049605950358483e+00,-2.227911782756890169e+00,-3.763105504826333547e+00
-7.142159316203712471e+00,-2.578910959681670167e+00,5.432836504153741863e+00
-5.254920709639028686e+00,1.001823410217317911e-01,-5.881232460909669335e+00
5.466158699375652574e+00,-2.695908325376633830e+00,2.293185281413597121e+00
-3.150687564235734150e+00,5.522659529065840900e+00,6.197821851563992013e+00
-4.823626816151674324e-01,5.988482194085422705e+00,-5.804854380919278967e+00
1.478218262564884311e+00,-6.873968033222225493e+00,5.579900589686479506e+00
-5.922838307488678566e+00,-4.304395033155555161e+00,6.352603866501642660e-01
2.531101438640907197e+00,2.569500364168988860e+00,5.951948819169959215e+00
-4.104642834565315646e+00,6.382466464384262572e+00,-2.949514382977212801e+00
-8.890239358859460816e-01,-5.952212633192529800e+00,2.322162314561464491e+00
-4.520536239024559144e+00,2.954353209019904281e+00,5.971522652737087711e+00
-1.082661449987277535e+00,2.682873021152830106e-01,5.958107749440383571e+00
-3.796611376517334158e+00,-5.113614093726948973e+00,3.671787732977356722e+00
-7.440263723404370921e+00,-3.363769294599633142e+00,-5.620324269713528054e+00
5.458813492004235268e-01,3.016494874509164426e+00,-5.709835111837071153e+00
-3.093723384286655165e-01,-5.851357202948704206e+00,-6.014390937237680923e+00
-5.608766169073708951e+00,2.012143805914061279e+00,-1.587985963355761587e+00
1.843654507665601461e+00,5.533998284114989730e+00,-4.785715749553478005e-01
6.856274739641143867e+00,1.341502619585356992e+00,2.222256487197231678e+00
-3.831328695772558746e+00,7.402140770615991627e+00,3.516398332687057149e+00
-4.944404057490214832e-01,-6.236241639718016927e+00,-6.119410098385966723e-01
4.482083566649217587e+00,-5.403675716204851653e+00,5.209793056153565693e+00
-5.082690602465954832e+00,3.741687592629642456e+00,-2.552369965298585175e+00
-6.478136225527187264e+00,-6.733620381044364001e-01,-1.877212140768311777e-01
-6.062408622718114870e+00,-4.067557301871239872e+00,-3.423940814589701009e+00
-3.841775201638938153e+00,6.808349065459021965e+00,4.442797888600880540e+00
6.271050890210563722e+00,9.385067458880762270e-02,2.346386106592123433e+00
5.900760656664683523e+00,4.449179723119248919e+00,-4.859172962447998678e+00
-5.868237376589728882e+00,1.028881812631318171e+00,-2.545507305106504248e+00
-7.196117154206504551e+00,-3.104326744104753733e+00,5.084573532674651730e+00
7.078216580483198683e+00,3.900217044554818990e+00,-6.591130205237557549e-01
6.498433059240523058e+00,4.162586633321777363e+00,-4.346262634264221880e+00
-3.490640767508452758e+00,3.418198837080927976e-01,6.052797284734054095e+00
3.566737742580170956e+00,-6.316946701117871932e+00,-5.973036924411924353e+00
-6.467253264102607702e+00,-4.055249782785044665e+00,-2.497165409001885106e+00
4.995642735832142023e+00,4.665687686082999441e+00,-5.883150492394950692e-01
4.404598360654928157e+00,-2.388762521702952668e+00,-5.886725511149220935e+00
3.202767991688026950e+00,-7.302067891828051494e+00,-2.520621347410417545e+00
-2.595751712711394377e-01,-1.084425211933186306e+00,5.899635420939291386e+00
-4.311694798273711271e+00,6.091562281104287102e+00,-1.934133539840808158e+00
6.416935239022075521e+00,5.589236310853106238e-01,-5.407599976029373146e+00
-5.832517152399558036e+00,-2.024359805145843350e+00,5.833264058265960728e+00
1.805640080459012919e+00,-6.011369698675633977e+00,5.736107688454130660e+00
-8.910838577158152196e-01,-6.115601015174269683e+00,5.283763212726930725e+00
-2.837445122102936756e-01,-5.878134787769724312e+00,-5.981181219175536690e+00
4.915365720548138917e+00,-3.383937464550257346e-01,-5.959637106195335043e+00
-7.167067711994567603e+00,-2.913184882407638288e+00,-6.043419300235484570e+00
4.376714095494620871e+00,-5.472068631099083369e+00,1.231937983637131806e+00
5.649740053311827381e+00,-1.618728337688991381e+00,-4.904982493912318553e+00
1.464651630352181932e+00,5.639313105316722030e+00,4.276110887039215491e+00
-4.171726169491389413e+00,6.446162607860908444e+00,2.526862815312942878e+00
4.152273728288648158e+00,-6.670319454085287703e+00,-1.693465193384759426e-01
1.530655104686294843e+00,3.002737525560290610e+00,-5.786385460319646512e+00
3.337780707896111920e+00,5.193525568160821670e+00,-2.891812588588279276e+00
1.863366955068621156e+00,-6.108171052111204702e+00,-6.137706881890041544e+00
5.515060487116542731e+00,-2.125572994037791208e+00,-4.538062334717642976e+00
6.713812090136508814e+00,1.318352961008014690e+00,2.546920577320379131e+00
6.875883147855931021e+00,1.729611378626316975e+00,-2.691845294630979435e+00
6.903909929200822582e+00,4.011078533554814030e+00,-5.676460016773300366e-01
2.023448298348911045e+00,5.540522534440471603e+00,-5.322280743902386285e-03
-5.461057279729672587e+00,2.334765880370445412e+00,-2.745795622746020292e+00
-4.412722763433579054e+00,5.608522312612955751e+00,3.223672072939317346e+00
-6.437334569282878505e+00,-4.441635158792032745e-01,-3.682937080174540245e+00
-4.809860542934388583e+00,-4.083717680763460756e+00,-6.072508878409034416e+00
-6.307768886624384841e+00,-2.217688988717832821e+00,5.933616252598218566e+00
1.183660375843981871e+00,5.935406060046658716e+00,7.194568467276926116e-01
1.638041480959675500e+00,5.675980147595772962e+00,-4.734693565687687622e-01
-7.404945638050260293e+00,-3.281380451390348174e+00,-4.715803228857404328e+00
4.913844104320870265e+00,4.653874243393246957e+00,-2.501150806577554508e+00
-5.758803850908632782e+00,1.337188961429153444e+00,7.777838891159943868e-01
-7.032697880228018228e+00,-3.883691997231402571e+00,-1.814050197601830394e+00
-7.258281382310936003e+00,-3.277766772726714795e+00,3.888510764796270003e+00
3.201135366921572523e+00,5.254820915569992756e+00,-2.797462935973834774e+00
-6.074841086923133737e+00,-4.233313337169191115e+00,2.862906468609263122e+00
3.113004547399295774e+00,5.242768625093598978e+00,1.233881530799933790e+00
3.827743753274021277e+00,-3.692467918950532724e+00,5.766451383189703073e+00
4.801152341826472991e+00,-3.633826817065321624e+00,-5.503634077453590123e+00
6.651873611813486242e+00,1.316562155907498921e+00,-1.324309459066080885e+00
4.184096076152763466e+00,-6.014793043063075828e+00,-4.824837749609819149e+00
3.397032985942641137e+00,-7.458788455638278414e+00,4.824267753947680148e+00
6.588511111921686592e+00,1.092006302111402816e+00,-4.809518781626875850e-01
-3.558961915824186750e+00,-2.714247970792579068e+00,5.904156075837593498e+00
-2.047590699416723226e+00,-5.607897831816329948e+00,2.032876066587738784e+00
-5.766747333107659301e+00,1.216931856061496564e+00,5.258509855607590433e-01
-3.097610451379677166e+00,7.431061452396654055e+00,-2.096679851754251533e+00
6.119001304843841638e+00,-3.051729138453013745e-01,-1.696296872447632609e+00
6.525521975206988179e-01,5.857330620497530838e+00,4.018396653064690405e+00
-5.309973840555487490e-01,-5.871326484980047056e+00,-4.464500600788457341e+00
-1.780810733993487105e+00,-5.730715483103979047e+00,4.191185279818061105e+00
5.815279878779755940e+00,2.240287714632495319e+00,-5.923344514319116350e+00
6.945426643167120773e+00,3.787162307990884713e+00,2.365923684717551545e+00
-3.784343644709547760e+00,3.163972692273879783e+00,-5.808157015701142178e+00
4.598703739060014506e+00,-4.706833826983229940e+00,2.082135521444206994e+00
5.613366978668945961e+00,4.250576140286355553e+00,2.933612603894698800e+00
2.384351669840995225e+00,5.235883328799096681e+00,4.309364129314197100e+00
-4.600140849273469001e+00,4.919151572822632268e+00,-1.547567750650672425e+00
-3.680773172073723565e+00,7.850299918042494829e-01,-5.817540611224896629e+00
6.980299377263516902e+00,2.503469656229900142e+00,2.470753998508617766e+00
-4.289561849079026601e+00,5.721719089185082652e+00,5.731439245708037866e+00
-4.540263828105095989e+00,-1.422150738828244387e+00,-5.947283406675446749e+00
5.592834201122721893e+00,1.733897212587109493e+00,-5.938399767936996199e+00
-6.713811125757427334e+00,-1.365667441571027041e+00,-2.572496776512634975e-01
4.396603069058542701e+00,4.777168184155889286e+00,-3.260113727112671889e+00
-5.258153277451977914e+00,-2.333940194803896695e+00,5.751216540275729372e+00
3.738130594762228309e+00,-3.446013800410235195e+00,-5.976540367422456868e+00
4.244497087018402226e+00,2.140217053621273013e+00,-5.969173671236127632e+00
-3.997342348622152652e+00,6.869273091978135071e+00,2.471070265206242844e+00
-1.701700077230032582e+00,-5.020640612897016020e+00,5.840060667346627099e+00
4.954279886740034833e+00,4.360255518190563784e+00,-5.939529319403482610e+00
2.069774520550890173e+00,-6.857850592552236613e+00,-1.357623779483630777e+00
7.525100485388264149e-01,-6.564693307358160368e+00,-1.921943135404752256e-02
-7.105055028381129567e+00,-2.428374655195038478e+00,-4.174643068319793926e+00
-1.150282791427881701e+00,6.576761872608797077e+00,1.388585619366083712e+00
4.694189336539006163e+00,1.172123937833465801e+00,5.952338398569890110e+00
-1.535998205136856587e+00,-2.533647149807417787e+00,-5.998438223926364721e+00
-5.541227458324855526e+00,2.236807660765162797e+00,5.408670525644572180e+00
-5.236102108545259703e+00,2.837107670554432026e+00,-5.869251268214283890e+00
-3.966355317062254304e+00,-4.772843812849887790e+00,-5.977852280313963540e+00
-3.380551269992410068e-01,3.115565280777676360e+00,-5.829410656705670490e+00
-2.926584385511675990e+00,-2.776191614941553976e+00,5.704588509604583635e+00
4.039371674233174225e+00,-6.096097405908277089e+00,-4.434337842434191046e+00
-2.514162235584677774e+00,6.160650754973293175e+00,-5.685898960527105750e+00
2.100465991218102513e+00,1.515130557206149309e+00,-5.931352981858187157e+00
2.688497771199326869e-01,1.256482797711390598e+00,5.974414896420801924e+00
7.041331502210469218e+00,2.671529949225681211e+00,3.125548383840056399e+00
6.305495920894742312e+00,3.287601624159903202e-01,-4.669888316637180875e-02
-7.497881683682843246e-01,6.650185301846148533e+00,-5.483780788609606383e+00
-1.398992609282880384e+00,5.624914822173606055e+00,-5.825663850314622749e+00
-6.284424333951903474e-01,6.269632643499957858e+00,5.263177991887983076e+00
6.300901502819208133e+00,3.820796990252734449e-01,-2.714569471682739543e+00
5.271709173013684691e+00,4.298326624683546981e+00,3.345317705729796476e+00
-5.066873294436008202e+00,-4.403881655710063292e+00,-3.680989267612837512e+00
-2.344492896553692862e+00,1.777596997304758952e+00,-5.784308207578585659e+00
4.536599739687144250e+00,-4.769257036206468570e+00,-4.895946528416883048e+00
-8.298092656469485684e-01,6.722178225454968015e+00,-5.616394713177264464e+00
-4.367409508972986742e+00,-2.582615186928450601e+00,-5.918151646331189397e+00
-3.705504682343607303e+00,4.188912955858081211e-01,-5.882959551058674741e+00
-5.483589449152265871e+00,-4.536197696902638299e+00,2.259806808504851716e+00
4.617866339875522641e+00,4.009520752622498740e+00,-5.805473091342495451e+00
-4.643880904688530431e-01,6.380753816066481399e+00,-1.248283213389599355e+00
4.091082421060108665e+00,-6.440653877201795829e+00,1.895543749905093112e+00
-3.237604627169193616e+00,7.216873480534722773e+00,8.566121778205980641e-01
-1.002365152585777131e-01,1.033922033391462270e+00,5.930362283462755180e+00
2.535076284314795814e+00,1.342728787238830490e+00,6.092817639080169378e+00
-5.016335477919352248e-02,6.225341237620734880e+00,2.341398888587177929e+00
3.644434039759427701e+00,-7.395056394854663040e+00,-1.521403831855995037e+00
4.432030699276989338e+00,4.740754732060278975e+00,3.483807895916141817e+00
-4.782105670874721604e+00,4.503232011166748983e+00,-4.911654233703624861e+00
-2.098332632587839530e+00,-5.158680308498291289e+00,5.743860484671016842e+00
-7.216659794035517272e+00,-2.517492228026168899e+00,2.344907556300486751e-01
2.970172638744113525e-01,4.502701420171869806e+00,-5.839904952431908214e+00
5.804563997823401600e+00,-1.128790998025000381e+00,5.840340578051646858e+00
-7.193339433905304503e+00,-2.912048036790873873e+00,4.350010227320585621e+00
5.236241390665244744e+00,7.053000058094424096e-01,5.943150678596649250e+00
-3.222785453561543001e-01,6.469039523666597624e+00,-4.270077462185772887e+00
4.014999433752381108e+00,-6.493862366649941542e+00,-4.772275801798222084e+00
4.831154315776654329e+00,4.537549713704907894e+00,1.942389904964374026e+00
-5.082414407710491133e+00,3.287646887372887239e+00,3.229532907886011994e+00
-4.759989510424446735e+00,4.636003309374570946e+00,-2.022703813337622059e+00
7.025265013451716278e+00,2.548159068680356132e+00,-2.986707776275043802e+00
-2.417185255069436600e+00,-5.350142591307816886e+00,-6.054552989011004804e+00
-1.510045067779425709e+00,3.898889505134423228e+00,-5.692335386144421250e+00
2.133229180827026727e+00,-5.465112806031469095e-01,-5.944577743314106932e+00
4.145371364271189130e+00,-1.331790848814313977e+00,5.946231789041931393e+00
-5.147192913273131998e-01,-5.970174520508558125e+00,-1.401392186779403914e+00
1.229811806609607538e+00,5.918479608879231080e+00,-2.878485533158748666e+00
-1.962418746688823212e+00,-5.845924246377261824e+00,5.359816525414097477e+00
4.353728638907698567e+00,-5.761179985767888923e+00,2.547789323306124398e+00
-7.205902560644510402e+00,-3.796045840962553708e+00,-5.812562540767100133e-02
-6.656783568182593314e+00,-1.544801343965866991e+00,2.495071759354504870e+00
-1.438560419633880150e+00,-5.016909302348929733e-01,-5.920856993544174607e+00
5.855567155629566756e+00,-8.597588846718567934e-01,-3.304989438080915054e+00
-3.736239762965758437e+00,4.516824068365669298e+00,-5.764330699138561442e+00
1.918654720680155856e+00,7.957020617720340638e-01,-5.896382697800857109e+00
-4.018343427271667601e+00,6.848864690494954388e+00,1.132205526566855136e+00
4.356750228212857401e+00,1.485420186430309153e+00,5.947159435909982861e+00
-4.761803952109129767e+00,4.712464439350650736e+00,-4.739069782684718568e+00
1.675506928941757456e+00,-6.785830324313058881e+00,-2.113236698026001115e+00
3.647465433955670466e+00,-7.354617709668916703e+00,-4.370294875099285825e+00
4.681579929668710172e+00,4.546701524554547902e+00,6.020039438595294001e+00
5.526467318671389073e+00,-2.250791443887345977e+00,2.629264735976904355e+00
1.831449059955485570e+00,5.633727662978456507e+00,-2.146651054272178172e+00
-2.183375290339197417e+00,-5.749053126790326651e+00,1.859063337265774996e+00
5.121550428799137578e+00,-2.164900244103883598e+00,-6.053330798818715941e+00
-1.421896502155843844e+00,-5.810319028958681464e+00,4.459118063071521476e+00
-4.682670337336990229e+00,4.651878802454599615e+00,-2.577885912004228786e+00
4.383241247624622083e+00,-5.928242671980954448e+00,5.183268368513950008e+00
-3.809645114698878121e+00,7.113037990942786770e+00,4.453583655423864585e+00
-2.373494839279455260e+00,6.896021623944676548e+00,1.942596832057426282e+00
-2.722979572996020003e+00,-7.339027150130393862e-01,-5.950061104804161616e+00
9.083172144469778275e-02,7.000458786868362093e-01,-5.899121819732831895e+00
-2.335750764069802976e+00,-2.956121151456796436e+00,5.894279736209994347e+00
7.264258903576746640e+00,3.008727182600768657e+00,-1.317190722374561807e+00
1.278323140956308501e+00,5.806068768195211227e+00,7.652963570136647187e-01
-1.035253693036858991e+00,7.333925740024382911e-01,-5.926625759481976452e+00
-5.621308804226609723e+00,1.988907101325540383e+00,-6.180606411093739760e-01
-4.167038870967151531e+00,2.659455319386452299e-01,-5.951681177962925062e+00
-4.054121821185522556e+00,2.582771821167819226e+00,6.118467425810332649e+00
-3.169336686941649273e+00,-1.188835235982021565e+00,-5.938677104714725985e+00
3.877964236977311518e+00,-7.100471002016304212e+00,-1.323617143119392825e+00
-5.532085816352698693e-01,6.395375693187248523e+00,-8.227170156837743109e-01
-1.220122127186722416e+00,-5.329305734652694859e+00,-6.176002052275206822e+00
-4.721010748999692752e-01,-6.110521238051897619e+00,-2.784264136545281154e+00
2.777817144028356555e+00,2.289864927534237093e+00,-5.948936433220976205e+00
4.065901101046712540e+00,-6.670915359685155366e+00,4.482789226612283962e+00
-3.891466682939392019e+00,6.853282023307764703e+00,3.127846243129649983e-01
-7.819462827394254578e-01,-5.457873271673876481e+00,5.761383130995046287e+00
-4.300821736083724645e+00,5.696868505894049584e+00,2.801559377461154465e+00
3.168028950640975783e+00,2.754035769172059833e+00,-5.814166364975026369e+00
-2.854076597099129753e+00,5.731543702216534975e+00,6.135699520236483906e+00
-2.840509055839509411e+00,-1.051634611353750248e+00,-6.025910793075841099e+00
4.675978737001384999e+00,-4.471558294702768777e+00,-2.916683137821555416e+00
2.636169246675906574e+00,-2.604015955649222391e+00,-6.092221446355647885e+00
-6.323833923468376916e+00,-2.458940045445510703e-01,-5.804322629762729058e+00
-5.244087070898884484e+00,3.317024070085267340e+00,-3.691708373368573159e+00
-5.098093018184386871e+00,3.271423770121270280e+00,1.258894664435741939e+00
-2.958912921264468032e+00,7.055102079703151396e+00,2.864499346758438758e+00
9.798011420747629874e-01,-6.598834177567209913e+00,3.056179185351357575e+00
6.485343878423266872e+00,5.695296194445760296e-01,2.537424096318480204e-01
-4.067971057444539795e+00,6.329126165720925457e+00,4.479913008095265603e+00
-3.427623512602465894e+00,1.974727725398087275e+00,-5.808998642345639674e+00
1.769792178428772456e+00,-6.869356254638621984e+00,-1.252464126807640188e+00
-1.970895076024777870e+00,-1.598117107685867344e+00,-5.999266548854786052e+00
-5.049500772501823498e+00,3.198920013946077390e+00,4.201221224818774580e+00
-4.661396575326234526e+00,-4.726857544170483649e+00,2.714615996767617556e+00
5.977021467458949466e+00,4.024917314743410302e+00,5.917014659170505730e+00
-5.254874808748581927e+00,1.709156388519464109e-01,5.941485027482745096e+00
-9.484154035477276867e-01,-5.915196805931418389e+00,-9.131178857673876159e-01
-3.547815799893053956e+00,7.466984499431752909e+00,2.937564955272210288e+00
3.060046879350142301e+00,-7.349539178149218976e+00,1.070271871874090230e+00
7.569003285661251024e-01,5.899637330276553904e+00,5.589915444231182029e+00
1.385303513643471485e+00,3.884890157677097555e+00,5.945580981387990960e+00
-6.300950155275722331e+00,-2.186019847127677884e-01,2.533194743730783571e+00
-6.848610793517549311e+00,-1.440309311190927977e+00,-8.908783509486204455e-01
-6.280698008915356567e+00,-1.404926759024109684e+00,-6.051797185833939885e+00
6.325818570227691673e+00,2.155939584569384060e-01,1.342959384024161373e+00
6.340252992790249564e+00,2.441662621963771873e-01,-5.305282785607250418e-01
-4.122721268448974463e+00,6.119334754266285259e+00,-1.959456743382755883e+00
4.074786699812575463e+00,-3.859336984109730473e+00,5.867791633019956876e+00
-6.814827898460433353e+00,-1.630115522237486125e+00,-1.316558006499783717e+00
2.820229189126728375e+00,-7.115167612522466101e+00,-4.201495971371369542e+00
6.453701784442281486e+00,4.023944110120418749e+00,1.018122133242487237e+00
6.496101847923888783e+00,7.952634598393293341e-01,-4.418019326640957090e+00
-5.109011832235093031e+00,3.105705461046578186e+00,5.413986400118717235e+00
-8.256461602446438786e-01,-5.875276097148457666e+00,-5.455440996658210473e+00
-1.742747434630884440e+00,-4.739932265451529680e+00,5.732820467210586912e+00
3.622276120504541286e+00,-2.703666851788946612e+00,-5.953236927741565765e+00
3.273880225649204334e+00,-7.618262431318524541e+00,5.039619931635598959e+00
-2.826328944547155664e-01,1.964599523624758426e+00,-5.941929927532035194e+00
5.657747318513298929e+00,-1.914880242781457520e+00,9.660216803079306747e-01
-5.995217548113629391e+00,1.003944470749970730e+00,-5.203103447134109771e+00
6.152217556078397820e+00,-6.530995682123635904e-01,2.150482891725996382e+00
2.546492555501659094e+00,-7.127255685969540622e+00,3.106528918758767466e-01
-4.792446414149631018e+00,4.620773075396222396e+00,-2.959020700219076261e+00
-5.168075003431779280e+00,-4.759582875981434924e+00,2.897546004959127064e+00
-6.788014799032899838e+00,-1.304205542496200243e+00,-2.518849732614939718e+00
-4.237123055560636509e+00,-4.762980408174466440e+00,-1.883861191922626910e+00
-6.601816018936487396e+00,-4.132621206810808800e+00,3.350639118386605553e+00
-1.261230533348893790e+00,1.033734940174449557e+00,5.984275344735622504e+00
-4.776870910198634412e+00,3.193350618212707825e+00,-5.832344619012070908e+00
-2.653437647691633927e+00,7.250012321629573542e+00,-1.861119501292277434e+00
-6.543602670956279788e+00,-9.644682391158018175e-01,5.779562313977090859e+00
-6.351621111618020343e+00,-1.475858452327084569e-01,-4.730421311568054676e+00
-6.953216082944412513e+00,-1.647459979000877928e+00,-3.780518890650727215e+00
6.378067670599207872e+00,4.632910257775550433e-01,-2.889113921231572027e-02
4.522028347735825626e+00,-5.263022514441684230e+00,3.022549081693900686e+00
-1.111420933695002500e+00,6.652331989212049379e+00,1.269693658703515249e+00
4.460432157598461345e+00,-5.629013671445952660e+00,4.658823614089681264e+00
4.161937032845053785e+00,-5.993806436509677482e+00,-4.513511898295202052e+00
5.336543768335572757e+00,-2.493830954449427484e+00,-1.314664424447274271e+00
6.295142152175973393e+00,3.251915998841574673e-01,-5.420927032454007310e+00
-1.970337769984087384e+00,-2.823574485588284055e+00,5.917046050169560978e+00
-6.931100979464616785e+00,-2.053823709414629217e+00,2.858585327800958531e+00
5.701049701557143301e+00,-1.895552876181221036e+00,3.108894833185853024e+00
-2.536136801372518845e-01,6.334946389946047418e+00,-1.353703609609274938e+00
-4.152013141508723137e+00,7.743304739524872193e-01,5.945815294017565478e+00
1.402370937399309847e+00,3.871926619544852510e+00,-5.867047312494710454e+00
-1.689795418464028698e+00,-1.377640317537027481e-01,5.891917121537895596e+00
5.675413237190970683e+00,2.389836592497199597e+00,5.971342442394218075e+00
-3.065479920939059966e+00,-5.406553597487795848e+00,4.147380586255008161e+00
-7.369581986408888952e+00,-3.444885226551215318e+00,-1.612131553151439300e+00
5.675452658335036205e+00,-1.752276878099125801e+00,-4.009777253953974885e+00
4.007826864154816704e+00,-4.736469756461834990e+00,5.742458901507275115e+00
-6.624856425736367349e+00,-6.767482342118898986e-01,-5.235265902141718719e+00
-2.957035460748605793e+00,-5.275245668291191237e+00,1.667837076190487877e-01
-3.788051200476797220e+00,-1.922726902818338024e+00,5.907251508361528458e+00
4.186733447566257649e-01,3.451013407207836337e-01,6.022205874860087960e+00
-3.065254689941147581e-01,6.228941500330062553e+00,2.016867504511164810e+00
-2.938943878491941053e+00,7.366855964670755874e+00,-2.600609280356374509e+00
7.166795352024633914e+00,3.876921718007127371e+00,-5.829896446923156894e+00
9.234340328632253403e-01,-2.780230936073467829e-01,6.018661125488038444e+00
7.253158100326022151e+00,2.914119906777513869e+00,1.290843793711223819e+00
5.435546409945989588e+00,-2.364512794634808124e+00,5.464200317980456134e+00
7.318138801295525075e-01,-6.426964762982966484e+00,-4.115458842096721526e+00
5.679927989999162818e+00,4.402218356652619846e+00,-3.396068273141496618e+00
-5.824381563285967900e+00,-4.351306333189406850e+00,2.383714663494172825e+00
-5.477784745145078737e+00,2.170131927328900812e+00,-2.964666418872162090e+00
-2.082016537150540358e+00,7.195104223326314496e+00,-4.685957511236766848e+00
-1.421923902783382765e+00,6.806618542029641894e+00,-1.291149177468154385e-01
-2.237547375924159088e+00,-4.896305898007425661e+00,5.860038081611378402e+00
-1.206563633825877169e+00,6.606217578640988464e+00,1.475624081465882753e+00
-4.339182671382452727e-01,-3.835236928982023397e+00,5.764616228128938147e+00
-3.422733262237224849e+00,-5.006745011987355554e+00,-4.301292401818480826e+00
-1.400527918447167952e+00,6.585376943163171681e+00,3.209474924941334351e+00
4.195478006640434465e+00,-6.406779726378379891e+00,-9.815132633403398157e-04
1.288877984857088599e+00,-5.831865999518469623e-01,-5.991837147547370179e+00
4.092843002057191093e+00,-6.522367340278663050e+00,-2.024457145554813042e+00
-6.700090729629052611e+00,-4.049570529296411259e+00,-1.158968666827344007e+00
-2.150093851468270589e+00,-1.813072935799579177e+00,5.851470380191034160e+00
6.371758778271350288e+00,5.920301450795489862e-01,-2.113984426655169724e+00
-6.470387584320886454e+00,-4.163198317941642301e+00,2.501493088375344342e+00
-1.657043599537821654e+00,6.874495271193596047e+00,-5.776081039723695021e+00
-1.531493591975323865e+00,6.594172932276828547e+00,5.715824127142288269e+00
-2.985110800195530434e+00,5.957007384689132934e+00,-5.722615296320545220e+00
6.903644847652645744e+00,4.009418800207231293e+00,-8.166703348323815087e-03
5.335551520395437564e+00,-2.561533503257088284e+00,7.043892580047691476e-01
6.547036053622553808e+00,4.136384540696313117e+00,-2.112557629414300919e+00
6.765767425818217440e+00,4.098551972382786346e+00,-3.039278539835417625e+00
-4.543839996510168788e+00,-4.565747809703675664e+00,-4.286362827255237207e+00
-6.556399516185812182e+00,-1.015706607117112803e+00,-3.786515317022275173e+00
-5.845703045684747662e-02,-6.041648799195404429e+00,5.773531655093201209e+00
-4.120689881802237053e+00,2.571569284724843918e+00,-5.818592922255296784e+00
5.441120716557905190e+00,-2.200055596142259429e+00,-3.101741758406164617e+00
-2.510551665447602776e+00,-5.416437576832812795e+00,-1.283585352405443691e+00
-6.569335551645870019e+00,-3.897627399469935749e+00,-2.306893673514032184e+00
7.458503429439818255e+00,3.549549656713841372e+00,-3.094468857391320382e-01
6.272010712758953943e+00,1.332117635246608534e-01,1.788516260760271148e+00
-5.827479894359315793e+00,1.054001718868991633e+00,1.944886952692814530e+00
7.941511038945384682e-01,-6.664965666804777200e+00,4.522818140294704747e+00
6.434964075684542983e+00,4.082564191632422457e+00,3.440564313144125919e+00
-5.707739845224491404e+00,1.815455652378115792e+00,-2.004486802251627398e-01
9.253922758493827727e-01,5.875078607686968546e+00,6.066728635204682973e+00
-3.046161831257577710e-02,4.829342983354280250e+00,6.036442608627671902e+00
-5.789281054102879409e+00,1.097357043045391611e+00,1.586247630386694141e+00
-5.523987615770522552e+00,2.040064214203752169e+00,-1.803604594058148880e+00
9.792646018535719477e-02,4.843452968564830208e+00,-5.766005644446162037e+00
-3.349971200668213633e+00,-2.721009197852429562e+00,-5.956501325759161247e+00
-5.181921671688837883e+00,2.868419758502128492e+00,4.749812019475166736e+00
-2.477304553315000657e+00,4.057038507087803225e+00,5.989369685797217180e+00
-1.827136878694063382e+00,-4.080629600205345930e+00,-5.933815013028906904e+00
-2.011757066623370838e-01,6.317238417016335816e+00,1.621286235589181057e+00
-2.801450631656634549e+00,1.637304143036022452e+00,6.010589089522073714e+00
-4.445188740076964073e+00,2.181855757859765266e+00,5.991256027049254307e+00
-3.413250813326483168e+00,8.462627487373897139e-01,-5.904158405488673544e+00
7.501952704563516150e+00,3.742854499593305739e+00,-5.188383651322505230e+00
1.215290224081452486e+00,-6.449105109620958842e+00,-4.913548484202566513e+00
-7.068418110393824172e+00,-2.897248316565764092e+00,4.903987229522037694e+00
7.332669475192282960e+00,3.367579748984995902e+00,3.605581546179718710e+00
8.354318166455688699e-01,4.537995130038160463e-01,5.939597586510062754e+00
