2.802426523403486414e+00,-6.351215812803788552e+00,2.535782459520117715e+00
4.548581382881653035e+00,-2.634928542597643197e+00,6.160069282598574780e+00
-3.220679883420164202e+00,4.422807422064862770e+00,4.941019888601591248e+00
3.191023540693489036e+00,4.780601706825636121e+00,4.857134346703470662e+00
-8.589142759019278373e+00,4.861760279388841255e+00,-2.204356616185393136e+00
-1.446839221950314336e+00,-8.321793580919882416e+00,1.711722442383874609e+00
-7.104536857730921362e+00,-3.694099769815290646e+00,5.140760958469067887e+00
1.153370853501352711e+00,2.403409287078951628e+00,1.022713109109060881e+01
-4.174188458066517171e+00,1.598013354722841450e+00,-7.304531121276660599e+00
4.036033268569234167e+00,6.178993827472074152e+00,-5.502337633439331022e+00
5.479579029354293418e-01,8.006268507523692790e+00,4.976213336829144573e+00
-6.664552742301872001e+00,-2.680855651408734275e+00,5.272579730623875527e+00
2.121730686747437922e+00,1.482422351331277977e+00,-8.913465421389892285e+00
3.522167741978343702e+00,-5.936885884003801905e+00,2.588967347462743263e+00
1.718539737903612918e+00,-6.926528620897703270e+00,-5.040592130480680666e+00
1.445888102382642870e+00,-1.037776531516483303e+01,-3.670207905899868894e+00
-5.694382378623445540e+00,5.681981814019389176e+00,-2.057096888243020061e+00
4.859327725722885738e+00,3.588116584711475543e+00,3.801315159414048850e+00
-3.243594274618805784e+00,3.775756141464842397e+00,5.062762304045865136e+00
-6.617621103290596274e-01,-8.268491197571137263e+00,1.554791518624686120e+00
-1.964177116552074942e+00,-3.808247264066876525e+00,-8.265657184512670952e+00
-7.260275114160177345e+00,-3.089977643948060848e+00,4.862774098799183875e+00
-7.316459755426823364e+00,-4.183409146364502895e+00,1.921881324691433468e+00
1.038624943305081061e+01,-3.657616628847186746e+00,1.693292369498460515e+00
2.543044651707420112e+00,7.438447588049210246e+00,-3.461555944158293041e+00
3.867173656589433683e+00,4.611297465426308584e+00,-7.166322373767619602e+00
-2.523307135085199437e+00,-5.516161977064915067e-01,7.938397155426827112e+00
6.425015786545058560e+00,6.889566989802523800e+00,-5.336155104901909141e+00
-1.779573030255604538e+00,1.059672205857878247e+01,2.376617885503477634e+00
-5.842690309241251434e+00,2.833531838300257455e+00,-5.400187150187087504e+00
-4.177231938093202146e+00,-6.320604377575144817e+00,-9.894874941789125744e-01
5.229480704711409800e+00,7.616246771665004189e+00,-4.228793001807192198e+00
9.553335746038724707e-01,-1.060606059888833563e+01,-1.900812345228228839e+00
-5.074005804764331273e+00,-4.466662085120972847e+00,7.635152373508632628e+00
-3.945338252660954836e+00,-3.150742110017382469e+00,8.012782586520279082e+00
2.128830264182714593e+00,-1.065853195604745451e+01,-2.858317243011441189e+00
1.562605557303458736e+00,-1.008887729226720253e+01,-1.463086376535957189e+00
-7.810817478451471674e-01,-7.169071011713223029e+00,2.801429657532083173e+00
2.715941655189557657e+00,-2.521609961571666059e+00,-6.325802255494417992e+00
-3.758190827845017790e+00,-4.671812093445768532e+00,6.923327788245346781e+00
7.650896111070098371e+00,3.095203317882192717e+00,-4.452004701748803583e+00
-2.613078953414817551e+00,-5.484172433924654477e+00,-4.707023054296345599e+00
-2.174563306326404710e+00,1.076504916131285583e+01,2.682109070763067038e+00
-8.233165093627942355e+00,9.768421501350138536e-01,1.821246013013663623e+00
3.509932689225953584e-01,-3.105093763088339287e+00,-8.103057905895465041e+00
-1.002857503381037141e+01,2.293143804369832672e+00,-2.927479800484161121e+00
5.131656887663026190e+00,7.455847898384766026e+00,-2.213185560941223873e+00
-5.683535641784355441e+00,-2.922147365239481376e-01,-6.740833650543669009e+00
-7.734964296590050914e+00,3.809584759638869222e+00,-3.601395522228203028e+00
-7.139646307120844249e+00,2.079646215255976927e+00,-5.870377659466882392e+00
-7.438449650599337382e+00,1.861381149175332261e+00,-6.061019473717377259e+00
7.668222686720395087e-01,-1.085560149313661960e+01,-2.953871305007071513e+00
2.139428756391872355e+00,2.028350966074107919e+00,1.072405442836223344e+01
-1.015088620573108358e+01,5.526047021370699142e-01,-4.148585176907764599e-02
-4.120207084720424184e+00,5.058365798387155721e+00,-3.572610285632758398e+00
3.525971167804796025e+00,8.611317014533065972e+00,-1.180682174780930627e+00
-3.046963046257278318e-01,-7.084579021319831860e+00,-6.560226064542194813e+00
5.186211400105174008e+00,-5.805270063397474090e+00,2.102212036379564442e+00
-2.350706862110114592e+00,2.610327843532351366e+00,-7.075457040370919159e+00
6.239563851879597500e+00,-1.837282970859245079e+00,-3.291451883992059013e+00
-5.831519232282022180e+00,4.910858923838762102e+00,2.135523562551482346e+00
-7.385741547935303686e+00,-6.964400506675332281e+00,5.628250509181989436e+00
-2.461540017086575549e+00,-9.045048288525302738e+00,1.164449091745382914e+00
8.685184904830665076e+00,9.026904981942454054e-01,-2.481828787997035324e+00
-3.162689027442784628e-02,5.646038305262304213e+00,7.270184377571339951e+00
6.254086640112717532e+00,-4.756840067158753627e+00,3.258820708417290213e+00
-2.099662791995911881e+00,-1.585301106164671792e+00,8.976862255151981884e+00
6.183769623092648438e+00,-2.313323335790922641e+00,6.130771258254894107e+00
-9.135452672537638819e+00,4.296465277788440673e+00,-7.482352448173068549e-01
5.262566613140104543e+00,-6.646133185320379333e+00,1.308398811138200557e+00
4.444315710374061590e-01,4.041512692825252273e+00,-6.450120841302604546e+00
-9.116865939255371032e+00,1.820104995905865053e+00,4.985047464151171059e-01
-1.263381288027502491e-01,-8.685824246066664145e+00,6.327674342051554657e-01
7.832336131394125545e+00,-1.482159044517116886e+00,5.466787074405263347e+00
-5.759577401955385589e+00,-6.185125766093017674e+00,1.769451884615889536e+00
-7.881580451579346391e-01,8.901686648148610104e+00,-9.368726863915902148e-02
7.392482234987324929e+00,-3.795823897216846543e+00,-1.249614124135272730e+00
-7.300257794105727172e+00,3.653168551389621044e+00,-3.851862037316677423e+00
-7.106688657081947191e+00,-2.236221709144900149e+00,-1.532935524337799560e+00
-1.352511945441076113e+00,4.348252871638120354e+00,-5.486151435912203667e+00
-5.219987674848366455e-01,1.061678762185020553e+01,1.688910215669902293e+00
-6.798688880626439612e+00,-1.149027204394263313e+00,-3.571735707402044380e+00
5.390025568538802325e+00,-6.049314467044959009e+00,-2.017114193502147934e+00
1.075001980291889536e+00,9.670665231841615750e+00,1.502923549894353986e-03
-7.733321089520727165e-01,1.345476536557404401e+00,8.670639933859638049e+00
-1.569902965123406213e+00,-5.910547305553839337e+00,-5.844090430975036554e+00
-3.633247790938462174e+00,-8.301241019821205214e+00,8.193353420941750231e-01
5.500179900566713798e+00,-7.317585948654582673e+00,3.084712797167487586e-01
-9.275889546779506389e+00,2.799024312654911917e+00,-3.951073981529803714e+00
5.668289429891983033e+00,-6.042542753933504152e+00,-1.679565869185958515e+00
-5.360654228437208957e+00,5.504250151738863117e+00,-2.448454788470300070e+00
-3.576180809780357794e+00,7.171845538361889538e+00,-1.234089933796120642e+00
-7.995482732714758178e+00,-2.199784591110958143e+00,1.115608244720137088e-01
-3.497444559277531173e+00,2.495782289960219114e+00,-6.532728997913743285e+00
-3.654666370703673284e+00,-1.221893247463328613e+00,7.230582415080907488e+00
-5.534196714073667422e+00,3.512903155814111944e+00,-4.945807731555613707e+00
2.464915989276348363e+00,-3.990418825463787567e+00,-5.847995149585575092e+00
-1.019327366286027470e+01,2.880957579762106757e+00,-1.100775663351696521e+00
-1.016758731581260955e+00,-7.663443882202257029e+00,2.307591614099508526e+00
-3.839381919762240969e+00,-8.821124187343064804e+00,2.380980865452053674e+00
4.229109813730334011e+00,-6.255951906720037314e+00,1.815807476314465152e+00
8.043310609900121477e+00,-3.911551225367055018e+00,-4.089896958048282460e-01
-8.393868168607951930e+00,3.223964867323166228e+00,-3.988743275011929601e+00
5.933185760876015458e+00,7.120879170296258387e+00,-3.519796060628995527e+00
-5.901187082557508568e+00,6.630455203686412169e+00,1.110485378723228278e+00
4.230166135606656219e+00,7.001103558266587257e+00,-4.544477366983111999e+00
1.707569251924172971e+00,-1.767278067603362146e+00,8.455649435037598138e+00
5.778529436235816164e+00,-2.875327973707547446e+00,-3.101219778284833861e+00
2.869047257071889234e+00,8.201397082387996695e-01,1.069275648544178914e+01
-9.148829078259238301e+00,3.265916763339739237e+00,-3.436089572622006205e+00
8.934730857294313822e+00,2.000862208054398350e-01,1.050899625431297668e+00
1.686008386886235777e-01,-7.006906026391889419e+00,-6.556167117322843296e+00
-1.617845354609110942e+00,2.799878314018896752e+00,7.226772266199908756e+00
4.194915643477288292e+00,3.659352713117550504e+00,-8.044878600620430475e+00
9.789986446601345094e+00,-1.890373943769154463e+00,2.640970687088790569e+00
-1.942087201855283496e+00,5.910047753249291214e-01,-9.617355229571920461e+00
-1.031514200993162689e+01,9.743441632488217818e-01,-2.985102008541354324e-01
7.545756643805174857e-01,-6.561400862173583981e+00,3.092987331415239627e+00
3.499774991591561246e+00,4.176899947063099638e+00,-7.671819806453798130e+00
-1.519405535631912940e+00,-8.651670664762734830e+00,-1.983060320809533428e+00
7.162119515691455218e-01,-4.955043780833442435e-01,-9.315761869906111770e+00
-6.112171975700059434e+00,3.670441283525021969e+00,-4.241289403912175793e+00
2.367484734749663478e+00,6.697008809248417904e+00,3.510768755118647277e+00
-2.929176602678733143e+00,-8.632275309966738419e+00,2.018867624673668093e+00
-3.801112894139741183e+00,6.783915149905321407e+00,-1.576195504669125391e+00
1.562201725947728104e+00,8.499771516337188970e+00,-1.680099510561030574e+00
4.020936614555942867e+00,9.285921664358638417e-01,-6.938103187716061271e+00
-6.857640616442640669e-01,7.874667620231990739e+00,-1.318621345446670867e+00
5.247146424892370042e+00,3.441655729964537613e+00,3.110809771810849167e+00
-2.428539947317264858e+00,9.101678881406954247e+00,6.950677054241570785e-01
-3.375308333561256591e-01,-1.045095732062392102e+01,-1.523034709683527277e+00
-1.020027594961448614e+01,3.762463970914646794e+00,-1.557880893266449407e+00
4.751345738757506432e-01,9.550050946216055436e+00,2.980034474960735924e+00
7.114867593241233301e+00,-4.243140828763005246e+00,3.314802549857339464e+00
-6.850424871242212888e+00,-6.572646614055740244e+00,4.040389318590975165e+00
9.796269938295028012e+00,8.729347261237103972e-02,-3.061569478407547007e-01
-8.675064707548281184e-01,5.600919242673906062e+00,6.623638323065026867e+00
2.272689421283603739e+00,2.795336756634769770e+00,-8.546971131429254243e+00
8.099945420460944234e+00,5.118941100468954453e+00,-4.039908477523566077e+00
-7.092761944361179793e+00,4.786516264314673919e+00,1.134740463788925346e+00
5.990878040291199191e+00,5.933278100804150412e+00,-1.972002386359306358e+00
-3.129886953973075148e+00,5.590612938256524167e+00,-3.237793109776195610e+00
5.273743010380076424e-01,-6.760912804643602669e+00,2.859275185034466205e+00
8.264924218226052943e+00,1.354846412470881667e+00,-2.932396364320407844e+00
3.423507806664294328e+00,5.015684761352121157e+00,-6.550995590841699467e+00
1.503390766083087193e+00,4.940135234514880125e+00,7.162807475760399001e+00
5.549186373328839350e-01,-5.918523263014165536e+00,4.000170349512020884e+00
1.767087132912724234e+00,4.579425020612453601e+00,-6.435356661329135974e+00
4.358989251705932544e-01,1.247894286832441191e+00,1.025281783978024919e+01
8.633493196141149184e+00,-4.550803653022854611e+00,1.456127564963433929e-01
5.467466592586137653e-01,-8.707749732493379469e+00,-5.452928013820581121e+00
3.188569892514508730e+00,-9.962710947646922222e+00,-2.036209191813354913e+00
-4.746733797660371401e+00,-8.040282180799042777e+00,3.331233085265740357e+00
-5.234439960074373843e+00,-7.796414696298150204e+00,2.836513427802915821e+00
4.633829486556404476e+00,-2.541538538316471252e-01,-5.575547010895508748e+00
-2.694879233176670774e-01,1.032733335285711540e+01,3.023086431682227015e+00
-6.814208876956994843e+00,-4.488794234196112676e+00,6.107228852789932105e+00
1.346655877494046027e+00,-1.127055438991563463e+01,-2.937512081316893120e+00
-2.209186014629061834e+00,-5.464375626949209419e+00,-5.486414634737462492e+00
3.065297369286865692e+00,-2.292294409559014312e+00,7.136244612105176799e+00
2.646052783678152220e+00,5.573846320883533600e+00,4.771913918035122215e+00
2.245010472266571799e+00,-9.444380954841357090e-01,9.181604675724116760e+00
-1.848707877898417840e+00,-4.344507177188397407e+00,-7.721891495730620392e+00
-4.704473149419660771e+00,3.544380339509889843e+00,4.084241015358634819e+00
6.581187696398584919e+00,-4.793458789025472483e-02,5.574996455434367171e+00
-7.209862408763747510e+00,1.086045315080556239e+00,-5.819638819515621009e+00
-5.730105774211974534e+00,-5.769799078051729424e+00,6.772855386485104212e+00
2.542353926334790959e+00,-6.763400330910107172e+00,-4.452884473020820799e+00
1.033845488453154182e+01,-1.129652100273139226e+00,1.963920902402423729e-01
6.370866309686697981e+00,-2.892013263715490279e+00,-2.578439003804231966e+00
-4.736431984026848063e+00,3.979189635690884241e+00,3.835193426004032347e+00
-9.545002984391951273e+00,4.347604055264043588e+00,-2.086982289043242567e+00
8.448122712677285762e+00,-5.837099787452155297e+00,8.960513521061882480e-01
-2.416397353591289932e+00,-1.477474375673534235e+00,-1.058481450610656438e+01
6.626616949739275952e+00,-3.861032275128730262e+00,-1.857917340627082803e+00
-1.523154354906876840e-01,6.721722184942667155e+00,6.602893723718546326e+00
1.882144581341931522e+00,-6.674339363696690341e+00,-5.105758465776096600e+00
-7.454127349961128246e+00,4.378880360027787688e+00,8.398731124151150862e-01
1.036906248625498961e+00,-6.127556088982006877e+00,3.234104845665193295e+00
-9.357657181134569901e-01,4.940065504609498781e+00,-4.789918481009069140e+00
-3.788841195473331425e+00,4.494026642069187005e+00,-4.432284932084966655e+00
8.481178120037087709e+00,-4.904731385221092310e+00,7.422182218732935599e-01
5.315733072423853289e-02,-9.539445161549105379e+00,-3.444374713882761618e+00
5.223516681134321438e+00,-2.459447562049012159e+00,-3.954065675000602020e+00
2.018040542164834417e+00,-1.790603754674425119e+00,8.091670938628825027e+00
4.947611552266145019e+00,6.886863015154525591e+00,-1.182256253613761965e+00
-2.341707089609401660e+00,2.904657091766147392e+00,-6.572969983307094921e+00
9.981989419099766891e+00,-5.883008985065480978e-01,3.501920291878619640e-01
6.112728236498296219e+00,-1.074122115435546254e+00,7.560883204652259160e+00
4.309525900195706249e+00,-8.011956460537470903e+00,-1.630791577410728721e-01
-3.494251037061084642e+00,8.284157927746667482e+00,2.721010373174620245e+00
3.781025185810892086e+00,-5.543305572374747747e+00,-3.745426878939484006e+00
4.025643020136120853e+00,-2.268534106352414703e+00,6.928502866719151498e+00
4.544796941104976007e+00,3.936405914283708452e+00,3.272201278037117689e+00
-6.367505416646322303e+00,4.506233412836995633e+00,-3.168644818437830857e+00
6.932285330964210068e+00,6.053315392541737339e+00,-3.589337489989996133e+00
-5.672205775083274837e+00,-7.253815953542069872e-01,-6.399502447870717425e+00
-3.571536104238275833e+00,7.405492539951637809e+00,-9.054707252876101897e-01
-1.967246395043069418e+00,5.504736908528752082e+00,5.574508595267017697e+00
3.171708071112552929e+00,-3.074624345371078427e+00,-5.830617588883386659e+00
3.823203038991095787e-02,9.750840061233250200e-01,9.765397252427346686e+00
-4.189027859414733435e+00,-7.204682798357843865e+00,4.064873723490188162e+00
-5.048332008321540165e+00,-3.939413833525451936e-01,5.520764991594025339e+00
-3.918950595164786055e+00,8.349442607652873605e+00,2.186141848913664365e+00
8.964251041833909639e+00,-2.149952764622525603e+00,4.593399609488205471e+00
-1.352186405600178443e+00,3.210512830165594966e+00,-6.677206200113735335e+00
-4.443894215978897222e+00,-4.885508938871086393e+00,-2.569914253419327110e+00
-6.277971550672752699e+00,-3.969036705339236804e+00,6.128366037149381995e+00
3.314060561781820180e+00,-7.933120439661121459e+00,4.023434973616509813e-01
-3.857029080532601739e+00,5.763617226791915904e+00,-2.648224276726877324e+00
7.877686168222096441e+00,-1.232645029958601812e+00,5.233036389035476077e+00
6.350014775731422922e+00,-5.765907034412320886e-01,6.999894701516010898e+00
6.393905287303101481e+00,6.363568118382324279e+00,-6.078008767462238282e+00
1.914382143587042950e+00,-7.754831723803129684e+00,-4.443354377891867379e+00
1.677080430451068027e+00,-3.005559315566730838e+00,6.810062708939782716e+00
4.858349735189790408e+00,7.276246234722153261e+00,-1.745322673727929041e+00
1.379072396142174917e+00,3.132388835583116649e+00,-7.987603822735375836e+00
7.555024054127427391e+00,5.304319549155809277e-01,2.930999700871562919e+00
5.790571645686140023e-01,-4.822796010405093092e+00,5.028707677793126329e+00
1.848778677839665097e+00,-6.560526693140116272e+00,2.801940855837623978e+00
4.921150429645481772e+00,-1.025652460389446574e+00,-4.740715456564617014e+00
8.093684072090068238e-01,-2.292415743818859986e-01,-9.398975198426983368e+00
2.794727325029299880e+00,5.542997132456731535e+00,4.328699519094048043e+00
-4.435263197905459975e+00,-5.701069194110409910e+00,-1.118985633714328687e+00
6.285709541736692607e+00,1.170704315181849031e+00,4.419780055683301789e+00
-6.803315264340819901e+00,-3.976066794164714757e+00,5.458880087727740360e+00
8.528313109348392151e-01,8.446970603831365665e+00,-1.354782004373252580e+00
2.104604383615018115e+00,-5.988528494719740358e+00,-5.028341753534949277e+00
-7.458617405570757697e-01,-9.203356493499601498e+00,4.186210656075084469e-01
3.318782443421656181e-01,-8.955275486532585205e+00,-4.769947132502163178e+00
1.233219153119825329e+00,-6.987285470214700922e+00,2.353667785133311874e+00
2.895809902262594271e+00,-1.979025378026060683e-02,9.946410988763133787e+00
-4.713198768165527852e+00,4.740007211763558992e+00,-3.462159493905878183e+00
1.585131604428739127e+00,5.093460841380720971e+00,-5.711509757534661169e+00
-8.018000155904982051e+00,-3.135360003939711149e+00,4.262796850397432280e+00
8.774022456162716699e-01,-7.394498411475658450e+00,-5.632181201700489304e+00
6.758968864620794825e+00,6.280756699489711714e+00,-6.466583378920598868e+00
-2.299186402703865095e+00,-6.673417538821075468e+00,-3.533805992096510806e+00
-1.470001232913818179e-01,-7.472977653638428919e+00,-6.095681056064197634e+00
1.071082120672969484e+00,-2.371757895621639800e-01,1.049019829615107824e+01
6.854705300266444867e-01,7.251832372608649102e+00,5.830675967930443626e+00
-5.572194598914960828e+00,-1.984599242547727405e-01,-7.387241594172137660e+00
-6.458656293838189733e-01,-9.256729179211406588e+00,-2.885658326260361672e+00
-7.715846886928745541e+00,4.695605042023364817e+00,-2.475583950743149408e+00
-4.438689045619009121e+00,4.803934548764091872e+00,-3.574167603247655922e+00
6.033069574330422569e+00,-2.201165213853662372e+00,6.089932232361275233e+00
8.930411562352324140e+00,2.551669106501775364e+00,-2.312871438344045849e+00
-7.007042784797585355e+00,1.480678904298716514e+00,-6.614258519245894696e+00
3.471664296360836843e+00,2.504866891342212298e+00,7.672173644990285979e+00
2.234946211246291892e+00,7.770961090604143529e+00,-2.756829109678703205e+00
3.712493144130934564e+00,7.726465219988734923e+00,-4.192430167147874753e-01
-4.126639845981687316e+00,4.887954688294151140e+00,3.770801570625852861e+00
9.658901779357716322e+00,7.182601482165987816e-01,-1.051622622878670255e+00
-2.178558045552972278e+00,1.014645445035992921e+01,2.961272301414986874e+00
5.997811368941472487e-01,4.747638755361701435e+00,8.804755804404601705e+00
-3.559926080446294439e+00,-6.942366392508899864e+00,4.120174600246811814e+00
3.175762295845514060e+00,5.870408551903611993e+00,-5.432608742983293659e+00
1.437732662662625449e+00,4.504581635201065914e+00,8.146834290692250846e+00
7.481865795139684749e+00,2.012347257522641542e+00,9.968703538341336934e-01
-3.431990021326542628e+00,2.360314484467536111e+00,-6.926387447179756407e+00
-7.052668362444221906e+00,7.655575023725126327e-01,-5.677252756132975975e+00
-4.879605006029152037e+00,-2.692616082148302059e+00,-4.642346068438357953e+00
-8.719614253470114207e+00,2.537593180331735532e+00,-4.737630315207933762e+00
6.208682725782981748e+00,-3.493900871515853268e+00,4.425889112324494334e+00
1.304886114789995666e-01,3.637154117624183058e+00,8.538122043369035907e+00
-1.766386291690317911e+00,7.726394108954683482e+00,4.791477430148344041e+00
-4.157518636745452412e+00,5.895317502841717072e+00,-2.436172183562396398e+00
-8.558595842174748114e+00,-3.711181340896934522e+00,3.768520573541138674e+00
2.928058748425038882e+00,-1.003305517927810264e+01,-2.281040935738907205e+00
-5.756810274891591028e+00,7.409510513140744603e-01,-7.961260055451420570e+00
-7.962888987881158620e+00,-5.856392454874417730e+00,5.665937288631874402e+00
9.036523289410942184e+00,2.345808552823240412e+00,-2.309951355928137495e+00
2.762070946328622489e-01,2.198513728419422553e-01,1.037139351802939125e+01
6.452633789011749776e+00,-6.306856549879299223e+00,-7.293058601080947279e-01
2.192438327948010635e+00,-1.889623135766359319e+00,8.094460941169494106e+00
-5.273765491088924229e+00,2.741979967756673631e-01,-8.328383802585946682e+00
-5.890706490788212513e+00,-7.004594552995669687e+00,3.263955611607666452e+00
-2.270598110020300708e-01,6.898066280535699590e-01,-1.052633853427219179e+01
4.087041559128252288e+00,-6.472908870454770813e+00,-2.830907257490222317e+00
7.498605531498114374e+00,-2.198410322375653703e+00,5.588476449267707480e+00
-4.398397556063823544e+00,-1.916274146805255763e+00,6.943860324290890063e+00
-8.334800691770585246e+00,-1.352023753892265256e+00,2.834040762748974984e+00
-5.420807367943381472e+00,-3.464657293250981596e+00,-2.604213291519010820e+00
3.018819344814137384e+00,-6.067470482702168155e+00,2.489612679951507701e+00
1.031675661833335056e+01,-2.162093628946387458e+00,1.985382706268025599e+00
-3.545619731962086796e+00,-8.246394675156361487e+00,2.690493329918115961e+00
-3.915335973434824535e+00,1.756525998804175703e+00,-7.691927098180972422e+00
-4.588860494771102694e+00,-4.860431725015255111e+00,7.095247733590314354e+00
-3.445105021331693607e+00,-1.491203905945639452e+00,-8.988296590131094277e+00
-7.432154266740337079e+00,4.919812619344349769e-01,-4.971233507246131111e+00
-1.094115954479980557e+00,-9.017362703171354354e+00,-2.396386583817720961e+00
-1.922641478109363145e-02,2.321424540255228042e+00,9.061694036186839440e+00
2.821189375885203798e+00,3.686644154756113068e+00,6.657692815255247254e+00
6.768160589544868877e+00,6.453632806794517229e+00,-3.765589904878405392e+00
4.151692494646933795e+00,-8.551864317967295293e+00,-7.627022769456188733e-01
-2.563318127080112863e+00,-7.888048715284608825e+00,-1.422703991254574696e+00
-2.430838199517253440e+00,-7.666437895203792152e+00,-2.113662159052857703e+00
-8.348990576650900053e+00,2.371047390081413742e+00,1.014045347435353683e+00
3.230407816834750978e+00,7.965296844359492034e+00,-2.794558096773203104e+00
-7.431321729530175446e+00,3.000792134547579870e+00,1.332328390656392081e+00
-3.951777816491261142e+00,-7.714318840327189619e+00,7.127668340392285806e-01
-3.750201880776797836e+00,9.187358665378045686e+00,1.366931119309503728e+00
8.887799557212062496e+00,-3.391749973248239680e+00,3.512088187117920590e+00
-7.503928296748243021e+00,-4.045234051261075159e+00,1.974941207713953206e+00
2.743486632064969566e+00,4.002962377086128676e+00,6.523062719904293871e+00
1.358283819961487282e+00,8.195551380645133221e+00,3.395259922066698355e+00
-1.051732330284554928e+00,-5.786042854911920941e+00,4.754934008379400723e+00
5.920578955611764727e+00,4.572331094006561791e+00,7.816967273477185008e-02
-9.942355902054603178e-02,-3.359070486687349533e+00,-8.650177815976395124e+00
-5.899106513462645474e+00,2.658084833045229356e+00,-5.787233438825703402e+00
5.568836861292235874e+00,3.739204248606088576e+00,-6.831632211707034941e+00
8.621659472466249863e-01,8.730063051037296518e+00,-9.818597426098805148e-01
-3.505336760602440815e+00,8.464761225889297691e+00,5.532761731379295389e-01
5.641238310114888854e+00,-1.292932378267185600e-01,7.620353425296864991e+00
4.459635153284475351e+00,4.948493989276958160e+00,2.268823913343964271e+00
-5.290326669347236610e+00,-6.357660072779035332e+00,5.753841616171960993e+00
-1.273164353738998278e+00,6.876232873258197209e+00,5.713920086105162888e+00
-1.736652710716059200e+00,-9.698644723654961552e+00,-4.101566610061769813e-01
2.753911023897483989e+00,3.764997947658456745e+00,6.797808845697442592e+00
6.968080050777982315e+00,-2.884942483879842090e+00,5.060294993377126183e+00
7.068110271524552068e+00,3.940812794383082185e+00,-8.652394022334257695e-01
5.711612525496103654e-01,4.284245564542592533e+00,-6.161285681914209000e+00
1.695418889746746371e+00,-1.703239274097126277e+00,-8.109968839292147180e+00
-3.263144241553882274e+00,6.755851066953109552e+00,-1.851270961905603807e+00
4.846963819500275106e-01,7.667167525861889210e+00,5.554211948216710937e+00
-7.011052838046234470e+00,-5.418699770482515277e+00,3.065198050418212361e+00
-6.567691534103992090e-01,1.068172985135496411e+01,3.126456169742434010e+00
-2.472175598703891364e+00,5.691036759212287244e+00,-3.368638504307004400e+00
-5.318877310957109472e+00,-4.643414793621128744e+00,7.413114078474623447e+00
-3.728337775891247929e+00,7.600347447876923290e+00,2.948622134926145222e+00
-2.052843965143649196e+00,9.340039295621606286e+00,3.600790345608226417e+00
-1.042259873929474878e+01,9.397017923807678974e-01,-3.411905547280665862e-01
-5.260402473744258955e+00,-9.572245010262307729e-02,5.217102364459525354e+00
1.504741619943538611e+00,-8.990334620882292072e+00,-2.885582377954692967e-01
2.404994865821282080e+00,5.729949988924012416e+00,4.516172258427428865e+00
7.449779618225377931e+00,-1.540784044389271079e+00,-2.329340068919231399e+00
6.353601435834114852e+00,4.547660351973145332e+00,-4.616536831033965504e-01
3.616419075874628408e+00,9.021185990214377171e+00,-1.767572603307260071e+00
1.348485923143678766e+00,-2.238574667691915820e+00,7.796945700945042468e+00
-1.631172902435933658e-01,-3.289511548449419731e+00,-8.756848837393683027e+00
-6.497452997675511099e+00,-4.120127530709610575e+00,5.841047989673040064e+00
5.244501855149726666e+00,-6.155853051078733706e+00,-2.111956974782166263e+00
3.168420169213934101e-01,7.157331103957087493e+00,6.297687365929558467e+00
3.522312532420252662e+00,5.954278937430817820e+00,-5.402991797979591837e+00
3.249604851408248507e+00,5.659621231565190591e+00,-5.648466603745330161e+00
-3.772591819467760565e+00,6.008855943183355031e+00,3.618899594831015865e+00
2.836844918326174997e-02,-4.812097422298156069e+00,-7.758603017307445171e+00
3.030932447178688260e+00,-5.562983087638954771e+00,-4.572804055439174675e+00
1.642641979575455158e-01,8.921674008572420433e+00,4.297626035848630011e+00
8.351559614118830410e+00,-2.468462796991721664e+00,-8.555221847769023391e-01
3.234923370049351821e+00,4.327445770397197577e+00,-7.125128156572917426e+00
-8.021739374716407411e+00,-2.008635844855091168e+00,3.501998098053427988e+00
9.249410051737740446e+00,1.668393863265249299e+00,-2.164866271614221738e+00
-3.388324621502429856e+00,-2.015042994806577337e+00,7.951812869806350825e+00
4.028312242948105748e+00,-6.696136217448772632e-01,-6.183308380222788614e+00
-3.847220245576412623e+00,1.697569905031140358e+00,-7.687440152058631959e+00
6.813200491433358152e+00,6.966343544815403632e+00,-4.784694299017344221e+00
-4.330476390451840629e+00,3.402000229330622183e+00,4.239257533741081829e+00
-5.107845354669781734e+00,-7.422584377952996526e-01,5.591976161288999769e+00
-7.339924974215956688e+00,-1.231559218859172411e+00,-2.582052854613999582e+00
-6.305218184607771725e+00,-3.747969194713476337e+00,-8.058959252337760670e-01
-1.382770978352578561e+00,6.587491581641340410e+00,-2.546708298068513621e+00
-3.704920460925121617e+00,8.296228128502386667e+00,7.466417429930158334e-02
-6.092933030666446426e-01,-9.896711251551561617e+00,-6.939961540950652097e-01
6.489303311169738464e+00,-7.271088407070346094e+00,-1.121456089166596864e-01
1.509993884788813023e+00,9.278800101243504628e+00,-5.953599742335635714e-01
-6.070707100062987749e+00,-4.263963971723660151e+00,-4.965979152732389879e-01
-7.933021883501798044e+00,-1.124502752374658021e+00,3.250602852871167237e+00
8.350511498359093343e-01,2.513387734632063886e+00,9.888789634573047493e+00
8.813670382209069842e+00,-4.942759144070148380e+00,7.573375694506344624e-01
1.649284895977065624e+00,5.796708144324664858e+00,6.028188221152237958e+00
2.137088897945807364e+00,-4.566704975828408841e+00,4.751323515388575558e+00
-9.347973237533903301e+00,1.878456823562721922e+00,-3.542375579846562150e+00
7.295809999881615937e+00,-4.159166311666894877e+00,-1.007410888092993950e+00
-4.215346504722950804e+00,2.246051708077001774e-01,-9.160564591270969004e+00
7.883432395461106523e+00,6.124405997180387473e+00,-5.782037444310036634e+00
5.958537661027175858e+00,-5.825766024627669459e+00,-1.385874579733609391e+00
-1.646338611263109764e+00,5.088063421968951339e+00,6.124999008812468837e+00
2.075892423440286017e+00,-4.709846744162135224e+00,-5.973269360428433039e+00
6.666727839213860030e+00,-3.862001492711850670e+00,-1.879298271131631504e+00
-2.710426745120431136e+00,-9.270461436604337635e+00,1.160064279946567467e+00
1.474639060741201657e+00,3.976289683731563773e+00,-7.209217667839542543e+00
-1.086400046843785105e+00,6.794964326397868737e-01,-1.019320885478955319e+01
5.723532845432120375e+00,3.772490227655577844e+00,-6.621872620204254822e+00
-4.869618252979555528e+00,5.459685959545864442e+00,2.772649500534506206e+00
-4.888803150516450202e+00,-2.364654246290233131e-01,5.567479045329510434e+00
-6.185476022684945008e+00,-7.324387770112371854e+00,4.230188911982928346e+00
5.232307866818052489e+00,-3.763005391590305226e+00,4.291920030694075017e+00
-2.529626802157131094e-01,9.217698276335781316e+00,-6.194792542024474963e-02
2.398143548837717631e+00,-7.636669910966715769e+00,-4.130079916335809287e+00
-5.101836972304064410e+00,-3.860392010295655041e+00,-2.755756330532911580e+00
-3.729346922798688624e+00,9.047810346901307810e+00,1.196773023318774776e+00
3.641009548096646453e-01,-6.868146702172608364e+00,2.722554769252408580e+00
1.814929316176321805e+00,-7.712293508611870685e+00,-4.741510453158039873e+00
5.961083676431893963e+00,5.689526436074833882e+00,-1.421240169630005878e+00
5.040170361498085505e+00,2.230075318202501045e+00,5.424201482172449573e+00
-1.088697433980431867e-01,-2.258506036651973137e+00,8.401755773510521053e+00
-5.722706259168995224e+00,-3.757335101405220534e+00,-1.828000856170182598e+00
7.602314734332766832e+00,6.669993223118996895e+00,-5.883876676099530023e+00
-3.778699896672785385e+00,6.577550152918739457e+00,3.352795792564459809e+00
-5.610242131562744206e+00,-4.781233691461326707e+00,-6.127082030654358302e-01
7.703625596256312491e+00,3.868596202535370843e+00,-1.795928409254988978e+00
-5.846444745064233395e+00,-6.099335319589315851e+00,1.726697026683238656e+00
1.197384744627505659e+00,6.173706261849441823e+00,6.115195933535838790e+00
5.164980836807597342e+00,2.642147782240093612e+00,4.431461194686503013e+00
7.589056864782124379e+00,6.745997298648132023e+00,-6.030408966163368412e+00
9.122294184374142301e-01,5.473067700741824027e+00,7.712223541389540138e+00
7.362431640551487799e-01,-2.041551095087818180e+00,8.494862861926311126e+00
-1.865741693027836545e+00,5.530492962833089443e+00,5.601938338147046004e+00
-6.737364942163600823e+00,3.564570112471335595e+00,-4.154497057265926330e+00
-1.071180290752258735e+00,-5.630971669629795784e+00,4.670022893616916804e+00
5.004404232573297584e+00,-2.775385324017520250e-01,-5.306586355667020527e+00
7.628933932075623758e+00,3.653869914569159771e+00,-4.550994520549125788e+00
7.155375759676033454e+00,4.873869781759256448e+00,-5.798263410535036577e+00
1.208907054385107482e+00,-2.360888558368349877e+00,7.822612864066420535e+00
6.192496425568708496e+00,3.241952814377480507e+00,1.614263330487867965e+00
7.514664577413332047e+00,-5.376922774884278056e+00,1.898020200690895720e+00
-7.511659287693296605e+00,-3.934585998248166128e+00,1.672871648418593482e+00
-2.677994291915236080e-01,6.183257345534771687e+00,7.054162809652270383e+00
-3.712310627053095669e+00,-7.912415159735223469e+00,8.086894414513282614e-01
3.693276619182114917e+00,-2.687964274214051041e+00,-5.415901477697411259e+00
-5.329074440815364966e+00,1.340308785443287798e+00,4.294514795412049502e+00
-7.317867537033445835e+00,6.192282312857802395e+00,-8.277092398686025643e-01
2.005805904235883563e+00,-6.701306074745038366e+00,2.402830134976444931e+00
-9.201642101738711332e+00,3.073758362181131520e-01,1.351656021262801044e+00
-5.028048389026380960e+00,-6.333247653880880179e+00,5.615849053816447167e+00
2.503560069118773601e+00,-4.216727210101822720e+00,-5.753258539271604022e+00
-2.715719631288730618e+00,-6.081910077589180119e+00,-4.062755487739212690e+00
-9.338683832958455611e+00,-1.932152177626061063e+00,2.237986435118361594e+00
1.022382502016759709e+01,-2.080623658374973761e+00,2.193375632205312620e+00
-4.346261185568777385e+00,-2.156495639965884337e+00,-6.300779644273107216e+00
2.109565036754192657e-01,-9.299925468774114634e+00,-4.029366125511559815e+00
4.061523869608730131e+00,-6.701023084004470221e+00,-2.953729726600866190e+00
6.554544891383423000e+00,5.495201433306625027e+00,-2.348940928779815973e+00
2.143368002471658595e+00,-1.098215537502206196e+01,-2.939623330720549710e+00
8.220466913163726019e+00,1.147058388213129776e+00,1.028107766519217536e+00
-2.805287304495312384e+00,-4.061680333757553107e+00,7.754080012293440127e+00
-2.754855591738827325e-01,-9.627704774071643712e+00,-3.408986987434015958e+00
-4.774648642193347392e+00,-3.819151541661533589e+00,-3.161526066950598235e+00
-6.092914640359688327e+00,8.086270084339185482e-01,-7.351758750182810331e+00
-1.365799148679902819e+00,-8.596708864379877468e+00,1.425079445223555119e+00
-3.615188552841170910e+00,-1.028116924304695035e-02,6.795491831982963582e+00
-6.430881679398588346e+00,-5.200707741042704946e+00,1.632235312485334378e+00
1.983606037723490756e+00,1.234644754267823608e+00,-9.145699503745595038e+00
-9.366457850207537961e-01,1.652393669708293045e+00,-8.834491689469007980e+00
-2.644448431014882139e+00,-1.958455419593202240e+00,-9.999136271016793032e+00
6.744799917615724283e+00,3.101362783332580975e+00,7.713278778832128868e-01
8.267840777805157693e-02,-1.077116414658732246e+01,-1.836574516058343765e+00
-5.241378458127284645e+00,-8.001656997617660139e+00,3.632005704894175846e+00
-5.799361160161418560e+00,-4.160841123788167728e+00,-8.413725069141193558e-01
5.854848879819486207e+00,-7.571440225937029922e+00,-8.139599645877074741e-01
-6.604782524594061677e+00,5.005317447257896291e+00,-2.492481792335770052e+00
8.135209640118002739e+00,-6.023877911002053942e+00,6.660177317503868100e-01
8.732220573228726579e+00,-1.138378496756083935e+00,-1.162847423556137905e+00
3.141485087608117510e+00,-7.044113159132186830e+00,1.642743788963006990e+00
2.037754370634978773e+00,9.000536338044906159e+00,7.632553146631435581e-01
-3.276166750758052082e+00,2.343989017330476987e-01,7.008686984053005276e+00
-6.053649953587230570e+00,-3.738275263748594313e+00,-1.462284981388418892e+00
-4.425237627244132277e+00,3.899212859901608930e+00,3.862458329132134605e+00
-7.233534446910971916e+00,-2.268077979766191632e+00,-1.155717971763312146e+00
4.767084108783051555e+00,4.382505984253802778e-01,-5.956382499499737193e+00
-7.400025547986990304e+00,-9.756251279808304533e-01,-2.752668238106345200e+00
5.194632010339176098e+00,4.016205122923477866e+00,-7.210315916061559527e+00
6.448034050158317321e+00,5.824270790152298538e+00,-6.804369765909045853e+00
1.704038384176997933e+00,-8.210984513603269974e+00,7.087895899955620749e-01
-4.469024326034732653e+00,-3.986278343422872350e+00,-3.750746137537690039e+00
6.111118091662410379e+00,-9.062470805026514586e-01,7.483855517878123642e+00
5.579463441021345282e+00,6.780007412466138028e+00,-2.360137870274941374e+00
-6.184763291286539122e+00,-3.811463517177423377e+00,-1.030605538312203695e+00
-1.345139433523966810e+00,-7.217185596360542910e+00,-4.662908201104853489e+00
-1.413952339339822117e+00,-5.777552283187646687e+00,-5.975546222761525250e+00
4.057537795053911545e-01,-9.596913819327706818e+00,-6.981706041335632440e-01
-7.920019230958146750e+00,-6.281543002332385051e+00,5.631125545732876603e+00
1.930404137379299279e+00,7.022059230564683396e+00,4.112827489944134385e+00
-1.255418493957557002e+00,-7.912179384407881599e+00,2.032997939894933381e+00
-7.251754356433343318e+00,-6.656343304987468734e+00,4.968508657306279552e+00
-2.541830361698072527e-01,-8.632612763372172537e+00,9.667751651891091091e-01
1.832795401824308001e+00,-9.054584608966955273e+00,-5.784438617077944933e-01
6.783997187997163891e+00,6.996781482792099993e+00,-4.689165804883479005e+00
4.333664508983638086e+00,-1.119557388827115307e+00,-5.450150802097678771e+00
2.096450001411767960e+00,-7.781493815630732946e+00,-4.468567082554106840e+00
-4.413243556346972407e-01,6.655317416492080973e+00,-3.319600086148737805e+00
1.718262183441181756e+00,-7.129790910443697172e+00,-5.035752072211102437e+00
-2.054498137860719886e+00,-1.764582321775760854e-01,8.196976501495658596e+00
-1.906229180115131872e+00,-5.391989706691359352e+00,5.515503489826723893e+00
6.149467495923387261e+00,5.366212821372892350e+00,-7.137895117863342520e+00
-7.266679524838513871e+00,-6.535604563515729382e+00,4.874576932580236388e+00
-9.444798342193648111e+00,5.882413772181930289e-01,-1.196738513844832319e+00
6.778653475190949962e-01,5.760437412721003625e+00,7.692248873984552482e+00
7.334637166905086936e+00,2.956114701167891212e+00,-4.640738266940059198e+00
-2.763813639925328039e-02,7.901697191123946418e+00,-1.530150419760991198e+00
2.773672860943786400e+00,7.757896262277445665e+00,-2.952875272597832002e+00
6.634196727685133688e+00,4.885202387706495841e+00,-1.586576973347398889e+00
-6.326392964272364416e+00,-6.849773583232146024e+00,3.865331197154403764e+00
3.147611184129935902e-01,5.878554440076434240e+00,-4.348355514770239516e+00
3.917264374329326948e+00,-8.816528789854601200e+00,-9.507943994196014215e-01
3.728354367683447412e-01,-4.916742704109902107e+00,5.126591138315039764e+00
-3.362600030274020657e+00,-8.216105274650052692e+00,7.727600716410184534e-01
-7.171452061817628731e+00,-1.398465482731683363e+00,3.959144187632505307e+00
-5.048280290843341511e+00,-4.070449575377507401e+00,-2.518312809214812376e+00
