-1.113361616012734423e+00,1.166753731892470558e+00,-2.945131203212608684e-02
-1.314053223446423058e-01,4.912442281559238899e-01,9.488347267431442855e-01
9.852528035036038911e-01,-1.020753796090413168e+00,2.471822224899097864e-01
-1.768610874500988472e-01,1.327201978592774889e+00,-1.800558423715517276e-01
1.036655695195089599e+00,2.450177628140610131e-01,9.334713191106898122e-01
1.939840854207884298e-03,-5.286849006812311957e-01,8.805107932430759066e-01
-6.961551120758615596e-01,-6.474960813502450563e-02,1.454296253967560570e+00
-1.182018557912376311e+00,8.556542524836081576e-01,-3.569746749609086778e-01
6.211328676521025299e-02,-1.677351319795787055e-01,1.189578234541600610e+00
1.565515819193706581e-01,-1.694400201648905424e-01,-1.327221749730851386e+00
-9.372196890817242609e-01,-5.132507312617662354e-01,-4.693623950664531641e-01
-6.121494635315882782e-01,-6.575724716774792311e-01,9.453542045332249399e-01
-1.132048715468314537e+00,1.762335156773641442e-01,-9.029172162659870882e-01
1.090733389373312878e+00,-8.870973884183004365e-01,3.504541916809199575e-01
3.802232801046837030e-01,-4.082789764273893618e-01,9.268412137176893495e-01
-1.025407778071017573e+00,-2.880919276258626094e-01,-1.041575655924050103e+00
-1.103639862613526867e+00,3.888969263094230744e-01,5.722044022568552046e-01
4.167393070574884062e-01,9.414711127169332894e-01,6.000702958830560485e-01
6.851966694169919769e-01,3.905365812771462442e-01,-1.186032123067908062e+00
-3.151534089755426149e-01,-7.153470704722781903e-01,8.288322770562677189e-01
-8.499253147785341689e-01,-1.018811899501137042e+00,-5.412364128625291038e-01
-3.658988622218208864e-01,1.183080302394686978e+00,-2.911147356409476972e-01
-9.031105236025520622e-01,-6.187864744317799204e-01,-9.532478491435303347e-02
9.879367314211787710e-01,3.445587792088813939e-01,2.559952913905200744e-01
5.180430782439574555e-01,9.582551562735963646e-01,5.600103739392254809e-01
-7.183398992670849692e-01,5.678779067447835560e-01,-7.238509448821934811e-01
-1.036316412490159600e+00,-2.017458174049252539e-01,-9.908206431547663673e-01
1.076158029377294545e+00,-1.087067814811337740e-01,3.433715438166914935e-01
8.273397360006551349e-01,-9.654514732493387763e-01,-2.922861986633767950e-01
8.304066376317679188e-01,9.052234610625968791e-01,-2.138248793512936285e-01
-1.013239595848208774e+00,-2.284791966118943363e-01,-4.446644659614187312e-01
1.010331782409947809e+00,2.227735816437504401e-01,5.048633473000576632e-01
-3.348256159789792519e-01,4.038413946724581649e-01,1.021529764576093458e+00
-1.763708625837450417e-01,-1.066839647273523317e+00,-4.070100080011407884e-01
4.501056620746647363e-01,-1.288995968716302398e+00,-1.553136659946490437e-02
-1.114826608686758869e+00,1.395048542369604905e-01,-7.851826230065833689e-01
-2.044323703610676640e-02,1.109439701560039016e+00,2.699851491852768848e-01
9.600083480895067745e-02,6.157186393014666415e-01,-8.482733328756316693e-01
-7.829123772350271571e-01,-7.535421527623873406e-01,-8.882892834972982987e-01
-3.334693807631270435e-01,-6.920162448227222818e-01,-8.438143969260273325e-01
3.120833261866786668e-01,-1.333841712396861112e+00,3.539598667849856023e-02
-1.039289848804647809e+00,-4.786047713513964796e-03,4.978560622625750609e-01
-9.768449001634150752e-01,-4.629089918955495708e-01,-1.241014217356832594e+00
4.576017529251026894e-01,-8.784882887996910972e-01,5.043299890646828487e-01
-8.377170530868764953e-01,-7.824307333234911122e-01,1.915031349066610433e-01
-3.674156602030596575e-01,-5.620443452682341023e-01,9.583561699849508786e-01
8.136320084054307622e-02,7.394327635106430485e-02,-1.295714645044053981e+00
-4.163895274332512497e-01,1.133305188667089514e+00,1.989922892705330570e-01
-4.644426119577670931e-01,-8.648770835150080272e-01,-6.613255751770062973e-01
-8.924666339539424342e-01,1.180178721108723350e+00,-1.786191291509628132e-01
-8.705626963057249146e-01,-7.121156987294466889e-01,1.774389323784826000e-01
-7.796018848897507958e-01,-7.495173275611265173e-02,1.462872827728107339e+00
7.162828170195641997e-01,1.370310035804594095e+00,-1.496757872947420687e-01
4.607580757365936641e-01,9.795536512912579319e-01,5.411880854376037719e-01
-9.053067352668827672e-01,-6.933736589213377322e-01,-4.392270675704639249e-01
-8.980192041208232556e-01,-4.361317302281991215e-01,-1.253398781653267013e+00
-5.557905399405025371e-01,-1.573582113480059830e+00,1.634525070352970677e-01
-2.767831177315398516e-01,-3.366753681952557864e-01,1.107865009250619703e+00
-8.769458516024998262e-01,5.504310636783439348e-01,7.635678537946273270e-01
9.444168243719597289e-01,1.035696991700308378e-01,-1.477452384968317434e+00
-3.006970970605113425e-01,-1.030143990764287310e+00,-4.385524875416235147e-01
2.100510389903732233e-01,-1.044419537994294211e+00,4.227369047082331077e-01
-1.146634512017349561e+00,3.781549161935331971e-01,-3.702674266396509539e-01
-9.556775700124041650e-01,-2.507398928371699087e-01,-1.338892799293953662e+00
3.255495641791710804e-01,-9.962598560557852645e-01,4.448000416479951369e-01
-6.293486949004170050e-01,1.157265092217920843e+00,-2.374138676498124545e-01
-1.119072963377783836e+00,2.112164856976935234e-01,-4.116590693032373682e-01
-9.295823789735788711e-01,8.629263519478953537e-01,4.125315152615313119e-01
1.059547387428545928e+00,-9.924936887674775665e-01,-1.929275311659008896e-01
-8.098744839614655522e-01,6.969701509540530138e-01,6.007172771849590420e-01
9.735332629912781810e-01,1.372457020248653015e-01,1.238972522025413303e+00
-9.542471314353900835e-01,-1.653097841545428659e-01,1.134259770379967058e+00
-1.075538522945628683e+00,1.405314812865057772e-01,-2.347669334588456669e-01
-9.476605462449418926e-01,-4.798153812240378846e-01,-3.066772335652497294e-01
1.193438901427281928e+00,-9.937540948963150544e-01,-1.374566396694567316e-01
-8.371722800186497393e-01,2.079154393919755428e-01,1.146717601571600742e+00
6.884406936834905899e-01,1.072167722833652359e+00,4.592582400907469498e-01
-1.875345371756211854e-01,-1.254935180677298368e+00,-1.845711531206842282e-01
9.855141275850334281e-01,1.353655138114486511e-01,-7.349451880854609431e-01
1.205841951226039432e+00,-5.965309117418065021e-01,4.981173617298069178e-01
2.969552661806276750e-01,-8.446490344329823374e-01,5.788763138529217089e-01
-1.050969239267851574e+00,3.088408201643107198e-02,1.898396323117809148e-01
9.983021691682153476e-01,3.389189160978317017e-01,3.571750952076296337e-01
1.998225498615706919e-01,1.250050911197692904e-01,1.381843430084551905e+00
1.118739152310994411e+00,-6.637447218979167785e-01,-5.680629620409413105e-01
-7.980238823093892542e-01,4.816066182169823073e-01,8.590795589357761441e-01
-4.131218874995889467e-01,6.360776604898060738e-01,7.554292516690184200e-01
-1.077954731689148460e+00,-1.046071999707305494e-01,-9.511259475212634484e-01
9.451483675362268855e-01,-5.596305647105295211e-01,-7.203010691754938577e-01
-1.035490534336922952e+00,6.806884901403870147e-02,6.770939428256705916e-01
-5.394946295759432964e-01,1.069084134971648448e+00,2.109081324482252884e-01
3.719023768015669029e-01,1.022981179437247201e+00,4.948571558160159700e-01
-5.116471668666224826e-01,3.856244112749117048e-01,1.005613569809922447e+00
8.661739135282487956e-01,5.575928114179234951e-01,-8.800747728328265351e-01
-7.395272334990935503e-01,1.163765256263260994e+00,8.375994513645956818e-02
9.037866628270867508e-01,3.948974308584419779e-01,-1.048501080788635020e+00
6.125853365517505145e-01,9.688433186572185107e-01,-6.920537298666790127e-01
3.074191201196291856e-01,-7.142078916104177555e-01,-6.761707059297393796e-01
1.070697722587683032e+00,-6.850045548686076180e-02,2.955571915407131933e-01
3.795628979179669904e-01,5.575979116124077928e-01,1.032243483835458608e+00
1.022875364815634347e+00,-3.685344714380910103e-02,2.738154909440107532e-02
1.193260600645194902e+00,-5.435339578450093523e-01,1.950221653178329517e-01
-7.040219415728211638e-01,-8.615999643460230117e-02,-1.236356501755131010e+00
-9.725310781386328207e-01,-3.560597646619017009e-01,1.945268401463548236e-01
1.163013133058816040e+00,-5.225546979864751362e-01,-3.144653100822830116e-01
1.055975200307165185e+00,1.700951038091035594e-01,8.911098198885183397e-01
7.408310485295556136e-01,1.356812180778666166e+00,1.403618772212139598e-01
1.193448622166692452e+00,-4.849092474782769058e-01,5.638094711833757655e-01
-3.301839600761438120e-01,8.316321862409480348e-01,-5.697509752590967924e-01
1.136938719355064631e+00,-1.084891223673676741e+00,-8.938660077837823348e-02
-1.983751648543506131e-05,-6.298027715181878650e-01,8.162372771508257241e-01
2.427792073186398336e-01,9.417581694866412612e-01,5.368667430342818347e-01
-9.307301715806964859e-01,-5.880270924885029338e-01,-1.834145260877610983e-01
1.257899560750168844e+00,-9.195328649586377301e-01,-1.306123196062826571e-02
5.712521828991184991e-01,5.902081191539337857e-01,1.000369101099477742e+00
8.122094565175467240e-01,8.836911839167506111e-01,-4.732709075535927457e-01
8.181034285968132869e-01,1.040000910922352695e+00,-1.556995202186016169e-01
-1.083608417647490274e+00,3.383719289191457480e-01,-7.937066921543839415e-01
4.986333101495251663e-01,-1.332019839646593651e+00,8.840491750912041202e-02
2.398448248016712692e-01,2.735871188158907064e-01,1.310567603695833583e+00
1.126873223011208625e+00,-1.011625435950998853e+00,-1.369240765923424030e-01
-8.666892942955181089e-01,-6.215437154606702208e-01,7.017606095845321246e-01
6.995271689911353175e-01,1.513794865627869912e+00,-6.286510606404742407e-02
1.148774134626560306e+00,-4.440225246623765720e-01,7.020250627559712076e-01
9.814756772132872120e-01,7.108369153599583545e-02,-1.189395723086420498e+00
9.877657949512596014e-01,1.827859427586791541e-01,-3.526019414193205526e-01
-4.197440496185163017e-01,-1.301453649988124184e+00,-1.723656186980952743e-01
7.123099633256141372e-01,1.441632697803962637e+00,-9.290098003894844969e-02
5.071419013470379600e-01,1.050526116960321721e+00,-5.889665871840803479e-01
3.153858359463451166e-01,2.864913973180199247e-01,-1.166338217286625678e+00
-2.419801462288565241e-01,7.795982331557981260e-01,6.104554971737468083e-01
5.683057618718602155e-01,6.482523964923318782e-02,1.255020342507388253e+00
-1.196033054884052538e+00,7.374810700526898133e-01,2.391956675848027625e-01
-7.870235247039685245e-01,5.032497555915551590e-01,-7.481444497810216809e-01
3.501958053781608626e-01,6.376951910897762366e-01,-8.822182738506526567e-01
-1.092500064021496575e+00,1.203583504249115643e+00,-7.738511656435652364e-02
2.571169712851624212e-01,1.520594791979711591e+00,-1.251343633431236668e-01
2.719847111627763936e-01,-8.747365392188554134e-01,5.560307402223710893e-01
1.101084409474583969e+00,-2.497749111720039827e-01,2.937167770432553282e-01
-6.417144825205638448e-01,-3.655469015515654396e-01,-1.306340352801953486e+00
-3.289113452300859719e-01,-1.164906839188403875e+00,-2.874775593570317866e-01
5.451521927831064485e-01,2.147160556764777725e-02,-1.438303156331085741e+00
1.137977218204849983e+00,-2.069295131494815476e-01,7.735689164082204528e-01
8.577272202792397549e-01,-8.350830329510940953e-01,-3.958975412117405335e-01
1.730386973595670341e-01,4.276452483632359747e-01,1.130639180878425298e+00
8.635697507473112378e-01,8.675750903032259931e-01,7.179294200445388574e-01
-6.148001826171857198e-01,-1.508096487026219457e+00,2.399713524108531837e-01
1.147705726700111617e+00,-7.194330449890421475e-01,4.985473599333926642e-01
-7.139049178683967156e-01,-2.108234736912021068e-01,1.312115287045683587e+00
7.441984005677825253e-01,-9.157383573878977723e-01,4.129143049351133299e-01
4.584614802507641085e-01,9.396376059483255716e-01,-6.737422641039662041e-01
7.123163299802788284e-01,1.350128758417946218e+00,-2.913196013951094288e-01
9.239556870232734642e-01,2.200480613396450236e-01,-1.211369853677788821e+00
1.078473255362473626e+00,-8.383127450997131247e-02,4.604600472700146607e-01
-3.958025980167168001e-01,-8.153377588549264310e-01,-7.134340846198380381e-01
4.907077587000653329e-01,-1.133421234355932672e+00,2.807423940230402426e-01
5.169806473516329604e-01,-6.787302006062573279e-01,-6.657615585768370536e-01
-7.584808608517030759e-01,-4.531813152075643281e-01,-1.252433199453006463e+00
-3.353887756722380709e-01,9.647383678635079729e-01,-4.589327612478709129e-01
-2.528066149933501094e-01,3.031645317931961903e-01,1.157447443458897052e+00
8.889084781567534455e-01,5.883615118634036856e-01,-5.847613194261104264e-01
1.135955871670991435e+00,-1.047818227600173069e+00,-9.725639441418822140e-02
1.147050557533962678e+00,-7.895949100775483398e-01,-4.279857588871636143e-01
-2.046494916668108177e-01,-9.294817915626558680e-01,6.066978013935214742e-01
1.845532231269771395e-01,9.979416971091389366e-01,4.502756435335208973e-01
-4.069589520508817837e-01,-1.337223127694318947e+00,-1.137155134059082140e-01
-8.242615395266238432e-01,-8.221961413828345888e-01,5.900616037204832187e-01
-3.661273138910876579e-01,1.295501176641418173e+00,-2.031225716496013745e-01
1.078875867056309446e+00,-2.946052950693214476e-02,4.054020553435714325e-01
4.526818773377916383e-01,-3.071732776944792742e-01,-1.115113825187837637e+00
-1.011426978853744718e-01,-5.399479617381636176e-01,-9.505508027615880984e-01
7.816804607334647548e-01,9.822055936631995943e-01,-6.391732524506317237e-01
8.994606868807436539e-01,-4.693580170908182025e-01,7.416348136710511074e-01
9.911510777448014897e-01,1.547765727562760985e-01,-5.529552758228888365e-01
7.883966121086271039e-01,8.663548385249016937e-01,-7.331043963344454628e-01
-9.014816159329965828e-01,-3.355748585996751743e-01,1.269343088883682302e+00
1.057750326094729632e+00,-1.895040796085996349e-01,-6.990521239946102527e-01
-5.222400455596911684e-01,6.582404771565109058e-01,7.198506633473221727e-01
6.871441052530566918e-01,1.260061882653918386e-01,1.258294132940810606e+00
8.326272127416992630e-01,9.643307582602079764e-01,5.939576841286996894e-02
5.377211058565435353e-01,-1.237876977182550853e+00,-3.146601214037390848e-02
1.021103929366269814e+00,-5.029691818336461395e-01,6.712493086189575964e-01
-1.276893601180854043e+00,9.873316527779455454e-01,6.927007043500181538e-02
-1.208362874148755983e+00,7.278302155048016475e-01,2.770410021337996187e-01
-1.047682557886917415e-01,-2.654477411334871806e-01,1.138808052523011982e+00
-9.204090895090362434e-02,1.102151295823724370e-01,1.435426427804758820e+00
-1.090874643341505745e+00,4.147001048918206867e-01,6.717274843809616369e-01
-2.843459072092767714e-01,1.334910682533099635e+00,-1.744852425409773866e-01
-1.075236072617199445e+00,1.382519415203512514e-01,1.429059131475058086e-01
4.711755110411687264e-01,-7.941442928222263165e-01,-5.689717614856005801e-01
1.119129709971021125e+00,-7.076454187134332274e-01,-5.239015137611778838e-01
7.133673307629080640e-02,1.092432496678842124e+00,-4.657805406018151184e-01
7.764147979049462744e-01,-1.157786656942770387e+00,1.930359900512573501e-01
9.059062621353729527e-01,-1.037065698389672663e+00,2.855144388779794484e-01
-8.082802777681126205e-01,-9.364421399419858849e-01,5.022428619342352851e-01
-4.918881810196902848e-01,-6.894540241020251647e-01,-9.108379568664611847e-01
-3.484445328940759534e-01,-7.805674834656036731e-01,-7.257277531450739838e-01
-8.794340293783580176e-01,-5.158097264251952918e-01,1.064098181966033563e+00
1.887914756401851968e-01,-4.919529704841010265e-01,9.033755709450680405e-01
-6.754976046755414298e-01,-2.567397591944001189e-01,-1.387342759367854450e+00
3.464959674260708611e-01,1.282931434258867576e+00,1.589693316001630219e-01
-2.403410482526726066e-01,1.704114754352465677e-01,1.351764941097275630e+00
-9.198446570555401935e-01,-6.030591365203218368e-01,-4.867217476951781197e-01
-1.062345535431851763e-02,-6.118018480085178901e-01,8.574007885921186567e-01
2.929910757294160728e-01,-1.524766875324508608e-01,1.152557925063157906e+00
1.024673783106098135e+00,-1.058859264508697828e+00,-1.289528604622462993e-01
-8.214471695826930375e-01,-9.379348027353112682e-01,3.209834332533715306e-01
-2.652180127926341835e-01,1.268213162880022837e+00,-2.269642043916808294e-01
-1.850710132052636736e-01,5.982150247697007872e-01,8.379169451614154607e-01
2.313037517490075801e-01,1.390011158504443234e+00,9.011434287886999420e-03
1.132656442388056739e+00,-4.472781055632947811e-01,-2.994722047433617251e-01
-9.913821208583799560e-01,-3.598642904497306172e-01,-7.527808439014829212e-01
3.990986729244864195e-01,-1.367256153994533152e+00,1.046619958367338149e-01
-5.283247761987127505e-02,-1.952528312399144095e-01,1.192404005375096387e+00
-7.950239395379197216e-01,-4.945953542988957841e-01,1.124758280242728947e+00
4.441209287305009079e-01,-1.314718729740013137e+00,1.675098777827057628e-01
1.070414962574291806e+00,-2.959687299781104883e-02,3.300729636970544112e-01
4.382888485577799420e-01,6.973795095592830728e-01,8.628805155029084517e-01
-7.483723323700787189e-01,1.177441308433381906e+00,6.273006062099713287e-02
-1.154293737538403919e+00,3.965491050323645128e-01,-6.336224204027197660e-01
2.720221578862713208e-01,1.091932310603854095e+00,-5.192944028054711225e-01
-7.712995737351268088e-01,4.017717859050701223e-01,-8.454625770828186893e-01
8.249663380143711366e-01,8.229378216268044000e-01,-6.266279032839272567e-01
9.995724257565765658e-01,3.310881365363863571e-01,5.520403898833066147e-01
-1.696403647225239453e-01,1.678393628786634673e-01,1.340830521334929415e+00
6.315210264070857393e-01,6.620899999074453257e-01,9.499353309734333006e-01
-3.605166399803748645e-01,6.268475103403905362e-04,1.418795525865201634e+00
-1.011529818230178179e+00,9.753614499312988906e-02,1.171359031835779829e+00
-8.313470663843977038e-01,1.178797397611477532e-01,1.255422171307737367e+00
8.735107475158557788e-01,-9.460931017295309831e-01,3.375038463762539687e-01
7.314985275454715108e-01,1.291318235750511745e+00,-3.842002353319647345e-01
8.722331588048183315e-01,8.095851962025565340e-01,2.843236744884418132e-01
-5.341008043187768228e-01,-1.102449762429196012e+00,-4.335919402145977375e-01
-9.627080655129761633e-01,-4.690982076100067566e-01,-2.604667010930191706e-01
9.510869550619498458e-01,5.572651093877926121e-01,6.823514262568004529e-01
3.001176061255926286e-01,-9.702881821897745285e-01,-3.965996308470590703e-01
3.321859660615553156e-01,1.019799779109396676e+00,-5.483548179338920692e-01
1.655897391348180869e-01,9.099304054278783971e-01,5.565965316919422312e-01
8.384531219335598085e-01,1.075540488259796978e+00,4.575375675114332075e-01
8.914737324683419395e-01,6.129580426941326765e-01,-3.825696705274458376e-01
-3.037786218604228150e-01,9.817937540754175796e-01,3.642948556451259257e-01
-5.858409774896474742e-01,3.937089579549049589e-01,9.930463965836341389e-01
5.259621310052253751e-01,1.265483955123050785e+00,2.316876074186794143e-01
1.961582842828310524e-02,1.291375604573454350e+00,9.214133784985904796e-02
9.326752986623981778e-01,-6.880838241380814457e-01,5.485396363281483945e-01
2.782210967916326494e-01,2.112375577139125882e-01,-1.213440678354622104e+00
-1.871966064870534685e-01,9.050125356745956917e-02,-1.206986214797414414e+00
2.235738125037061985e-01,1.308527458360868145e+00,-3.004349826380323663e-01
1.739017512377209196e-01,6.292989931988619556e-01,8.803308930120613551e-01
7.008446164008819146e-02,7.938939739646113658e-01,-7.069512570189687706e-01
-8.638286115687145994e-01,-8.886639271113292438e-01,-4.391310221856910556e-01
1.154777591484647647e+00,-4.677334956498381824e-01,1.543679726795734730e-01
1.642551865587514245e-02,-8.777140463603092524e-01,-5.346504665607254569e-01
1.770543097705303548e-01,-9.279861398472818435e-01,-4.375493684862440946e-01
1.178308662689789399e+00,-7.262416894523785471e-01,-3.523852959419820352e-01
9.417010180243635675e-01,2.077939957462378029e-01,-8.932106500302826602e-01
-8.540560876813345637e-01,-7.311022541518661377e-01,9.314394335479578846e-01
1.162666435488528771e+00,-4.126137420128793698e-01,2.560666808644967429e-01
-9.354959280726552473e-01,2.965419030471995732e-01,1.040290520198823065e+00
-6.650064728157163430e-01,-3.600372766024840243e-01,1.205263759240786214e+00
-1.224566302458363509e+00,7.273846784231152718e-01,-6.433698297465742511e-02
1.588645933758373874e-01,4.726223953718466930e-01,1.055130244445407373e+00
1.127800173642711012e+00,-3.868612842234451787e-01,-3.890834418060967748e-01
-8.949320500103623566e-01,-4.807086953556315989e-01,9.987883661964295223e-01
1.903273354356648517e-01,5.084346644298044504e-01,1.022976750640441690e+00
-1.746327762618607449e-01,-1.120106402385837141e+00,-3.096884750924988050e-01
-2.206528575925702229e-01,-5.262244995232537859e-01,-1.010826339117994355e+00
9.926897532699405780e-01,4.676310024562109757e-01,9.197444614813116148e-01
8.876265605887568855e-01,-9.097208516830691816e-02,1.049154499306396149e+00
-8.448901369838787145e-01,-1.628250059542021011e-01,-1.267581002859950789e+00
-8.825167569976270776e-02,8.168606301552803206e-01,6.115087420365151738e-01
-3.054147974000475663e-01,4.476288479363987882e-01,-9.099401399893152220e-01
-6.945203359065746929e-01,1.240501587399400973e+00,-1.546726106643545595e-01
-5.717494953477636477e-01,-1.507865935507172406e+00,2.371926216195152648e-01
3.743600265550168782e-01,5.743322252200646627e-01,-9.478487111166589152e-01
-8.577950525245494617e-01,-6.405172819210696034e-01,8.587199904689617469e-01
6.910445644383207409e-01,-5.261282171445341715e-01,7.647945520484882298e-01
-4.909964700769439694e-01,-1.203936958971998372e+00,-2.630277467525583557e-01
8.016577110594400590e-01,-8.809488164276716438e-01,-3.762473125060389334e-01
-1.992934788815724778e-01,5.546437597782626350e-01,8.484260458250187931e-01
1.188995562940942552e+00,-5.437667475705254549e-01,4.556080897104186067e-01
5.467507635337762739e-01,-1.256064571609395664e+00,-1.107878306493976540e-02
9.621038614419540336e-01,4.598791568958827125e-01,2.887344818271729285e-01
5.948698912701398944e-01,-8.669855663223086095e-02,-1.332595642616406506e+00
-4.037437301913712195e-01,-6.485178536995920284e-01,9.158660501307580581e-01
-8.780614297550957126e-01,-5.988570952321946583e-01,9.963048794635108729e-01
-1.963183829259080859e-01,3.671165797604470926e-01,-9.958150514123846886e-01
-1.164518938703154927e+00,6.595702236487190895e-01,4.632911728551269981e-01
9.435401324622150199e-01,9.713751573212761614e-02,-1.115607362005612391e+00
-3.812200535109950272e-01,-1.501458112670170097e-01,1.324980151047316035e+00
3.957064913705456155e-02,-1.254268518923043363e+00,-1.265902312598794766e-01
-2.178847576114310014e-01,2.180860223798850583e-01,1.280597813802402118e+00
9.873944394573948014e-01,-1.192174927305210907e+00,1.355579249026547528e-01
9.228928166454407611e-01,3.341854363790198734e-01,-1.038416809313852829e+00
8.371966434354558562e-01,-2.981127064254942005e-01,-1.045207524746088801e+00
1.080330777642057427e+00,-5.042362587497379867e-01,6.907185243119429163e-01
-9.067028991190474729e-02,1.240536386781809108e+00,-2.961927047494623544e-01
5.643240913442322260e-01,-5.256308587566375090e-01,-8.662107828829291867e-01
1.037352597550041944e+00,-1.368840523492577399e-01,-7.657566692435411326e-01
-1.013773687140930635e+00,8.363399834861549031e-01,-3.939996986498415787e-01
-7.421685274308976732e-01,-1.306966395587224605e+00,2.032972552742525474e-01
7.917998511172150700e-01,1.135562295622730034e+00,1.370211069701324780e-01
-9.689441872790296451e-01,-5.666063933442363476e-01,-8.571456359682672055e-01
-4.106864765636879938e-02,-6.895265582833318696e-01,7.905358044638649551e-01
-9.440596047244477207e-01,1.759346320750376225e-01,1.153509390750737440e+00
-3.213113207533919158e-01,-1.250976878742636078e+00,4.075774774097895570e-01
-6.779662313542142993e-01,7.759100938231774380e-01,5.252561655542357100e-01
1.006283040795598153e-02,5.299692612195775476e-01,9.627933816024053515e-01
-7.769854084034638619e-01,-1.135176801109252898e+00,6.670570835412846511e-02
-7.343037555393162608e-01,5.446128627062255534e-01,-7.155039671505083465e-01
-9.014457958362206424e-01,-7.433671230864535850e-01,-2.662022083815887216e-02
-4.958252464248964486e-01,-1.233286896903309504e+00,4.670794228785361546e-01
9.274102262606627178e-01,4.212486874911843260e-01,-7.830444162773247951e-01
5.540387122180764345e-01,-7.388067599317863499e-01,6.006615773174236450e-01
-1.020437386503193211e-01,-2.651284111988890801e-01,-1.292444732280680686e+00
-2.421274951836241418e-01,-2.996773414575495953e-01,-1.296802080368210097e+00
-8.651952151468929042e-01,5.417731301777740649e-01,-7.226004488831785366e-01
-1.136953693477721350e+00,4.159379780450384034e-01,-3.683969292626501635e-02
-1.248817941411082266e+00,8.661487463947142862e-01,1.288469884003367871e-01
-6.278809682201895725e-01,4.363993058457901197e-01,9.184086993145398337e-01
-9.074035650585606794e-01,-7.464265846140962779e-01,-5.118664584188797884e-01
-3.214942896074219347e-01,-1.618581996511009313e-02,-1.307309824809199883e+00
3.212348384218595143e-01,1.494077820738515472e+00,-1.854542305080721654e-01
7.436851713109585704e-01,-1.082978478628842112e+00,2.705237056659623995e-01
1.068027164025583398e+00,-3.224894483743420137e-01,-8.637980999343589650e-01
-4.966732147403628561e-01,-6.526415383486424693e-01,9.145002225600405987e-01
6.712199796146499642e-01,9.964291290697753212e-01,-6.887543924749927049e-01
5.812463267373557674e-01,-1.210758542190538620e-02,1.191881264491746917e+00
-9.336144390042527830e-01,-2.109060447671994576e-01,1.325198758206818539e+00
9.551101221198460278e-01,4.611741601998846085e-01,1.395334906517959883e-01
1.101353877923203717e+00,-8.597265680636121399e-01,-3.322123799260014998e-01
2.354162768493555380e-01,-1.098329810746900836e+00,-2.497088822661215068e-01
7.302376483937769169e-01,1.892442560031128984e-01,-1.346089723008567773e+00
1.001420859735387969e+00,-8.275961684315967792e-01,-4.243066040324938171e-01
6.441960803451934892e-01,1.381783580967264502e+00,-3.583935353724911343e-01
-7.111338803882411019e-01,-5.229628141916344841e-01,-1.122134500233996635e+00
1.802195433107323386e-01,5.952031328406923727e-01,9.361741159700244230e-01
-2.953072764492628566e-01,-1.013622581397279676e+00,5.818112282518246303e-01
1.083055066300721681e+00,-2.235739544841603421e-01,-2.944313930204780494e-01
-1.751425817902004800e-01,-5.988469963696776421e-01,-9.075176383184486717e-01
-5.722237292777473394e-01,8.238491626644607602e-02,-1.136256878810403270e+00
-4.177726255248352394e-01,-3.310183146150975642e-01,-1.266861957028347252e+00
2.693018195481164737e-02,4.741501397137103113e-02,1.378010673947624776e+00
1.792277194179405231e-01,7.641928317378096081e-01,7.350648753100642585e-01
7.208390413295373556e-01,-1.057827844179814666e-02,1.132816043048151533e+00
3.785959597599834470e-01,-1.293634869064548498e+00,1.937138417009030000e-01
-7.797122377837859553e-01,-2.798004736582311858e-01,1.290252166345923879e+00
3.666319371557267837e-01,-4.698134315776812953e-01,8.599029567821113718e-01
-8.327537820664644430e-01,-1.007397118871451891e+00,-4.511276182245927968e-01
7.560324897170734859e-01,1.080651901711035645e+00,-4.199341444386568978e-01
7.809958272125223644e-01,1.118274185025238898e+00,-9.845876397592716323e-02
6.932406635530155015e-01,7.682754592402669669e-01,8.213302118294331100e-01
-4.969663933536385136e-01,-1.450511922192882164e+00,-2.275007068961349202e-02
-8.947994422608140930e-01,-8.039438708232805597e-01,-5.707278132161253126e-01
-1.032261588645735584e+00,-2.449585267605753069e-01,-6.784605504619886096e-01
-8.544168025818110745e-01,-4.349148581118995605e-01,1.177909032059677230e+00
7.825587062033672048e-01,1.011660530665719815e+00,-6.121618344258282773e-01
-1.112752436776498044e+00,2.004354335745154869e-01,-3.691877329251587181e-01
8.350238924295353415e-01,1.035118229367796294e+00,4.526023995424483526e-01
-1.066814699764283114e+00,-5.702476321137273096e-02,-8.662983918146260898e-01
-1.888172710461881454e-01,8.296212726506764223e-01,5.822233163968099090e-01
-4.224500708019200967e-01,3.358223021145035903e-01,-9.528582107171906790e-01
8.735070614862181504e-01,5.442198346915543272e-01,-9.865124286227208161e-01
9.404882194414489194e-02,-1.191051047618298275e+00,3.588299708997637616e-01
2.283459543753829091e-01,3.845763323565693503e-01,1.167518063060275724e+00
3.327916189714395512e-01,-1.944787120420306270e-01,1.116814726464959051e+00
1.116507065873857840e+00,-3.511031065896192405e-01,-3.127522157878335762e-01
-3.605676553126770378e-01,-7.500648299279282227e-01,-7.762707795498037244e-01
-1.016675291793376346e+00,4.717885119422422502e-01,8.335703883781647727e-01
-1.148401850789907419e+00,4.541379218434951626e-01,1.960179500407224218e-01
3.353566185490759466e-01,-9.261845668855857028e-01,4.878197797638487709e-01
5.904070371498240100e-01,5.185558798027507521e-01,1.078622833150852056e+00
-4.876522129184248655e-01,-1.478240241545238698e+00,2.083047276264766642e-02
-5.552792467352855033e-01,-1.143240716993169093e+00,-3.479588569321114822e-01
8.572716176822373635e-01,6.975621077549762905e-01,-3.812763183150882917e-01
4.300151214012966627e-01,-1.254312952295453254e-01,-1.357862360917222455e+00
-2.524984150935040694e-01,-8.892773378443150634e-01,-6.428594329633144921e-01
-3.101777449258935615e-01,-1.470484090604286420e+00,6.452898540034159025e-02
-8.797069364562474236e-01,1.198093948174330792e-01,-1.022193726765304289e+00
-5.651795959125665014e-01,7.888942664889309064e-01,5.307677536953508968e-01
7.229091084296548342e-01,-1.201978435724320393e+00,-3.287684492152159049e-02
4.520111634932059141e-01,8.031128768263263717e-01,-7.821483616997972899e-01
1.088305287626541995e+00,-1.643365157796248532e-01,-6.555041829681701460e-02
5.505077797357761371e-01,8.281737452968807034e-01,7.470487627955596510e-01
1.036375761162452891e+00,-9.903093090685296529e-01,2.670747515167923858e-01
8.741106935830718072e-01,5.635634475712376634e-01,-8.855782996967596077e-01
-1.770970045376539515e-01,9.425344437050822144e-01,4.442151737493326702e-01
-8.631592446463980384e-01,-6.986445611635360153e-01,3.203038102916463958e-01
-9.036052179457925160e-01,-6.002034766947454969e-01,5.382533341371436436e-03
-6.426782672991172563e-01,8.285403286901861231e-01,5.027250026864980015e-01
6.216354300512300091e-01,-8.411823673273829960e-02,1.115470213966612389e+00
3.146843940486903635e-01,1.023620737119538271e+00,4.643679237354651490e-01
5.488292083481728367e-01,-1.482144630013681463e-01,-1.271205005025505708e+00
7.389046049138269234e-01,1.225984748436848903e+00,-1.728745957316862591e-01
9.356774116518653539e-01,6.623997809928792169e-01,9.983515683957856490e-01
-1.008174855291072536e+00,-3.835980296482337515e-01,-1.146412694503094354e+00
-4.639579113754130346e-01,5.660644651872966948e-01,8.347175100210991738e-01
9.909579012498823669e-01,2.245712065243432032e-01,-1.179791439386468875e-02
-3.367020468657188070e-01,-5.105251972454466491e-01,-1.049277969517275366e+00
4.264102086435532235e-01,4.398217637735670205e-01,-1.052759944440307738e+00
5.847351122687195479e-01,1.255784398021485115e+00,-4.297237817794560821e-01
9.286086700896044599e-01,4.707736894446567510e-01,-2.029640794142706373e-01
-1.259094257981540066e+00,1.099870655654348717e+00,3.969641551345857999e-02
-2.674560642896695040e-01,-1.392643217337118933e-01,-1.417719819444747120e+00
6.590433590677816644e-01,-1.247475520897401102e+00,2.062817608120064844e-02
3.779566046853147787e-01,-1.114065846822018369e+00,-2.044376228705945542e-01
-6.713915798931325840e-01,9.163887792754317196e-01,3.607129289825506957e-01
1.087514081428924584e+00,-1.992213083325828638e-01,2.804525737192408164e-01
-5.763967471636711748e-01,-1.162536125413715649e+00,-3.404058936613029718e-01
-5.871629570879191018e-01,6.283300820981921886e-01,7.485856183732549907e-01
7.290131745516598150e-01,1.190711842408450183e+00,-5.436930793614381807e-01
6.823730924044767165e-02,1.075930410026555428e+00,3.564988979410781966e-01
-3.281680006935882021e-01,7.477307352977914379e-01,-6.442330772788681381e-01
1.203862872619154839e-01,-4.139003802298821255e-01,9.710336442487549347e-01
7.955650103008664320e-02,1.487149307445425173e+00,-1.036053436795457555e-01
-6.889249198882494429e-01,-7.609992998357707483e-01,8.840646984684247256e-01
-2.408389358141897474e-01,9.540969242477970180e-01,-4.945386299943192454e-01
8.186244756583765936e-02,6.573173493161983405e-01,-8.269320781526358077e-01
5.776520247342616932e-01,-4.260703776702884360e-01,-9.327191239723635618e-01
6.136913444960300223e-01,5.135158853452894689e-01,1.129080569534411271e+00
-1.063433654962461228e+00,1.756816096114951486e-01,1.096691207656609601e-01
8.778401231552313000e-01,5.737588047895773036e-01,-8.017101239587626216e-01
-8.611487607095688057e-01,2.419094993663423454e-01,1.121440728429136335e+00
-2.063532268902621702e-01,-6.366771265886436715e-02,1.329221627457252364e+00
-3.424699517838931673e-01,1.001796320198979351e-01,-1.166918173388821645e+00
-1.127121942625234130e+00,1.593849185823281445e-01,-7.676709027520640660e-01
-2.411790526307155125e-01,1.135343663723014540e+00,-3.520204011716394632e-01
-9.657088908762780921e-01,-1.549184277595131720e-01,-1.242134063699550373e+00
3.540005566807200021e-01,-8.414262551048552474e-01,5.645459566103800952e-01
7.811745796178438672e-01,-8.396894387260912529e-01,4.634922330756200970e-01
5.743173458648982432e-01,-1.184240739884794724e+00,-8.956232388977841685e-02
-3.449987048173048798e-01,1.094592107650740997e+00,2.425159901193510992e-01
4.504883599772200320e-01,2.217469810014770573e-02,-1.410217772786367840e+00
9.155343055553082365e-01,7.610758571557703078e-01,7.014430938647152614e-01
6.736446625370843266e-01,-8.397767434782897888e-01,4.990140007463096938e-01
-1.135956618764929926e+00,3.682793383875260784e-01,-4.157005157068928147e-01
4.521085674469516591e-01,-1.269508088581301486e+00,1.984922374808692491e-01
2.534084671851533077e-02,-1.323967245484668709e+00,-3.436594524255232042e-02
1.017699999369040764e+00,3.053632657278157470e-01,6.887256401624638480e-01
-3.107377058773511114e-01,-9.715244363376808190e-01,6.311963193216174606e-01
-7.126581956732713774e-01,9.155361450172085080e-02,1.296176336315375766e+00
5.420221667408232635e-01,-3.093420545590332971e-01,9.793203820166348494e-01
4.820640436010588670e-01,-2.599814598427934234e-02,1.206684364487937922e+00
1.084438561810816770e+00,-2.512941240271941989e-01,-2.071153498236673052e-01
-6.408983484603906211e-01,6.812533341340488713e-01,-6.291445495375813657e-01
1.048896560056976179e+00,5.127083083707374700e-02,4.859331340835000845e-01
2.294657620336600645e-01,-1.359973596256184525e+00,1.447425423992348970e-01
-4.799995716084686226e-01,1.076036246633401472e+00,-3.253991405836839657e-01
-1.119196891218672274e+00,3.415134667813630731e-01,8.558761647210103019e-02
9.758336700121473806e-01,1.169643880423471977e-01,-1.057558821937624405e+00
-1.492985506756044911e-01,-1.288302984124235495e+00,-1.191695328223773276e-01
-8.175633710697488565e-01,-1.869696198907784823e-01,-1.287449411070635374e+00
-1.406705376698095811e-01,-8.562590467316735232e-01,6.751761752296120411e-01
-9.405603791682811687e-01,7.121090807409014012e-01,-5.176709489208578541e-01
-9.627382969563842430e-01,-5.056644103370903087e-01,-5.172454458183455284e-01
4.504839670583464795e-01,8.596256333876904909e-01,6.780919651301329232e-01
-7.469056515331394808e-01,-1.202823411467076165e+00,1.255448068744944023e-01
3.746411150229874698e-01,1.324655488860789099e+00,-3.417615961246236456e-01
1.015298611056231204e+00,-1.012527614342007172e-02,-6.937735557592613622e-01
-7.857351802357350756e-01,2.282115182555052857e-01,1.138873400902376876e+00
2.952940393679652775e-01,9.217874620141428554e-01,5.587540985083958578e-01
1.046689724931742838e+00,-1.453598074134637708e-01,-4.372738248389312354e-01
1.024587553517280147e+00,5.017364934926382691e-02,1.156608865099538752e+00
-8.837674036561725677e-01,-6.268549998202912477e-01,4.615538863335684194e-01
6.609561232863142566e-01,1.586748866243888889e+00,-1.939159816054119856e-01
-5.708583728175561367e-01,-2.980098309109001642e-01,1.235694127972660317e+00
6.484882000071278130e-01,6.604738679123635103e-01,-9.480795745964921695e-01
-3.587816125651681065e-01,-1.975646887299264409e-01,-1.391061136769594420e+00
1.174908201100759664e+00,-6.383372639661218928e-01,-4.592730018613598308e-01
7.868443902414715696e-01,8.228858017370818123e-01,-8.276516431616623981e-01
3.579781601656843448e-01,-3.634802821723751021e-01,-1.079051612764597268e+00
1.058678539486474612e+00,-2.544375852148671457e-01,-1.019591022348142806e+00
-4.177413904072480588e-01,7.760759732181973236e-01,6.027763731920177115e-01
3.166516606347005158e-01,-7.744783908540483486e-01,6.281122966356623705e-01
-3.734882747521207080e-01,5.301105566027087823e-01,9.002707567026582147e-01
7.283053433498207774e-01,1.349351704599209389e+00,1.528013359079901101e-01
-9.638323349355250036e-01,-1.289792068740807686e-02,1.225200999030187976e+00
1.152428128862075685e+00,-5.552779104553832168e-01,-4.393251746304301375e-01
6.792939961100593615e-01,-2.235832941836650711e-01,9.888780586245388138e-01
-9.892477916660034065e-01,3.759255254032039736e-03,1.047827372289475534e+00
-2.687713054808163471e-01,6.309136653991372079e-02,-1.229937665649891043e+00
-3.321427688628572072e-01,-1.787411813043662534e-01,1.269875301557781277e+00
-8.382943703540707281e-02,-8.728860072989410579e-01,6.454156336891191392e-01
3.573005316010894883e-01,1.387314101834670854e+00,6.087737365645219667e-02
2.564585910285869241e-01,4.896253916059398192e-01,1.045090555576388081e+00
-1.025184276800866323e+00,-2.720300832685519921e-01,-9.255680934628320866e-01
1.133466286995912675e+00,-3.274460400292295015e-01,4.946636594968860656e-01
-9.559411410959465227e-01,-3.004613877067011662e-01,5.473061017376480430e-01
-9.443316358745627026e-01,-5.459767785718071531e-01,-5.639403816576518125e-01
9.642511342509273442e-01,-8.055018037984421619e-01,4.676137053383101483e-01
8.307469525822841483e-01,6.862838907239920960e-01,-5.222843358067208452e-01
-2.947383879321823774e-01,-1.255590699232867369e+00,-1.836290213863821241e-01
-8.309365379467124058e-01,-9.226136069364920811e-01,-2.183214808253264305e-01
-3.698486030032030469e-01,-1.332309394851794337e+00,-1.183148267813279586e-01
8.723957243482737267e-01,7.723101740431352891e-01,1.423493192335500424e-01
3.477810572179205750e-01,-5.038911676078809965e-01,-8.855857730579046461e-01
-5.764969806047579581e-01,-1.264553431864345434e+00,4.451232746073431890e-01
-9.756886453872807285e-01,-4.896979344541688706e-01,-1.115173200270899612e+00
-1.190549287992442196e+00,6.717749747833748897e-01,-2.925411369940363882e-01
2.189016625299649299e-01,6.856965055560777511e-01,-8.344672092704739086e-01
