6.478538163492163271e+00,-1.296799636617055773e+00,-7.443778956502387911e-02
1.781032789730648602e+00,7.181169705024456063e-01,7.565640998226602854e+00
4.381732691645878752e+00,-6.017240062592498440e+00,-1.768302470621741618e+00
6.972546781422345852e+00,6.134591712611766612e-01,-2.008849766035714968e+00
-6.021694180844741950e+00,2.037270129219847181e+00,1.659271227563740236e+00
-4.228854114888627613e+00,6.345098296602985855e+00,2.903217825196902968e+00
-6.946890381207607490e+00,-1.397540842282714468e+00,3.983055097472839368e+00
-3.734820081430963334e+00,1.362358301198814958e+00,7.392904133629230934e+00
4.244398557994051302e+00,8.457504387134222590e-01,-6.504387775370586766e+00
5.094954528924040993e+00,-3.756689618196258795e+00,-3.741212395978070315e+00
5.129249049170879537e+00,-3.665248073943047302e+00,-4.354346022150870965e+00
-3.682756786644101887e-01,-5.365069499163087841e+00,4.775135876547200731e+00
4.025042976295205577e+00,-7.517893820831990759e+00,3.993853160698882743e+00
1.957693402944714167e+00,-7.414691840120323896e+00,3.845803758941741535e+00
2.743602048718024822e+00,2.546288014005872527e-02,7.314236049950132212e+00
6.797461053918381069e+00,6.330670118304805527e+00,-3.789376720902189799e+00
5.189894803260842515e+00,-4.588539533360894040e+00,4.288932081844847310e-01
-2.366781740794416056e+00,-7.004795883876030693e+00,2.527640419056899623e-01
-5.657460118529771265e+00,3.313045979966591226e+00,1.137200704900782622e+00
-1.261232828179824850e+00,7.223422993015939930e+00,1.826994645196286626e+00
-2.081047561543626134e+00,-6.372172394989205735e+00,4.031102442469784108e+00
-5.171262666264787811e+00,-1.876520582597391407e+00,-7.321292666116869796e+00
-1.033908444416280048e+00,1.420330306442023183e+00,-6.642295610288467600e+00
1.797716008135400168e-01,-7.239893706417359631e+00,3.792099031490015371e+00
6.847530124293825793e-01,-8.394564524520561122e+00,8.768494815249723295e-01
3.747741113681537950e+00,-1.570239221010688579e+00,6.645332021546510148e+00
-4.696168903006627260e-01,1.643991177297919215e+00,7.785470270409182270e+00
-7.451972832451176032e+00,-8.278864634512513865e-01,-2.817321410324034048e+00
-8.304771063616056992e+00,-3.508632820430757970e+00,4.303546643434666974e-01
-5.494490458348062489e+00,2.406310709633367129e+00,5.815425334741240349e+00
8.101981903118888440e+00,3.224212840403171576e+00,-2.037164194180644261e-01
-5.982888320455034048e+00,-2.766495107457360714e+00,-4.625756738965703718e+00
3.289798085668549366e+00,-3.560968406105076145e-01,-7.123837438563423774e+00
-5.339763310545674990e+00,-2.669939559315229971e+00,-5.514655967884326770e+00
-2.244815310987708035e+00,6.699417545326408430e+00,-4.267536872659015046e+00
-3.536724119246607678e+00,6.200291370626850096e+00,-4.597331857008402523e+00
4.729963783874469918e+00,-6.769278766308335804e+00,3.729441230691565856e+00
3.045645803738550761e+00,2.912278728164507946e+00,6.991816330554025960e+00
7.063284226893631335e+00,6.154219636519715486e+00,-2.856099944028971827e+00
-5.325321775920317968e+00,-3.645358726536318983e+00,-3.721662570796713254e+00
4.447589324083460305e+00,6.092244519157351768e+00,-3.825290614979055537e+00
-8.078093671419319222e+00,-2.083763284768947344e+00,-3.601194412491138142e+00
4.035665549956181763e+00,-7.210675812111671412e+00,4.052334081127391130e+00
2.859584657412406195e+00,-1.366891685107370025e+00,-7.693549207944594848e+00
-4.202858238950136993e+00,6.750075666666055518e+00,-2.496405974465289428e-03
3.564464104537683475e+00,-6.522789302455164195e-01,-7.268073851580084899e+00
-5.839438444866610567e+00,4.446293084335093404e-01,-7.455073308614569072e+00
4.824284935769797222e+00,7.200969665880811554e+00,-2.902292220428309477e+00
-4.704355149439599870e+00,6.209767312933705874e+00,-1.167083463281968658e+00
2.614255202269103240e+00,2.976116739555046742e+00,7.312801980738893093e+00
5.359643348088382275e+00,3.540490160090802529e+00,3.692522794325561186e+00
-5.081232504779874759e+00,9.887528956285154269e-01,7.176105824469703798e+00
6.904987589004024429e+00,-3.666285858627315042e-01,2.474201503876635844e+00
-4.355362810836309606e+00,-1.552714424575684315e+00,-8.176074977172069325e+00
3.112086163803509664e-01,1.126663186809861550e+00,7.633529533408351497e+00
-2.822691752375822150e-01,1.173946913861464436e+00,-6.670604422731766903e+00
-3.943515567521223897e+00,7.268258466670960871e+00,2.442362194664217334e+00
-4.540065766218593701e+00,7.233756874642399026e+00,-3.663298142321257167e+00
-7.867117998289758773e+00,-1.695997961423220790e+00,-3.300834328962699349e+00
6.628241370440260738e+00,3.826753984380802942e-01,-5.018278641063149692e+00
5.544933069430106443e+00,-4.766927374540264495e+00,3.897657672784333283e+00
-3.117660401516848090e+00,-4.676982236454093389e+00,4.696480384924986318e+00
-5.021806761301712996e+00,-1.171722267727043576e+00,6.073458455982233772e+00
-1.949856937538997137e+00,5.672823152845903216e+00,5.602584231677112392e+00
-2.290899852481115939e+00,-7.097460145044377278e+00,7.022685220718796195e-01
3.865477218915932323e+00,-4.737440411436240950e+00,5.267320070223299844e+00
-5.493621189456925791e+00,4.329904410828048000e+00,-1.891442168961433801e+00
6.931481839628236941e+00,1.324010150274072650e+00,-5.250952421752681509e+00
2.124150687067246857e+00,-7.120508696034683283e+00,3.936836083302010181e+00
6.871251170431369459e-01,3.711869379814385361e+00,-5.388489215803683230e+00
3.458486943222011334e+00,5.380888918044941072e+00,1.578092526044674093e+00
-6.153431113206638159e+00,-3.104610778658041248e+00,5.194711974706155644e+00
-6.939354527532176853e+00,-8.003060925811166237e-01,-7.905976325247789482e+00
-6.416826035287023444e+00,1.777143664929206945e+00,-1.330449765345165680e+00
6.483551775452838228e+00,4.823004081690685396e+00,-4.567709882180643000e+00
-6.061844899040400136e+00,1.205102965146672034e+00,4.273472499590488027e+00
-6.759500099150519858e+00,-2.318974135371334899e+00,-4.697665576605027482e+00
3.686037464131469488e+00,-7.726347406502932280e+00,-2.365695884120240677e+00
-3.552501624192846208e+00,5.632738599377923094e+00,7.590193034186112797e+00
3.695837680151507154e+00,-7.529080886866974964e+00,-2.315991700176513568e+00
6.339035064515456064e+00,-5.332851720673217333e-01,-3.524065216618768037e+00
-2.677700443306313627e+00,-2.674993043785728553e+00,-7.981975324106841185e+00
7.509172156066802550e+00,3.039412930903424015e-01,4.041467541832616028e+00
-3.157293409632249137e+00,9.152414345644386273e+00,-6.319097243364284189e-02
7.255518163242546059e+00,-3.572038567335349968e-01,7.412342377455962250e+00
5.610516194751657082e+00,-3.835046324903832460e+00,2.064613698223835669e+00
-4.686540499428288875e+00,4.119981321550129749e+00,7.351549832445664734e+00
7.325533124127608930e-01,-5.215892876754888441e+00,-5.602747976710197975e+00
-6.116602779125845935e+00,6.610186692053663382e-01,5.727384212256611207e+00
3.151022530651530928e+00,-4.719503553366461546e+00,-8.612217956026087862e+00
9.006798549276201493e-01,1.168784498257700477e+00,-6.425386778900850082e+00
-3.541655681869745553e+00,7.332596885846816015e-01,-7.062564472655271430e+00
7.178993975641616565e+00,2.519470665285770128e-01,-2.202550296232275162e-01
5.719075242271135728e+00,-2.043190649983193108e+00,-4.481351437342896205e+00
-3.220757841285927459e+00,7.442513845536433692e+00,3.137322113796236600e+00
4.278569913709435291e+00,-6.050220574107425975e+00,-3.710268196381567574e+00
-6.352522907332721624e-01,7.070772646482852863e+00,1.986101681840397148e+00
-1.040199867602888517e+00,6.143349005383559991e+00,4.109885870907642236e+00
7.228086021374468650e+00,3.193793953562242827e-01,2.012897653405417042e+00
6.242945849502270939e+00,5.355233363429944937e+00,-7.573881470308091446e-01
-4.053954990767793198e+00,7.687314614054614026e+00,-1.360716021140649934e-01
-4.502091058096433507e+00,2.919150146048911099e-01,6.991240632213213679e+00
3.899747750118775613e+00,7.270908956372001519e+00,-2.531739058862694236e+00
4.391444740978379002e+00,-6.098318756371114979e+00,-1.789623409008847199e+00
3.621968047366680654e+00,2.091703550764833608e+00,-5.794502211938149294e+00
-1.638538151965671430e+00,7.405550466779400764e+00,1.854680554511785928e+00
7.578727566271258098e+00,1.854852416605162202e-01,4.133260236455152281e+00
-2.384754411410737962e+00,9.223450784891179310e+00,-3.186422657625875843e+00
-2.754206237927091738e+00,-7.782325266226699512e+00,3.276019574810940416e+00
1.961262340843108465e+00,-2.922561191006261549e-01,-7.140862807018029557e+00
3.300254918093436185e+00,-1.023553497387317535e+01,2.604078435391161683e+00
-5.774825316026287680e+00,-1.115681634902261132e+00,6.323775758519279755e+00
-3.755313027178119434e+00,9.167341059560298877e-01,7.202205355450925772e+00
2.434380119629140360e+00,-5.736416352377739614e+00,-6.280111600024556928e+00
-3.828004347825690434e+00,7.749074211011284241e+00,1.215223987249244741e+00
-2.828937829040446328e+00,-4.098956264726041354e+00,-4.813984085795426360e+00
1.618069798705819462e+00,-2.763031769443851982e+00,5.969214437167074117e+00
4.248171002652384232e+00,5.368821867077808285e+00,8.873098354400634769e-01
5.190873984962524723e+00,-5.853527480390707360e+00,4.810931110830153123e+00
4.344017933656274977e+00,-5.740561696365465316e+00,-2.880619222397158286e+00
4.665638110143722983e+00,-5.763388837364083805e+00,-1.715285258174037986e-01
-4.900590799354903382e+00,1.901251740030975412e+00,7.791655588762557372e+00
-6.906471500589717039e+00,-1.093364339675536145e+00,4.967421577858672777e+00
-1.876587311516146883e+00,-7.678445579278260880e+00,1.386122476323358610e+00
-7.179971198434045299e+00,-4.257543946373249177e+00,-6.756313613096354143e-01
5.103646228951662644e-01,-4.776425540179388030e+00,5.053503389676649249e+00
-3.799436601532541147e+00,8.269729518393583945e+00,-4.784262846231938648e-01
1.372075255556977291e+00,8.141059385648990343e+00,-3.450797280294203961e+00
-5.676072448257630576e+00,3.123302189862921185e+00,-6.185695592058471526e+00
-3.725748945469185003e+00,6.211705373081264359e-01,7.095201792746640201e+00
-2.080803499939308132e+00,3.170096619435307517e+00,-5.739543943702408946e+00
-6.100266926483227437e+00,3.255134675639403063e+00,-4.463002046854990468e+00
7.768469024203199069e+00,3.357117467393321508e+00,-4.546637220517063760e+00
4.211742375165116847e+00,3.134266243043382971e+00,5.502475603494069389e+00
3.368996634242110044e+00,3.683417218728554765e+00,-5.253909144057666403e+00
7.398101177920438865e+00,6.349284231905705234e-01,1.908822729771697313e+00
-8.584961141951756858e+00,-4.817880091250884789e+00,1.720528232731298068e+00
5.467339142799627183e+00,-3.297964082131173758e+00,-2.260296989987117033e+00
1.312650244516724962e+00,-9.408415771321752885e+00,2.483405508121756089e+00
-7.396708445878411808e+00,-1.999312478810894245e+00,4.067889383608250142e+00
2.600521468093861976e+00,-7.991989410511174619e+00,-1.727624661467782818e+00
-2.524557571552369595e+00,4.630832643074316302e+00,8.313231282661922350e+00
-5.016985292050919476e+00,-4.343822607570124728e-01,-7.684248409303252814e+00
5.588063295278602460e+00,-3.515904266959277269e+00,5.896599249684240540e+00
4.799353042913197420e+00,-5.265949769786811174e+00,-1.193146746276429138e+00
-5.379183977102279357e+00,3.725980457658691236e+00,1.844866597736323000e+00
2.330650715180733190e+00,7.923375707307490856e+00,-2.437641868397130818e+00
9.609221504573503547e-02,7.700745802861397316e+00,-9.384778171166607841e-02
-3.870096669757803642e+00,-3.579293795342727513e+00,-4.923292091898390233e+00
-6.590955006202074529e+00,1.256171997128288365e-01,3.186603720756474800e+00
6.625133010656683474e+00,-2.105293294508617130e+00,6.572145063707942825e+00
4.679379890303398071e+00,-6.733296074066604575e+00,2.331027924398224815e+00
-5.565859344101376394e+00,4.220777723189890196e+00,-1.571405534312343422e+00
-5.548968373478678551e+00,3.291973660086081832e+00,1.802826679852085334e+00
-5.941314443708145099e+00,1.602678780846478412e+00,3.859037555675421061e+00
-2.286536316707812322e+00,9.663944052804097851e+00,-2.781353020708761115e+00
6.925129400023687154e+00,6.259473806526209216e+00,-2.957222784596462706e+00
3.767475350515209431e+00,-8.571980604368212298e+00,1.190059897164964742e+00
-2.858529047757073727e+00,3.765325504761969366e+00,8.686277711334922103e+00
2.401354408107633898e+00,-5.869722087988155756e+00,4.517755465699112349e+00
-3.016641207222821475e+00,-1.371277657526948968e+00,-7.927932055006681189e+00
6.936422604842637618e+00,1.123000971578945517e+00,-2.754669755309398838e+00
7.917832536917707387e+00,5.632584307255341649e+00,-2.415854011668062462e+00
4.977574573021013471e+00,-2.665594223178584521e+00,6.072417321159489845e+00
8.052574498582602658e+00,2.260803707375381499e+00,1.811119423345747048e+00
-7.744547650735007061e+00,-1.050865293710812054e+00,-4.949953848902264752e+00
-3.481447377387844266e+00,8.023918894042216365e+00,-3.691137228794444169e+00
6.894637602086164385e+00,-1.235757311363607114e+00,4.045548785731055474e+00
3.595079263220729349e+00,-6.028082989152185434e+00,4.627375928167429819e+00
9.705922006507303745e-01,3.177575185081406683e+00,8.105791011196037843e+00
6.536573057968706912e+00,-6.658078935929864217e-01,-1.004185815380740365e+00
-1.549522987830321830e+00,5.025440560880007901e+00,6.720111956359915872e+00
2.492797999842827128e+00,3.655646357675355063e+00,-5.233208489642570349e+00
5.768248794664314616e+00,4.951404076068221194e+00,3.804447110048128633e-01
-5.497010594761833069e+00,-6.117083879816636482e+00,3.909328200902866257e+00
1.394152404852271765e+00,-8.935504213651618954e+00,1.283856518885796438e+00
1.496016381134017026e+00,1.483512991415981475e+00,7.797203934446327089e+00
-2.334234065993771701e+00,2.222370919559629066e+00,-6.338885788123194587e+00
-1.639534246352882807e+00,-6.488343005460666113e+00,-1.108532138125344346e+00
5.086107979688474501e+00,1.684548498381606807e+00,7.662281135813493016e+00
-2.024023603859406162e+00,6.183902504875598005e+00,4.802629274603841480e+00
-5.100984374895222828e+00,-1.683701261148623785e-01,-7.611568290633440093e+00
6.788714729359873523e+00,6.765954362862569571e-01,-3.758625318423697514e+00
-4.055486858330693778e+00,6.650743762719024232e+00,-4.346697853847441451e+00
1.719620611262242527e+00,4.946656348827614735e+00,3.971309233074353795e+00
-4.282097056930830092e+00,6.665947438404584702e-01,-7.113699843408665124e+00
-4.967622991306268609e+00,-6.895670796504169253e+00,2.825090615110006809e+00
4.051628171992676997e+00,3.693384299238965163e+00,4.542508368862113066e+00
6.398178708134353521e+00,6.689057899794849105e-01,-6.195239684669209268e+00
-4.589431556575109816e+00,5.294826833531933730e+00,2.776306950507157811e+00
-8.011292531574731868e+00,-1.905393699559725151e+00,-2.314138248720277513e+00
9.415624847268629916e-01,6.240883052685739507e+00,2.613001661351332494e+00
-6.844218475349516773e+00,-1.809583402301898625e+00,5.838645080033699308e+00
4.085206801394254406e-01,-5.558984857685818959e+00,4.536621145238954433e+00
-6.623958458847914343e+00,-6.160946723518650359e+00,2.374585608101861922e+00
4.615475242111081400e+00,2.678607131222025650e+00,5.866720574079343997e+00
-2.399705735965595110e+00,4.362613989264159109e+00,-5.290894137328077562e+00
-7.222085010161853447e+00,-1.089905172192317862e+00,3.531492957819772349e-01
4.476487885913612352e+00,-5.887066444107341034e+00,-2.304019973396101317e+00
-4.992071894948520772e+00,2.988642360318924940e+00,-6.066092070822900695e+00
-8.238633395549602056e+00,-3.475073099755650041e+00,8.486275849183398945e-01
-2.573975029462368003e+00,7.093456877302417141e+00,-4.028373825334488956e+00
7.609024262155387186e-01,-5.900410351278313925e+00,4.376872795788871784e+00
3.286459637500652953e+00,-6.592230711643984886e-01,6.932663222315542662e+00
8.032264175291999209e+00,3.455185217731632896e+00,-6.504802634882869139e-01
5.148901796937394693e+00,-3.460208330879003480e+00,-2.650302820099317724e+00
-1.207673899440523835e+00,-6.382716065920341464e+00,-1.602824893616397572e+00
7.040712158672277177e+00,6.321365808952114085e-01,-1.877691920980910201e+00
7.836807570080701890e-02,-6.830319681329024561e+00,3.906622595907112583e+00
-7.257162468793057819e+00,9.212831479338808860e-01,-7.256213211549971120e+00
-7.022299149625836456e+00,-4.163572345279280107e+00,4.737338230345614853e+00
-7.088874756392341325e+00,-1.623681682889763334e+00,-6.113885420377187074e+00
-4.530585419465393393e+00,4.231606067331441956e+00,5.700959855770781459e+00
3.095891240163856750e+00,1.383012677931117818e+00,-6.331813575069965339e+00
7.747748509771366088e+00,3.860154521333896582e+00,-4.803816002175767430e+00
1.412036387017347183e-01,5.899875452685215294e+00,3.608398696974103981e+00
-3.133747133948568742e+00,-3.430224741581750614e+00,-6.122860930749738806e+00
4.467726908522088536e+00,-5.621106132315453863e+00,-3.001800303719257990e+00
2.099559294281719168e+00,6.682339960966103831e+00,-3.792277201255195518e+00
-2.679897449506722484e+00,-1.423378896857234066e+00,-7.883657130153340908e+00
-3.438967900678582268e+00,-2.971069352345789838e+00,5.538803025390405921e+00
-4.275137218137783357e+00,1.100138966763189563e+00,-6.896510584154417423e+00
-8.270257438647245607e+00,-3.404132856732724921e+00,-2.925021363326597013e-01
-3.336958925402727427e+00,6.962239001025718466e+00,4.403855808557723073e+00
7.736655084142111782e+00,4.059611973768022963e+00,6.652227478868658617e-01
-6.227939631382152896e+00,-4.610290027253256540e+00,4.400672110664684666e+00
-5.199613776954317146e-01,-7.359248025588735587e+00,-9.440944420634331258e-02
-4.062165936575792280e+00,3.386609258030338854e+00,-5.802821046310896236e+00
-6.987560430084523766e+00,-1.727423847799820944e+00,-6.083011543561767986e+00
-3.560607025134220560e+00,8.900427807745503017e+00,-1.124691564008776679e+00
-3.978150943831471498e+00,5.018652667879448082e+00,8.907091031327812658e+00
-6.021713606427302246e+00,1.901778474627811688e+00,7.832785543322476896e-01
3.464533692049694746e+00,4.663300338988459082e+00,-4.744729447294342428e+00
-2.543804193094670207e+00,8.082864762679518478e+00,1.665940682434343456e+00
-4.757780600936085236e+00,-3.481507663313642809e+00,-4.713502538179224821e+00
-9.650470776500422732e-01,-4.569508452903669138e+00,-5.681792853240652974e+00
-1.107981141940626912e+00,-7.568646920535763378e+00,7.282762434865371892e-01
2.925576472856930010e+00,1.170074183807884527e+00,7.916469372479619793e+00
4.898413861264645952e+00,2.648327529385151813e+00,6.000737962919084900e+00
-6.446146599070891048e-01,8.799861685782413012e-01,7.385907742190861214e+00
-6.809060289109954311e+00,-3.028324743035994526e+00,-3.624011118874538528e+00
5.085011638917706911e+00,-5.677948216956246519e+00,2.714869534130928574e+00
-4.726641192096335153e+00,4.741339255143037335e+00,3.180399556391842797e+00
5.131949169735854355e+00,-4.711844324490972902e+00,-2.124835684645648703e-01
4.302558352258692764e+00,-5.279745676280769295e+00,-5.811567106518483961e+00
-2.479418676916188558e-01,5.763961180831119080e+00,4.038197279104672077e+00
-3.883905228862244208e+00,5.767250631982477671e+00,7.334565898923386840e+00
5.636205586837623294e+00,-3.064189554437180885e+00,-1.567349388661893217e+00
6.202069607623752923e+00,-1.862920726610701516e+00,5.386722290418709536e-01
-5.836924673488178783e+00,3.866608130938587351e+00,-3.979826086189274470e+00
-5.242463449379716200e-01,7.214582322002823567e+00,1.421932021011788505e+00
2.631745018573589334e+00,8.018190100781868779e+00,-3.110363994528792198e+00
-5.758252414795374641e+00,-3.838296758833975808e+00,-2.759713379954535917e+00
-1.211824065720616295e+00,-5.432160316962396429e+00,4.407847751437564909e+00
-6.447162262364706242e-01,7.042395296883734446e+00,1.850286587085312906e+00
-5.582139058057355108e+00,1.812327363522330259e+00,7.298971302878364931e+00
4.398248517048823913e+00,2.955498926513778990e+00,-5.565111302102248025e+00
1.947269243584492271e+00,4.358537891872955150e+00,5.160866339607335540e+00
-3.828871074234409644e+00,-6.844382531221856247e+00,1.635477102107020020e+00
-3.060014333915736628e+00,6.795722890633681956e+00,4.605704739981284490e+00
-6.842098692622855083e+00,-7.936100881142023333e-02,1.330195239987811195e+00
1.539129175491721568e+00,-6.275250490599379560e+00,-4.190176903811213549e+00
2.013993358999806027e+00,2.103149220975371048e+00,-6.122732339867517304e+00
5.960645794280607035e+00,-3.095504241956406943e+00,1.740490310449726241e+00
5.828210924305088803e+00,-3.909703869064561133e+00,4.636530531155519164e+00
-7.978538160572387072e-01,1.782143776346033909e-02,7.071855232573038386e+00
-8.315957409828307334e+00,-4.131133946376895238e+00,2.358206221616959031e+00
6.661058506857134631e+00,1.705222315294805169e+00,6.103843345961437628e+00
-8.168828452005490348e+00,-4.326670273692839963e+00,4.197118182085681326e+00
5.604636670789549413e+00,3.027520315897044956e+00,4.891710275152718168e+00
-4.066917675137419752e-01,-5.054088994096475496e+00,-5.095872536682657383e+00
5.293529274276450813e+00,-7.323437174637105196e-01,-7.196307016492049513e+00
-5.962196254124762618e+00,1.259613493820855412e+00,5.474549988800696987e+00
-3.838344810656276085e+00,7.236097879357003215e+00,2.024770732737539713e+00
8.106458017377498493e+00,4.768271937571262775e+00,-1.120995245559580855e+00
-7.536956495440169101e-01,-5.514635929723195495e+00,4.464491790274443872e+00
-5.049114978386746166e+00,-4.140301526741318128e+00,-2.833572620850652424e+00
-1.258026021702671970e+00,2.959667022530786173e+00,-5.887955909260194964e+00
1.887803630331353455e+00,-6.881267885655619310e+00,4.107347139027310412e+00
-5.389398078462940944e+00,4.138941536955071498e+00,-1.195503934045973660e+00
-5.059237584662562348e+00,4.262747880657661526e+00,1.699708257077007678e+00
-9.089618659403692069e-02,4.520360202055863752e+00,6.524654611561953033e+00
-4.126831069632303617e+00,7.610613454727929827e+00,-1.142589820888420427e+00
8.144350326517695748e+00,3.509781002871062761e+00,2.096869068502970335e-01
1.980917791876071199e-01,7.797952032927510935e+00,-2.102781470644326245e-01
7.094433311500410788e+00,-1.153145010908465107e+00,5.681395226491956052e+00
2.366035274766876695e-01,-3.783835708382933483e+00,-8.328785280734724239e+00
-2.025376621070152261e+00,-7.265752325154642755e+00,3.623832866996338442e+00
6.603439227977799142e+00,-2.756223906139464663e+00,6.276638910043232045e+00
5.591532446523833855e+00,2.532995586496767260e+00,5.936973452109259419e+00
3.488141682293450341e+00,5.454171140301999898e+00,1.340956100289978137e+00
4.916873114664426225e+00,-4.912881237095485076e+00,5.284069188142670015e+00
-5.024685660347466332e+00,4.742937911363244829e+00,1.610909398212413191e+00
5.588183395366147721e+00,-4.357890569440119322e+00,3.878838075710021371e+00
6.410849171724534834e+00,-2.029053811464449630e+00,2.523956309792320774e+00
2.621874885472156969e+00,-2.028114970317970389e+00,6.315776072999548241e+00
4.705616782809194376e+00,-5.951274062278745225e-01,7.211056307075778271e+00
5.670168824924219031e+00,9.494974480755156154e-01,7.891295628125226891e+00
-4.398362886709055175e+00,-6.695582039629229598e+00,3.538623632277833497e+00
-2.995832009599991075e+00,-2.128031131219189742e+00,5.874616040239676984e+00
7.835745194868183994e+00,1.008452223286736338e+00,4.821601063802988030e+00
7.464842237525899371e+00,3.021257091528402050e+00,3.085188126427637734e+00
6.183493528765378056e-01,8.145013035048197736e+00,-1.364648209372031795e+00
7.206365693680245599e+00,4.030225359599636015e+00,1.110418371920731451e+00
7.239729994835887972e+00,2.097926950242664290e+00,-4.215190332996458622e+00
-3.705303860094183666e+00,-4.175362376212927273e+00,-3.917795617635465799e+00
6.965854066234461683e+00,1.374915373456960577e+00,-4.981092496185588026e+00
-4.450293010781282810e+00,6.774417777438917376e+00,-1.088297960273454823e+00
5.206871822392930227e+00,-9.079804588676048116e-01,-7.109161464318402679e+00
-5.387206173559905942e+00,3.622349972914673533e+00,1.522060348320735113e-01
-4.296545506509165335e+00,6.419527320674502491e+00,1.498037647704239639e+00
-5.192770721126672484e+00,4.185854163398806449e+00,6.589501964078291474e-01
6.153789789366165053e+00,-1.744000816040219615e+00,2.385801206381351069e-01
-4.929766809367995606e+00,5.830906584167785844e+00,-1.785214840639693046e+00
-3.039745036427323605e-02,-5.221449140816834422e+00,-5.150312144748325771e+00
-7.030473139489686885e-01,-4.564997875364094071e+00,5.017569400337941410e+00
1.862976005747956965e+00,-3.263837441915646398e+00,-8.416925576508148765e+00
-1.214600401462478052e+00,4.661831994741421070e+00,6.981516974676696741e+00
-3.553900168770822265e+00,2.381560198399806261e+00,-6.301400097876635797e+00
-6.439788225316427805e+00,2.791224170379773550e+00,-6.242065378525082586e+00
5.173091775099807776e+00,6.497141696124152155e+00,-1.917963414147524359e+00
3.855176493586254249e-01,7.264595918897767568e+00,-3.746599554861458792e+00
4.750799561407694327e+00,3.592060022677997733e+00,4.220904037596501901e+00
3.848389810537855116e+00,-8.662953180986676216e+00,3.468757975331964172e+00
-1.460226092863468939e+00,1.010492680702995250e+00,7.650059752902630628e+00
-3.949739608651652745e+00,8.213659842515829368e+00,-2.899807426532660770e+00
2.975184824852153742e+00,-1.094057881857382508e+00,-7.413213870464742783e+00
2.096304199476010766e+00,2.260929108231198192e+00,-5.935677829286363227e+00
7.655982297538682646e-02,6.293795323885644777e+00,2.837477918679767619e+00
5.435138409492135558e+00,-3.891414990002439733e+00,1.100355007622498549e-01
-3.111351472602316703e-01,-3.496560045876017764e+00,5.542485525796916335e+00
-3.411947508447562338e+00,-4.945818226012629992e+00,-2.542118013991322201e+00
3.221134771086605397e+00,-9.978781891026299533e+00,1.675947546518080866e+00
6.993279511228531753e+00,2.428551087197442282e+00,4.534095436953311520e+00
6.662644126099361408e+00,6.344467369354767960e+00,-2.816254957169511020e+00
5.635844236046636091e+00,-2.717172329258733754e+00,-2.750981138301193951e+00
5.016723611571632269e+00,1.523697364965260759e+00,7.845799330054910925e+00
-3.783091165378959619e+00,7.848411697304579882e+00,1.825189009473336732e+00
5.415019898131382625e+00,1.164030527601651044e-01,7.530205092044012005e+00
4.465078703806102389e+00,6.639346671335197847e+00,-1.906307383331359517e+00
4.616551605757765131e+00,-3.419611770180361443e+00,-8.409993642419893334e+00
-4.425421544726773071e+00,4.664773649207330841e+00,7.155378207984613326e+00
6.454047408877821468e+00,-2.355008846301250180e+00,4.076375368495237517e+00
-7.510191207780202660e+00,-7.196666027451448233e-01,-3.280706946488548770e+00
-7.175070119291577786e-01,1.821541508219226335e+00,7.798696900245772667e+00
-2.002459843855850075e+00,2.092147049766983624e+00,-6.353732381774534588e+00
2.430874689677835043e+00,1.977180409361154467e-01,7.487361820751123886e+00
6.549482845073131720e+00,6.380230468691406642e+00,-3.673846035441499236e+00
-7.400798843413208594e+00,-3.950179910294442820e+00,-1.269558291245783455e+00
1.271015409662267469e-02,6.553388239827523165e+00,2.406145199237328836e+00
-8.479104420163071865e+00,-4.234059682162403249e+00,9.475157738247996786e-01
2.031087776385728905e+00,4.799013741924855303e+00,4.241885857002290372e+00
1.475582724171327964e+00,5.161618138476468332e+00,3.863872598633876443e+00
-1.452739461748890237e+00,-6.165571656587574445e+00,-1.876189400398794671e+00
3.603160092588711283e+00,-4.625279855916831551e+00,5.288445661451750546e+00
2.801390573973817411e+00,-5.313283511084100574e+00,-7.049991976173711983e+00
-7.413182655494233941e+00,-2.960149584965631409e+00,-3.105323833455170046e+00
3.758859852955978020e+00,-9.048210891285007662e+00,3.185863235789892833e+00
-1.806100842856931843e+00,8.253438372206847617e+00,-3.372312114563109198e+00
-3.368079051992157069e+00,-4.631238378796207478e+00,-3.132557198715023805e+00
-5.951485754321290678e+00,1.303367241629119322e+00,5.626594598002675696e+00
-1.470268082849125912e+00,6.557330183447406924e+00,3.885951535360078424e+00
4.979165338616233782e+00,-4.344609697310319874e+00,-2.699451435081513750e+00
2.057805867987025472e+00,2.328938719791903811e+00,8.391675301987731928e+00
8.332161816521165276e-01,4.883577976121633135e+00,5.292012978379531773e+00
1.148369269201434451e+00,2.411172110042424599e+00,-5.862084073729167955e+00
6.703419716900503644e+00,2.121256683683464317e+00,5.423063190730816885e+00
-6.366402737924587996e+00,-4.488420100612454888e+00,-1.124263304033315425e+00
-2.581412597555459598e+00,7.935815706472006070e+00,2.008963325752055606e+00
-6.107049215767303529e+00,-2.731574573644201642e+00,5.392461697436850443e+00
2.267140453931641986e+00,4.954125483209608660e+00,-4.602460898702566361e+00
3.520194543990783131e+00,-1.411721904674196448e+00,-7.492585352676554677e+00
7.944120769589851250e+00,2.030137058119025451e+00,2.596990602418147720e+00
5.084183214506206028e+00,-4.355656609497365217e+00,-2.278578030478719096e+00
4.733137020402358175e+00,5.806252259766186974e+00,-2.595620752478673965e-01
-5.433531307202265737e+00,4.247728102136191453e+00,-6.530537664108471141e-01
-4.914542910929318609e+00,-3.353537007107731061e+00,5.073694212948272941e+00
-4.353272740745917635e-01,3.227799568236465078e+00,-5.649170594271144097e+00
4.575071145598456290e+00,-1.113854622131261740e+00,6.985388675169065031e+00
-7.296002335272797623e+00,-1.101842699710734730e-01,-2.615392757178665040e+00
-2.307709754735693064e+00,7.056234351570543906e-01,7.336963884020529569e+00
-4.110761534758697877e-01,-6.803446864697250795e+00,4.117700223353542022e+00
7.007323315109135642e+00,4.735508297674178912e+00,-2.357710509471363236e-01
-4.709834630287024204e+00,6.063448960943705224e+00,-2.034676200049273173e-02
-5.204384483793585758e+00,-1.573770739782091477e+00,-7.861142548182414203e+00
5.980636331764728197e+00,4.285728615860150970e-01,7.872975623372520104e+00
-6.116913853635637111e+00,-1.233539522252615761e+00,5.958557657897129545e+00
6.907667989329948632e+00,2.312653190797101743e+00,4.611764978044685215e+00
9.301382022007772532e-01,1.416615707537376645e+00,7.909776629669189596e+00
7.372976743072304551e+00,1.263421733274358250e+00,-2.104428906247221231e+00
4.173547642760527254e-01,-3.473304761224406789e+00,5.528039938871750714e+00
2.411151467628539713e+00,-2.331933410479894331e+00,-8.125640065056174421e+00
-5.558477286898699354e+00,1.874088613411264204e+00,5.721713501533824520e+00
-1.772150589806100185e-01,-3.554678259760562398e+00,5.407157901876923134e+00
2.699341888403345102e+00,6.531747233279709519e+00,-2.704570787543486565e-02
-5.589744958655517237e+00,1.419690790681772841e+00,7.232483220547692326e+00
-3.166660718464517021e+00,6.848848229596820048e+00,4.670770134475687563e+00
-4.330586415876626738e+00,5.287892725227889557e+00,6.356802304421247385e+00
-4.558510135320622325e+00,5.396953189504470672e+00,2.439811109624446583e+00
7.780595083022099345e+00,2.879598731710302228e+00,-2.588261952898825768e+00
5.106967799458124624e+00,-5.543864454288315535e+00,3.078603020131581935e+00
7.925508417922074500e+00,1.612614494223091555e+00,5.183980356267106515e+00
5.416779748303098829e-01,-5.603087221921148497e+00,4.693923707382591459e+00
2.253352638895574689e+00,-4.402800357968658318e+00,5.265222513808189397e+00
-1.883359317711704506e+00,-6.021215334961941501e+00,-1.581524076522189182e+00
-6.549066950554067290e+00,1.320298214438972995e+00,-7.009846182237035705e+00
-3.410707930819501854e+00,8.865184195332773243e+00,7.473565765819678575e-01
-7.503124115778613934e+00,-2.999516720699567429e+00,5.216714135217806358e+00
-6.839584099399295347e+00,-3.071396453847808239e+00,5.261882087702182353e+00
-8.117922513618967884e+00,-2.455947933337237821e+00,-2.598132330199078854e+00
9.157963805911454314e-01,-4.678408549108533876e+00,-6.739108664785765868e+00
-3.374586841287031458e+00,9.152262653564308792e+00,1.050903612410996890e-01
2.673052123545481162e+00,-7.233662883361590801e+00,-3.278487423653272614e+00
3.676772138396841250e+00,3.741038392823510250e+00,4.878315255705095055e+00
5.464860205424691308e+00,-3.785128164114753169e+00,-7.955572085001704624e-03
2.101101328707055238e+00,-4.610716185115157018e+00,-7.922152331251265167e+00
-4.230470624732056706e+00,6.329607197392016715e+00,1.917117886813294980e+00
-6.186901625083399914e+00,-9.364925587241653693e-01,6.257500173859178005e+00
-5.254719160744948381e-01,8.293973899403745520e+00,-6.599588492836075959e-01
4.135571919953703990e+00,7.322276490900733847e+00,-3.458134992573613342e+00
-2.626085746965814316e+00,9.652655367410986620e-02,-7.299331126906054124e+00
2.115929324675162704e+00,-6.591044131722661348e+00,-4.069007434282513991e+00
1.261278744367544835e+00,-8.095675758810882527e+00,-2.029117844621799727e-01
2.466839613315631174e-01,-1.547288716044302737e-01,7.009672526673413451e+00
5.336711158440325065e+00,8.662534344401067177e-01,7.820075043837301010e+00
6.567979068656486064e+00,-1.819218053353034992e-01,-2.946434149093445587e+00
5.034084442458764547e-02,-8.529214074773030063e+00,1.854522256689828952e+00
-3.552592878975783908e+00,-7.437434921224074458e+00,2.467598768378690632e+00
-7.538983408381637830e+00,-1.228318252860711501e+00,-6.679155171361990107e+00
-2.186064176887552168e+00,2.650747892149413754e-01,-7.129895645876469956e+00
-4.867473305050194377e+00,4.041938192363496718e+00,4.864168958138588295e+00
2.535326275532802764e+00,3.928219160975537250e+00,-5.044772055374468600e+00
-3.102002178852715231e-01,-3.957406617835840468e+00,-7.221680416464756114e+00
6.900083463903816217e+00,-9.150494909141726474e-01,2.245977173377275093e+00
6.198222198817092909e+00,-2.291378706097451534e+00,1.030522097612291299e+00
-6.010395071789065291e+00,8.083561350485665153e-01,6.425570375374181964e+00
8.635110372823293190e+00,5.248939376637945742e+00,-3.867847218681777832e+00
-8.606245646323544551e-02,4.934792359891221558e+00,-4.915898603723727334e+00
8.563320168203032878e+00,5.146226341306448404e+00,-3.347000703517862163e+00
6.374411790993963045e+00,-1.251042964085326226e+00,-1.740558697156801671e+00
-3.360071227707701169e+00,4.879981309432308123e+00,8.821423375583860249e+00
3.071263648140029279e+00,1.224163620892518622e+00,-6.369533071018275372e+00
-4.041882697286905746e+00,6.825527818242020039e+00,1.628180471562469478e+00
2.033054635493282358e+00,5.511373669312700230e+00,2.927837105784583116e+00
-4.646575147091668079e+00,4.322080616419201604e+00,5.888125871471558526e+00
1.777543444942050854e+00,-5.359847239290420617e+00,4.843326744403063877e+00
-4.802538270893110250e-01,-4.162805738205070050e+00,5.114789106578007782e+00
3.380807090524301728e+00,-3.042196769365169695e-01,7.204056485509439334e+00
-4.837549630040468784e+00,4.269704793198319415e+00,5.272899387167417906e+00
1.718820484299717011e+00,4.908330459161917680e+00,-4.703653489097209928e+00
7.096948929754153035e+00,9.841339482369134695e-01,-1.797918704579811955e+00
-2.534717081073008527e-01,9.081487391464133196e+00,-3.096650684167537637e+00
-3.897609073633298671e+00,-1.826721948704313148e+00,-8.314213210944711108e+00
3.597731114911957295e+00,-7.018488704022630920e+00,4.171085756132606015e+00
2.353277031431811217e+00,-2.460104221929636736e+00,6.200245237841691015e+00
-1.926923209749357380e+00,-1.875980755434559111e+00,-8.216317157296783691e+00
-8.337454555327280303e+00,-3.739190607270010513e+00,-1.494584954909384811e-01
-4.581857088126750632e+00,1.391221635457914774e+00,7.415227737658638851e+00
7.275067573337650195e+00,7.419853542104206667e-01,8.729659678388750343e-01
3.921318226241957472e+00,5.458134935629187723e+00,1.206435726858162027e+00
-4.600374251225400002e+00,4.031810979310764154e+00,7.805942760087414278e+00
4.941165636794129234e+00,4.012225797719780829e+00,3.323076001015552894e+00
5.612609358194388776e+00,-3.121473041115220948e+00,-1.608049019991703688e+00
-5.621374430501358432e+00,2.426983603513869880e+00,5.246925474645474985e+00
-4.272423751786844082e-01,4.889838229543536308e+00,6.019081660237753262e+00
6.754223032268288129e+00,-1.980389572131289633e+00,5.685421879157486202e+00
2.481953947703877006e+00,3.474042630011035637e+00,-5.295338509845178621e+00
4.078525929808116679e+00,2.051550834299745052e+00,7.828431885567788129e+00
4.087654642360718071e+00,7.980287648348310947e-01,7.851891689705389865e+00
1.430672639876529484e+00,-7.952109452140817325e+00,-1.205932520406733488e+00
-8.182908867425974231e-01,7.676465130020457828e+00,1.014933904712588264e+00
-3.855305828814623026e-02,-4.621844853212599524e+00,-6.184539134730801635e+00
-4.874573444093882379e+00,3.923570908514089517e+00,6.188829735121591291e+00
-3.346298031521497851e+00,-4.377818484092934170e+00,-3.836825396013873846e+00
5.901445586564648682e-01,-7.259153720390976616e+00,-1.512824147851987933e+00
-6.926043900324861724e+00,-1.156580687191728574e+00,4.363520700386218643e+00
3.180517298376144275e+00,-7.622271687808918728e+00,-2.673396945978037120e+00
2.493068514710218508e+00,-7.266361037236215736e+00,-3.137998734416347801e+00
-7.880596025197152965e-01,8.403128063663395153e+00,-9.976854414967152307e-01
-4.510301645790000258e+00,-1.619713594048724836e+00,-8.159649957262649522e+00
6.617864033311112948e+00,5.679491024393683141e+00,-3.949973123816024501e+00
-5.326460761699356006e+00,4.683622933521967013e+00,-2.923982926250841441e+00
7.978117451198802890e-01,7.254924713282767001e+00,3.366249623206729047e-01
-7.037768704416683008e+00,-5.073033637660999240e+00,4.294027153139203357e+00
-3.910304622093445204e+00,6.012286937166160250e+00,6.519131440458121318e+00
9.585466301433157588e-01,3.204262938233833680e+00,-5.413074015875268152e+00
-1.009968876001186899e+00,-4.549801939247514859e+00,-5.613686459697859732e+00
7.543924621753827608e+00,1.023184361420330202e+00,1.806256553895763561e+00
-1.324959175754395257e+00,-4.323310165691694351e+00,-5.551817729052449302e+00
7.584416929705844801e+00,1.498968022523601062e+00,-2.620121784364671802e-01
1.706304207451237565e+00,3.195218463830411526e+00,7.525682423020849221e+00
-7.142111652073900530e+00,-2.908753337547832274e+00,5.313090326240571315e+00
6.720030682526343391e+00,8.300523084808432150e-01,7.933652027947935892e+00
1.594113234416136393e+00,6.065712556493475516e-01,-6.682339228314340573e+00
4.972463793031876911e+00,3.072645691673297819e+00,4.983878302954995121e+00
4.721031361515604097e+00,-5.209912608025031311e+00,-1.842083568778181135e+00
-8.643313450459734204e-01,5.788017170341446666e-02,7.232778846415503615e+00
8.193831426049639433e+00,2.524060130003650926e+00,2.967040022389871190e+00
-6.331811772344789979e+00,-3.482675448742047486e+00,-3.003596060710200355e+00
5.073761675191539311e+00,-4.915557087590769036e+00,4.254827394477495028e-01
