-8.935272714219090195e-01,1.612959294021472020e-02,-1.169554708901017870e+00
-9.935801955307551614e-01,-6.396201630172089203e-01,-2.732148845289231187e-01
-1.012242307010521092e+00,-7.035368403143505978e-01,6.123137464423092924e-01
1.641244899655054934e-01,1.170635133157207797e+00,-9.398734432294642005e-01
-2.865072629887490674e-01,3.521885525995834265e-01,-1.425614665856655527e+00
-1.029279095925868637e+00,6.753017445265627750e-01,-2.034308039469698848e-01
-7.006804908713875069e-01,3.765596966621150843e-01,1.079573784876460163e+00
9.522647584215458705e-02,-1.385021979422905947e+00,-1.912317136030755593e-01
-3.819410923274514924e-01,1.157153792693180305e+00,-3.536493217934637973e-02
-5.853002167259214739e-01,-8.877242928681347012e-01,7.970503492199786377e-01
-2.609023661543594663e-01,-9.564963353726172457e-01,9.586777937733881316e-01
1.538642818775763699e+00,-3.316330326525628869e-01,-6.153425352571808560e-01
6.793781513999670729e-02,-1.025258099408735135e-01,-1.355601586468899278e+00
1.859424154153437037e-01,7.913155146674194507e-01,-1.051675854755301343e+00
2.039262594140552054e-01,-1.352413252600188853e+00,-1.088621704905520682e+00
8.388628775380632674e-02,1.599440108727844534e-01,1.461728539558524886e+00
1.093547463096599115e+00,-5.769278211129215128e-01,7.270513302434669090e-01
-8.016937025053019195e-01,-2.719781208405916417e-01,-9.295131124053432892e-01
9.051855640547289417e-01,1.067985263306466814e+00,-2.525510895635645764e-02
-1.801124987015696455e+00,1.839445603508452487e-01,2.557984960673433950e-01
-1.983867141131879508e-01,1.819008224114446182e-01,1.339330780290509670e+00
1.494367409821214299e+00,-2.791637767341625387e-01,6.238965306615040785e-01
-6.859739803151544413e-01,9.600179565763893308e-01,-4.712906543344125287e-02
-1.082527300037363915e-01,3.355938011862663606e-01,-1.339717806752388496e+00
2.855343440186116077e-01,1.626863449200323997e+00,-1.361783502233048226e-01
7.707703983797820069e-01,-2.901022475652447752e-01,1.591007094314973891e+00
1.273077499586856787e+00,-5.041835441541022700e-01,8.740848291439252959e-02
9.191163694797562789e-01,1.234679748319898795e+00,-2.457425899887400178e-01
1.427205201989197869e+00,-3.473436623163849712e-01,4.001981033388760656e-01
1.711417994295123091e+00,5.815731996956603062e-02,-4.387621605144836900e-01
-9.853483955455494270e-01,6.239803076050923769e-01,-8.900512870628535245e-01
-5.001690750006723696e-02,1.372297393119332520e+00,-3.374799379413674916e-01
-6.947599353274516165e-01,-8.072498312006245458e-01,-5.320568846016369147e-01
-9.338328021643889712e-03,-4.866620940875155399e-01,-1.524167340875942633e+00
6.622182897812036728e-01,-7.848639993366804957e-01,1.400736344252810461e+00
-1.533490628801972733e+00,2.543904195944136915e-02,-3.021276918834945868e-01
1.022793547324085228e+00,-2.660911760880498300e-01,1.220089928111595112e+00
1.230597640308971896e-01,-2.546629929189734298e-01,-1.404747262256817342e+00
-2.797524705372371120e-02,1.393525946305269603e+00,-3.633659763268539122e-01
3.219746000223692728e-01,3.094749014147220225e-03,1.541032199019682247e+00
-1.052411216595974031e+00,-1.054358295532803746e-01,-8.067597191984342553e-01
4.538661723018905247e-01,4.635608536796388401e-01,1.200432821827107421e+00
7.308675635878506549e-01,1.708109245744677374e+00,-4.705714097857214284e-01
-2.229243287602328816e-01,1.390462876662189151e+00,9.689116912171923390e-01
-3.706973985259294224e-01,-1.519387597811824753e+00,7.555135867387424708e-01
-3.948644424782501439e-01,1.298088462008115451e+00,1.128791976257485619e+00
2.614932266312782194e-01,-1.349350956827565229e+00,-7.651917587301060308e-01
-1.395818064693051364e+00,5.072840556385755928e-01,4.645496060435373997e-01
-1.272996600102557219e+00,-9.177019753231904220e-01,3.445218098879399005e-01
1.362812757576657763e+00,5.442255508833883093e-01,-7.000401596008232197e-02
-6.898619859885239958e-01,1.590995952093950672e-01,-1.529195604726897750e+00
-7.859097639882841602e-01,7.306597465924256074e-01,-1.133080090924025285e+00
1.494315998414674773e+00,2.622270235033198338e-01,3.226594767546249465e-02
1.738963267400632784e+00,-1.494151052213259778e-01,6.454591512731805425e-02
9.268540276846169990e-01,4.787396567557782728e-02,-8.449221910166057059e-01
-1.450467849731807701e-01,-1.583247505125771282e+00,-2.062479853301815436e-01
4.598589094501981389e-01,-1.070228022839462945e+00,4.331459231213453109e-01
-8.252133150697017472e-01,8.204355879849206667e-01,-1.037564539327015672e-01
3.308675627468457558e-01,-1.322249145579451612e+00,-8.735553515658095458e-01
-3.589908756109330690e-01,-1.079621421148091454e+00,8.849039657962347594e-01
-1.274528740810842331e+00,-3.067405290095718273e-01,-3.293242512439828462e-01
-4.762532824085134731e-02,-7.757296530505082277e-01,-1.373177274037337803e+00
1.028325092560659071e+00,4.980049413519010981e-01,3.966144916322706937e-01
6.957924922435245740e-01,6.003074893704574144e-01,-8.353440067759894117e-01
-1.401595569171956157e+00,4.587257074191087858e-01,1.972337849180938463e-01
5.191154216975437663e-01,-1.103064465179643960e+00,-2.820779254260610269e-01
5.001781292865901118e-01,1.565811942951463198e+00,2.715728951186245979e-02
1.552374001249275492e+00,-2.603230701718156626e-01,3.819016696988319914e-01
1.534932368669221114e+00,4.244465892640549298e-01,-4.083829108511611850e-01
-8.773893783331435797e-03,-1.509698605066369881e+00,-6.269726639704277238e-01
-5.469400925587478146e-02,-1.472635845423584833e+00,3.865406578566799728e-02
-1.499723281166503552e+00,3.338232551516986946e-01,6.112914248453202859e-01
-4.904089595550682468e-01,1.149225620986538354e+00,3.902536324183810135e-01
1.591763857943799543e-01,1.108303905053236837e+00,8.924796550477263057e-01
-1.215576539187039895e+00,-7.272162935765897895e-01,5.141856371403821235e-01
-1.111062343342441999e-01,2.730455379603948241e-01,-1.372648629808396414e+00
-2.752368426701964910e-01,3.518017695756684993e-01,1.318296139118506405e+00
9.591197969319567029e-01,3.799205090397452245e-01,-7.494219248922420196e-01
-1.849560968351058876e-01,-3.343568139082393476e-01,1.159950821564905032e+00
1.321583380974594712e+00,-6.764654906044034743e-02,6.125856968910355915e-01
3.627869542511031470e-02,1.417122893646224124e+00,6.825221536633796493e-01
2.074352165879750631e-01,-6.807261591858324579e-01,1.278937410442922085e+00
4.701408482457601901e-01,-3.469972498632505897e-01,-1.214603498132345694e+00
-3.827341781033965495e-01,-1.100665084494497403e+00,8.607033503113916684e-01
-1.230896255059174688e-01,-9.210536088401675148e-01,-1.130194021307051377e+00
2.399839922611202159e-01,2.997410153800588728e-01,-1.158754910041137842e+00
-2.358325159146102135e-01,-8.797489829943905271e-01,1.004340778753289420e+00
1.620416125437203148e+00,3.198664743579386904e-01,-1.528351078353719084e-01
-6.467756189580043946e-01,7.702819031485205747e-02,-1.525575141782064881e+00
-7.031294541097583839e-02,-1.350867401895851305e+00,-7.508396569523473341e-01
-3.849505028036319110e-01,1.268496797206780435e+00,9.168497909934815171e-01
-8.506297294477285220e-01,9.536464296026713194e-01,1.034207167233614610e+00
-4.930203335112861573e-01,6.587504098240821726e-01,1.266741003858131043e+00
-6.907871777827373494e-01,-5.855878601707333875e-01,8.192637504976094664e-01
1.943691271444926372e+00,-4.721491335318001720e-02,-1.636967470407179881e-01
-6.341681472177685963e-01,-1.014837324138622154e+00,-3.602211765527980614e-01
3.419044901987494667e-01,1.172042259287864763e+00,-8.597137825842533498e-01
1.304426886768123461e+00,-5.084413289117672985e-01,2.892881808360602686e-02
-5.034058047929041990e-01,-1.169804659433099914e-01,-1.482936453235951246e+00
-9.303460842808823905e-01,6.891158540957493805e-01,-8.191359988237958412e-01
-1.977209577294736897e+00,2.813417195555499226e-02,2.447678192216170279e-01
5.542938453843512248e-01,-9.726275494413751943e-01,3.700960361857715819e-01
1.419621241778804277e-01,1.486783878387930802e+00,-4.758797658577523793e-01
-5.017216881675807816e-01,1.212335327267190843e+00,1.280570259861040450e+00
1.200118534232371914e+00,-1.696030126591312470e-01,-7.628350542685804481e-01
2.854645541368003303e-01,-1.122304591658362494e+00,-1.438204213059214531e+00
6.842589639927748602e-01,-4.635786020368549976e-02,-1.012076965745446255e+00
1.165683604833554599e+00,8.219314886800024311e-01,-4.989528686883433761e-01
1.240034798202645394e+00,8.151700477657050081e-01,-1.846718301205317603e-01
-8.358339439546843552e-01,-1.152182733542654880e+00,3.600627805545799243e-03
2.096670969064221568e-01,-4.921647027430171017e-01,1.352758012063887127e+00
2.749350021511958730e-01,-1.152331540064631010e+00,8.931381509248091932e-01
-1.364795048157724511e-01,-1.149878009647738342e+00,-8.833600092752482702e-01
5.022459508348110502e-01,-3.362843746800628364e-01,1.552494107957804736e+00
-1.504729277551044131e+00,2.802374184464190843e-01,-4.911455707404746018e-01
1.018888824010434790e+00,5.136695343553694393e-01,4.125344589984241694e-01
-1.203939032998634362e+00,4.619714937022381673e-01,8.466639037394717571e-01
-9.047407905698806596e-01,8.536617909828874140e-01,5.071861876773514632e-01
-1.245001794582483612e+00,4.718602147684013981e-01,-5.380647071559205852e-01
1.743916399698396680e-01,1.529298671627564943e+00,-3.927021743876777937e-01
9.864770658135864068e-01,4.310593591141377301e-01,-7.033306596318025239e-01
-4.008007952892014836e-01,-1.180070533829822077e+00,-4.756815286105286478e-01
1.735242795823153994e+00,8.624049435859271195e-02,-1.994960452310718182e-02
1.931750891129217607e+00,-1.962415679944191915e-02,-3.102495392966791998e-01
2.363903003837824479e-01,3.859565331407207034e-01,-1.150687539814356786e+00
-2.591362242171247124e-02,-1.146705316716079892e+00,1.000585974346233531e+00
-1.290780523431329430e+00,6.041176886504026067e-01,8.055102968150946730e-01
-4.276283701363151057e-01,5.923367630741965817e-02,1.144131305256003817e+00
7.568708244499249282e-01,-9.745886175994242784e-01,-4.054474237859199137e-01
2.881770571683858195e-01,1.597970011033926552e+00,2.230335007036235440e-01
-1.433739992344445491e-01,-1.599156195219869181e+00,-4.272049663765665750e-01
1.559685720655834551e+00,5.545957423654314100e-01,-3.690590915433710761e-01
-1.786402333558192668e+00,2.126910483548402966e-02,1.465065357301685751e-02
8.501338930226338686e-01,-3.052618493903798413e-02,-9.303557797563721810e-01
-1.308922189423918914e+00,-2.366984781524821349e-02,6.326033965080518628e-01
-1.252384302084623424e-01,1.426032520881066024e+00,5.188471805256112956e-01
1.062164868902968073e-01,1.464584195654878407e+00,-4.125414995414922181e-01
-7.830769853055854490e-01,-1.009833614215674080e+00,-1.994427157482198953e-01
1.371012762953299546e+00,6.186247416338145483e-02,4.648722691964748965e-01
-1.334195262177658936e+00,5.562590876719274435e-01,5.803632721101646963e-01
1.007210491145404507e+00,-2.232855418759725208e-01,1.183394546722571494e+00
8.940240288383447531e-01,-3.426910277642298830e-01,1.509503958123894485e+00
-2.420923759566949718e-01,-7.126018750913201139e-01,-1.132070419659921390e+00
-1.185996314854482758e+00,4.949480923077693162e-01,-8.678825449626319521e-01
-1.339272973652077203e+00,-6.308952501507153476e-01,1.426847939842295354e-01
-8.533078001005557980e-03,1.337436296518271339e+00,-9.628884735913834092e-01
1.114594721334926097e+00,4.987486822883775983e-01,2.881229403447816417e-01
-9.214984602563287552e-01,8.999696394647762610e-01,7.154496282418997266e-01
-1.463784070287006411e+00,3.008042367534393691e-01,-4.690751093016305995e-01
-8.987183076059813702e-01,3.167358672214039966e-02,-1.111163472864604485e+00
1.786144288409352132e+00,-1.963392692251637595e-01,-2.172367152929805256e-01
3.281380779651507096e-01,1.068489180372024672e+00,7.344036318049390610e-01
1.672046469959140635e+00,-1.861980987597590120e-01,-4.991379234001023235e-01
-3.107043315150202489e-01,1.099151532193129777e+00,-9.788239967903674676e-01
6.203095928682493820e-01,6.775712253661404505e-01,-8.443214604070395923e-01
-8.649745738554872609e-01,-2.433134890772017944e-01,8.060175167324020729e-01
-1.408952520383572049e-01,2.169994223432730462e-01,-1.396536362143870225e+00
-9.022130769867956479e-01,2.802014420918991222e-01,-1.390559194644410468e+00
-8.316857781576237896e-01,-1.494455434728508392e+00,4.984978550225783178e-01
1.064382015517408631e+00,-3.100414291194800720e-01,1.246714723371982636e+00
1.318940047741518296e+00,-3.819513329060714169e-01,7.877709251167144267e-01
1.451838947144213465e+00,-1.474255084204705857e-01,-6.324624249798649345e-01
5.543761050292025233e-02,-1.415886722196904479e+00,8.071184160608861624e-02
-1.180169434561455288e+00,-5.324599279656307971e-01,-1.905400833203304556e-01
3.491699263361104921e-01,-1.112817809057981888e+00,6.733000104575865841e-01
3.624100030364322267e-01,-1.229345116196804755e+00,-1.387937249562721576e+00
1.611583027361974119e-01,1.485533577931388738e+00,4.879602318377489478e-01
-1.461499343892956659e+00,3.519927959651853455e-01,-1.465447507231092406e-01
9.755933198481880897e-01,-6.090967472704837959e-01,1.007521948107428456e+00
1.374587126832506723e+00,1.416483111017928509e-01,3.614737014644798796e-01
-1.412115947777879521e+00,2.804828353839515231e-01,-7.418856665233941605e-01
7.976237822590709348e-01,-7.077646500093328630e-01,1.328557377074203405e+00
-6.607604364551354914e-01,9.400724169655226836e-01,-1.522567432911155483e-01
-7.766643238324629772e-01,-1.226693718291000934e+00,5.931399691685861342e-01
1.177578111558590379e+00,-5.014969989096570435e-01,-8.674456988838803451e-01
4.790606379599066655e-01,-1.215356114336846982e+00,-1.090213031808664468e+00
-8.685989098931802266e-01,1.660533997656864491e-01,9.417509487800834744e-01
2.341978427381827821e-01,4.036071709825194698e-01,1.530071657761736592e+00
1.852522704083656713e-01,5.129516322437840947e-03,-1.277090089106616588e+00
1.151725060312897675e+00,1.382996482214962908e-01,6.305436699055656513e-01
-1.119225089857130540e+00,-7.670182079499910932e-01,5.389160059379919376e-01
1.757215290419640030e-01,1.263475986786412042e+00,7.040321209146704895e-01
-7.191231707672979256e-01,-9.524983185087794180e-01,-3.667417633246408126e-01
1.941546256334740483e-01,1.353788553517022653e+00,-8.998986529266926881e-01
2.139349186205257922e-02,-1.223022135856349640e-01,-1.383922929353151643e+00
1.572797720315955550e+00,-2.999307442821206315e-01,-6.600177019451883287e-03
-8.446545473122060166e-01,-1.421471590313465816e+00,3.119089900587590503e-01
-2.442957451815860881e-01,-9.852063523826827263e-01,-9.310554725771293949e-01
-6.466173120724679757e-01,-3.000373157812865066e-01,-1.151608057238083349e+00
1.998726940823843667e-01,-5.092350524476978446e-01,-1.399771380177489810e+00
5.356281467334619295e-01,-1.052174344850919985e+00,-9.576553382140967630e-02
-3.420769381110219665e-01,-1.636782389085288614e+00,5.240206215444354054e-01
3.411886496301215765e-01,7.806880766456009146e-01,9.835967163096467347e-01
-8.984876273911793776e-01,6.197810136526382685e-01,1.045356529555989011e+00
1.734299113609586218e+00,3.418649354854034761e-01,-3.141004594150322848e-01
-1.322815097958051300e+00,-2.284092167083432434e-01,-3.273366368678048421e-01
-9.997904262180578039e-01,-1.080915785366729720e+00,1.169279858721011950e-01
-3.473979497520733317e-01,-1.720188162811403965e+00,4.851203421198040100e-02
2.772240566572161113e-01,1.038883185387203367e+00,8.048722759547021210e-01
7.424839548980497472e-01,-7.374427769545841560e-01,-1.169698854170539315e+00
7.116566659914839166e-01,1.737221701503953719e-01,-9.310845909484096738e-01
-9.170579159164289618e-02,-2.539599321617370120e-01,-1.482013577345349775e+00
1.558965647202122495e+00,-2.116586838817704486e-01,5.141710730481634517e-01
-5.578032232148804059e-01,-2.396240604690434012e-02,-1.489986024504132756e+00
7.348509182856187705e-01,6.346205038930458064e-02,1.269424723800759214e+00
-1.573161943373232008e+00,2.074077094201249860e-01,-4.262363918627521953e-01
1.729863268979610513e+00,-1.793694112647519490e-01,1.565104616364320633e-01
5.555914857031039045e-01,-4.499937714305586867e-01,-1.195523736434780382e+00
1.744482297053090991e-01,-1.237997858620555114e+00,6.435644835869328562e-01
-9.818566486551527639e-01,6.096983824855018996e-01,-9.586258232767245202e-01
1.326299046003500903e+00,-5.734790466008961030e-01,-7.874929542252251391e-01
1.870341745512703602e+00,-1.203468786686387182e-01,-5.441276402286215202e-02
3.031722263149376762e-01,5.062659446726037737e-01,1.314324107874315972e+00
-9.701959622920451887e-01,-5.999835886185307388e-01,-3.349955586309418809e-01
1.856321460800337830e-01,1.542611565398009699e+00,3.858169885411089628e-01
-1.527258990356674007e+00,3.309498876953675395e-01,-8.008036695318894449e-02
-1.190509262840519833e+00,4.527012440585920228e-01,-1.060926921478139384e+00
1.415855122333845584e+00,-4.689984626435843018e-01,-5.465642512451736046e-01
4.804348258041610253e-01,-1.278489898300662508e+00,-1.415393546304186012e+00
-1.590622508571090776e+00,-1.212391322903107749e-01,4.593358963717733556e-01
-5.321356918881550158e-01,1.192973612030690411e+00,1.185604731159399794e+00
1.403485123999072437e+00,-3.259989696789177827e-01,7.843665195936795342e-01
1.041419857932820658e+00,-2.100071173362609914e-02,-7.959791746493686260e-01
-1.006102886019051956e+00,-1.689083381498347192e-01,-7.894269551036899868e-01
1.752945978478684386e-01,-2.367122007476890888e-01,1.409405008189844599e+00
3.982815421779979936e-01,1.731958577668276211e+00,-1.139747358854526355e-01
7.454221487848651240e-01,1.609983624900570010e-01,1.142213671642095196e+00
1.418212282885042752e+00,-3.811926224868714130e-01,3.565677119978025722e-01
-1.095707681788117505e+00,7.335407570257592713e-01,6.799936164906614788e-01
1.961551453081216423e-01,-1.795058341938239876e-01,-1.312404376228229586e+00
1.347561594130180618e+00,-2.836077519888092202e-01,-7.142217442003316874e-01
-6.074302785879042155e-01,-5.287826519203446818e-01,-9.562757236843530961e-01
3.015979689342010994e-01,1.605839568382918969e+00,-5.197516048461250371e-01
5.048895955573802219e-01,2.737094378118192228e-01,1.323628339163014367e+00
-2.493147889555285268e-01,1.373202471194477692e+00,8.673100954878100177e-01
-7.321133314460529506e-01,9.990209057838266293e-01,8.080598649006210943e-01
8.777787369762415359e-01,1.074449546413541290e+00,-6.356978045412962075e-01
-5.989439644084073588e-01,3.780281817301339164e-01,-1.595007771953573350e+00
-7.524319976427353840e-01,9.073609618191191828e-01,2.103256724642196818e-02
-1.458609896744663681e+00,-5.370245703599360598e-02,5.638861755243804730e-01
7.924454954978134014e-01,8.905192319478826002e-02,1.179025603172854320e+00
-5.988029910083459972e-01,5.429721083948920585e-02,-1.552085448301423254e+00
-2.462034559673214607e-01,-5.052440104749464922e-01,-1.429640910784311547e+00
-1.079563703856019907e-01,-6.173574152697821615e-01,-1.499691296352625436e+00
5.191695176151863711e-01,-1.141474199352809915e+00,-6.446745228580678111e-01
1.481830543440558090e+00,-2.157932722242708046e-01,-6.319712673051042229e-01
7.784351672633126329e-01,1.977243247007737792e-01,1.032955678043923298e+00
-3.634372722208583095e-01,-3.541597909768680608e-01,-1.405859835854764706e+00
1.114842062032401104e+00,6.368938057071591441e-01,1.647709561183255678e-01
4.312501011238368265e-01,-1.162965405534924557e+00,-2.616025568518017264e-01
-8.892200573950959086e-01,6.847412581879649407e-01,-1.054972471404130641e+00
1.506143074224381539e+00,-6.451380889813916608e-02,-5.634994969084715644e-01
-3.240615464012900487e-02,-1.500921589229464281e+00,-2.572249354462022297e-01
-1.507303582941556197e+00,-5.344832238666532599e-03,-3.441967185976892440e-01
6.635243206896791479e-01,-8.331644289718055374e-01,1.122611311841142934e+00
1.350888508651109321e+00,-3.965696543622499459e-01,6.649188620156419871e-01
7.358304936617252601e-01,-9.557901284022163324e-01,-4.917161453791963344e-01
-2.453521577569303114e-01,-1.510994953408077546e+00,-3.715431566479742709e-01
-8.178551591980311175e-02,-1.560717016381850897e+00,-3.720979492465983918e-01
-1.328015876343883739e-01,-8.766328454368483847e-01,1.041943103026474304e+00
2.557730073856940289e-01,1.433326557062142070e+00,-8.281004809660491572e-01
7.966539278305490024e-01,1.272234916465019017e-01,-9.056884145435795119e-01
-1.370036625277501141e+00,4.198442800319833190e-01,-3.495302068945280727e-01
-1.568456346176644756e+00,-4.946639235974978344e-01,3.095064718826018857e-01
3.320285314890942252e-01,-1.007837270189296391e-01,-1.224652411780416061e+00
-1.324526566143599204e+00,5.152540244094572230e-01,2.311451447058439634e-01
7.724815662772070990e-01,-9.307652080929885718e-01,-2.378366236402520428e-01
-2.768053828138443695e-01,1.771988489068597461e-01,1.243441092449455221e+00
-1.219692397265716766e+00,3.759433816285676078e-01,-1.086513433621625113e+00
1.372073835112405327e+00,3.015780449111107320e-01,1.919019371948502972e-01
1.087189727937480255e+00,-5.924471489907257027e-01,5.223371947263466542e-01
-1.432532057309874762e+00,4.667396976832299260e-01,5.215198423182667575e-01
7.845311632334326379e-01,6.375958078720206368e-01,-7.795022155472247638e-01
-1.155530974771524999e+00,-4.718900522483841509e-01,-2.378471279244977477e-01
1.398549322525049154e+00,-1.340639491366777680e-01,6.418733858272812620e-01
9.789281527538309380e-01,2.814132067948018623e-01,7.004376181893784414e-01
-5.883117033745909330e-01,-1.222609950214600172e+00,-2.188299107461863513e-01
-1.013064938202205889e+00,-7.874872451376873084e-01,-1.304323043701942630e-01
4.310374918499834118e-01,-5.622895163626772108e-01,-1.284062518540866504e+00
2.563609655585917801e-01,-1.180174182665629123e+00,7.179175163414134309e-01
9.702393464911193144e-01,1.233758224685205684e+00,-5.037044897496241180e-01
-1.970511515621373999e-01,2.187729096334453116e-01,-1.425433574246278035e+00
-4.141298773971779229e-02,1.351921037072121301e+00,-6.200062989164127902e-01
1.607598299985006252e+00,-1.471358426069651892e-01,3.401610670401024050e-01
-7.028309110601925758e-01,-1.154837949879874648e+00,6.686678166486753616e-01
1.233621738930305162e-01,-1.433507106249760854e+00,-8.849254798640261432e-01
7.623924943487256911e-01,1.548280858278515248e+00,-5.286931682637292518e-01
-7.933450736914231527e-01,-6.799272555606528101e-01,7.442481607080990713e-01
-2.189046534933197508e-01,1.414309013958937378e+00,9.436896522182594005e-01
-7.190551496173901158e-02,1.299260084643467428e+00,-6.650489667612480282e-01
-1.426415258598803248e+00,-4.622087912415560607e-01,6.939796354951162892e-03
4.529582376263780463e-01,-2.022151180092991163e-01,-1.180017952004282611e+00
7.691410053772935740e-01,-1.055957066323924137e-01,1.365186880424223759e+00
1.068497307715689182e+00,1.193805709709221397e+00,-4.410137001126595013e-01
4.750723149400967182e-01,1.152205835339998208e+00,-7.872200962911947153e-01
3.733353774484148846e-01,4.530420324323075620e-01,-1.032983746886563248e+00
5.338475150989385742e-01,1.618701366403801467e+00,-1.069034722019853029e-01
1.511234004097435080e-01,5.926046790089590788e-01,-1.120731116997628396e+00
-3.108814117367532104e-01,-1.050986235615584130e+00,-7.627758177713829246e-01
2.089077425922676590e-01,6.086639925905322768e-01,1.340915068974823932e+00
1.537401430384578882e+00,1.224259744750510193e-01,1.962596329812442419e-01
1.199017993598425313e+00,7.600470830921461918e-01,-5.589382563172488189e-02
-1.170245969020922983e-01,-3.275567680097877382e-02,-1.464375329989737740e+00
-1.849483217019476822e+00,5.930444742764200139e-02,3.529944917826556838e-01
-3.626851245125006229e-01,2.561548550859134576e-01,-1.513821677288460066e+00
-7.360730660472331044e-01,-1.638552592590943213e+00,4.989964534926422113e-01
-7.105199370908317213e-01,9.414516710518359144e-01,2.729166235584801758e-01
-1.207109736150614898e+00,-2.229491182492869261e-01,-5.012721668124281438e-01
-1.493076827084435010e+00,3.521540718874592302e-01,9.887644170203296889e-02
1.491112235437141553e+00,-4.425588191051885861e-02,-5.475319314545463723e-01
-4.074994947218969488e-01,9.016794409102514285e-01,1.414346707879766685e+00
2.618667058219786292e-01,-7.626062171510515908e-01,1.300967158074860963e+00
-7.252468554102228238e-01,-1.054858681110628194e+00,-1.984608502647180750e-01
-2.997197961801597033e-01,-6.674781139373494598e-01,1.014987551357569018e+00
1.935200535077188366e+00,-9.885031635544333506e-02,-2.399031932992616023e-01
3.863796560056416696e-01,-1.035435965282696325e+00,-1.447547870314824126e+00
-4.055577463967775520e-01,-1.118711292209146446e+00,-5.337383132756143844e-01
-2.975307344923826536e-01,1.356658300505203973e+00,1.154078583862611529e+00
-1.449541444606107232e+00,3.492203353112259268e-01,-2.597977022953275039e-01
4.115929460453549016e-01,-1.102948723226457206e+00,1.674483869416756310e-01
-2.042574680561059230e-01,1.243692997176164772e+00,-3.764580839602301721e-01
-7.764426660098023847e-01,-8.801341698517197720e-01,-3.239376702460596280e-01
1.221020656280507710e+00,1.979769338759004849e-01,4.907985490972540665e-01
1.371354282522345924e+00,4.272195956388131211e-01,2.815028205206479908e-02
1.731158198617651411e+00,-2.286358918644875449e-01,-4.407260584630012246e-01
-1.003293291601964343e+00,-1.058277816682727801e+00,1.606321606994169371e-01
-5.327361344377354868e-01,-1.206207228657291575e+00,-3.478334631766853424e-01
-1.225235734264008419e-01,-1.517831757306094209e+00,2.537628552202035315e-01
-1.438512824502965470e+00,-4.470732675265308154e-01,4.573425606289588941e-01
-3.509034405720414251e-01,-2.133220465181168840e-02,-1.546086297212984739e+00
-2.858854018303758071e-01,1.358120829753258318e+00,1.181242248155807140e+00
-3.892429649540237180e-01,1.150084935781584994e+00,-1.913656371231111375e-01
4.185852592981799125e-01,-1.207395309651058346e+00,-3.598589820386976501e-01
-1.266553753554767292e+00,4.447610692629517248e-01,-6.460719433859271055e-01
-1.008849034575907799e+00,1.808914280568357236e-01,-1.180077537371695628e+00
-6.326406746131905123e-01,1.057885262965613693e+00,7.073038743944797258e-01
-1.804950221181139458e+00,1.568675092662846771e-01,5.639111196707342726e-03
7.372866832214279853e-01,-8.072003755446470752e-01,8.970573047683717549e-01
3.220444565794385872e-01,4.390488518546917796e-01,1.403787956691675332e+00
-1.005751980023284364e+00,-5.228276350484548640e-01,6.575711902474189463e-01
1.268874307611081775e+00,-4.134912174554311592e-01,-7.856816529877831412e-01
-1.837929509982081600e+00,5.982932007435320942e-02,3.792163065445319781e-01
-1.308638345273888781e+00,-1.011749400421255718e-01,6.308027010259573686e-01
-1.290283357609781911e-01,1.158256950447797529e+00,-1.119721851194414919e+00
-1.663369395811983509e+00,-1.255712489335375215e-01,4.422303423219889340e-01
1.726384954465129740e+00,-2.977350973898493236e-02,1.461858490664435239e-01
-8.177504529771529862e-01,-1.407739192888916246e+00,5.389634741634508064e-01
9.493645332819052873e-01,-8.480520298055409523e-01,-6.393746469118747333e-01
7.089332038010560666e-01,9.420235084349372068e-01,3.559728041720794933e-01
-6.976533204447368242e-01,5.309442210404059503e-01,-1.591449957525994163e+00
-8.123551913342544895e-01,-5.768342731647274971e-03,9.389847453399090549e-01
-3.394308845991941270e-01,-1.539873844208362375e+00,7.430644049664509865e-01
1.824074259314101831e-01,4.245240471161421669e-01,-1.134068146310631464e+00
-9.635504039602092730e-02,1.359445486962201688e+00,-1.247025798262693524e-01
-5.363035272193853592e-02,4.355392929224944920e-01,1.451745974775697556e+00
4.824708851329226889e-01,-8.968411073098736530e-01,-1.369279679128451832e+00
-5.396800153553602541e-01,1.197968207842110111e+00,1.066841150030693353e+00
-1.472102582220080613e+00,-1.824838512379297617e-01,-2.168922562965215906e-01
-3.620568975339781836e-01,1.280747547347653503e+00,8.247368874330515132e-01
4.348764294799286056e-01,-7.395330042020127337e-01,-1.356866426591881281e+00
-7.815386093822913605e-01,-1.651749719869006761e+00,4.872330714660328410e-01
-7.213428637339492910e-01,-1.125805340141177169e+00,-1.613495458441014940e-01
-1.453307879429866389e+00,4.547329476659899283e-01,6.850482402262114690e-01
1.384386226642098983e+00,-6.844065525064974009e-02,-6.227310352859801723e-01
-7.887801088913626302e-03,1.395554929961486001e+00,-5.620651078688665425e-01
-5.818894323083114717e-01,-1.048675706576779554e+00,7.739992022633747082e-01
4.887349290504129362e-01,1.466520195057921638e+00,-6.771530226039118583e-01
5.234029311146874176e-03,2.988258151737737678e-01,1.459305145892599853e+00
-5.224826907887585303e-01,1.391050162801304724e-01,1.133118397618162243e+00
-6.088687270011993169e-01,8.909604202298113673e-01,-9.793194187650107185e-01
6.509462889887596138e-01,2.843065172728028722e-01,-9.494828622457484046e-01
4.269089448402930698e-01,1.231362017524100239e+00,-8.230030091614376486e-01
-9.209659065393621669e-01,6.274540487342677997e-01,-1.018455920495584754e+00
-6.955153174014074846e-01,-5.492360269941790607e-01,-7.829404870709715247e-01
1.051256111070598243e+00,1.152486705100118913e-01,-7.640030132841791888e-01
8.060575808229032413e-01,-6.460088639727322724e-01,-1.121433014255913463e+00
-1.764776890213907379e+00,3.994050102465870195e-02,4.164061712197723031e-01
1.608726201746556006e+00,1.947267154849209592e-02,1.865248148350034108e-01
-1.689889299558328339e+00,1.403731813323506605e-01,-2.499893440777363474e-01
-1.253178226892650571e+00,-7.553207451864415445e-01,4.635997176260004404e-01
6.108837418466366298e-01,7.881590540424861235e-02,-9.938607637522099969e-01
2.176423283626015281e-01,-1.307320928503541424e+00,-1.165774995271612990e+00
-5.269479548202087027e-02,1.493145443049902488e+00,6.943463099497597657e-01
-1.113554183088073107e-01,-1.271689835189478091e+00,-7.729497679896069062e-01
-9.370215083449491278e-01,6.054620504910257495e-01,-1.453958523483143805e+00
-8.168151328565664837e-01,-1.357527791929321381e+00,2.004569165572576694e-01
-8.591977123062651822e-01,6.482796209426574530e-01,-1.388715304770304693e+00
1.875927613154451390e-01,-1.308412814481164643e+00,4.996272325953034915e-02
-8.341109783969394842e-01,9.409537908434734144e-01,9.128208080169135652e-01
-5.110336980141026997e-01,1.049385931058302246e+00,-3.125764479566504606e-01
-9.258235923117260624e-01,-9.644630533727713839e-01,6.107437595778970607e-01
-1.711166169300384121e+00,2.105132694449758091e-01,2.155644019657629654e-02
8.923627272407368416e-01,-7.408151892138298278e-01,4.761372986532099172e-01
-2.096721300724912473e-01,-1.066847503643973738e+00,9.620307629987594478e-01
1.482587211683542128e+00,-3.158257771540966541e-01,3.451521466365176649e-01
-4.991071984648972060e-01,4.260084712537471341e-01,-1.543559084410410565e+00
-9.563525171992757201e-01,-5.235085681351951958e-01,6.602617025111896520e-01
8.366222275996795243e-01,-6.626235138407373659e-01,1.492286288138263028e+00
-3.447520798493085015e-01,-1.046028698880542562e-01,-1.601460145469647767e+00
-4.939336413311780083e-01,-1.418896680340558047e+00,7.216457035735610592e-01
-7.382675743725799489e-01,-6.293696358802008950e-01,-6.414773599333061238e-01
1.930788938459161219e+00,4.609836370850815823e-02,-2.615820296119915067e-01
-9.652525971704321028e-01,7.124850470739007013e-01,-2.715520411341753038e-01
-9.905415721285630859e-01,-9.162187380234686485e-01,-5.118348176052444493e-02
1.498034477047770263e+00,3.071324987323352240e-01,-1.861775846636719994e-02
1.512291501024452867e+00,-4.260204188439858930e-01,-6.564135665579062806e-01
1.100760958509100912e-01,1.555984358687632740e+00,1.509372666577609434e-01
-7.290159414239553159e-01,-7.517527716140226524e-01,-5.436479809053819112e-01
3.890929403721134494e-01,-9.838991782467525482e-01,1.290778308755363701e+00
3.343816674345696516e-01,1.083260714953042214e+00,-8.847815299268736444e-01
1.834637423489552943e-01,-4.270117374848478864e-01,1.332613781977287415e+00
-9.947759016126143938e-02,8.584710744691463891e-01,-1.196678503899741175e+00
3.110799606177682697e-01,1.616957470635895566e+00,-4.936121773521269240e-01
-1.093838205512511097e+00,-4.460164087501076735e-01,-3.914103964397315782e-01
-2.890252076294096972e-01,3.123689697528760356e-01,-1.448737389177070289e+00
-9.132157605922005539e-01,-8.983342390162196711e-01,-1.419111404874842941e-01
-6.933140392124231832e-01,-1.742440778871981122e+00,4.834447427389283458e-01
-1.469559702936245049e+00,-2.391891014694665363e-01,-1.481230195116431669e-01
3.466570158043476013e-01,1.319680864035785994e+00,-8.162619182785402216e-01
1.128204846125108407e+00,-5.635080568884830443e-01,5.436945751532415994e-01
-2.310299683412056493e-01,-1.214846467661568896e+00,-6.810640999045658450e-01
-1.775698190745757854e+00,-2.136349674000448950e-01,3.264691008321553012e-01
-1.772746927568254804e+00,-9.654275385971970713e-02,1.331576498674366671e-01
5.446138463396344997e-01,7.856763711028914576e-01,-8.603562087256111379e-01
-6.383107487166685967e-01,-1.688286129937307978e+00,5.321579432231663409e-01
1.463090493515972534e+00,5.759604499074519879e-01,-2.265801093347228068e-01
6.190991133689403014e-01,7.523205028672493855e-01,-7.979471186024970075e-01
6.017125986123514902e-01,1.011828375597466911e-01,1.388873786413194145e+00
-1.010134130995227641e+00,-1.056465837519210860e+00,1.379458165547807202e-01
-5.594086105029084655e-01,-1.788358604221277570e+00,5.186827861830436426e-01
1.182409019006958495e+00,-5.159900077425155773e-01,4.706957865497750637e-01
3.768995519241522540e-01,-1.270859796047678902e-01,1.514702442323266895e+00
1.195492184766954624e+00,7.067279753700882461e-01,-4.251953322425169185e-03
-2.593164018877781030e-01,-1.676258359827619282e+00,-7.183442178217831764e-02
9.011198882392995602e-01,-6.430613759989275424e-01,1.139657538517535817e+00
1.710250387233549940e+00,3.419592118147420090e-02,6.263698119012821308e-02
1.376021410657445765e+00,-2.357481052515774389e-01,7.479350982297988670e-01
-1.398933755198648488e+00,1.418769336400997894e-01,6.605186864793599621e-01
4.116368270805261242e-01,-1.458839436025023695e-01,1.560403025293518153e+00
4.995307908541045672e-01,1.418342838293443320e+00,1.324178997513194844e-01
-8.875494551906216723e-01,-7.423546776115750312e-01,-2.972941267810624288e-01
1.171188447663890075e-01,-1.357565136837347586e+00,-6.428344888365428167e-02
-4.644234802185256417e-01,1.182297630769246544e+00,5.311654817195438083e-01
-1.355926155959651824e+00,3.310406431886379619e-01,7.039340943197903711e-01
-1.163561524675388759e+00,-8.640953272594645851e-01,4.780618847456416520e-01
3.642881963129415701e-01,1.696614181421527867e+00,-2.914712653918229424e-01
-3.259835802644314284e-03,-1.357864827154633858e+00,7.592720486904871446e-01
3.956596518426193088e-01,-1.133213298521277723e+00,-1.440504927068976926e+00
3.107211761335499922e-01,-2.176836873060341571e-01,1.499710997216837649e+00
8.459211077768041820e-01,-8.211945175621429005e-01,1.001728615954973894e-01
9.261807607356653538e-01,1.435090169130134097e+00,-4.268525446663532508e-01
-1.922426756666918979e-01,-7.345209156066105638e-02,1.264004450138570324e+00
-1.021515865094286823e+00,6.304230584756163047e-01,-7.689531564650959883e-01
9.086890418409602210e-01,-5.502241797660439859e-01,1.671314909016091921e+00
-7.180747877410609270e-01,7.943134651933567714e-01,-1.167227855425643002e+00
1.219483467644639774e+00,-2.662135083878658937e-01,1.004957357699829190e+00
-2.902030140987159057e-01,-1.196857490219943587e+00,-6.560884805092439542e-01
-1.131975318024337929e+00,-6.324646581401166534e-01,-1.456180804035847598e-01
2.846670726151487862e-01,-7.435551769104402631e-01,-1.434690498110242851e+00
3.290982744099098523e-01,-1.130396867862442756e+00,-1.500486208499562490e+00
-1.410202799495204440e+00,-7.512258003258915906e-01,3.194847408267137978e-01
1.114382248356643679e+00,9.334573837791728668e-01,-1.390153106752736178e-01
1.308265208434306048e+00,-3.861135428728443841e-01,9.014973807636524894e-01
9.261274338408006512e-01,4.340760038795420384e-01,6.054506550992807545e-01
-6.799273771372121855e-01,1.102147861173681243e+00,1.238140166477776472e+00
1.602832114573354838e+00,-2.938908861299274200e-01,-1.839418790938424364e-01
1.401151689153400451e-02,3.325859278909356065e-01,1.475789651793514512e+00
5.792197682351460930e-01,-3.853656504659908055e-01,1.574102585781686825e+00
1.215823810485385126e+00,-5.127937206964962025e-01,4.495998579353338021e-01
9.065638238165929508e-01,-1.393457183066367233e-01,1.217685634559380725e+00
-4.648872204385156026e-01,1.627672769528119567e-01,-1.586193668600984319e+00
-2.128341455922422021e-01,-1.035859554214016098e+00,9.523379731820705851e-01
-1.181240818113614921e+00,3.917671830852573756e-01,8.283331146741166329e-01
-7.813164143051571919e-01,8.328305089396738081e-01,-4.376125474968326490e-01
-1.653781758982108219e+00,-6.225069911896558006e-02,-3.166322808861846139e-02
6.029285795693499761e-01,1.588892234765828526e+00,-1.614786600121707050e-01
-1.034931131242722513e+00,-1.141635020704631520e+00,2.440735520318876584e-01
6.191066515617750232e-01,-8.145972276474648943e-01,1.453187801872604767e+00
-6.529120576947212706e-01,-3.637960786696255999e-01,9.088746480300294861e-01
-1.845924458425926007e-01,2.487794713504288269e-01,-1.397622688220767406e+00
1.604439323738821921e+00,2.237022632664482646e-01,-3.952217966703709395e-01
-5.380753468040218035e-01,-9.501610497687614787e-01,8.133004119712137214e-01
7.333336897872803073e-01,-8.597507136355047042e-01,5.375857300857896925e-01
-5.185368287247321684e-01,-1.466045670850015137e+00,-1.960748170627499114e-03
1.153986053842609438e+00,3.609551632957667677e-01,4.035893257622890085e-01
3.521337594632085177e-01,7.907452407545576545e-01,9.646742984763445605e-01
1.385050620032038493e+00,-2.721470028389212925e-01,7.649991017059699638e-01
-4.566581902746052468e-01,1.195959647328747266e+00,6.635447123204177844e-01
-8.788452259977188596e-01,8.777536785647684914e-01,4.128440001711745078e-01
6.195450545520720942e-01,4.363986872950260665e-01,1.015737767499113708e+00
-3.009943079314328918e-01,5.826829664681409948e-01,1.365836973452048353e+00
-1.093811818059450651e-02,1.078197527758843588e+00,1.178147001681064454e+00
-1.046832824122207461e-01,1.301524912992538141e+00,-5.323917849741612862e-01
-1.335222992924562035e+00,4.492836945412710947e-01,-1.933150424633836018e-01
-1.281412869515573261e-01,3.178254079389718489e-01,-1.370633390792528772e+00
1.140387435364838664e+00,-4.994942399378642373e-01,1.051756459117638709e+00
1.330679088601599905e-02,-1.459216458430020458e+00,-1.039923526980834033e-02
-9.568266700675082115e-01,-1.368210252255262604e+00,3.943789850431107524e-01
2.264303485548999628e-01,-1.292150074291124717e+00,-1.168916374818366188e+00
3.436193734544611827e-02,-1.485658456585135845e+00,-7.467229633411506251e-01
