-9.823927415689491793e-01,3.732827127964372327e+00,-1.013948911034953521e-01
-8.753319989544731783e+00,3.433524055675642561e+00,-2.357865558182512089e+00
-8.220965443974487252e-01,2.508852091705315424e+00,1.592536460290787215e+00
-1.117602315309464744e+00,1.790937229373110728e+00,2.123395222870870125e+00
-3.368736256860684009e+00,6.609011327177607420e+00,-3.334179428119049327e+00
-2.638619790618902172e+00,5.936792873457293673e+00,-2.681427211432012570e+00
-3.081597966873283134e+00,1.906099806617266523e+00,2.345826646704483487e+00
-6.196447752528390751e+00,3.013708887275202919e+00,1.656677167137421192e+00
-5.296293068689641892e+00,1.200196440743105386e+00,-4.751491303943267130e-01
-8.012486322949449180e-01,1.650203917571656964e+00,-1.142645000583683457e+00
-7.846669473282028129e+00,5.003454488835713754e+00,-2.054620742973775283e+00
-8.213179582470761630e+00,3.475755033664297500e+00,-7.835019333852044632e-01
-4.160553421000511953e+00,2.346991820426106212e+00,2.077400255851804545e+00
-5.251084868481719070e+00,4.019777552087352213e+00,5.221338726402324770e-01
-5.524596717936486101e+00,7.765249981903075138e-01,-7.257244854618558061e-02
-7.467525344158514322e+00,1.769019896522297852e+00,-3.262932551024063516e-02
-2.572705469656883182e+00,6.121665289020327805e+00,-2.310854034603672780e+00
-5.303847096695831986e+00,1.688788127755605606e+00,2.951662530103502213e+00
-4.771808921586043972e+00,4.712974651431994566e+00,-1.829233301294134750e-01
-5.505178677092473549e+00,1.572991627730563557e+00,-9.684052538064079618e-01
-8.010500141382467021e+00,3.722413446555252747e+00,-2.730822891905762440e+00
-7.412249251315807363e+00,2.985754788183431430e+00,8.718731522740678086e-01
-6.271709472173824018e+00,5.248132321882694740e+00,-4.666457653305376430e-01
-2.852559695985900312e+00,8.232343700865313307e-01,2.770198098356689620e+00
-4.965129955520884764e+00,2.635102997462021257e+00,-2.129921984353005282e+00
-8.858739943336075839e+00,5.126681786258522777e+00,-1.039442157441134995e+00
-1.305001955550328274e+00,1.392015626823544183e+00,-1.219467786726755820e+00
-3.652405313979071533e+00,1.013389061362025778e+00,3.349434690264446068e+00
-1.997685311427576327e+00,2.634875277752862566e+00,1.482160287906161944e+00
-5.326388230732764129e+00,1.062650043454718363e+00,-3.890637287315842907e-01
-2.617857878811618910e+00,1.441281615702182384e+00,2.755713498120043070e+00
-6.611524554876424986e+00,5.871384277694336795e+00,-1.903600925434335123e+00
-7.663874403128567714e+00,2.125592550923514068e+00,-1.250246195238505553e+00
-2.996916132345169625e+00,5.320656488768236159e+00,-3.752035377511008019e+00
-4.676717994874703521e+00,4.821410273751422615e+00,-3.465525295572012832e-01
-7.592712437728598829e+00,5.037667988971438859e+00,-2.148028703980854326e-01
-5.456333273830838992e-01,2.610182342273350997e+00,3.893109884869804804e-01
-3.506605700916208601e+00,3.311514972565673176e+00,-2.952603548147506363e+00
-2.266888893367302149e+00,5.791871801727243252e+00,-1.669950970046117256e+00
-8.622789539060017105e+00,4.153120773123023746e+00,-1.452746862262439320e+00
-1.680746030273101710e-02,1.682825298744248244e+00,1.204026938263172530e+00
-7.881244009284163354e+00,3.960682218034492053e+00,5.173236784130944566e-01
-3.381746611678762005e-01,1.406986088337788821e-01,7.229764819992173797e-01
-5.262415836617003961e+00,-2.995573442993017532e-01,3.433917558614029808e+00
-9.923893400221532879e-01,1.529797788402348813e+00,2.326760062872011758e+00
-8.183556356235685669e+00,2.877868805956515175e+00,-9.509885197226844999e-01
-4.246572518067551982e+00,-6.467549705798336657e-02,2.796159784096838852e+00
-8.408371121846967000e+00,5.681838033198054028e+00,-8.896915524875539383e-01
-5.589599206540917464e+00,5.886171281212470241e+00,-1.332010103551011237e+00
-5.254811786896892656e+00,5.396076361580119496e+00,-3.519103116891819649e+00
-2.018959587669594491e+00,-9.283281267120553626e-02,1.941835822487087415e-01
-1.254164313049605184e+00,3.126236739296443190e+00,-9.466048775458321130e-01
-5.399902910982655513e+00,2.109691741749384342e+00,-1.442699235517809653e+00
-6.607678532294931628e+00,4.416459239639295986e-01,1.399786673932885916e+00
-1.780975880330505579e+00,4.697062611577177194e+00,-1.000022143058916457e+00
-6.775300649680318088e+00,1.579297549204289108e+00,-7.192193988920124736e-01
-1.635714617235312307e+00,1.704107874865319339e+00,2.489812885033315215e+00
-3.142181258103952324e+00,3.278727024521509992e-01,2.455225554744275840e+00
-5.482578918167382298e+00,-9.674452645343363244e-01,2.705575310273121481e+00
-2.122723127912751195e+00,3.405744101013943759e+00,-3.139830283015073498e+00
-3.929250028859619270e+00,6.338957549373138711e+00,-3.371535709036209472e+00
-7.708085461378196612e+00,2.527107352003590712e+00,1.123667579901560520e-01
-7.059157485426696965e+00,8.258875197173036753e-01,2.269019880176327830e-01
-3.092207986362739636e+00,2.445953716397329281e+00,1.799028144282248887e+00
-1.238736384534683488e+00,3.543015003423551246e+00,-9.233957054108707929e-01
-6.840963470905737642e-01,1.647839585454955458e+00,-5.693886196196794591e-01
-1.809018904066262978e+00,4.389331654926958315e+00,-1.338135753797736527e+00
-2.614522654084629583e+00,6.178392732407670174e+00,-2.297897878119667503e+00
-1.631336716775868556e+00,4.014798618491322912e+00,-1.325338840107895599e+00
-3.940957333055233325e-01,-1.409344730954305014e-01,2.622197618918061801e-01
-3.358754591761010211e+00,4.642126612497537330e+00,-4.251310048717580337e+00
-1.779087793972631060e+00,4.678764742538202626e+00,-5.928110489123703530e-01
-7.403341864283267348e+00,3.927965632872289614e+00,-2.895145976751161143e+00
-5.957862308025974940e+00,1.654741122431007794e+00,2.797070460349222021e+00
-1.319274518158687348e+00,-4.636317429668955492e-02,8.168173596948449244e-01
-6.335366488788506167e+00,-9.493449576630337561e-02,1.736930921079991252e+00
-7.665861988110757252e+00,1.828882389580203105e+00,-9.237230496732879992e-01
-7.318313343812309135e+00,3.722523086349609933e+00,-2.719796285630563304e+00
-4.425221430441669490e+00,1.634284276127655255e+00,-1.100902219648991931e+00
-6.906441247193737532e+00,2.242107625809056870e+00,1.835606694883383350e+00
-7.312446135132594449e+00,2.907292972097978989e+00,-2.044273332649454211e+00
-6.898673227743882919e+00,4.818650217198967134e+00,9.164502481432832554e-03
2.225433937498187686e-01,1.626550002099315106e+00,1.481181210910511137e+00
-6.782708114951274680e+00,5.445465285491277285e+00,-7.138755342353666489e-01
-7.571955632483169829e+00,4.295320927899428654e+00,5.290992619477352665e-01
-3.428110823926814987e+00,6.275070476033385303e-01,-2.862383408812032570e-01
-1.050204320082897880e+00,1.022038450583761804e-01,8.320616354873366927e-01
-6.325414471939422967e+00,4.951886453952600853e+00,-3.193443999799379984e+00
-8.731426653526321857e+00,4.370100082762172988e+00,-2.018863384541533801e+00
-5.228251108213940235e+00,1.038372416336131587e-01,5.242799049980200188e-01
-5.894313064411640823e+00,4.092011332794208478e+00,-3.286963909581355203e+00
-7.299331337679355158e+00,2.637774527311861572e+00,8.271360726260762464e-01
-2.730215052511207663e+00,6.786851510682518906e-01,2.648004664351379933e+00
-2.774945015569162621e+00,6.450985734694319795e+00,-2.681705418631727067e+00
-8.132490549483835096e+00,4.629116441407282956e+00,-2.306055609269931583e+00
-3.600066596597738755e+00,8.706713844697115956e-01,3.313727513755263754e+00
-6.722290572766914885e+00,5.202193387046495587e+00,-2.322397540149988338e+00
-5.330505929372965745e+00,2.501865211219487684e+00,2.080067973020070404e+00
-1.285565714590594100e+00,1.217288599977777830e+00,2.130608754250443049e+00
-4.687043785711267674e+00,2.241508079193377245e-01,2.652170579137586026e-01
-6.691629637767113614e+00,1.261687532920594323e+00,-4.608579879919530442e-01
-2.396535223440810380e+00,5.521485932254191376e+00,-1.217309493234592255e+00
-3.620529749565722710e+00,-3.596210488870750788e-01,2.199573083711106047e+00
-1.392044613416711929e+00,3.102497368708696523e+00,-1.436955607188540984e+00
-4.781873024544021966e+00,2.744101797708682344e+00,1.895722141381214421e+00
-7.316127674071937648e+00,5.834888943870198297e+00,-1.340032276506897491e+00
-2.524625258319214804e+00,2.686155468926952228e+00,-2.467635984116120618e+00
-1.924366280325327638e+00,3.279469757924407869e+00,9.950876387717318972e-01
-6.175442615780218247e+00,2.247424451522913036e-01,2.781079209574596867e+00
-4.145763139451043244e+00,-3.454265307572700894e-01,2.356552931627442060e+00
-5.144618612261104396e+00,3.926505798803063385e+00,5.639075906505618407e-01
-5.580763286742431717e+00,-1.198477495438995122e-01,3.571913279795318363e+00
-6.047771967958983197e+00,3.714102709957156634e+00,-2.978824607075248210e+00
-1.016757346445776644e+00,-2.086316517398387194e-01,3.846695692557453583e-01
-2.916718704993232603e+00,4.260677177543090721e+00,-3.908203244836941703e+00
-2.183207635098876498e+00,5.380795675238148057e+00,-1.135738296189370944e+00
-1.544310901771547950e+00,-2.827346146395558479e-01,9.014690562355516246e-01
-9.531409177516094733e-01,1.246210745720091051e+00,2.042993694733112431e+00
-4.004020661706236162e+00,-1.061744725066386286e+00,1.519374818286861606e+00
-3.505582806372749882e+00,1.732694301126918024e+00,-1.410004495985684336e+00
-4.875465616179274875e+00,3.135623207284442771e+00,-2.388127488183563241e+00
-6.919719840896067176e+00,2.383189594841108594e+00,-1.479958411163273979e+00
-5.292207016274608655e+00,2.293036679060316829e-01,3.799391386331792408e-01
-7.492399403339667252e+00,5.549732610221794538e+00,-1.808927802121066630e+00
-5.926206861201849030e+00,6.265820325224680687e+00,-1.972224549537405336e+00
-3.814295556878471327e+00,3.917107582846872216e+00,-3.459648922689620321e+00
-5.820914781116362846e+00,5.317999672797798505e-01,3.801309951916016061e+00
-6.098987698826823234e+00,1.412383023761702994e-01,5.481649190765894852e-01
-7.556708551747857605e+00,2.840757684027769958e+00,4.826079294285963717e-01
-2.175271827053369744e+00,2.059828803614408343e+00,-1.572833068895972630e+00
-2.795548581638016117e+00,-1.348176025816537893e-01,1.954786820067352382e+00
1.839002155785390141e-02,2.268693184756767067e+00,1.697892072559053389e+00
-4.085978590288744883e+00,-2.654155162029755433e-01,2.750937762468429693e+00
-1.358793999800242513e+00,2.794961253919364008e+00,-1.645338345049948137e+00
-1.215460387982082668e+00,2.754519195271700749e+00,-1.635976589985740359e+00
-6.506236589141276561e+00,2.493925226286165309e+00,2.188691458208895213e+00
9.004688603601039565e-02,9.403346184163926536e-01,7.309825689223462541e-01
-3.197834957597056604e+00,6.620482800861063666e+00,-3.697607728708208974e+00
-7.462554834354708788e+00,3.675490866859761674e+00,-2.661540458881512805e+00
-6.338485577417980465e+00,5.899688047969731119e-01,2.284180550739556725e+00
-2.962615244812781601e+00,3.132055937143935598e+00,1.081613202036826316e+00
-2.058062478259064854e+00,4.896280150300233558e+00,-1.816846798632159699e+00
-3.671681577995661527e+00,1.236990997464488262e-01,2.503896177115025878e+00
-6.897971422885615489e+00,3.144710426302779638e+00,1.624216295658310383e+00
-6.036042350347801566e+00,4.991992891647782926e+00,-3.306384649729823710e+00
-5.586564715834311912e+00,5.008921551606651867e+00,-2.987119680245066689e-01
-1.123174507924541876e+00,3.593467060666351021e+00,-2.250367698595538701e-01
-3.836369322730007081e+00,1.016089318943584452e+00,-5.388987005072035652e-01
-4.873209242206255176e+00,4.993378667130313531e+00,-3.114888912722768022e-01
-3.903236286543052547e-01,1.510157291500284105e+00,-2.347441627760818994e-01
-2.768367062648719568e+00,2.367273870710033368e+00,-2.038431896955820832e+00
-7.862719789225808498e+00,5.663152117286794685e+00,-7.702251246670481777e-01
-6.891612242182627135e+00,7.615334853463571196e-01,6.117641559810866880e-01
-1.428353481282679249e+00,3.252777687186656497e+00,8.842982589723317188e-01
-5.802286749944862265e+00,6.351494173033362500e+00,-1.738459152545571929e+00
-1.097804137472250252e-01,7.960589197538489037e-01,4.207524837044578359e-01
-5.041457717990073917e+00,4.286654979280861255e+00,2.945633733154491840e-01
-7.395628918331706991e+00,1.741806617523853129e+00,3.001482403033920998e-01
-4.309911766206970363e+00,5.152984444984813450e+00,-7.168938585407237385e-01
-8.371122854724958318e-01,2.785781502151320588e+00,1.310689478842489430e+00
-5.434209057181903724e+00,-6.478738363554900070e-01,3.049005143998551048e+00
-4.643118150527032029e+00,-1.143859802908999690e+00,1.592095365537936846e+00
-2.285088895014744992e+00,1.914439939281427083e+00,-1.612679116689472725e+00
-7.425129186795595970e+00,3.805796902510818036e+00,-2.729741358235388660e+00
-7.803920545271620490e+00,2.552766561125568767e+00,-4.355184905462761713e-01
-4.269762047296093321e+00,6.343085830467157571e+00,-2.915749191250156525e+00
-6.452788469417519712e-01,3.226473155855851704e+00,6.549980246818306595e-01
-7.636614306989913281e+00,4.978552231554253638e+00,-2.191712940447072988e+00
-2.333255513307432416e+00,2.183417675684121484e+00,-1.871226314305052263e+00
-2.870921427815995131e+00,1.794861095792045003e+00,2.293570661526659560e+00
-5.114910310026624884e+00,6.093683015249656831e-01,3.832976068140902637e+00
-3.692180719520399834e-01,9.333408831284700780e-01,-6.801577491520451879e-01
-3.938500214369349273e+00,3.789285819276367318e-01,3.223213487425203638e+00
-3.556920724007114121e+00,4.456177351259486663e+00,-2.021507875684501743e-01
-1.493749997788405004e+00,3.898759805382344457e+00,1.016891122227398803e-01
-5.363026627774345467e-01,2.622503896387204492e+00,1.206910343675274611e+00
-2.465050973635471099e+00,-2.463920456903759271e-01,5.111267549686741019e-01
-6.046669498960653755e+00,5.687483410804802908e+00,-9.854346190081354484e-01
-2.337499671619973185e+00,4.174627472774433912e+00,3.726257900725470779e-02
-5.221111566550344918e+00,8.810970581087493869e-01,-2.955937757041514624e-01
-7.943757983986319715e+00,2.818568396612891824e+00,-4.823886964041604331e-01
-3.401646273764160622e+00,-8.194722516843815363e-01,1.008566093314074541e+00
-2.501577958032927373e+00,5.069962012188824474e+00,-3.297020011628852387e+00
-3.384978890628690618e+00,1.548192624781477678e+00,-1.167378951674432841e+00
-5.298897092609486492e+00,-4.259993805521684052e-01,3.109309976378395124e+00
-3.848393278952207730e+00,-2.906008596196440336e-02,2.623883724135883444e+00
-5.091994135921022568e+00,6.392447790648378536e+00,-1.869254809173604981e+00
-1.646680912356634607e+00,4.129943321593563255e+00,-1.338782581170971930e+00
-1.267182288697852766e+00,4.072536010324343536e+00,2.390159783960496900e-02
-7.188128861724840668e+00,1.899932869299502336e+00,3.618108556483456972e-01
-5.738889196778145241e+00,3.921542868290435191e+00,8.302006643374179040e-01
-5.982874849798477612e+00,4.362222913018518611e+00,2.232826957213050190e-01
-7.695820688850484537e+00,2.102938782099844417e+00,-4.105215863195476600e-01
-1.441831664790569567e+00,2.148848114807585752e+00,-1.819208031320213470e+00
-7.102223866678263775e+00,2.881642973693504306e+00,-2.028353818116555018e+00
-3.839945817528345628e+00,4.996806796198534961e+00,-4.528105452867721148e+00
-2.572454565817418715e+00,2.586253321884453449e+00,1.605297607767052437e+00
-2.451590072530485109e+00,1.604115466042315141e+00,2.580606852659961259e+00
-1.133235726557558776e+00,9.728696149552459316e-01,2.017484743273929571e+00
-7.479547030175616840e+00,5.488193278729538882e+00,-1.911191868383185888e+00
-4.055293127324740787e+00,1.921287889107901714e+00,-1.460149863655442193e+00
-1.150415230318220905e+00,3.428890680246461375e+00,-5.305403163184378990e-01
-3.988064172919002282e+00,4.936209202611738234e-01,-6.713986866773337392e-02
-3.596451927661683978e+00,-3.232715610296144071e-01,5.863451045226178993e-01
-7.111040183646157864e+00,3.086617081498894688e+00,1.697775287127964772e+00
-5.024580516393839069e+00,2.064065040103966187e+00,2.469840493317293717e+00
-5.612515501379982119e+00,-1.300828218105100520e+00,2.272096237918123762e+00
-4.157982642002942875e+00,5.335353533280842164e+00,-8.749886716197113889e-01
-1.100637475169384372e+00,1.089484300475868750e+00,-9.407601094305092504e-01
-4.482204435794386654e+00,2.110657866190376042e-01,3.735366858806790091e-01
-3.261044740685972609e+00,6.583852232213422084e+00,-3.394859577917972437e+00
-3.795809144582802386e+00,6.618377847647729517e+00,-2.960212869163481919e+00
-1.594004911950146708e+00,4.127230078389559687e+00,-1.537337614572186650e+00
-3.223249258147283136e+00,4.981962877961424674e+00,-4.348486147616090314e+00
-2.325113206158026635e+00,-3.268598032628507455e-01,1.143713481144108979e+00
-3.399732303310134540e+00,5.079701759288666629e+00,-4.443825914391429599e+00
-5.873166405706658821e+00,1.593111262257154159e+00,2.943886058537877215e+00
-3.582826580519280935e+00,-7.539967479101764569e-01,1.171678210594679692e+00
-1.544888631389110589e+00,1.258063885093333223e+00,2.338724046371869925e+00
-5.677158830418022717e+00,-5.633224717887168609e-01,1.254309240411003001e+00
-3.226359224262948189e+00,3.928016345602688641e+00,-3.410685336749568197e+00
-2.987080382945298762e+00,2.726310997695485128e+00,-2.431422303244009431e+00
-7.572163498326639264e+00,4.629202247711509344e+00,-2.594848437389281504e+00
-2.512233406571015237e+00,5.022255705703458695e+00,-3.269246653951914716e+00
-6.044967937589578177e-01,5.405838862454179772e-01,-4.400978379683921360e-01
-3.183738260581770341e+00,3.414502409443788356e+00,-2.794335941655702538e+00
-1.554209189700436200e+00,-3.554855076430382677e-01,6.022937367689495947e-01
-6.755340104260871836e-01,1.379754924254863235e+00,-5.631400016670546904e-01
-3.922659530087523105e+00,2.478222726452825153e+00,-1.937184772842414526e+00
-6.987336465784501627e+00,3.195025089258214823e+00,-2.338312655770211190e+00
-3.004120978468878711e+00,4.531594678629370598e+00,-4.146812413898660843e+00
-7.098892729022177939e+00,1.050986306723667330e+00,4.993467724702143617e-01
-1.398591904862346524e+00,1.332534735446675722e-01,-1.207824466046317352e-01
-5.229838212430554023e+00,3.228015875135932689e+00,1.318885960726242867e+00
-7.631024468745676081e+00,2.754179623842805125e+00,-1.879135785528448732e+00
-2.617871161197758756e+00,6.426905524867176922e+00,-2.215234385289143848e+00
-6.626531151979155432e+00,2.972869307031974273e+00,1.671259960767646602e+00
-4.616088832643792550e+00,3.738786405609115349e+00,7.717000290420329423e-01
-2.956237427618363167e+00,1.258043271427615961e+00,2.945274598362078944e+00
-7.035227207622808621e+00,2.191098630770053735e+00,1.498940223380264891e+00
-2.392785288025382595e+00,4.217654989301268031e+00,-3.232166611557169222e+00
-4.990925945351837534e+00,3.060198357302343020e+00,1.402062688205456764e+00
-4.375409285129173709e-01,1.420706363558317031e+00,-3.360314974820416967e-01
-2.114812615187744438e+00,-5.250772506159577802e-01,7.336629709405083632e-01
-1.726936950369239998e+00,2.075716315303401505e+00,-1.810435134400676160e+00
-5.839894606446514480e+00,5.550972724927452084e+00,-2.720755565540209808e+00
-1.724318766705614792e+00,5.345533528990397132e-01,-2.284353351006703781e-01
-8.777731280255325785e+00,3.726023441898212774e+00,-2.272529042603290694e+00
-5.878839053379496526e-01,9.338692771396378545e-01,1.401396827025030101e+00
-8.763971863684883346e+00,3.485845793534084525e+00,-2.604018707651766462e+00
-6.142727173830368592e+00,2.854261928146712535e+00,-1.996690858003746349e+00
-4.356030720295902547e+00,6.313868348831989330e+00,-1.724634466059302040e+00
-1.792319522044385494e+00,4.084725075131003358e+00,-1.854495322896659637e+00
-6.630718978541454867e+00,4.319774213913659011e+00,-3.432620066653941926e+00
-4.947104934332076098e+00,4.163123296326284972e+00,2.977455706430548465e-01
-4.390782484842134181e+00,6.319811251209772607e+00,-2.893469110409805367e+00
-7.662649350650323044e+00,1.993555274522637477e+00,-5.212804506198992494e-01
-5.848816342164627535e+00,6.299178799726301570e+00,-1.736543323554426976e+00
-5.894523620867183844e+00,-3.281672726121745431e-02,2.545719373231217553e+00
-1.759050106580477113e+00,1.184241185154567833e-01,1.375950957754795922e+00
-6.672121935970418249e+00,2.558300625959051722e+00,2.087260351104384792e+00
-6.698249946168638225e+00,5.933833530522464983e+00,-1.241052508750487338e+00
-5.758873576897049595e+00,2.842949487891456517e+00,-2.301119676891979715e+00
-3.636408674548767261e-01,2.232921595449924190e+00,6.585012038639379561e-01
-5.131056094680740642e+00,6.245428616825734913e+00,-2.616226794388609722e+00
-3.518365128303542200e+00,5.817809135977870305e+00,-3.894153343759643615e+00
-2.864120276252239083e+00,1.714573254987522111e+00,-1.310419318169618430e+00
-2.553654682619781013e+00,5.398729317720550647e+00,-1.270170163148511167e+00
-7.314944827001308880e+00,4.491567720917421624e+00,2.716384793744895387e-01
-4.411962965161933536e-01,5.361854406508085313e-01,9.044329171491103381e-01
-1.160543240026181255e+00,7.092779483780570216e-02,5.933260911726864206e-01
-2.245803146440778608e+00,-5.274130288414371481e-01,7.374069080858579595e-01
-8.385527721481992103e+00,2.815985728461837034e+00,-1.427972293432150375e+00
-1.824436619248632541e+00,1.864982142245263930e+00,2.419652115209183663e+00
-2.173432856141262359e+00,5.718197128601899770e+00,-2.057244168226905146e+00
-8.534676410242694189e+00,4.315250076848865746e+00,-2.323398999861640224e+00
-6.818706575800930203e+00,5.024198545590037313e+00,-3.225928516965507753e-01
-1.711075562947089068e+00,3.087112644600932043e+00,-2.592278972518785363e+00
-6.721169063766003759e+00,1.986362525415746205e+00,2.328198270203946763e+00
-4.323731868150509250e+00,3.090225149923441883e+00,1.599942235494916654e+00
-2.198048220667291108e+00,-1.760181607931963696e-02,2.909261059194907517e-01
-2.953043742350055734e+00,2.050527525282832109e+00,2.227786971981102315e+00
-4.475116908555791362e+00,3.370265541890130390e+00,-2.842366503671492683e+00
-2.047796368690717905e+00,-4.250851434829897024e-01,9.164404818110090112e-01
-5.124639191228917312e+00,-1.630720742269440304e-01,3.276113260456313903e+00
-4.700375126739335663e+00,5.511464870317841935e+00,-3.547914020300382720e+00
-6.716876747740124109e+00,5.684676458893412665e+00,-9.721817448216738544e-01
-2.957638895171034843e+00,-1.042466502809728385e-01,2.726141698987901152e-01
-2.937325680253382032e+00,5.923873407519258727e+00,-3.681210705758871882e+00
-2.791177426263951045e+00,3.738990261640642743e+00,3.410564885868478391e-01
-6.529134975821389020e+00,7.531030116883966063e-02,9.974882062043312070e-01
-5.645652757983905090e+00,5.248493862638010654e+00,-5.335816409996372300e-01
-1.254718629956235842e+00,2.743468844091576209e+00,-1.482981308271628107e+00
-9.208181878883029414e-01,3.948319813035322756e+00,3.966232058795255561e-02
-4.788324260523334902e-02,2.043569480001595995e+00,1.881321031254861609e+00
-4.404931441913928936e+00,2.694946290147622214e+00,1.701240879210217383e+00
-3.910967435612048071e+00,2.084067164223483370e+00,2.321093956303514450e+00
-5.737630612853744871e+00,2.091599901045861909e+00,-1.434853167249854344e+00
-6.020288221582332788e+00,4.083391906715990172e-01,2.791761068115314437e+00
-7.968341607468227394e+00,2.355282043812040982e+00,-8.219154531642385297e-01
-6.087908719374476973e+00,1.064863754272415836e-01,6.853999867567048820e-01
-5.049483420582618898e+00,-4.551994955397659082e-01,1.218777245981501167e+00
-5.698376027958862444e+00,1.197743948843737138e+00,-4.029569845143221585e-01
-3.895992231717653187e+00,6.208566995816473977e+00,-1.801612454777115735e+00
-8.039269855671714593e-01,-4.491580673060485175e-03,1.171931875919716426e-01
-2.159858196130452157e+00,5.809196541418943927e-01,-3.498940468955030747e-01
-3.473915602363777833e+00,-3.150761465889852231e-02,2.322865879931967026e+00
-6.070394404369774399e+00,9.617612893085493164e-01,3.098335538059784344e+00
-4.181716803399251892e-02,1.648733134136432410e+00,7.144733142758258326e-01
-7.469227381080190575e+00,4.035647221386471806e+00,8.119551470797776727e-01
-6.804882589193146813e+00,1.301791018654101961e+00,-3.855279124285191372e-01
-5.457733895262177448e+00,3.288627193342702260e+00,1.368641904088002681e+00
-5.513907910276703461e+00,-9.125098371151824095e-01,1.451930559232985418e+00
-5.015066769670041502e+00,5.718164928603015618e+00,-3.255373580843018200e+00
-6.878751194315952944e+00,4.024885145017992549e+00,7.931672461482752734e-01
-7.002068218356764184e+00,4.810252901942706494e+00,-2.108798483152543590e-01
-1.531919949463137753e-01,3.352447585348061199e-01,3.974508233237081800e-01
-1.505633698870447734e+00,2.361997311341155648e+00,-2.021735173942541319e+00
-6.644289326108178351e+00,4.264766399478512326e+00,-3.417474674384835875e+00
-4.894813069483985757e+00,6.684107880202357244e+00,-2.087024614451781890e+00
1.384486330098763929e-01,1.199811393140221227e+00,1.154778362788866586e+00
9.328573139063923991e-02,1.825146345459236707e+00,1.518626123549406737e+00
-3.467392079020060081e+00,4.356799762372437712e+00,-3.930174138130276162e+00
-6.756280387145631394e+00,5.974731800841372120e+00,-1.645754474626887287e+00
-6.156197905603276732e-01,1.835633877797792746e+00,2.338922535801190250e+00
-2.799146192459307070e+00,4.649436134721091740e+00,-2.533805723460916259e-01
-3.136893204593477869e+00,5.687007482528438906e+00,-1.285905841883997480e+00
-5.457354844701753471e+00,5.032021864116692278e+00,-3.737598909383837320e+00
-4.327187315728015626e+00,6.247270297611852818e+00,-1.607336457676654673e+00
-4.877034284233564776e+00,2.997417140709426775e+00,-2.470306834104838423e+00
-3.594837278360807353e+00,4.193182796519164590e+00,-3.778467343886664054e+00
-6.285354153213877915e+00,2.641031698741169276e+00,2.127684842287891787e+00
-2.817072844266653497e+00,4.543861588700814025e+00,-3.868070993010886749e+00
-5.227542542522324531e+00,3.516395124150642482e-01,4.019951879495583746e+00
-2.738153723404861850e+00,1.296429186787235954e+00,-8.739151445133985785e-01
-7.914273793437486049e+00,4.331101807408177073e+00,4.030078402939700211e-01
-2.772079382745595844e+00,5.903098275573259279e+00,-2.827220897612220618e+00
-2.548447708278072987e+00,2.704604644744032171e+00,-2.276501545539614035e+00
-5.698886561938741657e+00,8.242267876017561612e-02,6.058915960968089820e-01
-3.933170772782135227e+00,4.201310886528854205e+00,-3.657751210267512043e+00
-7.478990270965525378e-01,3.341687945153008155e+00,5.717444818792264405e-01
-8.066556470312427507e+00,4.018860843746607792e+00,-2.930158852372071188e+00
-6.642282442521899810e+00,2.817815569868186154e-01,1.006717659647775154e+00
-7.015338803265676937e+00,2.097675192053449766e+00,1.358610076971637159e+00
-6.177253652999138644e+00,5.618847868550123081e+00,-2.537729886807854385e+00
-2.100268331759521434e+00,1.485040688022784883e+00,-1.346955080626401902e+00
-5.228730642034393306e+00,2.956091340488866681e+00,-2.288325782846663436e+00
-8.406456156271442381e+00,3.794148666237217693e+00,-1.026475839983307159e+00
-8.286334546150841973e+00,5.141165622341775432e+00,-1.658020740148857808e+00
-7.280896572981510495e+00,1.041273670091046544e+00,-6.171102821370688662e-02
-7.914866808139753296e+00,2.303099472182156937e+00,-1.360487773111748178e+00
-1.473666243186864122e+00,1.383287005130192648e+00,2.413147636465001966e+00
-4.994850928296920678e+00,2.188198357099017333e+00,2.199775008483317418e+00
-6.749190234111282827e+00,1.557617013258569827e+00,-8.632321548929983157e-01
-5.341361493268846239e+00,-5.651625200003040916e-01,2.863042933677762747e+00
-7.745812322279794770e+00,3.527100499837653391e+00,-2.686197188157230631e+00
-5.374660999572749454e+00,1.031414468048126531e+00,3.374529541074891448e+00
-2.863605795795533648e+00,5.786433426871226082e+00,-3.155788626800286600e+00
-3.672384429913041703e+00,-1.582641712980224213e-01,2.150280868227745223e+00
-4.881330473283420623e+00,2.608333999478161580e+00,2.026857316447721047e+00
-3.358957219436598418e+00,5.897017486052321011e+00,-4.172434210055863346e+00
-7.436120984344545271e+00,5.445567058755012013e+00,-2.011503290061337434e+00
-3.886800788752178271e+00,1.212655326025886771e+00,3.131337881000760603e+00
-4.488558438341355483e+00,3.960877775095991815e+00,-3.489205517523130684e+00
-2.337158113349708355e+00,-5.810753927054791435e-01,9.560318591766809870e-01
-1.178266480136589633e+00,1.550714389253014414e+00,-1.394262916131481012e+00
-8.507557393514282751e+00,3.025596864358581328e+00,-2.076010505651525673e+00
-1.217132292333923616e+00,1.842376714824304651e+00,2.184725783440954583e+00
-7.452262604783926214e+00,2.438686542681440805e+00,5.199790817726306358e-01
-4.860890292396236489e+00,-6.363241503168186597e-01,2.628370625455124010e+00
-8.571743028228048900e+00,5.422246456192243436e+00,-5.562424465179151012e-01
-6.491030583479558302e+00,5.334756040505620689e+00,-6.540317375806751210e-01
-5.557342549465862369e+00,5.586275495264334534e-01,3.964726084346367418e+00
-8.016899571909474886e+00,2.489121380649935933e+00,-1.150068686609858837e+00
-5.399699280646667710e+00,-2.561586153427524715e-01,8.947675874341279867e-01
-8.469926566948567270e+00,4.132375154462996747e+00,-2.718831852996231646e+00
-1.967729823774892584e+00,4.735804099235246589e+00,-5.727506110985112198e-01
-7.810764563276038075e+00,3.718066505224430607e+00,4.856171903840967308e-01
-5.396886545192869811e+00,4.934408779114592747e+00,-3.600035783904058206e+00
-4.300184913143267451e+00,6.150674045745911478e+00,-3.090485011125680082e+00
-2.129139941825437532e+00,3.390152497515031893e+00,8.479883446180427331e-01
-3.460560146023099026e+00,2.622061615496547482e+00,1.804147726566453613e+00
-3.915045577485722905e-01,3.119305304069627804e-01,-2.266488808245471775e-01
-4.670510436968204893e+00,3.795229309906868131e+00,6.629602513388374030e-01
-7.628435436753509435e+00,1.909746682375749849e+00,1.944381455001396308e-01
-6.783727790201462327e+00,2.083914075762709039e+00,-1.193309017068350242e+00
-7.029804672844715441e+00,3.791177586000538113e+00,-2.830750711282477461e+00
-5.737053786537797073e+00,-9.472726054083701053e-01,1.483233100718835740e+00
-3.376870165004047575e+00,3.586863443695279763e+00,-3.179261807874635970e+00
-2.226471588860656770e+00,5.767200909176905199e+00,-1.923516267567165539e+00
-6.107411099077055816e+00,3.916827063033886613e+00,8.064201900038320270e-01
-5.309787168516066025e+00,3.049184104433945830e+00,-2.468931999155530743e+00
-1.403731056388465959e+00,1.053592207125944702e+00,-9.255825479843345915e-01
-3.716465054612100971e+00,1.467190008677026647e+00,-9.609287391357643759e-01
-1.905366867351653504e+00,2.719604189612503831e+00,1.433140095906772160e+00
-4.694622974094419199e+00,3.370566719213555995e+00,1.148025564392667563e+00
-7.372142511858085001e+00,2.176142806065795909e+00,1.465254070615030213e-01
-4.058460609591619139e+00,2.074016962267394959e+00,2.188135115645187589e+00
-6.480824703375415829e+00,5.780036604350319074e+00,-2.061324749404000567e+00
-5.505124089684538369e+00,1.110845351018339144e+00,3.501983677431289355e+00
-6.858963077847557877e+00,3.928041533053718393e+00,-3.038766915909274058e+00
-3.245991164291016862e+00,3.371641232198749449e+00,-2.865032239214264198e+00
-3.756415192170959205e+00,3.919662624399882223e+00,3.687953745479861656e-01
-3.791002406122797375e+00,-3.148924197272904291e-01,7.067779194195771275e-01
-8.090238918133126234e+00,5.459251458024568571e+00,-4.621883654910917127e-01
-7.034524307304438118e+00,1.244117730246043996e+00,7.486555372853065382e-01
-5.735705107423620497e+00,4.589448325948057850e+00,-3.833153056220026667e+00
-4.148412493252646271e+00,5.988960430399449031e+00,-1.344531012611204890e+00
-8.621800272662611064e+00,3.248006746518332211e+00,-1.839144739635061976e+00
-3.151884294196295233e+00,2.039664994931984054e+00,2.056362308754092094e+00
-3.496124709520106677e+00,8.232477484949405344e-01,-4.212360017373704690e-01
-8.577946440170839182e+00,5.333747627959660065e+00,-5.066890210887167179e-01
-6.769724873183349700e+00,2.445705793770844405e+00,2.203048962678209488e+00
-3.656264673234586926e+00,-6.261287439439454650e-01,1.140941747336341683e+00
-4.579049885138415377e+00,4.671105829231112061e+00,-4.173514516871551727e+00
-3.352500567377840301e+00,7.085830080482025117e+00,-2.636762780182049237e+00
-3.249269192084068614e+00,2.740177977922857999e-01,-9.316264042849551914e-04
-1.098908228718954883e+00,3.548150426599922191e+00,4.820757835535129932e-01
-6.816780778344050162e+00,5.727826229548928616e+00,-1.879408047970672735e+00
-6.481681370549282839e+00,1.279204267573848641e+00,-4.522321369923435475e-01
-4.924897937948036208e+00,1.497598996844980768e+00,2.799710719330544606e+00
-5.062741892487589546e+00,1.042446957166383026e+00,3.353836003646107233e+00
-4.324940077963878693e+00,2.041384617271390756e+00,-1.370343340041154656e+00
-1.233112891435966141e+00,2.287630839438585528e-01,-1.220018244694528881e-01
-4.653703350674785355e+00,1.929459693976677270e+00,-1.300683275859091159e+00
-3.730235231306243904e+00,6.407767987069064475e+00,-1.979828132557280407e+00
-1.571507222863765207e+00,4.798393457343576252e+00,-5.113618650508816588e-01
-4.863294623072291323e+00,5.283722125511788548e+00,-3.938924157708351359e+00
-8.209542211392593103e+00,2.939974943029530330e+00,-7.725712974899587859e-01
-5.803949602036661659e+00,4.942473401385702125e+00,-3.505745016128416491e+00
-1.567199650714425019e+00,2.955520449170054298e-01,1.315821348278626735e+00
-2.749625921901315273e+00,2.579733063209622479e+00,1.636852169181542305e+00
-6.342774718181140692e+00,5.678800009763301126e+00,-2.349672087643345897e+00
-4.452633201999812940e+00,2.177257937177489833e+00,2.252290271163923219e+00
-6.429948570179168321e+00,2.625624162585222243e-01,1.914359796741049724e+00
-6.497168015760388826e+00,-1.432735564595860045e-01,1.696429598202641165e+00
-4.817626220591296082e+00,4.315439299681741447e-01,3.882265228751013986e+00
-1.945832948827622699e+00,4.014658022300647389e+00,2.146594523598299165e-01
-4.703453814283223622e+00,3.158013126828392192e+00,-2.617550347838947467e+00
-5.182400605151835649e+00,2.106047635977813304e+00,-1.294856310505212660e+00
-3.582548573578454576e+00,2.384557580379214503e+00,-1.794461065927326571e+00
-2.476879230687774935e+00,4.644864384793851109e+00,-4.366159820705548533e-01
-8.227261413588908834e-01,7.017605236507590272e-01,1.481464744034031833e+00
-6.497236223459633031e+00,3.654659556872424719e+00,-2.873609726040333712e+00
-6.586746526644159161e+00,5.849842578583301922e+00,-1.934786081989376516e+00
-5.137411965022029570e+00,6.442107857134278248e+00,-1.936496542501810358e+00
-4.901575107769391870e+00,2.212998258956600406e+00,-1.527041392091577521e+00
-8.058359855307623221e+00,2.832127562407263710e+00,-9.705260105580171270e-01
-7.585529502144381375e+00,4.385178395949340668e+00,4.143124422517242000e-01
-4.346441911190182417e+00,5.747636640754998361e+00,-3.442626544011957890e+00
-6.299535238137850435e+00,1.752931243970195396e+00,2.973738287050830653e+00
-6.617057773057379855e+00,4.825209058918798477e-01,1.339502242744115001e+00
-4.309298744542563675e+00,4.183017020284943044e+00,3.671134765945072154e-01
-8.749411865107559194e+00,3.381880948026337208e+00,-2.290694466004462360e+00
-7.588225608824648860e-02,6.724075180420907571e-01,4.494799674654059718e-01
-6.506825419325385162e+00,2.314382939283390783e+00,-1.406929191866977735e+00
-8.896382681331295450e-02,2.029359318371271037e+00,1.774030022608068080e+00
-8.707025558093743456e+00,5.204894717835070850e+00,-1.176818730668341528e+00
-3.168518610622947040e+00,1.906124237690425050e+00,-1.462395068272560383e+00
-3.969393381995657499e+00,6.498679407061933588e+00,-2.976481555306322857e+00
-7.709299563083956919e+00,5.473022230490037998e+00,-6.637393414021492966e-01
-8.610434764280547881e+00,5.720893062632837811e+00,-6.886611195799685614e-01
-5.110599614425263226e+00,2.376681592840665047e+00,-1.712499875654900583e+00
-3.232652297032303501e+00,2.056493128983394758e+00,2.093344493820480601e+00
-4.804574450254102125e+00,2.581931065773176215e+00,1.937819173193685129e+00
-3.667716101434725040e+00,3.246844722435968666e+00,-2.768053907992525708e+00
-4.145377304233450744e+00,5.220292239772648557e+00,-4.233604191582553078e+00
-6.427102612827527039e+00,9.869476346490700935e-01,2.596432899800475091e+00
-6.611650354590559608e+00,2.012953839671124179e+00,-1.337781553628731857e+00
-5.364924111294787856e+00,7.949531591685524701e-01,3.845187871149732040e+00
-3.579061445397193619e+00,5.937505041183152699e+00,-3.986959911439128312e+00
-6.851549384204331794e+00,4.958607850130884565e+00,-3.253674551971873496e-01
-5.681778002241531844e+00,-1.450533446211692112e+00,2.171174560324864000e+00
-5.549627880134694102e+00,4.648894826702758554e-01,1.753785799370286558e-01
-4.839531910596946318e+00,5.905721976450724497e+00,-3.094963203802496121e+00
-8.476724087066360269e+00,5.498239431319781545e+00,-1.112421828391104039e+00
-5.936785881988021707e+00,6.304597853489450010e+00,-1.916046004899759403e+00
-4.915424265082776856e+00,1.402538425392757082e+00,-7.955498356844273866e-01
-3.314525117437130852e+00,9.676777483426272919e-02,2.482630310310125932e+00
-3.282693162738035131e+00,1.210334484761267815e+00,-6.021528746968488610e-01
-1.848241304365921600e+00,2.687496440944163290e+00,1.341070931334247485e+00
-6.304428848513568440e+00,1.431545898123093963e+00,-6.082472399669468510e-01
-7.730039549946680744e+00,1.939292504436966658e+00,-7.055088920072637437e-01
-4.941006719120023760e+00,5.860086414011142608e+00,-3.204629725672293095e+00
-5.113557227416638540e+00,4.676550434817355217e+00,-3.905891003023449937e+00
-5.367570444345516556e+00,1.356893628686457243e+00,3.186155157692721840e+00
-6.230406520657393088e+00,1.517080316016914621e+00,-8.578101423945080350e-01
-5.758143067493196376e+00,2.040665557748274850e+00,2.689120423446824670e+00
-2.803078678474024699e+00,3.305016847990758233e-01,2.344500849056566860e+00
-7.148658159932987921e+00,1.684250234548186453e+00,8.954933094474427646e-01
-2.072458657507387780e+00,1.685292671910046503e+00,2.367427900703327648e+00
-1.831175608978933278e+00,5.104944447203767943e+00,-9.927393657124884419e-01
-4.035832023070336838e+00,-8.231420632402923765e-01,1.279649143863383687e+00
-6.724660949895333140e+00,2.196572125779891138e+00,-1.362875533181530097e+00
-5.344816918043945542e+00,1.939377660186680341e+00,2.631285694592440993e+00
-7.458702310639281130e+00,2.453978659792363182e+00,2.794425259814575790e-01
1.096984585708942611e-01,2.234359061434963767e+00,1.617934855589505672e+00
-4.947450614279863323e+00,2.803040709189230650e+00,-2.212967553582132041e+00
-1.017991296273515367e+00,3.389286058467036788e+00,5.742588636372122357e-01
-3.597346465521364500e+00,2.944494078054670894e+00,1.366697954015943184e+00
