1.990434034088682802e+00,1.158398314850742183e+00,6.915388889849403142e-01
2.574165925821634282e-01,4.655088396867216871e-01,4.521326505450339317e-01
1.391684479583166212e+00,3.567334407186975476e+00,1.494705704118487244e+00
1.258266110024870432e+00,1.725283023801783333e+00,1.793779676301745715e-02
1.300500258947086651e+00,4.009327202841426185e+00,2.929481753634962438e+00
2.334774459435023264e+00,7.058415212990241105e-01,1.186119295418342601e+00
2.134330918919931541e+00,2.859166159039591815e+00,3.356108403458862632e+00
1.634306187177095193e+00,3.344938316698995995e-01,-8.772081574705052620e-02
1.980205944318833788e+00,1.089788016698542750e+00,5.919328029253723145e-01
1.280207332999223180e+00,-3.858811757816058008e-01,1.518328325595180439e-01
7.489459130319371383e-01,2.785036706217611790e+00,1.662630443787195933e+00
2.784390991927631065e-01,7.742709109662431199e-01,3.709318876725105074e-01
1.230297664398435353e+00,3.653317194156952219e+00,2.777514220023265867e+00
1.102888028743720827e+00,-1.049660754815129604e-01,1.090003562153021299e+00
2.796622659527621568e+00,3.089666253890845482e+00,2.759707375970565035e+00
1.122642052307449179e+00,2.918901137766805931e+00,1.205447061713029511e+00
1.582064305332020693e+00,3.795139367000979758e-01,-6.765771688968200137e-02
2.354624010534835499e+00,4.797611936613835337e-01,9.438887285324282228e-01
1.195259423939306398e+00,4.295801554707761039e-01,1.455561542614490333e+00
2.298386039517954504e+00,3.016670560415068536e+00,1.695165540469610210e+00
2.813541353182667848e+00,2.669390748458611018e+00,2.180428785328915708e+00
1.978981724384387686e+00,2.002619829481460112e+00,2.839836524654898220e+00
2.020091986683215435e+00,1.672990532039270395e+00,2.425306481936621683e+00
2.156426930420510590e+00,2.053352339080455558e+00,1.170622131488151529e+00
2.281468908361788728e+00,2.304466620137498589e-01,6.265886628333903197e-01
4.008541735324057109e-01,1.605933747077602725e+00,9.127280589854501747e-01
9.276492455302124407e-01,2.395931244651077652e+00,9.547267854235896856e-01
8.488157699000641321e-01,4.692465978076140187e-01,-7.421567733779621534e-01
1.788029134642821427e+00,2.391049687127657641e+00,2.855705062883751477e+00
1.977989689129086903e+00,2.005810396955098884e+00,1.032161948916956673e+00
7.451426297505182594e-01,1.421949331939977856e+00,1.272800954039568611e+00
1.599129566024193538e+00,2.215675194168764239e+00,6.836865512064967954e-01
1.951879355148848694e+00,4.204558000224955627e+00,1.954597387973566525e+00
1.486773381751507861e+00,3.711781939063421909e+00,3.018249059097147136e+00
1.649899418696913811e+00,-2.605896051144630521e-01,1.057597820825318058e+00
1.314694108161335473e+00,2.346282778310234907e+00,2.375511583465614862e+00
8.204160164048922566e-01,-4.693305287999347541e-01,3.188703909794747826e-01
7.613039099705544155e-01,1.913476539068294624e+00,7.666193274466288621e-01
1.855825950664411250e+00,1.331185288733695904e+00,2.403918259202400431e+00
1.853002853624462043e+00,4.765263875180209552e-01,1.730230877710612347e-01
7.934448044751156726e-01,1.166731741213490547e+00,8.294569054192449387e-02
2.301297978106459752e+00,1.232108577290355056e+00,1.099560531355663118e+00
1.488201959078516490e+00,3.916197820627146164e+00,3.068177105226771229e+00
3.430118482447142014e-01,2.009529489322789686e-01,3.705143045086952691e-01
1.049455911604278091e+00,1.064356563987199022e+00,-3.661142129559435965e-01
7.110259832624615806e-01,6.638916072117185818e-01,-2.497997211061907807e-01
1.573643387938602922e+00,4.107215206801232199e+00,2.675130686580518891e+00
1.500304993778071694e+00,5.246364891190306023e-01,-1.472937499808697759e-01
2.987652266955060476e+00,3.661224506937335477e+00,2.970728271133112219e+00
1.311413790591783757e+00,-5.143717578815933944e-01,3.288159603273928533e-01
9.934722184135817979e-01,2.220252280025191816e+00,7.445499822885862651e-01
1.158515165832955773e+00,3.202345537601611003e+00,2.478916810018937156e+00
1.301614308660544062e+00,-1.717094125543433825e-01,-2.368616514125942707e-01
2.712204196972941794e+00,2.712863110761070118e+00,2.079012870241481181e+00
1.023415070174297892e+00,3.392086373374214037e-01,-5.643025153925461668e-01
2.755314459775562774e+00,3.003422706791330832e+00,2.289295075047940831e+00
2.566370782767533942e+00,4.029491655509733761e+00,2.488695097444135751e+00
2.103566076268052143e+00,-1.745241265079393311e-01,5.585321877116459222e-01
2.699690424974832137e+00,3.750568598963048395e+00,2.850742147308480412e+00
1.585405730257776424e+00,-3.720887503270772223e-01,9.951904473107218985e-02
7.196395596854633370e-01,2.335173837147554554e+00,1.305789966306336369e+00
1.644542139584741491e+00,3.517557930260165389e+00,1.226306613182489569e+00
2.420793186138266329e+00,4.094626671299216092e+00,2.523228313573264270e+00
2.218651840331117508e+00,3.995836890801265917e-01,6.529774585075545090e-01
1.642477560324174801e+00,1.294654030913127363e+00,2.224650278267580550e+00
8.582964158406820587e-01,1.013640372673228152e+00,1.325326140468135350e+00
1.481853848802020313e+00,2.178498940887168889e+00,4.729845670570279048e-01
1.094015343896228787e+00,1.581600705880612523e+00,1.654407677956255818e-01
1.275649187785782734e+00,-7.585926565001652744e-01,7.840913045956305893e-01
9.440433665311219746e-01,3.161264167336182762e+00,1.588852518302600103e+00
1.785673496699973217e+00,-7.294154151329071412e-02,-1.068700780412849827e-01
2.522028831174472074e+00,3.978375471023954280e+00,2.355404102982547432e+00
8.939639859342499717e-01,2.769276020983140629e+00,1.367174031793265243e+00
6.519933533860587938e-01,2.141309999979342571e+00,1.452064239811311941e+00
1.242358562267348088e+00,4.266029028374718202e+00,2.211392022139405444e+00
1.172330562240297525e+00,3.768530586145501182e+00,2.726877439404108650e+00
2.213726607954459080e+00,6.687522535074429397e-01,1.215246841652526166e+00
1.723065832910026796e+00,-4.287530294184859758e-01,1.005580320683688633e+00
2.923356967782126503e+00,3.396476854055105132e+00,2.484779601548392947e+00
1.537878858595556508e+00,-7.569305068519831536e-01,6.771008680952212977e-01
2.223544153698228776e+00,1.361765941230106858e+00,1.012935172834363851e+00
1.321878557842411706e+00,4.200865612386792236e+00,2.057304990856073434e+00
2.648369616146964756e+00,3.399086413948529284e+00,3.231219495094261429e+00
1.114987001263050281e+00,3.866922234860433516e+00,2.742131818490259665e+00
2.071294259200669341e+00,3.694663290338093375e+00,1.760992112539844889e+00
6.694632929830112156e-01,7.552053834638466911e-01,-1.246236180377201658e-01
2.817960956003490391e+00,2.379124757853343652e+00,2.006644839600725927e+00
7.173985337230959214e-01,2.927650313981711161e+00,1.741272145607117627e+00
2.509688472167698414e+00,2.308622221381952055e+00,1.697247485377941345e+00
1.556598299819273779e+00,1.666711101775131487e+00,5.121011105254016371e-01
6.037757261105227702e-01,4.979028540474065845e-01,-4.014556781151858988e-01
5.798345905632152908e-01,1.130224028901912980e+00,1.090034215328384626e+00
4.208927148299586030e-01,4.586039788118861926e-01,-8.387595609840686750e-02
1.485493127358294529e+00,3.910359275791196243e+00,1.642907845600540151e+00
2.336304902470937694e+00,1.629379914025888443e+00,1.213822966014683979e+00
1.731278408989093354e+00,-6.662526464101449220e-01,7.290032034771938285e-01
2.074538043750149274e+00,-4.108595254580699740e-01,1.576931965280178038e-01
1.583736138539715288e+00,3.396913075552629557e+00,1.178788363413741491e+00
1.905117183132826186e+00,-3.174999756226973835e-01,7.600693943365387506e-01
1.666768763106561524e+00,2.553858672689539144e+00,2.803332417389960973e+00
1.690963034191950820e+00,5.076728570223654202e-01,5.794822557942332086e-02
2.308687558052936240e+00,4.141568598131914136e+00,2.459803382787154824e+00
7.005239478765858951e-01,5.364824760707070928e-01,-3.601059433797365039e-01
2.876047656335461777e+00,3.367251470599257779e+00,2.528639581017284144e+00
1.283395727988072776e+00,8.015338403065899175e-01,1.672825482024177024e+00
1.178610011973773686e+00,1.951502424945877223e+00,2.278139925140538757e-01
1.319997416076462260e+00,3.036384053371362857e+00,1.147521041227733685e+00
6.944796828462028726e-01,2.479162584011924242e+00,1.463559580178285024e+00
2.679958126314324840e+00,1.848513795188187370e+00,1.881062179092712672e+00
2.185905107573326678e+00,-1.390953461267727120e-01,5.617660736681799882e-01
2.428415521058971294e+00,6.734010237650454034e-01,9.006478636601765730e-01
7.366145850806326001e-01,1.355214485110052491e+00,1.327527561195269046e+00
7.357048137690122003e-01,5.173836119679432466e-01,9.125665414233190553e-01
3.012838511336038305e+00,3.412997555999645272e+00,2.554807471914920747e+00
2.079638369843415546e+00,5.889342258262589974e-02,3.650573185599680359e-01
2.527238044385545113e+00,1.436251003206924448e+00,1.581402086634587256e+00
1.639449918801322292e+00,-4.949618621333146673e-01,1.342307868710622687e-01
1.974410966952465207e+00,2.608628602318645129e+00,3.057724690055438455e+00
1.540885272421400831e+00,4.898216497593884666e-01,2.443276121341163634e-02
2.093270520658817579e-01,1.902700345556087025e-01,-8.575833267213828215e-02
2.117314859394856086e+00,1.948667936255285893e+00,2.492718683612216157e+00
7.092372930244024154e-01,2.799277317996900494e-01,8.406026072883555633e-01
2.539954029595087093e+00,3.274623315995722983e+00,3.196117828159953600e+00
7.883757582158045230e-01,-3.279698405972986119e-01,7.137921907020925438e-01
2.493932658644821831e+00,3.412858162416144037e+00,3.473039803757135946e+00
4.782960667264316568e-01,1.415472296202713975e+00,1.029464091910970769e+00
1.010245458567738286e+00,2.296062603967628402e+00,1.960458514730078594e+00
2.175394818836424271e+00,9.874920872444540310e-01,1.625424967104928564e+00
4.321002892192153944e-01,1.671333113095555545e+00,9.892366381349523285e-01
2.315732768400909691e+00,1.679899727699214751e-01,5.702778768524966457e-01
2.744935297018485265e+00,3.954431183084766932e+00,2.617716558794656923e+00
1.526819723127161632e+00,6.201586519975477163e-01,1.079887168925517706e-02
8.918510232897363110e-01,1.745945419459634884e+00,4.689543236567397244e-01
1.888501579987994949e+00,3.346598540725777671e+00,3.330944019665113220e+00
1.726835372564396565e+00,4.287643960614819783e-01,1.800079374069836424e+00
8.500371852550849816e-01,3.736088282524255622e+00,2.296711585905969244e+00
1.140018242459395648e+00,-4.496198495298313613e-01,2.147047288300885370e-01
8.933968628653770061e-01,2.392627536811798628e+00,1.015468556240583187e+00
1.974309240141647548e+00,8.146789795063422712e-01,1.670877015769258733e+00
8.802409061884574060e-01,3.645488199867010226e-01,-7.582001406168861202e-01
2.262031572466029594e+00,6.060662197261498241e-01,8.502863952260020231e-01
1.134894143056276006e+00,2.898914438403969118e+00,1.181067874166836340e+00
9.889703221052968951e-01,3.133016402291072255e-01,1.183416225771453556e+00
2.177577698518340821e+00,3.672938875026329875e+00,1.816787157953012155e+00
9.927390343111249793e-01,-4.514677725277541631e-01,2.727470089920667196e-01
1.515093753300210455e+00,1.703099968521354923e-01,1.717754182148410358e+00
2.142371526354162725e+00,1.835564756177653772e-02,7.296140117990391749e-01
9.248784365228346349e-01,3.522449411425349730e+00,2.295600687587897148e+00
2.494592008640034830e+00,2.909656945872068246e+00,2.958480991071051669e+00
1.208810789379638484e+00,-1.792556129012336796e-01,1.260767656771828227e+00
1.124729787073498244e+00,1.408278708931388623e+00,-1.605736646281069879e-01
6.551950302648914537e-01,2.035187372718750609e+00,1.435516977417383488e+00
9.041103908401257883e-01,4.228134394064108487e-02,1.029083317575119949e+00
1.927693771316602689e+00,2.362656494067897128e+00,2.959731134326566426e+00
1.568995457078500300e+00,3.511775013624518937e+00,3.037982600379989684e+00
1.579961904157369812e+00,6.173399125646198415e-01,1.838745092219208788e+00
1.382664000553300410e+00,1.848831718611436692e+00,3.610327735925189518e-01
7.299391036472578920e-01,4.575294662905423637e-01,-4.252933957641418239e-01
2.864487545140672609e+00,2.754261322599760309e+00,2.227561810227441708e+00
1.289523868591818223e+00,2.747764921570930774e+00,8.845445547563310917e-01
1.662728916761166298e+00,-2.372316798639334534e-01,1.176066915241195332e+00
1.705524751114502635e+00,4.305192261177511526e+00,1.731235629939135379e+00
1.958597950211098171e+00,9.343795083387499423e-01,1.787466979009638468e+00
1.419754916587949500e+00,9.308119935300708248e-01,9.946072113988956021e-02
1.409623954846648708e+00,4.257006353536596066e+00,2.043227790230526253e+00
6.087451961758876262e-01,2.142824498772322173e+00,1.126071892397703778e+00
2.320207582750355435e+00,2.398224684660761774e+00,1.518763397470657361e+00
1.029269761104921299e+00,9.418578548792234661e-01,1.395504017310542411e+00
2.617284484393678223e+00,3.534501782815381965e+00,3.374490194543204868e+00
9.345966244169003900e-01,4.049372817777962652e+00,2.499180230553085913e+00
1.681286379068283932e+00,3.686228806279148174e+00,1.322102385460711682e+00
1.422608651325848239e+00,-6.464346280567724312e-01,1.093341744426278073e+00
3.123759247628772329e-01,1.196387662096436211e+00,6.997011718137343683e-01
1.604013737590877842e+00,2.560589195447277255e+00,2.741626033249356276e+00
2.439331093869842704e+00,1.967263954957518823e+00,1.420045595280552186e+00
1.270065164141552350e+00,3.082487934068190327e+00,1.127880511949794551e+00
1.098371209300921025e+00,4.130700250014286645e+00,2.360796052006445489e+00
1.132783545766400835e+00,7.845235878840424171e-01,1.534221791328054918e+00
1.128139055061600393e+00,3.793463049913567975e+00,2.772784269424103609e+00
1.462312739189556732e+00,4.172973965229670235e+00,1.799709745531255844e+00
2.118924816789146348e+00,1.756208408499595031e+00,2.294768091859881398e+00
1.023529567848966287e-01,5.987511024287899275e-01,3.380784827829974026e-01
1.025725704868023502e+00,1.703723239776866460e+00,1.747811954314098859e+00
1.707262125907822448e+00,3.277215393392271192e+00,3.111491225788144188e+00
1.751734464843022865e+00,1.412618567485760090e+00,4.518434052354462493e-01
9.673300514871057132e-01,1.445956159259032647e+00,-2.785621007366765461e-03
1.192240160520996684e+00,1.386002585088352612e+00,-3.327345209685478723e-04
6.492267606564372517e-01,1.386677242570998114e+00,4.002565489026994605e-01
1.763141471553409723e+00,-1.879674822186728003e-02,1.356222515198234335e+00
5.345764345852976884e-01,-3.843877718004661825e-01,3.991400992734449593e-01
1.617942820213163380e+00,1.909763893044169603e+00,5.886635199935765783e-01
1.623735302877813425e+00,1.903721238387721115e+00,2.460510965082161494e+00
5.800185485674606012e-01,2.770023798016418848e-01,-4.785437729004627383e-01
2.079358860766058026e+00,1.812760851449564337e+00,2.455942173504101156e+00
1.004232070274564625e+00,1.366503690063777698e+00,1.732353201618445970e+00
1.453849457867471440e+00,5.547155613443349731e-01,1.789485580014114063e+00
1.168271969744577587e+00,4.260118643775038905e+00,2.669571680677897074e+00
1.344068566640835849e+00,2.728570279340421845e+00,7.983782185903249839e-01
1.398268193619292887e+00,-3.895368681404455802e-01,1.814735458655739042e-01
1.162547383077323637e+00,5.190533076856929107e-01,1.430218263683214364e+00
2.621034250808053301e+00,3.139408424943615827e+00,3.103123583908659722e+00
1.697003956711030437e+00,3.555731491283820600e-01,1.763056500872502541e+00
2.431358832807658743e+00,9.471107826979069388e-01,1.268345894100316507e+00
2.529774545707260458e+00,2.488853905158580293e+00,1.743427617486373427e+00
2.993324076546258095e+00,3.446475053856239867e+00,2.637340552321699949e+00
2.198755554135833901e+00,3.248826443435666178e+00,1.689665288696731382e+00
7.419634290563063006e-01,1.767399481387981641e+00,6.215028431296291123e-01
1.705508941524596978e+00,2.913423323367317241e+00,1.086131233409750374e+00
1.278994100140357748e+00,1.747229387292767111e+00,2.145142164100908300e+00
1.835367922061466484e+00,5.419826316021300050e-01,1.666220579307991834e+00
5.658595875024334809e-01,-9.529772331646590988e-03,-2.432413910893800046e-01
1.603207517444613206e+00,3.167662003187948105e+00,1.114555318906542913e+00
1.963564944515033828e+00,1.360072597478432233e+00,7.534065145557555798e-01
1.717950978301646225e+00,4.296958771611832262e+00,2.297249246825077140e+00
2.400390492927789943e+00,2.831123222738273881e+00,3.080881896525633934e+00
1.488373744181825664e+00,2.809401716947992345e-01,1.540351167649673281e+00
1.549606369180616783e+00,9.794429778925662911e-01,9.254776017932195287e-02
1.519222913355599003e+00,1.727468772490300397e+00,2.313210795927178598e+00
2.622515537405094133e+00,3.121796317642102636e+00,2.954108454450864230e+00
1.838401075499270787e+00,4.302987810702696869e+00,2.359634878222041099e+00
1.281253331765916492e+00,3.883065476873730493e+00,1.952150526718266832e+00
1.574470551340869218e+00,3.386471724344282119e+00,3.073173108934778242e+00
2.046712425763091314e+00,1.148357503050294465e-01,9.477332134766980332e-01
6.214721805575431635e-01,1.419623392660950723e+00,1.252192661354921466e+00
4.668547250848026908e-01,2.074788324904746961e+00,1.308983222444326078e+00
1.866177485219534748e+00,2.883729969558577633e+00,1.150890309318457705e+00
4.410602414656319969e-01,7.697430650763915638e-01,2.655065013086164820e-03
1.082252962949478592e+00,2.630573122080523074e+00,9.226370431727696220e-01
1.714864550248613506e+00,1.186038680461430239e+00,2.326234733766217033e+00
1.214036566302012510e+00,3.684250370336891844e+00,1.738195243956194957e+00
9.974128435419837846e-01,1.986211733761894749e+00,4.924134307639235208e-01
2.302375877303561857e+00,6.734926333092443318e-02,5.895281970744989941e-01
2.144568492009442107e+00,1.038094600415284008e+00,8.637706027391371943e-01
9.301541932003875024e-01,9.669857359618133641e-01,-2.574849281763377795e-01
1.665423420072718930e+00,3.825446871386013026e+00,3.101284098445529658e+00
2.426168650729503273e+00,1.614312245428975112e+00,1.322789317797139264e+00
1.015851993816832666e+00,4.076367042783372696e+00,2.527914755252128831e+00
2.710645256636155853e+00,3.438759068031921995e+00,3.127430276358030170e+00
1.756417151425130330e+00,2.133055596567690948e+00,2.690428400875331416e+00
8.660757261819246322e-01,4.019505702871957631e+00,2.517271989731566961e+00
4.816377051161064293e-01,1.146559709676391758e+00,4.246690327790593189e-01
8.080790977133348596e-01,1.897946783359996781e+00,1.574454646251679080e+00
1.114929563882755215e+00,-6.650152421541331016e-01,7.354718974299673251e-01
8.706000439007490765e-01,2.166003743441667684e+00,9.499635588946637732e-01
1.322921638886899398e+00,1.802853814044239611e+00,3.031724855889985637e-01
2.380416280086268266e+00,1.806721087267496584e+00,1.375416814848939850e+00
2.633182049211984843e+00,3.563203159866223491e+00,2.222671508556588016e+00
2.239827680841598223e+00,7.227516317979185700e-01,1.211897427513163095e+00
1.133248423597520205e+00,3.504834984840105250e+00,2.611419729540562340e+00
4.760626880354012491e-01,3.994663368883122345e-01,-1.603709089377964303e-01
2.840224123386307031e+00,3.666583383465913393e+00,2.965718796378084665e+00
9.371550067423510821e-01,1.181499103312919630e+00,1.457954706363938202e+00
7.509271267813464323e-01,7.348188212542980935e-01,-4.199055923598704054e-01
1.392230721612185640e+00,4.853294148101013339e-01,1.647704146017412663e+00
1.270213129209210479e+00,3.620803484764804292e+00,1.695794084411075486e+00
8.846487010568889753e-01,3.571477531648368786e-01,-8.191453742210536015e-01
2.599145074267633637e-01,1.177544781602526625e+00,7.402165537303072584e-01
1.573069484000333196e+00,3.568601199940752533e+00,3.057955226996514231e+00
1.881011714871266172e+00,3.338145730844606973e+00,1.434846280234657545e+00
1.323356221227359741e+00,2.783151498684965031e+00,2.460166711419013108e+00
4.690459870996449010e-01,1.682150075361705577e+00,1.008201385548841200e+00
2.078522946857616294e+00,4.026634489977374720e+00,1.942827335414071710e+00
1.128877443372542366e+00,-5.863042225293563225e-01,5.471262481992227311e-01
3.048232596726016652e+00,3.562048224767168314e+00,2.774854426979164845e+00
2.154288557823725636e+00,2.678406209241273039e+00,3.203451578524842969e+00
1.025648267379793310e+00,1.520769702004679980e+00,5.787338577990470967e-03
1.624377301841153809e+00,3.401038476860674731e+00,1.184573172781011818e+00
5.532817685786287631e-01,2.254041810021484071e+00,1.437574811499899408e+00
1.338942877733503733e+00,1.859642664670917211e+00,2.161187357994079683e+00
1.831233810204720536e+00,6.578898279279250527e-01,2.824061303171079840e-01
2.507342793468701370e+00,3.927952488473485992e+00,2.372936231405755603e+00
2.767208980593931500e+00,2.327618152130029650e+00,2.050016751588727981e+00
8.582822540477560436e-01,9.291049219746791432e-02,9.598211788108861331e-01
1.057181694386620796e+00,1.530813369432624249e+00,2.319664793746400305e-02
1.448735255970575952e+00,4.249166790771870872e+00,2.006997475161313105e+00
2.033376630456151246e-01,5.798622925385844562e-01,2.950204152483766329e-01
1.747026560379732363e+00,1.125332611325699617e+00,3.327257784446193134e-01
1.614260345768140148e+00,2.425248079921904054e+00,8.048777152795244527e-01
1.949995176524393026e+00,1.796546682488669777e+00,2.658231105344604384e+00
7.199961370722233189e-01,2.050956511088329215e+00,1.099782816070088876e+00
2.287934160633827041e+00,1.097137045931359189e+00,1.559732778448595480e+00
2.833184101591916804e+00,2.567186197182329987e+00,2.305771752175044043e+00
8.649318066251585613e-01,1.771516417074518346e+00,4.052792755244748468e-01
2.469255410231543824e+00,1.376569449266648260e+00,1.602511388521216329e+00
1.345218384606515771e+00,-7.775086565781497150e-01,1.037149425916668255e+00
7.662108603242765437e-01,2.562232690874485463e+00,1.395309342278187259e+00
1.667754689542318758e+00,2.026048071831756836e+00,6.970098917533755767e-01
1.749410032642107149e+00,1.765865303021137978e+00,2.563035190624467052e+00
1.315137382946901523e+00,-7.935401012042547775e-01,7.422736509124233661e-01
5.111458622750864045e-01,1.079954466463464602e+00,1.000836360897530808e+00
1.286263753671202714e+00,4.301054412672999483e+00,2.303349564583133890e+00
2.376234629493509054e+00,1.347780616241738727e+00,1.784588463419656934e+00
2.185709052527363028e+00,5.824284668046219027e-01,6.193960377631454461e-01
2.047628437639225307e+00,3.377412096189261748e-01,1.126383830399223518e+00
2.020032044734701770e+00,-2.435164126853940070e-01,1.078675443699919079e-01
1.222237411482339553e+00,2.763173147210881808e+00,2.477936420679279106e+00
2.645887045412707028e+00,2.394232640604894602e+00,2.374311035797981084e+00
1.969381985876887509e+00,1.875652830281041128e+00,2.703817660763635722e+00
5.887354404034409461e-01,1.275246979757650667e+00,1.127294692753999517e+00
4.413872946081123794e-01,-1.462989094136877832e-01,3.445670444410384170e-01
3.009589424109831324e+00,3.450710506283436008e+00,2.654370649061995380e+00
2.744856729393510442e+00,3.723953206861570830e+00,2.997012336987172620e+00
2.750231755138221157e+00,3.790440704708068154e+00,2.808683339312280758e+00
2.552524397691652958e+00,1.732357073238897982e+00,1.497368469090894383e+00
1.293003115504004263e+00,4.340922318799515622e+00,2.310010068872101474e+00
1.208525896729301108e+00,1.577923865661455816e+00,2.014082887323355386e+00
7.443140716992064920e-01,1.864910794778045222e+00,1.476235195284055779e+00
1.082526422531456367e+00,2.564564362943593245e+00,9.796039188418923516e-01
8.025685246408100770e-01,3.575553997766263592e+00,2.260965594063712114e+00
2.026929544989500176e+00,-5.355936269574701480e-01,4.218850559423131252e-01
9.972946726348603796e-01,2.849087179385175972e+00,1.275666927773251302e+00
2.009073040678964972e+00,-6.124298124704851132e-01,3.597636348653339144e-01
9.625959601438318636e-01,1.221611668298399955e+00,1.539868096326847180e+00
1.766798450601239356e-01,1.447864400328974510e-01,-2.353721321144628675e-01
1.115331357735559248e+00,3.091505550719995998e+00,1.398443766094352947e+00
2.422381429702605615e+00,7.295119954805334705e-01,1.021001108909608268e+00
1.079237737820851528e+00,3.886587843587457236e+00,2.713164371308578016e+00
1.665732826325569294e+00,-6.841121746090300659e-01,4.890162000609543647e-01
1.919812824420890962e+00,4.328987978002554193e+00,1.863245927516581801e+00
2.796644001770193011e+00,3.661142997871406735e+00,2.530646475589932276e+00
1.012829321356979007e+00,3.626665432819963897e+00,2.474157167215383701e+00
2.097691526837448528e+00,3.754231404441559672e+00,1.899500274641100273e+00
4.216652740087178941e-01,1.000244636956566929e-01,4.763576552795761310e-01
2.288357338523706375e+00,7.623233686732255876e-01,8.196142714584310207e-01
9.690838251818932880e-01,1.923882055000508240e+00,1.857838964775490487e+00
1.223035322612268549e+00,4.093022186530672624e-01,-5.225461706413701002e-01
1.363588911155343197e+00,3.198847723556990985e+00,1.068598955931885364e+00
2.403070449045181967e+00,1.513721253688195434e+00,1.320594215126896120e+00
8.826222106682732882e-01,1.921007186467482031e+00,5.220387579876236694e-01
2.293082485485307132e+00,1.988711130622982548e+00,1.362578629709862543e+00
2.743283886630533353e+00,2.529118505298507458e+00,2.117052511730405762e+00
1.176274784214367708e+00,2.278745709316738921e+00,2.116070134556961246e+00
9.561202359450989841e-01,-4.339221763367769880e-01,2.461610666614254816e-01
1.341131060608611314e+00,1.596731179050388416e+00,2.056721712428104532e+00
1.890005164582446495e+00,8.098266181626838645e-01,4.623209138494454584e-01
2.128939068802611079e+00,4.203246210873295752e+00,2.396608952964682349e+00
2.361328224986753543e+00,1.982144551905116403e+00,2.222802861529103780e+00
1.703764515302720328e+00,9.454967849669784208e-01,2.161318132539072234e+00
7.223603747846807366e-01,2.109345100856829802e+00,9.003184641852420844e-01
5.956746147810609848e-01,1.042798518076825776e+00,1.049216867690839328e+00
2.581410968940644590e+00,2.626184141589383181e+00,1.914831593156210099e+00
1.589329181551730530e+00,2.126971131118923886e+00,2.525037340742064096e+00
1.963736462238172553e+00,2.682923766278435096e+00,3.125734170145332946e+00
6.675212045992715559e-01,2.974314973667622208e+00,1.844100729924151194e+00
2.688625136861343634e+00,1.792657308600433153e+00,1.709956506372510843e+00
2.243822509516638863e+00,3.753953207168197470e-01,9.191619104021794273e-01
1.295982025345123079e+00,2.466999963308289079e+00,2.375043933181197886e+00
1.974851086990080828e+00,2.736648411380191881e+00,1.294033180687311102e+00
1.037092461828890588e+00,4.013012924234962142e+00,2.308216622047275735e+00
2.182102268896310093e+00,1.300166031386681409e-01,8.195054077598269426e-01
1.840692088768242307e+00,4.281014124580710067e+00,2.367574593277355532e+00
2.720456075229893411e+00,2.690706997507358533e+00,2.506240427467263387e+00
1.791383820733272847e+00,-3.952444584210053624e-01,8.392274991835121378e-01
7.269662847404664285e-01,3.773430262180975103e-01,9.468604390829599149e-01
6.821422301653158327e-01,8.632928352768563796e-02,-3.177505077593414939e-01
1.717272375227921533e+00,4.161852540559146441e+00,1.634154846704798603e+00
7.608837298993318399e-01,3.036108878252844701e+00,1.962884021479105678e+00
1.808280383320514106e-01,4.193550527720859011e-01,3.342567852161698050e-01
1.917449799552368495e+00,1.944558141348049496e+00,9.853677841442580743e-01
1.257191690590345967e+00,3.269163334678616195e+00,2.626612548835785876e+00
2.364090029370237378e+00,2.636684092997364282e+00,2.902743860852375235e+00
1.211020558461077812e+00,2.880808112548981281e+00,8.972471532456920418e-01
7.459842820465099056e-01,1.857519316555895916e-01,8.504494866167652267e-01
1.319536205737824819e+00,2.333218774940210238e+00,4.965464312549602854e-01
1.628237164968471484e+00,1.733440145410508615e+00,5.846718890933783053e-01
2.509530415386105329e+00,4.056343477175644807e+00,2.428382595550588885e+00
1.788009854548370026e+00,7.873087477144222746e-01,1.970027247370223389e+00
2.913748964618621429e+00,3.131669049675545491e+00,2.387276357018739859e+00
2.570423982683935904e+00,2.602756214907461452e+00,2.581515594157937077e+00
1.625231661361801194e+00,3.273555513678381157e+00,2.990766663909455225e+00
1.006828501797952802e+00,6.310957071142190289e-01,1.328657475995102644e+00
1.645992468125036634e+00,3.717072481604752010e+00,3.178948196462829667e+00
7.977941429343783364e-01,2.075174396830297585e+00,1.807971055281131001e+00
2.038260558504298992e+00,2.514470697964592105e+00,1.276795342690675295e+00
2.545387618399961305e+00,2.598914742809570022e+00,2.581756555760003291e+00
2.613002487146484754e+00,1.603466084866625119e+00,1.447826836854626764e+00
4.588959652317818882e-01,8.953396405530401614e-01,1.616277500122908217e-01
6.877526740718334919e-01,1.888183320401600973e+00,8.657924811018667954e-01
6.540092837950938209e-01,1.002898252810628277e+00,1.062790994815826728e+00
7.970852810237741837e-01,1.155768737032040638e+00,1.268098870765103081e+00
2.877493449296157912e+00,3.141231778579915535e+00,2.360271509413117474e+00
1.266144769900272804e+00,3.195135999418083461e+00,1.230709593206707586e+00
1.055441654658893835e+00,1.272239922933176004e+00,1.619808870752310614e+00
1.071847835758731105e+00,3.211809879956113889e+00,1.495376449093810844e+00
1.482192451792885723e+00,2.856550262993520661e+00,2.688409743258887818e+00
1.171725238255279855e+00,1.790159351111803687e+00,1.906794861967141541e+00
2.549675113374746616e+00,3.014727418503897027e+00,2.799552427594320214e+00
2.318929181170786169e+00,2.588509859329712004e+00,1.550377986146649789e+00
2.041683787519441573e+00,1.493336296123323637e+00,9.543212309934577808e-01
2.310982923477517215e+00,2.922501467454734048e+00,1.705098594274804702e+00
1.012933517315576237e+00,4.934872143942522493e-01,1.322466491552059642e+00
1.677201279410493573e+00,2.944419264459031904e+00,1.054062744634350013e+00
2.066976846636535914e+00,1.602863129284303190e-01,9.671552702927481704e-01
4.926801000661579777e-01,2.101682436507352314e+00,1.387513489547031575e+00
1.426432963338302384e+00,1.487858680478939100e+00,3.531065349606241632e-01
1.163925409147074319e+00,2.299708143353471179e+00,2.066628531440188876e+00
1.022772018576570074e+00,1.144651515708871692e+00,1.499434100156587402e+00
8.806385928825972709e-01,2.254320868436929359e+00,9.127941936852599358e-01
2.936037109551511648e+00,3.544197400182147462e+00,2.884324895094492192e+00
1.866108651521453554e+00,2.935099506964478966e+00,3.235291481406248337e+00
2.273037942227980057e+00,1.452354355510603101e+00,1.828864946277465542e+00
1.169850896527953488e+00,3.612701313660559688e+00,1.833365598650276596e+00
2.750492677951726694e+00,2.426037483221152424e+00,2.210477052041612378e+00
2.086547531062520999e+00,3.178294202051343387e+00,3.564564293096064151e+00
6.595003528969035633e-01,2.533352068466938611e+00,1.688728339566110126e+00
1.398881128302599919e+00,-8.621045615102010395e-02,-2.774962143443411855e-01
1.034460024530565292e+00,2.379176825939457895e+00,2.061512549742461786e+00
1.570806533206855926e+00,7.333671842822029330e-01,2.124017448143360534e-02
2.443867663786047917e+00,1.501345325992040625e+00,1.355344359468655169e+00
1.406770539399764264e+00,1.557734155875841964e+00,2.157798909466581261e+00
2.115256721260438955e+00,2.542447921280107437e+00,3.155751351156528273e+00
1.074456891626193178e+00,4.107846993832774629e+00,2.839759213949335059e+00
2.564997970849068665e+00,1.422967803375188245e+00,1.464285180283304566e+00
9.710497925123184881e-01,9.980213632156912373e-01,1.481804142185882078e+00
1.981176935548837337e+00,1.082237143205027285e+00,5.369505685375319803e-01
9.054270569287240500e-01,2.067726183606613866e+00,1.799230982029715875e+00
1.289734144176503783e+00,2.839262828319408793e+00,8.653063534402907209e-01
8.580158314166570488e-01,3.901890672168687235e+00,2.525437489339136476e+00
1.016086337401194806e+00,4.183055082699953076e+00,2.531047574041236370e+00
1.221262430437217716e+00,4.252593834166824155e-02,1.304856255459479142e+00
2.344067558349790747e+00,1.107383449415815013e+00,1.555185138245769982e+00
6.436576023414997128e-01,1.790791286956549433e+00,8.675363680180646631e-01
1.151039573028549867e+00,4.764526605613012000e-01,-5.207696055123376411e-01
1.972883007590558568e+00,3.738291410036325590e+00,1.772585742016249855e+00
2.504641592658396476e+00,2.171677735603997572e+00,2.350401408416510574e+00
1.735499184717870458e+00,3.737499287917019686e+00,3.106780883884126432e+00
1.941846014773732199e+00,-1.472788587253996695e-01,8.974442196539379468e-01
2.847437232382668437e+00,2.833175410774617209e+00,2.585432556841254836e+00
1.029299307657742135e+00,8.100046152908876307e-01,1.449329510892023887e+00
2.194738480231838818e+00,6.742612411823204477e-01,7.209133227493526030e-01
1.339265657323391645e+00,4.298609425062087652e+00,2.593522035112073798e+00
8.268416564482486963e-01,2.549420444921556062e+00,1.829400157829112361e+00
2.227881017946861331e+00,3.917705990128998117e+00,2.777472717669116964e+00
2.434530215311126788e+00,3.301587665824905926e+00,1.982473971034381943e+00
1.343727467989114466e+00,7.643223105386192096e-01,-2.059806130861152051e-01
3.066722886705082640e+00,3.470674971058678615e+00,2.638710766220595527e+00
8.338108425550893044e-01,2.395504031066996720e-01,-6.566259598401371633e-01
2.592420504577172657e+00,2.999941153961763085e+00,2.947022870208469314e+00
1.938820024349646953e+00,-4.206111129286550093e-02,1.049703823092511978e+00
1.462304592883986398e+00,3.288044998155305709e+00,1.061213161313366848e+00
2.425333385781362150e+00,3.611662977411354447e+00,3.214721841858647178e+00
1.603474973602728726e+00,-3.875950042471329460e-02,-1.795775922924573165e-01
2.370159817634886590e+00,3.618584672638924360e+00,3.232216341660439252e+00
1.591311573175052896e+00,1.515214197444405997e+00,2.416597928721012867e+00
2.130264983427663239e+00,1.102423860579119674e+00,8.591258918946712564e-01
1.949178524375327903e+00,2.204191862079345032e+00,2.939782252134408136e+00
6.183597413410472088e-01,2.751947833874019977e+00,1.812287087278343867e+00
1.816233831213783789e+00,-6.672908714208355407e-01,7.252116212276177309e-01
2.582078324550260096e+00,2.517793960415487753e+00,2.364885377807365519e+00
1.766757917814861356e+00,3.246127814768996256e+00,3.197142964313148372e+00
7.642185454247187870e-01,3.385713974056466569e+00,2.061310243492846084e+00
2.358384222489131155e+00,8.184053324189731748e-01,8.922399376876104515e-01
1.108511109780467851e+00,1.985663761445308317e+00,3.028805300149165491e-01
1.428028847523540756e+00,1.838738078727982561e+00,3.036252868434957675e-01
1.565517565480067708e+00,4.100471105676186667e-01,1.875249740410721566e+00
1.566248841969036576e+00,1.112802982788760664e+00,2.068795433611540169e+00
3.839278030625432048e-01,-1.143311331212003845e-01,2.753099781785535091e-02
2.143216386032427589e+00,9.141035430951696128e-01,1.618201190209148210e+00
9.294058743973019343e-01,1.494467504224038290e+00,1.274681262285600469e-01
1.419023302203494152e+00,-6.357617911136518307e-01,1.197809649544891553e+00
1.146381454038266412e+00,2.802590193758628612e+00,2.351089516638689147e+00
6.733329095821881660e-01,1.519083270910422945e+00,1.269105006814345904e+00
1.069941734714295434e+00,1.198364981142818975e+00,1.584899915526249536e+00
3.580862853501603493e-01,1.604776448125948995e+00,1.072937342030047203e+00
3.940721459898517964e-01,1.514764277964533834e+00,9.034945932008878744e-01
1.205685661599878111e+00,1.841648944250077191e+00,1.525224155881425570e-01
7.527003143646667782e-01,6.113439938315692185e-02,8.309053051375502319e-01
3.062772177397238060e+00,3.526450523048036523e+00,2.774421013234736666e+00
1.442812276525254012e+00,3.480313740987553750e+00,2.857218910444411453e+00
2.728408396661832658e+00,3.261948245344713282e+00,3.008611645695627779e+00
6.468121793609150627e-01,1.443866730642251905e+00,1.276165597800976270e+00
5.406282695142294870e-01,-2.252897417289767001e-01,4.929975360562363074e-01
7.569449399381213972e-01,2.886467075781658842e+00,1.674074309243455128e+00
2.363950759764945175e+00,3.551451110077956663e+00,3.305275775591485221e+00
2.585812485354298307e+00,3.845802084747152794e+00,2.742186835709573334e+00
2.690262703707016367e+00,1.800059040406209343e+00,1.711160828372546794e+00
6.147619191724453813e-01,2.095989524751917354e+00,1.486280830748775150e+00
1.927947620872327628e+00,4.223606267714338891e+00,1.769531794869542596e+00
2.130049861755207719e+00,4.067814189451099516e+00,2.604170946221630256e+00
1.711639253712784248e+00,-2.710955134583714066e-01,1.049792971969222721e+00
4.728396857190435010e-01,9.600764421101068424e-03,-2.389187077610002152e-01
2.350902903050278159e+00,2.326857841467766086e+00,2.675754498522487257e+00
1.559150381132049235e-01,4.667926543585514954e-01,3.530391939815138991e-01
2.769474313232984208e+00,2.626188573995448472e+00,2.126341373785272104e+00
1.872000878911603161e+00,1.202596940678347215e+00,2.264912285532903802e+00
4.329681624191192291e-01,5.221106684213621119e-01,6.424829979522173051e-01
2.519157721367395908e+00,1.742095399536771394e+00,1.491254908282682923e+00
1.404587769452996238e+00,8.135812446061827519e-01,-1.725426060100646586e-01
1.126278716056667184e+00,3.488028625130656923e+00,2.586615912800450889e+00
2.263694106573991949e+00,-1.608725890605934850e-01,4.780630124347867160e-01
3.071672617686981521e+00,3.612204827098586701e+00,2.810586263267738083e+00
8.399545681845003164e-01,3.092082915234139584e+00,2.183134022805087060e+00
1.470869845503570472e+00,1.529460410339046339e+00,2.142081465648991934e+00
2.821183144270195786e+00,2.740779256677279729e+00,2.530110994990591333e+00
1.419094317520930515e+00,1.817592523395981985e+00,2.207174438580754128e+00
1.769467722412856325e+00,3.494057089656371851e+00,1.436716689050159479e+00
1.781034247245437907e+00,3.380354334604556144e+00,1.350800765408594950e+00
2.753950200375920421e+00,3.468455794818369853e+00,2.412141466968300119e+00
3.874326781056496305e-01,4.438423514861090657e-01,5.898383871630602515e-01
2.326696234660205143e+00,2.358767324070210503e+00,2.672628170008910953e+00
