-1.983519686854773534e+00,-4.454260182607919921e-02,1.362614479526633060e+00
-4.982874522955227370e-01,-2.308485852198163824e-02,1.492161148182127584e-01
-1.574577609952148904e+00,6.332709871270298940e-01,2.233372800091319998e-01
-1.181439054620991636e+00,-1.224829140358731777e-02,1.561936074712341194e+00
-3.493018570405755086e-02,2.582935401495265459e-01,-2.449215601105472935e-03
-1.498931470547786970e+00,1.108883306283829695e+00,8.101750866579119359e-01
-6.603718347542567590e-01,8.717502772418811441e-01,-5.077280145815668000e-01
-1.575317147416125385e+00,6.385483466941836717e-02,1.798477417450911053e+00
-1.318972212588491288e+00,6.212052727112881145e-01,1.710353396313439189e+00
-1.195482046083955918e+00,3.165853475837119291e-01,1.647019339142822503e+00
-6.581062822994888650e-01,-1.922187554650541322e-02,8.820501489331374900e-01
-1.435407941027989187e+00,5.777518520914523559e-02,1.928530561101793994e+00
-9.654593936989884773e-01,7.207957606961974406e-01,-6.870401464437976280e-01
-4.103774681507649791e-01,2.429130261594899531e-01,5.265716768723979202e-01
-2.275657776884429107e-01,7.620535672712446251e-01,1.956622102268867902e-01
-4.446474484231815461e-01,1.031569662234471663e+00,4.993045562497822609e-01
-3.991165988006676879e-01,5.373053564492209500e-01,4.442637959483735632e-01
-1.513486815707912436e+00,1.156234130984203468e+00,1.951656630999680342e+00
-2.017923738911259424e+00,4.805311031010557343e-01,7.941611736183837866e-01
-2.034877584973891373e+00,1.822740126563339447e-01,9.131811329736009286e-01
-1.973898001912193445e+00,2.857702232722025837e-01,8.308707863913737945e-01
-1.069151292464424419e+00,-1.134186616197759706e-02,4.982594229512392059e-01
-1.316608580771106096e+00,1.122065677597157363e+00,2.647881831636855754e-01
-1.184247949585196746e+00,-1.706433908819100440e-02,6.431650592931389410e-01
-1.978519631666963097e+00,8.828725633604429524e-01,7.162022612787668496e-01
-1.176575284444624447e+00,1.150690329862228634e+00,8.776954192948646094e-01
-1.239206737208045750e+00,4.608150488859717453e-01,1.730225028474998483e+00
-6.057215096661255904e-01,4.864791506554044798e-02,8.010672848675266522e-01
-2.476050564954669575e+00,1.099307908941638878e+00,1.447406244869527514e+00
-4.879391397239130068e-01,9.695468838902647768e-01,-3.493888246469398218e-01
-3.332543577782648425e-01,3.369968370133777369e-01,3.727949716662493085e-01
-1.824829900109677272e+00,1.093229869797080811e+00,5.844934480983097203e-01
-4.701703560893305545e-01,1.150781667680323750e+00,4.408600223685145703e-01
-1.403333054236469479e+00,4.403356280274312584e-01,1.820275577176483139e+00
-1.331114464181323287e+00,-6.364373775828037483e-02,6.273703726263898384e-01
-1.365227707566333493e+00,1.114376112484243286e+00,1.734494218594267334e+00
-8.423748797581046555e-01,1.873826774522489025e-01,-6.024428100057843682e-01
-1.199919303723987474e+00,1.071658584274324477e+00,1.666275169088832497e-01
-1.236590299193577991e+00,1.917019697476576578e-01,-2.270262159627172982e-01
-3.944495754399481857e-01,1.282535695654292984e-01,5.323737330219106001e-01
-2.038550173719501757e+00,1.076648269212481690e+00,9.158210984346699668e-01
-2.462084404561411255e-01,1.171239704774841961e+00,1.359564037167827755e-01
-1.966034903894974262e+00,1.082237119620105048e+00,8.599053856568146248e-01
-1.197668273829669117e+00,1.071544983499322257e+00,-3.188503477076581327e-01
-4.085482777353031669e-01,1.918814380947229947e-01,-3.190342136089600600e-01
-1.729922480480937219e+00,6.892732214582919514e-01,2.178794560640655575e+00
-1.291291014510655144e-01,5.082499663103257070e-01,-5.657177223230039353e-02
-1.381915689977764927e+00,1.389966328739329071e-01,1.865599959699086874e+00
-1.366531061115450640e+00,1.167152332594376007e+00,1.711367377791213062e+00
-1.426942154714745170e+00,-6.165802460756229135e-04,1.943296165419446941e+00
-8.032306668450439613e-02,6.517446498795698151e-01,5.210557560728108079e-02
-1.664733199148470177e+00,1.091986767193284580e+00,1.104092845633488418e+00
-1.877855132807254357e+00,-1.118802904604033858e-02,6.586322166645364184e-01
-1.745174208732771071e+00,-4.884690141818135573e-02,5.273028396486867386e-01
-3.439939774746413326e-01,1.165457648252945289e+00,2.127891163602762259e-01
-2.085092993322029464e+00,-1.068859723635880860e-02,1.934672728693665134e+00
-1.239195587311213709e+00,1.201941348410584309e+00,1.545712379658622737e+00
-1.462089327861726407e+00,1.145921606599960008e+00,1.688997458054169565e+00
-1.438873187032714052e+00,3.885531325421133775e-01,1.906728863534372653e+00
-1.455832444559470140e+00,3.986345736670970918e-01,7.855979568219029208e-02
-1.502026267550202077e+00,-8.232974213737970226e-02,2.448287857913734322e-01
-2.470303379434560132e+00,-1.797049846745600588e-02,1.580681104536401760e+00
-9.007374907388107088e-01,1.159581948409655672e+00,5.397576070218264022e-01
-1.648076629514582558e+00,6.192164042745927910e-01,3.232716298633361296e-01
-1.364581327250097287e+00,1.092102916775164356e+00,2.714563176412604917e-01
-2.052688131440001396e+00,1.035944598785764725e+00,1.953626978512280621e+00
-2.053798093436142391e+00,1.146399342809840016e+00,1.489974245035396994e+00
-4.913965725131605455e-01,9.635536161698234903e-01,5.183852618729567485e-01
-1.827846098718483026e+00,1.317538715266770299e-01,2.124482772155866339e+00
-2.591465521803275607e+00,9.116701399124715888e-01,1.522702199751829077e+00
-2.105431750860345730e+00,-4.321407237205861923e-02,1.570540790387342955e+00
-1.581850379913156246e+00,-2.130652453127209606e-02,1.045070001436387841e+00
-1.014743265715340570e+00,1.085878362283713594e+00,1.301509674479113185e-02
-2.267153679605824479e+00,-4.854092725984301276e-02,1.698257078012243015e+00
-1.711816120890927939e+00,4.209329599232610603e-02,2.016497057548142013e+00
-5.440835439539011276e-01,-4.312809069716872640e-02,-3.484205977424048029e-01
-1.670434085108436939e+00,1.113516988689527976e+00,9.219956248412619626e-01
-2.097052943604873487e+00,8.268744117641503300e-01,9.111318776973811318e-01
-2.571558315067987710e+00,1.122444250092176299e+00,1.539232524626232168e+00
-1.676375143577646165e+00,6.948861417116968253e-01,2.207138480002318381e+00
-4.593605256104626444e-01,1.126268610012613580e+00,3.282930367888186596e-01
-2.297289126958505179e+00,1.022785208793656198e+00,1.799072345068992052e+00
-2.256309841823971762e+00,-1.687046981993385597e-02,1.785461181086298366e+00
-1.234265354947371440e+00,1.166910370784721485e+00,1.026269366424684915e+00
-1.523027880247738608e+00,1.098558921852407888e+00,1.261446657138272309e+00
-2.100941458880527524e+00,1.075488050213512237e+00,8.822919166009139946e-01
-2.330447816084011858e+00,9.613679513077184602e-01,1.218230374356238155e+00
-6.131486504459603415e-01,1.001590388375876994e+00,-4.633127262555740145e-01
-1.069643228556424797e+00,6.353642968406884028e-01,-4.734941082545439661e-01
-2.116150737150602978e+00,-2.892246647345465653e-03,1.795983347867359914e+00
-1.221888308277920165e+00,4.815976230585432005e-01,-2.505774973761115132e-01
-1.291698818257919879e+00,1.699379153551325294e-01,-6.514559274110749698e-02
-2.340228382654050421e+00,1.075454780201653193e+00,1.201659624643903301e+00
-1.144754423933759702e+00,8.448259618694058393e-01,-4.192493484257871494e-01
-8.170492703002889545e-01,1.828097113426245535e-01,1.074414503895448236e+00
-2.043341738051393186e+00,1.063382645224024259e+00,8.440670690057746617e-01
-4.846589675696744842e-02,8.587250697733643801e-01,-1.594317483417418899e-02
-2.290678341154547493e+00,1.006118209151426246e+00,1.738070111558141395e+00
-1.662393903430198661e+00,5.453295291051971638e-01,3.452398289550889232e-01
-2.319737728867452109e+00,1.097868683935375067e+00,1.449433963065952513e+00
-9.453382161932840644e-01,1.128004623633520609e+00,1.132540930840351345e+00
-1.339965997568588918e+00,1.170846315628000456e+00,1.718225813555209092e+00
-1.373810458737336093e+00,5.513183661895100229e-01,-1.005419197359927880e-01
-2.466306902229402187e+00,1.450432720968673483e-01,1.753145396675070300e+00
-5.900306751179569265e-01,-9.424716022925094805e-02,-4.194295413190002875e-01
-1.634679973543733178e+00,1.144567513524090696e+00,1.109062759812182941e+00
-9.737953469758567904e-01,1.984963352354061350e-01,-6.010376521971767527e-01
-1.874790591515291149e+00,3.356330076402416207e-01,7.014704471779235062e-01
-1.206044010349707873e+00,1.170231291427477727e+00,1.449845670597997405e+00
-1.189416423908394860e+00,7.404970385756817208e-01,-3.757342378128655791e-01
-7.577167734163232637e-01,2.975418894580689200e-02,-5.361999817107578892e-01
-1.701398176415321872e+00,-4.335334337444591429e-02,9.294776493030948439e-01
-6.466756365297349207e-01,1.108599266891344248e+00,1.999048929040501132e-01
-1.663834568272155146e+00,2.338215866916943664e-01,3.276500816786545589e-01
-1.765271795804298050e+00,1.158180922116936351e+00,1.648999422246343993e+00
-1.317260178455250674e+00,3.551736575120192224e-02,1.305404924962685564e+00
-1.508605211406988555e+00,7.928116954454497156e-01,3.176304073732334060e-02
-1.554529099066872089e+00,1.096642592940635152e+00,8.574789387400173490e-01
-4.457387232853010084e-01,9.399041090591685466e-01,5.603571402390368217e-01
-1.039830535481642837e+00,8.221412110336615564e-01,1.313110628777412137e+00
-1.133100088955781848e+00,3.950560066844552298e-01,1.591023346279839323e+00
-1.150169906847384071e+00,1.047915390647499612e+00,-2.578277912219756884e-01
-7.338570786584535099e-01,-9.092597980819562553e-02,-2.015755639382388886e-01
-4.638418422294084964e-01,4.521376546778542449e-02,-3.890418639663495437e-01
-5.210201901804040192e-01,1.154905337027783085e+00,1.253876274660685464e-01
-1.154901503364935689e+00,2.715233937626106431e-01,-3.250039793166104030e-01
-2.313318548199863489e+00,5.213771134320656087e-01,1.735274319954794864e+00
-1.694433250679718395e+00,7.343542706635217132e-02,2.173755282297818336e+00
-1.813326669676815328e+00,1.157916543728687131e+00,1.856654764424968018e+00
-2.042248907816753167e+00,1.095476270480902681e+00,9.653984292910174903e-01
-1.137714574596750128e-01,3.521493485313126892e-01,-4.306802402382475803e-02
-9.730943462566299385e-01,7.718141334859217606e-01,-6.541982465701986493e-01
-1.004592458568961399e+00,5.554598331261558775e-01,-6.707206969676349217e-01
-1.983034171619201480e+00,1.136890405010533955e+00,2.042098632062593122e+00
-1.880906399698977882e+00,3.259887233105163706e-01,2.077841765173481736e+00
-1.254094427208788387e+00,1.081769828023092961e+00,2.213103678550006892e-01
-1.124618043174311133e+00,5.106734651732770525e-01,-3.946641953614560272e-01
-6.717922973767749273e-01,9.770383132686948080e-02,9.221604685187431150e-01
-2.007107568286248256e+00,8.356108792963319321e-01,2.007144244242261344e+00
-1.296694014569684361e+00,-4.002324443501933254e-02,3.571176452021475045e-01
-1.833695511186018701e-01,1.953183914149156652e-01,2.711051446363498263e-01
-1.935039539671368658e+00,6.915091887019839678e-01,2.049792509388117079e+00
-1.325249216199180680e+00,1.127968847117264861e+00,1.188762164508379682e+00
-1.065738437623779733e+00,1.081567836698891893e+00,1.285874955921240348e+00
-8.020399448607145043e-01,6.207843483139867669e-01,9.920195367610228354e-01
-8.487815483674173711e-01,7.768587301339873186e-01,1.013951974476873685e+00
-9.560049478044598814e-01,-3.990237940258299643e-02,-9.213580014468711332e-02
-1.257444121300895112e+00,3.310380459853364266e-01,-1.620832073487169234e-01
-6.066419883883671371e-01,5.596508755411957470e-01,-4.936021110202299389e-01
-6.514558433254210579e-01,1.301703726829092911e-01,7.925559601739188276e-01
-2.656372692380598588e-01,4.063248832742198946e-01,3.102599408761324007e-01
-2.029196004243778440e+00,7.039964960394215487e-02,1.992801825504260549e+00
-9.902604265793826244e-01,-5.495231858677437214e-02,-5.208630807578914501e-01
-1.684109729504859487e+00,1.324839434606991384e-01,2.214754707131407319e+00
-1.273451593830434048e+00,9.258553210043479753e-01,-2.603577772271490898e-01
-2.052913811943001487e+00,-9.358636132014513942e-02,9.978168962164492006e-01
-1.380287800828118971e+00,-1.904309237612856337e-02,1.583766437790351755e+00
-7.273186945944618564e-01,5.393724185474247923e-01,8.837724361035557141e-01
-2.152543667062022603e+00,9.717199550947900333e-01,9.755916242181773557e-01
-1.596318651711600367e+00,4.452286937052504778e-01,1.982038868116574593e-01
-2.219148431113318498e+00,-6.733113010515476282e-02,1.250352895952445698e+00
-1.633502781285958605e+00,2.619164766598660044e-01,2.167364188179657258e+00
-8.882333917005584834e-01,-1.172061373697357439e-01,-6.175989598050304341e-01
-1.713453501628009912e+00,1.126310627207945059e+00,2.181342008265659604e+00
-6.839684029020989264e-01,1.002937032426922226e+00,-5.243434844468892742e-01
-2.060442858045948358e-02,3.762858531415718133e-01,4.890385489226992122e-02
-9.596599674780665890e-01,4.082414833268913634e-01,1.340309134024354032e+00
-1.886131510674310618e+00,4.308720253370232345e-01,2.095839579925901752e+00
-1.029369084726802219e+00,5.992591985968367084e-03,8.773305330890736053e-01
-5.606557849172986163e-01,-1.617174290594474220e-02,1.575292484944510185e-01
-2.145014515022787727e+00,1.125896148514329287e+00,1.136713986593990144e+00
-8.868342331821917890e-01,2.538811590881931424e-01,-6.560473657040829520e-01
-2.210399591242489414e+00,1.130934400320461775e+00,1.833398869307756751e+00
-1.221861574964658415e+00,7.392042734675013937e-01,-3.032039096944345036e-01
-1.034368037831324250e+00,2.150426500551918807e-01,1.352031180585966164e+00
-7.626971888818080414e-01,1.116291642257174033e+00,4.330326247338123213e-01
-1.212777595945945031e+00,1.150797260907464814e+00,8.231090087648014197e-01
-1.847325498181473513e+00,3.388690343851882055e-03,1.142434700874370934e+00
-5.357430514299103830e-02,8.428812003738399561e-01,-4.704944461319187504e-02
-1.853458288639721285e+00,-7.302292806863200370e-02,7.216844826454119621e-01
-9.233015114999355566e-01,2.961321509296855337e-01,-6.321321829577605245e-01
-7.124418857587597742e-01,5.110450228015610552e-01,-5.055336135136101472e-01
-1.211327821140487426e+00,3.700177123708302540e-01,-2.968729600573218330e-01
-1.641638936849440511e-01,5.104402979913208460e-01,2.129405412374298368e-01
-1.959270625920131570e+00,9.302656997254459270e-01,1.978939165126707200e+00
-8.888707317267682262e-01,1.135976454089062226e+00,1.119998883507560050e+00
-8.664414717222371221e-02,6.594069523571483016e-01,-1.125830164102164938e-01
-2.089819637866523916e+00,1.795622714599428293e-01,9.273173056890749999e-01
-1.388949106456436544e+00,4.033168422913448459e-01,2.942071170633753208e-04
-8.594078955257022923e-01,1.098715282624789458e+00,-2.978790772541130977e-02
-1.472154090204039978e+00,1.158364204826466404e+00,1.699539183679590337e+00
-1.935581881304598850e+00,8.326597691618234931e-01,1.993743954856978418e+00
-1.486701229159444138e+00,4.302693857986463200e-01,2.007351945429228568e+00
-6.256586139212522157e-01,1.040225555090616316e+00,-4.891232715606773640e-01
-1.508628551247758853e+00,1.392099686262478729e-02,1.753252761921006708e-01
-1.380835476690081443e+00,4.829534670264188922e-01,1.824605027201699592e+00
-1.748387838118994786e+00,1.153798356403445746e+00,1.851903124445805293e+00
-1.501753033068915055e+00,-2.249941863816158974e-02,1.027334072699836565e+00
-1.319650247104248830e+00,1.128864483468035695e+00,-1.725590588879122589e-01
-1.071340994359816445e+00,1.092233149586330887e+00,-4.976050630072972325e-01
-1.368411859087805382e+00,1.114416958690504611e+00,1.064997077798373493e+00
-1.811940963088741308e+00,-4.371229510019789682e-02,9.688397890936540913e-01
-1.005764101188465931e+00,-6.537637685805899705e-03,1.215016578301991279e+00
-1.458552195413507002e+00,-2.274908206520982398e-02,1.134328151308802157e+00
-7.685480975470854181e-01,1.936412419200389534e-02,3.184816528025336546e-01
-1.314879683854530246e+00,1.160327937060268599e+00,1.214349528372858700e+00
-8.356876678475019249e-01,1.138540743829283830e+00,-1.756478506796226302e-01
-1.389495309282215318e+00,-3.553410957322173259e-03,1.121133968001330583e+00
-2.112742550433077238e+00,-2.923499041688553193e-02,1.631849452829687852e+00
-1.367717546010425611e+00,1.844050057167153089e-01,1.892735786498123574e+00
-1.569422910103731805e+00,1.138984046005438566e+00,1.446434731120316730e+00
-1.955222250683087637e+00,1.130221654517633123e+00,1.190686431892685526e+00
-1.012473002014394607e+00,6.361375343202894106e-01,1.251625753612114034e+00
-2.346513752988855117e+00,3.452505989161124278e-01,1.758049411392259120e+00
-1.575293720022387989e+00,1.005084737277911033e+00,2.055555660746027247e+00
-2.231783361662400544e+00,7.936360503233134134e-01,1.836577463748296335e+00
-2.307908051199586641e+00,1.014850155100120999e+00,1.741414231813370517e+00
-8.272855809610110134e-01,-8.018579011260702077e-03,-6.344218608869257592e-01
-4.942341566131304154e-01,-2.574132827709271071e-02,1.454631208663774954e-02
-1.752447962190226249e+00,4.074736698937470591e-01,2.154510542132541673e+00
-1.056436381572009253e+00,7.610934711405947795e-01,-5.261276797592255861e-01
-5.460545460106100979e-01,1.104699170717165835e+00,-2.504382692259954912e-01
-1.341637375628113915e+00,-2.674093928125397326e-02,3.233129838889599039e-01
-1.538632717054204901e+00,1.127071337507226323e+00,1.166508031467353712e+00
-1.127184104446566915e+00,1.610827010030585205e-01,-3.729776975077114254e-01
-7.322026820083074039e-01,1.896163242048400088e-01,1.020161190778647864e+00
-2.035544204298858073e+00,1.047229470676574792e+00,8.945241094297026185e-01
-1.240446853139318462e+00,1.064180988508548475e+00,-2.655147210129382152e-01
-2.188171053279972522e+00,1.121041767172635373e+00,1.802925627392646390e+00
-2.473683607350774860e+00,6.387129590055050654e-01,1.584509862059310548e+00
-2.305221592768047945e+00,7.775593146953406753e-01,1.811264647432055064e+00
-2.081219063666018165e+00,1.104797096877478957e+00,9.097081800956556830e-01
-8.063379893500844942e-01,-7.168834994265786686e-02,-1.902513814304522266e-01
-4.467559605211268714e-01,8.708771434918420873e-01,4.439565059739482566e-01
-1.408760228342236909e+00,1.009694555427064433e+00,1.825332015169166322e+00
-1.056198746436513458e+00,7.177833675763508614e-01,1.408991209824880464e+00
-1.549997208272536842e+00,1.378310839927870306e-03,2.109647728880332807e+00
-2.268590120425541812e-01,9.292619535320356672e-01,2.490034789777403890e-01
-2.340930203961758771e+00,7.155751255764405405e-01,1.787172751215976740e+00
-1.150795493203713438e+00,4.099441007059670961e-01,-3.455869044839683379e-01
-1.395569878858154533e+00,5.002882118701112990e-01,1.836818396514827700e+00
-1.633533649907706442e+00,1.001528198119301827e+00,2.229410012832468979e-01
-1.155996238002769405e-01,7.427932584399508098e-01,6.580077507887055477e-02
-2.163004560547846289e+00,6.027390908670912095e-01,1.012817891043973351e+00
-1.926998325819254232e+00,1.152581341086311273e+00,1.724982329580453833e+00
-1.550969471382702913e+00,1.169526722447345346e+00,1.678857278488503857e+00
-1.789976819042978340e+00,1.120307973293368065e+00,1.456426312622621344e+00
-1.972707185940330676e+00,1.110456842307564251e+00,1.128401655432576645e+00
-1.780067266761862776e-01,8.124851954701360901e-01,1.450910677464987975e-01
-1.931992316515118935e+00,-5.166287280781713814e-02,9.849356954641836914e-01
-1.549571879882489567e+00,8.738265108362851252e-02,2.285182718686546155e-01
-1.182117349439097964e+00,1.798561030592933305e-02,1.235421589561584543e+00
-1.416455089978234660e+00,2.005372056723405405e-01,4.782698034901584905e-02
-5.596859175507515882e-01,9.398128936307043046e-01,-4.127053224860335878e-01
-2.440141771240476487e+00,1.087098210458416370e+00,1.608868638257054062e+00
-8.913455413769091340e-01,1.143647305076234133e+00,9.917734744235043864e-01
-2.005902743171599223e+00,6.850174478420748558e-01,1.987967320619687728e+00
-8.158900341595011207e-01,3.986513968681985182e-02,1.062541308729429090e+00
-1.170902823892634004e+00,8.950715055240769935e-01,-3.564622089774962532e-01
-1.579947584776197234e+00,1.432825142708470112e-01,2.569634380055412226e-01
-2.608049437189683406e-01,1.096791294963776586e+00,2.020135758488636191e-01
-2.136109385973178565e+00,4.441302063724210103e-01,1.938835802852847401e+00
-1.340264062973659798e-01,1.880827756144141660e-01,1.984246089969353977e-01
-4.132587437895915983e-01,1.108804119331513904e+00,2.997920024267680672e-01
-8.801168805421796248e-01,-1.135162728451709867e-02,-6.579516016251641952e-01
-5.710675350190477229e-01,8.832597462205373784e-01,7.285301636886014620e-01
-1.309913745725840739e+00,2.879078974428777027e-01,1.760766412995160124e+00
-2.148113004467841147e+00,1.109324468734008473e+00,1.521719208746878937e+00
-1.617804995756018327e+00,1.184676843668018842e+00,1.916926401684729164e+00
-1.017932123441706693e+00,1.079313787474525999e+00,-2.147985262619870883e-01
-1.521311128585576933e+00,6.105408086046796301e-01,2.000701777126807634e+00
-1.278643657850421667e+00,3.473216813397004277e-01,1.710986454540528223e+00
-1.215802009770564851e+00,1.092484079368207128e+00,-2.659924572002593246e-01
-1.618597836663039580e+00,4.751989268414352763e-01,2.905081303674695303e-01
-2.097510864238953499e+00,5.778461061991666536e-01,1.944195793970022734e+00
-2.380789534026449772e+00,9.810516062422343087e-01,1.772908588497248417e+00
-1.093671657961637900e+00,-9.375652235188389194e-02,4.513647264606178156e-01
-7.407262904920740576e-01,1.164268998848755343e+00,8.254727209379132402e-01
-1.775769860553385593e+00,4.299295809444597660e-01,2.150740415153387097e+00
-1.007748556660302164e+00,8.901858612235650225e-01,1.293894010585266319e+00
-1.246219494301731734e+00,7.024755656615015997e-01,-2.201814387985274735e-01
-4.788806361183778337e-01,5.376215689336616421e-01,5.234071963412170181e-01
-1.587803750246457257e+00,-1.023696990518627170e-02,1.356981461436719938e+00
-2.099008150045771792e+00,1.108738459565514756e+00,1.484806685342018318e+00
-1.621312824449152146e+00,1.132246046873147227e+00,1.163203048119886063e+00
-1.159011343404883432e+00,1.149209805381724792e+00,1.445340301703010200e+00
-1.625435809294420997e+00,3.000716757873860829e-01,3.544767091125339831e-01
-1.412959767979366399e+00,7.891934209236819431e-01,1.830583051642592052e+00
-2.526323671777250368e+00,4.475721528111771819e-01,1.642548475433661226e+00
-6.968605088608068598e-01,1.053175940808919187e+00,8.095297919470998416e-01
-8.791546781780953390e-01,7.996020354561544918e-01,-6.690184460007939649e-01
-1.733081650543763619e+00,5.798595040872195350e-01,2.200167221827278752e+00
-2.307107140727012506e+00,5.307739707957042086e-01,1.827789808039266495e+00
-1.855019477860005317e+00,6.693116719449307972e-01,2.120324493810907374e+00
-2.470142710724381185e+00,6.626303315631902890e-01,1.469631253230495371e+00
-2.606053539133641461e+00,8.176717733273676236e-01,1.549956613899770463e+00
-1.142720057530506761e+00,1.116941020642928439e+00,6.031267308843891728e-01
-2.161233191402816001e+00,8.716438432243922563e-01,1.876465063682493772e+00
-1.565379316331637405e+00,1.167035396078565990e+00,1.237476514316921072e+00
-1.739584532624065982e+00,9.935931406378987196e-01,2.212130824413770291e+00
-1.079254460882243860e+00,1.057531061438192310e+00,-5.875294576332075192e-01
-6.832407889123451872e-01,3.154287183338460032e-01,-5.038693867140578986e-01
-3.993103643829528093e-01,9.677650863274471771e-01,3.897244002055830214e-01
-1.770915773857749898e+00,-1.554524089914516988e-02,1.651046298614364138e+00
-4.851757556696137952e-01,3.424596792762613640e-01,-3.921505995997829896e-01
-1.482547800041048580e+00,1.123515163519592130e+00,1.375731678608381303e+00
-1.524056698299323775e+00,3.147236254862670890e-01,1.965599387875471005e-01
-1.221752142375974459e-01,3.067019697312599047e-01,-7.950841737740527160e-02
-1.616337376216668398e+00,4.263011601556785934e-01,2.475555482452937439e-01
-1.426174851524304898e+00,1.106995133472349568e+00,-7.786956272276136792e-03
-2.097904637249118132e+00,2.971224279467184481e-01,9.208215658918423863e-01
-2.050425333453060883e+00,1.030074133189927910e+00,9.002843187009864634e-01
-7.484153934560903165e-01,7.730875219349947480e-01,9.309289183677923463e-01
-1.343285837994560250e+00,-3.927465641612592345e-02,-1.454181783512811278e-02
-2.011044039316257859e+00,1.143355845742405119e+00,1.725907495134134884e+00
-5.561723106413892781e-01,7.846363769395828802e-01,-4.332291279920814087e-01
-1.066499750155954329e+00,1.175656487604557071e-01,-4.409731193543476313e-01
-1.965311418716067404e+00,-4.482143410925124027e-02,1.117631214900755010e+00
-1.708616893353275934e+00,1.105460331133393481e+00,1.934576076099774777e+00
-2.606934551533312550e-01,1.577417280326881832e-01,-1.882722847937591260e-01
-1.440699484567217414e+00,3.366067681755682828e-01,6.574264561045720101e-02
-9.365917578957502210e-01,1.123959516223282495e+00,5.691287478303834746e-01
-1.206784565970692169e+00,2.386961440628217190e-01,-3.116506799603365740e-01
-9.525754944945937774e-01,2.391141457757765820e-01,1.232465151301865847e+00
-7.876229145848056001e-01,1.072922485497974865e+00,-2.688318217260766696e-01
-2.509652628882711678e+00,8.967473010655118149e-01,1.674543196969433101e+00
-9.591821835388318895e-01,5.021317629624006962e-01,-6.864962271222090351e-01
-1.142216875323653014e+00,-9.679010829309663000e-02,1.263087909369045025e-01
-1.258851315404028615e+00,2.202784279535102002e-02,-1.425284024983837494e-01
-6.927512452526383147e-01,2.598885084230629916e-01,8.751946180194400959e-01
-1.265298399636597848e+00,3.070713926542950056e-01,-1.572270376451990748e-01
-6.384817831456891524e-01,3.721774877024359163e-01,-4.346298168980450849e-01
-9.054431483677962689e-01,-8.891028227148954632e-02,-3.921965465671787832e-01
-2.153523656712196477e+00,7.892819607422162098e-02,1.028300990304153339e+00
-7.265707664767647733e-01,1.157268636785258931e+00,5.421733550177606498e-01
-5.940687842585260503e-01,6.176531770222747422e-03,6.004864744453930481e-01
-1.511453586045674591e+00,-5.857954057004591958e-02,2.490574666201954279e-01
-9.442733808232566250e-01,7.422984176927376332e-01,1.252696723918504729e+00
-1.548854922160430192e+00,1.072412491416643299e+00,6.340145887513565226e-01
-1.746319812960359652e+00,2.605502066903803149e-01,5.037320920774346344e-01
-1.986552087534275035e+00,1.146064845304497037e+00,1.897937801176290185e+00
-1.528344474350343596e+00,1.146311120939143890e+00,1.363806716914494288e+00
-8.938094686029898206e-01,8.266246366669790513e-01,-6.349670180767336136e-01
-2.109677601922669010e-01,9.240946693583993454e-01,1.607843385403567860e-01
-1.616387620461991581e+00,-8.360501569554546972e-03,6.639923666095488564e-01
-1.863865294846473342e+00,-1.874713494336088457e-02,1.728282448829872253e+00
-1.286955202759892058e+00,5.381843461893249803e-01,-1.681798374463224777e-01
-1.189261777601284154e+00,1.143841630682601362e+00,1.333667800829191563e+00
-1.684983348309046836e+00,1.176912008044570968e+00,2.150301606206600269e+00
-1.049023527177041393e+00,1.109538094788826035e+00,7.121068943770075821e-01
-1.280386036828453644e+00,8.120193135995321665e-01,1.694628082729966900e+00
-1.304437286957853326e+00,1.086854572235828487e+00,-1.781087800836622381e-01
-9.368526174088771530e-01,1.117133945584297905e+00,1.054457194126733333e+00
-5.414538931938475130e-01,6.028586952170807978e-01,6.918993661941230666e-01
-2.338340521499771008e+00,5.089639128410428093e-01,1.252425844269903887e+00
-6.338970327444891639e-01,1.097766709186328349e+00,4.722725685962016196e-02
-6.697947438504719964e-01,5.101509892709136379e-03,8.844012167478362274e-01
-8.335488525604251020e-01,7.293130870409846311e-01,1.047224602963791495e+00
-7.009668514385273275e-01,3.254188804394089751e-01,8.814191737892393963e-01
-1.838886642971081731e+00,3.392753862675793042e-01,5.943621784700652277e-01
-1.719485072041578633e+00,9.255108215934123583e-01,2.185846818084631771e+00
-4.577432612052208527e-01,2.307983063324324079e-03,-6.632821083972062493e-02
-1.020380326749382061e+00,1.108916016726002374e+00,1.066953341111740172e-01
-7.223126461716267155e-01,2.992908649155519574e-01,-5.004392113902059736e-01
-1.157107360588829126e+00,1.134021292723913638e-01,1.587182889360359006e+00
-9.702634400439126283e-01,1.075558319968841881e+00,5.846480967024623998e-02
-1.258496044184955309e+00,1.155212858856317970e+00,1.522429180745215049e+00
-1.817046462614855917e+00,3.609168875504683016e-01,5.664251306848807621e-01
-5.502833057551849150e-01,1.516372587746421703e-02,6.576835442654377362e-01
-1.792787346104105062e+00,-1.450411573495639407e-02,6.721405790295744698e-01
-4.658797629449005218e-01,7.368452887300701581e-01,-3.241157020044586057e-01
-9.793666832035091696e-01,-5.865020940187516685e-02,-1.761364003673369372e-01
-1.530521985956216247e+00,1.169544131749811866e+00,1.755671167489557760e+00
-8.415437862446308870e-01,2.862971914810172880e-01,1.126756216888624484e+00
-1.951299993669909583e+00,2.846719479552291543e-01,8.084399125964177868e-01
-4.373969486650677863e-01,1.154118753512588302e+00,1.932423727384918744e-01
-1.010745501242592548e+00,1.103503793173744585e+00,1.039564385580667299e-01
-1.135106624693160926e+00,6.383334309047387078e-01,-4.098747739257463940e-01
-7.232279523128831711e-01,1.004681243082860241e-02,8.820406392264116269e-01
-2.053670788909369271e+00,6.010184824938114012e-01,8.017345017283477038e-01
-1.265245040480684979e+00,1.173366008147875172e+00,1.400123516454846451e+00
-5.089268869287658648e-01,1.175621624817588584e+00,5.166672709843164180e-01
-9.746482253808518292e-01,1.112142876545621828e+00,2.747792273361381876e-01
-7.177156712787214898e-01,-4.564484156435138357e-02,2.283193987984737661e-01
-9.328579050866131483e-01,1.124805181928720588e+00,7.936761996679929654e-01
-7.421157530747857223e-01,1.103997773842719576e+00,-2.196468917752287253e-01
-9.428508625207491223e-01,3.616205601614690401e-01,-6.376810725464612251e-01
-1.393233527083571399e+00,1.107248830834006492e+00,5.132369070439559700e-01
-2.200091653393853264e+00,-3.196208638682071501e-02,1.182612989560682060e+00
-1.466541638257052194e+00,1.040531160142461164e+00,1.254060292272527952e-02
-8.031389518219225199e-01,-3.350214450681775896e-02,2.016823671264923734e-01
-1.478403049137309688e+00,1.100635436687018798e+00,9.555539734693851983e-01
-1.647118323708774090e+00,2.925859660261559414e-01,3.200870190688762107e-01
-1.657958584335341712e+00,1.123031698753317764e+00,1.417808668718421927e+00
-1.288671808810288866e+00,1.068397171894482023e+00,4.220791065199735320e-02
-4.668117281787311224e-01,1.105069234647112930e+00,-3.019665655892790346e-01
-2.324758926272659121e+00,5.839051331203650719e-01,1.254861616964371596e+00
-1.701080291959158775e+00,4.401554621917324467e-02,1.998045775673475966e+00
-9.925704740318173069e-01,2.438316291724646964e-02,-5.704701118823239936e-01
-1.249176555285150814e+00,1.716866636473966812e-01,-2.156810154240939303e-01
-4.479741975189207026e-01,-8.377973578248248260e-03,-3.398509399820845989e-01
-9.425538672292001208e-02,1.087691907671523461e+00,-8.516370873659194485e-02
-1.215974389881967044e+00,2.559871397876123944e-01,1.661490821763389025e+00
-2.340610524836530537e+00,1.137131378591746955e+00,1.687366977347173558e+00
-1.675302541459842809e+00,1.121103465358714635e+00,8.793154266381268958e-01
-1.328386931794444337e+00,1.159073956364715219e+00,1.129626369658202734e+00
-8.361389419885220109e-01,-1.067063714581451689e-01,-4.803318891087638987e-01
-1.714273635639154802e+00,4.849300601146619982e-01,4.309122227666368210e-01
-1.916118692987033301e+00,6.250200458945459614e-01,2.075493739005434435e+00
-7.322200935587426240e-01,3.392404015369609310e-02,-5.563402870339504425e-01
-2.127944572977925386e+00,8.835705883443817354e-01,1.922884305781564107e+00
-2.241186390945345330e+00,-2.918655083673161663e-02,1.488622038418083271e+00
-1.623200809896043095e+00,1.136819930071965690e+00,1.851519152734037554e+00
-9.439099864861715261e-01,1.572654922419024492e-01,-5.705024923343525733e-01
-3.122518563035294736e-01,1.652743121220586267e-02,5.954306588731786420e-02
-1.841395722977591687e+00,3.624868745774503243e-01,5.856984423271542894e-01
-1.037856745639383238e+00,6.867838652531522703e-01,1.386189593819719956e+00
-5.317107875822641577e-02,6.766370167184893036e-02,9.112630252979000631e-03
-4.960518921852655194e-01,8.448611877156358974e-01,5.719503210977553431e-01
-1.088413143980647702e+00,7.518391243267055213e-01,1.374751085702145215e+00
-2.152845712243759979e-01,6.061518172966998685e-01,2.211790654276003520e-01
-7.707361844737103951e-01,-3.042541109902588414e-02,-6.038404537845821762e-01
-8.463795450415092514e-01,1.096533489478821455e+00,-3.168786771261515867e-01
-6.595293832882183072e-01,2.773307760473018302e-01,8.397367563050268657e-01
-9.378171123683735066e-01,5.156234755145781001e-01,1.233676083038667493e+00
-1.559993512159295603e+00,1.080558234379581872e+00,4.334400279985103355e-01
-1.312395759030770881e+00,-5.359608646207116717e-02,6.498428617170658173e-02
-1.417557843005136542e+00,1.171494164559035767e+00,1.766247809506419353e+00
-1.535239023269122871e+00,2.201231021961373158e-01,2.125691706560739469e+00
-1.473724693069296876e+00,1.065408790151008089e+00,1.216494152739821533e-01
-9.210474754463773284e-01,1.108755254910991583e+00,8.250170903919341603e-01
-8.864315481955026277e-01,6.852366350337945056e-01,-6.842566281079239809e-01
-1.076918785200495110e+00,6.200384502589081359e-01,1.396968091229339182e+00
-1.970962238085989471e+00,3.079509012514962674e-01,7.613673670229942347e-01
-9.968061523653043432e-01,1.057281138972913315e+00,-2.498225755289981420e-01
-2.014156593651780014e+00,-8.007954347409226847e-02,1.086292987857474301e+00
-2.219497827441439419e+00,7.221343720225088525e-01,1.036022106868713655e+00
-2.751778000778368205e-01,4.396370012649035153e-01,3.805892577298087831e-01
-2.559690357396209759e+00,3.853789858917685551e-01,1.507016516373857140e+00
-7.416255580285532889e-02,-1.410729084136605298e-02,-1.229348571753899506e-02
-1.688270935273768369e+00,1.487323226167350070e-02,1.960544845777527634e+00
-1.166557636092246719e+00,1.137803888309552924e+00,7.115981677066252065e-01
-1.822333658777196996e+00,1.107241311632897407e+00,1.559313164461170187e+00
-1.061140124104121840e+00,1.106029702994228314e+00,3.156882592480971805e-01
-1.369270333529349015e+00,4.243608504740604276e-02,1.811050228788791738e+00
-1.777358629177017146e-01,8.988188188959291836e-01,1.175207067238335512e-01
-1.352245346237116452e+00,1.159688629687089190e+00,1.723379132388157986e+00
-6.487416997826307430e-01,2.728152854508749114e-01,-5.115905594731753325e-01
-1.698137760105604910e+00,5.189586694766697983e-01,2.189241702534669987e+00
-1.039731194643503942e+00,-4.289133412921680016e-02,4.573510573312717375e-01
-8.853032946237568979e-01,1.842915503220310114e-01,-6.892383308381615503e-01
-5.131542021600844078e-02,2.864287110799994540e-01,-9.253273789734646829e-03
-5.208747122556116604e-01,1.130033693224081093e+00,4.329067237834499648e-01
-9.299748673253579456e-01,1.132264100342942115e+00,3.863963968706542462e-01
-9.996113661561749630e-01,9.692022593070169778e-01,-7.131119046974662146e-01
-7.067255089776350863e-01,-1.677162159505875966e-02,1.096496215017842557e-01
-1.980392593784437327e+00,8.380262784002912024e-01,7.362340188534722829e-01
-1.351610636547793121e+00,-6.190598992113374721e-02,5.880085598274986669e-01
-1.247635107332339732e+00,5.054757721720930519e-01,-2.930908141453060223e-01
-2.422061942009585245e+00,5.119221689803796771e-01,1.427531985543845527e+00
-2.530248885533434411e+00,2.646841081149020614e-01,1.532054243564927587e+00
-9.035997624325675659e-01,6.088165180167671997e-03,8.383159709332190790e-01
-9.549151329588456694e-01,-6.197430569962120855e-02,-1.207751838660444943e-01
-1.277945161462576973e+00,1.148334505793840110e+00,4.714476270132565983e-01
-1.010089349339108100e+00,-1.145549283015667545e-02,1.429624594158127870e-01
-1.916549008630238582e+00,9.967791117950055568e-01,5.842788530324601881e-01
-1.292594120756115794e+00,8.134513718147475814e-01,-2.309427438893552342e-01
-9.623647416149591072e-01,3.406728051112347111e-01,1.272332532720400700e+00
-2.238573232434061921e+00,-3.350122369942469536e-02,1.711189608863693534e+00
-8.612338143805707835e-01,2.360947682597588655e-03,9.330949916326826132e-01
-1.176645445120442446e+00,-5.529902515274572050e-02,-2.365817519299106553e-01
-3.636981321436037751e-02,3.691947931596105681e-01,-4.954522957083611068e-02
-9.133654415265713977e-01,7.115792122886077653e-01,1.201861036669994220e+00
-1.358159628387154871e+00,2.134669437347720966e-01,1.803736790266143197e+00
-1.223811052749878669e+00,7.649475727390601110e-01,1.580836006337772659e+00
-4.758204784743388371e-01,1.114358249266019341e+00,2.558347103790050148e-01
-1.459377796874254285e+00,9.617269831929579071e-01,1.835357732630508609e+00
-1.614555550673833828e+00,1.154206738395765930e+00,1.769344760041960285e+00
-1.553803168288693914e+00,9.665820537520529721e-01,1.027905063163310762e-01
-3.753267325045629987e-01,3.691424373234898360e-01,5.434721198808084575e-01
-1.992020333561126622e+00,-4.289136826872901043e-02,1.271800940147175041e+00
-1.994011726600697365e+00,1.999892282142048602e-02,1.728173147658379039e+00
-2.013494962001824540e+00,7.508646695345507771e-01,2.007469901030256576e+00
-9.619972179614465491e-01,1.221446746850126941e-01,-5.871409480648704937e-01
-1.868809879738072999e+00,5.893624887100469278e-01,6.211228402026425233e-01
-1.164505465031137055e+00,5.655680496799868617e-01,1.552824913217720315e+00
-1.971942707511097570e+00,1.108888525958565685e+00,7.968958014042357707e-01
-2.469969309274575586e+00,9.000365868436357442e-01,1.423572899849920192e+00
-2.282172458566722462e+00,8.240777921615574098e-01,1.755443758720931502e+00
-1.450148429922710980e+00,-5.096964935797151236e-02,2.197103369849663090e-01
-1.229209402156494102e+00,-7.923761184064349872e-02,-3.829502832390103279e-02
-2.323462583331211917e+00,1.106034336019474429e+00,1.445317517109779404e+00
-1.342600535863123001e+00,9.160533450347683182e-01,-8.563855665890419966e-02
-1.867027096470325054e+00,-4.130489037920319351e-02,1.485426747676928727e+00
-9.414346018654631276e-01,1.155306373464543984e-01,1.255094946056760863e+00
-2.177963359211407823e+00,6.573964871010292699e-01,9.768211405513731460e-01
-1.258371064236055270e+00,1.117838793824532440e+00,9.502708247613261827e-01
-2.248960693418024626e+00,-6.598229199369859410e-02,1.509047710912276630e+00
-1.701249355604314006e+00,9.044197591267642000e-01,3.548692481407971777e-01
-1.091809045181747928e+00,8.653418066497249317e-01,-4.541642024776862963e-01
