1.118515524185951460e+00,3.575901089943366085e+00,8.212119727560387439e-01
-5.887171656727175906e-01,1.134240000498011103e+00,1.501331729155664929e+00
-1.351164046199555768e+00,3.592975221481483850e+00,2.246033881931238374e-01
9.053528684706024787e-02,4.492000292447354326e+00,1.946387463695310460e+00
8.142782237903307685e-01,2.813645368180243134e-01,8.904979346564996234e-01
3.161980014925390936e+00,2.864217160612616997e+00,1.909231343109632606e+00
3.735303668995472837e+00,5.734624638303216670e+00,3.029126597524275155e+00
2.812026148120065905e+00,4.842295555498101756e+00,3.523399754133797579e+00
-9.886658202993324762e-01,2.205216843807940919e+00,7.421288702814555771e-01
4.180482723025531477e+00,3.402606696831549815e+00,3.433534887506599187e+00
4.032076812740888805e+00,4.955556449691592036e+00,2.254342991188093670e+00
3.577902836976821987e+00,5.618834555449761403e+00,2.180360555797946631e+00
-7.475213091319957148e-02,2.481281467202635760e+00,2.001369071468494729e-02
2.538224679129937211e+00,3.058777889588789822e+00,3.174288771530293207e+00
-8.656329954693039452e-01,1.653282986718533243e+00,1.520671560955972224e+00
2.265153223067133403e+00,5.168249436395197627e+00,1.385323213202120263e+00
8.799603308473833430e-01,3.771009620940347418e+00,2.440618586516890343e+00
4.170310215486622063e+00,3.168063234021505803e+00,2.299666520917466261e+00
4.526941273925340958e+00,1.810979423044929204e+00,3.830962929151897178e+00
2.724571442893596096e+00,5.731797731887581904e+00,3.398762426176246798e+00
1.187333491678798092e+00,2.514729450027739510e+00,2.607584765615549305e+00
3.821761268506478793e+00,4.102416208591847635e+00,3.803074067501639899e+00
8.107397511926054401e-01,1.809827800944913134e+00,5.295266717992630490e-01
-3.354391286868407263e-01,4.906028242495911407e+00,1.060427261601698978e+00
4.540304739838354919e+00,3.129572169041554996e+00,2.930396740707945646e+00
1.480163182673586153e+00,1.871210425177571857e+00,2.566628297788297264e+00
1.886974978217930143e+00,1.782859551493853223e+00,1.108514462001114476e+00
2.716663153859515845e+00,1.744835857737444762e+00,3.145962070410900591e+00
3.518935511484474699e+00,5.024256771327890725e+00,3.750804498688392385e+00
2.542629905453697159e+00,2.469988612925239302e+00,1.375293569600172683e+00
3.445780791619768468e+00,1.717376878992869393e+00,1.775618775512201930e+00
1.068530765920321368e+00,2.289062523867684273e+00,7.468455179531368060e-01
2.217712497646886938e+00,3.930882085632111167e+00,3.097857666971113755e+00
-7.528896180291739793e-01,3.744660178916633386e-01,1.009384168062174680e+00
2.608135652165954887e+00,8.979588943385691246e-01,1.374008489643584907e+00
3.631650137176519522e+00,5.694430264273953490e+00,2.130479442979122062e+00
2.486336277321842925e+00,3.981588006451278083e+00,1.513927252750123520e+00
3.954785171754387818e+00,3.539575855839987018e+00,3.633832972590961496e+00
1.319144155288943354e+00,4.915652456762388822e-01,2.200622006957094534e+00
1.177162583167929322e+00,5.354897322814488270e+00,1.951646002335992280e+00
2.762026970290463623e+00,9.975187656284183468e-01,1.684778472285854090e+00
2.944048486150533606e+00,5.391127934152057044e+00,3.516622030288577783e+00
3.469173627559286821e+00,5.665996123865624234e+00,3.630873853561974673e+00
1.052764044893781614e+00,3.148774660324563435e+00,2.459891447660353503e+00
2.519382730660607361e+00,5.927142052778505033e+00,3.334378091725551219e+00
2.419850868048903703e+00,1.901285717509119344e+00,1.232549242810786483e+00
2.032876482240847382e-01,1.537519862062091791e+00,1.693128069748797426e-01
-1.213760905997404160e+00,3.895842887468246474e+00,1.362346660470256765e+00
3.832528228712146934e+00,5.895912401769225042e+00,2.261554325037980373e+00
1.349359578215031608e+00,5.367803926361847111e+00,9.572966672664651178e-01
-1.619675300118129435e+00,4.288573773961056546e+00,6.199877252115426618e-01
4.100453726113798325e+00,4.050673725963666705e+00,2.264818434822678750e+00
3.746154436820076761e+00,3.747789436339993951e+00,3.836699710723015855e+00
3.566223760111643770e+00,5.598038782366677957e+00,3.479664983628016017e+00
3.567724945293443195e+00,5.857938336030530380e+00,3.391674552643954232e+00
-1.155517578274357193e+00,4.685149639983236192e+00,-7.543317763679850685e-02
1.626276841766629566e+00,5.295376410491130059e+00,1.089776406968827827e+00
-6.897166669699206221e-01,1.677715876877241552e+00,1.537546418180206764e+00
1.178376238769011763e+00,2.933613101324859862e+00,7.367688159790455327e-01
3.286517102214320030e+00,1.348664414816222346e+00,3.507060501169068978e+00
-4.540768357052653026e-01,1.228467347363994877e+00,-1.810706058906552196e-03
3.416322048988202909e+00,1.258189499337993844e+00,3.316689488658406848e+00
2.379284620612576617e+00,2.326197227472148299e+00,1.247823565245301358e+00
4.942438061966731411e+00,1.698776975599928019e+00,3.188224886364160682e+00
9.860091246286138700e-02,2.445185365009270750e+00,1.827176967005896824e+00
4.788933850446234430e+00,1.464092499424070493e+00,2.801235435403333085e+00
3.459647528542752148e+00,4.591603000330032103e+00,1.942984183874573390e+00
3.395332613341280059e-02,4.985621971999262492e+00,1.046035374397253692e+00
-1.919401000519724843e-01,2.707218616379592824e+00,1.756240753089340023e+00
2.981476326151232925e+00,3.191153494846388661e+00,3.492237825856476352e+00
1.226554861658411655e+00,3.845833258649664188e+00,2.599349509861147656e+00
4.410642190981579169e+00,2.877186639047562444e+00,2.376634333749151562e+00
4.794850631826720888e-01,8.805472574125501328e-01,2.556547230726747277e-01
2.401596896886331489e+00,5.881862623744745555e+00,3.117540242267482942e+00
2.236931789194709363e+00,4.114443397580294537e+00,1.358303769626807656e+00
1.673659848886503099e+00,2.571520861261463509e+00,1.100411898467171135e+00
4.470706325921332436e+00,1.768806337629233782e+00,3.784283495180684742e+00
4.450259548693928480e+00,3.834031045196970577e+00,2.413124505098378503e+00
2.761007911409064430e+00,2.624012047509454604e+00,3.300512136764287341e+00
2.516949017309841441e+00,2.060028861724459759e+00,3.039689378273230158e+00
3.519499283668280909e-01,1.885424997883011988e+00,1.469123102711165918e-01
3.814742247595526603e+00,2.926308162448854056e+00,3.738716021920631682e+00
4.015973112001245404e+00,3.514244760783755694e+00,2.208265205212523341e+00
3.143785469094586560e+00,3.446597144776210708e+00,1.864538466188040200e+00
1.541527141078395058e+00,5.676242082224086660e-01,1.727064203829640432e+00
3.893525631433592427e+00,2.418009209807521653e+00,2.085265723233174384e+00
3.553543274173298183e+00,5.478218381323958219e+00,3.615157388127011373e+00
4.202569273195575050e+00,1.609665208764129884e+00,3.937230288638778219e+00
4.619316164759562859e+00,2.265517712949020268e+00,3.427472552353677759e+00
1.323377209066306293e+00,3.357438748100094905e+00,7.679546898059601556e-01
4.115482386577937746e+00,4.302770066034695695e+00,3.177981043637261305e+00
5.670914115510451436e-01,5.215731224258686183e+00,2.044986884817632244e+00
2.882099784757261141e+00,5.937913560486146380e+00,2.911331906806736036e+00
-2.094191171146696506e-01,2.724225055128715045e-02,4.754091418817484316e-01
2.399090929135261341e+00,2.610075522137369930e+00,1.455951244633826080e+00
1.465823802669113940e+00,1.640172481097563528e+00,8.667982411994539227e-01
-1.181203773375288479e+00,3.058137058482894410e+00,1.357897673189125243e+00
3.591775532737956578e+00,5.468776276288387805e+00,2.052401231912281965e+00
2.897957129801431275e+00,5.917045434037647489e+00,3.466092595137662435e+00
4.108224088316429601e+00,2.479014169696732051e+00,2.200005525402874973e+00
1.379977373782709238e+00,5.224048957389794801e+00,9.825852533800476518e-01
3.076666769998205098e+00,6.049667641098319670e+00,3.232726710739952214e+00
-4.762740848406636918e-01,2.066386907667181916e+00,-2.627909583599893125e-03
2.347612432204980060e+00,2.590107933772681559e+00,1.335180022601923699e+00
-1.207892983903981476e-01,1.676376824238522634e+00,1.649154100629324438e+00
7.310591043737864059e-01,5.290842488696338108e+00,1.192461192302604944e+00
1.381131560479945009e+00,5.032993956095882737e+00,1.095280795243885663e+00
1.238721423650214204e+00,5.418010877202648956e+00,1.472658143592479485e+00
8.921641925557272090e-01,4.947796156562482284e-01,4.438491951583967143e-01
1.226406212079184099e+00,6.573989642834849878e-01,6.329475821472003716e-01
5.215192075374510683e-01,1.305086730493860037e+00,5.592137672975163731e-01
-1.191175362456535991e+00,2.645818935486223822e+00,5.103990565500576837e-01
-1.697981515429164978e-01,4.379546890462678199e+00,1.104242152996503523e-01
2.693108310860733212e+00,4.447279428788592170e+00,1.597208650471601876e+00
7.517467805460817942e-01,3.210337310910421849e+00,2.123121322835337832e+00
1.555234908259313320e+00,5.386792739597373370e+00,1.356669614812492153e+00
3.731134852627265186e+00,3.744412307525515793e+00,3.761612054598932886e+00
4.179305062490265676e+00,2.224749305763772167e+00,3.939494461240273804e+00
3.136034621617389995e+00,1.037190836826463070e+00,1.654699938701680528e+00
3.685899067340160373e-01,1.179488945445004600e+00,3.053102191419719280e-01
1.629251046474683440e+00,5.421774241205233658e+00,1.322717663893437035e+00
2.338559267877253323e+00,4.085870817327321269e+00,1.284505368452444785e+00
1.605198911570169251e-01,5.105348043834795568e+00,1.570481987938910473e+00
3.053891203167596213e+00,3.882522123223828725e+00,1.610344301254091226e+00
4.419408895455215536e+00,4.283494008028211120e+00,2.415585430263879729e+00
4.269189301045121177e+00,4.435503869158762491e+00,2.719435422122909785e+00
-4.398945397221009079e-01,4.929660678935401386e+00,1.351948468967980377e+00
3.558173266747028940e+00,2.841851293225517328e+00,1.931260462323530769e+00
1.249013550112333171e+00,2.499361124447039284e+00,2.462734564737593779e+00
3.632753152484013093e+00,3.785495813924030006e+00,2.119054516127401921e+00
-1.299437211060998187e+00,4.215316979921055918e+00,1.312063794838634223e+00
2.827068411706205042e-01,2.605002211076910879e+00,3.088239565878332926e-01
3.568232423122226216e+00,5.033528126859233787e+00,1.959244893914123375e+00
3.932330772288455289e+00,5.061011719230659622e+00,2.942856911034051226e+00
3.566358228197090696e+00,5.435463535184306139e+00,3.425284859152478045e+00
-1.406871654074146605e+00,3.470573186500883089e+00,6.758822432535946945e-01
6.846399649811317767e-01,2.590694563246564108e+00,2.354711426920395034e+00
3.254509089085724671e+00,1.366937887512907457e+00,1.701402253942708720e+00
1.461478518506524660e+00,4.103642031238485366e+00,2.631222004616706300e+00
1.718757947469631286e+00,3.094352804095012122e+00,2.798482833213296050e+00
4.501758492455819827e+00,3.170535880536829332e+00,2.872591286738306771e+00
3.431507994211529855e+00,5.893829225971677133e+00,3.755654097654452794e+00
-8.585757665181928955e-01,4.762439160451228837e+00,8.472329492389589767e-01
3.605732992638397416e+00,5.012779364980572971e+00,3.455211721414866766e+00
7.839123855239921168e-01,1.615666396318425013e+00,2.245382528107721765e+00
4.153988562159356412e+00,1.267030372657137027e+00,2.156438460496485465e+00
4.134864905394006307e+00,1.280641386845436491e+00,3.364964656780222718e+00
1.599723115972928600e+00,5.367753785981572712e-01,2.399578388880057034e+00
2.417241071333504188e+00,5.733856106539264808e+00,1.812206921753699129e+00
3.484512077836130484e-01,3.369103110527174039e+00,3.317943903376283088e-01
-8.974266772073566378e-02,3.565927541114908728e+00,1.610964752021911972e-01
3.279205107278367226e+00,6.010832902409367406e+00,3.560228423361356143e+00
1.028633347312784441e+00,2.671232146094595361e+00,2.340683565928061149e+00
1.317701669276191589e+00,1.001583162923872505e+00,2.370545601333100993e+00
3.457605291715751594e+00,5.985001236933452873e+00,2.311025827877926098e+00
-6.739497563568492833e-01,1.645734230774077211e+00,3.359606667218766884e-01
2.553214677817134515e+00,1.260015785410601996e+00,3.045140320046514582e+00
9.955486533706099650e-02,2.450930227050082955e-01,1.749790239017254612e+00
3.084993408961178130e+00,1.567404597169873792e+00,3.337312499141949385e+00
-5.331267667175768610e-01,2.829232580095073946e+00,-1.454211496458924502e-01
-2.137554989361129254e-01,4.835599548695223682e+00,6.148666821687125417e-01
2.215422226104930559e+00,2.470754877398299243e+00,1.233789756986421571e+00
1.666256738084098021e+00,4.894452838175153531e+00,1.139270147814831935e+00
1.394377886237619268e+00,5.223575815980961323e+00,2.670072350689113527e+00
3.043892172050957079e+00,5.989203914346068025e+00,2.738155059519534973e+00
1.379008668680609784e+00,4.636074535130694230e+00,9.950657041946151526e-01
4.401994215135319521e+00,3.360085395477221848e+00,2.371090348676191173e+00
1.971009371195604931e+00,1.488052376259413556e+00,1.122253366373501482e+00
2.675203852857825915e+00,4.575633431027074316e+00,1.577346451998391519e+00
-3.220098052221855300e-01,2.315002485602790205e+00,1.705363188859522650e+00
-1.724421803527905306e+00,3.724713102571270085e+00,1.037937772125989033e+00
6.080330516144021313e-01,2.613833577656550666e+00,5.171331028993561008e-01
1.729506926386671140e+00,2.261560736092183443e+00,2.804715275499171323e+00
1.144386540365974619e-01,1.698500159481979854e-01,1.700833283998413936e+00
3.212471007832984782e+00,1.245126933327949548e+00,1.745239588116181517e+00
9.164451178470428561e-01,5.286942270012050749e+00,1.756253077352349035e+00
-1.795072569772593329e-01,5.091465825999144990e+00,1.779241210479513224e+00
3.433964839101215194e+00,3.690924494281428991e+00,1.825406745147018173e+00
3.079029933304971323e+00,3.224670316725954500e+00,1.729612786276793823e+00
3.646229117697915800e+00,4.015908502311721584e+00,3.905271300624081565e+00
2.758082124526166634e+00,2.453275546019483944e+00,1.579867343911579347e+00
-1.346041486149980093e+00,4.191162702152809949e+00,7.806612962748493700e-02
-2.954027326832013300e-01,4.944042211511184171e+00,8.930292821806091741e-01
-1.632697596233953163e+00,3.435355526739016785e+00,1.253500144541171757e+00
-1.235702002198107302e-01,2.940220193264558857e-01,1.698380921602986815e+00
-5.733281759955348722e-01,1.499679279846938051e+00,1.646505856740387852e+00
3.014327049077045295e+00,4.693316605833468991e+00,1.661267765637831850e+00
-1.051619425897048377e+00,3.406346555763366091e+00,-1.178325867576478364e-01
4.807255577099675214e+00,2.421274276723284213e+00,2.823938933962072628e+00
4.605542659719617404e+00,2.213864847746619624e+00,3.389756852528649667e+00
2.056460391592145776e+00,5.770852527743782545e+00,2.771284176012748013e+00
-1.548547322883064847e+00,3.273580592595140448e+00,1.221358942747211351e+00
2.882621697403583205e+00,1.339213999215933093e+00,1.497188824854314371e+00
-2.431485511521605802e-01,2.220239506983442135e-01,2.020990903833517205e-01
3.815087346287644010e+00,3.362108653878860931e+00,1.922671415639354953e+00
8.936681244238495747e-01,3.718656539745186507e+00,2.468589701282593474e+00
-9.745201797916256403e-01,9.672227971372526767e-01,1.165311842906659567e+00
1.509074371676323023e-01,1.004446589652298050e-01,1.160565395127495014e+00
2.813163486860590923e-01,4.999390564294975192e+00,4.619252877370925714e-01
2.043088066779177758e+00,1.787569351990084598e+00,2.918950660354778570e+00
4.391841878090488649e+00,2.052006974929211136e+00,3.877725244379981895e+00
5.046715892670801118e+00,1.567681246884748969e+00,2.751915816901669753e+00
-4.188997511490614722e-01,1.703149146164302241e-01,7.889510623268862766e-01
-1.037492333519898224e+00,1.694979048335206517e+00,9.254282642236032475e-01
9.244072059197934177e-01,2.613573902570195173e+00,2.351423393790405658e+00
7.814548268255387953e-01,2.697683997747919893e+00,5.095316822764749398e-01
2.230530635292096608e+00,1.966376094123035490e+00,1.160186887486676754e+00
8.490304313946753778e-01,5.167362146970797099e+00,7.850411241329281475e-01
1.286258096839361653e-01,1.311710242953993077e+00,7.691528744706274678e-02
2.334529398578545578e+00,7.287630446673587503e-01,1.336348599045044772e+00
5.475221059826176351e-01,8.281435072779600448e-01,2.055459153804289674e+00
2.770652442856810893e+00,3.522277338063755092e+00,1.577571679807119320e+00
3.255763893190602332e+00,1.194352188390991554e+00,3.302825288862967223e+00
2.850473517557519543e+00,2.477174967169398556e+00,3.307719490099354065e+00
3.940555634440106925e+00,3.916044189592375879e+00,3.489485535024883678e+00
4.415915616427102286e+00,3.023982009647724567e+00,3.277763222804904064e+00
3.967967289299318079e+00,1.286360692909357839e+00,2.789445312110221398e+00
3.853500248379493343e+00,4.835324389554291891e+00,3.119282860209299013e+00
-3.371793749590434874e-01,4.910445331545204795e+00,9.641794932256108064e-01
3.910351122562651049e+00,1.368036375190120113e+00,3.206911046352245442e+00
2.801006068228708124e+00,1.977956169245368656e+00,1.573286191953592761e+00
4.678605198214746075e+00,1.812305582977284946e+00,2.561860472552477397e+00
2.937561540503655255e+00,4.439706657395666056e+00,1.600463647271054723e+00
1.548715653259042480e+00,1.907387756557608061e+00,9.001415187016349462e-01
-1.029648085736489582e+00,2.313413440653441899e+00,1.300259435773140515e+00
1.887747848529430117e+00,3.177167588262682418e+00,2.907421875492079089e+00
3.481105591432802626e+00,5.440686595651318846e+00,3.700185105725300794e+00
-9.546949165015630179e-01,3.271120403732010740e+00,1.692082733778482728e-01
2.556464648614676705e+00,2.549684311740719078e+00,1.356886009806121951e+00
2.990143848340565569e+00,3.871347387135930962e+00,3.393222364941416824e+00
1.123392470108848018e+00,4.196077421301190324e-01,1.711523946216941816e+00
-4.549125218386591007e-01,4.393105525025346125e+00,2.480607239213839313e-02
2.152930899100102380e+00,4.817147731769282792e+00,3.060032288306416159e+00
3.039699423055243876e+00,3.115603703748982767e+00,1.697367782888621113e+00
3.851340903190831888e+00,5.981373075532378181e+00,2.713829869521192872e+00
-5.964234403712214139e-01,2.517103765134116600e+00,1.528118800669481692e+00
-4.872219830495135851e-01,2.538541331305446125e+00,1.637363620957441590e+00
3.427735642446974484e+00,2.838018563703924357e+00,3.616166957032624918e+00
-5.566666800587304342e-01,2.608656165654924308e+00,1.687606379456714656e+00
2.941520682858522751e+00,1.078932719786553029e+00,2.971594416944351114e+00
8.671049098534446831e-01,3.388049550067204763e-01,1.288881030335295108e+00
-5.610258178309384114e-01,4.858312215984176952e+00,1.289424197754779344e+00
6.311272175120290484e-01,2.121560244676142570e+00,2.281748073731912907e+00
4.770184689941484812e+00,1.540793895260627044e+00,3.264192121402063496e+00
3.046476421990902406e+00,2.219046292971988965e+00,1.688379946571875401e+00
3.676886903429569475e+00,2.505136594790486892e+00,1.919927392061486549e+00
-1.277661697751922842e-01,3.319386241242300972e+00,1.799798709637328020e-01
4.292993724228002961e+00,1.469822762562172036e+00,3.857362902881094957e+00
-1.008726115002174906e+00,3.722895887083884858e+00,-1.505813222931576545e-01
3.268819308791362843e+00,5.950468171885241020e+00,3.602428044844841803e+00
-5.270479211837172384e-01,3.581946900235131181e-01,1.072740515312933240e+00
2.259074703142763957e-02,1.231274312585363927e-03,8.505352469568218110e-01
9.653605413927036638e-01,5.420003912357086229e+00,1.025728883407785563e+00
3.947241290184635432e+00,2.358075212652121611e+00,2.062888512452108802e+00
3.291959372196389122e+00,1.129443431178480894e+00,2.716197750411314171e+00
-8.415520645676934919e-01,4.755380696214843717e+00,1.109533639753212952e-01
2.030666103306192571e+00,3.095558619259186628e+00,2.962783251589041988e+00
2.639963678831631633e+00,3.661419450970355705e+00,3.234792403757979606e+00
1.111646512928836428e+00,2.943297226458350124e+00,6.710471890285124585e-01
-2.049728877811957672e-01,2.215059801122015504e+00,9.492305278120055645e-02
1.415349668577094766e+00,1.303849003636751824e+00,2.467086500654870118e+00
2.154800825217523030e+00,1.777580417960515025e+00,1.157395851454788849e+00
2.323243503053955106e+00,5.499382457282346870e+00,3.194214532353822911e+00
7.693322615717174129e-01,4.910989651094133990e+00,6.768206010198299927e-01
1.392262249485532344e+00,3.277273535734456456e+00,2.603109221858911582e+00
1.865616611323379193e+00,5.660374633487857743e+00,1.820718113852972664e+00
-4.889333034461909033e-01,1.291408720973318491e+00,1.563769271466326272e+00
3.162839506907159315e+00,2.712392172986241246e+00,3.546621404973145264e+00
2.246972510904813536e+00,1.741892723707086921e+00,1.251919818570705001e+00
5.027775999948347341e+00,2.013261378917771349e+00,2.552016502186349012e+00
-4.349547234622055947e-01,2.825350623795090943e-01,6.665878056424716647e-01
-5.814484511793291954e-01,1.375997786862847905e+00,6.736080028616310278e-01
1.772008492068094299e+00,2.644250380892244845e+00,2.761243176761616791e+00
-1.199510106128085063e+00,3.277330910573147182e+00,1.330029721197583781e+00
5.585655957990524889e-02,1.346304551052641130e-01,1.078913596063579616e+00
3.274026664486664906e+00,2.727412864166724127e+00,1.746821251784695050e+00
2.269160892159419962e+00,5.772131755854247537e+00,2.179731990614084403e+00
2.408452335275174327e+00,5.769851285179985467e+00,1.964311998993118813e+00
2.675821765755743709e+00,8.870651452198523579e-01,2.952574789705396441e+00
3.360056477984097345e+00,3.334481261551517584e+00,3.622855670902905167e+00
2.541766587147526124e+00,8.733242387569180032e-01,1.939658116494224593e+00
1.306778913516299712e+00,4.922560205169122405e+00,2.689553879296847860e+00
-4.475715741812753001e-01,8.380449322439879056e-01,1.511881323305161340e+00
1.632853500023123683e+00,2.586222367484508400e+00,2.796950364882628826e+00
-5.485724457019817146e-01,4.344178544196352298e+00,1.759430678505964130e+00
1.018358639148335687e+00,4.869867786865201609e+00,2.521892237572273210e+00
4.035461919762111549e+00,3.936958908868268381e+00,2.194008380056370111e+00
2.911590427126053982e+00,5.728075193252618824e+00,1.764904384462722575e+00
1.036372487473782966e+00,2.016872787474530249e+00,6.921766840480142458e-01
-6.176457172215923386e-01,4.883523527269895581e+00,1.218532922885160463e+00
1.841886541042661696e+00,6.260909161540018086e-01,1.676407209986412239e+00
1.438550569484420560e-01,1.529695657764413574e-01,1.439535237576433646e+00
4.922709241400816893e+00,2.372323501531865997e+00,2.665263911081388493e+00
2.007753606516705869e+00,2.607316337295876085e+00,1.181251865438769366e+00
3.358895978010408623e+00,1.009740936216915852e+00,2.110393921826674291e+00
2.389100654033137872e+00,1.397598140941989975e+00,3.101497521887141673e+00
2.803045087570047222e+00,4.327562954811648765e+00,1.758839571955199244e+00
3.074634297951519102e+00,3.251095173288192530e+00,3.416031502888163374e+00
8.313508759253497304e-01,1.358532900456786985e+00,4.180322060810217621e-01
2.640541812975948921e-01,4.058903432723208304e+00,2.067230644717561905e+00
3.496948903020715260e+00,5.998685210614018715e+00,2.049973164979011830e+00
3.572526025462106514e+00,6.059324315571612551e+00,3.039966501157564061e+00
-3.784431202992932786e-01,2.712126939888210853e+00,-2.937870104609004510e-02
-1.104542928258703371e+00,2.710821351595527950e+00,1.255221613776585254e+00
1.676694645578644005e+00,3.624287627537343237e+00,1.074139087739043985e+00
-6.456712489266791533e-01,4.521864759498775421e-01,8.430110136149627786e-01
1.004486092394051511e+00,5.435636439085045346e+00,2.355435802411520729e+00
-1.436655254550471550e-01,4.621444959894823734e-01,1.606141231972631894e-02
7.322713205955516669e-01,1.543544363563707167e+00,2.228164796450222251e+00
-4.967430377909076156e-01,2.382988403134530309e+00,1.767912288902006024e+00
-8.688682575831156718e-02,4.894756043425480208e+00,7.016126677985272675e-01
-9.105917857019130146e-02,9.036643944377077686e-02,5.194836078233406873e-01
-6.600524993785813477e-01,1.016016162075234153e+00,1.433037022929076532e+00
-5.673688769340663740e-02,4.372613600373473020e+00,1.821855830861410785e-01
4.298283777730546262e+00,1.504755798594763938e+00,2.875265638965668114e+00
-1.780374961143478041e+00,4.496947922832954525e+00,7.029488255895545157e-01
-1.102229954836726034e+00,2.355659523008697853e+00,4.578849288352044855e-01
1.843694746434844767e+00,5.501797873706933295e+00,1.534255523022764800e+00
3.466829960979616487e+00,4.504685946421365550e+00,3.770549738348506708e+00
-2.239850668644860487e-01,4.845535837259220990e+00,1.756884480615643063e-01
-2.670955894937127040e-01,1.379683382700234162e+00,-3.975035603866863138e-02
4.569746922117557730e+00,2.798998826988071897e+00,2.472388065372407073e+00
3.165964890656014941e+00,1.822833780755276578e+00,1.811247567635064115e+00
1.767156363156203280e+00,2.373571977830206237e+00,1.020457531175972488e+00
-1.875055356619129143e-01,4.955003504543310733e+00,1.866387472885929322e+00
-1.710680707767248121e+00,4.350430549123370128e+00,6.903128212612839043e-01
2.290563716875484435e+00,2.163561505346193403e+00,1.339242504103680620e+00
4.880087338103912487e+00,1.764510745337400710e+00,3.162059507457108065e+00
9.199314318770842602e-01,2.886564845187246320e+00,2.266891783699092056e+00
3.143799923384719808e+00,5.988236095952836457e+00,2.426147437639541771e+00
-7.372506989926456145e-01,1.889501738425870547e+00,1.499562009844437771e+00
-2.989793394621703126e-01,2.448791046464099619e+00,1.925869261115087036e-02
2.742554132894707841e+00,5.142160869188998618e+00,3.354872415338105984e+00
-4.983576523128150915e-01,2.523245868605084929e+00,1.746859413367354286e+00
2.049372540511877894e+00,4.743920269162602565e+00,3.130024169022000535e+00
4.217859915727646403e+00,1.472050002485722375e+00,2.568935110450501380e+00
3.922349638655049819e+00,5.821432139115428228e+00,2.235078316311943869e+00
3.295794267149090850e-01,4.443769680503749875e+00,3.776658483404570221e-01
-6.284169734115666595e-01,2.819256457485548317e+00,-1.985847928724258360e-01
-1.666342357204154412e-01,2.100292340057438700e+00,-4.531777166548428548e-02
1.937249832937231186e+00,3.395192575935770396e+00,2.771753038097799493e+00
6.618529034983176018e-01,4.055598614592136997e+00,2.281963055473777313e+00
2.336860551600878022e+00,3.803306880992608274e+00,1.401797672710174414e+00
8.999833837748488774e-01,5.250066748758345447e+00,7.783182568519881883e-01
4.778052907205157851e+00,1.378926058648738406e+00,3.012396293156772487e+00
2.542083040269353056e+00,3.664016775327271880e+00,1.480510662527219967e+00
4.495050706274346553e+00,3.988402425763261760e+00,2.593188924247769478e+00
1.266840760907831820e+00,1.340052824359006634e+00,2.337979713362810852e+00
1.949889839573706984e+00,6.699141786586834124e-01,1.225755348167743453e+00
3.208160762034427682e-01,4.578750588647646502e+00,4.582333504460919804e-01
2.911298452781304058e-01,2.849660340334844388e+00,3.132657025098965486e-01
1.094601155843981655e+00,4.811638941103855593e+00,7.462903876189449504e-01
1.177221657768893426e+00,1.228866021273189446e+00,2.363458066638775446e+00
4.497027868085609614e-01,4.497096128722171571e+00,5.040651888841043426e-01
6.956555993136324112e-01,2.743336502137435629e-01,1.838490830335907100e+00
-1.019651456779768761e+00,2.122053062522777367e+00,1.188493911412436654e+00
9.147747263459220513e-01,4.548210517280075749e+00,7.867494656107123507e-01
-6.547719593388110493e-01,3.291145409559928403e+00,1.606040215207839683e+00
2.305665247127703932e+00,1.717054859469378192e+00,1.138316083468631446e+00
2.234827200482247811e+00,7.433311128061783624e-01,1.851649744638519390e+00
2.679639989780896681e+00,2.150278811960006475e+00,1.449679528414617780e+00
3.041537710195965083e+00,5.940529164007323892e+00,2.335233099916724342e+00
3.078539001317034174e+00,1.145203273894619622e+00,3.333090194295734054e+00
3.282079355470887805e+00,5.703325130901069961e+00,1.911901415924675440e+00
-1.222233391475019415e+00,3.123798035472828527e+00,4.859193957596668056e-01
-6.973496567681966019e-01,4.680649633003929999e+00,1.135402045746445987e+00
2.483040123941414379e+00,5.780311518488231215e+00,3.111460656964089466e+00
2.913280232482836851e+00,1.287361317006600281e+00,1.630851277248267284e+00
9.569885387070979910e-01,4.354186366870697600e-01,5.049408655292833004e-01
3.456172791621902718e+00,3.799014180812202657e+00,3.616416751809891750e+00
-8.806925619441198227e-01,2.747417098636817379e+00,1.434094676399387189e-02
3.954365327803829544e+00,2.460624157910081156e+00,2.126845353816360973e+00
2.229162803681571603e+00,1.089331060649384009e+00,1.245575298936692610e+00
2.802634201360756361e+00,2.997341277107270496e+00,3.225478566548860559e+00
-1.607747656250064106e+00,4.595871250033935596e+00,9.400535153847883185e-01
-1.546750248916772152e+00,4.113898455938798548e+00,5.075221788446697690e-01
3.995656164459431725e+00,5.122502456244561131e+00,2.662461483600523149e+00
9.979223884395851396e-01,2.928215236793588527e+00,2.477159349934368038e+00
2.629194731328626800e-01,2.841647146799005430e+00,2.038198376477461160e+00
-6.884464463386534838e-01,4.809597995745758858e+00,1.479283424259271396e+00
4.857919544552613544e+00,2.491924798838315080e+00,2.804664862907359613e+00
2.252468831798225768e+00,2.646951381518821922e+00,1.319001920070637324e+00
3.968645703834376981e+00,3.935300045571681782e+00,3.814583078908051039e+00
-1.227942136027570186e+00,4.128787583685606499e+00,6.263780699533996743e-02
6.987994870214039311e-01,3.389731121511569079e+00,2.247754524125002984e+00
2.145948631732145451e+00,7.303709293313520590e-01,2.129698669980137016e+00
1.314809593353571282e+00,2.113564305077159311e+00,8.575591313449699715e-01
1.941320978242395467e+00,5.645212933944730338e+00,1.744024901022194873e+00
1.014353259170806681e-01,9.099242391823307574e-02,1.020303061721634208e+00
-7.404423164102328370e-01,2.416403570484141117e+00,1.541962464666431609e+00
1.438060408369135734e+00,4.678033528536822416e-01,2.130213648199911880e+00
3.730200617710285993e+00,1.184371496564162518e+00,3.538223847090800511e+00
-8.235151850563262599e-01,3.499913732600675065e+00,1.549581023822893533e+00
3.063137188378628473e+00,4.952584151359704201e+00,1.804889303150651880e+00
3.092140210683563817e-01,2.052203670889321874e+00,3.555070335930045067e-01
3.963754310006231574e+00,1.663081943901103532e+00,3.815187733452079843e+00
1.156736764834967568e+00,8.915572847192064776e-01,6.580698392745444325e-01
-1.371711811697281957e+00,4.627726098283936551e+00,-3.518236958085676439e-03
2.470556417380879388e+00,4.239573559006772463e+00,1.450738572674598936e+00
1.064257363954798974e+00,7.444932553401966135e-01,5.763507687349842534e-01
2.981244193607676340e+00,2.519293614187637864e+00,1.759663348310470221e+00
1.607661189839338645e-01,2.833697175425100578e+00,8.844041574394777283e-02
1.172879412237177732e+00,5.357672345298916561e+00,1.948901041723638095e+00
1.429381332072307220e+00,8.256957983855232053e-01,7.661612987442253386e-01
1.497855611694344502e-01,1.558583809680068599e-01,1.589444236598940741e+00
3.522666146713997914e+00,3.527109069708894040e+00,3.734471942052954407e+00
3.651017431225742182e+00,6.112306576260156277e+00,2.862298558180706998e+00
3.836933365660800260e-02,1.783525054507467456e+00,1.933828934555471113e+00
5.779344434112061446e-01,5.250015676335781478e+00,1.668366863026099045e+00
4.296564171103818275e+00,2.844867021414020591e+00,2.316568952942394510e+00
1.885062949796296072e+00,1.330924257662910781e+00,1.031456473990034706e+00
-6.348349632102899820e-01,4.359938275442225009e-01,1.037586396128318267e+00
-9.100529451142282955e-01,2.659524696098776619e+00,1.526283408332666625e+00
9.594705827488810845e-01,3.550562300211712596e+00,6.849811651277930569e-01
3.480207599994491918e+00,6.019319217240755471e+00,2.078408982012535766e+00
2.659096542476495184e+00,3.816288107412003860e+00,1.638880817210853769e+00
1.306688644003562549e+00,2.790382037034582652e+00,8.931514812083921617e-01
-7.104269501810687171e-01,4.702570752686222377e+00,1.572167715880657513e+00
1.715900839475182904e+00,2.446807387580301807e+00,1.047374373960173521e+00
-8.954712929816216471e-01,4.432252357297097767e+00,1.515320593308572938e+00
1.199964831106164809e+00,4.396287098347915201e-01,1.850521801682966538e+00
-1.508579518048859924e+00,3.553315477708196113e+00,7.432177466077983796e-01
4.828297449366233174e+00,2.465398947447732247e+00,2.706316275332179444e+00
-1.151581109337227904e+00,2.743936055939960372e+00,8.015456569011223387e-01
-1.338449916874854484e+00,3.533825747230507019e+00,1.272857502530884588e+00
3.628733758345052518e+00,4.690444283902277967e+00,2.126684337818628201e+00
8.306974686962095289e-01,1.754210425980288646e+00,5.460228307547009274e-01
4.037071294872188076e+00,3.338551547489370996e+00,2.186413622879229468e+00
3.658672804477365759e+00,5.191218834210357791e+00,2.125046476494177661e+00
4.573543639605639477e+00,3.170253866012169741e+00,2.530703638083686258e+00
1.862158697305822619e+00,3.171044495729261836e+00,1.194470794223436494e+00
-3.250462933282427525e-01,1.728026028504962230e+00,1.574666866540927579e+00
3.969486992050471841e+00,4.214228177272544507e+00,3.548301248614762038e+00
-3.351713150570320709e-01,4.942772013866115088e+00,1.092882508618858495e+00
1.980887781372873357e+00,7.189031275488719785e-01,1.442157490803351427e+00
-5.176738943141353522e-01,1.902663703062011935e-01,8.726706226775519104e-01
2.452142239120135958e+00,2.949203284182861484e+00,1.278870145652930113e+00
-8.600716915583689337e-01,1.366320744413100030e+00,8.217457932056927428e-01
2.213681771225771033e+00,5.794134715647971667e+00,3.208577245851985893e+00
-4.505499154430611664e-01,4.897010236142997464e+00,1.800895268299605334e+00
4.557876252187107902e+00,3.509318999717529586e+00,2.718592631951015637e+00
9.665594331183149923e-02,4.035449109020758485e+00,3.323260666068965086e-01
5.180339458887778248e-01,3.828801517301934965e+00,5.138679561075661928e-01
6.175025509657187106e-01,5.218825422254449009e+00,1.838536892298442194e+00
1.032442266445203316e+00,4.600462589014887804e+00,2.607541001161150174e+00
2.373857057338928822e+00,1.045168285181225398e+00,1.300844509252526038e+00
1.010177075136061919e+00,8.342539570906977175e-01,2.237361736924709632e+00
3.638630422056027824e-01,4.006403640098956109e-01,2.211132288402257728e-01
-1.402145330322742023e+00,2.622844717070207832e+00,1.168991123784012487e+00
2.484377430643300855e+00,1.140515194261012333e+00,1.262906904343112258e+00
1.115867655695924471e-01,9.705482480154805636e-01,1.249380938736680546e-01
-1.305969769029549754e+00,2.533367896712424017e+00,7.071786727227441505e-01
3.614062678256021233e+00,1.382143104418624313e+00,3.564486207810877882e+00
-1.629938765603573758e+00,4.058322909176322213e+00,1.235542141384744941e+00
3.736127561273562936e+00,1.147853770065878631e+00,2.429805478672443453e+00
1.429958523522050218e+00,4.796269977814156427e+00,2.672469457228761947e+00
8.693006134050359490e-01,4.981951306600732821e+00,2.404878009366595126e+00
4.556595368104446209e+00,2.226925638482572634e+00,3.419549688622713912e+00
2.369850837135953903e+00,3.244019807470963634e+00,3.150184773244366188e+00
-2.386419248058391507e-01,2.366944350072615055e+00,1.927583842611446885e+00
-6.122010195379381514e-01,3.272755001119282525e+00,-1.541318128010301935e-01
4.695783710067474637e+00,1.549415635970844640e+00,3.014787210477776647e+00
-4.272147105372336440e-01,3.362506700521061376e+00,-1.087284528359045849e-01
4.842433059836113163e-01,5.115407310108847305e+00,1.355391177324372309e+00
1.798561830792145821e+00,4.070861520765930663e+00,1.176262006327623233e+00
2.835245887944256804e+00,4.914970050767066390e+00,3.464898186541457203e+00
2.560295552360168259e+00,4.354387367842817547e+00,3.298565618303725966e+00
-3.009769985719177865e-01,4.200785193386145977e+00,1.140260410452044182e-01
1.565482538540778235e+00,1.151889386192542331e+00,9.546330843984486281e-01
-8.128186433089233942e-01,1.767630917153067749e+00,3.964515841165648924e-01
5.212655240692031233e-01,2.458548135808963364e-01,5.573319339213952395e-01
2.196134563569580589e+00,3.097693909124367373e+00,2.896255644291497511e+00
3.386643617341399182e+00,6.052457081423520791e+00,3.151805808023071087e+00
3.162071263276198696e+00,1.080107743586571578e+00,2.466059167935179097e+00
3.840219704853913285e+00,4.264143541561701944e+00,3.674800829207058861e+00
1.526697982547578158e+00,2.534933473177588326e+00,9.281374717028517685e-01
2.653736031404337670e+00,9.065209675512281295e-01,2.587922228398078950e+00
2.264642581001486299e+00,8.158828129107354998e-01,2.324618985406043947e+00
2.584824700650959262e+00,2.092772486578343916e+00,1.412153062646632096e+00
2.406578930675758343e+00,2.623009061183915858e+00,1.342362762454515579e+00
1.458068527823858984e+00,5.378143525745348263e+00,1.716862072665458872e+00
6.860413377322381878e-01,4.769141394893453345e+00,2.305903019648420926e+00
-7.467834540081494388e-02,4.329826394135984025e+00,1.400117570900740460e-01
4.322579078182737788e+00,3.949837908353297067e+00,2.780915056968675803e+00
4.226718776123107091e+00,3.892382003718612982e+00,3.166027170739973862e+00
-4.574176588192105930e-01,2.144836405609498620e+00,1.495863818332879847e+00
7.482229810658600488e-01,5.236179331539794646e+00,1.250296599778221163e+00
-3.464154732669190162e-01,1.941286952477187411e+00,1.713280520927067840e+00
4.752212111710115039e+00,1.794608427641919857e+00,3.240639917498232325e+00
3.020328861275916044e+00,1.150073073417684943e+00,1.648391771628390234e+00
2.577436142191920521e+00,3.376600994827424262e+00,3.261064550797203143e+00
-1.076150330851990855e+00,3.013833254674237683e+00,2.590450270637748020e-01
-1.742556061998915107e+00,4.030114030265973035e+00,1.109010813657344219e+00
4.482193297154049461e+00,3.671979211471704918e+00,2.472260063356540361e+00
2.755071453536169557e+00,3.967505262267467359e+00,3.355224895568889476e+00
4.447681441071542063e-01,2.976817546578238716e+00,4.496456220795900238e-01
2.384185138731004905e+00,2.455559110009349233e+00,3.074467772362412088e+00
1.552052487399546488e+00,5.188206533212619043e+00,2.670322269622662503e+00
3.814162523129232873e+00,2.362013861297172390e+00,1.974954784061485613e+00
2.578851075717222052e+00,5.843478269247968981e+00,2.680453021072111586e+00
