8.172675689292438150e+00,4.544168957689440624e+00,-6.279097790232158083e+00
7.528532600298620814e+00,4.102526622775267917e+00,-5.598126741534244388e+00
1.022018844676371074e+01,3.860842546886509297e+00,-4.830119048590935549e+00
5.310623859993889972e+00,1.485848454016103659e+00,-1.698550618796065947e+00
1.272069084617685419e+00,-1.135265998370403207e+00,-2.172897174164069689e+00
6.801715699053779929e+00,-1.246610676070601720e+00,-8.252793236547560696e+00
4.546180170570758072e+00,-4.895644350423787650e+00,-2.524653845517800477e+00
2.969954357794253319e+00,6.274517023216177325e-01,-5.631374429346353017e-01
3.657792736274119605e+00,1.067471204031954946e+00,-1.049885035747949447e+00
8.988727999822417658e+00,3.381420368388113218e+00,-8.732909577271799506e+00
5.744814924611429063e+00,2.216235326285536988e+00,-2.551247586722254823e+00
4.596075613955968642e+00,-3.210265607559499301e+00,-1.795340349355037501e+00
3.684898472585844686e+00,-1.305548497367224225e+00,1.715810623702559157e-01
9.741261439530259025e+00,1.218740111317023533e+00,-5.316581511265512816e+00
6.866661153549007857e+00,3.791940483869619793e+00,-5.211394074273163923e+00
8.504620980732937596e+00,2.659830568752546753e+00,-3.441331159182181132e+00
1.403398541778681619e+00,-3.573233244365625616e+00,-3.340690873587087939e+00
3.019549734964249055e+00,6.762815418880829821e-02,-3.611203773213917056e+00
2.622537178635792721e+00,-4.390071721820138606e+00,-4.740165889005271360e+00
1.399464155193177461e+00,-4.059602249850025046e+00,-3.557124269556926066e+00
6.874755734763602355e-01,-2.421444653649093226e+00,-1.911370320692618696e+00
9.258089313945658816e+00,-2.037668166345053766e+00,-6.437059430095938062e+00
1.030641144657991859e+01,-5.167146386224051868e-01,-6.901968154852306192e+00
2.936839143241772643e+00,-4.907160570666215804e+00,-3.775121585201169694e+00
6.992731684852466323e+00,3.556931232972248669e+00,-4.545919147665849813e+00
4.895416365950592485e+00,3.725292839947396545e-02,-5.540746079371738020e+00
4.662649076630219547e+00,-4.781106435498561957e+00,-3.577193482259340751e+00
7.581853561168602873e+00,1.202410469915502933e+00,-8.245764322709916883e+00
3.777092530908859214e+00,-2.260170822311183159e+00,-3.225780063211116100e-01
3.149654252604082050e+00,-2.553560528357334380e+00,-4.752886661680972402e+00
3.781440854166852272e+00,1.203437527203223611e+00,-3.888862745089165962e+00
3.491058523249171763e+00,1.913770808545947277e+00,-3.054147540131010974e+00
1.523303116686383296e+00,7.318863524624039663e-01,-9.025785189119805985e-01
1.701957217526811617e+00,-1.040113662730895339e+00,-2.384921056142398132e+00
9.797637018759100869e+00,4.118926423858455088e+00,-7.403609854115388522e+00
7.855598608329582788e+00,4.397909933423957973e+00,-5.924693039171167186e+00
2.463463791836583816e+00,3.892709160844362026e-01,-2.576781577566541470e-01
6.122740323609169089e+00,-2.802537693205118696e+00,-6.770393453101935854e+00
2.469809196673110385e+00,-5.756581203072488329e+00,-1.115442615048224395e+00
3.781664840114276949e+00,-4.228752792295434659e+00,-1.249963623137325897e+00
3.693319786372178726e+00,-4.189584924813936517e+00,-1.108442413821407069e+00
5.612346612315183059e+00,-3.156314978646400871e+00,-2.815111263850507584e+00
6.489473535604168397e+00,1.236319321475969790e+00,-1.840982014258585986e+00
4.007071519633852219e+00,-2.673427208886529183e+00,-5.821146890300886945e+00
7.549427673187714127e+00,4.170056352360462348e+00,-6.562917235907002045e+00
8.156571939636414470e+00,1.603777443112714973e+00,-3.561979053299826337e+00
1.373646340176364333e+00,-2.370799098069123367e+00,-7.399418610614028058e-02
4.651172008219419673e+00,-4.282590573730819195e+00,-2.168101777663069996e+00
3.102840424698966260e+00,-1.790415604098966398e-02,4.053903172600347160e-01
5.317714721461280547e+00,9.155140694824029923e-01,-5.593633048463143354e+00
7.337882101271324231e+00,-1.195032867006006194e+00,-4.024791016522256015e+00
4.968496428521731900e+00,-4.063765958675117140e+00,-4.791760257581548998e+00
5.474513064569102916e+00,3.069500405161761591e+00,-3.928987098343073470e+00
5.549894449164195720e+00,1.579138170151070275e+00,-1.602365812583611326e+00
3.931704753908833005e+00,-9.014493807571973827e-01,-4.763710912433397837e+00
9.703215775408466470e+00,-6.723001029782922355e-01,-6.351872730807766487e+00
7.985069728866349692e+00,4.216839409533358562e+00,-7.293625756518568259e+00
6.829705024888310660e+00,1.035129482414255842e+00,-7.395355115071200025e+00
7.816215064381585975e+00,-2.114275765994916068e+00,-4.836453550613700969e+00
1.696965953976865116e+00,-3.963991057248016592e+00,-3.800469305665863828e+00
6.178385483674955658e+00,-2.796759435895724177e+00,-6.814347584860728446e+00
1.020022733340273113e+01,-3.075713399815578897e-01,-6.766113928934480271e+00
1.463216078783297291e+00,-1.963389206046187718e+00,-2.544597397766044988e+00
5.476780471254667937e+00,1.522778007895102093e+00,-5.641558615133731358e+00
6.435841991675341767e+00,-4.158589136472457426e+00,-4.274354137413513222e+00
9.811075022011470637e+00,-7.144832445333276771e-01,-9.780420451698992323e+00
5.641789521237010163e+00,-4.083928451210927513e+00,-3.358601818042701304e+00
2.232538389625227548e+00,-2.435189732440816268e+00,-3.785422028170517983e+00
1.024797517521879442e+01,3.801539128990063521e-01,-6.459036642264350370e+00
9.481270473187359826e+00,1.996032985500530321e+00,-9.032740987094340923e+00
1.338502631004603982e+00,-5.218803374749221291e+00,-3.489436441461370997e+00
9.353348936309267003e+00,3.918430461895455519e+00,-5.245888070146621729e+00
3.753894472532370852e-01,-1.655386482898606015e+00,-1.334202754802285229e+00
4.547055745296106011e+00,-2.799278401670815875e+00,-1.375839647093068940e+00
7.411570191594710089e+00,-1.042129902975952094e+00,-3.996876861935830139e+00
8.036415787601770333e+00,2.715595932623538822e+00,-3.070643509873419497e+00
7.121885946597052097e+00,1.912054275775697310e+00,-2.300715606284458925e+00
1.430196159681221602e+00,-3.156064031924344704e+00,-8.611825771437358057e-01
6.239546713050346582e+00,1.756210397741532647e+00,-6.320734723008750500e+00
9.808979113639113123e+00,3.121550379559932864e+00,-8.001929443362136851e+00
6.352249294480628805e+00,-7.696803571439124747e-01,-2.573670270554996087e+00
2.485740742384840996e+00,-5.396558322966624743e+00,-2.828962644787663461e+00
3.320756834979457395e+00,-4.232539970008916796e+00,-6.288356957341586506e-01
5.399767338956836582e+00,-2.905640475538107115e-01,-6.389365533707695555e+00
6.468296794050085730e+00,3.819095807346378990e+00,-5.309481147994207895e+00
8.427615534856260027e+00,1.961927374278447100e+00,-3.654500899728647223e+00
3.217062649876732294e+00,-5.751699108334212163e+00,-2.233898657197807669e+00
6.651759891141804104e+00,-2.453003674865863903e+00,-3.550710705020039715e+00
9.163160431894350921e+00,-4.726361704811376380e-02,-1.034193902749878013e+01
1.056100232563981933e+01,-1.626775557857347287e+00,-7.871713066219712118e+00
2.689579268567032777e+00,-5.408982321539442806e-01,1.537560142196065627e+00
1.095851907091215161e+01,3.148740512114187151e+00,-5.958729841205732569e+00
3.006795986851101610e+00,-3.370380259245988164e+00,7.853604761700300196e-02
9.490512717924737274e+00,-9.381222920100765750e-01,-9.270970337461355015e+00
3.237767689890345579e+00,-2.362060253484871142e-01,1.119251531911712894e+00
3.363356770671612317e+00,-2.518474846075406059e+00,1.646751034500657795e-01
7.041543246094940756e+00,2.809542799665673218e+00,-6.852381764426382027e+00
9.301560444277026107e+00,3.732087011942106347e+00,-7.989523170335547597e+00
3.748342960440781191e+00,-2.995706357017559718e+00,-5.693273494221043229e+00
1.062701611745281305e+01,2.703885557704109655e+00,-7.295306906231510347e+00
4.512923117751538982e+00,2.393684429123169810e+00,-3.235504505898057381e+00
4.070889740823647074e+00,9.033233792365421566e-01,-4.285296872761922060e+00
8.179275225416644091e+00,4.453084117373632966e-01,-3.945701387714532604e+00
8.628136721630127681e+00,3.003620727243275113e+00,-3.567543888127048035e+00
1.150398614114145701e+01,3.156089999731934159e-01,-8.008341151661859669e+00
1.790203460156260418e+00,-5.608256312408426147e+00,-1.964959676839395097e+00
7.862548970958544992e+00,-1.939356784620913654e+00,-7.626434570186073181e+00
7.423976087953620961e+00,-2.738611994426153995e+00,-6.248273468372608441e+00
9.684428620551573275e+00,2.382448721758239518e+00,-8.599246934353027783e+00
1.416400521388782696e+00,-8.920590801503756051e-01,8.003990601626245205e-01
4.701611442380580819e+00,-3.322286519790679460e+00,-2.085186877133530459e+00
8.124938315236232000e+00,4.092219893330227620e+00,-5.307761679468709914e+00
9.809532313075647991e+00,3.895250792547871876e-01,-9.858378985674976391e+00
1.601390358078364606e+00,-2.915874402898366302e+00,-1.895532849648527973e-01
9.899886193106322452e+00,-5.221114655340155508e-01,-9.717123256556035926e+00
3.524475168422462446e+00,-1.884838475012935666e+00,-4.929448694599223302e+00
6.872820693564275274e+00,2.090985586372265725e+00,-7.018530895591555741e+00
5.408249988994946911e+00,2.758284644904869687e+00,-4.930372497940179066e+00
2.961379111769609107e+00,9.310901624417451394e-01,-8.487307330437453556e-01
1.080164447720200727e+01,3.063538507959363333e+00,-6.022663146209899843e+00
1.511179799460370621e+00,-1.229586726041636879e+00,8.279314773909893788e-01
3.771109210977268589e+00,2.256753333016099816e+00,-2.987129584945852123e+00
9.571256720138153540e+00,3.312726896690882050e+00,-8.070481095393660098e+00
8.828973915258213623e+00,2.543982797490465853e+00,-8.975007395771189778e+00
3.674654780588485714e+00,6.949179947816186420e-01,-3.891391620376540406e+00
2.957428474768342141e+00,-4.060795793997990621e+00,-5.131794953517411884e+00
6.530037604090273007e+00,-9.484612856788904312e-01,-7.857440767839089624e+00
5.858846989908631286e+00,-3.662111547953164958e+00,-5.159861760400000996e+00
2.869414273066800636e+00,7.321053745522698719e-02,6.318896221360450483e-01
8.568079055440454894e+00,-7.000923795657537640e-02,-4.834042426997967823e+00
5.249025322823536399e+00,-2.581264547674732235e+00,-7.234088791844748734e+00
4.150162546468258995e+00,-4.961335891913314811e+00,-1.986982742564968873e+00
2.259188944073431404e+00,-2.421641860650076694e-01,-2.765282589930281532e+00
3.866533534072581269e+00,1.091078217241071568e+00,-3.938330740504410787e+00
4.676764331982141698e+00,2.671924903093001902e+00,-3.720241079879338830e+00
4.683720603418028539e+00,1.302686024373497009e+00,-4.773702152313699543e+00
1.460416064629629807e+00,-1.442910934651858268e+00,6.580730424563868697e-01
4.840915275208221402e+00,-2.092156299276160869e+00,-6.366941603687123141e+00
1.052404278276613070e+01,-1.498513046601097853e+00,-8.260710580675974413e+00
8.883086936270382594e+00,-3.602060436133991406e-01,-1.023448061934288411e+01
5.412126400028087758e+00,-2.852624348953547440e+00,-7.028500279955755659e+00
7.772669791992206534e+00,2.921464333651100809e+00,-3.419916163751371307e+00
2.712938437740427755e+00,-4.432071722622352855e-02,5.615407390589197689e-01
7.739051203256331668e+00,2.134237591221598507e+00,-2.747788423404787128e+00
3.665427960481520753e+00,-2.888118728141441327e+00,-5.631821447619604903e+00
6.032446735036987917e+00,2.187940449225532102e+00,-2.618230551365167358e+00
5.685673342029739175e+00,1.823543985657672506e+00,-5.921524851267528256e+00
7.404147933642808432e+00,-1.683483118914560928e+00,-4.217698064009633541e+00
1.626771498319402154e+00,-2.606165562791791235e+00,-2.906792144000810207e+00
2.108408061009141132e+00,7.326506245701728259e-01,-1.933229219309414271e+00
3.908341272677651190e+00,-2.046529056477209174e+00,-5.456087531236424759e+00
7.602907440614118606e+00,1.619140579971315219e+00,-7.934798997558392131e+00
7.558446353656385952e+00,2.803947114987953571e-01,-3.520909816457760577e+00
5.173211064010385662e+00,2.853330796118891843e+00,-4.631045770379066617e+00
1.769915882345709290e+00,4.727110699587202536e-01,-1.960347933816811272e+00
9.002549530954016888e+00,5.017043251004835724e+00,-7.377019352881757364e+00
6.265049431215900633e+00,5.216147382529405796e-01,-1.705718117831597436e+00
1.344979394542358708e+00,-1.255153291113510150e+00,6.769411154616260529e-01
7.650459538878348731e+00,1.117402313364125988e+00,-8.117856485625361884e+00
8.902722448750402862e+00,4.308454737514875177e+00,-5.558497357478216827e+00
8.968337342182842065e+00,3.815517259228142333e+00,-8.264949482194337449e+00
8.104504675804356850e+00,-9.544851964267104805e-01,-9.457182450956509001e+00
2.916123419863219102e+00,-3.558619279532472479e+00,2.145847042019895790e-01
7.109725198394118095e+00,3.750625967167104502e+00,-5.224019189150739706e+00
7.550228087733382942e+00,2.964075963698630467e+00,-3.987810654713824565e+00
1.719090256491327295e+00,-8.894566262815359892e-01,1.131197119718543531e+00
9.181748219229891816e+00,4.547935240201504747e+00,-5.996624679642432731e+00
8.658605584942954181e+00,4.257044207701350835e+00,-8.052156485263848751e+00
1.020473733686209528e+01,6.233246811785705388e-01,-9.089375154030175707e+00
2.499404730865969704e+00,1.127157283586351477e+00,-1.389015807025702376e+00
1.016854574287724766e+01,4.673660244762487537e+00,-6.630693488022521009e+00
1.540860756740289883e+00,3.798303724294124217e-01,-1.762287229821026147e+00
3.220276545563745429e+00,-8.844432465271432342e-01,-4.089352190991908387e+00
6.286074569149146640e+00,1.716057912880225134e+00,-1.646824616648967732e+00
3.253066519741420137e+00,-1.570352372387036066e+00,7.101540200176247319e-01
6.086038815973493499e+00,-3.247083847713826965e-01,-7.046191821154158319e+00
8.301937300009482712e+00,-1.696569126778640080e-01,-9.712497001963603438e+00
1.016245346670590344e+01,2.550941667768869880e+00,-7.935672542944142371e+00
7.650927897683784673e-01,-2.493440788503234362e+00,-2.076101557644647766e+00
5.643368423135261658e+00,-2.608706333616771733e+00,-2.479043240995208564e+00
3.868059977401533622e+00,-3.240523812796006542e+00,-5.915853344057536489e+00
1.647936799601664726e+00,8.987776326837644270e-01,-1.220626042524641353e+00
6.107401964755791113e+00,-4.523578324648258042e-01,-7.116467617501449183e+00
8.788789848496511681e+00,3.895260187858868850e+00,-5.246071941603930533e+00
6.539231000975942898e+00,-8.772718971805144594e-01,-7.862778223190812099e+00
8.594826096608281674e+00,-1.471980937896072428e+00,-8.451562009598537983e+00
2.858817379221924693e+00,-1.665913910155015554e+00,-4.157432905090368891e+00
3.291620835309190696e+00,-5.829015868271169687e+00,-1.371226484322366490e+00
9.664692264761230334e+00,4.416305958022900491e+00,-5.665102974583112960e+00
9.201955090017266414e+00,1.799769267356730262e+00,-4.521538913725422937e+00
2.918804561767114780e+00,-3.201796546458758885e-01,-3.431645338598333428e+00
9.569900177785275019e+00,3.163639379029769660e+00,-8.266256342669517920e+00
1.852967335676818816e+00,-5.366330762637767648e+00,-3.045287642588078825e+00
2.092299188366717022e+00,-4.820926618389415275e+00,-8.927076853701173542e-01
9.410592534428385392e+00,2.636589424275675331e+00,-8.916023949392585024e+00
5.836150953722870405e+00,3.653759931376175940e-01,-1.544770785975422278e+00
9.767038183547121832e+00,1.408256693594104325e+00,-5.573496537452395039e+00
5.346698706543362434e+00,8.898311575050579791e-02,-9.959411504831517936e-01
3.584996463840711467e+00,-4.174875802275697545e+00,-4.949920270507250031e+00
4.639827845674385109e+00,-8.095413412438933198e-01,-7.903315814848972387e-01
1.046586276389333925e+01,3.908336001690489780e+00,-6.564705673017366294e+00
4.527265600782255817e+00,-5.156923113411624016e+00,-2.534093596612724930e+00
6.295979618983327697e+00,1.553093119657786181e+00,-6.397927522741341022e+00
2.765715830256537666e-01,-4.777053278936191361e-01,-1.954034371183796248e-01
1.291078575539253981e+00,-5.624144151235999978e+00,-2.710551393184593927e+00
6.534038169491718229e+00,2.877197858894540161e+00,-6.210768512152009535e+00
1.061025719849581606e+01,-1.035977110301753434e+00,-8.929898384587483307e+00
6.282520668834166599e+00,-1.186823426676619331e+00,-7.802515550632339369e+00
9.565173227572403292e+00,2.667224081128694468e+00,-4.642200854037970004e+00
9.323820074339524311e+00,2.870338481670724473e+00,-8.794049035970965988e+00
2.336561315100488034e+00,-5.663851170837432392e+00,-1.286773607375897299e+00
7.227898937931793277e+00,-2.869350460247254375e+00,-6.394152004230009290e+00
9.228042275633715263e+00,7.879289117806353993e-01,-1.008828833369718048e+01
8.458345639784260683e+00,-1.391112193222938886e+00,-8.502710618127290232e+00
7.439163214387651379e+00,6.094569072333271276e-01,-8.207589932746364170e+00
4.576092040434276420e+00,-2.543991238891084805e+00,-1.375991109376772492e+00
2.281858181423019438e+00,-2.396669188995000699e+00,-3.744435068957834289e+00
5.310014818822781812e+00,-3.745691847629123217e+00,-5.208375275641955682e+00
8.962225502344292494e+00,3.735685200679840445e+00,-4.689175835340736676e+00
1.058143908957342383e+01,-1.136785604822075246e+00,-9.000931432431784174e+00
4.202506306637186384e+00,1.041940559620437190e+00,-1.082630613726782709e+00
6.389817050673829435e+00,-3.058613110018397752e+00,-6.273168747392186440e+00
3.041516892367249980e+00,-2.914242385787209066e+00,-4.763013920475693830e+00
7.228151066290486426e+00,2.426933748147542147e+00,-2.738922177645360279e+00
5.132920970349537093e-01,-3.897022991680714615e-02,2.935688710287914782e-01
8.164285089045259625e+00,1.420081313761265562e+00,-8.702857996971443910e+00
2.876482282494984055e+00,-3.853410918006966224e+00,-5.113277950259925042e+00
1.051418074333855301e+01,-1.635008934577277806e+00,-7.741712544537317164e+00
5.000853322372453391e+00,-4.628578503512898124e+00,-3.574771428032650800e+00
9.893600981547816531e+00,-1.179710172260062251e+00,-8.703950780922141917e+00
6.391569363610510202e+00,-3.690577619468153436e+00,-5.257662422473444508e+00
3.145869325180768339e+00,-1.121468595076341446e+00,8.805669879650709353e-01
8.680925562417227681e+00,1.202446406308872229e+00,-9.582675949369743762e+00
1.015890728839531576e+01,2.107142133192842159e+00,-8.307755087190102472e+00
5.304140058250040646e+00,-3.427469036861714446e+00,-5.663649983853574987e+00
8.133783778095876604e-01,-1.647873167438297093e-01,-1.096691661722864808e+00
9.334830421124719280e+00,1.790407449417753094e+00,-9.324339253656322768e+00
8.595228980904877858e+00,5.287984856838689574e+00,-7.364699819910939027e+00
1.137609279462577661e+01,-1.139060619856334000e+00,-8.702756721231002857e+00
6.673591804529204197e+00,3.836969781200262553e+00,-5.011337595962196190e+00
3.979204176493036371e+00,1.429700065748971571e+00,-1.706267633049206589e+00
5.518305376099349679e+00,1.868169216290975987e+00,-1.940914102908777750e+00
1.009830490635117783e+01,1.665258892198801632e+00,-5.888705331134238996e+00
1.113673354324405196e+01,3.416756360538137915e+00,-6.222163286560545181e+00
8.203418696333384830e+00,5.990611007257340415e-01,-4.242727601899956902e+00
1.611413566431371125e+00,-1.424905170498402596e+00,8.522979892392532619e-01
2.452098429614655295e+00,-1.623678778302353409e+00,1.536632876087630217e+00
4.193348175158789992e+00,-4.796208248697277021e+00,-3.793281673258370734e+00
4.738992104101662051e+00,1.545647903786282695e+00,-4.688111559081516333e+00
2.894000226091744565e+00,8.506690235739801098e-01,-2.776007313286208422e+00
8.221669372021693789e+00,2.549551452814241781e+00,-3.220759531444520096e+00
9.122227583024335118e+00,2.138405261527685397e+00,-4.315424219661704974e+00
2.491420552381162778e+00,-1.079028320864084067e+00,-3.429483276834647931e+00
8.869027577698993525e+00,-1.290528549515915779e+00,-5.728608110825208932e+00
1.612875517366312517e+00,-3.594189725365190657e+00,-3.360915233234990307e+00
2.438233556030333649e+00,-5.048485235508962887e+00,-3.618275600619250021e+00
8.827252226850276218e-01,-9.809404696247360222e-01,-1.341993293505986173e+00
2.185336032570400988e+00,2.666352949553730256e-01,-5.443128263920558180e-02
5.564588514800744568e-01,-1.083816595517623771e-01,1.640739253356357785e-01
7.905023408100773530e+00,2.522865904848596921e-02,-4.074010309405913688e+00
3.037008646082401508e+00,-1.163944455206883388e+00,-4.093188489694273180e+00
1.113964572899903915e+00,-3.259464323344490655e+00,-1.148370906370382416e+00
1.079698724872759286e+01,4.396464065054164649e+00,-6.014453520708952894e+00
9.025801171480761553e+00,-1.966289668934734891e+00,-6.123446976196087022e+00
5.667941341817134493e+00,-3.525160826249182477e+00,-3.028797943997821651e+00
1.110958480889033773e+01,-8.552953374789078467e-01,-9.100250479532178360e+00
3.518409273245301172e+00,-4.666918365196886853e+00,-4.031670526579355318e+00
1.267125719748083856e+00,-3.683350731138144152e+00,-1.026900924359822831e+00
5.223930201141353535e+00,-3.536826546613840883e+00,-5.540922018638331892e+00
2.327641899178794826e+00,-9.884551143539841433e-01,1.941139220168078383e+00
4.349129660221354166e-01,-2.310838265913645273e+00,-1.125433308121990938e+00
8.136125975546313782e+00,-2.102557127193557918e+00,-7.366210557948808635e+00
1.795088929418422463e+00,-4.926442469453923279e-01,1.168472273290255936e+00
4.494714114187181586e+00,1.061318619865720070e+00,-4.845675056338399678e+00
8.093512648028646339e+00,4.165851982972145429e+00,-7.512798745814394330e+00
4.985522694947263744e+00,2.724966731477563187e+00,-3.790669129093091172e+00
5.807777870593529457e+00,-1.998628220273376943e+00,-7.755077635758397925e+00
9.070535546292767037e+00,-9.090443631028558569e-01,-5.798326405063363609e+00
5.020638881681637855e+00,-3.979754352882912016e+00,-5.011966062807842626e+00
8.166835717719024501e+00,-2.094449779286992719e+00,-7.548948630728769871e+00
7.961971630339144124e-01,3.035243452589831969e-01,-2.977591178625808577e-01
4.945667025699831854e+00,-3.537721156132778599e+00,-5.807399820956000269e+00
1.011487090250449583e+01,1.057448756093043452e+00,-9.111056662877194512e+00
4.494303499203551766e+00,1.141126977459155367e-01,1.375289236494787147e-02
7.740898698915987808e+00,-1.662678218632870797e+00,-8.288896791957510501e+00
8.148373319803551951e+00,2.970639137112741412e+00,-8.011668110594451164e+00
4.717388786464430162e+00,2.763963138903853811e-01,-5.189919448116750544e+00
8.457073503589901620e+00,1.349240284143123692e+00,-9.142204865667613589e+00
1.927951282218794971e+00,-1.901085190981084194e+00,9.232993342586449659e-01
9.005260064762557803e+00,4.989750833456191970e+00,-6.773004610825721805e+00
3.863876916647420945e+00,3.918710968618639434e-01,5.985858365984732948e-02
9.015174514561691055e+00,-1.087945539889695612e-01,-1.041945079041675548e+01
1.708453243377974662e+00,-4.464223231359610300e-01,-2.087599260893188369e+00
2.490920745322326990e+00,-5.896613661840126142e+00,-1.207170978785524040e+00
7.524950762202371024e+00,1.868404173204567753e+00,-7.890663683755021474e+00
4.182234773323259880e+00,-2.411999649568814075e+00,-5.875250892599686026e+00
8.332899688293991858e+00,4.764783276551030067e-01,-9.439083262496538396e+00
9.322429811623491602e+00,3.852619775395556889e+00,-8.056603507997968094e+00
2.254125142673141013e+00,-5.127425287226163420e+00,-9.396967069088260072e-01
3.572235496444395864e+00,1.332012501530438708e+00,-1.673981422793691554e+00
6.177628735441015317e-01,-1.152744931892954572e+00,-1.253562456024906124e+00
1.545797179069248461e-01,-2.911332397965133989e-01,-2.127004188623850267e-01
1.087095845132401983e+01,3.670448918695643936e+00,-6.312719477976046711e+00
6.479537143157261703e+00,1.968025837881167472e+00,-2.048632157893984562e+00
3.210030392543142597e+00,1.955164024389195010e+00,-2.548206790005357547e+00
5.484319759732444233e+00,-4.759718859770259769e+00,-3.475182727028315988e+00
2.404376549095394111e+00,-2.712208138296054116e+00,-3.974670571498430949e+00
6.659867104442884767e-01,-3.021093265062042121e+00,-2.291413890331365888e+00
7.418730504139980475e+00,1.779163654161617369e+00,-7.753124218082676045e+00
6.774319993622571978e+00,-1.621112564002279433e-01,-7.812088810418442719e+00
4.847071444625209224e+00,-5.157222195013526189e+00,-2.934439993915153089e+00
3.053540016876535645e+00,-8.482982643705153647e-01,-3.741890960858808679e+00
8.804086565819142507e+00,-6.720137497551497141e-01,-5.380147968506008738e+00
5.108998211953356794e+00,2.330658989336761966e+00,-4.773236646905927749e+00
7.598475375275461907e+00,2.329762289513824136e+00,-2.651233138240768561e+00
4.507306422886373731e+00,-2.398352878980946831e-02,-5.128050419219117195e+00
1.068585438231727913e+01,-4.549756397474321035e-01,-7.393949932174512796e+00
1.320918861904232910e+00,-3.780440254762010621e+00,-3.126409290423743936e+00
8.170044938857133232e+00,-2.704211377298899599e+00,-5.533779527005910914e+00
7.830392840557115264e+00,4.019984659588620168e+00,-5.361323338252136139e+00
1.099969371271618535e+01,3.262410051653962473e+00,-6.478701554315229316e+00
2.594806103859117474e+00,1.480511248383908074e-01,1.741325396949164328e-01
5.897121015997552895e+00,6.193925557186474862e-01,-6.435496722178745799e+00
9.160464168308571686e+00,-2.256235722154357415e+00,-7.154102617238984330e+00
1.086335568035819499e+01,4.402868493408953476e+00,-5.826068908931989476e+00
8.115315501067579262e+00,-1.555062300709489018e-02,-4.317908117456621397e+00
1.791255266282910430e+00,9.402803976478916193e-01,-1.185776517333778868e+00
5.898737497656361128e+00,2.314517750784424177e-01,-1.515946317598286797e+00
3.128493309827595770e+00,-5.376083697003034345e+00,-1.031878392642023412e+00
1.950759261972588865e+00,6.116414434689782659e-02,-1.996488401936951318e+00
9.858647622674737931e+00,4.604087952287978069e+00,-5.986368045158219964e+00
1.958144057466940202e+00,8.862863723859124576e-01,-1.469577486776421527e+00
7.248668541916431174e+00,1.632581145972664238e+00,-2.459848842405516045e+00
6.540828910880034819e+00,4.324258000773443800e-01,-7.378513750934172499e+00
7.991496670948655456e+00,3.992757365773698996e+00,-5.433560874892823911e+00
2.448516080494259839e+00,-3.654439139479417342e+00,-4.519977077842121993e+00
7.262055400202257260e+00,2.010148111353167177e+00,-2.358865489586816633e+00
1.012511978182428329e+01,1.498987750293373056e+00,-8.616399985714631171e+00
7.807267668156207208e+00,-2.680473668134899512e+00,-6.509944048508984338e+00
5.115632449314545305e+00,5.030756593008867128e-01,-5.647934983321460045e+00
5.736599127909425277e+00,-4.248923811036081410e+00,-3.473980228635143774e+00
1.012792243820512361e+01,1.637474080009027944e+00,-8.612136233385546902e+00
3.218932325967219565e+00,-1.048336033593530031e-01,-3.702587028152999338e+00
1.203304009803761065e+00,-8.526046390100500139e-02,-1.460847672037161704e+00
7.531847909855583723e+00,3.470915728199405748e-01,-8.328524471747073221e+00
6.910769543931356118e+00,-3.880557102199830855e+00,-4.692245016974355920e+00
7.840620021201590184e+00,2.810576221779901296e+00,-3.327149928315183303e+00
5.985172313591661464e+00,1.859721227318901215e+00,-6.106822826911922242e+00
4.100140164782873242e+00,-5.188238028879649022e+00,-3.231269979916854052e+00
2.997414022309585757e+00,-3.772447967292690940e+00,-7.191135677557858319e-02
8.446727525431132477e+00,3.896136136483512313e-01,-9.635749095162788436e+00
7.908635159225069877e+00,-2.480413650720963314e+00,-5.173155961602542874e+00
1.087101638518350910e+01,9.996392593700724749e-01,-8.194025247658215605e+00
6.632530457905446930e+00,-7.487572554294577021e-01,-7.869291151834154618e+00
9.287999199735143208e+00,1.019460081661239803e+00,-1.005628407564636895e+01
3.074603242816608351e+00,-5.658658160318179142e+00,-2.401920715391171246e+00
6.566823411667525257e+00,1.094629468040304587e+00,-1.932649293900506438e+00
6.159258888343341454e+00,1.317297285754126746e+00,-6.405538421605616151e+00
9.112558125592714831e+00,1.459608076338202887e+00,-9.951474575587193172e+00
4.260418605130906755e+00,4.362355709968505080e-01,-4.533094156337682534e+00
8.633357932978952931e+00,5.074754622863794085e-01,-4.789835911891434428e+00
9.914915871393958469e+00,2.780763321636975594e+00,-5.125684083338147623e+00
5.368067326814149887e+00,-3.868394861729635537e+00,-2.874963990460754015e+00
2.113407490742148731e+00,-3.439306705779647810e+00,-4.101811617765925178e+00
2.501261393888850382e+00,-7.677239115910642342e-01,-3.242978544211462033e+00
9.533519381862426201e+00,-1.376391168870199966e+00,-8.347879877199813947e+00
7.934198574308170215e+00,2.134295636274235797e+00,-3.069159403124266383e+00
9.455054949886930515e+00,2.287996090709248698e+00,-9.130905329403201875e+00
7.774991118683189484e+00,1.664431581025238305e-01,-3.780114868920300797e+00
3.865660216328524523e+00,-4.450657377960598460e+00,-4.184322616181237464e+00
6.333464149874920679e+00,-3.713833082737016511e+00,-4.000836322855708893e+00
8.728535899469443748e+00,1.839680505027734503e+00,-4.035775433208347529e+00
3.551753314406961959e+00,-2.716915338384606304e+00,-5.329799107757282606e+00
1.868733968190076977e+00,-5.216332104523707436e+00,-3.431010350330201408e+00
2.555012921504108636e+00,-6.088365331307072026e+00,-1.933249972990067178e+00
6.544452490675257694e-01,-4.839835388744553768e+00,-3.106699427306883976e+00
6.401979361088920406e+00,-1.552187957652199080e+00,-8.110943073166476225e+00
5.845845785017640850e+00,-1.835351179239953279e+00,-7.634253082723456707e+00
7.307277770762451219e+00,-1.387991744751708278e+00,-3.917444543373085786e+00
5.849395289932591169e+00,3.571169156175550974e+00,-5.038933403194095995e+00
5.121895803545641890e+00,3.989880786188990981e-03,-5.794786071499526514e+00
7.612075924735411725e+00,2.934806712424766317e+00,-3.580688957896475788e+00
4.174458950527494494e+00,-3.756509572273552422e+00,-5.637227281977115645e+00
4.002303799201873957e+00,-2.877961953217491597e+00,-7.548109487646230686e-01
9.705004378050706038e+00,-3.131169104840351158e-01,-6.357655468919587882e+00
8.047301188283677575e+00,-1.248402503909402217e+00,-4.732003754493895542e+00
9.911124391493450148e+00,1.558450687912692478e-01,-6.220558295015888639e+00
6.669066284171106140e+00,1.913184933038972524e+00,-6.636198969900974021e+00
7.095614294407015521e-01,-6.737390365862522268e-02,-8.250276718265557863e-01
5.075095152088667128e+00,-1.651639809581869622e+00,-1.538226125667199407e+00
1.232909217436581883e+00,-1.916951786287458825e-01,3.263806407147570310e-01
5.712573277448107945e+00,-3.799411812311964010e+00,-5.134758675351751123e+00
5.162465204313472888e+00,-4.644659407051698885e+00,-3.604259823916596162e+00
4.883163931627861665e+00,1.893864462590154840e+00,-2.200197899840228288e+00
6.171391008825337643e+00,-5.082865499663129505e-01,-7.316759861580624857e+00
2.567137847052395117e+00,-2.540380469933564811e+00,1.000421651578786264e+00
3.516097694135853935e+00,-5.488593323373376354e-01,7.427513719763501054e-01
8.659904839535011334e+00,3.572051047790164802e+00,-8.310888181505786676e+00
3.401934725460678433e+00,-4.133826700685354183e+00,-4.994183685701305997e+00
1.033568755865764910e+00,-2.649901339288879498e+00,-2.491416712298197389e+00
8.221584653752236349e+00,-2.421745594694524051e-01,-4.504451009924066440e+00
1.403879104291994473e+00,-4.258657016351666158e+00,-3.628838204097870168e+00
5.825132615646372081e+00,-2.597460596935722954e+00,-3.023244490102061643e+00
4.476304996854127083e+00,-1.702044232963689785e+00,-1.002865045919638431e+00
3.690398939880426887e+00,-4.892371029547784467e+00,-1.584230755394422374e+00
5.321723000992347075e+00,1.412779993602792938e+00,-1.266656817964497250e+00
4.658508747685346840e+00,-7.691128513027239988e-01,-5.943951899748279644e+00
5.695529162296303127e+00,-6.091843945122920045e-01,-6.627846294126314319e+00
2.789803294700751835e+00,-3.618720047892617142e+00,2.459793234319743171e-01
5.087168088218575690e+00,-3.162767852796557477e-01,-1.003372803177348560e+00
8.490575464286292728e+00,1.721731790567518461e+00,-3.917507534177944173e+00
4.328604427542074973e+00,8.306041753290792640e-01,-5.645371300984780571e-01
4.419909959913089992e+00,-2.745132709905220292e+00,-6.342550490861724732e+00
1.015046704168637781e+01,3.832082549995024845e+00,-7.106148900898778820e+00
6.464160553253559094e+00,1.009265754428589235e+00,-6.761108787446386437e+00
1.090622180779267936e+01,-6.247151276181327484e-01,-9.204995266573039459e+00
3.940164414256491998e+00,-5.965303736882230368e-01,-4.762085940607811985e+00
2.127665947059024898e+00,6.325380272902529910e-01,-6.717807878200006133e-01
7.539784867313548133e-01,-2.140850803981046546e+00,-1.653992881701217055e+00
2.157735566053616605e+00,-4.643506066136483312e+00,-4.172914803667766570e+00
5.440025912926078178e+00,-3.231812078674280553e+00,-2.783711221805071467e+00
7.010981211054563289e+00,-3.090734290051556421e+00,-4.413610978160964926e+00
3.369724445762708243e+00,-1.529748819697603679e+00,-4.698592061757315363e+00
4.382340687549422853e+00,-3.314596450432959251e+00,-6.548412825350273359e+00
8.749984124175075095e+00,1.122178056993745621e+00,-9.669917334770879336e+00
1.338137427264779689e+00,-1.304717207637881460e+00,6.235905688306349060e-01
5.720273339067318830e+00,-3.143576725328947052e+00,-2.940341345624639224e+00
8.880052135309375316e+00,3.471605511887069229e-01,-5.117681171744181690e+00
4.663403182331791186e+00,2.316773206768750537e+00,-2.878758080631668381e+00
6.685532982094484211e+00,3.494524866730341461e+00,-6.175990884532065017e+00
3.879233929986885432e+00,-5.055984404220869699e+00,-1.850286429127524723e+00
2.575294309998391373e+00,-5.135186786985634910e+00,-3.355171256006909353e+00
1.013997364296433368e+01,2.048699141240447386e+00,-8.442760776577920012e+00
4.684212560564061434e+00,-3.464593310646351676e-01,-5.571253106494250318e+00
3.730831563651714422e+00,2.261114705346409792e+00,-3.192115792843996935e+00
4.154730222888051827e+00,-8.834471369121184026e-01,-1.884014532451405988e-01
5.605796464685612435e+00,-3.988054507455519371e+00,-3.247819376265351998e+00
7.678085280981354899e+00,-1.712386289107701298e-01,-3.833234998856041020e+00
1.868047284438306255e+00,-4.738412342459931814e+00,-1.416142790691822917e+00
1.889801844112410922e+00,-3.764595401222440074e+00,-3.962697199323130359e+00
4.144495347707186639e+00,-2.445021881698174582e+00,-9.721541347780221498e-01
9.537126853072601662e-01,-6.852837451070491470e-01,-1.602702101632820897e+00
8.116796880153664517e+00,-2.942692822276613551e-01,-9.506342034787168771e+00
6.209931420804019275e+00,3.032568267729252476e+00,-3.992995139076755073e+00
2.203701125423150220e+00,-2.974261681022593251e+00,6.057757975392638050e-01
1.623573887534214721e+00,5.287561958280528884e-01,-1.708338263602461105e+00
8.666866220095441165e+00,4.210417385682002633e-01,-4.841292565331640319e+00
7.272692323405791193e+00,-1.470275582194046360e-01,-3.304121553308543735e+00
6.503449705116072899e+00,3.995001085239253236e+00,-5.409768190883808003e+00
4.130937423417377907e+00,-5.044828702589132519e+00,-3.277524420254392279e+00
1.052552254362634265e+01,2.466057338924626308e+00,-6.015132399035191035e+00
1.036731260085224804e+01,4.112655493372077586e+00,-5.208190023822138137e+00
2.328626020856388923e+00,3.936744235064659758e-01,-2.536373004486440208e-01
5.670656712364109175e+00,2.568928621173672600e+00,-5.442809828936342242e+00
1.013230776657451848e+01,3.386103516929190427e+00,-5.139632440068767849e+00
7.374527047331874918e+00,-1.743308399911112527e+00,-8.343008496025367648e+00
8.673280832134484086e+00,4.897496814891058925e+00,-6.621625473359216585e+00
8.646433628347041989e+00,-4.568088312962494402e-01,-9.925726256931410418e+00
1.491791112553565446e+00,-4.583299745903048006e+00,-3.811086131359489482e+00
4.319598616621288301e+00,-2.523468313359611415e+00,-1.250592367342094002e+00
9.397498535964491140e+00,-1.775884070838466888e+00,-7.598363161586121350e+00
1.142849632802948001e+01,2.692035362916034291e-01,-8.216592560740908269e+00
5.010755948103959856e-01,-1.845275809252436394e+00,-1.484832927833036553e+00
7.311949034729180674e+00,3.920150201533708856e+00,-6.636785018746830467e+00
4.264120726755370683e+00,1.085630097281403028e+00,-4.155883185674721148e+00
8.046056628639640662e-01,-3.373851213445333119e+00,-2.277914825010196598e+00
9.149758181795682788e+00,2.194892630751071660e+00,-9.399246037483946381e+00
6.907160864583171467e+00,2.898855578737645544e+00,-3.451172017261757929e+00
8.958837018649518313e+00,3.767679912875652626e+00,-8.392359732982903608e+00
9.998560568647862468e+00,-1.789576865593043076e+00,-7.822969765061748681e+00
9.143705612542055050e+00,-8.800076314587957915e-01,-9.538081708247650781e+00
4.268138494971040586e+00,-9.353280426509806844e-01,-2.398259797073500066e-01
4.202726777042289363e+00,3.393861403160078338e-02,-4.689952886383699671e+00
6.667775609694691852e+00,5.164486547732248800e-01,-2.449533295341935535e+00
4.017257508907503549e+00,-4.070194996456913294e+00,-1.470321023529944426e+00
8.502653685736257572e+00,-1.745422077895931512e+00,-5.465439855348002141e+00
8.867031300321982501e-01,1.374414716266625092e-01,-9.662344597527611212e-01
2.968575843825089766e+00,-4.855098540400921259e+00,-6.125230137944166486e-01
2.512316285572140373e+00,-5.259532353099724000e-01,1.370695148790227469e+00
8.509241679289196725e+00,-1.230472524079355479e+00,-5.344064787275200068e+00
5.431227759100087482e+00,3.056535652437673889e+00,-4.775555884260509032e+00
4.969519402504598560e+00,-1.228495807367905091e+00,-6.222488658285459273e+00
2.250722531357585598e+00,6.806367227824354771e-01,-2.350975735043888015e+00
8.543229976310130480e-01,-4.453616311651545367e-02,-1.167107657458387182e+00
4.519604246572889394e+00,-3.373068404905887885e+00,-6.004460386569328456e+00
9.810662498204301585e+00,2.869993785764703098e+00,-4.812937356370448505e+00
1.070052998911854125e+01,-5.728003763853931757e-02,-9.169008756618900691e+00
8.738040927285519288e+00,2.351213494505284274e+00,-8.900607844034492899e+00
4.156965649628950210e+00,2.585168571497697521e+00,-3.569284362511422337e+00
1.121974471201860801e+01,6.023145206370510429e-01,-7.714986591381784109e+00
4.370143846955507172e+00,2.226349520609901322e+00,-3.950293884527945387e+00
1.094619078773077625e+00,-3.831208271148434985e+00,-3.113346172147720914e+00
1.506157119910715325e+00,-1.741740537285508539e-01,-1.930779539128130828e+00
5.223264930636541514e+00,-3.592460857083378922e+00,-5.662272496812006395e+00
1.785031730507466774e+00,-3.054391728203655010e+00,-3.570285572632399873e+00
7.541533181830463839e+00,-2.710967999801341843e+00,-6.721301781149487731e+00
1.967723398535010215e+00,-5.229680898199229766e+00,-1.512181758330734649e+00
8.905258845676309321e+00,4.492362987890625270e+00,-6.143696659804846583e+00
1.800962525568538197e+00,2.035764519101673498e-01,3.783797668519074675e-02
8.389407143039559145e+00,1.067907726885544362e+00,-9.299519587831833078e+00
