1.628207925817628299e+00,-4.155203163319556303e+00,-3.188317351860097126e-01
7.202381127847260478e-01,-1.972304446099734099e+00,-2.275150818385469176e+00
-9.567658787427743006e-01,-7.230563652805025443e-01,-5.193816230990681015e-01
-2.355154345662429372e-01,-9.688716194780057078e-01,4.008560061249462625e-01
9.840039414698159570e-02,-3.838332561082329897e-01,-7.850593235252196767e-01
1.837969490913008430e+00,-5.672914443218072478e+00,-1.433347691024448034e+00
1.658956954042082543e+00,-5.775544010001376627e+00,-1.333117236863371247e+00
9.596180088343337911e-01,-7.730544716945749073e+00,1.938767877203321666e+00
-4.355098734904954139e-01,-4.528894163470316592e+00,-6.601782673262068801e-01
2.739959519315207093e+00,-8.010593798027008106e+00,1.490436652734213219e+00
2.043785664689791837e+00,-8.907571918751091999e+00,4.107615764900123256e-01
8.749470398255686510e-01,-2.208562660054358417e+00,-1.725609042955718930e+00
2.595879642484482108e+00,-7.450528781845705772e+00,-3.152700848476672757e-01
-1.229272422337594817e+00,-2.280344985786262324e+00,-3.743290658612512534e-01
-7.847072728870455594e-01,-3.778342320903031126e+00,-1.915421395499242507e+00
7.718822329390333525e-01,-3.479591253747966739e+00,1.907015040711046661e+00
-3.502691588231328090e-01,-4.693696745756790634e+00,2.213648775291375603e+00
-6.423858138825246922e-01,-3.794223643096632514e+00,1.272621905762388650e+00
1.052828153830140057e+00,-8.139801500937073442e+00,6.346776739079149632e-01
1.405320777149788425e+00,-7.732905501927320735e+00,-3.244772722634104434e-01
-6.670243590670950073e-01,-3.714457917074207582e+00,1.734512377059398203e+00
1.059691565289146098e+00,-7.954237856685080210e+00,6.966796784372744078e-01
8.450934891851745456e-02,-5.714516481467640796e-01,3.291772457943824559e-01
4.482785719972839367e-01,-5.936447287780318049e+00,3.188359365152153124e+00
1.515476330444855524e+00,-3.952280044171045503e+00,-7.730922830695152737e-01
4.527778335538326093e-01,-6.533979482668851979e+00,1.122836720103815633e+00
9.898226469126140126e-01,-2.782129519338319756e+00,1.523591460591293245e+00
-6.530268895313479094e-02,-2.160669729140158868e+00,-3.452259286108187109e+00
1.354484883803968254e+00,-6.195155655784698290e+00,3.498612120874942999e+00
3.552242511627691779e-01,-6.167143436141527602e+00,3.135872676336157294e+00
6.952288544518550051e-01,-4.370883189994827944e+00,2.463863193464085555e+00
1.418813994245006649e+00,-8.892385591619685670e+00,8.708543809825615156e-01
9.982923384762815155e-01,-3.569369443322862434e+00,-2.526424323476742728e+00
-8.568097067243665155e-01,-3.301737763536058967e+00,4.463820235844744300e-01
1.374606693586099437e+00,-8.828010270157063744e+00,9.063042086052887081e-01
4.292135722262608866e-01,-6.789935353081475000e+00,-7.294213200900052652e-01
8.419609013154037980e-01,-7.339093268937546988e+00,2.515749224850047039e+00
1.200618106640352289e+00,-6.405502929946968571e+00,-1.132149921018332561e+00
2.306337727755291667e+00,-7.762460405913649275e+00,2.243747537771646705e+00
5.941394084716927759e-01,-6.721710613271284274e+00,1.761812541806411225e+00
8.617203383969028740e-01,-2.075840932263534278e+00,6.871996503978260451e-01
6.077355468538799821e-01,-3.044639896909700827e+00,1.709431852489465165e+00
-8.928505923112592946e-01,-3.309308496815341005e+00,-1.446224849234638565e-01
2.368411312195391805e+00,-5.950652096642376598e+00,-8.466437619346720567e-01
1.409138745610981069e-01,-2.989469073063507398e+00,-3.086177938236407403e+00
3.263540941988340549e+00,-8.180136188654472562e+00,7.860511243853124386e-01
1.026358377138579359e+00,-2.624075768327677416e+00,-1.282748846339243798e+00
1.752880720174730067e+00,-6.650748334667829553e+00,-8.221704558235261029e-01
1.550596477145954610e+00,-3.978615979517335255e+00,8.376721707933487693e-01
2.961374473956437825e+00,-7.431904526258189314e+00,1.948806591667407995e-01
9.562284360342366840e-01,-7.579623297726515219e+00,1.116938854897214339e+00
1.316706965147847130e+00,-3.291173979002643080e+00,-9.305654999754985057e-02
-3.044404929225840717e-01,-2.082580375158207708e+00,-3.172971633794973378e+00
1.567113885083243785e+00,-7.237127557068634864e+00,3.690934770138100340e+00
1.465187475266667594e+00,-4.394993690811674014e+00,-2.075441317867880997e+00
2.001499527946773771e+00,-8.014165765118706375e+00,2.004997249467102005e+00
1.315570376195406510e+00,-3.141555821840005702e+00,1.227818571241873880e+00
1.049569973569749681e+00,-2.714404899303886953e+00,7.786140340183146380e-01
1.237074466004642881e+00,-8.730302321254860942e+00,3.406710703881582480e-01
3.737756857109771347e-01,-3.878233869977012471e+00,-2.490018691987538446e+00
-7.022779870688846682e-01,-3.764790075164778038e+00,9.099058866237409449e-01
-3.868628398348952224e-01,-4.564916670223237993e+00,-1.895231158755668499e+00
6.337525972384536743e-01,-7.167485601342586499e+00,-7.794868952413362972e-01
1.728830583139040478e-01,-6.145268992681548248e+00,-1.111595210646642712e-01
-3.906465054580965379e-01,-3.058682454308323528e+00,1.524331812615819626e+00
2.840052006799574702e+00,-8.013427066122075004e+00,1.399884782940713057e+00
7.572024086721976799e-01,-7.133421227007467280e+00,3.462855893727289747e+00
-7.082432961340741351e-02,-5.423646235898369028e+00,2.310596090535514679e-01
-3.621648631364370041e-02,-5.590233359577988281e+00,-8.004371789855709851e-01
1.655776523786073096e+00,-4.737269585910546255e+00,2.813101196033851004e+00
-1.747071321752812878e+00,-8.908825495860581700e-01,1.515388338482220598e-01
1.169503888584628948e+00,-2.930634711541423520e+00,1.802733913640184538e+00
1.980056117859460008e-01,-5.220411749430657888e-01,-7.610527542727293371e-01
-1.500786179233629003e+00,-1.966782173164649317e+00,-1.692853845328427420e+00
-7.971016592329770167e-02,-5.134163333081383840e+00,1.420812613204910813e+00
-5.713850157057847046e-01,-3.982005265408631534e+00,-2.175345422924226391e-01
-1.161397792839734544e+00,-2.617674422444334681e+00,7.972980106236329245e-01
8.609420791003655760e-01,-5.284994332963965924e+00,2.847502044920680930e+00
1.411831550218198839e+00,-6.458600185155238371e+00,-1.024236695750074588e+00
1.042066443744758431e+00,-2.798614460000745652e+00,-1.002995914227936769e+00
4.400581318895380734e-01,-5.056951506147882469e+00,2.664599037922221747e+00
-9.450211527218707053e-01,-2.962113055349684831e+00,1.047076945083007526e+00
1.286078832035753683e+00,-6.079559650955481231e+00,-1.258706239920938996e+00
-1.256515453454183584e+00,-2.581188497065443954e+00,-3.489641843077743388e+00
-6.348002109790723546e-01,-3.118799677476950638e+00,1.390473402789782043e+00
-6.175735353724209897e-01,-3.476781098759611055e+00,-2.962823468591464504e+00
2.501200823848496735e-01,-6.201755943697159879e+00,-1.375590036940466998e+00
1.259347124358237036e+00,-3.247191108994948561e+00,-4.365155305896818438e-01
1.031936132090556457e+00,-2.465845228241333675e+00,6.400866648292953265e-01
2.269376868210243980e+00,-5.732623027959964368e+00,8.283761760261423301e-01
2.571719739561314499e-01,-6.321336618662459550e+00,-8.137680296961117277e-01
2.476175453678001848e+00,-7.869756160744192819e+00,2.045426278158813727e+00
-5.977111184841231717e-01,-3.899837848784606820e+00,-2.988545126115433326e-01
6.234726373961188006e-01,-6.656467338228864605e+00,2.919661928034608334e+00
1.722749491783580389e+00,-7.114989846743468682e+00,3.662581215559500780e+00
-5.572524744835711807e-01,-3.904884934331580570e+00,2.044910910095876222e+00
2.867455141654521533e+00,-6.927736463378726839e+00,2.896673492877990697e+00
2.799718739281664703e-01,-5.988171552685385812e+00,1.768992720705803823e+00
2.330279614333419236e-01,-6.510198980901881205e-01,-3.367812974063627007e-01
1.807973480024506197e-01,-4.233453102929814471e-01,1.941366460463684884e-01
-2.314055344176320639e-01,-4.932485363541323053e+00,-1.651912928372530232e+00
-4.713497148349380939e-01,-4.090011735278142879e+00,1.300295449598862341e+00
8.510854940477717845e-01,-1.990812457979971528e+00,-7.399641641278099646e-01
3.549385803657421068e-01,-8.115703348316823940e-01,3.686308177397918939e-01
1.984495877747398218e+00,-4.741434287095549038e+00,2.265626530145935735e+00
7.315546136969435231e-01,-7.069631792442412355e+00,1.724800383556946759e+00
-1.631871203163109962e-01,-4.801270524830569819e+00,-2.192289661165106818e+00
1.174194414454260871e+00,-6.140822315568095213e+00,-1.259695798879062245e+00
2.418508404295111325e-01,-9.616872602600934350e-01,-1.769435334747561539e+00
1.341803721224596790e+00,-3.545279706551876853e+00,-1.327076445697616736e+00
5.428102727762851298e-01,-5.687712908842423865e+00,-1.537207292221090427e+00
-1.747749559861798418e-01,-2.683200559551455200e+00,1.321553410701408859e+00
7.579931431616560022e-01,-3.249750882263776841e+00,1.806045676974700864e+00
1.082853669171793376e+00,-2.595838595777005153e+00,1.237622405191088903e-01
1.120770327937357758e+00,-2.815441546707365905e+00,3.358497085007191574e-01
6.505210768613478578e-01,-7.039993128214110385e+00,4.687740340860080401e-01
2.145783129910267539e-01,-5.923594392490812766e+00,-6.621463570024969103e-01
3.344297261474621585e+00,-8.246157110654023015e+00,6.584989747968847951e-01
7.351611687268021500e-01,-7.257859945581676797e+00,1.692426926424587474e+00
-7.574101092583980233e-01,-3.816746412610569461e+00,-1.686089001174548185e+00
1.921302090064815060e-01,-1.972230455062136789e+00,-3.412471110181081180e+00
2.545677117155651370e-01,-5.847447874440759641e+00,6.614800674785187296e-01
1.530270600950099480e+00,-5.551403887089817246e+00,-1.437850222508545661e+00
-1.032102666167107774e+00,-2.921136190263232457e+00,-7.571668794413337622e-01
-1.201080624222032045e-01,-5.289001766201782750e+00,-4.950151008325611723e-01
1.846040633290024990e+00,-4.690653682131106450e+00,-7.401433583633629798e-01
9.670027764715312113e-01,-3.929348486333678281e+00,2.115915225364196406e+00
2.851384427176594016e+00,-7.156235690707460684e+00,6.308568369339321302e-01
-9.601127497143229217e-01,-2.875755588764819404e+00,-3.317210698183303830e+00
2.740691831829626945e+00,-6.796685171638866763e+00,1.490140475012674770e+00
2.712858763296249975e+00,-6.506685399001293391e+00,3.166719761718757020e+00
-7.861827026337496749e-01,-3.377118502452860493e+00,-7.859605950061835378e-01
-1.580408276302581516e+00,-9.238838066571603003e-01,2.337691228385257169e-01
2.057041090744815559e+00,-6.732987399741836576e+00,3.889821490849592944e+00
2.681755743635935385e+00,-8.533011237940948845e+00,6.941991199803754231e-01
-1.416505349239529865e+00,-9.569299143015489451e-01,-6.443137877608355879e-01
1.113765645855049113e+00,-2.969983374312926028e+00,-1.040913129452437857e+00
-4.469753592060649039e-01,-6.504156111651124839e-01,2.997105215408816803e-01
6.139002589966723739e-02,-5.482224177020974309e+00,2.565017999140186689e+00
2.666894697836746264e+00,-6.560736252763371468e+00,1.243665375177680082e-01
1.415861460969034757e+00,-3.531656790820175029e+00,-1.827652985144825326e+00
1.608672548163246896e+00,-6.785257601653971626e+00,-8.041410515019195016e-01
1.433880891403191693e-01,-5.816463686112491871e+00,-6.858875895146591128e-01
2.391461411991512076e+00,-7.161153468561785473e+00,-3.757698150147807392e-01
2.281040661703425121e-01,-5.066515702733642712e+00,2.735984711217150700e+00
6.492070877314641830e-01,-1.553134751901960930e+00,-4.253963734981878186e-01
1.992188900855942579e+00,-7.065429877751850718e+00,3.716623075490638417e+00
7.923840391906578073e-01,-7.339845127547008907e+00,2.256277593314115482e+00
-1.106301233347667390e+00,-1.509160572136267087e+00,-1.709405428492251744e+00
1.672507988685467684e+00,-6.555004282454287790e+00,-9.367188778584422115e-01
-1.109892741416221407e+00,-2.881015651633252350e+00,-2.632361526034207699e+00
-2.420017261030835698e-01,-4.936470717232713135e+00,-1.556496254073621355e+00
-1.499183104682566103e+00,-1.874349821907697056e+00,-2.133305194053428444e+00
2.265372224013598446e-01,-5.691127160136424834e+00,2.959695979411044675e+00
-8.806417936332976426e-01,-5.389838944798175380e-01,-3.048400113087462171e-01
9.360459778442234979e-01,-7.561436114456946633e+00,3.115053270492246007e+00
2.148012625664614372e+00,-5.154506650505080501e+00,2.170588959144176489e+00
1.372734976059058143e+00,-3.394070762383961437e+00,9.414048484583544818e-01
2.075023056257042420e+00,-5.841739592300666750e+00,3.445604889389014325e+00
-3.360066765735372774e-01,-4.343838401449278130e+00,-2.418517442056314248e+00
2.490053293932573020e+00,-8.183854682283019599e+00,1.472218783523844055e+00
-1.673704979565038276e+00,-1.227112820269459004e+00,-1.095125082407348710e-01
-1.770110515912398930e-01,-3.060670838102684144e+00,1.522743021855093248e+00
2.980313275399893769e+00,-7.497613014673079057e+00,3.648921247055460504e-01
1.904281432962050324e+00,-4.737071672736330008e+00,6.618988009410841089e-01
2.575639541251346643e+00,-6.331754532649954470e+00,6.470578186396445108e-01
1.541696666771019131e-01,-9.417885537393870798e-01,-1.891937413415730740e+00
-2.307016693892622317e-01,-4.785816219565850460e+00,4.979576756422173234e-01
-1.054050719055870333e+00,-2.312536982514544537e+00,-2.999388829587737781e+00
1.538512730749379109e+00,-5.722825811404637086e+00,-1.385020424049694165e+00
-1.333185638083591584e+00,-1.315807415209949038e+00,3.959015387670175579e-01
1.034604941583818993e+00,-2.856811678174920655e+00,-2.402032234073205874e+00
-1.370739326300014049e+00,-2.054202330157443690e+00,-8.154927677398965402e-01
2.456500794738132765e+00,-8.620453142309962402e+00,6.374498591355177712e-01
-1.409901043171523094e-01,-5.104347782108146880e+00,-2.005250365486816566e+00
-2.237250704646943575e-02,-5.446907974491127291e+00,3.216883273620965711e-01
2.797696588279233176e-01,-6.148603337966791926e+00,8.082559511784767059e-01
7.975863980993277425e-01,-7.060538518223893334e+00,3.530602808486325461e+00
3.058219178324940168e-01,-4.452832448166271995e+00,-2.312455629772769861e+00
2.377716121913592939e+00,-8.705445738336825556e+00,2.428161983317527195e-01
2.569070971186410812e+00,-8.260425372587294035e+00,8.586073725398107870e-02
8.876810074818372032e-01,-2.439111009226931692e+00,-1.316465590630829130e+00
9.531453256476888347e-01,-2.255823925644773631e+00,2.911819349581965533e-01
-1.455684969123358430e+00,-9.976000390538225515e-01,2.401041541475721075e-01
3.942704004112563831e-01,-6.482262862988852348e+00,8.478281928585925664e-01
9.884181054033043257e-01,-2.571447077707366802e+00,-1.875325578698250339e+00
-4.777088451449711948e-01,-4.341779415782679230e+00,2.068335663774015121e+00
1.240115784510065433e+00,-6.120181114977145675e+00,-1.256849541949704330e+00
-3.429670565925984627e-01,-3.577502454648362029e+00,1.765404487671478950e+00
-8.975559886654876918e-01,-3.525897316211381138e+00,-1.948289559379241753e+00
7.122884902487791603e-01,-7.417140867835589013e+00,-4.581253199621176386e-01
-2.200749350389469838e-01,-5.057582114615521540e+00,-7.260722120682532033e-02
1.931972248878316978e-01,-5.823152824529826077e+00,1.018716453186307769e+00
1.994556516850391814e+00,-5.070997706087682744e+00,-3.491160169494270660e-01
2.303993352575591125e+00,-5.891419174552248172e+00,-2.693451227885473309e-01
2.688653909043857038e+00,-6.761751915186974493e+00,4.944019817562907981e-01
5.539705074403720175e-01,-3.557581798645641058e+00,-2.680475448347596767e+00
2.109252091613188718e+00,-6.366941639118019580e+00,3.656970698792155527e+00
6.659895843245577929e-01,-1.993118677348162837e+00,-2.698463451007501401e+00
8.375195343160717343e-01,-2.701463206883640833e+00,-3.076189984822548240e+00
2.667358721287188761e+00,-6.595383372000994449e+00,3.333824870866048951e+00
1.348486072184123252e-01,-5.961218376148378795e+00,-9.560816728851861956e-01
-2.737962049983012625e-01,-4.793651148078729385e+00,8.186169712709320256e-01
-5.979448294794629248e-01,-3.856630686623164994e+00,1.196473053405160636e+00
-1.329772446450574908e+00,-2.182931797252004369e+00,7.465115289888456240e-02
-6.612885749556012271e-01,-1.641799497375386219e+00,-2.195267321570841368e+00
2.423083573902311549e+00,-5.960817114850707199e+00,5.776275420042366049e-01
2.247665028536844634e-01,-5.398264764762277235e-01,-4.182189641790552970e-01
2.686064390623851827e-01,-6.130559495268567360e+00,-2.519125449523104132e-01
-1.185037747742420988e+00,-1.344901008051177183e+00,-1.302750923765266355e+00
-4.234425273027618286e-01,-1.736820364231265179e-01,-3.240616099360215524e-02
7.448310269781023285e-01,-4.151591025841847582e+00,2.299230682616911547e+00
-8.438428764874735810e-01,-1.221264231170281711e+00,-1.612325868704661325e+00
9.189013328655918356e-01,-2.434338739679357211e+00,-1.796992987434325117e+00
6.446794896675777098e-01,-6.792765299268038071e+00,2.311963179394658674e+00
1.194525240407499522e+00,-7.540438742084027979e+00,-4.685517294353171991e-01
2.516301267715761902e+00,-6.195422788346672149e+00,1.216225500859504427e+00
2.037941633649123840e+00,-6.041212601109697822e+00,3.564874776444911575e+00
-8.614028751222668409e-03,-5.622807515425703784e+00,-1.401928768578570628e+00
-1.864847943838265354e-01,-5.247073074477566657e+00,-5.999223147705932124e-01
7.333667230388761782e-01,-6.222546214144209387e+00,-1.162082560020610167e+00
1.489131545007474910e+00,-7.902373567793375742e+00,2.548447693967874184e+00
1.098283188773127250e+00,-2.696872908699771809e+00,9.732014108481115144e-01
-5.634015135035111976e-01,-4.277238541992294252e+00,-1.118859350367481298e+00
-8.457655643131609668e-01,-1.918413455358250141e+00,-2.725388613964159656e+00
2.977494332674853195e-01,-6.028058405333226233e+00,1.314690690857006850e+00
-1.049620481060059118e+00,-2.680176135707379004e+00,1.053313064150994904e+00
2.138003316726365122e-01,-2.637943777856126104e+00,1.475541906294627115e+00
1.682185433517042750e+00,-7.770480610023633439e+00,2.636598454668069191e+00
1.663041598596038728e+00,-3.977082488585276465e+00,1.948044593997048102e+00
1.552316235471187467e+00,-3.643986903867982630e+00,8.886890064177865867e-01
-8.767313366767037763e-01,-3.308149917043527566e+00,2.665017777429617984e-01
-9.680047740961784664e-01,-1.030567620413048946e+00,-1.088375713205097073e+00
-7.950246514177966572e-02,-1.806770453283191857e+00,-2.945124510555729103e+00
1.658076403955742295e+00,-4.215501583931964724e+00,-1.482477243808298262e+00
1.362220610816740729e+00,-5.769353599948685130e+00,-1.367515216514078702e+00
8.539896144322286498e-01,-6.405645326302048304e+00,-1.138895580927518747e+00
-1.111159412119248069e+00,-9.319371930139013216e-01,-7.326658997753692226e-01
-1.263805135087895604e+00,-2.449499734789448269e+00,8.996448048089595445e-03
7.845304471343066410e-01,-3.780535008354142246e+00,2.148499760902271571e+00
7.208704586938556869e-01,-6.642850394902218625e+00,3.683046206005511358e+00
2.291615567415909993e+00,-5.735354086738347235e+00,3.683542558802582051e-02
1.188519433908580503e+00,-3.530195783440451152e+00,-2.581413023210098245e+00
-1.354681798975472029e+00,-2.100916874563049319e+00,-5.804023115243370778e-01
2.939541555326666278e-01,-3.817323026137675157e+00,-2.688358835069322161e+00
1.026032894874577828e+00,-6.404047798233776234e+00,-1.220871101732258879e+00
3.187401238287225214e-01,-6.071241201611999649e+00,1.896171147091402220e+00
3.149106328243616026e-01,-3.381011431502709996e+00,1.789759745025925275e+00
-1.356185675621445430e+00,-7.033470794818135197e-01,8.519555140388414272e-02
1.456439912507559775e+00,-3.474515521549008223e+00,-3.063832023006625160e-01
9.419517143390583325e-01,-2.292816252867549309e+00,2.257709891026461746e-01
6.033723036022063946e-01,-2.571515440412986298e+00,-3.193103154507554553e+00
5.896062777749777606e-01,-5.234571339156777192e+00,-1.799996757702058803e+00
1.874397271341006643e+00,-4.746205082739912484e+00,-1.717711504874158024e+00
2.771613019647330756e+00,-6.796089328764172599e+00,1.314950244260459922e+00
2.689194557514449802e+00,-6.877165068109090562e+00,3.426895841854050051e+00
6.572464749393077676e-01,-6.867851110500078349e+00,2.715863004211485521e+00
-4.775001483324101681e-01,-4.356939876159175995e+00,1.073448057602344186e+00
-4.071264109896234884e-01,-1.152898749375879994e+00,-1.762928813882422174e+00
-1.041744842713536956e+00,-2.659929236326325608e+00,-3.442806441079542257e+00
2.102690192696210492e-01,-7.816057473383121179e-01,-3.585920022394650242e-01
2.851436456912208595e+00,-7.206763632361020910e+00,1.328903040953101300e+00
2.543684621024658643e+00,-6.074507934453027502e+00,8.546548274298610970e-01
2.073345679916875905e-01,-1.061596926242105443e+00,-1.908497231864323629e+00
-8.388742242113128578e-01,-3.549393290846427185e+00,-2.472856777785410909e+00
1.370815273959212988e+00,-3.791499825995149564e+00,-2.235918308655712838e+00
2.182012407233104578e-01,-7.013623877720486233e-01,-2.057734928746339231e-01
1.224638850595591189e+00,-4.946560554403244048e+00,-1.963896457475526880e+00
-2.724304093107652314e-01,-4.723670317988198697e+00,-1.093054066126359247e+00
1.651358938417180067e+00,-4.180949889743026837e+00,6.617612032289436064e-01
-1.134317981897931676e-01,-5.208970647578381019e+00,-1.618417714315134370e+00
2.871255516870782287e+00,-6.986163030721860956e+00,2.515008102175592342e+00
-3.951074993706450988e-01,-4.579467871745340979e+00,-2.387683840327430751e+00
1.931310082318764554e+00,-4.673621920541077834e+00,1.397432622421705517e+00
-1.090630825860037720e-02,-2.363951530924479183e+00,-3.449225826793741678e+00
1.239081116297143792e+00,-3.601947764755236481e+00,2.106180065124082734e+00
2.395668343853326387e+00,-7.576522453325234885e+00,2.387173011039026793e+00
1.897726673758344251e+00,-7.353738633865702035e+00,3.198104492183208247e+00
1.244430167317129410e+00,-3.109267065281329234e+00,1.782053356107313968e+00
-2.552133348973705251e-01,-1.779401917611478146e+00,8.744638944804679070e-01
-1.486024344494463856e+00,-1.192977977480040419e+00,4.288643678130248382e-01
-1.169407657586208904e+00,-2.713240055624045244e+00,7.126975831417395879e-01
1.167243828317787280e+00,-2.981231987499422864e+00,3.339026919270481897e-01
-9.466329153844370570e-01,-3.048304582878014646e+00,1.156748544624376596e+00
-1.492873179998345901e+00,-9.134463173382577628e-01,2.542374563916018904e-01
1.909063063943106542e+00,-6.319506098096530522e+00,3.654793317257678531e+00
3.748132521962472263e-01,-9.721331613859320875e-01,-1.519619171120981660e+00
8.335953720810588274e-01,-2.228953679785059538e+00,1.312215830171890252e+00
-6.939388998308596568e-01,-3.763370407760987302e+00,3.814002429000945549e-02
1.995571772296886426e+00,-6.365412100893903080e+00,-9.224898108164318877e-01
7.876623823780046774e-01,-1.919602480257852628e+00,-1.563145400126166207e+00
1.665847158908008163e+00,-4.935877980357124883e+00,-1.784693561926317784e+00
3.333629318358240501e-01,-8.800691144178460767e-01,-1.283396622934196207e+00
-3.992585093723369227e-02,-4.519917128791743011e+00,-2.262287780337583154e+00
8.078266404834139047e-01,-1.982250457705145408e+00,1.302990567083531337e+00
2.998240997605313041e+00,-7.190168089695339049e+00,2.300424639541258642e+00
7.601939588647538271e-01,-7.146483833153036258e+00,2.269590071628214467e+00
5.024511298034602946e-01,-1.351811504229853522e+00,-1.733109554900514881e+00
3.781953177015512924e-01,-6.417403061944046527e+00,-1.874359943846548582e-01
-8.636273786255680429e-01,-5.735129215783840717e-01,-3.864476270272745873e-01
6.678470638504099277e-01,-5.601794863202314900e+00,3.074762245736376354e+00
1.287807467717427545e-01,-1.476903850342227820e+00,-2.559446325976279635e+00
9.343499468624907323e-01,-2.430680299182736537e+00,-5.528615507318705991e-01
5.017335868800212317e-01,-1.388258833325793917e+00,-1.812964456855655770e+00
4.019931108451828550e-01,-1.455438725266490652e+00,8.662265268704650856e-01
2.069342747747174194e+00,-5.063041891583454301e+00,6.335339331565675858e-02
1.671025803540756860e-01,-3.220930076308516021e+00,-2.998996604912183450e+00
1.080918548750012809e+00,-7.545152200451285651e+00,3.495555112201148340e+00
7.977407745629924163e-01,-6.768820560924493357e+00,3.687750575900304639e+00
1.156284900994728249e+00,-4.344035724836890822e+00,-2.195795588110242669e+00
1.813610599193563822e+00,-4.528826421874031283e+00,8.538889857490040980e-02
2.124033325867742406e+00,-5.127008279800401525e+00,3.060475100875172050e+00
-1.226421357574255966e+00,-2.679874484997648576e+00,-3.071981783453658466e+00
1.710561070012357021e+00,-4.328203802659881916e+00,-8.843981859437666238e-01
6.875170358452037389e-01,-1.959746945243494798e+00,-5.868392651673008942e-01
1.032212123908702095e+00,-7.809126442005523749e+00,2.927482725404029651e+00
4.489842545939223273e-01,-1.531586507858321067e+00,-2.789691028698824571e+00
-1.241766056697215959e+00,-2.791139836729108481e+00,-3.129954914926881049e+00
3.623746126785053479e-01,-5.583820023067756821e+00,-1.542824834390068567e+00
1.553707665399323590e+00,-3.833182263438088100e+00,-6.467844110869269691e-01
-6.773166350733063057e-01,-3.767364052541274155e+00,-4.537752373228585989e-02
-1.445665167432292009e+00,-9.767616483866599086e-01,-6.832393680006046965e-01
2.394256082558358756e+00,-5.740618952307223744e+00,1.565314615607417137e+00
2.542464220865343183e+00,-6.130561322276471437e+00,2.291883271270412692e+00
9.248936349313312544e-01,-2.174338382640289336e+00,4.621305644540832924e-01
-6.704964948318301587e-01,-3.425068088839243741e-01,-1.105870267991507644e-01
1.147524356490431163e+00,-3.017712369207002698e+00,-1.834268259492621622e+00
1.183573920761398002e+00,-3.051394882267525865e+00,-1.608487867731193566e+00
5.888711629838652151e-01,-1.617806327833306135e+00,-9.967333306525291148e-01
1.960497275434764708e+00,-4.829187101692151707e+00,2.164391553957259351e+00
7.984157970972078910e-01,-2.929090867800897335e+00,-2.886543650744967326e+00
4.767561290959906328e-01,-3.417601505445704735e+00,1.861154775237653380e+00
2.426369713209793666e+00,-5.835967401658166409e+00,1.431284245732858729e+00
2.382593865412535816e+00,-6.095220982697123979e+00,-8.682055735779077577e-02
2.353546951880060245e+00,-5.725367172998273801e+00,2.411754609992703635e+00
2.164998259917034762e+00,-5.508718985209331009e+00,-1.314214904125305061e+00
5.170429902498595576e-01,-3.953830540907373958e+00,2.171959708516715271e+00
2.238272608333732538e+00,-5.410505114879104127e+00,3.069785253025078653e+00
3.473452391278215590e-01,-6.410134406686523789e+00,-6.135688982743616737e-01
-9.598978699534526093e-01,-2.183007589198758147e+00,-3.075452491307527847e+00
-5.476543782378027192e-01,-4.200161323190400253e+00,-1.608832630922437668e+00
2.808878598135170268e+00,-7.550126878194441282e+00,-2.848871632435405754e-01
-7.410451007900384912e-01,-3.563474488518477923e+00,-2.441289254837746003e-02
-9.626572242936981549e-02,-5.185101259128972018e+00,-1.969411570537959788e+00
-1.019256368409340974e+00,-9.021467896114659935e-01,-7.737791219726121161e-01
2.542770473604314851e+00,-6.211728021308793757e+00,9.480820402813280312e-01
-3.735497486471919260e-01,-4.556066486005005522e+00,1.071331514885371039e+00
-1.646406233748238357e+00,-1.170000442521538897e+00,6.694157823709012689e-02
-7.019081761864576219e-01,-3.707447361692167487e+00,1.513851159093708487e+00
-1.010901100408934550e+00,-2.788230159458775059e+00,-1.808014519679275733e-01
-5.664045335495609956e-01,-3.966339771717314111e+00,1.048323897998099552e+00
-1.312322355132063967e+00,-2.321188217323604253e+00,-1.441265480245886188e+00
-5.899920984094604304e-01,-3.757553428964339304e+00,1.646710662798555935e+00
-8.122363996945441977e-01,-3.093239110749602450e+00,1.511824758463587104e+00
1.088469616475510326e+00,-6.049804065447466961e+00,3.314743841468920760e+00
-5.118883172498126521e-01,-4.012136406957428569e+00,1.724100451117369426e+00
1.856207978046459761e+00,-5.766589046500246063e+00,-1.368634218816148662e+00
1.333270787239022592e+00,-7.131538568735348527e+00,-6.493860053144807631e-01
4.690445771068062902e-02,-3.220439479646421965e+00,1.722071968725878754e+00
1.504542642558523768e+00,-3.700903205955726083e+00,-2.333034673447055563e-01
6.342437933067651690e-01,-1.599945445630438279e+00,-5.545521305020718605e-01
2.195581186066695611e+00,-7.017061554436838655e+00,-6.100799252890146684e-01
1.084823186704186003e-02,-4.827260984524230913e-01,-7.685494449422640706e-01
2.122365834903330584e-01,-3.228637498711374398e+00,-2.947142734215334237e+00
-7.162362186899128291e-01,-3.743545065197848132e+00,2.591142782508466524e-01
-6.036631357599704373e-01,-4.210198286810207691e+00,-2.235035183413099258e+00
5.268691641665585595e-02,-2.579350771748150084e-01,-2.729112145831720793e-01
7.862092825278812480e-01,-4.639672053950440578e+00,-2.071324699392051105e+00
1.490228566722993753e+00,-3.830914611927236813e+00,-2.140045361754032260e+00
8.464142586593287332e-01,-7.524030253927361578e+00,9.840677741959993341e-01
2.004233249297530328e+00,-7.279715919932002954e+00,-4.835589734533297657e-01
-3.511874666162579373e-01,-1.556602320953212493e+00,7.468715513657490090e-01
1.971748851718634343e+00,-4.762584249546836013e+00,7.302273251680875266e-01
1.742785473821537812e+00,-4.330821537720268566e+00,-1.253185283410664264e+00
6.591448100152813572e-01,-5.023372883254445753e+00,2.759470179319754024e+00
1.474265452333431980e+00,-3.292234579792700178e+00,1.685270651222442240e+00
1.658935597885040636e+00,-4.231598713983773408e+00,1.995080484895975115e+00
6.104597725313476442e-01,-1.405124257354690931e+00,-6.462115239504465647e-01
2.766200639553817009e+00,-6.686267369813240435e+00,3.327209123688936732e+00
-1.119173434953950608e-01,-5.203901855126257026e+00,1.446164822178710896e+00
2.503832329060758699e+00,-6.845024770166086014e+00,3.667747327099574850e+00
1.610255847421233621e+00,-8.216657845273182659e+00,2.137578170119426080e+00
1.616165552026434193e+00,-5.767393688120405315e+00,3.300808264042643270e+00
9.370682728260449901e-01,-2.464158670180118360e+00,-1.362634368642638982e+00
1.023730119894953328e-01,-5.385814742330858884e+00,2.845298065901018969e+00
4.319955813654282051e-01,-1.051251479685221035e+00,5.007162646041506404e-01
1.124111489971268973e+00,-2.780814039745174160e+00,1.169552893110674008e+00
-1.599282583028321242e-02,-5.669755508492885454e+00,-1.377457585754977787e+00
1.194812950154869213e+00,-5.804799992998691316e+00,-1.278741684855538185e+00
3.060307851575593929e+00,-8.082667502978553742e+00,1.212849626561510075e+00
1.717667006737813251e+00,-4.342475702951360539e+00,2.539325282578762888e+00
1.912120502019649448e+00,-7.091847576948183907e+00,3.684229968671885569e+00
8.830754087311631917e-01,-7.370494283957086168e+00,3.927317818760549528e+00
-1.142495725010704399e+00,-2.376391095587765623e+00,-3.293096872783328077e+00
1.632130541475295793e+00,-4.105765800623421669e+00,1.949800923263317998e+00
2.743870801564213036e+00,-6.743201741785565417e+00,2.384451716336718263e+00
2.573199849929190819e+00,-6.397003200833307979e+00,1.630077537897486328e+00
-6.771630056452331292e-01,-4.048418047851984447e+00,-1.692758839447066510e+00
5.208705565359410539e-01,-6.624412697828814700e+00,2.638607776486173062e+00
1.098938942059842327e+00,-2.736697018895555722e+00,1.309035793668497982e+00
5.449388922290890891e-01,-1.414429337777219464e+00,-1.723521811770330370e+00
-4.769968216246050496e-01,-1.446117055925234096e+00,-1.985450610219385403e+00
2.567607195945346810e+00,-7.347834267143555920e+00,-3.422405749170081002e-01
-4.994559498220169091e-01,-3.161678460567996396e+00,1.585176555508507557e+00
2.444381007518165450e-01,-5.977040774148889568e+00,-1.526334048372169239e+00
7.070529071575250013e-01,-6.564380720121024027e+00,-1.193615043480470872e+00
8.506274752121634197e-01,-6.955540872770163752e+00,-9.257182937828367653e-01
-1.200064128890044636e-02,-5.334090305026857770e+00,1.051457064320258317e+00
2.526943449886655646e+00,-8.080968717050671657e+00,1.567633748360708790e+00
-2.559591660610594510e-01,-4.411634844459065619e+00,-2.402673956538531108e+00
-1.028061866458216844e+00,-3.174134894346340108e+00,-2.312501447861533332e+00
1.810822225738074831e+00,-7.642677819594315025e+00,-3.396333054053555234e-01
1.718321280101172910e+00,-4.204694125739989907e+00,1.195038082962141202e+00
3.064112510222304353e-01,-6.167877102397532063e+00,1.428674746795761008e+00
2.528040755146664598e+00,-5.976443565688019710e+00,2.105342501954203804e+00
1.137952960445166861e-01,-5.707334841432056827e+00,6.496873216612013557e-01
3.056150393464986958e-01,-3.178412658512130395e+00,1.788966250189613527e+00
1.502864667099273577e+00,-3.722840058624352633e+00,1.107264910409935021e+00
3.791554888732978079e-01,-1.800703311801597373e+00,-3.335852009710765120e+00
-4.501977661828335808e-01,-4.580425305456200746e+00,-1.504133605113225913e+00
1.382390434196493212e+00,-5.064074477938922847e+00,2.908545406961854596e+00
-9.724097280957487710e-01,-8.219413716392324210e-01,-6.543762558656077699e-01
4.486629295436556641e-01,-6.507756001878025387e+00,2.784736773818666800e-01
6.616933500286112935e-01,-6.888722012775055248e+00,3.596607535401182165e+00
2.962233567073138563e+00,-7.417811335138255302e+00,8.198415387334208049e-01
2.899608750945498747e-01,-3.584005662331062769e+00,-2.716577455545762909e+00
2.488209103084961349e+00,-6.035544489364188081e+00,2.228700557728080511e+00
-7.509313621643261272e-02,-5.125529398739510079e+00,2.211977114868839855e+00
-3.700772828770702016e-01,-4.601690142229164060e+00,7.348235302143978354e-01
-3.495562870216793044e-02,-5.391288892602950078e+00,1.553701910266203301e+00
6.294299585167084654e-02,-5.427853161000507631e-01,-1.014325294496577712e+00
-2.191106872473540246e-01,-7.522373359255516423e-01,3.667354728731817559e-01
2.170038509827396211e+00,-5.388023250537461450e+00,6.284341468614054182e-01
7.992942449210760358e-01,-2.305791861535214871e+00,-1.907689013537170020e+00
1.121559916777412402e+00,-8.289211735523730695e+00,1.566144065933939178e+00
1.142660340291939747e+00,-2.842095731627548805e+00,-1.503377598858369746e-01
1.029279635647028623e+00,-5.115816017100082824e+00,2.891264713949750487e+00
2.775620506422331601e+00,-6.956765115829310453e+00,2.395462114599048731e-01
1.345416600858695411e+00,-5.809570365101464517e+00,3.317380779672805424e+00
2.983200625706990294e+00,-7.986822797889553627e+00,1.622690198544220475e-01
1.846548638426270816e+00,-4.538809774603445035e+00,2.664133261410388087e+00
8.019639361543988709e-01,-2.383405353698794915e+00,-2.773921322383613219e+00
-5.259872339836161315e-01,-4.283898676058948141e+00,-8.743944757670623069e-01
3.284183110818870155e+00,-8.014808698201433046e+00,3.483226868041197632e-01
1.671425631624979147e+00,-4.254669861438656220e+00,2.041141648549362309e+00
1.732856680355419288e+00,-8.172525639304657474e+00,2.033260264768194325e+00
1.077945434768344590e+00,-2.799893003661412472e+00,-2.899572311839891725e+00
-5.593941337287646753e-01,-4.294314186585888926e+00,-2.007012817050396691e+00
1.482656028220467881e-01,-1.312006723379884443e+00,6.781343320281161269e-01
1.160867838952488684e+00,-7.066713310092146649e+00,-7.015711655202686581e-01
-1.154995471727787715e+00,-2.777086824196734138e+00,-3.767047638650211083e-01
1.554245795881079584e+00,-6.553691263596409300e+00,3.777336310561141719e+00
1.375852190778953932e-01,-2.403603614991331128e+00,1.253515049536358728e+00
4.379534582361559458e-01,-1.142839886319636067e+00,-1.064332484011293323e+00
-6.708286454100960139e-01,-4.406404166751389795e-01,-4.089828876101672672e-01
1.197019901363908012e+00,-3.002661949536341801e+00,4.929298851294690031e-01
2.663778575128292303e+00,-6.426681955959926640e+00,1.756651806273719085e+00
2.034180857432621448e+00,-4.968266354480833868e+00,9.503816526759796268e-01
1.806558356948668509e+00,-4.774224116605133794e+00,-1.830440113780153144e+00
-5.548954108805478347e-01,-4.050183844797826005e+00,9.992347753448236336e-01
2.931023171290553009e+00,-7.259863316649062703e+00,1.231845925634268646e+00
2.132123267358272400e+00,-5.667951338948552298e+00,3.462122210476214157e+00
1.215694582461761541e+00,-3.367637444898093690e+00,-1.939423667932422601e+00
-1.686058001788863336e+00,-1.216930092773970573e+00,-5.307975776324104222e-01
2.776175464735536558e+00,-6.745079489612700208e+00,2.268906337088240743e+00
-8.829906101752718062e-01,-3.186989780236437309e+00,-1.686555633466431781e+00
3.050886327318307889e-01,-3.325736435087835563e+00,1.708146151814683877e+00
-5.987588802431900170e-01,-3.863735104454714353e+00,8.461514829635536916e-01
1.312384797845626228e+00,-8.141522009253833403e+00,2.197508200423011093e+00
1.277996509873090325e+00,-3.165420442143140445e+00,-6.156080100981433656e-01
6.414386048032669763e-01,-3.719935644259852126e+00,2.125383421084212188e+00
4.499772840571799604e-01,-6.561843711754254294e+00,1.022701653309645353e+00
2.224615646585761386e+00,-5.403956362938841629e+00,1.090747845150354278e+00
9.575346107874436186e-01,-2.363439014158551732e+00,1.123276752838035852e+00
-5.015159327289969715e-01,-2.370089398176160322e-01,-1.185231978488639377e-02
1.121277806653905973e+00,-8.070248741525995584e+00,1.483655147953629294e+00
2.473905791147675171e+00,-6.361234750654026548e+00,-4.332655631193232937e-01
3.169459981453961017e+00,-7.802154349435107328e+00,1.335828712251912798e+00
2.283710646974188130e+00,-7.905891642852322931e+00,2.097565479060379712e+00
2.269096916647794338e+00,-7.663618187842463847e+00,2.488347251550715011e+00
6.478940568573251513e-01,-2.029724030772641630e+00,1.139322126099740373e+00
4.487063048218000172e-01,-1.046195316019323807e+00,-9.989939327154210291e-01
-8.724812359070395207e-01,-3.279211000897033657e+00,-3.114029753260079136e+00
3.539704982073301198e-01,-1.768017881037570849e+00,-3.106369778531445469e+00
1.432266826110662139e+00,-3.582792752685063142e+00,1.628924991709436387e+00
1.154692774314642012e+00,-8.138522167485778169e+00,2.345163508318799384e+00
-1.164762794218331843e+00,-2.753233579640983475e+00,-6.029393111617350476e-01
-2.594327965797881830e-01,-2.986842717276878112e+00,-3.133689121065306615e+00
2.819841645038278610e+00,-7.990859210326717310e+00,1.479279464858759718e+00
1.576036475842859941e-01,-4.018268060625074689e+00,-2.436664919160961951e+00
2.954593819573698710e+00,-7.577119330302513944e+00,-1.283029704503840518e-01
7.451642741270438908e-01,-2.480305511713751354e+00,-3.137399171302801104e+00
3.179959275185070489e+00,-7.851443663113303550e+00,1.227711582070015739e+00
1.282727585815684801e+00,-4.001081203857666857e+00,-2.234945637432749876e+00
2.607596722122241140e+00,-6.248455598083763718e+00,1.865545770471416898e+00
2.134072769066125641e+00,-6.611862596124249869e+00,-8.113013512700338881e-01
1.294913147884731552e+00,-6.608995564942031997e+00,-1.000641862374170632e+00
1.101630230055474113e+00,-2.679307753225664168e+00,3.814154529344952471e-01
1.536550022813972481e-02,-4.177147326575413544e+00,-2.384001386564964520e+00
4.564478460447388142e-01,-1.187894102666323892e+00,-4.227504519137827432e-01
