-2.240033219878424742e+00,-7.807821152504645035e+00,-7.499146117214803287e-01
-2.954677628948730872e-01,-1.765985522064690061e+00,4.898912971984224818e+00
-5.168359393231035659e-01,-2.917443050369892710e+00,9.233948543499947093e+00
3.991063731214405941e-01,-2.244654265830055451e+00,6.228964646211999856e+00
1.455859018811512806e+00,-4.119959487331492198e+00,-2.457365674063480276e-01
1.019258260311231012e+00,-5.955590931213591510e+00,3.889505340491239860e+00
2.127724967028902459e+00,-1.462671996490452653e+00,-3.075343243666111559e-01
-6.609870970200129037e-01,-3.313939236034843638e+00,1.012059757351926947e+01
5.493219163333487032e-01,-7.601343604927298436e+00,2.213514336995658915e+00
1.361319284898339754e+00,-4.744685090571562291e+00,4.378153728260506306e+00
-1.247444233438517402e+00,-5.209557231513194608e+00,-1.611992284651656338e+00
-9.655252719930114136e-01,-3.022835755500790089e+00,9.160401667011015547e-01
-3.757232417696989013e-01,-8.106611585299511091e+00,-1.922609985212046624e+00
4.159736079140981535e-01,-8.020130206912945425e+00,7.012047821655011504e+00
-2.637010789060618698e-01,-9.543127165154451363e-01,2.553275470105101919e-01
-1.680320962105314120e+00,-5.032950228096637169e+00,-1.642783903215942809e+00
2.436829682522711593e+00,-1.043538194026974786e+00,-2.661531958616120686e-01
-7.842944191005045418e-02,-9.184617112236725944e+00,1.754742690069651445e+00
3.154982563433227916e-01,-4.487258748786912221e+00,-1.433905424421077157e+00
6.921437343007513787e-01,-7.290111787268666044e-01,1.494307322195631782e+00
-1.670777515445021733e+00,-4.831094099846578338e+00,3.739070358565814267e+00
1.368113017884633908e+00,-5.779297924408430376e+00,7.699342368764786393e+00
4.045418861233850416e-01,-1.643436857628774561e+00,4.595957538317467339e+00
-4.326357619324097681e-01,-1.067883795272343583e+01,7.379266466100940391e+00
-1.779788739980612267e+00,-1.012648622007858989e+01,8.650198588137570255e+00
8.490328923518858373e-01,-1.975948991592119119e+00,5.468571809728187461e+00
-1.641471943076218354e+00,-5.389856369840664740e+00,2.836650747345450085e+00
1.498586034461213856e+00,-4.604182601922004459e+00,6.724768077733952687e+00
-7.755568860740377213e-01,-2.669188911828276112e+00,6.532900937105848627e+00
-1.591675380801949258e+00,-5.045303275434604551e+00,5.407712016837869839e+00
-2.088571463361658775e+00,-6.697465171485221802e+00,5.031425626471982326e+00
-1.333057235781772709e+00,-8.919630731325355555e+00,1.858515908900330693e+00
-1.404450251678530437e+00,-4.154211068253651717e+00,-1.885508983392470139e-01
-2.722763419198673152e+00,-8.978815218311575919e+00,3.761731780890644750e+00
3.046129948504455176e-01,-7.901810095898719410e+00,-1.387365790512966601e+00
-1.186311732245636907e+00,-3.971978819448451770e+00,1.492924851235428285e+00
1.978312286957789379e+00,-3.327080841969454195e+00,-1.488846103108238950e-01
2.379808763846258390e+00,-2.204095735907308118e+00,3.780496701398627479e+00
1.082574395645656162e+00,-6.137608500551466229e+00,4.446749639760356310e+00
-2.427612954746209528e+00,-6.745292082182037241e+00,-2.139775436549859133e+00
1.079669820330571905e+00,-6.490376282663354424e+00,9.385568708608259314e+00
1.966962127720085052e+00,-3.187949921572258205e+00,7.698058168897444098e+00
-1.038280508911355149e+00,-8.314170124185158883e+00,-2.955079300086701499e-01
-5.356395173446332203e-01,-8.466107882141967522e+00,9.131628594111584007e+00
-2.417619123055713803e+00,-6.827468176696233293e+00,-1.029181753285512313e+00
-1.667151402246683567e+00,-4.934181211176957405e+00,1.154464501414936839e+00
1.381250767901163634e+00,-6.187618472698607874e+00,9.934416141084303931e+00
-1.336565329228722065e+00,-4.358512447390653577e+00,6.165454989704200806e+00
-1.592121965628114089e-01,-7.428957745175726046e+00,-2.275549088462383462e+00
-1.828034249459377758e+00,-5.943154323022572072e+00,6.039922217865906440e+00
9.373366354978076576e-01,-6.132103909889575100e+00,-9.366245893274799394e-01
-2.412494603323440401e-01,-1.078045903178113551e+00,2.994438052018328023e+00
-7.313294662609861607e-01,-2.144118640086270400e+00,4.712032821377575509e+00
-2.516798627323333370e-01,-1.031345889786977033e+01,8.447442536359776710e+00
-1.065373990627874967e+00,-4.301402138206513293e+00,1.047068661206590257e+01
-9.275967226077512506e-02,-8.171379146103461721e+00,-1.657561042290263353e+00
8.008183845502321319e-01,-7.096684691261695654e+00,6.119252461820365419e+00
-9.942044025181357991e-01,-3.288744265355302954e+00,9.084595911714496097e+00
6.287678714641850575e-02,-8.805789579798917188e+00,2.839279627271015016e+00
-7.784097219522617683e-01,-1.016957246179457997e+01,8.572114327292014835e+00
-1.026353323935550899e+00,-4.044580146315154501e+00,-1.291795082280375651e+00
1.540983022798769198e-01,-9.024078140981737661e+00,6.405165034081570674e+00
-6.567925771980049898e-01,-2.306063754053263359e+00,8.283244307757180458e-01
-2.170669210290594897e+00,-7.052583985496698737e+00,4.863304174868577689e+00
-2.127908522895833876e+00,-8.768637110142194047e+00,8.672148713662558350e+00
1.033674116769272677e+00,-6.036949932644039230e+00,3.960518918014958256e+00
-7.530360778762164031e-01,-3.208974611625544426e+00,5.062864063700122763e+00
1.354297278229532830e+00,-5.361250554060814189e+00,9.334595689098200921e+00
-1.934319050012020647e+00,-9.206901043722607980e+00,3.616582837236975045e+00
1.734854051460021696e+00,-4.546199317941438167e+00,8.233500903515189151e+00
-4.686638035485065079e-01,-1.211565395031050985e+00,1.119897825894485610e+00
-2.291571980470699987e+00,-7.248036886483581576e+00,1.386659406949347861e+00
-1.332486334146794960e+00,-4.605471036420101250e+00,4.717617932998463104e+00
-7.484123971831000421e-01,-2.428898253057218959e+00,8.892446587523451518e-01
7.571051364241720982e-01,-7.156980928414228948e+00,8.550556464253821431e+00
1.599154396164836456e+00,-1.518298928468996722e+00,-2.958943787856690988e-01
1.530618890514823693e+00,-5.007895262976544970e+00,7.034466049258702114e+00
-9.366346613546491229e-01,-7.642462155418219716e+00,-2.281065953210018815e+00
-1.170576355224959064e+00,-1.071964514049346739e+01,7.264460157021203734e+00
-1.479817410821751889e+00,-5.060524360380646236e+00,6.164552279585679528e+00
-1.437195731773879048e+00,-6.523661168087261153e+00,9.746903818556301502e+00
-1.554072820459105220e+00,-4.596785070823182551e+00,-1.247733800976514207e+00
1.426236813765635159e+00,-4.892605887661390263e+00,3.169462926094928967e+00
-2.039373328191258050e+00,-6.434046537595127901e+00,7.928405780822655124e+00
-2.395300636337374556e+00,-7.165179503320094234e+00,1.739112008587226699e+00
1.092089444505891294e+00,-5.548173086655228126e+00,1.503567189945932858e+00
-2.223702458741589449e+00,-6.447930320398358894e+00,-1.441412692473190260e+00
-2.011743912663837452e+00,-6.713269086950004017e+00,7.435785470452858092e+00
-4.914957034613286480e-01,-1.527230922705383520e+00,3.128977593645053457e+00
-1.013100832064819379e+00,-9.499504334612719703e+00,3.893351783609391603e+00
-8.218228639216318410e-01,-6.850675888772162381e+00,-2.148215941193909462e+00
-1.234680777393402540e+00,-4.569136703951350853e+00,-1.441176060408962289e+00
2.987003045280143265e-01,-8.375005643504913166e+00,7.777919903675503122e+00
1.867286716931055190e+00,-4.072142043631570729e+00,9.661766888749035331e+00
1.561137320516919225e+00,-2.607641530064472857e+00,6.236898764654505101e+00
-7.038520841539824824e-01,-7.745402502303836201e+00,-2.148828995810244447e+00
7.823888512048102761e-01,-6.260004717448586220e+00,-1.437045854893854502e+00
-2.509689015748660879e+00,-7.591256927855368986e+00,1.685127366250969816e+00
3.521349280036963902e-01,-8.509932548217882697e+00,8.729450703537594336e+00
1.950629047651749604e-01,-6.234057873226216628e+00,-1.785980145610592373e+00
1.821759167039221694e+00,-3.647998496956223136e+00,1.574773281378307521e+00
3.824661256506440843e-01,-8.039674304224522672e+00,5.609288821175119288e+00
1.860877388167030411e+00,-3.302252530231180039e+00,2.365296114647008174e+00
-1.490266401151263409e+00,-4.200325572723679457e+00,3.042274284465574241e-01
-2.942289830021316721e+00,-8.895041888592075452e+00,4.528376560552965557e+00
1.351874480556197522e+00,-4.784465863396709651e+00,1.948276048897748414e+00
1.723123388787263233e+00,-4.503841369683041940e+00,1.045583524546285759e+01
5.480056274613933631e-01,-7.656181893407815409e+00,5.340108111666908464e+00
-2.584304133176468232e-01,-7.146168977375116249e+00,-2.284295327570221357e+00
-2.855317460073612867e+00,-9.195397198570445241e+00,6.391753301791450959e+00
-2.543722396706770361e+00,-9.627134041335398962e+00,5.476162432389456214e+00
8.348805065364911515e-01,-2.416268407967502529e+00,6.371263101209227564e+00
-1.302936320873623766e+00,-4.787674159912526761e+00,9.650553406386130462e+00
1.406953697073779763e-01,-2.010959329295527009e+00,6.114001900383075672e+00
1.359848966374242574e+00,-5.625286324656793013e+00,5.989435703762886476e+00
5.697049976801299431e-01,-2.237979766484124333e+00,6.568542351255215905e+00
1.613153932388847300e+00,-4.817866159170768547e+00,7.819334953005070865e+00
7.413799658068107590e-01,-7.028474876916573244e+00,5.506302583073580337e+00
2.160426697306247146e+00,-1.750354191402886395e+00,2.843248612113756124e+00
-3.380775996479256640e-01,-9.973044192919640061e-01,1.944876114973251635e+00
1.708408289382678191e+00,-4.067023169834342866e+00,8.298074732181712321e+00
-9.863143645106866586e-01,-3.807955290270173432e+00,1.054899463753732469e+01
4.465805319512417548e-01,-1.033695298711633903e+00,1.986720095339665315e+00
1.941074859450641288e+00,-3.514522640205807402e+00,8.292236105704215987e+00
1.821554856871885120e+00,-4.120380596830566233e+00,1.015958084420756968e+01
-2.117968939427035568e+00,-7.326779231319807018e+00,-1.983965384886701822e+00
-3.100732841418007424e-01,-1.563274520625206332e+00,3.654008967188452139e+00
-2.808373342159390162e+00,-9.254041891209697113e+00,5.424164582654807276e+00
1.363338289479861132e+00,-8.738424255027864573e-01,8.110005290445011505e-01
-4.380083403810211551e-01,-1.872604811097212885e+00,4.178459087577510722e+00
-9.734075279534012970e-02,-3.699843515487464707e+00,1.060018417589925122e+01
2.069099494310664866e+00,-2.538765983212229127e+00,2.054357992002583178e+00
-1.875038259932863272e-01,-8.949353714657391379e+00,1.264683582776731097e+00
-3.490775409021643627e-01,-9.670501419240689955e+00,3.626608835692034738e+00
-9.299325018261724862e-01,-2.800270541980483863e+00,3.859732632922447948e+00
-1.982074067328764899e+00,-9.013756577705981599e+00,2.906592755846054033e+00
2.214753622993462123e+00,-2.052724194826409221e+00,1.460780961535536604e-01
-2.728370154294795569e+00,-7.857692085521898129e+00,1.678037686526596683e+00
8.992665313652108416e-01,-6.538528455444647669e+00,6.932214750537642800e+00
-1.164484837704479227e-02,-1.831454923033617677e+00,5.415677202717342986e+00
-8.726817300633066266e-01,-2.935672019488970275e+00,3.294820006848089289e+00
1.129815315822537469e+00,-6.155498282984019909e+00,9.870595761837549276e+00
-2.084172028416667821e+00,-6.047621966302340724e+00,1.545253919450355617e+00
1.849886088840741127e+00,-8.050645153055221437e-01,6.038471173372447209e-01
-1.252839798358734269e+00,-3.905845893762189824e+00,1.545810734919446094e+00
7.951332345675629076e-01,-4.158974202564736267e+00,-1.305928017851226031e+00
1.916224452358020747e+00,-2.377778792400469410e+00,5.423426234614047381e+00
1.294451828261492798e-01,-8.630477182584014528e+00,6.035169240656650835e+00
-2.134744452769388623e+00,-6.880239325759033520e+00,4.312060977977513865e+00
3.065571940376853738e-02,-8.939417803404230867e+00,2.328352749943213063e+00
-1.756899213655804370e+00,-5.371511638962583213e+00,-6.455083974629267640e-01
1.252320470446559142e+00,-4.823666014533580793e+00,-1.473178214671445330e-01
-2.572680804495750984e+00,-7.294830055596571938e+00,2.801926600747221552e-01
-5.490798139685199031e-01,-3.138010397831540121e+00,9.792114223520917093e+00
-2.106054482458560972e+00,-7.109257241444336906e+00,9.041982681600581273e+00
6.697623516287859458e-01,-5.563842979992804416e+00,1.018809776763216313e+01
2.055900225324276964e-01,-8.247180770108080594e+00,4.383927304789563273e+00
-2.486329102874575536e+00,-7.809641763945315063e+00,6.413883488891253926e+00
-6.658057586875084644e-01,-8.309746664153696116e+00,-2.238257695404503311e-01
1.537113470150943462e+00,-2.789367054563700599e+00,7.282078467929872012e+00
1.983704408182433987e-01,-6.037139914362481541e+00,9.937795602173080667e+00
5.628509964996659676e-01,-7.458905825632255571e+00,2.283736417552725939e+00
-3.990905564157869456e-01,-2.149201601591484767e+00,5.934487097975832626e+00
-5.619136912184234944e-01,-5.654709312515229236e+00,9.919386089903539983e+00
-1.907638867267398064e+00,-7.331295397655423152e+00,-2.119896396811859596e+00
1.975644549088883872e+00,-3.392809963439205490e+00,7.685003914730474506e+00
1.160061162762337172e+00,-5.180602848529604287e+00,-4.497048956320494062e-01
-2.313545680310718389e+00,-6.836622027043318006e+00,1.465002706150189793e+00
1.278295514455955129e+00,-9.531302358287229159e-01,1.758567125333960091e+00
-1.464167069394628706e+00,-4.824504973790683771e+00,6.532744007836932099e+00
1.553789991329666886e+00,-4.310233247126207701e+00,2.226513401950588555e+00
-1.481766304234960030e+00,-9.618568836386630849e+00,4.232777139954726486e+00
-2.486240300561368688e+00,-7.361566801116027570e+00,-1.418390656058033494e+00
3.660663570952477075e-01,-2.963857509997694373e-01,3.878008138956083317e-01
1.166706461473830503e+00,-4.693615951464890301e+00,3.572451943937555163e-01
1.764884371630915716e+00,-8.651754555321986562e-01,4.770519393967478372e-01
-3.083255040543437797e+00,-9.293432906863770882e+00,6.389242492011943497e+00
3.593854874806327038e-01,-8.068845694578030248e+00,2.711045945501475707e+00
2.221125482010208874e+00,-2.680169518972423948e+00,1.120799345167005745e+00
1.961208377187521057e+00,-4.105006655948681527e+00,8.748302870539310661e+00
7.301257740045580258e-01,-6.831002876292226134e+00,3.944782019545023832e+00
1.720539791595193879e+00,-4.226269047447035021e+00,8.448095654234426988e+00
-2.557841464883248705e-01,-1.267415500468823231e+00,3.131450858211988653e+00
-2.510938767161503105e+00,-8.418409190650407936e+00,2.291784360917571206e+00
2.239092284994379511e+00,-2.738195280248452601e+00,5.701474731979077504e+00
4.377550212152630515e-01,-8.033152505233164931e+00,6.201845430173163365e+00
2.225705646921562142e+00,-2.322194333585021919e+00,3.999453241802528591e+00
-4.069500609025084037e-01,-1.777277254843679044e+00,3.997355106164655059e+00
-2.083718127486973160e+00,-7.290723639024628611e+00,8.091577091433920899e+00
-2.117154945123616905e+00,-6.234029215123078060e+00,1.590504942895809792e+00
7.008351804214790759e-01,-3.206071552380501011e+00,8.730556415836623785e+00
-7.041659339116962402e-01,-1.054692856403542756e+01,6.098687215166990860e+00
-1.149737655524223801e+00,-7.812274046060880828e+00,-1.453152150686113808e+00
2.156090930689065654e+00,-2.608731853212885365e+00,4.538866706289912401e+00
1.181219421527112123e+00,-5.187651085481952862e+00,-7.806698016856526978e-01
8.341523959423307044e-01,-6.815533065151033298e+00,4.607821752550782080e+00
-7.314850223563622300e-02,-8.873775993304494847e+00,1.263770767660604477e+00
-1.858770656598558002e+00,-5.910774064519570992e+00,1.877966133203413435e+00
-1.219646751314780592e-01,-1.458158979091915830e+00,4.118918726437502009e+00
-2.403386717881550894e+00,-7.178429800770265601e+00,2.946721486269394674e+00
-3.360170516516747807e-01,-2.736002170170912962e+00,-7.140879644407039928e-01
-9.605488559381153424e-01,-3.391053376854956891e+00,6.801992246898886485e+00
1.095433977486004240e+00,-2.998945558912427867e+00,8.306094206910163535e+00
-1.208794363903345825e+00,-8.501916791952167429e+00,8.981622059923061840e+00
-2.534237827575723134e+00,-7.182148027090347497e+00,-2.622538628643382164e-01
-4.218501057334576587e-01,-9.839311615020033486e+00,4.398259495958678045e+00
4.216822068755005648e-01,-6.131604925064029210e-01,1.312879669056905341e+00
-1.086981419778694891e+00,-5.451373477950503421e+00,1.000389263835315745e+01
-3.050663255267294094e-01,-8.642861729601076348e+00,7.419695534758519173e-01
6.739520043536617600e-01,-5.361915107992603957e+00,1.027852241583941506e+01
3.825023829696822530e-01,-3.367419733394061421e+00,9.981983600704465331e+00
-2.358004161158650636e+00,-6.405567235949005678e+00,-1.798548103418005084e+00
1.638737286280252725e+00,-3.768016311015863096e+00,3.089924877244679124e-01
-1.443126440848130798e+00,-4.946006084274481296e+00,7.058121857700164981e+00
-6.909411051132494652e-01,-5.451290850198941662e+00,9.894261219961734355e+00
6.188481881772543991e-01,-6.905318724321011459e+00,3.289683353626237761e+00
-1.344104507502471568e+00,-5.036283827572647809e+00,-1.759342510958580519e+00
5.702777049581402302e-01,-7.158673162995495609e+00,1.252669645704079571e+00
-2.412044924206365515e+00,-7.117919587372534274e+00,9.025547747652825636e-01
6.274225877797693363e-01,-7.604163102537693675e+00,8.050573534536807685e+00
-1.201632820883736130e+00,-3.378630138983393927e+00,6.141338099243326631e+00
-6.393513151483282142e-02,-9.754417982780317686e+00,7.404682901867944977e+00
-2.584069468589640817e+00,-8.032613626130711282e+00,7.899500496734702892e+00
4.886549467213964770e-01,-6.838843259957127607e+00,2.882510535237292615e+00
1.868639669917405044e+00,-4.007973412176999872e+00,9.679371182922567485e+00
2.026596178211793831e+00,-1.240779911313519168e+00,1.715379427309023264e+00
-2.659395445478649922e+00,-8.217981054436750199e+00,8.157512947248838131e+00
1.747793000586650214e+00,-1.129757619181133599e+00,-2.350435282392331626e-01
2.265308151790947633e-01,-8.619200523236795419e+00,7.700321344749089469e+00
9.539525325248373600e-01,-6.343585109297193547e+00,6.358218084974697426e+00
2.072323181613755949e+00,-2.987835239912416618e+00,6.566036903266685876e+00
-1.450182924052646705e+00,-4.655625286555260089e+00,-9.128233171196772355e-01
-2.186143581899673727e+00,-6.437738808707412552e+00,1.277336078894081517e+00
-8.571540371479226608e-03,-9.274814374651553450e+00,3.262807121912487229e+00
-5.821886399531707168e-01,-2.569054153604288793e+00,7.420371623883428747e+00
-4.636283442089503826e-01,-4.068261269115414080e+00,-1.332374217542703132e+00
-3.167006595516089207e-01,-1.338748259897152515e+00,3.534423947276542854e+00
-9.742235330506189284e-01,-5.865209735409731451e+00,-1.784455277340687429e+00
-2.583923021019501221e+00,-7.817741389218937798e+00,2.354691854912250637e+00
1.593346217473458337e-01,-8.717977557019207069e+00,7.055325778002074166e+00
9.831771629789746170e-01,-6.462247273245882440e+00,7.286871279129949031e+00
6.537548638199777162e-01,-7.321120885944084833e+00,7.147064268907682205e+00
-5.003631844958302821e-01,-1.547663464181337822e+00,2.771880090469266644e+00
-9.362045937770746562e-01,-3.471554965901265000e+00,3.980444134247994370e+00
-4.414771497919321441e-01,-1.807213140016324715e+00,4.506644140450314140e+00
1.578343736964151089e+00,-4.569916201390861410e+00,8.879247927476145108e+00
1.302277678211667844e+00,-5.267605191959306765e+00,1.859867525670876098e+00
-1.079329551146549493e+00,-9.498357564810854470e+00,8.731245764625898076e+00
-3.911415316077905546e-02,-8.694779568756619170e+00,1.149189326364696839e-01
-1.982725846108487122e+00,-9.591180188469699885e+00,4.440548823618598817e+00
7.688028282800108970e-01,-7.116059849571202633e+00,5.638583672950661096e+00
1.475544322270774034e+00,-4.862816521323639840e+00,9.731705363184895319e+00
-1.855870769615429294e+00,-9.761338138421745469e+00,5.774618890739734667e+00
6.808483849379749486e-01,-7.509804370759368908e+00,6.934513350442640167e+00
-1.333179662868300364e+00,-4.501487973921194374e+00,5.990061090031741919e+00
-2.853608507014083528e+00,-9.132876426447870344e+00,5.620666552777501046e+00
1.069573480109839325e+00,-7.565344150066510842e-01,1.124361298925036223e+00
9.781561024427679607e-01,-6.406787141754029413e+00,6.337414802422792981e+00
-2.282264044287391158e+00,-6.938025231221797817e+00,1.464027212742085249e+00
1.585391396109535611e+00,-1.970339409992921675e+00,4.295201414074156787e+00
8.193447520544812346e-02,-8.255631777372181901e+00,-1.507795188351835680e+00
-2.078898922569747842e+00,-6.124621840115892724e+00,-2.019687261545820345e+00
-1.339040702150082085e+00,-9.532334934111748481e+00,3.536027569390349790e+00
1.870947044509229995e+00,-3.967501544629485455e+00,7.665014554428320359e+00
-2.047060203546335888e+00,-6.326084032262820678e+00,1.343848773045023259e+00
-1.037223072996496853e+00,-2.816901072159711639e+00,-6.751379548430160860e-01
4.063073585680258143e-02,-8.992918108808607869e+00,2.207918340547632585e+00
1.240495645600508734e+00,-5.707093739134804444e+00,6.807606277238254400e+00
1.873711907703047963e+00,-6.981510358427192031e-01,3.197002516810170669e-01
2.044493809507760496e+00,-2.900635077699874831e+00,1.799977617835390342e+00
-3.067211682335541312e+00,-9.219933955654319391e+00,6.650211609232965948e+00
-1.202118169895649152e-01,-6.380490356130316343e+00,-1.879700085696816902e+00
1.659787616204733363e+00,-4.792535348623534475e+00,5.080999674104198505e+00
6.940984010227765344e-01,-7.069863210363662276e+00,7.395811211724078404e+00
-2.389515908178855508e+00,-7.386325638406964877e+00,3.877795716956741856e+00
1.532369127736122882e+00,-1.416638130973856713e+00,2.930200054205723603e+00
1.748893268027656767e+00,-4.331886913920977022e+00,9.563279720245843052e+00
-2.282850726410722952e+00,-6.575207184689491946e+00,-1.052924292404362916e+00
-8.325081924091786156e-01,-2.732928844977314586e+00,-2.753832846149212865e-01
-1.264046768147137678e+00,-8.388923456961837388e+00,8.913309777230807640e+00
8.289531190319107123e-01,-6.957509433971176271e+00,8.362487306344531746e+00
-5.037359010178381613e-01,-1.987850883517952472e+00,1.278940562043250573e+00
-2.016638459931350269e+00,-6.788486526167416990e+00,9.446807637190120843e+00
2.264140837475070167e-01,-8.111027827710820759e+00,8.627217377587518277e-01
-1.718540827211569200e+00,-6.441091448534860930e+00,-2.063258111118329907e+00
-2.543948219551144696e+00,-8.390748360346044876e+00,6.221411145491690498e+00
-1.023521308901740312e+00,-3.311389881838758598e+00,2.049959223372276096e+00
9.483912447782126831e-01,-6.521124972859557722e+00,-9.893886023886362402e-01
3.184171781326697315e-01,-8.024241964281074502e+00,4.391460219538277698e+00
-9.374792805645462135e-01,-2.787567332394272235e+00,-3.261990160083849122e-01
-2.212646908226911791e+00,-6.924614439931540133e+00,4.448719006653495178e+00
-2.440010345799837665e+00,-7.978206405056203820e+00,5.746082338266761624e+00
-1.564102981104304790e+00,-7.441552756958444981e+00,9.465989285597398606e+00
-1.909285070588140343e+00,-7.866223787799483169e+00,-2.937811779956018832e-01
-2.764918306858091590e+00,-9.539003719955859495e+00,8.183031078762617483e+00
-1.378266096121756767e+00,-4.156220814998399682e+00,4.368525389585284913e+00
1.420910250724126911e+00,-5.612748706163562140e+00,5.842393014082499114e+00
1.725705820396450374e+00,-3.171786808375721023e+00,7.437356068269406206e-01
2.447274010174080860e+00,-1.481443128576796608e+00,1.870780880964840298e+00
-2.358766109982790127e+00,-1.037581125561612616e+01,7.447433821445817337e+00
1.102461858160418640e+00,-6.312021608029236397e+00,4.511155096334594994e+00
-2.065880767575417054e-01,-1.058115039878346986e+00,3.244149792361473494e+00
-1.885104490324214899e+00,-6.264752228007072432e+00,7.666912191660415488e+00
-1.382880142867081830e+00,-5.199296197466529712e+00,6.649235737420757353e+00
-8.393503575286975771e-01,-3.018816940132035498e+00,3.168380867189233285e+00
-4.314203628760510112e-01,-7.873534891741222452e+00,-1.435708139113719861e+00
-1.654205111095817804e+00,-4.955744291393515688e+00,4.258739323118983400e+00
2.041635604112400859e+00,-2.911730519253752814e+00,1.415306272049903447e+00
3.735734562530426683e-02,-9.132078747701010357e+00,7.140665029150849996e+00
-1.990217664355754534e+00,-5.951993056415979311e+00,2.813396707688913256e-01
-1.053451335068921191e+00,-3.915334537849518792e+00,7.759620604348572925e+00
-2.833617237554668655e-01,-6.504365969291991512e+00,9.760387536746634396e+00
1.562621821098113983e+00,-4.935755073332753540e+00,3.502088166473418696e+00
-1.955012309694774686e+00,-6.612539004564649936e+00,8.950730356115993658e+00
5.859255128242877309e-01,-3.059080414249268465e+00,8.613147554885564716e+00
-2.648440192080945832e-01,-9.589348645600997756e+00,3.985921437601567252e+00
2.836628222827946577e-01,-8.212744597392745760e+00,9.210389912287903158e+00
2.941398816164948471e-01,-8.250015617653456701e+00,1.764200739520482619e+00
-1.626427856164434749e+00,-5.115267908254020668e+00,1.630555425954913762e+00
1.681812288605246675e+00,-1.811238721582188571e+00,3.292760221618678429e+00
-2.075723274819076813e+00,-6.084742110818001315e+00,-2.217653411739650693e-01
-9.622487429790587132e-01,-2.780709288068002216e+00,3.719363202880928143e-01
-1.744910878325965475e+00,-8.522785488175744106e+00,1.598678015383495632e+00
1.178015929773943204e+00,-5.415895855204464482e+00,5.761030360859031418e+00
-2.079143513704827750e+00,-6.456952457732256789e+00,3.124080451739268405e+00
-2.252289464200711855e+00,-6.336283358652839759e+00,-1.462956527670443041e+00
1.060251340734417624e+00,-2.137780313463801374e+00,4.993209542127814871e+00
-5.025325519912458017e-01,-1.747830383209795668e+00,1.716272227240138726e+00
1.798754670351309759e+00,-1.224767473521125583e+00,1.697755969179223889e+00
-8.134061513151519263e-01,-2.185639212150682908e+00,4.009119757059952383e-01
1.477823390721785257e+00,-1.458262007036691177e+00,-2.597709874271719177e-01
-1.496920546430243082e+00,-6.036264311095853152e+00,9.709436684496026260e+00
6.901425357612144262e-01,-3.316465220449877016e+00,9.296519068638149363e+00
2.404132031623148258e+00,-1.930148014113594046e+00,6.911353878191716094e-01
-1.623635112480501297e+00,-5.644677826058757120e+00,9.658527003574757686e+00
1.801726737482121310e+00,-2.695518623948515380e+00,6.254558012949812174e+00
1.127501011888849769e+00,-5.020732390258817013e+00,1.365534884579329367e+00
1.694971354235718319e+00,-6.988296074756529253e-01,7.325514088675985080e-01
1.676050450345714982e+00,-3.815867926584030290e+00,1.383168671631774815e+00
1.006114657678636837e+00,-6.563515311571605615e+00,8.611626744388232169e+00
8.165645429137443623e-01,-2.773571146109966801e+00,8.497542797573389706e+00
1.781889524739583286e-01,-8.581657787296913753e+00,3.135592073412990288e+00
-1.049104979192306164e+00,-7.972300851455630166e+00,-5.847305270210568784e-01
-1.419878023750573925e+00,-4.595249310483685790e+00,-8.098418214765193412e-02
-1.965802038199066182e+00,-6.561698379181007290e+00,2.129462391397346277e+00
-2.632224352854554694e-01,-9.623146629831355270e+00,3.117550576230534887e+00
-2.166031205179793362e-01,-8.084006058243399906e+00,9.398612143191339641e+00
-1.356288987362985310e+00,-7.897782980285596999e+00,9.191854090224747864e+00
-7.876334091211995014e-01,-2.690165706468229168e+00,9.604042407372599399e-01
1.680801557440874339e+00,-1.722065323388269231e+00,3.414409513389749851e+00
-1.207752028304688974e+00,-1.063367325945398001e+01,6.717870574843081144e+00
-9.830940284189496614e-01,-9.821901527593333014e+00,8.818150797531234986e+00
-9.280579360968461700e-01,-4.537192296875790731e+00,1.034938064062034258e+01
-2.871318043485657334e+00,-9.113533568288694653e+00,7.194589593404757011e+00
-1.168517407831218546e-01,-3.299835146068834657e+00,1.012866701711451611e+01
1.832096057540061773e+00,-3.177289221830276844e+00,7.466965849450188486e+00
2.747797633431615094e-01,-8.300573930729408190e+00,4.595887325368031462e+00
1.181684420708650318e+00,-5.267007546688011743e+00,1.547649627665576844e-01
-8.643303968937565696e-01,-7.438417149471309386e+00,-2.407980300588355771e+00
3.947080159654248188e-01,-8.192666754612313085e+00,7.120394272279938264e+00
-1.317588560495633443e+00,-4.675924617474247924e+00,9.247900592114103091e+00
2.013407470074122685e+00,-3.480937752616038772e+00,6.080697297264605616e+00
2.751855612267694040e-01,-2.280112128316195808e+00,6.757650712219525069e+00
-5.958090573773398013e-01,-3.202911686717267337e+00,9.860494184621806824e+00
8.579341992741046363e-02,-7.832293295815802026e+00,-1.785890958269853890e+00
1.319918353616138518e+00,-5.546363490250652895e+00,6.600905149614043843e+00
-2.693917518309854042e+00,-8.200143429905331516e+00,2.334861098807298863e+00
-2.247570258538225563e+00,-7.374988169182246089e+00,4.735147853239007887e+00
-8.207902538513275337e-01,-2.873962734710585387e+00,1.956678413431848007e+00
1.344298229015031598e+00,-5.234937994091635183e+00,2.122515919942200568e+00
-1.289223355660791936e+00,-4.708760337090771131e+00,1.041093004943997435e+01
2.208103782565138395e+00,-2.082567772621828794e+00,3.039265685825102148e-01
-1.656542689886412623e+00,-4.864896916221051804e+00,-9.228318300302120747e-01
8.288221899855164887e-01,-6.075174649177575326e+00,2.554827026255696687e+00
-1.336166581502939987e+00,-4.115072911744516837e+00,2.813706341973740255e+00
1.351336394298870092e+00,-5.111791929602038209e+00,2.925871285512698261e+00
2.285546134578316568e+00,-2.064826494713329907e+00,1.501553110098225785e+00
2.339934724677821265e-01,-8.498209026255517884e+00,4.794514840055575711e+00
3.992759716282721638e-01,-1.924523810167598992e+00,-4.878865837789531090e-01
-2.058605306797909873e-01,-9.801987467363966644e+00,8.681673661862177482e+00
-1.446683188388883767e+00,-4.397163468919359275e+00,-6.820229138602071917e-01
-1.633659470766021027e+00,-5.717348052597772678e+00,6.396224034964046012e+00
-2.196038331546462663e-01,-2.917198531875932588e+00,-1.055215835472649299e+00
-4.081364615787046457e-01,-1.094187788232537706e+01,7.998286351197285704e+00
-4.145036399536906613e-01,-7.057631269738728008e+00,-2.067523652344672502e+00
-8.825993608339994800e-01,-2.598000287734553382e+00,7.824168702638265138e+00
-1.169134060994292401e+00,-3.941513173033543538e+00,6.481691387844616514e+00
1.322419874670213824e+00,-6.063774514591349529e+00,9.911389624571807389e+00
1.986982766573140768e+00,-2.896596231250190723e+00,2.104771900731409406e+00
-2.682933334578457174e+00,-8.340190629725242388e+00,7.107050608832945926e+00
-1.523342088309340703e-01,-6.749797237347443968e+00,9.745123929215123937e+00
2.082898639266069107e+00,-2.617154317136012320e+00,9.374852278947171103e-01
8.100634383661561300e-01,-7.082698651503221754e+00,3.917798097285778880e+00
2.102601612884232640e+00,-2.604083665450354079e+00,6.983880701655519330e-01
2.435976457423966401e+00,-1.135638705405880744e+00,8.610088184955000390e-01
-2.494735641020555672e+00,-7.856185966043267577e+00,6.090113793634550632e+00
-2.730199825660708068e+00,-9.028537542071656929e+00,6.178326763281814848e+00
3.633990420018146095e-02,-1.077203436127971647e+00,3.347183682044366559e+00
1.702713863184899257e+00,-4.174917540187387033e+00,6.601547894650730441e+00
-2.110214623298850345e+00,-6.688624455645681088e+00,5.861116415444954875e+00
-2.346652752217443183e+00,-7.906869104078987576e+00,6.590655013592171763e+00
-2.250633321705695966e+00,-7.681873755089029920e+00,-4.879902716813351859e-01
-6.460928021798855170e-01,-2.179468449821235776e+00,6.199982445114205376e+00
6.143920848604913498e-01,-6.376257707721846302e+00,-1.084969374676431064e+00
-7.711632696381258700e-01,-2.770327093022639353e+00,4.727786360511086805e+00
-1.850443381345731941e+00,-6.108292729718935554e+00,9.037442335229805224e+00
2.070293095688215956e+00,-2.577697005838554656e+00,5.172611525076008299e+00
1.152938368849578676e+00,-5.690961939145315895e+00,7.581206009206969298e+00
1.252745830416787998e+00,-6.148900671627324677e+00,9.118822822517788751e+00
1.871465051653775191e+00,-1.291313760200452965e+00,1.744528176553004073e+00
1.236019837030185586e+00,-4.957389484664693313e+00,5.095024586519886434e+00
-2.092363597612056036e+00,-6.512833636680879223e+00,5.241641683631046433e+00
-2.997704747531476865e+00,-9.350807358641159084e+00,5.580290178105783205e+00
-9.587295900518902902e-01,-9.944538407738322761e+00,8.714286737013724249e+00
4.360024735474513635e-01,-3.998434812886439094e+00,-1.262958270423039542e+00
-5.374689893327739831e-01,-7.699419264817991326e+00,-2.067558409414418374e+00
-6.892294767204636408e-01,-2.193828776742166919e+00,1.527337354209495457e+00
2.488224928262861013e+00,-1.011356630957845670e+00,5.678446934054299788e-01
-1.948676533821489532e+00,-6.557829457241432181e+00,7.272942017695248396e+00
-8.579375113155585098e-01,-1.023546886107662068e+01,8.539328783707031079e+00
-2.432347305984394303e+00,-7.043827290199994096e+00,2.373786523800832438e+00
1.110606094739823746e+00,-5.303450925998026477e+00,3.445073518199249563e+00
7.460894100454766864e-01,-7.019624265138354247e+00,1.386279998006547221e+00
-2.201083032769258541e+00,-7.274202472789183638e+00,8.890688695728659496e+00
-5.163235712588065685e-01,-1.054504886803034580e+01,8.094093239407303741e+00
5.774004155470063848e-01,-3.275955968268959406e+00,9.273551318812174316e+00
-1.768330309949234458e+00,-7.541492811537077401e+00,-1.750981217670572132e+00
-1.217713955137278870e+00,-5.022211179196644615e+00,1.014947859481389791e+01
-8.260606169945730048e-01,-5.012655445868648307e+00,1.004760331386873773e+01
1.432041760954239740e+00,-4.672675542363860401e+00,5.008551810239870505e+00
1.000386888186086232e+00,-5.706145136292510855e+00,3.524711938868366090e+00
1.403190410724814541e+00,-4.858945861492090401e+00,-6.822468260661285200e-01
-9.499481129248952271e-01,-2.834859986652089159e+00,7.820968929832946559e-01
-1.396920737375127564e+00,-7.017943183569533616e+00,9.345358052573578433e+00
-9.048895694789313437e-02,-9.478939215462341750e+00,4.595829350056759743e+00
8.251663017098778141e-01,-7.181195346544199332e+00,4.187243160522005070e+00
3.043527576911760346e-01,-7.477436345494078651e+00,-2.309651239162601843e+00
-1.166148636668917549e+00,-3.866494756314745818e+00,7.725641426368679454e+00
-6.881176025363544557e-01,-3.004104164405613009e+00,9.833332348802734657e+00
1.751238981645415027e+00,-4.215727413317604366e+00,2.164121086315207165e+00
-1.511020799515403912e+00,-4.592609349578308908e+00,1.983911902293797214e+00
1.638166546566489856e+00,-1.835125968809199870e+00,3.701260023905349694e+00
-2.590299391567756793e+00,-7.890047879341926418e+00,5.678809151725448423e+00
-2.425544685252312593e+00,-8.023185719407074146e+00,8.322594840918064563e+00
-3.899150500950266940e-01,-7.365234869598040746e+00,-2.345450371617577634e+00
-5.093640607494895889e-01,-1.593325177051961861e+00,3.526429130557582781e+00
1.008136766756889235e+00,-6.062255231600032879e+00,5.994716486285472712e+00
-1.796072579205133968e+00,-9.432952458791790562e+00,3.965420385373770173e+00
-1.682190404593798760e+00,-5.625771399977955944e+00,3.452068673232932650e+00
-4.045769927749060524e-01,-1.131784381126837769e+00,8.996692722216603766e-01
1.416449614780067368e+00,-4.450187918716948410e+00,-5.298844802354537586e-01
1.960337051783340445e-01,-8.895150824783110366e+00,6.371997527228233871e+00
8.362212516828591014e-01,-6.634299001875437085e+00,9.984568948121976817e-01
-2.535983448867810353e+00,-9.431435783593599353e+00,5.319063811772057448e+00
-1.193084633555441670e-01,-9.332159214901581734e+00,6.598829712293842853e+00
9.671919053940889466e-01,-6.728224950664415616e+00,6.824508862290175060e+00
1.427174613154766680e+00,-1.694465389477258555e+00,3.377251618181465798e+00
9.730240604440498764e-01,-6.025519806727649197e+00,-5.526004608600981749e-01
-1.319304232094148155e+00,-3.444416943115260032e+00,3.385830892242303047e+00
-1.885067601613414023e+00,-5.440735147967033392e+00,-4.390816923805441196e-01
-1.525773550919709010e+00,-5.034159083061623186e+00,8.162393234925056973e+00
-2.012610230490976093e+00,-5.977576952802360566e+00,-6.062943613433255940e-01
8.096191229920017829e-01,-6.048157305579684007e+00,3.666391191490649959e+00
-2.091887902322445036e+00,-6.665518483463922728e+00,4.846238605858547821e+00
1.552284124100631990e+00,-4.638607113853552733e+00,6.565594820778963836e+00
-2.670853594370481976e-01,-4.783903693019587955e+00,1.015813242609947231e+01
1.896529799520004778e+00,-4.026056676167942605e+00,8.306444245584081898e+00
-8.120474137715290031e-01,-2.884119096232778290e+00,8.491571057511949405e+00
-7.881014906723735614e-01,-2.974097140805841644e+00,8.994923246816288298e+00
-1.650037805359178877e+00,-6.852623237247649435e+00,9.515695998083787188e+00
1.159133888884303021e+00,-1.430230877665210842e+00,-2.858476635751507899e-01
1.901904922108115681e+00,-2.027931610136174623e+00,-4.497234409458225612e-01
-4.123023892035305171e-01,-8.684533107760749715e+00,1.578059836023414375e-01
-1.381636836066430840e+00,-4.462303646708914329e+00,8.775548971787161534e+00
-1.849165890683894586e+00,-5.269565050287111418e+00,2.838171101416977038e+00
-2.141133420765669815e+00,-8.916963648791329078e+00,2.529005256935263457e+00
-1.186741474627795112e+00,-9.145307535559124901e+00,8.815959877802315603e+00
-6.375609172262018953e-01,-4.229879439572282074e+00,-1.349889539407925554e+00
4.332588413216109831e-03,-8.616102319495913875e+00,-3.619803082704852182e-01
5.981518909884963042e-01,-3.116143874811402537e+00,8.685251327424332146e+00
-2.009113158326691906e+00,-6.352843290617438576e+00,3.225974591352092524e+00
-2.737963869338589262e+00,-7.790963578310950766e+00,1.778914197365088379e+00
-1.685677073732148035e+00,-5.197731795752710937e+00,1.508635712705284293e+00
4.160891914794468960e-01,-2.145142117307373475e+00,6.377734907662857111e+00
-7.738987082272819062e-01,-2.889296354237733677e+00,8.784844684426195371e+00
-2.673953379499839578e+00,-1.041353081469719655e+01,7.472168207356421732e+00
1.571277777993006275e+00,-1.818616841996181899e+00,3.073980568194743412e+00
-1.165931661408879050e+00,-1.020011926939856295e+01,5.568318205340777816e+00
2.114000891523324377e+00,-2.017652878647524961e+00,1.687936426104490906e+00
-8.936957882024286759e-01,-5.461620356735415349e+00,-1.819768857009983254e+00
-1.910713308974560487e+00,-1.007300736909221861e+01,6.283952312440096222e+00
1.667025532059837278e+00,-3.886991771165355214e+00,9.673498311849433762e+00
5.475472624540418387e-01,-7.814290404248984245e+00,7.424428565125618995e+00
1.183554103332089547e+00,-5.792977356102009701e+00,6.187584198945551783e+00
-1.580085672823153375e+00,-5.198646242454906918e+00,4.535332969796710856e+00
1.613369552188992140e+00,-4.152584835187784762e+00,1.761705971746594823e+00
7.343708955516782266e-01,-6.518321069326956874e+00,-1.038865520685516575e-01
-1.232971642894187925e+00,-3.932843561956989920e+00,1.710373599264828348e-01
1.160094246347186608e+00,-2.684339903471761435e+00,7.319319177498193163e+00
-1.174152940063581674e-01,-5.274493535691732404e+00,1.018408970687648640e+01
