1.650324253394793939e+00,2.950123337820118596e+00,-1.505071875350529886e-01
3.074363559373825883e+00,4.788492649643640853e+00,-2.714291043824625493e+00
3.274188452476650912e+00,5.171110251618439513e+00,3.137524353853979320e-02
1.051792820061975942e+00,3.974320895332458026e+00,-1.258548510870882708e+00
1.494206977204498132e+00,4.436534104878640805e-02,-1.496446490210687985e+00
1.115264679298313633e+00,1.625471974034663036e+00,9.939260367437370569e-02
2.138110096170751095e+00,5.443799784985418277e+00,-2.777635411518639241e+00
2.520885950782701279e+00,6.042505584170196897e-01,1.684233343355570511e+00
4.184776029837729894e+00,1.484500840858805182e+00,2.245344284835338655e+00
1.091988735220829509e+00,5.990850934460307808e-01,5.072206246102178850e-01
1.053463330540689080e+00,1.854874055467380600e+00,-8.189517640349293012e-03
3.021779716386407966e+00,3.056060331866021773e+00,7.238710496479906498e-01
4.336443580615482851e+00,2.831612423483275354e+00,-8.489869828119296358e-01
3.701372898449138304e+00,2.087363696119143963e+00,-9.646123629343392736e-01
5.606620061103432029e+00,4.158587240627841020e+00,-4.665381914265477881e-01
1.641366196015267009e+00,1.233412835075035630e-01,-1.662796380659449902e+00
5.717469402825535063e+00,4.057410084865823663e+00,-3.081532549283303446e-01
4.442044471397043282e+00,9.138366675167977071e-01,2.109627365199691962e+00
1.704377011261550390e+00,6.601260896551637281e+00,-2.014636289626630994e+00
5.154696376521795464e+00,6.055273595191611236e+00,1.008216645802629152e+00
4.393800946673569463e+00,5.941340384662584739e+00,5.032026314081700091e-01
4.836954432776925938e-01,3.443613378116572865e-01,-6.391935793008055589e-01
1.728116400108898443e+00,2.288353594974692484e+00,1.324191289768257007e-01
3.651767207288258543e+00,2.285971097105004901e+00,-1.230786382458560979e+00
1.397193078454183945e+00,4.749201215763931394e+00,-1.845049852610983976e+00
3.931495718863283972e+00,-1.450681472018792162e-01,2.426001505737923392e+00
1.320937454149812007e+00,4.342715401505204298e+00,-1.607852826675711055e+00
2.468952226017328666e+00,-3.391412332787473449e-01,-7.497103040543456887e-01
4.515140600815085392e+00,5.429874058708894502e-01,2.101618495782945573e+00
2.380402480107095542e+00,-2.642817382236394286e-01,-7.729169480720029517e-01
3.048849208072544670e+00,-5.924761228079851172e-01,-5.301217950499977072e-02
5.793709366495469304e+00,3.277604352385359743e+00,6.758356866067719015e-02
2.924586837321528243e+00,1.297834260069731460e+00,-1.103951012430477663e+00
1.603628398343476480e+00,8.822212514326374100e-01,-1.933521680716147051e+00
1.892447168844785699e+00,1.594510383333996639e+00,5.900188612164827262e-01
4.911638298324636942e+00,2.306327351136183701e+00,-1.333303555237235483e-01
3.007478549099252163e+00,3.325511580304352233e+00,-2.020095369076336134e+00
1.554456340945915782e+00,7.025168674527894064e-01,8.619438881070057290e-01
2.941267325111468267e+00,1.574359743210381080e+00,1.493096178736451618e+00
1.715595030786138508e+00,-1.691190840118080366e-02,1.190706082103713426e+00
4.016222271109747055e+00,4.958460082031967420e-01,1.353958118504684505e-01
1.061354163418621210e+00,2.813400206394562009e+00,-1.393861198312702276e+00
4.413164454505423606e+00,1.910387871422170925e+00,2.284337260654321078e+00
5.480043006905622960e+00,5.736711584098765471e+00,-1.230950489429417649e+00
1.149688770810476601e+00,2.897244379995654318e-01,-1.412088572962043820e+00
4.757336063801097303e+00,5.955626008486030187e+00,-1.715459211953668239e+00
5.452683286101545512e+00,3.304458716278761976e+00,8.983190863098003964e-01
2.255526782727205859e+00,3.306723569758697412e+00,1.480728132438565714e-01
3.917165575844336001e+00,3.664871432830584475e+00,1.289419447776677385e+00
3.298327191570239680e+00,7.009786195345478754e-01,-5.065658959318489751e-01
5.469329477698651409e+00,2.727682620711712413e+00,8.865570501907906742e-01
4.366191700150983124e+00,-4.688524094524593178e-01,1.862440226520125419e+00
3.085904828854289406e+00,5.219249487426978362e+00,-2.833974803676347687e+00
2.524434135614897379e+00,1.982278748980047800e-01,-8.673835601981289001e-01
5.750767395882582456e+00,4.204504049674589794e+00,-4.551645890193822264e-01
1.539239771343342555e+00,5.192029025727534552e+00,-1.277205551471439327e+00
2.144899432975481357e+00,2.263831592928610359e+00,6.837789458315948199e-01
3.351630098236011879e+00,3.386890676305759573e+00,-1.772369505607617191e+00
2.068419377404600024e+00,2.637629301969323770e+00,-2.469856436319285642e+00
4.121122615822203628e+00,5.366133579649043917e+00,5.809441800147228108e-01
3.243990713490962019e+00,5.195253296979648105e+00,-1.038504895479731155e-01
1.502764794808923332e+00,1.312178591418347917e+00,-2.033356241794516350e+00
1.930589723482935893e+00,4.476427663573877780e+00,-6.869378992932045902e-01
4.866028401222260991e-01,1.260001191472865711e+00,-2.625481361400784919e-01
4.502107162884916747e+00,-2.729318824522178888e-01,9.698357637720096402e-01
5.189240448059441846e+00,2.422162683045986586e+00,1.150416719224721884e+00
2.867198399029412315e+00,-2.728251057674139779e-01,1.561219120142291583e+00
4.083645076628354076e+00,3.977318218090999391e-01,2.123391998323541641e-01
7.183487169801918704e-01,2.724234517279132683e-01,-9.146521146097080779e-01
3.982022092413647574e+00,9.833693399837751814e-01,2.571956839289371910e+00
6.108829227716532806e+00,6.020376795142229120e+00,-4.131839888336041322e-01
4.087606549742451634e+00,1.459593828153784800e+00,2.396202752637859312e+00
4.888091831013701594e+00,1.637601888500547664e+00,1.329876760643378952e-01
4.851567062596614299e+00,2.816128077464130630e+00,1.464760796316020519e+00
3.045956007998873005e+00,5.392363317932051814e+00,-3.692290435617324174e-01
4.986772408212933883e+00,4.984924984574125695e+00,-1.172768422115838982e+00
2.096646805542746961e+00,-7.104502201965251507e-01,-5.787116254442814522e-01
1.390153562955667166e+00,3.673793414191406370e+00,-1.749657637545588784e+00
7.669654043504897656e-01,1.447001717804477172e+00,-9.692958672251286156e-01
3.613760282817522818e+00,2.517596623102815290e+00,-1.181225713261013111e+00
4.821970069104917656e+00,3.777513893804015588e+00,-7.802148898085494721e-01
4.391220461972721090e+00,4.667409630631257578e+00,-1.561971290841851712e+00
7.767671180027596600e-01,-9.040760790309573802e-02,4.919874966225576962e-01
2.862307057767505380e+00,4.333760175800504655e+00,1.985295252316514603e-01
4.749347747422970833e+00,1.072124682635443138e+00,1.779541634925955629e+00
3.714788659823482053e+00,-1.444106885566804055e-01,2.495022547972803206e+00
3.467305098330010438e+00,6.540983447812323881e+00,-8.946262655981227496e-01
2.135861678489027415e+00,6.205526332847310478e+00,-2.606411217109077860e+00
2.148525203186550936e+00,6.502915797625980154e+00,-1.517385321689220579e+00
1.837132981243904783e+00,5.048270832110518747e+00,-2.441097160694311263e+00
4.128313891660816637e+00,-7.557584725716964824e-01,1.054598276962714243e+00
2.159059774815409227e+00,2.843112890329423603e+00,2.481781782532764546e-01
5.388494137963082409e+00,5.817909123165613039e+00,9.368403164833508656e-01
6.329687254058784518e+00,5.101360374851294566e+00,-2.517205599840172114e-01
1.830038822016887945e+00,5.327899764571022434e-01,1.068066913651013250e+00
3.380695862186694711e+00,6.535922594654444140e+00,-8.285940846856565400e-01
4.826452066718553091e+00,5.572254516465701357e+00,-1.846885454652545056e+00
1.370403548855410936e+00,4.745567368629414418e+00,-1.270980484476486705e+00
4.649351437902504713e+00,3.147001693249857901e+00,1.863842318799846964e+00
4.661119351917465181e+00,3.477643280240308332e+00,1.857637430967810088e+00
1.216354916261850994e+00,2.935674306493583630e-01,-1.537820561407159614e+00
5.893732770790511388e+00,6.092461406683311154e+00,-4.210034329950715914e-01
4.099586581811605512e+00,2.703551668866174484e+00,-9.225446581399412427e-01
2.375824806526380062e+00,6.420257498392919260e+00,-2.218461349699448970e+00
3.746045175967586793e+00,4.946317318625004233e+00,4.804786972330202244e-01
4.821764254881405698e+00,5.340739244008418929e+00,-1.650289219416355202e+00
4.136277157655221082e+00,4.723571492459425869e+00,-1.782475722240577820e+00
3.003445379689357431e+00,1.788392753886995479e+00,1.446128123867776560e+00
2.494946940855812922e+00,2.640044083222561788e+00,-2.085059312510780138e+00
2.363655835538961192e+00,6.086090874322706235e+00,-1.209803830655461487e+00
3.164999488988674781e+00,3.117161441753088624e+00,-1.901801548860140967e+00
2.834514531875265142e+00,1.391601940416530070e+00,-1.216153789797810969e+00
3.786133203058849706e+00,5.207605157267959584e+00,3.758297882739106699e-01
2.943311040013180335e+00,3.582964691647548161e+00,-2.318977454448760245e+00
6.853605503240078889e-01,2.801790113827868467e+00,-7.350582760528371340e-01
2.430235533580697993e+00,1.523860352378489713e+00,-1.653844613442976508e+00
4.137697389003625048e+00,-5.572479917206580452e-02,4.738309948201843702e-01
1.279672801363174184e+00,4.792490945849170458e+00,-1.292001239443925975e+00
4.278837825271637030e+00,1.070130208555212376e-01,2.315767510120233297e+00
1.499254957048518078e+00,-2.009868550367406859e-01,3.702557436485828801e-01
4.257561007524904184e+00,5.801662383593968464e+00,4.438923635547825097e-01
4.826434273692502330e+00,3.499161561760889327e+00,1.556279781916907190e+00
1.841043134724792640e+00,4.501333410546797253e+00,-6.583912523967643260e-01
4.263389530203578914e+00,4.267751047492945204e+00,1.070763871502198539e+00
1.616127485641558614e+00,-1.400256959053926276e-01,1.067743184088510544e+00
3.827042780931084298e+00,5.378496999610560714e+00,3.685318145121180278e-01
4.229853014796260524e+00,5.167669031269644941e-01,2.327947600981424559e-01
3.540666765306049069e+00,4.121892676762955787e+00,-1.979994174234521065e+00
1.065359245203321370e+00,1.106070342513478577e+00,3.454215276557845993e-01
4.002753314055842893e+00,6.388668714114520419e+00,-9.462234445342859734e-01
2.316065518392428579e+00,1.660248242466103141e+00,-1.705723997480818932e+00
2.339857780890168826e+00,5.213145015193565435e+00,-7.247548626290144513e-01
4.316256619899624170e+00,-4.281163814491918962e-01,1.898823645105727875e+00
2.384638362195120820e+00,1.412950613996185822e+00,1.140086733281588049e+00
5.254178192059598018e+00,5.635353553717453501e+00,-1.372873360507207874e+00
3.371229204560149295e+00,7.706405790585034721e-01,-5.145804295940284989e-01
3.809778640937908190e+00,3.477147761862229736e+00,1.235775577855244611e+00
3.917232698476412978e+00,6.379888158775348650e+00,-8.147864926109903427e-01
4.594872110299674794e+00,6.169273594211747813e+00,4.801473147219487148e-01
9.771956282173575037e-01,-5.236026332527662364e-01,-1.344255619033959182e+00
5.906327413104402346e+00,3.996864079093057409e+00,3.351062574415168416e-01
6.005753760597351665e+00,3.810881037473321076e+00,1.545783440828852467e-02
3.930310185395205380e+00,-3.795307557662820352e-01,1.965421837714675490e+00
3.847899796367690861e+00,3.078695095669675141e-01,1.169470552738472585e-01
8.424083107580238039e-01,2.323013825890235307e+00,-1.027534528814652903e+00
3.785580285531958022e+00,3.397569012269327615e+00,-1.514724721556575115e+00
3.530004281568607016e+00,6.041256544366117032e-01,-3.764498366618868053e-01
2.343457561910314180e+00,6.448291803653457777e+00,-1.825821182324653069e+00
2.602407404481423825e+00,5.046474498531793529e+00,-4.942138958127951232e-01
3.267862123830082233e+00,-8.278155607703091556e-02,2.050494987720269169e+00
1.492015614326011708e+00,-5.468656735772839950e-01,-5.735310110748569334e-01
9.938591728040385709e-01,2.287966797840505162e+00,-3.779292760744675794e-01
4.978148141370637880e+00,2.243066078351024117e+00,1.434226002990996340e+00
4.316253695818172531e+00,1.672684630403957318e+00,2.313990494559697630e+00
3.010456342229780979e+00,5.909335718487870537e+00,-5.036448908549319148e-01
2.344759478147933063e+00,4.226656424363086195e+00,-2.609459906343937763e-01
5.108498758977138010e+00,-1.518808565283056300e-01,1.303824457571054696e+00
3.994638318743470862e+00,1.598022003785164680e+00,-3.468954676685765404e-01
5.604012386140888147e+00,2.819837952401207382e+00,2.600255508271122062e-01
3.211720302075794287e+00,1.188349164690651882e+00,1.894463064176520328e+00
2.036976664069582998e+00,5.219641981718239343e+00,-2.589409642234544950e+00
5.047301073824352002e+00,5.206511683560421488e+00,1.238997342265026669e+00
5.434382311480266736e+00,3.309813823697755453e+00,7.018548427151672930e-01
3.978583799640473817e+00,1.271051284280384941e+00,-3.427152409207744332e-01
3.474726813432227335e+00,6.171220572458909537e+00,-1.914835519752409843e+00
3.748392627979451497e+00,6.437735064890207637e-01,-1.304507095163347230e-01
2.427506705480920068e+00,4.549095249510583194e+00,-2.975495891153963512e+00
4.571963505920606963e+00,3.503599147252092649e+00,1.813707712046766618e+00
1.159800759741453247e+00,2.095633887081676860e+00,-1.425216664918705356e-01
1.872857197827586084e+00,-5.171575841110505056e-01,-4.840036764276898218e-01
3.399761004173682544e+00,5.116905303281281014e+00,-2.641928097562305400e+00
4.891779883938232487e+00,5.455374076211262135e+00,-1.576098146874718831e+00
5.161774831870395985e+00,3.585295208464846506e-01,1.143815231840829449e+00
3.273641778423391102e+00,2.847087674288209413e+00,-1.447279766856021777e+00
5.008613142913941552e+00,3.113797538312656155e+00,-4.763611049536961572e-01
3.863729880696121111e+00,2.794186951123483365e+00,1.620639225935646799e+00
4.385445365121124262e+00,-4.610222802780650220e-01,1.888182545675294310e+00
3.503079557187803950e+00,1.030900827934691621e+00,-5.308288335302449035e-01
2.355421895295417123e+00,4.808488011565695608e+00,-5.315023161992277201e-01
2.556445210310353211e+00,5.482590930719234201e+00,-3.268130625992244020e+00
2.517687381902155241e+00,3.794587842279324885e+00,-2.775370305570520113e+00
3.821132997182746571e+00,-4.391767215572618399e-01,1.535873721573795647e+00
3.122373997243707677e+00,4.946455008426141831e+00,-2.733416895117174228e+00
3.066948594037154141e+00,1.512450117431681340e+00,1.546833519747423002e+00
4.252058396886556402e+00,1.160025135765794690e+00,2.413670416452100120e+00
5.745314203220969418e+00,4.596511858992442079e+00,-5.393263598000307413e-01
3.868644049519242234e+00,7.963891771559566957e-01,-2.819528773680684552e-01
3.918859259152570829e+00,4.228810957340290777e+00,8.856582957885760221e-01
3.876320867806190673e+00,6.178825437108433072e-02,2.900973539213595132e+00
1.308588521604622246e+00,2.009970243326868911e+00,-1.630391146103447708e+00
2.686877019864077898e+00,1.783248448331279601e+00,1.145579745902385316e+00
3.700222556936377138e+00,6.110889652031058716e+00,-2.143109093418450684e+00
1.340161208122828462e+00,5.024859398695727286e+00,-1.417255264771898116e+00
2.332575348045510477e+00,3.465432718870427031e+00,-2.618988110042628659e+00
3.028903182992559895e+00,4.476355888738174471e+00,-2.602512905021439948e+00
1.386468172876322180e+00,3.579387414374501475e+00,-5.441086167973210319e-01
2.006621445244573643e+00,5.215045692246410347e+00,-2.481853998310726617e+00
4.101687905654294752e+00,2.297081876779490717e+00,-7.640849778112049906e-01
6.434906684586987780e+00,5.778849879455340677e+00,-4.073982830759213525e-01
2.322188296003012464e+00,5.013082756457212241e+00,-6.705591826720590509e-01
4.605430556588896884e+00,-5.093432780786119052e-01,1.072074753785881907e+00
1.409706913627029712e+00,5.790319499027153372e-01,-1.817677446419074361e+00
1.889070467625089789e+00,3.912122960659980109e+00,-3.645632430240248745e-01
2.092490577129669127e+00,-3.103008968915600407e-01,5.734611740951287562e-01
4.834924464505808039e+00,3.034601362756026433e+00,1.636011053118886061e+00
5.058191041768584029e+00,-1.188588191860751042e-02,1.308984958961523226e+00
2.771684588454088161e+00,3.500904454637588703e+00,-2.285547747260790352e+00
1.836775120320014221e+00,5.153253829725557011e+00,-2.469816472061407087e+00
3.788259563916947847e+00,5.100426376484865187e+00,4.056354243180150809e-01
4.294770879134707897e+00,1.705375507868290175e+00,2.310601700266366798e+00
4.230161773262591574e+00,2.683418417769122488e+00,-7.560876630547346267e-01
1.293165906931942333e+00,-4.745610507356084473e-01,-4.883363372407492631e-01
2.217068324542724067e+00,2.141565195818503575e+00,5.963314685295076911e-01
3.252987021981229354e+00,3.208265073404759526e+00,-1.766777063822577265e+00
3.440452429492277808e+00,-6.585284627337451013e-01,4.877473535679018868e-01
3.580069718961823355e+00,-5.971188997096968931e-01,1.092074568127212153e+00
5.644710081992526440e+00,5.072776117106760019e+00,-7.909113565950598446e-01
3.979685872358865506e+00,4.762827527245790726e+00,-1.963789659877121618e+00
5.516448974335861344e+00,6.301514342535233126e+00,8.177076906536991929e-01
5.674467884730828970e+00,2.897732522559938406e+00,4.970507270917024489e-01
8.210660897556130156e-01,-2.923380072767649968e-02,6.204095909491695870e-01
4.154017678067261521e+00,3.963239115155734016e+00,1.258879250484846724e+00
2.923746067598511189e+00,3.892922482845698973e+00,3.249622618716535571e-01
3.788974937209136584e+00,-2.230912555213248882e-01,1.956820764348501385e+00
2.700658415433907056e+00,4.157273127684172564e+00,1.252187997079289850e-01
3.034648250230508104e+00,-8.286453257992501542e-02,2.255529823376798415e+00
5.840179948165787671e+00,6.223095836400172942e+00,3.145548030977172727e-01
9.418453186322364168e-01,1.316125680011675847e+00,-1.226027038259308810e+00
5.198548985090324592e+00,3.325511533602963699e+00,-2.822256765386670918e-01
1.044370788680471618e+00,4.085972814586841473e+00,-1.175749385520234336e+00
4.207784234283982627e+00,-4.532048148849661673e-01,2.134300161115969097e+00
2.743976463761017115e+00,4.450579387733156089e+00,-1.216407472051617145e-01
2.535484619046393107e+00,4.646656221389721786e+00,-3.053544554833583113e+00
1.980831367711612501e+00,1.396708697579201353e+00,9.404002333391991986e-01
9.775011283795299599e-01,-5.337186411986184487e-01,-1.378169951686211592e+00
5.084753862920947221e+00,6.053565378195893132e+00,-1.076746913765719071e+00
1.998856235174497398e+00,1.590965038819769584e+00,-1.971193477007124883e+00
4.440858326489358632e+00,6.298469838402184884e+00,-8.969369193888884206e-01
2.243027768858196769e+00,-2.825220613971531902e-01,8.308541824379302998e-01
4.010195651562043828e+00,3.916472494407074567e+00,-1.562884966053480484e+00
1.593663546413397469e+00,-3.526125243524373953e-01,-1.269005672859682132e+00
2.907487784613449033e+00,6.463549675977121822e+00,-9.281154215024572940e-01
5.382857922926830518e+00,2.718038208626096353e+00,-3.225453802677064052e-02
2.153236314603161894e+00,-7.321963545051459743e-01,-4.904630711239980068e-01
2.526146667711189675e+00,5.421257400563009199e+00,-3.117836906917513584e+00
5.878281195164211326e+00,4.321260364330725245e+00,2.290635708031352469e-01
4.542726252983915636e+00,-6.075067746334238405e-01,1.808318576254649646e+00
2.245310393277907934e+00,5.340279357716618769e+00,-2.822118010985341208e+00
1.578744862288634865e+00,3.977264475389085341e+00,-1.976643096133881228e+00
5.279305602540209641e+00,5.337046176045168622e+00,1.024928478347817640e+00
3.722173388868979860e+00,1.463005259917002254e+00,2.164929637631767712e+00
2.543742481799050825e+00,3.492924727769526339e+00,-2.454327812756696314e+00
3.903831291092975775e+00,-1.220801706951047533e-01,2.740299187058709229e+00
1.506411362545081234e+00,-6.642792288310560567e-01,-8.906829418915350738e-01
4.923157785717054757e+00,5.172478939109743656e-01,8.471620488972796403e-01
3.567279206884097942e+00,4.799458159727993944e+00,-2.341658346160248705e+00
3.097988491581424864e+00,4.121237179334124257e+00,4.010600519573284672e-01
5.434985248220808529e+00,5.234387491159099071e+00,9.215217611040957824e-01
3.387694618982726613e+00,-1.184527826655000678e-02,-1.382000086925251892e-01
1.935787980215256887e+00,6.554564745242664969e+00,-1.657000690213916050e+00
4.321842020890655611e+00,-2.138146744912946401e-02,5.428341487908225904e-01
3.633618185184969374e+00,4.118018125430432441e+00,7.127193094370517512e-01
6.301696153674886780e+00,5.028811558034138152e+00,-1.809147053604744926e-01
1.336655492787776955e+00,1.952438293367960709e-01,9.429703578838513067e-01
2.737384605397765736e+00,3.922121303261735914e+00,2.052169681556443026e-01
5.075649063056063781e+00,6.305232906826988781e+00,-1.787973295882115121e-01
5.566810548974721051e+00,6.483053447814592474e+00,7.302298795715976842e-01
3.085718632988229349e+00,5.109913993505573515e+00,-1.184863180650350817e-01
3.564901691995286726e+00,1.694351604992292870e+00,-7.897911249705161785e-01
3.170939476227059295e+00,-3.194468047567879387e-01,-8.197578331130771223e-02
2.001673751676414703e+00,3.619543012364973222e+00,-1.847772491009150586e-01
4.491966314984497721e+00,9.388777051328729417e-01,2.125692661550677265e+00
1.531692292725232774e+00,1.455296252096220933e+00,4.204629459740996111e-01
4.200170008612390760e+00,9.543235342754754491e-01,2.270925915152210095e+00
1.073157952505395807e+00,3.175556379944563634e+00,-1.325056597562032756e+00
3.474820273842290863e+00,1.570157415212964702e+00,-8.923485927373497884e-01
2.955487538684577142e+00,6.211472791569904395e+00,-7.287130970672421881e-01
1.394099861738676838e+00,1.380771146439617292e+00,-1.603331089620837258e+00
1.673443778339769095e+00,7.170890185660439009e-01,-1.821408365204835400e+00
2.457840950380834499e+00,3.924587334821481921e+00,-2.841189721817650948e+00
2.640983209933621456e+00,6.059109048840110034e+00,-9.367992416204414807e-01
4.497976650990052505e+00,3.789015217191644247e+00,1.553379792128662951e+00
4.164009091042823130e+00,1.332058660267101402e+00,-1.569584738060246787e-01
4.522147122196732205e+00,4.695169017277360801e+00,-1.657491244668140462e+00
3.648070448024278267e+00,6.798495138364261114e-01,-2.695817022760230164e-01
5.618009393106880189e+00,2.177921688513217990e+00,5.224114967015036637e-01
3.828933489852419658e+00,4.912569520131271794e+00,4.890796360775589435e-01
4.111816848191350182e+00,2.288057610949573828e+00,-7.071237366030798110e-01
2.231572261828225212e+00,2.100165478356829762e+00,8.072582003060106981e-01
2.682353963200690750e+00,4.422785780825496005e+00,-1.097642116384814348e-01
1.807923711031116820e+00,5.934208589961203373e+00,-2.112648809591306964e+00
2.903554538825576348e+00,3.207651793590730271e+00,-2.145752451035511044e+00
4.474621140590179458e+00,4.916591989206486324e-01,5.269949762444466890e-01
1.597658918824989671e+00,-6.107184352930065119e-01,-7.089654912958309740e-01
8.962653474550298371e-01,3.340072975758589191e+00,-8.207657448965705038e-01
1.294486791748067800e+00,5.158668546332563665e+00,-1.773542755230584245e+00
3.949131937905086875e+00,-3.539469970423133049e-01,2.066041139330580201e+00
1.253531460374849305e+00,3.314971455405431033e+00,-1.587802263889385168e+00
1.779653453543103003e+00,7.928524707412940020e-02,-1.527706152672402506e+00
1.831156477936560334e+00,7.900336532562726166e-01,1.087618152188508658e+00
5.324702690969277397e-01,-3.697783361972979688e-02,-7.566277266660818013e-01
3.100806990738297575e+00,3.844770770300337759e+00,-2.210022517383989804e+00
3.320435063557204636e+00,3.086750481036695692e+00,-1.757254555413008568e+00
2.894125470267802314e+00,4.150318176074520693e+00,1.887186775809983619e-01
5.096141658735206192e+00,9.504827559959679040e-02,1.278256567131536237e+00
4.784312246787022715e+00,-1.651117544900426171e-01,1.569502349849911216e+00
4.564779364309869081e+00,5.335831201526709755e+00,-1.862971457539106312e+00
1.930992770907123068e+00,5.747585646847279683e-01,1.387764501550981855e+00
3.638534749842652349e-01,6.233123510279090645e-02,2.631643652470095351e-01
1.810978868941224285e+00,7.212599634092499157e-01,1.156767873769117605e+00
2.170223237232237201e-01,6.182760901984641483e-02,-3.096105797721793174e-01
1.017718562835890461e+00,3.894802268428302905e-01,-1.300389324783582934e+00
1.995299638183630986e+00,1.220015670273543462e-01,-1.318514646372953569e+00
4.810846667047240288e+00,4.209791289291388239e+00,1.628882716318698742e+00
5.273270303614912891e+00,6.266522565097133679e+00,-8.052774871592731365e-02
4.360481319281361401e+00,6.466576696933647561e+00,1.120584829467762417e-01
1.704512862522423289e+00,5.407416245764321339e+00,-1.251577619760257498e+00
6.974294980998253513e-01,-1.769436311564591691e-01,-8.004152566487892024e-04
4.603482074277071234e+00,1.538307361163711029e+00,6.163010093606133277e-02
4.546392727581704207e+00,3.591011007574873126e+00,-8.956102940629531162e-01
4.814468388796910858e+00,3.452724973741218228e+00,-7.213470601532147031e-01
2.164447431480201800e+00,5.428502466496727408e+00,-2.576127848685507260e+00
6.141890610740320611e+00,5.667086019048262813e+00,-5.263838848932358289e-02
6.311381693751532573e+00,5.126513236790211536e+00,-3.482663840742581396e-01
3.530561393862884922e-01,1.277379142226184427e+00,-3.141442418482520149e-01
3.942419675806889234e+00,1.078539833566611428e+00,2.529512139432016138e+00
5.788527292130964064e+00,5.444433853794410361e+00,4.428268246680898690e-01
2.481152604742341339e+00,1.061824209687528775e+00,1.429897185249022318e+00
3.809622287362857573e+00,-3.113060085353798745e-01,1.723970166995880904e+00
5.874189969985869730e+00,5.893616775001052410e+00,-8.369315642658706755e-01
5.517644880542807329e+00,3.552987180887591911e+00,8.818531906016696675e-01
2.588842837876986991e+00,2.889576596917444284e+00,-2.068273960471502360e+00
2.774345555929619067e+00,5.703388501328395144e+00,-5.592813252533518353e-01
5.950799546420499908e+00,5.346813361834014344e+00,1.676793059934816033e-01
2.865611963195642264e+00,3.268917196832346495e+00,6.391106710219789377e-01
4.259804307946193802e+00,3.657432792580076697e+00,-1.272925899445945364e+00
5.900549056271728432e+00,3.420149453830905184e+00,2.134562538492678629e-01
2.683158503989564014e+00,5.537861127159908747e-01,1.887752534972918950e+00
1.571892752982297692e+00,4.972278561012298148e+00,-1.957844020775737048e+00
5.065369891687249160e-01,4.152452202196570963e-01,2.094407837074014622e-01
1.460682433259194113e+00,5.385316131149552099e+00,-1.756628296868172345e+00
2.844608807072197987e+00,1.645746395129884521e+00,-1.285682848495451003e+00
2.822302577073104057e+00,5.311259430898751965e+00,-3.608093367690604070e-01
2.463575588178757325e+00,2.074731840583238007e+00,-1.800255047115471907e+00
2.991762712822506831e+00,-2.854450821275081873e-01,-2.333346152245545091e-01
2.629538388671434745e+00,-4.450834746316842949e-01,7.207236610833593904e-01
1.690724140944394271e+00,5.205319374049251380e+00,-2.228332747578348982e+00
1.411953596838425806e+00,4.065838376249335084e+00,-8.142399101597981304e-01
4.956000125722292537e+00,1.841810780674717707e+00,1.704735542349464783e-01
2.894733412110582993e+00,-2.540471681893591294e-01,1.615355977845090329e+00
1.070145144246699598e+00,2.231963416189690186e+00,-1.336289782745491372e+00
3.662665387757011892e+00,3.806810424979328200e+00,-1.746784407684564888e+00
3.351169808765024349e+00,1.683157335926622755e+00,1.762057585726418463e+00
4.926836475958989325e+00,1.867371328010645204e-01,1.472039031263221442e+00
5.229783403150696230e+00,6.206060783263939840e+00,-6.078251647049335293e-01
5.522316517958899773e+00,1.584541898532200621e+00,7.994232515126646899e-01
3.422753087429969643e+00,1.148805227057722922e+00,-7.053917692188289568e-01
4.627861647379881482e+00,-6.998067951196147440e-01,1.194441716820364485e+00
4.129228805135813918e-01,4.653080279181338041e-01,-5.143609211807107506e-01
3.401966605164988611e+00,-7.357847277559738108e-01,2.240308341229144962e-01
1.412672566275920694e-01,-4.340178124826975237e-02,-3.576812053124077406e-02
5.138694179875474832e-01,7.766172107631301724e-01,-6.957884899395320177e-01
3.485452014438958024e+00,8.420541634267781905e-01,2.331058566394563769e+00
5.630916726431876462e+00,5.033133484844185546e+00,4.818465454747477561e-01
2.325385445018243402e+00,1.787320448803916939e+00,-1.841011937457434522e+00
2.482641734257409194e+00,8.095621607071371365e-03,1.877168490240937793e+00
4.991632988127855164e+00,2.218371309387226820e+00,1.355209701695646363e+00
2.733766226493755891e+00,2.104126186729834647e+00,-1.733857345633945002e+00
2.518048963529946338e+00,4.619716979558871728e+00,-3.015765926150632215e+00
4.867172918471148968e+00,2.182399719882402334e+00,1.640892673367619015e+00
4.267365638349414070e+00,3.815865777434289008e+00,-1.248945392007799304e+00
5.208679410472289995e+00,1.545856589905809209e+00,5.069301408514532703e-01
3.255581455895655285e+00,6.585346812209453837e+00,-7.790302022016187822e-01
5.082348826430683530e+00,5.003791700777155960e-01,9.496660540519911153e-01
1.291588128122277190e+00,-5.014123928297414823e-01,-1.487275287690610792e+00
7.960103347481536362e-01,5.602798014075991428e-01,4.031618617226900292e-01
6.518174649841517176e-01,-1.637894525402824042e-01,-3.836623761837448798e-01
5.989038874559785341e+00,4.773463804043420744e+00,-4.210692324084767124e-01
1.696074656101093314e+00,5.055902815088994195e+00,-1.246215405249917918e+00
5.156712382089439828e+00,5.039180246964264143e+00,-1.170610610199487756e+00
2.656639042597436440e+00,-5.529777193683182990e-01,5.602226553977696089e-01
6.038345690492675111e+00,4.864008410290161954e+00,1.107785952103063354e-01
1.728994057086540748e+00,6.888708196072679257e-01,9.736172467272403708e-01
4.492001232451246828e+00,6.496898277693215817e+00,2.707205072397930734e-01
4.026343413416806349e+00,4.759165168264956947e+00,-1.932664210152048145e+00
1.219345001725357758e+00,4.584446828934444440e+00,-1.590813695528619176e+00
3.286632751599092739e+00,2.112992083651492159e+00,1.527195437238818787e+00
5.073781114643678869e+00,2.558612512316532417e+00,1.321662439160443459e+00
5.393503952549565383e+00,4.415827175037319030e+00,8.803944391385357671e-01
3.321296283950552652e+00,5.058631407088748588e+00,5.634212626472909907e-02
4.045872552596133431e+00,1.234599070547321098e+00,-1.836565535415496386e-01
5.569060445339674814e+00,4.606303732212655433e+00,6.849132472288793627e-01
3.517961507471492055e+00,6.379052002455020798e+00,-1.480023225835264578e+00
4.382174295818211718e+00,6.550070612760411137e+00,-4.691279374032194388e-02
4.313864072015141105e+00,-9.306629769197159729e-02,2.236883983172405888e+00
4.033855807192672671e+00,5.509819608536021818e+00,4.354160700631926062e-01
4.134967891035534748e+00,3.147336363597531328e+00,-1.112781592293641042e+00
9.584548100192115394e-02,2.370427976383247815e-01,-9.971801272946376193e-03
1.680428672577402471e+00,5.803354317504044957e+00,-2.180302496107445975e+00
2.132136633249644753e+00,2.960817908712523927e+00,-2.514461652253682455e+00
2.788104668546524056e+00,3.588221560814482819e-02,2.103058783137738974e+00
2.943283253910932373e+00,7.510181274581619881e-01,2.039674623968668943e+00
1.498321153166286779e+00,6.016254880123844018e+00,-1.789940115036334545e+00
6.165959601493522513e+00,6.149312771534138022e+00,-2.362242759144936588e-01
4.544570230454843873e+00,3.915400460712802122e+00,-1.241358920836979740e+00
3.431613528548980607e+00,-6.569075416542400347e-01,2.377436261870719825e-01
3.850312175992709030e+00,9.437049703679264434e-01,2.528241096439955093e+00
3.639528762228664505e+00,7.459598760347282420e-01,-3.135854626516133559e-01
1.637069990449198098e+00,4.657675433055304737e+00,-9.721499854024987508e-01
2.016201821629504953e-01,7.307833110245662844e-01,-2.202834891022039387e-01
4.458299410477095215e+00,2.215891673844273546e-01,2.080030424558634738e+00
3.873851551032896356e+00,1.756452370006823971e+00,2.135203007844029610e+00
2.122209621515541045e+00,4.926934044936714940e+00,-7.033691364700471738e-01
1.595359338836904950e+00,-5.866863652463961687e-01,-5.418912535398534569e-01
2.084013975289610077e+00,9.869216854929441229e-01,-1.627402659941199925e+00
4.042847519606784346e+00,-2.625640424164079612e-01,6.545142920853884716e-01
1.875954049503219423e+00,4.593175416384373655e+00,-8.404952921290188561e-01
1.211986988338930482e+00,-5.892307207216191944e-01,-1.047486302858743779e+00
4.864121477268441573e+00,6.479062238370339344e+00,3.844479513253961506e-02
1.624388182791639101e+00,3.816351561540706427e+00,-2.138082464323028287e+00
1.780142603363498832e+00,-7.280393866194619923e-01,-8.511900022219633932e-01
2.516349832352133831e+00,1.701233916680681801e+00,1.083443018172758565e+00
2.056016159828696566e+00,2.214349083106719629e+00,-2.214863575547445951e+00
2.768144900403470832e+00,5.638858914095424835e-01,1.806409000984785296e+00
6.830518420101808763e-01,2.210969642025433668e+00,-5.899619735256853570e-01
1.266572602488206467e+00,2.566015409075152576e+00,-2.338904792264284993e-01
1.761993702873737133e+00,2.909885210329770100e+00,-6.188736322849085203e-02
5.321268286295172345e+00,3.753501278882620529e+00,7.622040628391439920e-01
2.718107481000259451e+00,3.177313406411990115e+00,-2.212247777138069083e+00
2.184450216727577221e+00,3.528362609197993383e+00,-6.008019592831230493e-02
1.479175603348981349e+00,4.226845311523049986e+00,-9.111441979009795578e-01
4.936288932557744147e+00,3.575554957526779987e+00,1.471663409685016299e+00
4.936732876354409605e+00,1.018087177368258489e+00,5.664266612749115914e-01
1.940111901783376114e+00,2.339439476985663902e+00,-2.354293755421626777e+00
2.112258715950621202e+00,1.409886194603569010e+00,9.592250143606357859e-01
2.404044130997638196e-01,1.446795836244050074e-02,1.746273503912358638e-01
1.230344564501667515e+00,4.584312164143660162e+00,-1.307291940254561968e+00
1.977687015775436485e+00,4.111485214310881098e+00,-4.945255507768638870e-01
2.685853026110454067e+00,3.175571891505107658e+00,-2.144435322838048830e+00
1.813253673257806398e+00,-3.835368762111709962e-01,-1.154143634415534247e+00
3.452903556960961406e+00,4.548305284706808393e+00,-2.299197768945833609e+00
8.330563787130379483e-01,1.004268194352625265e+00,-1.154128100873307528e+00
1.734314827038205831e+00,3.751406437557836426e+00,-2.322276458071782734e+00
7.153534689020606407e-01,6.345894891513467750e-02,6.513383128975062109e-01
4.601494901926581171e+00,-6.924156045788562031e-01,1.475844446369369845e+00
4.131541662184556429e+00,1.635998994152847441e+00,2.375593738535402455e+00
3.613770645691676275e+00,6.253100837192818950e+00,-1.747411895789613423e+00
3.878103710078249389e+00,4.013852841881660360e+00,9.956600399801035506e-01
1.531265524329954664e+00,5.275360590281229278e+00,-1.848228227853002226e+00
1.803458358182261856e+00,5.345676639327151314e+00,-1.205933074355153511e+00
2.854660244008541348e+00,6.417866768088608787e+00,-1.683638338204427320e+00
4.348792535817341154e+00,3.167433251132466765e+00,-9.369436957666743560e-01
2.698577982061216574e+00,3.901286430048952258e+00,-2.592323195037049555e+00
4.920328162710243980e+00,1.945799611878476387e+00,1.132532259228140326e-01
2.024082511901662329e+00,5.430943185523367411e+00,-1.061144677071234943e+00
3.822486409492177994e+00,6.493793893649447924e+00,-1.382561950998969502e-01
2.502142335478865220e+00,5.207855897134816558e+00,-5.982229800060051561e-01
4.583451389392106279e+00,2.461845080497944593e+00,2.005356159715769415e+00
2.504363879240401491e+00,5.950106094102545207e-01,-1.137854968476665896e+00
2.305470203427490539e+00,4.374920047663712452e+00,-4.020866290846503155e-01
3.788134362839012947e+00,2.743668964187022663e+00,1.506780904655253606e+00
3.104105941307970351e+00,-1.410373175369900867e-01,1.826892035478848042e+00
4.488348655499747597e-01,1.135953108783562371e+00,-4.956790795674630434e-01
4.471685288927142565e+00,4.427529390581030455e+00,-1.480687685393681230e+00
3.790376403688120899e+00,2.532328089575829111e+00,-1.084469996729084729e+00
1.790111945589886400e+00,6.375554325452076121e+00,-2.361898878100430199e+00
1.061192471546247296e+00,4.011043436161734199e+00,-1.370659386417925951e+00
5.124876241989529291e+00,1.245419020222650941e+00,1.173571742270136387e+00
3.707528485458697176e+00,-7.071334383178514704e-01,7.327687535769779048e-01
3.404110516189069457e+00,3.523362812267468946e+00,8.570318757684871613e-01
6.139856410682688725e+00,6.150567462883100411e+00,-1.125638490103350320e-01
7.264690040438743779e-01,1.390006566854510739e+00,-7.735463148960630697e-02
2.427580174823480874e+00,4.832271775975881312e+00,-5.074403342054201183e-01
2.153109739523878741e+00,4.772116639128382687e+00,-2.725370091623684932e+00
3.845409391570479674e+00,2.561903719008258751e+00,1.752880466007342930e+00
2.798058949393640304e+00,-4.797119750889857759e-01,-2.808952097581957630e-01
8.033083406770769042e-01,1.262781180618193666e+00,-1.504417234256673688e-02
5.746368781451749008e+00,4.578928059116538662e+00,4.734420133561762500e-01
1.306514144041672765e+00,4.096378156386198732e+00,-1.586722705493003538e+00
1.206621280719832434e+00,2.096467588555150918e+00,-1.464786536038570786e+00
3.798714401045989675e+00,-6.622332373046094789e-01,5.001020014748019937e-01
5.074991022673271956e+00,3.366665922946230793e+00,1.432265897914476671e+00
3.636218811929487593e+00,5.021435972288749383e+00,-2.460910130106789495e+00
3.004771056849587563e+00,6.208887198199424695e+00,-2.190877459716396913e+00
1.782815057342572507e+00,3.457894281756352939e-01,-1.429601514009692265e+00
2.497093847862587257e+00,3.225462408198265685e+00,4.069651168045156364e-01
4.418395419048747996e+00,1.123939981762902773e+00,2.099849279233389598e+00
1.096536908316553260e+00,8.063726134124213907e-01,4.489055030889469444e-01
3.500479234663112837e+00,1.930702242574135363e+00,-9.773428695438071134e-01
3.749213782761567693e+00,4.654743339250828171e+00,-2.113355915573776223e+00
2.353617093704007512e+00,-4.964291419970868341e-02,1.548972357496947838e+00
2.644434900853279036e+00,1.833223274885430909e+00,-1.587633865486845819e+00
2.828128778300243340e+00,6.396941713216992120e+00,-1.623149120982845472e+00
3.077228880362511187e+00,6.453915666556920172e+00,-1.470190819540559968e+00
3.943933022768512764e+00,2.166687982640630228e+00,1.973319936154759091e+00
4.676804033587012022e+00,5.222528947190689941e+00,1.051140302224143008e+00
5.207081369841610297e+00,4.971234558967513983e+00,-1.220610172952419248e+00
3.728191906598909089e+00,6.576669808959067609e+00,-4.829006063944424887e-01
4.722526331437407521e+00,4.512622328818526540e+00,-1.336395765251213730e+00
3.109107791697463874e+00,5.588390466699434178e+00,-3.042677489269259627e+00
