-5.815119606787818446e-02,2.490815718437905169e+00,-8.304068233151027378e-01
4.561116317926738883e-01,1.552062138172898731e+00,-2.916624144518526474e-01
9.808579904459188148e-01,3.436284100646141315e+00,-1.296391721411514375e+00
1.605119044725314970e+00,2.966104505783583978e+00,-1.431025847932052120e+00
5.254758341707063130e-01,3.489123735035070784e+00,-1.364184152782480508e+00
6.205718988978524697e-01,2.090542400530103428e+00,-1.782236220234320712e+00
-9.368831805261016443e-01,3.272662616863817320e-01,-6.519217100026872824e-01
-3.000483715695678177e-01,4.780899855237773499e-01,1.526808538403226778e-01
2.751429702041621739e-01,1.679616596992518751e+00,-1.623162333797333323e+00
8.516182310892315144e-01,1.864617169117807949e+00,-1.311172623630505241e+00
-2.219204452635107072e-01,3.173967927758789553e-01,-9.738361792169479836e-01
5.004462743897480914e-01,1.266397833946767415e+00,-9.876316039662832447e-01
7.129192216152729911e-01,1.375518382952972019e+00,-7.560598208242056417e-01
3.847219837984811597e-01,1.836728800785268234e+00,-1.714355938799804857e+00
8.655870648472189233e-01,2.998551441216642743e+00,-2.002532919418590573e+00
-7.592357373434736045e-01,5.654206619073977036e-01,2.696115120031916113e-01
-7.144439971496271413e-01,8.899652755741628285e-01,3.265414585288110572e-01
-1.079014082659418783e+00,4.513417832176111477e-01,-6.456065357235650781e-01
-1.102065656177168229e+00,1.145635194687641967e+00,-9.044249952182035202e-01
9.811756390416774831e-01,1.889262831367683138e+00,-1.097207525666729744e+00
1.450125113284417733e+00,2.558481707092808755e+00,-1.143241103581386087e+00
-6.231417501496844258e-01,3.967428431807825118e-01,-7.343983756390098927e-02
-9.867948078592914118e-01,8.153073966207550205e-01,5.248262271854829686e-02
1.233658268108863476e+00,3.130823190168087411e+00,-1.608437911094421802e+00
2.792862765483126175e-01,1.768526249214817492e+00,-1.628330023647860392e+00
-3.610476711166341751e-02,2.066373253424899303e+00,-1.545884644917640660e+00
1.247507178468291400e+00,2.638344454183768395e+00,-1.721908694294414621e+00
1.268203604871394274e+00,3.029848499128889650e+00,-1.899374161672595651e+00
4.222127467051802752e-01,1.931461035355068967e+00,-1.719075989163287854e+00
2.787425206863833882e-01,3.466017064861584451e+00,-1.586200816774191447e+00
-2.141977603754260107e-01,2.427592156117342803e+00,-1.038245508121124594e+00
1.190286111925476398e+00,2.482510174376257428e+00,-6.541046703042391330e-01
7.212123442397664341e-01,1.343645358001635648e+00,-3.759561302898118962e-01
3.939176759207592693e-01,3.069335920604617574e+00,-8.547597644699397312e-01
-2.280829114903579480e-01,1.866833950645439888e+00,-2.269683734518684604e-01
1.774674653453231776e-01,2.633286065761700101e+00,-6.996338749080140973e-01
5.832726383893235278e-01,1.340637398365704946e+00,-9.859923328965293221e-01
-2.493265417936567085e-01,1.512362049708120937e+00,1.145686800218943119e-01
1.058838075529678235e+00,2.285909749786607215e+00,-1.487019025007507933e+00
1.284207174090186698e-01,1.244970420163012292e+00,-1.542423038199949581e-01
-1.000245756884753590e+00,1.005458269317625053e+00,-3.787069217567173851e-01
2.416286572281427236e-01,2.117172111615114538e+00,-2.159847740079898493e-01
-3.333228133278580141e-01,2.156015145217212048e+00,-8.420537103153998837e-01
2.968645119756920803e-01,1.409755582859869794e+00,-1.639289729446697708e+00
2.177481315292924546e-01,1.078115979027334470e+00,-1.127421047535399845e+00
5.756557513575425444e-01,9.179963865844840143e-01,-3.701126382112520097e-01
2.371350779721065338e-01,2.937988656468017989e+00,-1.658517673347273069e+00
8.028636793654503334e-02,9.232145240842574152e-01,-1.350349667438287771e+00
5.144628376218071120e-01,3.013348441742681239e+00,-4.785585157330253248e-01
5.952005112441692836e-01,1.526547572349415516e+00,-1.327240598342536382e+00
-2.160306372696707833e-01,8.185053056667479510e-01,-1.368138270386318966e+00
-2.365996187820167129e-01,2.408113314754384504e+00,-1.473176386513373570e+00
1.682404722014483767e+00,2.881379848020817480e+00,-1.180259614682026337e+00
2.762337752558193249e-01,1.878431665802074768e+00,-1.651682205608089982e+00
2.413904691914706968e-01,1.879955833105497964e+00,-2.071453374069300024e-01
5.785798115943322495e-01,1.320972960094728421e+00,-9.878609655313421722e-01
1.465414187809689572e+00,2.952609226449642854e+00,-1.736523459079714726e+00
5.188629250935026249e-01,3.593411581511892550e+00,-1.676576772010663685e+00
1.162343427043789346e+00,3.257827554949588311e+00,-1.345016653629366621e+00
-9.871737619515323914e-01,4.742535775259080211e-01,-2.407150351688217838e-01
3.068873818489463168e-01,9.949701508055075472e-01,-9.848517677167357709e-01
-2.319094645400937224e-02,1.189731872566868853e+00,-1.466806698630064298e+00
1.016021340629599257e+00,2.714368355052984239e+00,-2.041483875363351075e+00
-1.068559868404974855e+00,7.592098045290253117e-01,-9.332229471867554693e-01
1.254684463874907729e+00,2.257444652109143135e+00,-6.917002069457089952e-01
1.354165230451626289e+00,3.146076374584191537e+00,-7.338094312882527115e-01
-6.829862287264074627e-01,7.090544604309241550e-02,-9.142340044443013625e-01
1.728777306188282736e-01,4.645177979889495989e-01,-4.936538236942836222e-02
1.344220245005843806e+00,2.775962316217984505e+00,-1.705628431663019473e+00
-6.641883117364587585e-01,2.509655402941786684e-01,-4.704418007152977310e-01
5.615060758914685035e-01,2.971130527054266945e+00,-3.947746324515636340e-01
9.562293681801946610e-01,2.294060798703263515e+00,-5.654073376520827310e-01
-7.199404326318442626e-02,2.680217651541737300e+00,-1.493428807826290727e+00
-4.508332915236782368e-01,2.146209035260864262e+00,-1.201608930991537427e+00
4.353858118117617804e-01,2.858199178255917072e+00,-3.985703657975329106e-01
-5.954744685173089802e-02,1.322098312770062956e+00,-7.929489328663980041e-02
-7.325332762238769835e-01,1.622436991989931299e+00,-8.850259943723411959e-01
4.626650751995514677e-01,3.128910655824296949e+00,-8.543396058965277984e-01
6.159606311033882786e-01,1.246535549087688821e+00,-7.678823516827532059e-01
-1.030989251690025005e-01,2.242929547539570301e+00,-5.580318415454778025e-01
-7.924278363962294902e-01,8.418510784412063241e-01,3.051083570123143685e-01
1.521897534229289972e+00,2.585265168599343966e+00,-1.015989565884526602e+00
-3.023858714336230546e-01,2.207713244690148624e+00,-1.361319216127248932e+00
-6.297584572518404311e-01,4.954880103465544167e-02,-9.185016736183351238e-01
-1.816699857901609427e-01,2.192780348286688941e-01,6.422900997024279246e-02
-9.974969500754897744e-01,1.130731206326683225e+00,-6.800487854955244993e-01
-3.588194423763849672e-01,2.191704945246812086e-01,-1.220438576383851975e-01
2.054209201325071787e-01,6.406490102013499000e-01,-8.888978576522872654e-02
-2.866315557367565825e-01,1.780692370288752491e+00,-2.778501679162188598e-01
3.105898378702791063e-01,2.818504250789944265e+00,-1.659179211635444018e+00
2.368055108455134616e-01,1.139176646514024061e+00,-1.354609903908412516e+00
1.206926579994316295e+00,3.096982827032364050e+00,-1.796930936263180900e+00
-3.337261922603101949e-01,1.618144623451187814e+00,1.186929097320215884e-02
-6.419395567093663102e-01,8.738090593891598701e-01,2.927759252381688659e-01
-2.212640883560176297e-01,2.307175705356201867e+00,-1.358827890400613692e+00
-7.093309463438469686e-01,2.107576151998051817e-01,-6.175009349695019800e-01
1.557905049824661881e-01,1.571224145927416993e+00,-9.724594776084859171e-02
9.728436891022677058e-01,2.806259044698601102e+00,-1.989516271370917799e+00
1.048305987514107196e+00,2.557231349004080556e+00,-2.059004598464482250e+00
4.173506441536157796e-01,3.239104954319558249e+00,-1.061370823015771458e+00
1.220826476703629870e+00,3.338849035539390719e+00,-1.175365177141196815e+00
1.565065594247317948e+00,3.143118849585600394e+00,-9.225127822527297017e-01
4.592754161154863901e-01,1.903408884779184351e+00,-1.675870402438285556e+00
-3.250864733052238886e-01,1.400693970471496463e+00,1.020141404101177346e-01
-4.975539740644836506e-01,5.459020826627870582e-01,-1.204736934658377390e+00
1.544517380356487946e-01,2.352582381578464332e+00,-2.370564257008533626e-01
2.872955811128825587e-01,1.242479630445693095e+00,-1.427763055808415782e+00
-3.299931179883211496e-01,1.770163066645461081e+00,-2.388242152515669126e-01
3.797465299248450332e-01,1.303767896710673835e+00,-1.274233157981041975e+00
-5.671675408781040595e-01,1.926423923738954880e+00,-1.180123036042120210e+00
6.462069594468710099e-01,1.362669445217048469e+00,-8.145951241371968132e-01
1.399044921885622239e+00,2.945916329063034134e+00,-7.833840892652549348e-01
1.129270431574846079e+00,2.267484668513954915e+00,-6.485798168770459116e-01
-9.281712205529712989e-01,1.311848442583363417e+00,-1.066583420078013988e+00
1.205080529078425666e+00,2.727547532176401113e+00,-1.905844394604947922e+00
-3.905575592132906615e-01,2.058474365190495980e+00,-9.124600064060394145e-01
1.108642945853739736e-01,1.974266710283795412e+00,-1.561622601641525332e+00
9.402481915430108694e-01,3.539284569452783913e+00,-8.667399703511415865e-01
-1.727852870660582796e-01,2.658776610390481743e+00,-1.416487905629077781e+00
9.824107565672576259e-01,3.078083817602045968e+00,-6.190278337107516515e-01
8.318929419052911722e-01,1.985297578214239245e+00,-1.426092678056381180e+00
1.182779591185783019e+00,2.418160744759689784e+00,-6.447238514831556966e-01
-4.122046859061842539e-01,1.901999011655032934e+00,-6.920225477299889461e-01
5.804074191832749863e-01,1.617255831408967115e+00,-1.399650160270587085e+00
6.746938784010703127e-01,2.573972514412326440e+00,-4.437873558244106453e-01
2.731551937603884928e-01,5.839511283558611598e-01,-1.698542774410274347e-01
4.871153581252650189e-01,1.983322730121897859e+00,-3.327136964799031205e-01
-1.252982597444433910e-01,1.697806161167653149e+00,-1.455723802182102844e+00
3.311279422860655686e-01,3.249000945612886326e+00,-1.283404616451179869e+00
6.672934237357414089e-01,2.097642496544069868e+00,-1.860659315206329767e+00
1.668680792996818374e+00,2.664632713018893373e+00,-9.884242381480545792e-01
4.740349189440376532e-01,1.521338224931020333e+00,-1.543662757368622351e+00
3.504288533799151950e-01,1.506088368730053251e+00,-2.625649214452410174e-01
-3.019453181892872359e-02,1.095006181836075898e+00,9.166701429474120519e-03
1.459184337965682143e+00,3.311384977315145584e+00,-9.370702077658197293e-01
-6.463581732123901968e-02,2.783220714810530350e+00,-1.343131251583039143e+00
6.191528520957242376e-01,1.562221588811246731e+00,-1.216689772778350775e+00
-8.535647325103160599e-01,8.080196248758834132e-01,-1.042378123963614511e+00
-5.660594616489321718e-01,1.011453252355134502e+00,2.111360050763907981e-01
1.297832462284659094e+00,2.792855320292583432e+00,-1.742457049284612092e+00
1.113941206697849212e-01,2.804715706791625518e+00,-1.023023412489838302e+00
-9.759941534068732327e-01,9.825120055649319006e-01,-3.153478292559785401e-01
1.001896104177340541e-01,1.709838776938950033e+00,-1.601055099423698058e+00
1.176188468043776192e+00,3.372741686466591560e+00,-1.209545787635457392e+00
-5.907861184503780949e-01,9.617110590749257393e-02,-1.111914188104526025e+00
4.972979123479139285e-01,3.356793060723333166e+00,-1.092359585004698541e+00
-8.390935102651057020e-01,1.733404709817927269e-01,-9.465282854394980738e-01
1.130217735728721529e+00,2.054528218254022320e+00,-9.818340006280060761e-01
-9.450712566602935683e-01,4.554882631027689088e-01,-9.638709193083199178e-01
-6.126094873217051706e-01,1.939835214455188028e+00,-1.102670941467546184e+00
7.354807862575190036e-01,1.627805745797715087e+00,-4.178529455250238889e-01
-5.659889695504294327e-01,1.486699951414090226e-01,-6.321225824533648341e-01
1.164518843467820863e+00,1.981936990465402504e+00,-7.279887859346809709e-01
-5.353272130081421221e-01,1.545170640646266191e+00,-4.235882568551467831e-01
1.184967133102953207e+00,2.563651826573387194e+00,-1.806133304374051951e+00
1.161355083286833567e+00,2.760476251269253556e+00,-1.997609689784711762e+00
6.453938708528819124e-01,1.497022976583111564e+00,-4.230698658344143048e-01
1.484157157109557756e+00,2.789053177361342506e+00,-1.410506988302168585e+00
8.461424468836494794e-01,3.357564185253623545e+00,-1.648992116692283627e+00
7.326104608100021398e-01,1.959336850531240737e+00,-4.104296531837853257e-01
-6.595712407608403938e-01,1.230707181654330684e+00,-2.345905085503084408e-01
-3.391722136441222002e-02,2.060754055708369226e+00,-1.440817225724228823e-01
4.615432593680157125e-01,2.606147305228056155e+00,-1.815848609875793329e+00
-1.085876713166124885e+00,8.388162741313949233e-01,-3.004063917575148790e-01
-8.813573590683259074e-01,2.366701612343837247e-01,-8.041973217019546816e-01
-4.014679283703856405e-02,2.452595576530563759e-01,2.332121077860100158e-02
6.837243539840394124e-01,3.058941316070100225e+00,-3.832518057188601390e-01
9.837131149015145848e-01,2.285730801139771007e+00,-5.831200621456171795e-01
6.942319624411992240e-01,2.087163061780565876e+00,-1.807411508042273685e+00
1.734556859751511082e+00,2.899161495805453903e+00,-1.000899028415047409e+00
7.263500490158972811e-01,3.613750895309488786e+00,-1.044696871291798335e+00
3.023658706773771909e-01,1.484922161819100639e+00,-2.061352380057454026e-01
1.144473547557090187e+00,2.437138863548771184e+00,-6.024845069169099121e-01
-9.402057699849041272e-01,1.021607419591768595e+00,-2.629044578134915877e-01
1.510371054505747601e+00,2.891632145899340589e+00,-1.539482252038673060e+00
-2.358121545383854989e-01,1.568169082271780868e+00,-1.335591278973352170e+00
-3.063822935937981495e-01,8.683358752665665259e-01,1.231634999796445556e-01
1.260513084793309924e+00,2.203453213465164318e+00,-7.227751078332700363e-01
9.271601381201759196e-02,2.578799539831721610e+00,-7.590688053046165118e-01
1.804752213963142227e+00,2.967762382563918777e+00,-1.036468465517781823e+00
6.025950794008310130e-01,2.684432237436063851e+00,-3.543413312923322511e-01
1.072547331120529357e+00,2.624875714342827404e+00,-5.953201153919830402e-01
-2.608950784960232736e-02,1.892671184062808321e+00,-1.491572793121218155e+00
-4.258027694222311921e-02,2.197414085534127537e+00,-3.753503852020462217e-01
1.219420077747449538e+00,2.827619841294620517e+00,-7.322696101216678022e-01
7.095672119994443916e-01,3.550568973868589495e+00,-1.347474966133086927e+00
1.102437957967328019e+00,2.282901332293951757e+00,-1.373451717637047764e+00
-8.057467800267870128e-01,3.769784270486182809e-01,-2.793087361788542111e-01
-5.172463720874262982e-01,1.539614834477658789e+00,-3.659412478856269857e-01
-8.386429028613653358e-01,1.101638400413069041e+00,-1.940226569360129771e-01
1.074184346608642260e+00,2.332626219111404886e+00,-1.499207794558419682e+00
-2.625606024964161067e-01,4.394130762713273630e-01,4.394438332871957592e-02
-6.169224714386866149e-01,1.361586029114939755e+00,-1.226594927269325286e+00
-8.615956439717398219e-01,2.912960040435496611e-01,-5.864536899088718114e-01
8.409092464590166571e-01,1.667053148875349278e+00,-4.839787363794350594e-01
1.596001490178330817e+00,2.966340470317315958e+00,-1.467191908572977210e+00
-5.330744899895870637e-01,3.351586818560410852e-01,1.027762639467173778e-01
-8.927718278172366295e-01,1.517831978280369531e+00,-9.916862473341281348e-01
-7.956497023817639125e-01,1.575877340750345690e+00,-9.829562886527188903e-01
2.851890041200451642e-01,1.846251047029145109e+00,-1.662035718298166431e+00
-1.449122329276016433e-02,3.511649779292527751e-01,-4.372659348832891868e-01
5.716835399611381874e-01,3.098802348850220767e+00,-4.648833140422553578e-01
-4.474803874171304902e-02,3.451279749234970051e-01,-6.852765722448644903e-01
-6.891069112597620894e-01,1.789805073999671370e+00,-1.019345033398415756e+00
-8.936239703532810053e-01,4.653351379043866864e-01,-1.062124686542382568e+00
5.736757123719050666e-01,1.610379243098975843e+00,-1.307319596429519226e+00
-7.785734706282509965e-01,5.595953818764232146e-01,2.380801410378262373e-01
9.028064748757863578e-03,2.759522531460546713e+00,-1.180991032174117716e+00
-2.661073032860712950e-01,1.883529230065202675e+00,-3.480402170510781823e-01
7.812016671338067875e-01,1.816873324728193628e+00,-4.753158686682538714e-01
2.803110499418517976e-01,3.045046179565194411e+00,-1.142591275429492681e+00
4.935141045197313781e-01,2.959408885141090906e+00,-4.913269744006574236e-01
-5.825060296259567533e-02,2.278302931949193866e+00,-1.481506260103046646e+00
-6.912848665554748306e-01,1.704054777813203136e+00,-9.328234116941019893e-01
-4.463714166335800981e-01,1.506543453191079740e+00,-1.558660220628528270e-01
5.006812963141912265e-01,9.728330216206240166e-01,-5.552838727357732873e-01
1.539540278912832549e-03,8.516451639959448094e-01,-1.408886078990657209e+00
-5.272237766454013208e-02,1.740674915338563444e+00,-1.522697404248880337e+00
-1.041119936973246979e-01,3.106865183670183828e-01,4.799575496317728257e-02
1.070443339024880425e+00,1.797231099084783512e+00,-5.919094815893796158e-01
-1.907166302982312434e-01,1.115620223478858586e+00,-1.418163054783664334e+00
7.554351150248961311e-01,3.276161108779502396e+00,-4.387526837082925124e-01
-1.256659591592541592e+00,7.881067539182381454e-01,-6.611440234327516929e-01
-2.368281945255174825e-01,2.002481066211033500e+00,-1.410008003968644896e+00
-1.274619241182596507e+00,5.494481583135367719e-01,-6.605128355347212876e-01
4.811491867322711391e-01,2.460440741845235646e+00,-2.933608465662391751e-01
2.604235240254218486e-01,1.561229288868036358e+00,-1.729849540134864583e-01
1.553799110830065056e+00,2.920651763424822356e+00,-1.497317082702798841e+00
-7.117632856182244394e-01,9.463435656099363769e-01,2.996999656142645962e-01
2.693282660511105431e-01,9.592623157506485754e-01,-1.054247344503439043e+00
1.209533063137241626e+00,2.451782107817692236e+00,-1.616123579082971995e+00
1.195318687615995606e-01,2.221639472742595434e+00,-1.589011085584819627e+00
-1.073056448743860657e-02,5.140703644923534377e-01,-8.375493079674113384e-01
-3.404777301703617032e-01,9.121371105245826838e-01,-1.323247306749990582e+00
-1.241960410422135563e+00,5.443261588749926938e-01,-6.206632525956947699e-01
-2.681597591661910029e-01,8.890477974453568910e-01,1.374303943080232571e-01
5.114220851424505776e-01,1.113536309917095624e+00,-5.797736962056656562e-01
-6.602200260262272025e-01,3.793918632888497733e-01,-8.279630242897025039e-02
1.340811104676702170e+00,3.020107331888784330e+00,-1.704635187857421741e+00
1.526223222565653792e+00,3.072725195211245541e+00,-1.479415085701748067e+00
6.882345780071884578e-01,1.622778258682602948e+00,-3.992700231249301512e-01
-7.992580460469685122e-02,2.711422631098884928e+00,-1.309615256333809930e+00
2.796032704101727995e-01,3.070460583361710682e+00,-1.092580161229995017e+00
2.995199991081066715e-01,1.248963396984170027e+00,-1.295245984863986788e+00
-3.334155486050636163e-01,1.877074742448775035e+00,-1.307318702278644551e+00
-1.843049211545625538e-02,2.382630968930115944e+00,-1.476393515311183569e+00
-1.348575403969513586e-01,7.564984161001505614e-01,-1.416451956900981690e+00
1.420060653140414297e+00,3.091392096698680536e+00,-1.491065238442025542e+00
1.743634081446961526e+00,3.065243340652412218e+00,-9.914468168367808198e-01
-1.029924847069423999e+00,7.790427992146803371e-01,-1.521255002263018352e-01
8.407200891858517267e-01,1.599067876610377414e+00,-8.569063975380858400e-01
-1.539752247583769662e-01,1.603626095873248447e+00,1.368599154397769600e-02
2.167265682010176883e-03,8.289496992813610854e-01,-1.423532200647239732e+00
9.971286123078068053e-01,2.274868278421307455e+00,-5.931516951198276821e-01
-2.154815152203002349e-01,2.919246476616338404e-02,-4.977664373617856630e-01
-3.772918358419143914e-01,1.345349033165279318e+00,1.447736766356094995e-01
-1.430112166555619901e-01,1.965851855216241395e+00,-2.647184069524377570e-01
-5.341633564357918251e-01,6.921590120657939993e-01,2.644342812419536726e-01
-5.509250715520597197e-01,1.248729672039560867e+00,1.538928154540239457e-01
4.062436780808184600e-02,2.310625160035825465e-01,-1.958628277823598329e-01
-7.637409332663654959e-01,1.357515155396167295e+00,-4.667855596499786985e-01
1.034657921102789119e-01,7.459082500881465405e-01,-9.213298006674041085e-01
2.125050933806624243e-01,2.808111700971587243e+00,-7.428294367964847211e-01
-7.999054584050681038e-01,1.119328655275758866e+00,-1.084633705388039937e+00
1.385986257936644150e-01,1.135933585964233661e+00,-1.549386379160089477e+00
1.425313632269630704e+00,2.418341700218268997e+00,-9.169426269494808102e-01
-2.360585277201572574e-02,3.627519535790117433e-01,-6.946531478517687930e-01
8.215777649781978997e-01,3.315092503635622467e+00,-5.457046054804585156e-01
2.552875589659475142e-01,1.922180086850467484e+00,-1.656462715255923479e+00
7.167653466493649761e-01,3.120226776408036251e+00,-4.577251874644724938e-01
-8.044505330796284381e-01,4.621203847485702565e-01,-1.573704422057307095e-01
-1.853247642581545007e-01,1.192147364568002743e+00,-1.379045987252619065e+00
1.116396850180929601e+00,2.835029686875284671e+00,-6.707360495141015955e-01
-1.098591975410691646e+00,8.885097521651567076e-01,-3.771622113986355940e-01
1.690654521679725519e+00,2.792442262102675876e+00,-9.435439881959714059e-01
1.170325538168458246e-01,2.465099274849496425e+00,-4.147694470312495718e-01
1.087590421893454229e+00,1.932144188809106433e+00,-8.606205414546774790e-01
-2.210202097330556947e-01,1.892289567012618523e+00,-2.863135001755477416e-01
5.111026340902801168e-01,3.335115181342747093e+00,-1.042273685217691925e+00
-5.424117581868205251e-01,1.925093585867188262e+00,-9.339520283775670784e-01
1.021097384456240542e+00,1.765278090464306171e+00,-7.994491989178608149e-01
2.145561625234993219e-01,2.650754651431725506e+00,-5.609888423462440210e-01
6.087433358880233181e-01,1.643285393578454157e+00,-1.278040884783820053e+00
-8.701567371609810753e-01,6.239308524510839282e-01,1.650956425608346989e-01
1.378886395043526392e+00,2.589434505100627337e+00,-1.362089574366280864e+00
1.157644691440598450e+00,3.438945527917764089e+00,-7.105220601333900321e-01
-1.974111174347326358e-01,4.408322710449454895e-01,-1.313282961154587758e+00
-6.681964962376290007e-01,1.623990580819781870e+00,-7.925044640541171193e-01
3.024787230959199436e-01,2.591123672301598901e+00,-2.696853811073574025e-01
-4.812215753872235435e-01,3.691498489218440482e-01,1.342661936007637780e-01
2.743294102546211394e-02,2.606624164958091239e+00,-8.065265931343809092e-01
1.365594396572314295e+00,2.347173592196016401e+00,-1.023741101659372932e+00
5.060943148030085936e-01,1.960376621412390330e+00,-3.673889359823011014e-01
-9.576856192840457194e-01,3.119473170451176336e-01,-9.810398483662063907e-01
-7.747773361735345032e-01,1.246197036883644138e+00,-3.545048986536651348e-01
5.807872166547753956e-01,1.646759820469182012e+00,-1.372218776147401842e+00
9.819055969873139444e-01,2.803297294889411706e+00,-2.016423329477077253e+00
-7.121131210719487958e-01,1.154416102341024652e+00,7.577212799532412335e-02
-4.410342924081885330e-01,1.927710764027112500e+00,-1.312250498288407341e+00
-3.327887897260309868e-01,1.926465982637509677e+00,-4.991949419419399736e-01
3.954119433998458111e-01,1.165431325931026496e+00,-1.051998201309335634e+00
-6.553976300893282758e-01,2.123162599530878658e-01,-1.167862869987501107e+00
1.411426355994264137e+00,2.838610796450576679e+00,-7.869200921068498777e-01
1.205453608499807094e+00,2.167722244115615204e+00,-1.141228400146647060e+00
4.022366732002397027e-01,2.854637466100742316e+00,-1.785991722812773741e+00
6.221796462610423850e-01,3.437387619624991508e+00,-9.902916843165976424e-01
-1.719797037464150524e-01,1.365969865024824759e-01,-9.093469987249701986e-03
-4.270209512033297794e-01,1.787037103706533125e+00,-1.269224319242276522e+00
-1.100800849228720013e+00,9.942389263855410109e-01,-6.189006042495385218e-01
1.920362873012464167e-01,2.423084669720692030e+00,-2.922021400774483801e-01
3.848259169363699855e-02,1.416457897945205824e+00,-1.555408295679479913e+00
7.654784371460874315e-01,3.103665630692687749e+00,-5.404364102299963335e-01
2.047185786854632261e-01,5.064499206188606273e-01,-4.053886361786535608e-01
1.029812407545878383e-01,2.854417564779806682e+00,-1.082244568621461012e+00
-8.882742877119391700e-01,1.206021513969606440e+00,-5.951036604948470865e-01
7.879090646828204036e-01,1.672874280103337385e+00,-1.071497669675258946e+00
1.024186657841855919e+00,1.851907712693378727e+00,-8.355852758995139240e-01
5.349353157393657021e-01,2.310836090877155247e+00,-3.629840024863851267e-01
5.380349161670198166e-01,2.939875509200566395e+00,-4.049545528391058635e-01
9.329927840581632159e-01,1.915673863634351326e+00,-1.198586714419049404e+00
1.192913723609742238e+00,2.986202524355121124e+00,-7.022996258122750080e-01
-1.203410350709278182e-02,2.715278885102620610e+00,-1.205506786269403552e+00
1.470541080420970093e-01,2.825362354347648264e+00,-1.062998942241976774e+00
1.311668821417996789e+00,2.873596486779943504e+00,-1.746145308474488012e+00
4.906178449685100751e-01,1.244031656485698134e+00,-2.929729215828961175e-01
4.041506447249289535e-01,2.523801413388975678e+00,-2.994295119862939170e-01
2.721820322192100017e-01,1.944636716514193342e+00,-1.612210709943193709e+00
1.755084137782765952e+00,2.927558522919443185e+00,-9.922674754771053651e-01
5.265983800379108182e-01,1.745006056028905794e+00,-3.431494846636971019e-01
-4.839923629810124472e-01,2.013003913986581850e+00,-8.898143291185398596e-01
-9.959185421452948495e-01,9.498334494376153847e-01,-4.265448486918207993e-01
-3.522856024729751345e-01,8.689051558835123590e-01,-1.271122149629186904e+00
-6.244714128624000438e-01,9.876369459121638050e-02,-1.133631869344940313e+00
-6.348413651289365189e-01,7.627518333259347694e-01,-1.198805088124388574e+00
1.181072950591417703e+00,2.405390689039522911e+00,-6.324090522456058405e-01
1.313034300706104940e+00,2.242968288788851350e+00,-9.253945040552796764e-01
1.561740407905918726e+00,2.560213712349038495e+00,-8.427744095929903256e-01
1.462494200465825234e+00,2.470915092482299791e+00,-9.272886464299746612e-01
5.809634868753112968e-01,3.609304263560473292e+00,-1.270348957005137835e+00
-8.175332138141551130e-01,2.530975384933797923e-01,-7.294864606351190162e-01
5.927682218370728950e-01,3.223847782374448467e+00,-6.743812473324752865e-01
1.344925808329065609e+00,2.324298902572187853e+00,-7.345439376532080233e-01
5.540364004998133973e-01,1.185054550141630525e+00,-7.644362747946975567e-01
-1.306704013874236514e+00,6.774299012571636247e-01,-7.861929163864658232e-01
-9.403071168909261646e-01,8.204998494171104051e-01,1.095592108577988499e-01
-4.199964008670786786e-01,4.966592064499576464e-01,-1.291788320568704851e+00
1.141345880379347699e+00,2.566676039276482246e+00,-6.697009728631405645e-01
-8.051879471700692514e-01,1.273199003787392591e+00,-4.333384595259667793e-01
9.678197931312028102e-01,2.256459492402296707e+00,-1.751675207469931106e+00
-1.839524056233995952e-01,8.939300772438636411e-01,-1.367743567599374988e+00
2.436694360798364878e-01,2.902737532194845205e+00,-8.667248764687212059e-01
4.915313334714728200e-01,1.532126445998077235e+00,-1.542430457199644334e+00
2.789486821796185456e-01,3.046585066503230799e+00,-1.133584919909932820e+00
-7.742788176406869560e-01,6.291917155561808084e-01,-1.079244141306140214e+00
1.271551927162735129e+00,3.336846075781999765e+00,-7.628806240151309037e-01
8.021702587841074150e-01,2.926919212850397578e+00,-1.963667121149301531e+00
1.356810484970089492e+00,2.787722426938779030e+00,-1.865311668329853623e+00
-6.318100914003906832e-01,1.295431306045427000e+00,1.839309028586880862e-02
8.226913488011582121e-02,7.063770883433256875e-01,-9.281342081655385989e-01
-1.410060113775769928e-04,2.523104275692070964e+00,-7.458959231651539623e-01
-9.389697678316065721e-01,5.509998141710101827e-01,-5.961680098722203086e-02
9.431932022298773477e-01,3.194700456622439955e+00,-1.969904860408413061e+00
-2.713154738105892361e-01,1.121477684472474978e+00,5.899310689117127221e-02
-3.656785663425415889e-02,2.005263052506119248e+00,-1.032592131504680988e-01
-5.354931978172440543e-02,2.230180404487791090e+00,-4.099880563699260794e-01
-6.630785894066104635e-01,7.690272973542352508e-01,2.655049394031731569e-01
1.284737859636657209e+00,2.245381782243216495e+00,-6.803475808209216158e-01
8.306452863957700106e-02,2.215721666193041506e-01,-1.855482204117805400e-01
-2.532407217675766709e-01,1.815590395400025758e-01,-6.556234643709099585e-02
8.722141729740819915e-01,1.431044428983409667e+00,-5.245830201219044975e-01
-6.134675041389124894e-01,1.005249859711536409e-01,-9.566675393758624635e-01
1.328234173956814201e+00,2.933505774561540491e+00,-1.980815157666832915e+00
-2.478692521836921570e-01,2.110235247759617128e+00,-1.417403267635225506e+00
-3.766050121884514934e-01,6.660017232039049107e-02,-5.688670930975052720e-01
5.728721064003079455e-01,1.808936735483442471e+00,-3.577025842459380933e-01
-8.987685843453036005e-01,6.240285022190107389e-01,1.469525481927892174e-01
-1.176730172784767658e+00,1.011947158716177020e+00,-8.189817633332224789e-01
-5.777812532691540826e-01,1.845837767039653077e+00,-8.570661295356730713e-01
4.792701174281452925e-01,1.646804740282367119e+00,-1.615241978354602592e+00
7.009641066143829091e-01,3.483423222979951550e+00,-8.604682953781916943e-01
-2.265500158818991583e-01,1.423148649808860799e+00,5.737594246752062560e-02
-1.058290485635611455e+00,4.830848319313529315e-01,-9.284273258115143257e-01
2.737396072880208808e-01,5.203784769285385581e-01,-3.060642663432250887e-01
-3.415411960000307445e-01,4.109961052678339638e-03,-6.483947291951703829e-01
2.515260201307858434e-01,2.986625655836080639e+00,-1.676868596252129473e+00
6.001377688355935547e-01,2.030045976679129893e+00,-1.796858732034012140e+00
-8.617233739535701265e-01,1.209932870237312663e+00,-4.335486077719157838e-01
3.865480175264761620e-01,1.540244826452434657e+00,-2.859546311391960027e-01
8.300200449511552225e-01,3.177022627367469987e+00,-1.986668576884712101e+00
1.311683350148223237e+00,2.322307728004178173e+00,-1.072549562410034074e+00
4.614592912436357719e-02,7.289662038891847606e-01,-1.019901694415654703e+00
-6.238658901263308687e-01,1.565552162134931313e+00,-1.220814586463528917e+00
1.111713026657019515e-01,9.107132962247583841e-01,-9.932647087666438002e-02
-8.872024879771671646e-01,7.609155310450125276e-01,1.046346757600325056e-01
5.730169758445124994e-02,1.261402331971819946e+00,-1.528008373523295882e+00
-6.467586977961741201e-01,1.469501164795536718e+00,-1.191945032999494281e+00
4.311165506044055129e-01,3.115025090936759167e+00,-1.768425071718685349e+00
-7.564360259575388934e-01,8.553363319248264984e-01,2.526699995194202075e-01
4.310947640695695360e-01,1.135302406426405231e+00,-1.043250191585378683e+00
-5.100343806386845556e-03,1.660567639913235749e-01,-1.743627265728247555e-01
-8.388146572598835782e-01,7.921196618674467560e-01,3.498792877195290862e-01
-7.436366975759739484e-01,9.441944124879990685e-01,1.006805515586036148e-01
-6.843227580334781956e-02,7.064369374959320602e-01,-1.356176618570223757e+00
5.528130597466419660e-01,3.539483233983142352e+00,-1.145546955079024487e+00
-1.374333967707825829e-02,1.502709498765888441e+00,-1.476334574084075646e+00
4.672304621171750605e-01,3.173157362959368566e+00,-1.828807878703572642e+00
1.726914632244118675e-01,2.626738688436156099e+00,-6.459531333050606561e-01
-4.499886629812500649e-01,2.974494359523658926e-01,-1.275614426029240356e+00
2.189703412618685952e-01,1.561446290629514566e+00,-1.390040034388266288e-01
4.222971769092142558e-01,2.343937350687513188e+00,-1.729646785365157147e+00
-4.334457092376127474e-02,2.255298976720386150e+00,-3.616560457876473178e-01
8.384045910449667849e-01,1.656570527440619056e+00,-4.803162143632893621e-01
-8.205753148796470775e-01,6.005457023370631697e-01,-1.075641347307698226e+00
-1.053260243031753696e+00,6.423267708674694765e-01,-3.916007470290328724e-02
2.791078227388938543e-02,3.479252448704200362e-01,2.191973419764944864e-02
3.295176147289106683e-01,1.064589549030390492e+00,-1.722610019312584562e-01
-3.072614863653113648e-01,2.205719447996972171e-01,-5.666370140545960027e-02
-4.034871322912240155e-01,2.325925931731729346e+00,-1.341232655544400298e+00
-5.118460083609416289e-02,1.784256566598838800e+00,-5.515044136339419117e-02
-1.112144288105815892e+00,5.542800797696758597e-01,-2.377972061369245105e-01
1.152499421204927488e-01,2.814857853952029920e+00,-1.602479987878135725e+00
5.342020349854964545e-01,3.092623413967847235e+00,-5.675049961547566912e-01
3.851722728493318093e-01,2.708994282468793369e+00,-2.793101871339404574e-01
7.096860176097724571e-01,3.241775554399304315e+00,-5.003670817161535167e-01
-2.283837767401120933e-01,2.938001730454040672e-01,-9.432377868060995985e-01
-7.848545836957527833e-01,1.853057493003022749e-01,-8.771799571681895280e-01
-1.049239892881911052e-01,2.785249250063718485e+00,-1.473645068675774272e+00
4.846468510287298970e-01,2.271422897303900346e+00,-1.769832390307070069e+00
2.680782219602165783e-01,1.972044605261596750e+00,-1.659293646182185444e+00
-1.033060188170946914e+00,1.090651207097098396e+00,-1.011844984708984763e+00
7.423742204371320819e-01,3.432400699387517573e+00,-1.573823504669479956e+00
3.893496269725237741e-02,2.208152436492499149e+00,-1.025028822268866935e-01
-1.383766955048358060e-01,2.101084916381691592e+00,-4.370585255597201901e-01
1.599149939169836943e+00,2.679501964792428748e+00,-9.100787893889450419e-01
8.463281554052695110e-01,2.710955864577809127e+00,-5.374475369348929998e-01
-5.636166586058133365e-01,1.974135793531597294e+00,-1.272539596738041068e+00
-5.337300174052077573e-01,2.162356537277262625e+00,-1.261855103611736251e+00
-3.783983212536426999e-01,3.890891222119780557e-01,1.707907902502681652e-01
9.624071265054369162e-01,2.024589414647889107e+00,-1.314882227408529003e+00
-7.919632150409997573e-01,1.378231371780128667e+00,-6.729520668610410317e-01
4.668924991014835046e-01,1.223981331037081510e+00,-8.652890785993130329e-01
9.755487418167250180e-01,1.708033264515359750e+00,-8.792258031690877162e-01
6.274696526411366326e-01,1.459016418093289413e+00,-1.049355768870110506e+00
8.377318339798320856e-01,3.360478991093765355e+00,-1.667000354485442815e+00
-7.888646411850367413e-01,3.180472944033757021e-01,-3.372008080284825127e-01
5.337843512863559882e-03,2.652651945564598712e+00,-1.516895757460100524e+00
7.547799185729726634e-01,1.622663469053268415e+00,-1.162808251065497123e+00
6.836538479049814043e-01,2.297296367022549024e+00,-3.958245759948060272e-01
1.093509080412252477e+00,1.981742168407024218e+00,-9.161578685067569561e-01
7.927060676413362206e-01,3.608361084150629061e+00,-1.073433855290341965e+00
-2.767926924240812214e-01,2.555607200358330999e+00,-1.448832283878713767e+00
7.767807435104154834e-01,1.818567786730271418e+00,-1.344834409978687306e+00
1.469590154873406496e+00,2.958459922048176427e+00,-8.612231053059072883e-01
1.353295061784117737e+00,3.026876665711199177e+00,-7.856411323891213661e-01
1.834543403614996293e-01,1.752885553300579824e+00,-1.604874823612175039e+00
1.061895659699347183e+00,2.700014924943843653e+00,-6.304026179363628746e-01
1.824415181256176244e-01,9.107828253292669096e-01,-1.089049834183924981e+00
6.579551938388059629e-01,2.290395732871313150e+00,-3.794794313154892795e-01
4.252152320677236585e-01,1.399060863134078181e+00,-1.401342368356744750e+00
-2.012358896031125888e-01,2.140015227373850859e+00,-6.197693649129948357e-01
-2.413922834289254638e-03,1.502291291878694812e+00,-1.483543882198765429e+00
1.085529549187021381e+00,3.322816006326842597e+00,-1.426798718089823170e+00
6.353141904532649820e-02,2.408261288504885300e+00,-5.166665266400349843e-01
9.544393406733329144e-01,3.607741417883894020e+00,-7.558835362352703813e-01
4.986542115901952399e-01,2.950133096443897429e+00,-5.360677245793490364e-01
3.068023811987093952e-01,3.064808371562230516e+00,-1.667025186306968942e+00
-1.232254187498672993e+00,6.866387140218869201e-01,-8.490021221608801127e-01
-4.045397084716856884e-01,7.160356790120436798e-01,2.046333979483034027e-01
7.906991688824704934e-02,1.023627299107679800e+00,-1.521164179583260667e+00
1.070602554695614383e-01,2.502389166174042501e+00,-4.514154472506730631e-01
9.326819263094745516e-01,3.297226917385382094e+00,-1.851720525400598616e+00
-3.871510174420193517e-01,1.392359029132801407e+00,-1.367425630090366440e+00
-1.794366956963863446e-01,2.641947957815229397e+00,-1.426324585229260311e+00
5.512686734782928921e-01,2.823197434927073424e+00,-1.814953654230144764e+00
1.661559384025808273e+00,2.856928300692823885e+00,-1.055898424040398131e+00
1.026251088263245625e+00,3.033200419462452224e+00,-2.071139005549166079e+00
1.253061704318039871e+00,2.472370628930455450e+00,-6.963958147878342997e-01
-2.354098598111594998e-01,1.750742465482050814e-01,-8.645204846563256940e-01
9.807294277672796989e-02,2.734530862285620145e+00,-1.587585322329310822e+00
-1.828859557447328754e-01,1.617861432541558009e-01,-6.095052111369176906e-01
-5.187065722862490569e-01,1.960348174950075961e+00,-1.283810166746634396e+00
1.044421869347739840e+00,3.167263805581931102e+00,-1.912543310924982976e+00
1.161968908837128334e+00,3.042086143252471953e+00,-1.987005008026930364e+00
1.198358779464497648e+00,2.516040483424581975e+00,-6.701130960407155612e-01
5.038965815394848002e-01,1.791592498361853414e+00,-3.537383564344677156e-01
8.493607220574704852e-01,2.947984153389272777e+00,-1.967502652849059119e+00
-4.914147716075760175e-01,2.199062302640101052e+00,-1.202460549324913197e+00
6.288395367953640847e-01,2.561103676597963563e+00,-1.831355158926478044e+00
3.368465307428223365e-01,2.132313668237021176e+00,-1.705816952877395654e+00
7.185235118969294232e-01,1.622438575587199727e+00,-1.063824880677683105e+00
-2.104821275461948304e-01,4.849129271354808979e-01,-1.314010378467007634e+00
-1.250901406323918552e+00,5.923803189561359650e-01,-9.258268603921286921e-01
-1.079584705766245545e+00,6.808832932573245511e-01,-6.637521800508502934e-02
-5.389746065464213753e-01,1.539780650313122390e+00,-1.212630479718167287e+00
7.303727081868657267e-01,2.903755761304066763e+00,-4.827271138299175091e-01
4.722391673239643151e-01,1.634937512611121857e+00,-3.403468947100901087e-01
-5.201858726440431457e-01,-3.336375579226667082e-02,-1.087905824847073877e+00
-1.259543186912082113e+00,7.755151742190953268e-01,-8.440769569581888510e-01
-6.363924832604974657e-01,5.157894716465308838e-01,2.217547106901031351e-01
1.937722761280233907e-01,3.243917531680577504e+00,-1.505172466236569973e+00
