-2.530482325417859890e+00,-1.007507207545371308e+01,-2.069782509594915165e+00
-8.092055410362758439e-01,-5.934045618690345414e+00,1.639670739323420834e-01
-9.072699521037342896e-01,-5.581235066075031170e+00,4.369965517672568800e-01
-4.342390779147495827e+00,-1.234925836286251233e+01,4.302351622608376225e+00
-5.295791346959002333e-01,-3.925930393456210865e+00,-5.546983528264518348e+00
1.544795738315486444e+00,-4.084361635688216197e+00,-4.143488595524530638e+00
-6.911866394642490086e+00,-7.754620725719494345e+00,2.178799803698677984e+00
-3.570507748951189608e+00,-3.245400526347577141e+00,-1.945442168428239915e+00
-7.185904771135630753e+00,-7.040699086783360094e+00,2.851069369762445405e+00
-6.218043170511886153e+00,-1.112214408925001585e+01,7.171976365752980698e+00
-7.741894695000451243e+00,-1.366882338816954601e+01,2.639405528307177118e+00
-5.562454245475295878e+00,-6.296429961200358250e+00,3.533624360670029052e-01
-7.518026920400218138e+00,-8.359208287987659247e+00,3.145622300373268843e+00
7.526679092424918283e-01,-2.513940847923666677e+00,-1.576095107446652932e+00
-7.205899519166521827e+00,-1.412747244022646242e+01,1.350784363897414853e+00
-4.742201232531073174e+00,-1.348648360985080252e+01,4.779661799453571724e+00
-4.337841246935107975e+00,-7.451177478338056659e+00,5.137320112968189356e+00
-1.701244411892371522e+00,-3.731444408028015580e+00,-4.814393775381071272e+00
1.361731044923856659e+00,-3.678117965367566633e+00,-2.641765225819523444e+00
-5.869896346817131239e+00,-1.448517162271717318e+01,3.436565139745445308e+00
-3.931031928118230656e+00,-9.244078314996057699e+00,-2.631413442343911946e+00
-5.417513017125473063e+00,-3.795224959386983343e+00,1.195463583487341275e+00
-1.814048706571154579e+00,-1.105339252951400830e+01,5.901460170089291024e-01
-7.285527212449082191e-01,-6.993159224482326408e+00,-4.439196945955698581e+00
-4.210498094412620240e+00,-6.821992963450154157e+00,-1.628906794137738867e+00
-5.700445388871804298e+00,-8.638950220760115428e+00,6.449620352328410355e+00
-6.944718730847760035e+00,-1.469399332183507845e+01,2.484446667743426040e+00
-6.165191731836861422e+00,-1.195607371656262075e+01,4.087719894181751079e-01
-1.348439796360034304e+00,-1.075591647798208150e+01,-5.333525506474788846e-01
5.426226324403684576e-01,-8.026942942246252599e+00,-2.562980178480523286e+00
-6.902198761990817388e+00,-8.684653399463735823e+00,1.907366484314959809e+00
-5.436012574411978271e+00,-4.917529439157475757e+00,2.438129670038104990e+00
-2.866850171233153777e+00,-3.090880985930546831e+00,1.717604618746808809e+00
7.050076874093576251e-02,-2.941027197855723863e+00,-6.586248430307483082e-01
-3.011287949589923407e+00,-5.796143809826181936e+00,-3.213291191058667007e+00
8.488969092612355105e-01,-3.517175749486201042e+00,-1.823699491112084514e+00
-3.792623565110654571e+00,-2.819519796885322283e+00,9.918816369114297204e-01
-5.578491064233347174e+00,-5.368204295553459460e+00,3.095591469425261533e+00
-7.042395709012693850e+00,-1.126018094755226784e+01,1.698166711785162875e+00
-4.680073156814202662e+00,-3.799012701764566291e+00,1.669200070250233869e+00
-5.242132914838832924e+00,-4.319690464303584498e+00,5.205966711140996850e-01
-2.950224470215984329e+00,-2.741751472989024219e+00,-2.905515879121129519e+00
-7.295130969815504685e+00,-1.026571412519131421e+01,2.537312175207972142e+00
-1.712850515732075918e+00,-1.121056482862217507e+01,6.368600936930955969e-01
-4.665698604076618849e+00,-4.751314084212081568e+00,-3.711051879015765387e-01
1.104190771317647313e+00,-7.367233517773678741e+00,-2.811108216801775139e+00
-4.841161565133856648e+00,-5.178592266650199782e+00,3.211043868909877030e+00
-2.027945297801856395e+00,-7.509257883112447907e+00,1.782585013173706434e+00
-6.586301947141725677e+00,-7.470323916596153246e+00,1.777436764614182874e+00
-6.118255814945201543e+00,-1.261453935041322083e+01,-9.513158018959226581e-02
-8.092052671128664443e+00,-1.221027609755679499e+01,3.088638820128372320e+00
-2.989398088740585990e+00,-3.137564921838091436e+00,-2.825162409514420325e+00
1.338862074233684085e+00,-3.650663911645835924e+00,-3.553798565203769133e+00
-4.615186261666341494e+00,-1.344358585851167831e+01,4.552026775420924487e+00
-3.807807732759687980e+00,-3.078023886722830671e+00,1.424883222396220228e+00
-3.131956467146790768e+00,-3.438416851012759068e+00,-2.598384580387090637e+00
1.728898637660915005e+00,-6.159015042435894927e+00,-3.496956591135499171e+00
-3.027997614428600937e+00,-5.465524589666052258e+00,-3.318784074448676513e+00
4.567888815927605983e-01,-4.406324236277272988e+00,-5.422215852589990170e+00
1.180419039099068201e-01,-8.738007064040298033e+00,-1.703479229622685498e+00
-3.297691390095232045e+00,-7.668629716657870965e+00,-3.053846634501132140e+00
-8.880884557882302133e+00,-1.139277402574915499e+01,5.102198311677326181e+00
-2.753668541936231673e+00,-8.210451659752196818e+00,2.640808323194907992e+00
-4.335049769404668574e+00,-4.249996346055091578e+00,-1.190624960005027377e+00
-6.822554989717797724e+00,-1.165403759544101625e+01,6.468775768412422522e+00
-3.542953389253312935e+00,-1.198656625009166632e+01,3.130169364070003457e+00
-5.809592294536055412e+00,-1.031592953208808794e+01,-1.295998078873657200e-01
-1.690704456875740336e+00,-1.450270745532673988e+00,7.602047534945056695e-01
-7.134844579979148449e+00,-1.358509320510342633e+01,1.350384902004606591e+00
-5.431238846698576594e+00,-1.252505423803683193e+01,-6.115252920272646886e-01
-6.148666142791114453e+00,-5.801217697859121891e+00,2.783101536287839295e+00
-1.121067742846687976e+00,-1.081615004588534568e+01,-2.943609256631457005e-01
-2.085537587669961557e+00,-9.928528741196927854e+00,1.218532213285727694e+00
-8.009652473564385033e+00,-1.290798307345494500e+01,3.489210329815845668e+00
1.360119124085200859e+00,-4.057156722045177411e+00,-4.236066809634579933e+00
-1.956379396278290272e+00,-1.141519489993583214e+01,6.720272189391388595e-01
-5.080742916900065964e+00,-1.484889144609232403e+01,1.835355430904686891e+00
-9.065831097244791081e+00,-9.752117209661257391e+00,5.863372354954948129e+00
-2.782699689328668388e-02,-2.613547462423206902e-01,-6.428695406115684241e-01
-7.436073337237787406e+00,-7.107224400136973763e+00,3.756565806279398512e+00
-5.351018312353742701e+00,-4.586796472020142623e+00,4.726389182842563597e-01
-5.414707938431949641e-01,-7.610685474888782664e+00,-3.535367397225967601e+00
7.529572566289559621e-01,-2.200112843731084844e+00,-1.506082563962512832e+00
-6.754826277481502217e+00,-1.316631105729683249e+01,4.530164252204648356e+00
-8.135529980802276739e+00,-1.115435951737734221e+01,6.329811845956952787e+00
-9.072362958886699857e+00,-1.071443059632118810e+01,5.926964284916613757e+00
-6.028422472277338962e+00,-1.527932980908601301e+01,2.286404243837885097e+00
-2.022970448334299398e+00,1.331389597927330193e-01,-1.170941609335583777e+00
-1.577130207706778364e-01,-8.326137889177461782e-01,-7.328851933203424374e-02
-2.848764221913811401e+00,-1.387346364522941800e+00,-4.228305050958054701e-02
2.336982794310953904e-01,-2.639707618132205447e+00,-3.340172179651506923e+00
-2.773862404407279048e+00,-9.620053452104496472e+00,2.575118850255949443e+00
-4.754582833453752322e+00,-1.339092499619694721e+01,3.503982175843611269e-01
-2.785810068805790518e+00,-1.248296544770692584e+01,1.901905624897682667e+00
-2.268444679135385389e+00,-1.270514289970238764e+01,1.096415574940514004e+00
1.111523694005122298e+00,-5.891505928255849511e+00,-4.600320849314754490e+00
-3.525227453544439005e+00,-1.466713606384695545e+01,2.528736496227377284e+00
-7.141464036599732168e+00,-1.478973773032767092e+01,2.217287072655147462e+00
-2.696475834670499339e+00,3.603056955782130144e-01,-1.552477810629953936e+00
-4.377994827726164218e+00,-1.528334777620867158e+01,3.740919282780901245e+00
-3.495320266012439170e+00,-4.898615309308611998e+00,3.471101393051345685e+00
-7.412775335024399226e+00,-8.415099610001909980e+00,2.830698544613984513e+00
-9.252336767992861866e+00,-1.039969882883018037e+01,5.327657313782535375e+00
1.285557719522167075e-01,-6.490218262038241370e+00,-4.319919911024959980e+00
-2.846948128265437417e-01,-1.227660474314346661e+00,-6.690355192286490116e-02
-3.382439038506761531e+00,-9.089750740429591858e+00,3.692092763327007976e+00
-2.445383219207252878e+00,-1.305428106839805125e+01,1.201755015421493988e+00
-8.784194350862012612e+00,-1.047765561399875978e+01,4.607136932735792278e+00
-4.494449692830247423e-01,-9.073806226168706246e+00,-1.938869758104627916e+00
-5.056863518168843719e+00,-1.451596769236222961e+01,4.170023203965327774e+00
-1.764658957520016669e+00,-1.981500286356675966e+00,-3.875826844383715386e+00
-3.534794940420884490e+00,-1.368252240992648971e+01,1.433169832559237911e+00
-7.411985978144093601e-02,-3.152762055411688191e+00,-5.191709813926279615e-01
-6.404815986623909829e+00,-1.257888185085554333e+01,5.540758446243976287e+00
-6.009445077346967423e+00,-1.130710174733220441e+01,7.054409083987787099e+00
-1.268975915186429049e+00,-7.214061740047107207e+00,-4.588864000827728162e+00
-4.373429876876568478e+00,-5.563210851035297111e+00,-1.114652307649083518e+00
1.240989838212724905e+00,-6.494347176665803190e+00,-3.925136872113831110e+00
-4.846077606164885587e+00,-4.787938343454527512e+00,2.672829450241561489e+00
-4.330699671950796414e+00,-9.418810464753052614e+00,-1.755932916328671434e+00
-8.041810832054898661e-01,-2.198269953079630135e+00,9.088669244670832814e-01
-4.103489096907299682e+00,-6.008471224739244221e+00,-1.609064919581945974e+00
-4.350959320413206655e+00,-1.445112307408859031e+01,4.008569626112776341e+00
1.134253723622904858e-01,-2.486068236373335516e+00,-3.240572830440892727e+00
-1.201366834525199545e+00,-4.603698220857808998e+00,-5.791618633936137073e+00
-3.617945067731286546e+00,-6.997512129004601178e+00,4.272126753804737831e+00
-4.111874284655738343e+00,-1.344316582586389863e+01,3.559483652150752686e+00
-3.775244660320633105e+00,-2.354133822334623538e+00,-1.230274027733562869e+00
-1.665753825599623594e+00,-9.721091078938613350e+00,6.632999360796019150e-01
-6.847437293824495619e+00,-9.251471391149774348e+00,1.971253863140297158e+00
-2.633814476895176782e+00,-3.176947605327440805e+00,2.096861019164675266e+00
-7.130792886895576110e+00,-8.460228271355349605e+00,2.115293136028230325e+00
-3.100136607757130847e+00,-8.853072087035927851e+00,3.236716705833214913e+00
-2.237735585464244004e+00,-8.588872703475297854e+00,-3.464796246799900281e+00
-6.907917279964431501e+00,-1.476283461692886867e+01,9.910181376588477198e-01
-8.394750251700111576e+00,-1.134886745225770355e+01,5.431919196870145683e+00
-7.451668418731226318e+00,-1.402919771972775997e+01,1.882084043603433621e+00
-6.523996741897424290e-01,-7.027274444814233689e+00,-4.465840646214217280e+00
-3.385144063214864829e+00,-1.180068684172830196e+01,2.656592472589141440e+00
-7.891001376852967431e-01,-4.958807026727227729e+00,-6.447069661194369417e+00
-4.318121611515854497e+00,-1.273882955499055569e+01,7.033275386798572282e-02
-6.950644076402470617e+00,-8.443277320644657635e+00,5.715570903255851043e+00
-5.971690287805022646e-01,-6.845652090707843307e+00,-4.782748788618341740e-01
8.037777133615229275e-01,-3.987464993456725448e+00,-4.677216432002444968e+00
-1.139276622382726867e+00,-4.233612377532102400e+00,8.042999390033542806e-01
-6.237643813809140347e+00,-1.225412140933550376e+01,6.130250812666655946e+00
-5.071739783839454674e+00,-1.335420235349544527e+01,5.249327643322070358e+00
3.407335280652228071e-02,-6.062227133614999097e+00,-1.064771408163834421e+00
-4.165087082295175769e+00,-1.001374044115017625e+01,-2.085689667330719033e+00
-3.593320723854651177e+00,-1.022140511212132630e+01,-2.226421328763213303e+00
-2.295030648064556367e+00,-8.155421516401233362e+00,2.112084571074502648e+00
-6.300750372782673914e+00,-6.102294641235627815e+00,3.187127388627789326e+00
-7.539085638750306018e+00,-1.287531040464910426e+01,2.227757617310752281e+00
-1.093170551931468282e+00,-7.519634853702197752e+00,-4.175026464760160927e+00
-1.452728020703476508e+00,-6.711266283640705765e+00,-5.092866754013734010e+00
-4.170879248604261846e+00,-7.249890676979582338e+00,-1.764479728849778439e+00
-1.733766569180949846e+00,-1.051293697969052587e+01,6.210360215632043657e-01
-1.966315163655297793e+00,-6.802054975671429915e+00,1.868720917719286945e+00
-6.601796296399659703e+00,-1.316487866344488111e+01,6.006618456739968304e-01
-8.146162956862637472e+00,-1.198158864339954555e+01,3.120405645913260528e+00
-7.479379294965876390e+00,-8.916644772718859357e+00,5.800637187780544046e+00
-6.279475735279815396e+00,-1.420339195409591326e+01,3.464383282985088020e+00
-4.041590551295940692e+00,-1.275372802165323449e+01,3.791962036085605448e+00
-6.386382714364986946e+00,-7.627140225248191463e+00,1.518078059658596768e+00
-4.915676312645929968e+00,-2.931112949963544434e+00,2.988256287976724379e-01
-7.212668216106234986e+00,-1.247918878048103686e+01,5.193086848534566258e+00
-7.176270974305952732e-01,-9.743914056505893484e+00,-5.029669631983362255e-01
-3.107584221610065089e+00,-7.011620960764988197e+00,3.534609289581392311e+00
-4.263422093231979737e+00,-9.447551528857514924e+00,-2.175795578664150742e+00
-8.306924724174781005e+00,-1.200101196162184891e+01,3.246452733964220627e+00
1.524678758069863305e+00,-6.349929951798323202e+00,-3.934697667384839281e+00
-9.552788205007870515e-01,-1.002644951686398400e+01,-4.095151365909145413e-01
-4.107591913055745891e+00,-1.404640259731649365e+01,1.612469764345752621e+00
-6.603308844783772891e+00,-1.218411849874553354e+01,5.736616711293877735e+00
-4.368230804371314946e+00,-8.171164149829815315e+00,-1.850861874823222397e+00
-2.928928933266233603e+00,-3.534461736717457558e+00,-3.061148005913979286e+00
-4.914796052319712949e+00,-3.581757555455351572e+00,-1.963259009095834340e-01
-8.119916738225171571e+00,-1.003646099219991683e+01,3.657686276572670980e+00
-9.842475527704633853e-01,-6.706491035230878417e+00,6.590731402964628005e-02
-5.396801302511004650e+00,-8.952540067951003877e+00,-3.149353452570199940e-01
1.910031032621292008e-02,-1.800532757008922236e+00,-2.237263419860785696e+00
-2.701458579113129588e+00,-7.177056819297687795e+00,-3.959100423763997956e+00
-1.499261139799117126e+00,-3.570955853938818869e+00,-5.266365259098575891e+00
-4.872867499561511551e+00,-1.495949741208576533e+01,3.559366377409757476e+00
-3.009764579601995838e+00,-1.808473580436685824e-01,-1.140377535543338983e+00
-3.447081652495925574e+00,-1.443540426519551190e+01,2.604141478318040548e+00
-4.344284820004085113e+00,-1.173187941449904059e+01,4.494580100888857288e+00
-1.264556491955231898e+00,-5.616260449467048943e+00,-5.859558037891208215e+00
-4.769863898788399226e+00,-1.142274716295565895e+01,5.279970371615099189e+00
-4.491175162491918726e+00,-5.312638187818252256e+00,3.358950505812543508e+00
-7.291987395215158152e-01,-5.739700055677071866e+00,-6.008251499442557098e+00
-1.052923473325610537e+00,-3.397137885856886363e+00,8.459789567870000804e-01
-2.987577963110671142e+00,-4.570130910499188737e+00,-3.055282104455021130e+00
-3.850035455582680566e+00,-1.469016917572682424e+01,3.095096736539518112e+00
-6.150651960009652086e+00,-8.885881727009854458e+00,6.651009149873195803e+00
-3.325679364602547317e+00,-9.434596332441076427e+00,-3.134601118257809294e+00
5.489194215933126397e-01,-2.439211747248331452e+00,-2.694467276533045297e+00
-6.835810640839438790e+00,-6.433796722178048988e+00,2.464777924603163139e+00
-2.987332326208737676e+00,-3.029530252235645982e+00,-2.663902504896056733e+00
-7.440608055961869027e+00,-9.818741707413469300e+00,2.700760572395229708e+00
8.937028647537352821e-01,-7.460095878573237194e+00,-3.224606172482805899e+00
-8.846455667862404004e-01,-8.654505728816944909e+00,-1.757186423137452325e-01
-4.323200655988562957e+00,-9.638563643905097678e+00,-1.874693380983805779e+00
-7.298407581543247424e+00,-1.416094173644032672e+01,1.833441242429638685e+00
-2.466762309470206915e+00,-1.233339516292235238e+01,5.913306577901932259e-01
-3.339077958060856055e+00,-7.328905827434355480e+00,-3.137359338552249799e+00
9.963894296527333605e-01,-3.972779151626690375e+00,-4.381654105562630797e+00
-4.384293494454153617e+00,-5.397817986828981951e+00,-1.165733193266800027e+00
-6.150268001155214215e+00,-1.375333608007738562e+01,4.343020948479654031e+00
-4.149095911741696341e+00,-1.107639289374022340e+01,-1.850632358862024596e+00
1.418418506959573666e-01,-7.233508386553539893e+00,-1.717442279807141592e+00
-5.191427503468499793e+00,-8.748990314340291619e+00,-5.509174247331333207e-01
1.889586375632518633e+00,-4.828769014222633160e+00,-4.577394213744466533e+00
-2.584097178286064889e+00,-3.481956579188951295e+00,-3.395222086295507591e+00
-6.253062010919585134e+00,-6.190453183152904160e+00,1.544062635524224847e+00
-1.268912372123435661e+00,-6.156958610994964332e+00,-5.670811505568980948e+00
-6.864118987033398511e+00,-1.448922324609789669e+01,9.139823472396039206e-01
-2.698923979437635623e+00,-4.745237857786269053e+00,3.709072178707371492e+00
-7.573591724429833860e+00,-1.219540121405642097e+01,5.052226094247811439e+00
-6.759533301713169795e-01,-4.940086145609744461e-01,2.266310830399264897e-01
-3.282361472058294982e+00,-1.187062446789474590e+00,-2.151909045677944832e+00
-2.208888110902668345e+00,-5.414588993227019920e+00,2.188739853821279890e+00
9.699355753273791736e-01,-5.282637032016564760e+00,-5.473550644100527052e+00
-5.247870996539224286e+00,-1.466697948904679016e+01,1.667172546795792520e+00
-3.463410739121833615e+00,-5.958526026882695170e+00,3.912670801790123942e+00
-4.777062958762273159e-01,-2.835286172405398375e+00,-4.139462125691203198e+00
-3.694001477520588494e+00,-1.307348571548189398e+01,7.831816180653289328e-01
-5.574789202165351121e+00,-5.892322964061688317e+00,3.510184605562784110e+00
-3.482311566389139301e+00,-1.454875218749242549e+01,2.767203139600745931e+00
-3.376264099064299362e+00,-1.061236358478016895e+00,-1.881540903963947020e+00
-3.203124918871741222e+00,-1.405931328520843948e+01,2.371521445584294785e+00
-2.834118026578745120e+00,-1.330379578423808717e-01,-2.459344547898834055e+00
-4.092829393509926028e+00,-1.261710164417022106e+01,-2.135439585036510712e-01
2.938823740760139816e-02,-4.305847008844374102e+00,-5.756351178302896443e+00
-4.778106893890782914e+00,-8.222979251969720238e+00,5.637010356769586394e+00
-6.402497599006624629e-01,-8.857486719155278215e-03,-4.138425185998482747e-01
-4.442164480519073422e+00,-6.407067282958890608e+00,4.768813588302384332e+00
-2.590009706127826661e+00,-3.199177237283074682e+00,-3.504297432921484656e+00
-7.842956716173378195e-01,-7.393711212215555939e+00,-1.217107351895471840e-01
-6.724081411538509023e+00,-1.232381720892222177e+01,5.853947367956963355e+00
-3.008359415376705925e+00,-2.097000909566204996e+00,6.880248446394521267e-01
-6.667946430327856611e+00,-1.541783313203439043e+01,1.550397393593915485e+00
-4.856508321191074451e+00,-7.454077741054561557e+00,-5.810488860857140336e-01
1.056725148119881608e+00,-2.830030106611002516e+00,-2.933166937380780492e+00
-4.035047554477911191e+00,-9.419333172575733215e+00,4.316312387687596619e+00
-7.961558825666855910e+00,-1.174083825137012305e+01,3.134586879759061695e+00
-4.579396190641669584e+00,-9.231406503657398233e+00,5.266906620551186968e+00
-2.991818335913996041e+00,-8.199165100991935518e+00,-3.727744562271018136e+00
-8.354479590545032863e+00,-1.017086693896917460e+01,3.978062393979393097e+00
-5.890377369537028507e+00,-6.057033688676258798e+00,9.773036039305670331e-01
5.184286168622698199e-01,-4.913764698941766262e+00,-1.691911083211913525e+00
-4.605627817325529949e-01,-6.179473699002227427e+00,-2.494730962470486924e-01
-7.807982609099963334e+00,-1.177069835869072989e+01,2.927613590032887902e+00
-4.049185677963918373e+00,-4.290015253340819790e+00,-1.493378795205919651e+00
-5.152566503725297231e+00,-1.361106671165274129e+01,5.149341853679860748e-01
-2.831870275931362091e+00,-8.476418072103500734e+00,2.845406348332964797e+00
-4.111171780738281711e+00,-1.561580811220553500e+01,3.416944260076847151e+00
7.511818190285656227e-01,-5.900210331807230091e+00,-2.195677545073734471e+00
-7.153170626189632175e-01,-9.676634104191368380e+00,-8.441698459928939080e-01
-3.971251966552438173e+00,-8.948325221843896671e+00,4.035015976276626226e+00
-4.088042372651699452e+00,-2.204510260623460560e+00,1.899810228730592632e-01
1.274821040653381088e+00,-3.903641970026470620e+00,-3.909516400613359810e+00
-5.244072444014347134e+00,-1.545526906805539724e+01,2.263373890008128608e+00
-1.768754148821952921e+00,-7.750886769275878718e-01,-2.247536925579812994e+00
3.056238307613767802e-01,-2.285434223608845627e+00,-1.022246726094727221e+00
1.683644103645606238e+00,-6.273401440865509215e+00,-4.189431442328288568e+00
1.723113577230400928e+00,-3.966998015544628498e+00,-3.216599731408698482e+00
-2.362815527099446200e+00,-9.760908659247705899e+00,2.023603822151113008e+00
-4.970238691841463385e+00,-1.543477955526916645e+01,2.443264147295433730e+00
-1.946580619834418879e+00,-7.788478699091243129e+00,1.558172469669476534e+00
-8.776613466910999639e-01,-6.162715487349268439e-01,2.154162632474757311e-01
-4.263744434191688804e+00,-9.509731244693506724e+00,4.619190401333107765e+00
-4.236532818467015460e+00,-8.628680896592001659e+00,4.419806516075083458e+00
-2.541889523937455486e+00,-1.270260381158143126e+01,1.593036471872582016e+00
-5.154307944571630884e+00,-1.001730002118727647e+01,5.979624336215446867e+00
-3.129774220715375144e+00,2.732122429098124416e-01,-2.010851669548281873e+00
-3.156952127358501947e+00,-2.127303111296007021e+00,5.848992415531677480e-01
2.227653438892865712e+00,-5.212788793343493765e+00,-4.344854139829547712e+00
-3.359087145193722534e+00,-1.364881511732337316e+01,2.665808700155476885e+00
-7.485169577108186978e+00,-1.337675371251337886e+01,1.975068315952730247e+00
-5.821795302134054495e+00,-1.264428084472397451e+01,5.992195850659680190e+00
-1.889734537258953351e+00,-4.423443097526461365e+00,2.014401718690089993e+00
-3.231241470550858086e+00,-3.561890190792830424e+00,-2.398846007540881065e+00
-2.713876129703073126e+00,-1.171418939630736311e+01,1.871143315973283983e+00
-7.597680930952288136e+00,-1.081562085236598492e+01,2.711404600356290384e+00
-2.413508010423405459e+00,-7.527374676955229660e+00,2.325972423399360167e+00
1.916082871298861456e-01,-9.720392569388255355e-01,-8.831553636271074481e-01
-6.121018098514358741e+00,-1.355928028300275123e+01,-5.905806196302104683e-02
-4.911742923235308034e+00,-7.197534241117340414e+00,-6.269027747013602436e-01
-6.781078609330851492e+00,-6.783571252516447991e+00,2.394082047692185355e+00
-5.984068271235697623e+00,-6.280540202737885380e+00,1.112161334507089538e+00
1.514715671491025928e+00,-6.186941771928013978e+00,-3.291364962033669350e+00
-5.376910308567640406e+00,-7.987673158608705748e+00,5.830951421230890830e+00
-6.565278495383840784e+00,-1.277090996189045136e+01,5.153147957147443670e+00
-4.234089376059387844e-01,-4.886109326298033739e-01,2.385930005850619706e-01
-2.165991797302873945e+00,-6.701675293565088509e+00,-4.633650235156595798e+00
-1.990303686989780996e+00,-8.450203330411705238e+00,1.585932835506876692e+00
-3.691699819736869337e+00,-1.870020740493655964e+00,-1.264922725926779457e+00
-5.833075207231202874e+00,-7.301153413885066890e+00,6.667857336658209455e-01
-6.161207125235238502e-01,-4.396154545564666449e+00,-6.205987389648575103e+00
-3.340338010029958227e+00,-4.496176841964031112e+00,-2.521839862141383115e+00
-2.684034915682678157e+00,-3.979226477037489662e+00,-3.187730849971783798e+00
-3.489063358081316846e-01,-8.686495599225667164e+00,-2.382279424328336503e+00
1.309296807922565309e+00,-3.897583963921924965e+00,-4.111976893376964703e+00
-7.578484174807893936e+00,-1.026951288274852025e+01,3.017237875387936086e+00
-3.869755722026078981e+00,-9.385922446035028344e+00,-2.618396227842672896e+00
-6.693585864207610037e+00,-1.171310067912688702e+01,6.525872992232070402e+00
-7.720263530616451320e+00,-1.111932581169615020e+01,2.635831230746157772e+00
-8.020864924388825257e-01,-9.496030407160858999e+00,-1.777817595753541591e+00
-7.870710648305910162e+00,-1.208362864922145974e+01,5.070200874221845844e+00
-8.253350001604861319e+00,-1.050070413377105538e+01,6.961353099825539736e+00
-1.981093373774551081e+00,-3.431539756559757848e+00,2.128580432995587746e+00
-3.242422681227614234e+00,-4.952279273451218877e-01,-1.238731831867339706e+00
-2.549986872622894474e+00,2.843694121802667896e-01,-1.629901672619145536e+00
-4.371293181264329419e+00,-1.426759508363146622e+01,1.569087548689491074e+00
-2.051842803447839536e+00,9.715726347406999919e-02,-1.494909649500606896e+00
-4.615659131055849684e+00,-1.286031568433257988e+01,4.609790640737410961e+00
-2.890849667349777441e+00,-9.007987492219712067e+00,2.731293479904049359e+00
-6.478803293122608054e+00,-1.528184985396042528e+01,1.859406768960151224e+00
-2.857044073047870558e+00,-1.290477866600155288e+01,1.172056113307728742e+00
-8.583799253296746368e-02,-4.304735133474300035e+00,-5.895291041251714548e-01
-1.959699225926024635e+00,-5.686005254433334599e+00,1.871871137201325253e+00
-4.812646437126815613e+00,-7.905627290975437482e+00,-1.058782815970322533e+00
-1.869931121067271773e+00,-1.120604631285714348e+01,-5.835193062249418583e-01
-4.145341099723705902e+00,-6.558879692343779766e+00,4.963251018107814438e+00
-4.788618677621706787e+00,-3.489937950556105672e+00,-3.338930012027601091e-01
4.956880679180118432e-01,-5.742970188917714047e+00,-1.617749282613047068e+00
-4.766794973034182981e+00,-4.271883681308854541e+00,2.192540700045293001e+00
-1.173363962892627566e+00,-3.607105892712932693e+00,-5.645136794626318455e+00
-6.560251994418558219e+00,-1.383047438912837990e+01,3.785334087014978977e+00
-6.363572939095555547e+00,-6.118136993193978412e+00,1.695474117555735294e+00
-5.147217405063709172e+00,-3.076571595927620084e+00,2.630107887186023952e-01
-6.640621857890905311e+00,-1.331604796273782831e+01,4.366755677911729805e+00
-3.560499878445182897e+00,-2.259402367012808721e+00,-1.722837651680234616e+00
-5.214506254697855780e+00,-8.151837186190659779e+00,-1.894184463977140187e-01
-7.691938214092579607e+00,-1.386356335656487104e+01,2.714181001199041265e+00
-9.343396011793249079e-01,-6.542271584771791382e+00,1.017862518509525110e-01
-2.880435951747238654e+00,-1.032332379569092140e+01,2.228004097179917764e+00
-1.067366627993875827e+00,-3.619363850064190924e+00,9.554673833624531820e-01
-1.866963482580706213e+00,-3.217361023361546835e+00,-4.525395817753610217e+00
-7.650734609086901727e+00,-1.417377309012035802e+01,2.368186050195156156e+00
-1.485742556823750560e+00,-6.323103874664783852e+00,1.013209110874325303e+00
-2.038943981841724096e+00,1.670108748644692775e-01,-1.326334798857917940e+00
-7.194068762707883202e+00,-1.158915440435518818e+01,2.193879860893838352e+00
-8.331102213163070758e-01,-6.563486608471801098e+00,-5.008202024999144797e+00
-1.317732676573675876e+00,-2.513297439641120068e+00,1.392071918227244742e+00
6.867755288542021219e-02,-6.278126176699576177e+00,-4.997156941800515284e+00
-1.073642282126799907e+00,-1.892817905130389722e+00,1.090569036069065634e+00
1.928898157735166485e+00,-5.294767785162572515e+00,-3.899266806996084078e+00
-8.536829552858216985e+00,-9.913811374822424582e+00,6.498567528184060471e+00
1.841336249413532133e+00,-6.310923319966613043e+00,-3.795186434112582941e+00
-6.092493864460684527e+00,-1.467192481955035888e+01,1.028058259748299230e+00
-3.438605376508902634e+00,-2.500618013301446396e+00,8.662612855733013983e-01
-2.191606576451860189e+00,-9.125431660760577657e+00,1.524352875615173852e+00
-4.213460660873932895e+00,-1.009981919559014862e+01,4.649161846598838466e+00
-9.561439277044553320e-01,-4.656129742383721570e+00,-5.899120103733263676e+00
-4.702203960743988276e+00,-4.147985678074927129e+00,1.920073485111545297e+00
-6.833525441454671778e+00,-9.089049976653969409e+00,6.266634827820169562e+00
-5.356934081835668104e-01,-3.285868648411172543e+00,4.671393438003195175e-01
-2.724844531291417127e+00,-8.222043967807138642e+00,-4.152930947554395402e+00
2.472032496149138836e-01,-8.299178334892793885e-01,-4.611845963439323293e-01
-3.618177665884523719e+00,-2.016911985199064006e+00,-1.846572929775999850e+00
-3.923074117859196797e+00,-8.039643021838706716e+00,4.329045720962064969e+00
3.785285769121597421e-01,-7.517318160923680992e+00,-3.243863672546751342e+00
-1.587853987052438409e+00,-4.888677183390666592e+00,-5.382138040309931704e+00
-2.788770585168907079e+00,-2.115029230424069429e+00,9.335358283330129625e-01
-2.990446908372401680e+00,-4.938567485551099701e+00,-3.136072204300717203e+00
-6.254189205482742153e+00,-8.662656579871706342e+00,1.065473282225362084e+00
-1.015968723749522740e+00,-4.569851356638625184e+00,-6.062729787131336145e+00
-5.543046792953870927e+00,-1.436193392253379031e+01,3.876982349952949658e+00
-4.213440534290596062e+00,-1.496329681057003036e+01,3.655440534913860340e+00
3.189277344307762663e-01,-1.502855460103508012e+00,-1.662618114441332340e+00
-3.447648811043586115e+00,-5.179882469145282720e+00,3.783502564254529688e+00
-3.740232165099520056e+00,-1.116797055327438226e+00,-5.813434718764125542e-01
-3.518659461590512016e+00,-1.052644387040306029e+01,3.128139953467262036e+00
2.099481881614920775e-01,-2.716005903266689447e+00,-8.829440394001298875e-01
-6.771484539787593349e+00,-5.658684089345796586e+00,2.746813638356767395e+00
2.321895167861573739e-01,-4.940256742926290023e+00,-1.260598410616607712e+00
-3.150925458176620175e+00,-9.401605454669912376e+00,3.008346477650494233e+00
-2.879591367326142848e+00,-1.329525476629591552e+01,1.869261289620222311e+00
-3.434714356827386794e+00,-7.770165533051277329e+00,-2.821728961499076149e+00
-4.606305875107491232e+00,-4.965742106216430862e+00,-5.251560039692463322e-01
-2.082526100639328526e+00,-9.212615101427411801e+00,1.231769161847036997e+00
-4.394989645110221943e+00,-1.293598917968581752e+01,-5.468920291046161508e-02
-2.250946919557413217e+00,-1.243639873485820058e+00,2.043833320436113099e-01
-3.391871953715312582e+00,-5.591823541223868155e+00,-2.501607215556132413e+00
-5.985481619655558916e+00,-8.124578870049637302e+00,6.011265038107204361e+00
-4.122774939935320404e+00,-1.503782871046193037e+01,2.462216717041957992e+00
-2.826475689583745510e+00,-3.895358115556601941e+00,2.968528232905922160e+00
-1.133290445080181286e+00,-8.279531576809395332e+00,1.263312401909447436e-01
-1.995030761923770823e+00,-6.586633523613394381e+00,1.601111235312888459e+00
1.677741041852898629e+00,-4.660910772847755901e+00,-3.330802378899058613e+00
1.368521308848922091e+00,-3.144580387781660047e+00,-2.618837579908093627e+00
-4.909070528306884285e+00,-8.193426728507146706e+00,-7.636339538879888256e-01
8.249856825826501483e-01,-7.442695319061009229e+00,-3.263791547276724270e+00
-3.007220894221262597e+00,1.761140201830510010e-01,-2.033842027639237049e+00
-4.586507680308848478e+00,-1.470363747664161735e+01,1.798155289863387241e+00
-8.234219659852673345e+00,-1.088759103755950619e+01,3.494611484032124959e+00
-1.274847753184906285e+00,-3.747208068624146016e+00,-5.448271613878026720e+00
-1.963715771264403109e+00,-8.955071486307112139e+00,1.373479264690621759e+00
-4.502138335505157407e+00,-3.303744432055688129e+00,1.183122736978011291e+00
-4.436531658031036329e+00,-2.928903619259027646e+00,7.922855342543273505e-01
-1.824827444946565791e+00,-6.584270938087527503e-01,-2.436712831699081150e+00
-1.855514553763467633e+00,2.419058198469203336e-01,-1.288336947508712971e+00
-7.288512838500328606e+00,-1.490453632493129987e+01,1.967460316128583742e+00
-3.375298004427327747e+00,-8.750549662176364762e+00,3.430701328182231613e+00
-5.523588564012627877e+00,-1.294056333613578502e+01,5.801129420891081523e+00
-2.696560555722012253e+00,-2.424154433299720690e+00,1.301521981680984208e+00
4.234264073501539105e-01,-5.671562305797833936e+00,-5.400200597241198608e+00
-3.078761556670065680e+00,-9.146616662399991160e-01,-2.251394177635141602e+00
-3.458180233891559041e+00,-5.830536579946347109e-01,-1.198909015777918752e+00
-4.231480027518923492e+00,-5.832209809479143914e+00,4.037843230723407117e+00
-6.526537686825829354e+00,-5.765592573994458903e+00,2.062917434391725369e+00
-7.679147052092059056e+00,-8.228497437567709127e+00,4.831370798084036799e+00
-7.205295804828053541e+00,-1.077682788020566740e+01,2.319833885916643190e+00
-5.161584676673959038e+00,-1.290745816393924272e+01,-3.643227520951656806e-01
-5.881617657563720236e-01,-4.905126628639435715e+00,4.766326225645735153e-03
-4.565354527203074220e+00,-7.809311970528623803e+00,5.541722389019225758e+00
-2.610745524018891039e+00,-7.644131529380901569e+00,-4.283168936757346223e+00
-3.371747672628613746e+00,-9.907865931780705182e+00,3.303231173802136933e+00
2.425969069121402810e-01,-7.589209849153069953e+00,-3.073914041942528819e+00
-4.737115826750054381e+00,-8.709190347377138153e+00,-1.080829795591114806e+00
-8.982653655298226125e-01,-9.031906085697119835e+00,-5.942804204859133965e-02
-1.957206990694873916e+00,-4.021817883471313415e+00,-4.294098521902824928e+00
-5.895017297817772395e+00,-6.867635936118118067e+00,9.361664079223467327e-01
-1.486070184246203185e+00,-8.244306427880433219e+00,-3.228653319446688652e+00
8.518875492087759627e-01,-7.454983262931417443e+00,-2.696106709773880006e+00
-1.183230258161849902e+00,-3.507997891989515171e+00,-5.465367302003644845e+00
-1.690441015908412448e+00,-8.807082010481771306e+00,-2.934118122488238445e+00
-6.395548581451984127e+00,-1.035323857186510565e+01,7.687052275279292246e+00
-2.112590091116529400e+00,-4.835581917897618709e+00,2.157058885829840733e+00
-2.194984246830721020e+00,-1.057478848103758118e+01,-1.452110063123045913e+00
-2.167909290350236606e+00,-1.188111210210323954e+01,3.061873997219299870e-01
-2.826920580652136916e+00,-4.491582527309316397e+00,-3.317305859950494096e+00
-1.199515690051911276e+00,-1.492162661754203423e+00,-2.830648038494201213e+00
-3.757469353087055541e+00,-6.633650429568812790e+00,-2.166328629445954501e+00
-7.961480741038895026e+00,-1.053848635825425006e+01,3.367647699200778444e+00
-4.757238981028410585e+00,-1.069782915246923416e+01,-1.742843534030295460e+00
-7.535041428052977608e+00,-1.354913253077363500e+01,3.382870100132565394e+00
-2.920718361281264830e+00,-6.670597074427286444e+00,-3.547436131576932716e+00
-1.441311175304380798e+00,-2.575230839168518582e+00,-4.387707437858998638e+00
-8.587229023591298471e-01,-9.417496214779133012e+00,-3.591378776057251865e-01
-5.073229370204038524e+00,-1.536991322151320460e+01,2.560664963545581152e+00
-7.233653999208818242e+00,-6.413750189054348461e+00,2.971482484828058990e+00
-4.591482199512744167e+00,-4.519765633825536533e+00,2.453892244813070000e+00
-3.901852227057337252e+00,-9.147470224286589513e+00,-2.528881024759723317e+00
-5.002912731577887406e+00,-1.276563743990424271e+01,5.166284962241211254e+00
-2.661778528694722201e+00,-1.311228506175564590e+01,1.234237583764194346e+00
-5.680285213298966518e+00,-1.198097054242174053e+01,-4.216509108835235220e-01
-1.931053713516144743e+00,-5.325507587707456914e+00,-4.900283067527817060e+00
-1.790259704923016670e+00,-1.176911325570731748e+01,6.516712651090795783e-01
2.789117003689437491e-01,-1.722939523240903048e+00,-4.750011595102221484e-01
5.617896329902755115e-01,-2.331097400636851447e+00,-2.754941800260872764e+00
-6.871240708678970854e+00,-8.402067493258433828e+00,2.026703718959488310e+00
-1.295991161742388709e+00,-1.349741570891481057e+00,5.841719253101748111e-01
-6.098718014144796307e+00,-6.892743702929473137e+00,4.317665081527974458e+00
-5.426789789273185782e+00,-1.087471507822177230e+01,5.971991384690706006e+00
-4.993109695537771842e+00,-9.495443530400084597e+00,5.738637807465540419e+00
-5.418367884441146032e+00,-1.205806124071999719e+01,6.039057277448099725e+00
-6.382901777205222338e+00,-1.241064415413848110e+01,7.328682971547594294e-01
-4.204487647621593993e+00,-1.391231503656818447e+01,3.796683785160023916e+00
-4.566637644591997613e+00,-6.109832023643841481e+00,4.420252466409068326e+00
-4.687552368333627761e+00,-2.203867436507010780e+00,5.295581751462741585e-03
-1.827509163491214617e+00,-9.479406409706767178e+00,-2.200618380294009135e+00
-5.464357823899073985e+00,-5.525160870295387383e+00,3.414110924617622889e+00
5.439528984743561280e-01,-8.167806188222085595e+00,-2.123491630232541727e+00
-5.955659665510558476e+00,-7.337121803304865963e+00,8.050863866430894022e-01
-1.399208565894594747e+00,-1.063737455569002677e+01,-7.205849283708645192e-01
-7.694805866359545554e+00,-1.329626155214924665e+01,3.625885124371345025e+00
-4.108156599476072479e+00,-1.491113691836049071e+01,2.407920981909284386e+00
-5.732115907119063714e+00,-4.261820802439691747e+00,9.828519874294524561e-01
-6.054823996439972156e+00,-9.451481831596849403e+00,7.021905166464525117e+00
-4.600289338026144037e+00,-8.696616116922809780e+00,5.384395761346553400e+00
-4.761743728943264919e+00,-9.131511219821227598e+00,-9.422984818637676341e-01
-3.289335509755793918e+00,-9.367556599790967553e+00,3.329247357961163889e+00
-4.613098377089721591e-01,-8.852422712667994631e+00,-1.012878694987582540e+00
-6.246815596005363069e+00,-9.931028724063603264e+00,7.521511209284203581e+00
-7.490574097252914676e+00,-9.962084614176818675e+00,3.009411719581111200e+00
-4.869313211957159382e+00,-7.500771637757847721e+00,5.578080781553635958e+00
-3.151665984274334864e+00,-2.595989575067152000e+00,1.352580154468295159e+00
-9.234446574578905498e+00,-1.058522333615996835e+01,5.171810279179952730e+00
-3.547722901837807807e+00,-7.640940386642675719e+00,-2.820186158123711095e+00
-6.016466111024013408e+00,-1.281711456711139974e+01,5.624945431173324906e+00
-2.744244599846806132e+00,-1.250849580384067927e+01,4.962263185131083887e-01
-5.957614536766422830e+00,-5.602307420497695034e+00,2.859712501783183924e+00
-7.444544699084807426e+00,-7.589284714290995382e+00,3.028516743735763850e+00
-7.897061735018357176e+00,-1.175622852854392342e+01,2.769659732392231621e+00
-4.392249086873298403e+00,-1.210411450885802864e+01,4.414407148072991838e+00
1.281906517767561038e+00,-5.459585993020348305e+00,-2.773294569862847059e+00
-5.244117821257257894e+00,-1.215126641364676097e+01,-1.182943761168507191e+00
3.299625739477518027e-01,-2.267150112128599293e+00,-2.802648990644037053e+00
-1.283701337862017233e+00,-1.565030519831821509e+00,1.046386798329950407e+00
-5.141065305865852864e+00,-4.183868979518628350e+00,1.789681447237280176e+00
8.248910853742030813e-01,-4.757560143185521895e+00,-5.726827930245420362e+00
-4.108139412081965425e+00,-2.365797688100876428e+00,4.659762001976555101e-01
-2.080931814501028043e+00,-4.876388704910939786e+00,2.203989771284553534e+00
-2.177362563923458616e+00,-6.383155732159400131e+00,2.193585724731010878e+00
-3.648067939593305997e+00,-5.779131114986701512e+00,-2.498259325692983701e+00
-8.326991629199486766e+00,-9.387606885146805524e+00,5.757900868569644892e+00
-6.722407453802648369e+00,-1.447552430670776147e+01,2.706261059295099969e+00
