-3.011351645213534711e-01,4.953853157458081025e-02,-4.355411289689442023e-01
1.499156732114329260e-01,9.124914421099800110e-02,-2.010595303933512490e+00
-1.390525654018886170e+00,8.695487692493020226e-01,-1.676764061797447969e+00
-1.491950503077037471e+00,7.853290622169614155e-01,-5.316810705572143636e-01
-1.012430752722320415e+00,1.200430542723524979e-01,-2.380898247109870969e+00
-4.985569029052683288e-01,1.022294581689001447e+00,-1.018051941266926441e+00
-1.291834080804726392e+00,1.270392322898636239e+00,-6.167935408781300977e-01
-5.848031067630212743e-01,1.511045895446447573e-01,-4.330184853132910683e-01
-7.971994044900301279e-01,1.139461676985194405e+00,-4.330670004006969553e-01
-1.035801857750813015e+00,1.059326615396787075e+00,-2.448927551535393210e+00
-1.282332869485852900e+00,4.339495090754210138e-01,-7.294971465947526490e-02
5.996853561513131731e-02,8.525983896593072320e-01,-8.678409253934527001e-01
-1.384909441904869087e+00,3.879862315579854504e-01,-5.588913221813873733e-01
1.241423049609998025e-01,2.207493646950695609e-01,-2.614635001219413279e+00
-1.236001936360304310e+00,2.844817607233261492e-01,-8.865169959720978765e-01
-6.001091819386669135e-01,1.098396048774771483e+00,-1.291334417508517296e-01
-1.356973120996421978e+00,8.048608329250200866e-01,-2.221931093020430570e+00
-1.386158113942104864e+00,3.872658027126088531e-01,-5.765137057681063437e-01
-1.045501455847281519e-01,9.149535457337808486e-01,-5.988615915384858379e-01
-1.012829167434005750e+00,1.911776464078912552e-01,-1.444341428229772628e+00
-5.635746789187042749e-01,1.033482157563483161e+00,-1.135162005629564985e-01
1.799478593747801669e-01,2.145684724266381793e-01,-1.043972790633172831e+00
-8.648370823077961012e-02,7.616230828811572096e-01,-2.126647573080590714e+00
2.661653123765830853e-01,3.993218226294260043e-01,-2.103672997473760908e+00
-1.063054070657960315e+00,8.419608961957417703e-01,-1.115770066121548471e-01
2.588564330796714885e-01,3.880914045655029510e-01,-2.044454475309724018e+00
2.177820404099826412e-01,4.057779462856703767e-01,-1.525112089416997829e+00
-1.337477754480064673e+00,1.093306226164657113e+00,-1.132831502032589643e+00
-8.441186478065757504e-01,7.129826978257073344e-01,-1.360907848391844088e-01
-1.457804163482098181e+00,7.490352349303572854e-01,-7.433497677878272425e-01
3.043541581599544868e-02,1.322657689075572296e-01,-1.080078914739068391e-01
-7.495567644119074391e-01,3.086507434798622107e-01,-2.610207631978891829e+00
-1.216297882377846140e-01,7.786150169412993094e-01,-2.036646732974490170e+00
-1.039858244522570141e+00,3.825264469586290850e-01,-7.031055288194330843e-02
3.261050787534265361e-01,7.053487125349138243e-01,-1.503553216185622876e+00
-4.786198961869303492e-01,9.742721013289984411e-01,-7.050921903714741923e-01
-1.432523795491192464e+00,8.026563868237265309e-01,-6.668276751028110461e-01
1.524607723332174203e-01,2.937673621566653237e-01,-2.565932632045096362e+00
-4.959334282501908220e-01,-1.971914725284683659e-02,-2.123158051768753385e+00
-1.822449481462176391e-01,9.622493148704422961e-01,-3.414837541987296721e-01
7.793778358254029037e-02,1.808416714521699289e-02,-8.584867117956737070e-01
-1.095426908821677703e+00,1.266365593418895097e+00,-6.681126391781859741e-01
-1.381297947675840243e-01,-2.114340750762210841e-01,-2.481470370860837882e+00
1.783299582469956013e-01,2.563034145184693857e-01,-1.863447206323534555e+00
1.087375239969030766e-01,8.310845754361657622e-01,-7.752621218756100552e-01
-8.097494996565931524e-01,1.261991806960865714e-01,-2.597409936680814990e+00
-5.606230622630858917e-01,-2.634672656019753853e-02,-2.487055388490622576e+00
-4.925956737454088019e-01,3.282759437239216038e-01,-2.616931328836847204e+00
3.102700023648263805e-01,3.588492079211999530e-01,-2.412369657358778507e+00
-8.115769856254070325e-01,1.412864609400875937e-01,-1.052535553052591499e+00
-1.055649664078781580e+00,1.279378465655140185e-01,-2.360161805343007568e+00
-3.110897134034659728e-01,3.075121449005231104e-03,-9.735994731253094780e-01
-7.827837009201167318e-01,1.509258500280999671e-01,-9.936839438289120086e-01
1.509807379364276336e-01,3.262864563033367193e-02,-1.816842495404455526e+00
-8.802374588208308204e-01,1.018510981550707406e+00,-1.735506233451237224e+00
1.343150829225222276e-01,6.846064190346470846e-02,-1.965386036573073536e+00
-1.047340075804784387e+00,2.450338932896278243e-01,-9.232223799430711031e-01
4.954235135350382180e-02,9.147357739744388372e-01,-1.096666132479500455e-01
-1.037137434558567939e-01,-3.560316011331179226e-02,-7.504958064487490255e-01
2.036211527573627555e-01,1.907625130119814105e-01,-2.293868315748144315e+00
-1.466786464909342058e+00,4.165222974726234262e-01,-2.187705062869235828e+00
-1.287822978072927338e+00,2.271374941315771889e-01,-2.203964086153763269e+00
-6.402371831745616859e-01,2.605493438305128348e-02,-2.023894209661593280e+00
-7.323525776962419576e-01,3.433430188024168273e-02,-2.174779082659565432e+00
5.059518722571249710e-02,7.139100023279025820e-01,-2.302714853000950690e+00
-4.694803877215134036e-01,9.710402610748933849e-01,-1.274101660061077501e+00
3.075610516952720364e-01,4.659491326979652848e-01,-2.167049836157861620e+00
-7.915517274528616198e-01,9.339661239607718324e-01,-2.430851523125949765e+00
-1.349609863798034270e+00,1.052889994983553068e+00,-1.106780526008099397e+00
-3.818321847972196426e-01,9.521762121771250031e-01,-9.515310005368917690e-01
2.884555345655079872e-01,4.282011639523741753e-01,-2.516633443959181538e+00
-1.331768465437299875e+00,9.629920452782319007e-01,-1.928443220314819406e+00
-1.287558293292340172e+00,1.060713178029772052e+00,-2.337727755657026840e+00
-1.209714819728416879e+00,3.281525530428529569e-01,-8.962583071772497467e-01
2.331102984989631144e-01,6.559267093930282178e-01,-6.521842102302797262e-01
6.232866768546076880e-02,8.619632550207115829e-01,-1.726272504102536187e-01
-2.400730451887821415e-01,3.728902685338546519e-01,-4.460677990745087057e-02
-1.000717682883992404e-01,-6.162813706670021430e-02,-1.325893278961266741e+00
3.256693934795660272e-01,4.599090539674060563e-01,-2.262371913771743515e+00
1.571934165080651757e-01,4.817170994152857322e-01,-2.566329327378972902e+00
-1.439118720919820182e+00,3.106307729801798256e-01,-1.665326789675993790e+00
-1.175181221797789499e+00,3.443812474462920603e-01,-2.655626281817154988e-01
-1.377327677652405047e+00,1.072938791853860430e+00,-8.747908568532078988e-01
-6.845079502749373823e-02,2.341113051638763765e-01,1.247875241640555334e-02
-1.329810468420222325e+00,1.025128261381707429e+00,-1.682002527015132198e+00
4.229565800946082782e-02,-1.022822368088157768e-01,-1.249191249947033455e+00
1.978902093085965486e-01,8.225944728615360857e-01,-8.565075364773092614e-01
-8.014503502379043409e-01,1.130873247675250326e+00,-4.991626981092218140e-01
-4.222563141266015285e-01,-3.663963768164209961e-02,-2.085428165928518318e+00
-1.315481493021948944e+00,3.859693872284896132e-01,-1.017342125862144009e-01
-5.026127715543565744e-02,1.336736642663055932e-02,-2.801241220095995049e-02
-1.485030815313130192e+00,7.924707711522145370e-01,-3.152062350005616076e-01
-1.366602975730272007e+00,1.139020632095631980e+00,-5.637244200114807091e-01
-1.085381234395591754e+00,1.903049045158380359e-01,-2.626690393907824994e+00
5.877284543863710298e-02,9.018134437203149112e-01,-2.861440300602529074e-01
-1.170566865478545493e+00,1.925729588297726835e-01,-1.888680017197010175e+00
2.223781688277348678e-01,6.030533990573521130e-01,-4.785446003172179608e-01
2.254242621202541819e-01,6.839416664556455805e-01,-1.914936620249045207e+00
-4.739823080466025740e-01,8.722484099960966519e-01,-2.204967383486077903e+00
2.118709977786667753e-01,8.678141048814580483e-02,-2.541953778819376453e+00
-1.086440899333221077e+00,9.349768028190008629e-01,-2.678677287852739397e+00
-9.501263865118650953e-01,3.223768399440549159e-01,-2.628230436965209638e+00
-1.091650617380879318e+00,2.760234584844880601e-01,-4.552034325961731298e-01
-1.442673181666104254e+00,4.840413951044272856e-01,-1.849363642766328475e+00
-5.382510070321634421e-01,5.580430900146801654e-02,-1.251157576871457566e+00
-5.033522774948426814e-01,7.824303742169660958e-02,-7.877733583326463895e-01
-1.123617588650853039e+00,7.642400569060386895e-01,-9.821776805222522111e-02
-1.580396435403231159e+00,5.044470186679589352e-01,-2.792113237425312144e-01
2.648572962500130856e-01,7.097611035081849984e-01,-1.487217376299221128e+00
-1.142094694617596495e+00,1.850321889859803115e-01,-2.583676631004480306e+00
1.014579363434534032e-01,3.585370046984488052e-02,-1.499689260012626812e+00
-9.167319103299050864e-01,1.117443581492388205e+00,-9.438566217909916123e-01
-1.169792647202392288e+00,1.179464535824552351e+00,-1.380732838157557651e+00
-3.768992392148604736e-02,6.219813919346439679e-01,-2.601327235625958689e+00
-5.907982462150735969e-01,1.008665703510898570e+00,-1.654324940815347755e+00
-2.528449772449375410e-01,8.913799732294404032e-01,-1.124499301496660664e+00
-1.805056171538905185e-01,-7.452030000230575046e-02,-1.302060167692237647e+00
-1.034187939228668612e-01,7.261521329100978361e-01,-2.617202558607290896e+00
-2.455213549488363400e-01,7.733060705807130557e-03,-9.191117846871844632e-01
-1.155760164725570638e+00,8.263781472375139048e-01,-1.291908110441379320e-01
3.746024890972127208e-02,8.296902913644228494e-01,-7.113230217326901306e-01
-9.341200332433603482e-01,1.028765557943648767e+00,-2.175026388389583953e+00
-1.246466888938681850e+00,3.337570046141490332e-01,-7.646317525952108785e-01
-7.370282169648570414e-02,8.209078238424277751e-01,-1.232103573741287761e+00
-3.298117634364420292e-01,2.955855997702885873e-01,-2.585097554203225734e+00
-2.204999228338503370e-01,4.559070465073100653e-01,-1.983410457665014948e-02
-1.845930799591990745e-01,6.712962704609127806e-01,-2.633622323907081064e+00
1.158329933112880739e-01,8.418455028385591898e-01,-4.791571513770070401e-01
-7.351019398518786607e-01,1.044291840337703503e+00,-1.396039568272493092e+00
-2.237244837650084195e-01,3.593536272421597472e-03,-4.297823027423028353e-01
-1.506790539181577460e+00,4.016401075059476966e-01,-1.312992562330492108e+00
2.485025788679223469e-01,7.068364754268938732e-01,-6.040749118197343837e-01
1.878494146177384361e-01,3.698958723012340521e-01,-1.299631449859196097e+00
-7.194885401600061847e-01,5.054648571363566656e-02,-2.151325662977060293e+00
-1.299517639666731839e+00,4.683723073401185322e-01,-2.640282125689711545e+00
-5.487544692756635145e-01,2.598260981122644253e-01,-2.868706846634699360e-03
1.759043512488558947e-02,7.967276743478012291e-01,-1.487542107513451617e+00
-4.478786177453615291e-01,9.837756350999636856e-01,-9.985217445072699372e-01
-1.270978668614600071e+00,1.257296629052013559e+00,-9.610155332243937032e-01
-5.998969004641974134e-01,1.089395689787943322e+00,-3.249682430694749158e-01
-3.205330753382767961e-01,-6.773727336811895261e-02,-2.259849439675678973e+00
2.620209253147772754e-01,8.247321336575044182e-01,-2.649848467169184096e-01
-5.327112459402957856e-02,8.936233993522617602e-01,-3.188500950956197899e-01
1.025516198686376029e-01,-8.234530053530064383e-03,-1.335385671995578338e+00
1.888192997732769385e-01,1.485796751202981547e-01,-2.556930342695993286e+00
-1.132193609008984136e+00,1.965771533363308843e-01,-2.023556943865290947e+00
-6.648229838975867369e-03,7.473123184263689156e-01,-1.983711976265981392e+00
3.098452432276967983e-01,5.749699642940703237e-01,-2.411707136941276364e+00
-1.528617336672181803e+00,5.061046734257902413e-01,-5.243253870357484914e-01
1.914025551760638877e-01,8.934937970121939466e-02,-2.119583637444895530e+00
1.335521544530144100e-01,2.316108433956548876e-02,-1.279683277256937757e+00
-6.984221189814314723e-01,1.650548496899563455e-01,-3.056884025358950763e-01
-1.975037597525329536e-02,9.009388371399068562e-01,-3.716360600778272905e-01
-1.503213218517106542e+00,6.310219757515835859e-01,-9.012351151626150081e-01
-1.866715387326887965e-01,6.152615829368089650e-02,-5.885915722560627894e-02
-6.802792562985766622e-01,6.501187193502709627e-02,-2.107766573198187832e+00
-1.374475864815219328e+00,9.179824542967408574e-01,-8.100159808326643507e-01
2.424635586265020404e-01,7.412896163652549220e-01,-1.240647293223084979e+00
-4.619648324469516898e-01,5.470502891371750026e-02,-1.181008318388165224e+00
-3.995984095701026195e-01,6.047038809357816597e-02,-4.234610380702497068e-01
-5.227882594687367490e-01,1.074943017810339407e+00,-3.701986001624094635e-01
-4.249780658896119001e-01,2.115459948189315695e-02,-1.693081461637483631e+00
-7.581313348726582690e-01,8.609079725831667029e-02,-1.746964110515257795e+00
-6.675258872338338811e-01,1.087214988544926264e+00,-1.305580910781660720e-01
2.482988099408618976e-01,3.811280970956715253e-01,-2.173549788662731519e+00
3.217079750596079646e-01,6.571559191376831199e-01,-2.496004342728577630e+00
-1.017209213058108408e-01,9.502219812814853561e-02,2.396860348601336389e-03
1.862268054086982094e-01,-1.231887721396226262e-03,-2.293234015737833253e+00
-1.314847069557464110e+00,1.127652605563217891e+00,-1.117835007814161674e+00
-9.690941292382151406e-01,2.697460347590974750e-01,-5.423392684126349117e-01
-4.294677188177715710e-01,6.775645558002376667e-01,-8.053829184086788717e-02
7.880010134649648168e-02,7.913311479044018437e-01,-1.252741811485382328e+00
-1.352576953664991644e+00,9.538935036278004542e-01,-1.175606285421746167e+00
-7.726302678601191243e-01,9.740920330610984834e-01,-2.161775549645845729e+00
-6.265723759636194767e-01,7.018984350211068812e-02,-1.007121402495304574e+00
-1.432775079034468657e+00,7.463065110020773441e-01,-1.419949480949015408e+00
-7.808280643794517362e-01,9.245120142285800924e-02,-1.859101007757650414e+00
-7.953351194432036753e-01,9.953713029296169801e-02,-1.740954954621622974e+00
-9.888178438143615523e-01,6.493642966009970374e-01,-2.642522493868558531e+00
-3.131658535596067439e-01,9.589574134229830182e-01,-1.059409755498833539e+00
-1.269220098393660123e+00,2.875832317903099788e-01,-1.382826717198352595e+00
-1.505176711620834995e+00,5.183835500639428773e-01,-1.342798457326666695e+00
-4.484266201001990693e-01,9.059388955613525418e-01,-1.825934371893944919e+00
1.213858142694145548e-01,-2.164966214448229287e-01,-2.424694266210923654e+00
-4.264824578433809021e-01,9.841177153612358230e-01,-7.827747142912921952e-01
-1.472623494601440042e+00,4.670646274733605829e-01,-1.916686664656461536e+00
-1.342387476849364880e+00,6.406321917280575207e-01,-2.656569270664177029e+00
-4.706102304797894487e-01,6.544827376968782584e-01,-2.673623178163853087e+00
-4.646279424329724517e-01,9.204538541630058468e-01,-1.910271633975417993e+00
-1.168043828071585688e+00,1.295158525758152601e+00,-2.688577042742747447e-01
2.097495301854142291e-01,5.898699750878401149e-01,-4.547183528200373637e-01
-1.915264371641255403e-01,8.764641165680240320e-01,-1.470707847807396051e+00
-4.854278593975292488e-01,1.084551868623040149e-01,-6.491151437111801759e-01
-1.233059663905781145e+00,2.774867377633807863e-01,-1.226434148380705080e+00
-1.251140713044711188e-02,3.468254870018564612e-02,-5.736132843203432807e-02
-1.266335066241255802e+00,1.187231741917686767e+00,-1.792798936448751101e+00
9.492617136645230269e-02,-2.253623563428769072e-01,-2.499828079983560158e+00
-1.357843129574015650e+00,8.073480089410342009e-01,-2.360595979645073950e+00
-2.783245194276489642e-01,-6.954919984429083768e-02,-1.438068844241907174e+00
-4.286601238345663645e-01,8.413588372300150331e-01,-2.640207761776410145e+00
1.928801118319071750e-01,3.099200361513287372e-01,-1.201232321856358976e+00
-1.403059040308715533e+00,4.467248197797584197e-01,-8.664655881890263867e-02
-1.459038222695650422e+00,8.004032259316068432e-01,-6.673452510003643479e-01
-7.824377853674834293e-01,7.715656826047382344e-01,-2.651872351132842365e+00
-1.433739090198652866e+00,4.222455431773841639e-01,-2.136848745033666841e+00
-7.013812027919705261e-02,-1.185946643463771030e-02,-4.956530360354935438e-01
-8.542380866640472137e-01,1.074931118218744430e+00,-1.142307535333484614e+00
-1.282296072152757427e+00,9.826185121674703149e-01,-1.957621532054451219e+00
3.587174003076341877e-02,8.581339459689708571e-01,-1.211333494372505815e+00
-9.107650917416482139e-02,9.199996261386811369e-01,-4.264470818399809238e-01
2.669805197728278290e-01,7.510110268636952524e-01,-1.128417120001212082e+00
-6.764364704495168246e-01,9.974006996424688021e-01,-2.044857628333678345e+00
-1.366606903236237569e+00,1.176841717740549464e+00,-2.282169358581227214e-01
-1.537406452596163486e+00,4.285642873377294437e-01,-2.499916870579023398e-01
-1.409844989676970695e+00,2.732211015694721579e-01,-2.212395870297973133e+00
-6.604480169184564486e-01,1.093642482773034219e+00,-9.350648434410867571e-01
-1.027176746656201622e+00,2.213394633449923821e-01,-2.649349651348671397e+00
-2.169917625918785786e-01,4.673350472869177569e-02,-1.341533826659153106e-01
-2.095650826111096210e-01,-1.179761988997136135e-01,-2.293035868909663932e+00
-4.689944441130614039e-01,-4.629305369797760694e-02,-2.112765734334215662e+00
-1.418460523841330367e+00,3.827650683420628086e-01,-5.387239677751299860e-01
-7.779948099971939479e-01,1.638598846344753723e-01,-1.157528239454014951e+00
-1.134924515227556219e+00,2.713889372885713303e-01,-6.966526736158565880e-01
-1.399108467232976993e+00,6.026278982323444167e-01,-2.502537398015174830e+00
-2.585435640880723307e-01,-8.730939476853119552e-02,-2.384891448811653714e+00
-1.417865858661693457e+00,2.797909874524098783e-01,-2.069628713985371515e+00
-7.205784342648523522e-01,-1.595835768103906135e-02,-2.561890076999756793e+00
-1.822015381915774168e-01,8.505256235299936129e-01,-1.524788719569165174e+00
8.680241158020939041e-02,7.538285774070018208e-01,-1.809788219030556977e+00
-4.957288952349698241e-01,1.033324059896158387e+00,-3.844795606762966833e-01
-1.528548250262430575e+00,3.774991953134653189e-01,-1.729957004120748598e+00
-1.328619024360489620e+00,9.082739407086122263e-01,-2.221408837087667898e+00
-4.327971560750304425e-01,1.306255705851209759e-01,-1.900832672142482860e-01
-4.361346609476782765e-01,1.971144428401594428e-02,-1.373158956731597380e+00
1.264175320171470884e-01,5.566419528932697175e-02,-1.736971849318288186e+00
-1.142786325739824527e+00,1.224842823333640363e+00,-5.308295801351632370e-01
-1.189596999568481639e+00,1.238341605558774594e+00,-6.771299314622585275e-01
-1.547385385765753130e+00,4.750021195792512585e-01,-8.639408589864366883e-01
-4.054444950297341199e-01,8.675655633293403168e-01,-2.261461485973625063e+00
-3.879418831067081297e-01,-1.540363036243785032e-02,-1.547196693460472394e+00
-1.379101278099813754e+00,2.961341437540907506e-01,-1.521668595498242960e+00
-1.009965097911167176e+00,1.598085120031759732e-01,-1.631084751698149704e+00
-1.372013169499823659e+00,7.437250918736477701e-01,-2.558675551673312842e+00
-7.494711232669855061e-01,1.874166049156154312e-01,-5.612856178425245091e-01
-1.178037540567319040e-02,-9.158675797926769946e-02,-1.404818364851428303e+00
-7.760257706731353844e-01,1.022646764848263334e+00,-1.412045050651782763e+00
-9.447868439716871070e-01,1.840905742873685247e-01,-1.687181302473548916e+00
1.925236840881737188e-01,3.824996040000218644e-01,-2.566890206294457411e+00
-1.504132121672246303e+00,7.218381353299764269e-01,-1.300595596165286250e-01
-1.011136320127146826e+00,5.488368515803586645e-01,-2.663720477003925335e+00
2.636858195643930203e-01,6.465989955999467131e-01,-1.394373818969727008e+00
-4.743141366080502047e-02,1.012043386312541510e-01,-2.547462229276659773e+00
-8.691265094038655437e-02,8.484567441505758145e-01,-1.034995169848657692e+00
2.441944193795599627e-01,8.037026887972842371e-01,-6.035199987286394840e-01
-9.005074659538510051e-01,1.617344984471391356e-01,-1.387461722351164273e+00
-2.600532940006704541e-01,5.028001688848554585e-02,-6.332291459584042936e-01
-5.519793521775053780e-01,1.422970761365988379e-01,-2.027379248051367211e-01
-7.550781735959329888e-01,1.752765998673347092e-01,-6.822979715369134057e-01
-1.090100866495919085e+00,3.068502089627480611e-01,-4.735915408649364333e-01
-1.255211095161819612e+00,5.588387392697936606e-01,-1.182334409475783443e-01
-1.054537870290765733e+00,3.086381238332272514e-01,-7.402453547829463965e-01
-6.355681973211924074e-01,7.503345045929367407e-02,-1.229913117556654889e+00
-6.132219900711116667e-01,9.677648930209144240e-02,-1.027479152047249711e+00
-1.499206930929935844e+00,5.694675233487870303e-01,-1.219476447681788533e+00
1.248320937458539948e-01,3.456350823695091834e-01,-2.497503078618679984e-01
-1.954163886040200526e-01,7.757012370813974877e-01,-2.395143472248572714e+00
-1.538289738029765819e-01,9.659250639309839848e-01,-1.729078413140646142e-01
2.769881784289464632e-01,3.121487503637938032e-01,-2.513279570830153631e+00
-2.306983708040451220e-02,-8.991665503860654662e-02,-1.120647290544941832e+00
-9.106526368737509758e-01,9.876346363880398327e-01,-2.370800981055996459e+00
-8.012895139705308312e-01,7.197353642923562944e-01,-1.035375477096475288e-01
2.529887185842466524e-01,3.834272742623724972e-01,-2.072239836175728822e+00
-2.199513886068169277e-01,7.868961271591210505e-01,-2.579115743813942263e+00
-8.986382150628781096e-01,8.323389927607127703e-01,-2.681406554314734514e+00
-9.838868824018376369e-01,6.425362421677881519e-01,-1.070337452055277749e-01
-6.543105060327468747e-01,9.877968773418602799e-01,-1.607821639514392276e+00
-1.299298634076066383e+00,1.001932820887208031e+00,-2.507250550115532661e+00
-1.172224924519463363e+00,1.114040943107035719e+00,-2.307350667461373739e+00
-1.543528394693553629e+00,3.566746503685871983e-01,-1.148045120786804985e+00
-1.473463280351151150e+00,2.631818609463432712e-01,-2.368183258845234729e+00
-1.321941397659581297e+00,1.183396673797262322e+00,-1.354946681510347251e+00
-8.549065708290384258e-01,9.409834966337937701e-01,-1.019718604934676393e-01
-2.252155905972146321e-01,8.347046815706006262e-01,-2.248343001177567135e+00
9.311494372775003248e-02,-1.195972854141993079e-02,-1.170358663172023084e+00
-1.523503795713774478e+00,3.516178488262316493e-01,-1.426701720952348706e+00
-1.405209739023497661e+00,2.130070937715002610e-01,-2.597804047293006402e+00
-1.158028762590672445e+00,1.773866367974262781e-01,-2.257636263955483891e+00
-3.953595892172694082e-02,-1.085398101423031836e-01,-1.541619722317111751e+00
-4.536202512286824362e-01,9.682863446099800875e-01,-1.260142849909184459e+00
1.062604446724829399e-01,4.570513963232646915e-01,-2.799189102647631905e-02
2.389405371253217891e-01,7.643891590147547932e-01,-1.211738564485053127e+00
1.809594797708702074e-01,1.399286049027107792e-01,-1.745774021315243063e+00
-1.464255342654011027e+00,3.360751135534247869e-01,-2.624411619769815740e+00
-1.375219059721219272e+00,1.026570074001753818e+00,-9.746237172405505245e-01
-1.395156035326850175e+00,1.067394297659716162e+00,-8.272769655402436584e-01
2.653243179294827447e-01,7.568460692762521980e-01,-5.017165692198134463e-01
-1.703782096171000404e-01,8.983735795597103113e-01,-1.057843002456276382e+00
-1.325529846071683282e-01,8.309276492450667906e-01,-1.716092133950393173e+00
1.482380358365348871e-01,2.410075605142333599e-01,-2.567239505945043021e+00
1.531453958480170074e-01,7.224666281794012157e-01,-2.108511635139817209e+00
-4.835435560573946856e-01,9.065064074879430889e-01,-2.385547732517270703e+00
-1.408473234794973328e+00,1.052304371334849664e+00,-3.486154359825624494e-01
-1.271519570177585878e+00,3.307598942821836641e-01,-3.477462029695579382e-01
-2.653471264720114742e-01,-6.264847810454120258e-02,-1.412184493937108876e+00
-7.247998642245867540e-01,6.725611842610487168e-01,-2.634141887752910804e+00
-2.623276562784302435e-01,3.105756563182827668e-01,-2.588880628428074537e+00
1.010883711788203992e-01,-4.438865605209649928e-03,-1.226378348143431829e+00
-9.648542514005129522e-01,1.927550757177345087e-01,-1.197978668563155491e+00
-4.089876906097300591e-01,-5.333328041298229794e-02,-2.336012320927866259e+00
1.788929309592349470e-01,2.304003704906698591e-01,-1.850532579128300492e+00
-6.654727707158279992e-01,8.699037488824878928e-02,-1.594920197652185179e+00
-3.300813315246354240e-01,1.683119804717131685e-01,-2.597153756001027602e+00
-1.269920858567246791e+00,4.013809928286299900e-01,-9.195979528968223349e-02
-2.859384001045214840e-01,8.133511794160126485e-01,-2.475297244049476042e+00
-1.312858669844358062e+00,1.214595478095891190e+00,-9.241985026501744471e-01
6.739264071204870143e-02,4.364976206830522565e-01,-4.583781857596574277e-02
-1.266257307788209163e-01,1.268898562742658553e-01,-2.465061562382113089e-02
-5.160635407956638554e-01,7.145343426171675283e-01,-8.468864589120918274e-02
-7.215404194728379794e-01,1.364595594545645052e-01,-1.486447091708600121e+00
-1.502750369236230732e+00,2.922980008288014742e-01,-2.586432972880612802e+00
1.126156862446599932e-02,-1.494608864636248202e-01,-2.523536220337247116e+00
-8.272569618547349624e-01,5.981676447035627620e-01,-8.060497234594943272e-02
-9.883043340592497783e-01,1.717888999985491272e-01,-1.776989628563813373e+00
9.763816250107158756e-02,-1.343525542201613743e-01,-1.968356739344046202e+00
-1.339067359833128412e+00,8.104069760151266788e-01,-2.400319586787798443e+00
-1.494936562450783546e+00,4.169535144224007506e-01,-5.918938103660126293e-01
-1.110006432766797113e+00,1.183976430857901274e+00,-1.267552922236624635e+00
1.876248348196110638e-01,4.979269521162285050e-01,-4.058279579218219135e-01
-1.366786577049077245e+00,7.282776504790342553e-01,-2.493931339367329691e+00
-1.290526337729900108e+00,9.705737015392802425e-01,-2.632180655799744251e+00
-1.984695819546359874e-01,9.054062814158776451e-01,-1.470716041118978357e+00
-1.480528925054182210e+00,8.664852393928811347e-01,-2.750314290077016111e-01
2.903670155541538955e-01,7.723128290382420547e-01,-9.122240107180999980e-01
-1.296524439063100775e+00,9.463620693232103198e-01,-2.688847154909835169e+00
-5.658576608719191325e-01,-7.049764584484921430e-03,-1.807182229321341982e+00
-1.879523368542674322e-01,8.668484035772471286e-01,-6.181166971978131058e-02
-4.695492364953952613e-01,-2.957190496065335156e-02,-2.582231323029946513e+00
2.268128247869328207e-01,3.747164155001363461e-01,-1.906287276898477545e+00
-5.929938512283395857e-01,1.112308666646066868e+00,-2.895682459657429875e-01
-3.177125018826800207e-01,8.898860154165696423e-01,-1.487217498182211717e+00
6.024797621681243776e-02,7.519852676692554416e-01,-1.815779408948633433e+00
-1.317871473712152464e-01,8.693483505769913355e-01,-8.155051920118850939e-01
-8.539635364117893479e-01,1.115877769725328150e+00,-8.021744661662223441e-01
-1.392514071641315132e+00,6.453606693754344592e-01,-2.380918798785200519e+00
3.080860396449391220e-02,8.236884421722537875e-01,-9.413320799378485093e-01
-1.284999125180863233e+00,2.527971111290757134e-01,-1.764602506287437311e+00
-1.262754753645537242e+00,1.319696120062078259e+00,-3.224469025806555034e-01
-6.953936240544591474e-01,9.784287683472762120e-01,-1.849152730509199039e+00
-1.843045843753793045e-01,-8.204907667199379251e-02,-2.062714808046842485e+00
-9.419809901791968976e-01,1.088457631405543635e+00,-1.278277799461302600e+00
-1.157152173544287344e+00,1.277661348955304144e+00,-2.373112825759395861e-01
1.688969267536488406e-01,7.148196372250734121e-02,-2.201120054111978419e+00
-1.516090795310612638e+00,4.564490819259433563e-01,-1.343590844600549783e+00
-8.424094287863368447e-01,8.150067295358631725e-02,-2.228523332482387431e+00
-7.082982417197655201e-01,1.201050820922175688e-01,-9.834211069069089817e-01
-1.043854088495928867e+00,1.189987152296416495e+00,-7.142844850245567700e-01
3.637859955396909734e-02,-1.961626930031990790e-01,-2.376098587408173035e+00
3.089892674752346413e-01,6.921323520806775820e-01,-1.589531594369860468e+00
-1.193126644490980048e+00,1.198200364630078285e+00,-9.644587135890078100e-01
-1.427888474905142369e+00,4.151613687667211616e-01,-2.576465790247052912e+00
-1.045163979822266942e+00,3.030469600871988911e-01,-5.327236773457233454e-01
-4.821361907197909691e-01,-3.298639645219183375e-02,-2.157757163119998101e+00
-3.863538270716505019e-01,4.893902529387960665e-01,-2.640219657658546826e+00
-5.852633927266950309e-01,9.818308512875260075e-01,-1.392233729658981067e+00
-6.918321214208036363e-01,4.371741686435891006e-01,-2.661212422408173683e+00
-9.731916089044175822e-01,1.736136529157689401e-01,-1.880880017241549851e+00
-3.346950603826969739e-01,9.858454303896374560e-01,-3.048367707973416718e-01
1.258527705858407952e-01,8.594479859140710665e-02,-1.321865243464907635e+00
-2.583591890632648269e-01,-5.581517383777306190e-02,-1.627306065139710212e+00
-1.483633339630382908e+00,8.417821307428130506e-01,-1.961647762612284129e-01
7.359087961329774386e-02,7.579944905958724277e-01,-1.787709224906093519e+00
-9.614922464599691132e-01,1.246036943704805777e-01,-1.809115974890865841e+00
5.372490342718085760e-02,1.342621943518305157e-03,-1.544104135319925630e+00
-6.923091487112887910e-01,9.699844134169938181e-01,-2.273926874283967781e+00
1.636398698483323144e-01,3.534508346069993312e-01,-1.062434460288870230e+00
-1.426971421620526703e+00,5.904838795316632583e-01,-2.152538471314545454e+00
2.670706389669103564e-01,5.745295198883122456e-01,-2.592117296146269290e+00
-5.387954327688398992e-01,9.324021594986851014e-01,-1.940084356714379954e+00
-7.114358406212859531e-01,2.369983760907006798e-01,-2.631831509632576616e+00
-3.789222470459528425e-01,2.052555042088703152e-01,-1.038739638286847143e-02
-9.443637040062293764e-01,1.018737576906318498e+00,-2.348367526988006215e+00
-1.104066199687080641e+00,1.160533937956863326e+00,-1.815600936934691267e+00
2.727844957142236959e-01,5.567626941854706413e-01,-1.679628325269167055e+00
-1.160252925908665578e+00,1.226197238838084402e+00,-9.477954283293146265e-01
-1.363929625998565820e+00,7.970086911481448766e-01,-2.671542937901594250e+00
-1.578485293486437513e+00,4.583232624562489921e-01,-5.206825416135695273e-01
2.120957059455859384e-02,1.429971254033667732e-02,-8.686340522744942505e-02
-4.661308083070943575e-01,8.472341674770011988e-01,-2.339273981088070720e+00
-1.358758088698386768e+00,1.017314753439704678e+00,-7.532854491794082064e-01
-3.840088585846587743e-01,4.297069882407276720e-01,-2.602078415117329957e+00
-1.226525592886636984e+00,7.612579248522087783e-01,-1.445718858687778663e-01
-4.696833912221469176e-01,9.904021579953038446e-01,-1.252347922809354586e+00
3.014689523877739918e-01,6.141797893038757339e-01,-1.711556109909183609e+00
-1.098399697969473232e+00,1.225533587022284099e+00,-6.358579786114602062e-01
-6.604826895717603730e-01,4.485286673700437099e-01,-5.688322777821648579e-02
-8.335494928479281196e-02,8.446081625787527081e-01,-1.522071163349907552e+00
2.946365018999639873e-01,5.942967148364038943e-01,-1.634155923448820102e+00
-3.770736702070986990e-01,2.736438129301707045e-01,-5.787966438876816777e-02
-1.453729411063211074e+00,6.560832392302377025e-01,-1.076830012083118682e+00
-1.558547328595599746e+00,5.417011466077125137e-01,-6.317839448926428902e-01
-4.392206233500171586e-01,2.176879221221620156e-02,-1.304799864318864744e+00
-8.052253249760129572e-01,1.125272329563677065e+00,-4.350851063279203013e-01
-7.249741646710280429e-01,8.933748243515634568e-01,-2.406671132001166225e+00
-1.805458928482267245e-01,-8.664939017018276346e-02,-1.634206073589113739e+00
-8.154106644477212562e-01,1.809331258880571003e-01,-5.788518285008263931e-01
-8.685985204962636264e-01,1.093580723996168125e+00,-1.105162324967605914e+00
-1.354348049561311829e+00,3.776609153972784183e-01,-4.606519332114791809e-01
4.818513909304729392e-02,-9.480389113202924989e-02,-1.104799630181580783e+00
-4.162057558679393976e-01,9.632839587086660105e-01,-1.289995782364502075e+00
-4.826733342801546311e-01,5.095097476644107060e-01,-2.619316464947845979e+00
-9.926879482270632993e-01,8.311496589505402710e-01,-1.041017792385924151e-01
-1.042153144128869613e+00,1.813213146619709060e-01,-1.628648953672458877e+00
1.940146091867981926e-01,8.773385239613348263e-01,-4.004065606340163619e-01
-1.475941817245326693e+00,7.187181055611268077e-01,-7.199553760587122930e-01
-1.148121417421537727e+00,2.407263535781578312e-01,-1.354522559736720311e+00
-1.437393167527730276e+00,5.040611408343487199e-01,-1.927720819036445654e+00
-1.329137039148682753e+00,1.258476482838528421e+00,-5.521218789761073165e-01
-1.182740325893938627e+00,3.748234678258358099e-01,-8.930645342711680812e-02
1.334789459980201265e-01,1.925190017686194410e-02,-1.930504218322161680e+00
-3.415403105483707513e-01,-1.283915502380293498e-02,-1.094290139230375880e+00
-1.205884608439461214e+00,2.503670368722358819e-01,-1.105392785845200398e+00
-4.970181353406115665e-01,-2.478487219438699554e-02,-2.237545097171759867e+00
-4.518270002031360977e-01,6.178701187802608519e-02,-1.060139939220843930e+00
-1.183179592450533946e+00,1.243260427841261118e+00,-7.969763007964133505e-01
8.021938679668422223e-02,4.175128344018712995e-02,-1.185594503537919620e+00
2.057159318994985497e-01,4.808442748834035330e-01,-9.633554478208418148e-01
-1.543251767102489014e+00,6.820142204151932175e-01,-5.530075002416788843e-01
-1.438992144613909563e+00,7.082318916870000702e-01,-7.903689892751022406e-01
-9.350031340506810285e-01,7.294846212871595181e-01,-2.669296563260063149e+00
-3.493851993270653544e-01,1.718900795988542174e-01,-2.613291256552620290e+00
-3.504104670310895786e-01,-3.612591750689978648e-02,-1.675169433808161301e+00
-6.142862335136493879e-03,-1.658677413714061133e-01,-2.216442082529162860e+00
-6.258699134647423001e-01,9.762757905964976057e-01,-1.575525835555601883e+00
-1.399825196681443895e+00,2.294143070280563468e-01,-2.316692847717915171e+00
2.779708085421901953e-01,7.541749588089129430e-01,-8.135122389128977005e-01
-1.318275824736258484e+00,1.188207464168415051e+00,-1.474431494116882568e+00
-5.921947564062726155e-01,7.654500533396940698e-01,-1.121796923255109213e-01
-8.783856169769682642e-01,5.995164170418083582e-01,-9.174483393225414674e-02
-1.258876285051639510e+00,2.061056707424447632e-01,-1.753528317076535004e+00
-1.499486399373139767e+00,3.841672787924410581e-01,-1.181101082911288014e+00
-1.298428553281278708e+00,5.570425259215563418e-01,-2.651512416353416057e+00
-1.014399389345692848e+00,2.644705344296177651e-01,-7.192227788488231299e-01
-1.210571053130284902e+00,3.232856108735743805e-01,-1.008333113005363824e-01
-6.250671547594440769e-01,9.533202793021614552e-01,-1.532862330706524556e+00
-5.952654891496417244e-01,3.816845286554466053e-03,-2.494637937692824714e+00
-1.207616873662372692e+00,1.266159854192763445e+00,-3.210292197222288091e-01
3.115266807516328118e-01,5.689508431312421122e-01,-2.409109782616228657e+00
-5.826676416117324564e-01,1.053345033455832525e+00,-4.863666346471212099e-01
-1.207236541775338123e+00,3.123556083541849104e-01,-5.302464158742600242e-01
-1.476773048897446206e+00,6.993209282856881481e-01,-9.115201045423976245e-01
-1.067155724817342721e-01,9.341471184391469951e-01,-6.482228953584306952e-01
-6.348871782602482083e-01,1.575858061056626402e-01,-3.839607901236304910e-01
-1.492106087826850225e-01,1.163055071353760392e-02,-2.939242733949640196e-01
-1.030730118036395027e+00,1.142792529267950163e+00,-1.496284847015810993e+00
-1.849064215526097787e-01,-1.208788760942311746e-01,-2.531613740271837720e+00
-1.068064131849647991e+00,5.482212108212592971e-01,-1.301044046967529400e-01
2.103652367220943953e-01,7.398583062189924009e-01,-3.624978459231753547e-01
-9.522277974526459354e-02,-7.060999452527087772e-02,-1.283666102693063138e+00
-7.843497180197794849e-01,9.588488068701149780e-01,-2.487205736255243327e+00
2.446890626278031000e-02,-1.808501962605445490e-01,-2.286934370222944324e+00
-1.349557846572694508e+00,3.547582207702731916e-01,-2.644937876074325178e+00
-1.040884668639460386e+00,1.046509944355731525e+00,-2.499748262253190578e+00
-4.585912580328406762e-01,5.925949583240434082e-01,-2.637235149309787641e+00
-1.535743454831852706e+00,3.586302667186169191e-01,-1.462232572241183082e+00
-6.252899233593706141e-02,-1.331373533809354914e-01,-1.654044272104826518e+00
-1.783586069802819973e-01,8.505688602208836269e-01,-1.091694986287683244e+00
9.360196813521748371e-02,7.948530463569248861e-01,-1.296791319651790841e+00
-8.868142850885817052e-02,-1.696747574616980503e-01,-1.975968224646275306e+00
-1.235783188136289068e+00,1.140636029225094772e+00,-2.281327483176388338e+00
-1.422329082887070495e+00,1.072736204965739182e+00,-1.563883349332199912e-01
7.972788690148790297e-03,-1.836687856066182567e-01,-2.493019763473969252e+00
-5.339821554771636558e-01,-5.077599792771705402e-03,-2.422601586529717466e+00
-1.065826219381226014e+00,1.084850975046716792e+00,-1.817881916512366081e+00
-9.141246266781846153e-01,4.546368008057065646e-01,-8.668773430134597835e-02
2.048445030943107648e-01,8.544387528103701834e-01,-5.481294683225093056e-01
-9.549774243064901302e-01,6.105708987975367874e-01,-2.685256722352857395e+00
-1.478504723735108772e+00,2.438463811820354987e-01,-2.301719447527284856e+00
-1.199670592205319242e+00,8.783570952497146145e-01,-1.176922982825701902e-01
-4.356527847101357431e-01,5.265729982752526128e-01,-2.631308495245851198e+00
-1.066232487294980880e+00,1.057928784484961637e+00,-2.594747184212436775e+00
-1.103138725978204671e-01,-1.346594661822763939e-01,-2.053571124426246008e+00
-1.340201061860095910e+00,3.831399817450004130e-01,-2.312818743392110743e-01
-9.249030450694171179e-01,4.753142176553714071e-01,-8.405983469812043640e-02
-1.447648885787682582e+00,5.556590816540435407e-01,-2.073149764490591629e+00
1.448953524416513039e-01,5.450168410394003182e-02,-1.606309802824465560e+00
-4.602372974967470776e-01,3.092484137226945706e-01,-2.624658932463121985e+00
-1.003621619286927114e-01,-8.505818529421517449e-02,-1.294865768557166286e+00
-6.578352666280650185e-01,1.036412487077100097e+00,-1.023224444838138014e+00
-2.371132464140676133e-01,6.294674650928566706e-01,-2.666609588626027705e+00
-7.850104492958994706e-01,1.134323426700876825e+00,-1.405440108996414972e-01
-1.248662912207759851e-01,6.616629653880783390e-01,-2.610427289877648604e+00
-7.354885611537841372e-01,1.122601346065560834e+00,-1.779635885119524585e-01
3.598128829389398153e-01,6.204146064073093880e-01,-2.258368093385577424e+00
-4.714627149529355132e-01,2.897734567421814678e-01,-2.577911625013920016e+00
-1.583372783168352504e-01,9.317220033114517186e-01,-1.841437327716851091e-01
-5.197217062905933327e-01,7.930280298358715063e-01,-9.599263768292516652e-02
-1.228720683997335028e+00,3.186701601961764441e-01,-9.206073820678148945e-01
2.438618904125435527e-01,1.804434318909038659e-01,-2.356067250678268721e+00
-1.463178403282200168e+00,7.817798454118601859e-01,-9.469727439809287883e-01
-3.035190090774190774e-01,1.717644030918608344e-01,-4.678320342982919544e-02
