-2.421852758232842184e+00,-7.854795431666357075e-01,1.338205921301075385e+01
4.803594637013057778e+00,4.143928339679643358e+00,8.210998910933543726e+00
3.616929965056146501e-01,4.246297463452602949e-01,8.971669913330556412e+00
-1.224731754046638921e+00,3.016046362013011795e+00,1.154959483452987001e+01
-2.968804889182196760e+00,2.111922869928896773e+00,1.572667113154998830e+01
-2.407538930972276781e+00,-7.072627888599020141e-01,1.451273096306162813e+01
-2.352766658651627818e+00,-7.891210725269149906e-01,1.413734124310818530e+01
-6.215414889094258655e+00,7.208028356685718396e-01,1.129714175543335486e+01
-7.316045793204211556e+00,5.034685588126562861e-01,1.212935870494404078e+01
-3.645022639618050064e+00,-1.510628714994428634e+00,1.360416099022511993e+01
-1.473362026980921780e+00,2.808238206271178594e-01,2.055972062339315620e+00
-3.984739764402353668e+00,1.842811726019821572e+00,1.252285108573261496e+01
-1.364856626169906439e+00,-3.219124975344080375e-01,7.667178028636802090e+00
-4.447071651700700734e+00,-1.905388450786628773e+00,9.984517097923889750e+00
-5.854222305877168075e+00,1.790735975942828739e-01,1.421837203913299241e+01
5.094086594029404447e-01,3.662853764975786408e-01,2.035909324338209814e+00
-3.449812416975475138e+00,1.937207657487803603e-01,4.983145637447885079e+00
-5.896882390364257986e+00,8.156164781201478142e-01,1.422998182657443778e+01
-2.679856378787046189e+00,5.455152577279078763e-01,3.559208543391790158e+00
-4.416596008270737173e+00,-3.133361181923317428e-03,6.308745267138115231e+00
-4.746291279381511963e+00,1.204625448128153975e+00,9.891306457689895026e+00
-2.915977559139401709e+00,2.106942212483941201e+00,6.902816541975205666e+00
-4.183411800896235100e+00,1.530370175693081869e+00,8.516666386057448079e+00
-6.521695603884646530e+00,4.996693838426165546e-01,8.809884207406936341e+00
8.408644599796740726e-01,1.163954760980848713e+00,7.955174996309386515e-01
-9.955457852568007082e-01,-4.844544465162907709e-01,2.999039882135298818e+00
-6.912746704104866247e-01,1.679157345809460855e+00,-3.370214672577723919e-02
-4.849575444544706571e+00,8.629362735088343950e-01,6.570518486561594429e+00
5.469793931801361531e+00,2.361084011168278263e+00,5.535650046530137480e+00
-4.708793388771831401e-01,1.699980268032071695e+00,1.752237459022011024e+01
-7.642485807280861021e-01,-1.352124589838523128e-01,2.880106740901572593e+00
-6.602473530859929995e-02,-2.572629743400608460e-01,2.213659048675838292e+00
-1.025790790545100528e-01,-1.347978524060539363e-01,1.805659302968000590e+00
3.623751859051475677e+00,1.608472800039459472e+00,7.433873235995848816e+00
5.140535511110967626e+00,2.349575710760587910e+00,6.762462880021705480e+00
-1.988570153313605759e+00,-8.235697515283724179e-01,9.526461385384736857e+00
-7.090892558756951569e-01,2.975062115009097674e+00,1.692755356880839912e+01
1.423357590525671901e+00,7.339019790036718227e-01,1.033978671575616737e+01
-6.653198745711776496e+00,-2.642723574566141043e+00,1.183642189555180835e+01
2.189865500919143670e+00,4.340383680370891284e+00,8.071200531827997793e+00
-5.340819697974330538e+00,-2.135211679801661155e+00,1.269917883862489560e+01
-2.005916639211013042e+00,-7.051681248300055715e-01,1.307218393734773798e+01
-1.551787323189116163e+00,-3.859910910568883358e-01,1.311021682258630250e+01
-1.082635231459828873e+00,2.924685424302579939e+00,1.617490499095379786e+00
4.346269222298967949e-01,2.163162195931710718e-01,9.146538754601436949e+00
1.425666037516355455e+00,2.389640010558830241e+00,1.416677772913171474e+01
-9.791514002822170326e-01,-1.035718699977509483e-01,1.096553360433387958e+01
-6.363624683078487054e-01,-1.215039603083124115e-01,1.302010849326663511e+01
3.986368140590275999e+00,1.673433098309878853e+00,5.959543719198704181e+00
-1.276885550465999275e+00,2.946163495216496120e-01,1.669176992396631221e+01
6.065033491949525235e+00,6.059222762073400048e+00,4.961823590411309048e+00
-1.903481013957347923e+00,2.582343983112340702e+00,9.330283422788673064e+00
6.516655883127248750e+00,3.345454683249078354e+00,6.246593052291358639e+00
5.690059426098564854e-01,3.702010782804516786e+00,1.018943933852893302e+01
1.576606757758154842e+00,9.415120142885466947e-01,6.004513288931974557e+00
1.163687693494242170e+00,2.396253278109923279e+00,1.467977621592433479e+01
-7.544086794685575192e+00,-3.983778042225650240e-01,1.310715281394652187e+01
-6.037355260258695289e+00,-1.735192958138505492e+00,9.838747322355576586e+00
6.913682617756918836e-01,3.709468718478907689e+00,1.082356300417177941e+01
5.292925127870354629e+00,5.372391826211226018e+00,6.514353539700610263e+00
3.825491984343056817e+00,3.080260654899802830e+00,1.004263497691397866e+01
-7.023926495645463897e-01,-6.047282887858571043e-02,1.053735745467281504e+01
-6.835513160241212249e-01,-2.476005381703200448e-01,6.199633092913399146e+00
-5.281837605860738805e+00,-5.417832768354512440e-01,1.422679747651472582e+01
-4.664049362008819699e+00,-3.390624611336513494e-01,7.461983379016810858e+00
-6.157392812150947137e+00,7.563819992880059795e-01,1.139315993211251943e+01
2.631150907140993311e+00,1.228258027934187258e+00,1.243404873119867027e+01
1.102436940020995876e-01,3.425726285737677124e+00,1.349370419110173414e+00
1.226929455464571550e+00,1.208903925024541914e+00,8.526414093018300777e-01
-2.733478617493092511e+00,-1.024617347819383850e+00,1.454412227803476121e+01
5.756344867861779235e+00,2.746153353662143193e+00,7.558606877016408099e+00
2.655990781918790233e+00,1.232126497719950420e+00,3.317776417774020548e+00
-5.933084393054381955e+00,3.478602473876079015e-01,8.359628742849059435e+00
4.874661216921911122e-01,3.604273562803107733e+00,7.654209836984116500e+00
2.265544629164732093e+00,4.536956571531754356e+00,1.123033435774545197e+01
4.884665547078885339e+00,2.172099865747072922e+00,7.700539959152620462e+00
5.568696604860893018e+00,2.517002887544515399e+00,4.623292788121478480e+00
1.964179080684214929e-01,3.353248582680349532e+00,5.182582497400501254e+00
-5.919056704052905182e+00,1.011468726024215670e+00,8.711331804508889221e+00
-1.215007502035871267e+00,2.894499201687817269e+00,1.552958953715690171e+01
1.800734156763120319e+00,4.080883228361915194e+00,1.101434846787229382e+01
-6.407945559721447637e+00,-1.042338498576465877e+00,1.341569642266031614e+01
-3.015410676923054201e+00,-1.132288030912129262e+00,1.526139838324433207e+01
-6.286744516084289636e+00,-2.036275185084956973e+00,1.079550454140828464e+01
-7.817859887567119692e+00,-5.519043575408958541e-02,1.173103713189395236e+01
3.198947844022791198e+00,4.895454119392981696e+00,9.637747236405946438e+00
3.446490638101912474e+00,2.987781532218883207e+00,1.108886782883954680e+01
-1.150048010356142347e+00,2.956266817190002172e+00,1.624390659740653930e+01
-1.140930743746081610e+00,-3.121759869102338492e-01,1.151404696905526670e+01
5.945289991185465972e+00,2.675832310917496848e+00,5.817733569324062159e+00
-2.602755878259902733e+00,2.411990235986015030e+00,1.375599388462025985e+01
-4.598402230750848196e-01,-5.686901240743318098e-02,6.934120440446238653e+00
-1.155662016779765766e+00,2.861236050340875359e+00,8.767166118070369052e+00
-6.469814518129488157e+00,8.155153273666038150e-01,1.327548368705228476e+01
-4.237630393403155615e+00,-1.647252102155995601e+00,1.179930901040460611e+01
1.716656790894372994e-02,3.313902525359056384e+00,5.056049233110117669e+00
3.966098690308899055e+00,1.535620601212612346e+00,3.335295642584398923e+00
1.573033102577676479e+00,8.406840210377802824e-01,6.046798636825528206e+00
-1.994714783437341876e-01,4.364708718824456685e-02,1.778566900526546979e-01
1.825603976170452336e+00,4.228203364197665515e+00,3.593841500084876461e+00
-3.551884150465269840e-01,3.319559380139415872e+00,1.180868990541851815e+01
1.130145250698314729e+00,6.205519176336327103e-01,1.016337956615119609e+01
-6.715163951545487286e+00,-5.998345200302191982e-01,1.354360670396215127e+01
3.001343251372348142e-01,3.118225246778374427e-01,4.287502565935916721e+00
1.421230734971859366e+00,3.830099060937152800e+00,2.649268477318845072e+00
-1.963799688483385708e+00,-2.901176281348595842e-01,1.612531358543922266e+01
2.658369821006012490e+00,1.260784952551013527e+00,4.344553327757049388e+00
3.270081315893002216e+00,1.458708899989116237e+00,4.992036663883026471e+00
5.737342516109019463e+00,4.490571644651320860e+00,4.339450984461728389e+00
1.621435612700549367e+00,9.025195885570141963e-01,1.360031809788528179e+01
4.657188614035303154e+00,5.246289373091875596e+00,7.853529003128696395e+00
-3.326843959571920806e+00,1.854985531964930656e+00,1.167578687468067855e+01
1.748025700518754055e+00,2.254033987340666290e+00,1.394353253247813917e+01
-7.206386879016685398e+00,-4.698691617432105283e-01,1.118767221623229524e+01
2.118273340874235355e+00,3.734667252203976329e+00,1.243938099187184143e+01
-2.892111845374455203e+00,2.363764741376034539e+00,9.948776926655865438e+00
5.384531622092680436e+00,3.461029157965578751e+00,8.049864248994699878e+00
-8.792038569283407989e-01,3.030694113356042774e+00,6.360650241234092839e+00
2.413047193416666403e-01,3.494364346659458498e+00,1.107219034971185323e+01
6.002506577967206880e+00,3.757117624857654103e+00,7.078674644912594793e+00
1.333672202806291673e-01,3.664172466956338692e+00,1.367434990017871854e+01
-6.525885938621494908e+00,4.691324400435697428e-01,9.786849589318091347e+00
2.751368707809474401e+00,1.314246557361417933e+00,1.194006634600476247e+01
1.092952991627649917e+00,3.815389695668646164e-01,2.845906353373843789e+00
-1.330872727676599920e+00,2.676862104337871084e+00,2.631285869680837664e+00
-1.188035890879700629e+00,2.949433401668553945e+00,1.703681595992631514e+01
1.125943216338348929e+00,1.405033198141025785e+00,1.535535590897165648e+01
5.602030816256256429e+00,3.953941052228469033e+00,7.047377481562415724e+00
2.355900009321950428e+00,4.430116002763411664e+00,1.133387148988970239e+01
-2.070684665426391902e-01,-1.941117830104594280e-02,1.559929390483841871e+01
5.766325207241013162e-01,3.977440106345259130e-01,1.283762032723368485e+01
-9.136445439442554273e-01,3.056666629156795434e+00,7.518105802718006991e+00
-6.034535406554148551e+00,5.382926211732641519e-01,8.378858483235871901e+00
3.571769765223339110e+00,1.605698035982436878e+00,2.592859038211010159e+00
-1.414770166217535818e+00,3.185645837127740077e+00,1.706705936571309934e+01
-2.827320722050425950e+00,-1.131560712983288752e+00,9.421617684678443183e+00
-2.838948638572072358e+00,-9.355460387001063305e-01,4.518480922402709155e+00
-7.548957840306591116e+00,-6.492533495958610068e-01,1.177711481758117174e+01
-5.006152049914533997e+00,-7.811165796798728023e-01,1.459149310878774486e+01
1.568678571971781066e+00,7.294326863052668086e-01,5.300103398918798447e+00
-2.223200713866660738e+00,-5.964645795594361033e-01,1.165129924798397809e+01
1.241518367223693353e+00,3.844107894141661319e+00,2.915880626052198110e+00
-1.662669542338974349e+00,-1.063041668309665580e-02,1.645482277966231877e+01
2.395683280226899470e+00,3.715070657002787602e+00,1.227007326564985235e+01
1.012939835043908721e+00,3.739742621952287127e+00,7.598115021801442381e+00
-7.232070718961375988e+00,4.186601527666301004e-01,1.188316778935406504e+01
6.250127778317529526e+00,4.794967787243336055e+00,5.629271707929968116e+00
-1.799879031595600587e+00,2.882593926215118785e+00,1.437513446233673875e+01
5.949521189318806691e+00,3.801208746011550677e+00,4.334907137275369138e+00
-1.264574724755277879e+00,2.918655905947079798e+00,1.538783048165809930e+01
3.274929256570357161e+00,1.460508947126005985e+00,2.124205281074093232e+00
-4.854955331034635613e+00,-2.062546466728580885e+00,9.888314952210791375e+00
5.947713207592439488e+00,4.199990062386223855e+00,4.348942881669423777e+00
-1.253969997171191952e+00,2.840913586930052581e+00,1.775702464765247957e+00
-6.982737391130398485e+00,4.909482203053248117e-01,1.290746816397078867e+01
-5.042174603879849393e+00,-2.138513747340121451e+00,1.342868333898063682e+01
-7.625434256112991749e-01,3.228830354539461212e+00,1.151218569375989098e+01
-5.638923649324893539e+00,-1.909415846313643195e-01,1.425302572496007514e+01
-2.566576757044694457e+00,2.384251613755572485e+00,1.028484272642050890e+01
-1.328835061673302675e+00,2.993126550652396745e+00,1.123665592265644264e+01
-3.223332222283296300e+00,1.646971848010371220e+00,1.581968675143797931e+01
1.737455303070621682e+00,6.074251689325451675e-01,3.428381498587509846e+00
-5.525309054896959893e+00,-2.222270164245224500e+00,1.300023167740495289e+01
8.251055858630110817e-01,3.683240202213342585e+00,1.279772341251787182e+01
-3.363228508883870371e-01,3.347635010841744307e+00,1.235190943431226707e+01
-1.196105157790349427e+00,3.051886090270278462e+00,1.516410121478521411e+01
-1.356760707374103037e+00,2.763897546260674520e+00,1.035064151292969825e+01
-4.876380563181658689e-01,-1.752029118898366933e-01,1.808649723146574573e+00
9.000502506805735381e-01,6.232051535264488962e-01,1.308722075657751382e+01
2.052345537022477018e+00,2.053999801279077442e+00,1.387580163341929484e+01
2.021367438610374379e+00,8.930636319739740925e-01,6.692334925502703591e+00
-7.266622949533513065e+00,-9.938782712734085534e-01,1.314643857191387966e+01
-6.565803256358142548e+00,-5.097352511999586611e-01,1.356264391815149040e+01
3.341090316550113570e+00,4.747845153802150442e+00,6.008035265069644915e+00
-4.937937068051539313e+00,1.158185635563353078e+00,8.200302989332342918e+00
-3.746218536719307934e-01,1.840630919503876584e+00,1.758323771991334894e+01
-9.652334838966765140e-01,-8.623646679199228893e-02,1.449625217638475938e+01
-7.172002671388889361e+00,-8.057105426246945479e-01,1.103738563858361132e+01
6.984991757443649973e+00,3.806835948244625900e+00,4.930426769677811905e+00
1.446116324130262143e+00,8.517728331444387457e-01,1.435552911589711123e+01
3.255203044509947130e+00,4.953092948166053056e+00,9.388459559435130330e+00
-6.399385482926519542e-01,3.254090427782821315e+00,9.530025880072338751e+00
-3.419088825692234046e+00,1.799312082765946452e-01,5.150668756037153351e+00
-3.656548418386436516e+00,1.820769567685863954e+00,9.639637420771983045e+00
-5.659151357101602997e+00,1.019234083193449637e-02,8.215803728653485294e+00
-7.451802041719415293e+00,3.946006139718820638e-01,1.136451336212196495e+01
-6.398447457653507087e+00,-1.939830253085822687e+00,1.101616958325198681e+01
-1.978037620096424032e+00,2.346786507435538294e+00,1.405215228336382571e+00
-1.622360977274525315e-02,3.423167173879845482e+00,3.500029029856662088e+00
1.099819318491750408e+00,3.535192758757741416e+00,1.992749491434515186e+00
2.494318589608069292e+00,1.119308583063893359e+00,2.878771442728370378e+00
-3.265475568814836471e+00,-4.862550967774981747e-01,1.561455733007539415e+01
1.381665164570536231e+00,5.277028444230998927e-01,4.424720817681671470e+00
-2.581264129820730613e+00,2.281465748369877478e+00,7.521535392304834033e+00
3.671475247551341692e+00,1.722556552516856687e+00,6.661337785996648719e+00
-4.050084720371013525e+00,-1.720052547233102747e+00,8.017975788747655486e+00
-7.155427173767836102e+00,-5.656159245404872582e-01,1.303783508133036229e+01
-5.990886764897577876e+00,-2.251566630553799353e+00,1.317523572430867418e+01
-5.771461663392034147e+00,9.904656486215350775e-01,1.340507182179993961e+01
-3.628227069044169806e+00,1.649732815444881373e+00,8.777618163374546256e+00
-3.476023099607542743e+00,-1.445889530880384077e+00,8.497392554030932743e+00
-1.653253498614323469e+00,-3.197416468266805478e-01,1.430434557355426684e+01
-3.573733357608205541e+00,2.073511341821723253e+00,1.227301540016703285e+01
4.417067209595516020e-01,7.422203461518592782e-01,4.532515904391654638e-01
1.766526691720459175e+00,8.699495166085597919e-01,1.174502889288181962e+01
2.710496865633395203e+00,4.414361989286204491e+00,7.810611120574834310e+00
2.889392756900418302e+00,4.603061837144290180e+00,5.862705731853695923e+00
1.913139994636804397e+00,1.038337424118584096e+00,1.184401258001637558e+01
5.657211158019953778e+00,3.028077066387221183e+00,7.637533452488088237e+00
-1.002049499234681562e+00,-3.258012584919169341e-01,6.791469092483023218e+00
-9.290865245590110844e-01,2.849785011697265169e+00,6.104311106665276654e-01
-1.090719188947202989e+00,-9.016614653877444430e-02,1.692155193475980868e+00
-6.865680910868183773e-01,-1.915527634721983508e-01,1.413727267927934506e+01
-7.062946041117052154e+00,-2.621035380360466682e+00,1.279697429158701993e+01
-1.210974735265684998e+00,-1.449755651220239472e-01,1.498069973996199877e+01
9.151385425122019468e-01,2.588636113476665557e-01,4.792311912347174463e+00
5.890046226876059166e+00,4.985155771666520685e+00,6.100193220651333625e+00
6.710970924083708766e+00,3.768685288529533217e+00,4.539449589277880115e+00
2.113270697951570742e+00,1.328556528071044962e+00,1.361561803270916826e+01
5.222343896138464281e+00,3.147071530696598174e+00,8.086987182419795417e+00
-3.522109892630866934e-01,3.066533966475421646e+00,1.642617804558399541e+01
5.446768599326562210e+00,3.644079533714525088e+00,4.046495805388575562e+00
-2.351778045691420793e+00,2.399568073679808844e+00,1.329055948288586109e+01
-3.356743966423668457e+00,2.074408354807845356e+00,8.634649355740823040e+00
2.373728944190454548e+00,1.405249566307217313e+00,1.152649746499081473e+01
-4.617696881307079337e+00,1.498281521234129610e+00,7.543753655686548321e+00
-7.278178930107754852e+00,-2.890040351529682972e-01,1.338664740178913348e+01
-4.444186491770086178e+00,-8.279249110199629058e-01,7.008861338473537650e+00
2.688787856802713261e+00,1.714205498244404602e+00,2.118284362619565098e+00
1.165268393943191816e+00,4.037571323867348738e+00,1.063933581099981218e+01
2.596154454945414969e+00,1.251832202386863990e+00,9.605474062330099372e+00
-1.048404998726151366e-01,2.596803465513352824e-02,5.101181946580816806e+00
-4.048585350479622313e+00,1.391410759475367964e+00,1.541774545967402865e+01
-1.738773092016520305e+00,-6.798220990133271302e-01,3.003137451439990890e+00
-5.452640397065138700e+00,1.046660075938570689e+00,8.812017921122386355e+00
-1.324694077866775288e+00,2.623728795801338887e+00,3.722747136771491938e+00
-7.647612098549901205e+00,2.175825650534976563e-02,1.138586215683809577e+01
-1.192990748105107857e+00,2.795075862617463436e+00,1.029823988923685363e+01
6.755958867611491225e-01,3.509453693053737666e+00,1.726887628761822224e+00
2.043105149586109892e+00,1.035289336503594448e+00,2.800443060789966410e+00
-5.241457795480597426e+00,1.172829891648387024e+00,1.191605310716955834e+01
-4.544349928017533458e+00,1.266025152223683392e+00,5.991411219622778894e+00
-2.575430547530785721e-02,3.283412874972126083e+00,5.857635308243010819e+00
-1.950267771382555138e+00,2.434000125561785133e+00,1.074375569607975400e+01
8.352832104765658405e-01,3.573787813634190069e+00,1.501521928042640397e+00
-1.312989090294312877e+00,-2.748308139556633334e-01,2.293474383994112298e+00
-3.881297165152322037e+00,1.268517127323123272e+00,4.831404420136432343e+00
9.278060661567398837e-01,6.453815551949062534e-01,6.796723257241882976e+00
2.517366949892028138e+00,4.095313273945011545e+00,1.178591684594033318e+01
-8.017790480113328400e+00,-2.804354527914248441e-01,1.192430636596970217e+01
-5.056527810933363343e-01,3.217012307086271061e+00,7.704550951574355544e+00
7.892259479788084064e-01,3.731439928746753232e+00,5.187536342997941752e+00
-7.673345466810431503e+00,-1.723775149200786672e+00,1.254715613389753770e+01
2.578727754205512479e+00,2.882048782189777114e+00,1.260989024883519605e+01
4.180487048014437379e-01,3.500470015974456395e+00,1.370032292993200862e+01
8.661896000278586083e-01,3.056669924267537919e+00,1.464639679244336889e+01
-5.112762950361861236e+00,1.238892284408421585e+00,8.968490622881253316e+00
6.251305817795139497e+00,5.282186894580232384e+00,5.179910154747692452e+00
-3.974484057219608069e+00,-1.566715907195569857e+00,9.762426291899952702e+00
-3.824935002385702276e+00,-1.387480588801935921e+00,1.339460030717348715e+01
-1.130587467339599694e+00,2.792948364183716947e+00,8.382132942918437024e+00
-9.200081636627851500e-01,3.065174839832933262e+00,1.379518138677750194e+01
-6.720171238558423354e+00,-5.824111759213423944e-01,1.035668518144567685e+01
-6.700690693243282148e+00,-2.754421064534237740e+00,1.184640774807947139e+01
-1.136866701171345584e+00,-7.412539081781473194e-02,1.694090988947715815e+01
9.821715503280514792e-01,2.964255326243850241e+00,1.455113054571953946e+00
2.876934469486291501e+00,4.599927753169485101e+00,1.087761779786085192e+01
-3.584035996260564350e+00,-9.312004668323617951e-01,1.528611042382541818e+01
-5.168735799480128179e+00,-2.269054875116651993e-01,7.964816543027507301e+00
-7.075434838051589681e-01,2.956419380049191137e+00,1.695112144156025735e+01
5.826194005853153612e+00,2.573740464199217648e+00,6.646241790829256146e+00
-1.392773874562389436e+00,2.981273318657078342e+00,1.638921109284441613e+01
-4.731606694177131062e-02,2.398332117130332064e-01,1.521156651118335112e+01
-3.886419057402624944e+00,-3.503178757665597470e-02,5.869075681413410628e+00
1.806389505020173702e+00,4.224474406068464916e+00,3.678224978998583694e+00
3.031962775230623297e+00,1.276785613390418517e+00,3.144508276903756006e+00
6.222997936977164635e+00,3.133356591606748065e+00,7.123555906593328046e+00
-6.962329248383691827e+00,-1.835855430688724699e+00,1.139420370301874108e+01
-6.992789254674022459e+00,1.115071313766576727e-01,1.344292628446807392e+01
-4.777779367880519601e+00,-1.896902901651466022e+00,9.479985836511783504e+00
-5.378434840664544581e+00,-2.301604175050132373e+00,1.329769005283264605e+01
1.131541099929907590e+00,8.528335557173559733e-01,1.587988437299030942e+01
-4.985813215693351452e+00,1.131085266358301089e+00,9.723039819314056587e+00
5.466094100315189719e-01,3.755630982555679398e-01,9.508144372820050094e+00
4.233187955095234045e+00,2.011926244427895139e+00,9.372536327885139684e+00
5.135754625915969207e+00,2.120207161983971744e+00,4.422104738349859510e+00
-8.288462103547518112e-01,-2.282122966243324280e-01,1.195293314423045494e+01
5.542111392029083206e+00,3.739490937861819297e+00,4.028440365327061734e+00
5.236061782389129782e+00,2.365173234602163443e+00,7.749028402181342479e+00
3.032092896011647998e+00,1.366219385247107843e+00,5.477795344790259868e+00
4.847834380014015565e-01,3.442761457179455586e+00,2.265609446039853481e+00
-3.370480228269083334e+00,2.063218495848074152e+00,1.568564157942395276e+01
-1.141093928490537035e+00,3.054465579728996349e+00,1.223176247216546209e+01
-2.237077889833344990e+00,2.435085563377119566e+00,3.631534821105229405e+00
-1.118128455432384483e+00,-3.332527783564596668e-01,6.817364462830525440e+00
-7.435603968378686091e+00,-1.790670665223867308e+00,1.219534618556325078e+01
1.756528515064057050e+00,1.869525534579192350e+00,1.284756114333802879e+00
1.289295560932241180e+00,1.917190673204309359e+00,1.486146040421039771e+01
5.612967688095890750e+00,5.492401746296885712e+00,6.138825728239162949e+00
1.188091384034160258e+00,8.216673628484276737e-01,1.555646542143258948e+01
-3.568274094046768763e+00,-1.342411521824679266e+00,6.740673110811933988e+00
3.956618662130135800e+00,1.695087268939093006e+00,2.785547117710396314e+00
-1.703162594384315109e-01,2.897435151119483465e-01,1.736224640687435539e+01
-1.475758342028735903e+00,1.643541208083213023e+00,1.699636970281209614e+01
2.696158335556941399e+00,1.086256752583760088e+00,1.279879330336301990e+01
-6.403832382445745486e-01,-4.976305054846274535e-03,1.307236483853124298e+01
-2.767351314131526241e+00,-2.071401529780380057e-01,4.258630500937303331e+00
1.690315884848385464e+00,1.098818008780604760e+00,1.486723153421024435e+01
2.639310690134238357e-01,1.681639691966682726e+00,5.569717012997984495e-01
-1.042604659013701252e+00,-2.057249096964740565e-01,5.262846250743706378e+00
-7.345154116669268873e+00,4.512757177506216411e-01,1.292643582224668641e+01
-1.525385833477663766e+00,2.669546104753081739e+00,4.045918643703714679e+00
-1.276275995861118027e-02,9.332159434557782797e-04,1.411072809690407104e-01
-3.705761065067072479e+00,1.754662090436727162e+00,6.587031432574013579e+00
-5.668212614929615256e+00,1.025201044703858644e+00,1.019188503352723707e+01
2.045374881061526207e+00,1.160107187376435700e+00,1.414681391290978851e+01
6.871499156684611975e+00,3.524597178294751831e+00,4.618556166053826573e+00
-5.564889891226119545e+00,-1.247465056410659079e+00,9.118546776405386467e+00
-2.077946871978911814e-01,3.203581347778088340e-01,1.262860815144997062e+01
3.130743342696089115e+00,3.819437087425630928e+00,1.090433426319302512e+01
2.312504831226064095e+00,4.138141450006435740e+00,3.918471332759962067e+00
4.873339495761273454e+00,5.509281425902607943e+00,5.175640844249572048e+00
2.867480726370288835e+00,1.522999388027816536e+00,6.394632146409076512e+00
-3.874756466094046559e+00,-9.069668891334082828e-01,6.109757520852935997e+00
2.522041576890655890e+00,4.327784814032196614e+00,2.365369930280192268e+00
5.781626330011161441e-01,5.085569051553920916e-01,1.133036657561077742e+00
6.979125701033345175e-01,3.494325788801691424e+00,3.769632730691460765e+00
6.501288270253290591e+00,5.274629809175656270e+00,4.978894371776812378e+00
-2.608900145253506331e+00,2.178186333940359987e+00,8.231978126772910187e+00
5.023858064213714281e-01,4.541797398860674684e-01,9.794569291043277559e+00
-5.666387840771463402e+00,9.825161470885360737e-01,1.232262180764703707e+01
3.829434452119437005e+00,2.322114098767265933e+00,1.086511110699418836e+01
1.938726864875502942e+00,1.093540431365975119e+00,9.102851270665130556e+00
-3.669665355110960814e+00,1.651151217603881616e+00,3.925560336148472551e+00
-6.856927942536014120e-01,2.252600010456315971e+00,1.761653612921731593e+01
-4.313634590069126418e+00,-4.337084301399232733e-01,1.507777684953208741e+01
-7.766772116356155387e+00,-1.326568846541546609e+00,1.249249076420812621e+01
1.476127493164866245e+00,9.637682252317509857e-01,1.445886539774047819e+01
-3.335216083569689349e+00,-1.175526535635038394e+00,1.402519103433881398e+01
-3.977771998404693310e+00,1.342527124916455206e+00,9.013136311879202722e+00
1.322410153061837290e+00,5.099901340742715172e-01,4.063081578717165243e+00
-4.549347647064437283e-01,2.922689827836106424e+00,1.689585718641828294e+01
-1.868631368243747426e+00,-6.824463004885238382e-01,8.391497221690777053e+00
2.742485278918148417e+00,4.376383343007947069e+00,6.302556227778666198e+00
-2.756406022462076333e+00,2.113849909824661477e+00,8.126456811109322942e+00
-9.767052768230872761e-01,-1.385104692595897635e-01,9.189645232291479005e+00
-2.995342215030476041e+00,2.169855469655217028e+00,1.409493313053153152e+01
7.071825419704862448e-01,3.870242507148952349e+00,1.039603824276112931e+01
-5.030726032865640462e+00,7.901241761956396825e-01,7.059103110059463226e+00
-1.974395552757012284e-01,2.388207795887902773e-01,1.565958202153939460e+01
9.328731394334234261e-01,3.757069035113820288e+00,1.158879502373183001e+01
2.411553014390047878e+00,2.428011170780545402e+00,1.315822350522825168e+01
2.937619568179747898e+00,4.390797591514742138e+00,2.711355889199897007e+00
-5.095500925848362783e+00,1.163570453388724113e+00,1.241205743903270786e+01
7.563790553196492183e-01,5.040346196634505338e-01,1.486889471163428844e+01
-7.079169779596465872e+00,-2.453937834586275901e+00,1.194272531403071191e+01
-1.816131293160427873e+00,2.528313136615746526e+00,1.248250862326754351e+01
-4.386012144077667152e+00,1.665947579003939971e+00,6.057222502892273930e+00
-6.029888889707328836e+00,-2.423717194393988805e+00,1.235825558959783521e+01
6.304792608684710586e+00,3.087135603474243872e+00,5.946157025262484908e+00
6.296493972490448954e-01,6.284969577995446199e-01,1.553972547555174977e+01
-3.931741396219930185e-02,3.385002353340157644e+00,8.053998756852301710e+00
-2.559429822661038578e+00,2.416813784853885316e+00,1.396322160921404354e+01
-1.884668021521958448e+00,2.566912586563224963e+00,8.234233002286586611e+00
-4.675980629195317206e+00,1.495276650235460636e+00,1.030707984899838081e+01
1.983299995740187560e-01,3.364447204163801608e+00,5.998947817145898753e+00
-4.287549121340211045e+00,2.687834329505063846e-01,1.531775425820798375e+01
-2.547738064670278302e+00,2.298425514388267921e+00,3.418723415657204168e+00
-2.822305751121903405e+00,-1.195518733445379400e+00,7.544719019520478298e+00
-4.113235550675183205e+00,-1.393470158891778610e+00,1.092697307058642586e+01
-6.880515575794430738e+00,-8.431426757940904126e-01,1.083120716983808052e+01
-2.712176362923405804e-01,-3.254702510352894262e-02,1.202369311537674612e+01
7.076519201716084062e+00,3.685425360692886176e+00,5.629221162333176487e+00
-6.231395019647179012e+00,-2.303031245344194566e+00,1.063464843129665915e+01
4.762738673092655084e+00,2.140317469868334488e+00,5.983864384641695899e+00
2.783692499092274009e+00,3.043389203286576361e+00,2.381574242632161109e+00
-1.904652822152392011e-01,1.544715190207033073e+00,1.706756707328021605e+01
1.429867148727820281e+00,8.461583160456120911e-01,1.010092770624059666e+00
-5.387893309760058536e+00,-2.293167983758676254e+00,1.282182496634897362e+01
-5.360472844778727541e-01,-1.746951521196955515e-01,1.126885884403273685e+01
-2.323632161117628048e+00,2.459799137850886552e+00,6.542653963264436712e+00
-6.673178416583617212e-01,5.108009287466115655e-02,1.518763282176171536e+01
-7.587363812644192240e-01,3.325069107157171272e-02,1.687403682469037136e+01
-5.596134748435315664e+00,1.053364411973522152e+00,1.305002363045581326e+01
-3.247804760723024931e+00,5.153747535683144143e-01,4.392667663535616107e+00
-9.152461035606411499e-02,3.213905223954790724e+00,8.718590512387233815e+00
-3.932990695687069049e+00,-1.411994914008780189e+00,1.400462567490038346e+01
2.226879727165146594e+00,1.813483720678322086e+00,1.786343263790063807e+00
1.334854168274110409e+00,4.081338192568825463e+00,8.857398556274789669e+00
-1.331173771028067998e+00,2.768191652337470554e+00,1.008922079352732837e+01
-8.916732920653622774e-01,2.956928865676866636e+00,6.206838293905455828e+00
1.662159131951994606e+00,3.794347721396801987e+00,1.821398795115387381e+00
-2.932849277857651593e+00,2.360467951905863782e+00,5.296115384815519356e+00
3.941136860738861269e+00,5.062145504167679277e+00,8.399489943972772821e+00
7.471490665166788947e-01,5.414425342731662427e-01,1.408570179041570825e+01
3.362932632395887467e+00,2.005329978649743161e+00,2.550499206427800925e+00
6.156945118084123925e-01,3.056145901782324259e+00,1.132392333067252066e+00
-6.117253827787306975e+00,-9.299268810405376673e-01,1.379287225001509931e+01
7.949897781780079775e-01,5.467698712122384119e-01,1.118588063873907679e+01
-3.471446654033699009e+00,-1.291637596444376035e+00,9.116727220386783515e+00
-5.024406584372247409e+00,1.363777819062198748e+00,1.053013712089512488e+01
1.556033547848618970e-01,4.179976593980693766e-01,1.502712204905247440e+01
1.921586221939084238e+00,1.098837177362633089e+00,4.458741698818789345e+00
-3.293674192748039520e+00,-1.187886165299322450e+00,1.494483364403467185e+01
1.077069098883806086e+00,3.779176827559843410e+00,9.440017209629845141e+00
-2.756989616278681776e+00,-3.500714091878736056e-01,4.354122142889790936e+00
2.078421398168642575e+00,4.654006760180704028e+00,7.955331492290752315e+00
3.068940774821123707e+00,4.778912345819098739e+00,7.429976775646649045e+00
-7.554615840950668071e-01,1.658702367102817821e+00,4.750465367502746533e-02
5.132956379373548650e+00,4.996198114789436318e+00,3.952630891224322429e+00
-7.000413815035811282e+00,-5.808988595472298622e-01,1.320160996555192767e+01
-3.570618252295575612e+00,1.763687483444723814e+00,4.203403188877344654e+00
6.615948157659263806e+00,4.742003945017521538e+00,5.205725700854418214e+00
-4.469926076758352629e+00,1.382629434843954508e+00,1.070872075599998929e+01
5.973363867470531829e+00,5.867396263180903127e+00,4.884680606956204763e+00
-4.413714382937901526e+00,-9.844434938276797054e-01,7.257820162141034537e+00
3.653502866007525274e+00,1.869191335872828930e+00,9.164422533393219439e+00
-5.050841862049602504e+00,9.501154516226519853e-01,1.178451640165003234e+01
-2.117664472297644096e+00,2.487967432147352387e+00,3.764872254800517126e+00
9.467764690867099819e-01,3.792578974796505076e+00,1.327897302697722104e+01
2.713647433954009536e+00,1.741317062194638110e+00,1.304217911849101341e+01
2.142679232619793428e+00,4.278165499440499175e+00,7.476457744111317361e+00
4.925195615481816169e+00,5.378935733594266466e+00,5.698803735988241748e+00
-3.142366754677119012e+00,-1.342213600640072446e+00,7.079835712331516540e+00
-1.612772543146736348e+00,2.702789641651906383e+00,1.119144039786708511e+00
-6.866033337283577787e+00,3.585018839096031362e-01,1.159350825039297916e+01
4.896255916198943292e-01,3.563891681939634459e+00,1.414986273396339733e+01
-2.219266474206505801e+00,2.608634787418398382e+00,1.506208776403149763e+01
-1.196692314900571485e+00,3.254364715840021738e+00,1.426571407597912255e+01
2.260455326176240565e+00,1.133129412801926472e+00,1.041126280837065643e+01
-7.454953927338929809e-01,3.470539513081215333e+00,1.512956925561817734e+01
6.271912212184431290e+00,3.694297508683607845e+00,4.580022957632418290e+00
-1.224339643075351924e+00,5.786851861044902678e-01,1.675468759201525160e+01
2.422809280867463055e+00,1.352491012271224813e+00,1.697077694081687405e+00
5.469233452107723714e+00,5.437071849705594317e+00,6.419891309151672942e+00
3.352577840085447125e+00,1.531197227306703823e+00,7.451632384405439957e+00
-4.238373620274177078e+00,-1.288161579358649167e+00,7.252995010306842794e+00
4.230295921136969284e+00,5.230517564103208450e+00,7.289730131741247732e+00
9.491606487374800727e-01,9.169725722003905233e-01,1.616889658189955625e+01
5.047627908339995528e+00,3.252123925498621837e+00,8.615151434629137128e+00
-5.858376959027832065e+00,6.970664562383630525e-01,1.432790323072835470e+01
3.905780800478782927e-02,3.393504242265879878e+00,2.618390446121925397e+00
2.440762226720029737e+00,1.003658199529619655e+00,4.111612295390147942e+00
3.551882036369211182e+00,1.580977977173755766e+00,4.756614775206763568e+00
4.313969903146225526e+00,2.894734366353976185e+00,3.104531673103169354e+00
-1.967440524270430258e+00,1.410702864489588704e+00,2.078102314204861134e+00
-3.123764178045031592e+00,-9.289859448219335292e-01,1.541723678534135722e+01
6.356583826933889014e+00,4.908339880494954954e+00,4.870339636949722717e+00
1.943175199156775834e+00,2.548933053381874814e+00,1.364654023801421445e+01
2.345332806217862165e-01,2.646343109197685783e-01,9.340318736750488071e+00
-2.366908238512059004e+00,-8.837089420556512032e-01,7.317410114376275310e+00
-3.071813528742984634e+00,1.928668931178487034e+00,9.437628710395403075e+00
-2.855385930792693205e+00,2.117886995359827829e-01,1.591662387567036063e+01
4.675634267168470970e+00,2.189725142103440270e+00,8.485909615846834342e+00
-2.380155861185616395e+00,2.265671999504223155e+00,6.646379912887288910e+00
-4.719259315803223664e+00,1.207604075293466694e+00,6.423437870842225728e+00
-3.857999910691618961e+00,1.402065773741133503e+00,1.560274378316453614e+01
4.015290181929850988e+00,4.011908341247750975e+00,3.023175310098826341e+00
3.016487187725054753e+00,3.750112139859479665e+00,1.118845679763691336e+01
-1.218305849610277436e+00,-4.039720504205132623e-01,9.285061650321075888e+00
-2.919890013349700553e+00,-1.265451605883661346e+00,5.658664242360685215e+00
-4.154325258517611807e+00,-1.619177201376094777e+00,1.188363994669986923e+01
-4.704498315372106276e+00,1.287410537328929294e+00,6.133387377289854392e+00
2.164535157168259172e+00,9.203427538121881080e-01,3.802540957662464027e+00
-1.894437005911030480e+00,-6.277038982944765921e-01,9.986177183202979535e+00
-1.144516346130613593e+00,-2.471164961846813724e-01,1.631480888830027709e+01
6.893735771871326579e-01,2.966543115290183885e-01,1.058396316616676991e+01
3.120155571831021990e-01,2.768053295902929700e-01,1.085434676041119495e+01
5.512051565478370829e-01,5.731769815798360979e-01,6.329656094859815063e+00
-2.928108248326521057e+00,2.020562389007817483e+00,4.925682030221077312e+00
-6.491990782645042479e+00,4.839967488167770115e-01,1.081206177704671845e+01
3.355916728485582645e+00,5.000996787915168440e+00,5.719541902206643158e+00
1.003448062678610420e+00,4.437747295559685279e-01,6.348695016398858471e+00
3.021992604547458772e+00,4.228026362925485060e+00,1.089611131750115902e+01
-3.482097601219890093e-01,-1.796101203090153323e-02,1.162110656388495933e+01
-4.599511407028899157e+00,-1.713365093846808795e+00,1.264493193300129192e+01
-5.411906341946911780e+00,1.757316318158990698e-01,7.770545040967748562e+00
3.776254805868728415e-02,-2.003282643508904823e-02,3.786897088489625141e+00
6.534683222161522309e+00,3.061323051172093468e+00,4.611023938537808675e+00
-7.832462309803047695e+00,-1.168639422442873776e+00,1.264102018658867443e+01
-8.054664181815993640e-01,3.140272616373743109e+00,1.368928406050506297e+01
-3.300135833814409114e+00,2.087003079232626401e+00,1.587407126632568755e+01
6.236670689586073735e+00,3.610392137200971963e+00,6.642106202112536550e+00
-1.447398148149994013e+00,8.813950420575222822e-01,1.677536935021232622e+01
-3.155607163358665535e+00,-1.015505806041000714e+00,1.415511903909442637e+01
2.692756317132509292e+00,4.464948279307227708e+00,8.053653435614348766e+00
2.486226761796579421e+00,1.208243171178500219e+00,9.325973904855830554e+00
-1.605987874714117858e+00,-2.845365598592638490e-01,1.648429688699005879e+01
1.812339552239869978e+00,3.980067495544318490e+00,5.107962149696386511e+00
-5.230607773000686578e+00,5.937889277687854322e-02,7.698441900077838795e+00
5.737879143919903946e+00,4.525403949671413351e+00,6.710897123064568426e+00
3.403888985854250926e+00,3.985545635186571012e+00,3.017716991361294454e+00
-2.696240756678661921e+00,2.308991793385529512e+00,9.689151022213870590e+00
1.360017476595814789e-01,3.548792324104523832e+00,1.078826368682481274e+01
2.739239345050764829e+00,1.377858695079469564e+00,7.896851891364790710e+00
-6.311682398761211954e-02,-2.581061345412007796e-02,1.478240105019904771e+00
1.935600234111930051e+00,1.708267766295377132e+00,1.291447870182648172e+00
-5.777504946056015722e-01,-1.049083975987063072e-01,7.451520490935136465e+00
2.540090047477597590e+00,4.282635297256798701e+00,4.482653213757205712e+00
4.228840552113672047e+00,4.088400307017255209e+00,9.488355412240256470e+00
