-7.176460200171904669e-01,-2.744168508247358806e-01,-9.261740064768952507e+00
-4.891367137943187338e+00,-7.231184951075162459e+00,-3.706271191141991661e+00
-4.987216049542084306e+00,7.576550939001055696e+00,-6.896556958382516811e+00
-9.107406586327112308e+00,2.379762440134133517e+00,-6.265025120253394642e-01
-7.407881841296592107e+00,6.938237937701237534e+00,3.510172206324964628e-01
-7.097953704201500624e-01,-2.389671358590500283e+00,5.280277138704080997e+00
-5.971268699187049833e+00,9.640902437051213525e+00,6.313801884454137259e+00
-2.542840891897766742e+00,-7.681207615161495639e+00,9.228999040599157322e-01
-4.319304874045790221e+00,5.436295373021132527e+00,8.847892401913147964e+00
-1.323316335673430766e+00,8.811141971497757908e+00,-4.707128173988206932e+00
-3.850131502129617633e+00,5.398444571648262524e+00,8.713115742913009498e+00
1.927332417202991754e+00,4.307049465707635250e+00,6.275267018165527233e+00
-1.984825299952271083e+00,-4.600850155075007386e+00,-6.598771876558146232e+00
-7.023276160910302046e+00,8.769429514607679721e+00,-5.693020661939066862e+00
-6.816314209607781116e-01,-3.338540022732447099e+00,7.517574871148721805e+00
-8.727889485199380459e+00,2.684666131955500745e+00,-3.878771094594633539e-01
1.669589144346058651e+00,4.887940426312615827e+00,-6.714644866583270311e-01
5.832813155863618426e-02,-1.131042806190619032e+00,9.062344940177714747e+00
1.565442229450529688e+00,3.481836892580514320e+00,6.815172454959231629e+00
-6.274036219314532481e+00,1.071470395896894345e+01,-3.434576384373221547e+00
-8.587785555365503143e+00,2.821390424981321754e+00,2.632503173899005677e+00
-9.378255740768146609e+00,1.172777427660228744e+00,1.574919808145378353e+00
-2.792539479483850950e-01,-3.310524870258411967e-02,-7.250000426679850563e+00
-3.466689648201176643e-01,-7.105146492058773966e-02,-3.333427323666257269e+00
-7.408373502682921163e+00,2.821515561968649610e+00,-8.851076457526039221e+00
-8.156710888514433211e-02,-1.691292514010009240e+00,8.244841428866394040e+00
-1.012971425271845050e+01,-1.578084164002972134e+00,4.120769331944659442e+00
2.207310244435137125e+00,6.646281002949532279e+00,-4.599581498645806121e+00
-6.396056895352018934e+00,1.020061803946356527e+01,-3.125035520353705021e+00
-6.489911615229082997e+00,-6.405863235810902445e+00,3.816836142614324245e+00
-1.090413433457932157e+01,-3.715131455765741553e+00,3.599880543710704650e+00
-7.244101031112350597e+00,7.207378912798436232e+00,-2.159239417353693735e+00
9.611373919870119797e-01,8.730163438773869800e+00,-3.667719574575458719e+00
-3.772561876890596189e+00,-4.029655223812095288e-01,-8.822338439255123177e+00
-5.570912736679336064e+00,8.619573529886620733e+00,7.237632599647725762e+00
-4.482202145840540553e+00,4.995696122910437076e+00,-8.202141002185751262e+00
-6.803977223078396364e+00,6.881183317491977647e+00,8.065812642023983514e+00
-1.295216154340570025e+00,5.888221940905388863e+00,-7.541431757516959600e+00
-5.827130303259374422e+00,7.890901071794823807e+00,-6.966254067139299622e+00
2.536158377676499320e+00,6.498978645114112496e+00,4.554029465453620418e+00
-7.349649939462050696e+00,8.170835427077745905e+00,-5.235865467038080645e+00
8.560583811689954636e-01,7.040309781731862060e+00,6.183072726605204572e+00
-3.347584964690116127e+00,2.724973409503070432e+00,-8.894742614048331220e+00
-2.593126567065678234e+00,-6.358012799712726704e+00,6.334890667906856621e+00
-4.179684447266196479e+00,7.050373834017492847e+00,-7.005007306181821214e+00
-4.622825126283950148e+00,-5.106526485123420445e-01,9.185688648393108835e+00
-1.047920457056591204e+01,-2.028779846012264354e+00,1.359245234901053090e+00
2.130633786474510405e+00,8.353218763557183735e+00,3.166016913131766586e+00
-3.581604794628421295e+00,1.704827675876614546e+00,-8.951906375000971750e+00
-5.400663004090808794e-01,-1.141166903803184196e+00,9.207890025664331901e+00
-2.868519443837196370e-01,-1.054855011228629014e+00,-2.705325138845729449e-01
-5.511872012727601522e+00,-6.279601276612752692e+00,5.091493281308403063e+00
-8.604845788929944561e+00,4.628649994837816806e+00,-7.551730143440678056e+00
5.570321589851755517e-01,1.481636797564934938e+00,-1.166751531003970443e+00
-1.133913577471851220e+01,-3.551602705773146962e+00,-4.154786471801889647e+00
-1.960337426335366506e-01,9.752585769279956907e+00,1.662109342893201447e+00
9.440966199389336788e-01,3.268629137781149385e+00,-1.087367772310667169e+00
-1.024368612415760538e+01,-2.156096447957013940e+00,4.486891075719961819e+00
2.297303516886214148e+00,5.859817096431365613e+00,6.660251563639846495e+00
-5.491238413773741556e+00,1.153891227802003883e+01,2.303624321972241429e+00
-6.897383381612698372e-01,-1.176844445026238750e+00,-6.068859924422670638e+00
-3.760757787725729884e+00,5.641616491076467454e+00,8.684118729376152146e+00
-7.652154392928741444e+00,6.646354295731907058e+00,-3.429261618738070450e+00
-5.915836858523928932e+00,1.055319039121309110e+01,2.013866248121807256e+00
-1.131643313159351072e+00,9.407434575338287530e+00,3.822909098908367831e+00
-2.765317579842445639e+00,-8.329088090018078816e+00,2.352346373903952514e+00
-2.268254031915371005e+00,-6.885773486686150413e+00,3.090262916988244069e+00
-8.549535441004074698e+00,-1.824532294802090115e+00,8.585708475148621233e+00
-4.534699723751442590e+00,9.984830144231519711e+00,5.090615464353320796e+00
-9.112002855901311094e+00,-6.615484629732760524e+00,1.834393649590282616e+00
-9.488009675422766520e+00,7.897481544414920451e-01,1.809579689577027084e+00
-4.937575526660467062e+00,1.818760163131777574e+00,-9.013686868087310344e+00
-3.481717668633661500e+00,6.116276714309528018e+00,8.369962335269519826e+00
-2.650388398701968296e+00,5.770700916018605575e+00,8.307937095206291644e+00
-4.050150836524221809e+00,-7.328837737626412441e+00,3.798527552882082325e+00
-7.766031572841708197e+00,6.933976472893610854e+00,-4.117481939270875912e+00
-7.113365738048388565e+00,-8.693986534364829266e-01,8.881636120501829268e+00
-2.620359045310632240e+00,-8.188314193260696428e+00,2.507655394796152848e+00
-1.418059305416941918e+00,-3.964822742229426655e+00,1.178759836704563524e+00
-5.589527968779500533e+00,1.075653338621056321e+01,-3.507467111884909450e+00
4.731788514089863562e-01,8.280514175920265174e+00,4.886064437343685007e+00
-7.327852977966143655e+00,5.422090006078136959e+00,9.057799633743734091e+00
7.486549247358662562e-01,3.008023426336536854e+00,-5.226652527015813732e+00
2.764023777535387083e+00,8.095127449602571801e+00,-1.038413098795651246e+00
-5.891690917914224279e+00,1.024570498475765312e+01,1.690623885235228663e+00
-4.754661126233084900e+00,1.126859072888603031e+01,2.909973868897492100e+00
1.240057304984323983e+00,5.415200105176055878e+00,7.290325736762587105e+00
-8.566648514587237528e+00,2.687050670157035803e+00,3.848940733594468533e+00
-5.203087264039903737e+00,1.767958706544438652e+00,-8.855204772168876914e+00
7.329983952754540732e-01,8.127156265038799177e+00,5.091716435075703373e+00
6.814073645309608462e-01,2.910721432507833661e+00,-6.039332521523355979e+00
9.262681851183378612e-01,3.034500049196779070e+00,-1.704730078722548114e+00
2.093153350926158396e+00,5.111322372659927282e+00,7.320397913607251894e+00
-5.282696972209486752e+00,-6.643318073806720570e+00,4.727881487268013494e+00
2.226415741226495104e+00,8.817326923316304743e+00,1.494935298002231905e+00
-3.516534302828455694e+00,7.884703716671110918e+00,-6.312196529221491659e+00
1.208560958086816739e-01,5.101526147036011594e+00,-7.697954349710372846e+00
-1.800292097722722806e+00,1.027661625926616118e+01,1.642603604229481151e+00
-9.734665539182290050e-01,9.764915740591936455e+00,3.207840513812143080e+00
-8.107245767149544591e+00,2.510764981671421925e+00,9.776211495836536258e+00
9.978554837120039434e-01,5.625339868809782651e+00,7.447840266860539238e+00
-6.065371896387488526e+00,8.739510237303283802e+00,7.189600046406580347e+00
-4.231281827845581489e+00,-8.294521370933532367e+00,-2.470908211824279499e-01
-8.647896930409030958e+00,3.870546474529540593e+00,-3.904143735734481258e+00
-6.434606865221883965e+00,-5.856469626378996374e+00,-5.009359586206945103e+00
-7.408593638011187199e-01,-1.108602858269770008e+00,-7.247879066563595707e+00
-2.382901486798509882e+00,-5.376326488194727027e+00,-5.021795731550992237e+00
-7.779851308612064642e-01,2.994469297723815870e+00,-8.881182965465812984e+00
-8.737135241392943286e+00,-4.813683238531047515e+00,5.913414733709413618e+00
2.128441138311218117e-01,-1.135744598912934222e+00,8.592971721158006559e+00
2.803004796634059326e-01,7.683428316712588302e-01,3.039389966890913009e+00
-4.179635167741615476e+00,-2.002345316553921784e+00,8.804140415532419439e+00
2.322226978718807400e-01,1.240263545313054383e+00,-4.088633353016724037e+00
-4.666195720541709946e+00,8.430306225046059865e+00,7.116726107895567921e+00
-1.641259156007354392e+00,-4.765974465417228245e+00,3.720186173222985171e-01
-6.203059377543983510e-01,-2.523583997706358772e+00,1.388510916653165728e+00
-1.690662833304095614e+00,1.031793598373534948e+01,1.024184789921876559e+00
7.433585322466967904e-01,2.973527065680287684e+00,-7.291097794105344754e+00
-3.927748139153307783e+00,-3.110266507052541485e+00,8.318598573084988956e+00
-1.093562308307179620e+01,-2.849119070458637992e+00,-6.018267222774596803e+00
-7.318311011401016586e+00,6.311943052023694101e+00,3.566616387185759240e+00
-5.775778353027956058e-01,-2.530576198922778186e+00,5.005098419173564572e+00
-4.402963748602916283e+00,-8.390522549121634199e+00,-9.536812574672417497e-01
-6.533938683330978492e+00,-7.468768791150457886e+00,1.582918084130262359e+00
-1.007883134660956870e+01,-1.332888270326871405e+00,2.932481505045962944e+00
-7.227138390411725233e+00,8.341622430440255087e+00,-4.466734266005027543e+00
2.920356457574069697e+00,8.031462142789997927e+00,-1.259591491088941417e+00
-4.708851576964289798e+00,-2.366493879941533596e+00,8.676407508662752122e+00
-9.355904761336622855e+00,2.714182471504759331e+00,-6.911995282656910433e+00
-1.268477684350665990e+00,-2.562878347285824532e+00,-5.391362620232060365e+00
-6.947546689376280504e+00,3.703657797336066704e+00,9.481054660542030277e+00
-7.921092056964296191e+00,-6.146592355982647859e+00,-3.248426635800954809e+00
-5.596486996370543032e+00,1.124700749581603176e+01,3.457112850334787879e+00
-3.397697232953371671e+00,-7.733050398203366704e+00,3.873927895920586284e+00
4.220765961825852924e-02,1.776169754019997216e+00,-8.975893460137275071e+00
-3.831953172728967072e+00,-3.455827128661110859e+00,8.212742178664251824e+00
-5.857599788327473078e+00,-5.205792777821409700e+00,-5.879816978065169231e+00
-1.006382259939816004e+00,5.626879231274337201e+00,-7.508778422059518398e+00
-3.851392195592095558e+00,-3.907258529908852474e+00,-7.760921516024590794e+00
-1.655751866671940409e+00,2.530042663290426042e-01,-9.204545135646988285e+00
-5.267915255568994759e+00,7.792420213794537531e+00,7.560210300446654763e+00
-7.132447668449307443e+00,-4.804180916822271108e+00,-5.557727950782559212e+00
-7.870010240298950244e+00,4.309466602663471591e+00,5.737715453614511851e+00
1.269981432575677971e+00,3.966689616574986754e+00,-3.972205765152340806e+00
-1.094086674212488930e+01,-5.488341732357761238e+00,-1.623779207971372429e+00
-7.021067070893807660e+00,7.058702866182389180e+00,2.207389163656479969e+00
-9.277575333157320969e+00,2.909499976316061165e+00,-6.742444580925350373e+00
-1.530142170171538085e+00,8.851627436810563410e+00,5.060269379803846057e+00
-1.100374131598944594e+00,-3.364907234016779380e+00,1.837981625471688085e+00
-7.287276288484114239e+00,1.190322513900256007e+00,-8.595477250728009722e+00
-4.429477467868564666e+00,9.669615152823663351e+00,-4.461948885111612029e+00
-8.473552878444580827e+00,4.845019303264481714e+00,-5.115838217836320645e+00
-1.396146229680018225e+00,5.399283207781614635e+00,-7.677729212756042365e+00
-8.450199164359119663e+00,-1.831136315357767996e+00,-7.539622149460753597e+00
1.730995915619556236e+00,8.556211903177755929e+00,3.560567275518168984e+00
-8.222782368331293057e+00,5.656996227016630741e+00,-7.402016846031667541e+00
-5.721564471368943749e+00,-7.181350878703230300e+00,3.135943644436359978e+00
-1.058723125812740307e+01,-9.201984909459227646e-01,-7.329790914081847575e+00
-7.888667979834417254e-01,-2.326454801883437451e+00,1.880832393929090740e+00
-7.448027035829319686e+00,4.331521218032672316e+00,8.498187029343734267e+00
-7.297595096795876479e+00,-6.474138203841941497e+00,-2.700144191763238499e+00
1.139783246679175965e+00,1.305991366145889732e+00,9.027735602450318808e+00
-3.531102478891662511e+00,-3.366952458556856875e+00,8.318636479524853300e+00
-3.943877576405408814e+00,-2.548484415813014881e-01,9.323328601049103881e+00
-4.700547761663166568e+00,3.318791588730591879e+00,9.356721747594804128e+00
-9.313888294850523053e+00,2.411819984056208455e+00,-8.508391707334661547e+00
-9.475920782210261351e+00,-2.514458646962835164e+00,7.827823019105342617e+00
-5.261316482221470858e-01,-1.355946610741095792e+00,7.637502828449512782e-01
-2.871495756202890881e+00,9.789152432549219185e+00,-3.818878476880751993e+00
-1.130277002597771308e+00,9.997496849870627145e+00,8.849285068434750157e-01
5.750558403298285104e-02,9.904543598378006131e-01,-6.391729423988087966e+00
-1.141686844580399374e+01,-5.308780337477306155e+00,-2.218627431056082067e+00
-9.799020461441024565e+00,-4.296337933698981537e-01,1.827751649106146958e+00
-8.394117387177827183e+00,-1.391427824532216230e-02,-8.279946976850377283e+00
3.771216058344384336e-02,1.047784822242269431e+00,-6.396588328613614927e+00
-8.560696650927313911e+00,4.667720554216284512e+00,-6.455806471563760418e+00
-1.928250244052271523e+00,1.001741653187501058e+01,3.195702893562279101e+00
-7.674874999168653567e+00,6.793486256367618381e+00,-5.087175572301792847e+00
1.536040367184666522e+00,5.642449459962188385e+00,7.142183381740810688e+00
-9.901244297984975518e+00,-1.985684365704460941e-01,-5.524546505832890197e-01
-8.435705393698107457e+00,3.403127251218808880e+00,4.661748018291000939e+00
-1.371805634194772416e+00,4.133647049018142283e+00,-8.451347097898326055e+00
-1.112705645193740622e+01,-4.512998437869871537e+00,3.390439037573812264e+00
-8.750297977990187381e-02,8.166320693912052064e+00,-4.344397228065131955e+00
-1.108721822189405870e+01,-2.260968084788560262e+00,-6.303096898940403925e+00
-3.603328085631024802e+00,-3.833915477698165208e+00,8.038150775875074316e+00
-2.442774678691836954e+00,1.074849997042392147e+01,8.702202363460306289e-01
-1.613349237009279902e+00,2.455397039383858893e+00,9.229271078616639201e+00
-1.426370656353897814e+00,-2.633075966162901960e+00,-7.721602322814335118e+00
1.707240433683652858e+00,4.539547127662758363e+00,1.090368340329047392e+00
-1.084524734685452074e+01,-1.990833899631828441e+00,-1.346738626354781809e+00
-2.329643521405175832e+00,-1.207896009896699541e+00,-8.907399286336206146e+00
-5.363142588721962589e+00,3.526306689469998368e+00,9.416669855696959246e+00
-2.225903559580296953e+00,1.045130811546038707e+01,3.595262174782930531e-01
-9.197622971540432957e+00,-2.548449529033997241e+00,8.178297305278960039e+00
-7.866912882725694445e+00,5.262102169856572864e+00,2.671889194392635503e+00
2.209187220959697218e+00,6.355229310401912635e+00,2.615167355271275432e-02
-5.902270371325416320e+00,-6.772564071795686758e+00,4.500468997654735404e+00
-3.642589536764825109e+00,-6.110143758263882674e+00,-5.896996156135358547e+00
-8.003393619097794343e+00,6.223546931224415157e-01,-8.459986213892811691e+00
-5.890562041961000084e+00,1.080427821550072487e+01,-3.409162033431665240e+00
1.452221816878865424e+00,2.535002603626271611e+00,8.424493662851254783e+00
-4.750870330466810287e+00,4.915895878359616944e+00,9.089748370546198331e+00
-4.532206187240289452e+00,4.268873302617957499e+00,-8.669954477111049940e+00
6.959226793304242875e-01,1.415577661425164280e+00,5.037122391231170226e+00
-7.045853623202869009e-02,-1.792290426324415265e+00,8.827393152766639162e+00
-5.593586606823572005e+00,1.115776410210666292e+01,-2.125122718957138002e+00
-2.217373662760135922e+00,8.082611169326581191e+00,-5.911781796379234954e+00
-9.384801308459055136e+00,9.853643559819210695e-01,1.427532930521275167e+00
-8.457553154048301991e+00,4.370273545091895251e+00,-1.438013461985599095e+00
-1.053681478948541539e+01,-1.979395313021123037e+00,-6.943716485800133231e-02
-2.725680521795071254e+00,-2.373987284412387933e+00,-8.598815707824128296e+00
-4.789122373100356711e+00,-1.901470409870740008e+00,8.820106937724958129e+00
-6.753401220000768035e+00,7.870403349095157708e+00,3.480799564515402178e+00
-7.415569851540777968e+00,6.780477471521487942e+00,-6.713284505985002149e-01
1.506582516386621995e+00,5.358147154218488417e+00,-6.327792740850183506e+00
-4.004351809287662434e+00,-1.507626208387454980e+00,9.082908184517874517e+00
-1.597507667345704763e-01,2.713766718426847135e-01,-6.974004008295016099e+00
-8.236772361913628160e+00,5.401714501597118634e+00,-4.852248531324488745e+00
5.163043646592145874e-01,8.158271926542124408e-01,3.413381556553104712e+00
-6.358271453873295620e+00,9.417328566990359917e+00,2.959363512525904572e+00
-6.438171438310472894e+00,9.510932432831108230e+00,-1.196451671670346162e+00
-2.477844778801485237e+00,9.589237784902712391e+00,-3.949123665906380420e+00
-3.037897816001366103e+00,-8.166603686703398424e+00,-2.030992989348612721e+00
-6.760466150215704850e+00,2.181332996878802000e+00,-8.920456546361775096e+00
-4.801483540084339197e+00,1.405550933282651016e+00,9.577021411547164575e+00
-1.910525858549382949e+00,-4.203376824287570201e+00,-5.965582344993243247e+00
-2.663020777247920634e+00,-6.648801431982439780e+00,-1.463526874888961604e+00
-1.062902030050969060e+01,-5.881467368986471378e+00,-4.356958206911359932e-01
-6.513893154387755402e+00,-7.400774854581403162e+00,4.301195642484717530e-02
-9.040879468682609499e+00,2.643842373947133506e+00,-8.626420986437931759e+00
-8.864660744950567661e+00,3.564681419006102914e+00,-5.522586875100795822e+00
1.390612466216960275e-01,-7.014855563708874975e-01,7.047002993099916957e+00
-1.080676690602225953e+01,-1.661055228505967429e+00,-6.186514546075656540e+00
-1.270433146803188751e-01,7.860487066028293945e+00,-5.416946019036827487e+00
1.500691814167325555e+00,6.070613135244015801e+00,-6.797654029184018398e+00
-6.322886257915331321e+00,-4.278146070564964987e+00,-6.573334959499184116e+00
-1.153330229633299453e+00,9.234532625751178614e+00,-3.473332736969033441e+00
-5.714193270910545408e+00,1.159449312131497756e+01,-5.040766531195357558e-01
7.571223703718538145e-01,4.991465695388724866e-01,8.654198222942243390e+00
-6.334960208165915319e+00,2.915190453238358348e+00,9.694117515470821900e+00
-1.220187199325251548e+00,7.765718387162489300e+00,-6.147063119977493884e+00
-6.367061467715677381e+00,8.579782128891579873e+00,6.372397911639906098e+00
-9.925850207980552398e+00,-5.807254277557530209e+00,3.394571453702809105e+00
-3.093765921556417720e+00,6.343793151662912244e+00,-7.587742640795698712e+00
-1.053519708814996036e+01,-1.724538863222219165e+00,-1.488759158412972017e+00
-1.133362871773690017e+01,-4.224527691222946579e+00,-4.718183198264421563e+00
1.403905954909896225e+00,2.887188417422733355e+00,5.873533656879503795e+00
-6.382287348068939714e+00,-3.697759154287452610e+00,7.430938520829629468e+00
1.442610773412512426e+00,3.537517127954821206e+00,4.115938883638676771e+00
-3.305029284184977101e+00,1.025509528927001668e+01,-3.270198674366441960e+00
3.078426587169083017e+00,7.929931680572428476e+00,2.386494910047650464e+00
-9.688466348310631915e+00,-3.806147906484390608e-01,4.789854169500727288e+00
-9.040378488555823822e+00,-3.381926491416960445e+00,-6.480282093060886872e+00
-6.327165343438992728e+00,9.455275282226855538e+00,1.957919423766429912e+00
-7.083112866940480146e+00,7.730787469462899963e+00,-2.846518488970906091e+00
-4.212279038863589342e+00,1.045272286958690344e+01,4.306812958068223729e+00
1.287484808064512265e+00,4.215662242021461559e+00,-3.206339946901525906e+00
-8.518145063638156600e+00,-3.239327635481225709e+00,7.563532246066967168e+00
-2.713873483905796302e+00,1.068800748653034205e+01,1.497413512715764838e+00
-3.000913413693094611e+00,-7.864492827174002443e+00,-4.050493358119376275e+00
7.057707370873634867e-01,2.639202228294834196e+00,-5.752561894593267056e+00
-1.365557473510667919e+00,-5.339358894650881204e+00,6.129254063021990717e+00
-6.324283832325247268e+00,9.211661931574736784e+00,1.475579060802563847e+00
1.576702186610065004e+00,6.063512789201650044e+00,6.845137730149065014e+00
-9.485021409756585697e+00,1.201822522505012980e+00,-3.202862089056988992e+00
1.051287171638264795e+00,2.294272233272648176e+00,5.299489482304078791e+00
6.019574958714891677e-01,1.713458522753073643e+00,-1.588751285274091041e+00
-7.425753750545897702e+00,-4.494964042530130044e+00,6.574247202794972544e+00
-7.031364939997027719e+00,6.893992051670534416e+00,5.675563602974862398e+00
-8.210589368273270239e+00,5.262936643957234040e+00,-3.660144643403084430e+00
-9.084130676680953087e+00,-2.113361779061691426e+00,8.068252706201782587e+00
-5.874619344801580434e-01,6.126163909982147715e-02,-7.937111689291619143e+00
-1.020940465317925216e+01,-1.044005738396729610e+00,-2.779545688247798463e+00
-1.037849512626366266e+00,-5.603215576950443949e-02,9.517043156349924260e+00
-7.410069414112634867e+00,6.703554916735072311e+00,-8.089693979438044025e-01
-1.873354847542857637e+00,7.147501437577819416e+00,-6.495298002571713525e+00
-5.064565594031014140e-01,3.706973785797810450e+00,8.871313867416917631e+00
-8.664358332276393071e+00,4.174044738516335507e+00,-8.674676351219234860e+00
-6.614296736651903430e+00,4.287483332421188287e+00,-8.492506284012186768e+00
-2.451228880838654423e+00,1.039074358313760094e+01,-1.272712856941562221e+00
-1.806191027457828779e+00,6.352709768233177456e+00,-7.344383012572961889e+00
2.322116118688668518e+00,5.903705380824717963e+00,8.487273351881958749e-01
-6.189849473857859330e+00,3.171208193332036296e-01,9.385228783368409822e+00
-8.623921163850059912e+00,-1.923855607346866670e+00,-7.442263781862106242e+00
1.710946909805161509e+00,4.898430904542172115e+00,8.348748672420122086e-01
-1.818678460527940466e+00,-4.103841707639060310e+00,-5.878202390116241460e+00
-6.742119458339067783e+00,8.763354652145370238e+00,-1.284500683938760046e+00
-2.751306189623239806e+00,-8.106151643691811515e+00,2.333139283331102654e+00
-2.017595172915971347e+00,-6.860546326594596955e+00,4.022310708611704477e+00
1.150975187504116537e+00,3.116587307583102540e+00,2.968051345338612368e+00
1.026689690778138653e+00,1.591158087828954404e+00,9.005873102193172386e+00
-7.614098458551427306e+00,7.126546552969347026e+00,-7.590221815426846597e+00
3.122303155662554452e+00,8.153078566414952988e+00,1.087778379312979160e+00
-9.254498660903356821e+00,1.903550066825216547e+00,-4.301516320187995568e+00
-9.125040693596699892e-01,-1.951699455155931018e+00,8.982495765360530626e+00
-1.073691388053120477e+01,-2.103973402598592113e+00,-1.000705558126138373e+00
2.303895994653800017e+00,6.937076204177104799e+00,-3.597148497756275987e+00
-4.842873844610564582e+00,1.120974927948867261e+01,1.711893149242723844e+00
-8.847729572787114805e+00,-5.003788811407195780e+00,5.476562255916963551e+00
-1.203042736013647529e+00,-4.358743834232466696e+00,4.651675877947258897e+00
9.383891276558479211e-01,7.931645433585582161e+00,-4.961705598456393140e+00
-2.808316667377805942e+00,-4.147650717940154497e-02,-9.188845775802416682e+00
-1.905429290855530366e+00,-5.227368014737065138e+00,-1.110254982265196089e-01
-3.359445628179263288e+00,5.048390330198718523e+00,-8.267810231549885813e+00
-8.334140623914766399e-01,-2.004184668323017338e+00,-9.382941006359774364e-03
-1.117824486714190935e-01,6.588917011817706282e+00,7.012073022110422826e+00
-7.880237475363011335e+00,5.806249301059516199e-01,-8.641611422948283661e+00
1.940186311214803672e+00,6.313864919392055519e+00,-3.742969935274309545e+00
-9.839753260542842384e+00,-1.026284367712204437e+00,-7.555856670098059169e+00
-1.820208033110667367e+00,-6.109581833620999269e+00,4.804232998930118015e+00
-3.731978731553936779e+00,1.037906337284196567e+01,-3.066531907170272575e+00
-1.007730393953130665e+01,-4.499104188322154974e-01,-1.034197908909574082e+00
-4.994585558729530028e+00,-5.153910705671158610e+00,6.699606353183857443e+00
-3.765631189657184574e+00,2.867505091306194132e+00,9.356225943591999439e+00
-2.911718070631840405e+00,-8.567984339148566164e+00,1.183773018075168437e+00
-8.534820794572006264e+00,4.103892774759711592e+00,-8.508868415949669028e+00
1.212872166991411094e+00,3.909737924220691330e+00,-3.890499601958376186e+00
-4.297084658069789675e+00,9.841178476497674410e+00,5.315911995792431455e+00
2.079706325184210947e+00,5.980781910606158824e+00,9.306794370598128197e-01
3.616328367333825344e-01,1.117545553318586737e+00,1.849962123426953930e-01
-9.588653388389788423e-01,9.497490474781368874e+00,-2.369145149439146447e+00
-2.820672546573283146e+00,-8.270525653048535375e+00,2.373517396650826061e+00
7.061666198140650885e-02,-1.510120951938580536e+00,6.578545966098817921e+00
-1.073719451071099940e+01,-3.791978618819819680e+00,6.028250190866952352e+00
-9.562008007370247142e+00,5.286677918333113624e-01,1.822126571594943512e+00
2.681400246243720087e+00,8.842089945247437299e+00,-1.964255146238456373e-01
-7.750177569389240517e+00,5.542375210161930355e+00,1.176443125569933468e+00
-5.779899868280605757e-01,-2.803034762406372504e+00,7.374007632215350938e+00
2.843327224816031951e+00,8.333625247847246342e+00,-2.744410227745484487e+00
-8.090437791885259244e+00,-4.451359367202589290e+00,6.407818193021372011e+00
-2.442988402430537942e+00,-5.613753936030284386e+00,-6.484481284078768226e+00
-4.804266555970880148e+00,3.463467780128377527e+00,9.520827569806398216e+00
-1.520735518202178671e+00,-4.791630973363997903e+00,1.243345459465069913e+00
-4.714334021669384089e-01,9.424159753502006964e+00,3.251123664273219305e+00
-2.377863929529056009e+00,-5.398356069157170367e+00,-7.074296774238415075e+00
-7.087253325584798702e+00,4.777369665178208269e-01,9.355261661131784479e+00
-4.636179736436078613e+00,-6.987692860348988511e-01,-8.773881111345451345e+00
-3.681968720123737882e+00,-7.886951895588220296e+00,3.363995028936390241e+00
-9.035347150647188741e+00,1.524333049662409234e+00,3.368671091419073615e+00
-3.435042578717083295e+00,-3.421750006108667197e+00,8.233600881479180345e+00
-6.412450354854261292e+00,-2.955143792233156042e+00,-7.524856788753647052e+00
-1.188895157156334204e+00,4.443234203404913818e-02,9.201772370065626205e+00
1.396396016490925929e+00,3.654063379345241280e+00,8.340657286449449259e+00
-1.941992744956872602e-02,2.834506135359021961e+00,-8.851746154957485402e+00
-4.852878993902216109e+00,-6.501386793287814214e+00,5.220686828117468536e+00
-4.008197428707407362e+00,-7.243809584861814699e+00,4.475534213873986644e+00
8.752027449837758155e-01,2.545063912083170177e+00,-5.527055181831597164e-01
-9.465816439700621032e+00,1.936239444278325283e+00,-4.165299931475477280e+00
-7.023544678199055147e-01,-3.477836891339336489e-01,-5.963743070327573115e+00
-1.816952289069189153e+00,-5.974300974888971716e+00,5.918513642997459634e+00
-3.831749089982376510e+00,8.560835408083393716e+00,-5.766108974687731425e+00
1.966253781740921802e+00,9.097791545323195450e+00,9.341995361060116965e-01
-9.982905864984584099e+00,-5.667031505959156945e+00,3.645544681818931210e+00
-5.342175294173741484e+00,-7.376633149112228338e+00,-2.515187182485556949e+00
-4.186584985911170342e+00,1.125198112888723223e+01,-2.751769950003998266e-01
-3.878500074252909879e+00,3.564995671870839544e+00,-8.762695769936470924e+00
-3.511634093547780777e-01,-6.642850414647794022e-01,-1.707494960491923619e+00
-7.356477760359490858e+00,6.130321127248204327e+00,5.745178842081230641e+00
1.201492933039791655e+00,3.874903501944206852e+00,-1.790160253890141995e+00
-2.916041082861621891e+00,1.038103034216973519e+01,-2.404692144651979113e+00
1.460043017176908764e+00,5.345073105122397195e+00,-6.840792531996253700e+00
6.603621544959115131e-01,6.479899524045082959e-01,7.269204303909950760e+00
-3.756671851524850947e-01,9.838936469423250841e+00,9.833989578162990464e-01
-3.418107236163195339e-01,8.306974552108592036e+00,5.250782162023837962e+00
-7.916087902782154906e+00,4.540082788954159732e+00,3.549807208117297108e+00
-1.877094264733124795e+00,-5.639632325405741220e+00,2.173062141590156593e-01
-8.183556262322831287e+00,-6.754837770529433350e+00,-1.682168363714804160e+00
-2.125241570231640953e+00,5.988198747861352977e+00,8.197265475672157464e+00
-7.813896770797938984e+00,5.403372224095294385e+00,3.778761665422952554e+00
-7.595221280759175686e-01,-2.882955472687668053e+00,2.210992521244599107e+00
5.199629185506778883e-01,6.335258401405250428e-01,2.727016042004742236e+00
-5.444311040107759680e+00,4.568477167948440609e+00,-8.376765092003946478e+00
-7.153910366693525980e+00,8.160603389512967709e+00,-2.635254392655790312e+00
-3.672225282198290364e-01,6.819041966305384506e+00,-6.602639225887871888e+00
1.436174744851294260e+00,9.036609343083311430e+00,-2.419239152221285050e+00
2.135686217152157340e+00,6.807707353334889078e+00,-4.604325617802859760e+00
-4.098591661366670635e+00,1.004301972519136932e+01,5.102656402561314586e+00
-8.584078294070865311e+00,3.890076574861065062e+00,-2.170807351726129042e+00
-7.784416586006094541e+00,5.066193517540396485e+00,1.885020376178110801e+00
-1.334082816646453118e+00,-2.699000716700392655e+00,-8.140190646787905493e+00
-1.062016716507394953e+01,-3.390016682127143799e+00,5.346948792386257310e+00
-1.689598180962557095e+00,-2.877819946767496972e-01,-9.238133586699531108e+00
-7.450704851356643843e+00,4.973004381022859910e+00,8.631951903045587571e+00
-2.633308755619171215e+00,-1.035293134228374018e-01,-9.005408941489001506e+00
-4.074749807655699385e+00,1.114581025589414942e+01,-6.533286221768805913e-01
-6.354430069004044057e+00,8.860493760149408260e+00,5.627579499080349379e+00
3.358573049935533739e-01,9.145877252273828972e+00,3.306881823130190412e+00
-4.374256460468120000e-01,1.764441102153891050e+00,-9.110507285014493917e+00
5.007545860863154008e-01,2.610197431257605061e+00,-7.443519871161533352e+00
-7.670131910890358284e+00,6.481068576066062015e+00,-3.918634311086584443e+00
-4.472630069365933991e+00,1.099081628680972500e+01,-2.810216428415755363e+00
-8.404929844499905656e+00,3.382762462435538797e+00,5.019608051208070520e+00
-3.505694484489862539e+00,-1.041528160507955825e+00,-8.791867629457264854e+00
-6.626076331144381548e-02,-8.672389875672483761e-01,5.420004549920212078e+00
-9.599339952128930875e+00,2.136386228340787785e-01,3.669783276642993641e+00
-7.901851891960672170e+00,4.444441947442257401e+00,4.532024770817773884e+00
-1.073237286191148243e+01,-5.851670446619928079e+00,-4.469915683507871829e-01
-8.988856855053747097e+00,2.444145785230062540e+00,-1.024127519289763644e+00
-1.294977338996782246e+00,-4.093728659004560733e+00,1.842526300064242228e+00
4.236995183849879276e-01,-4.126587520308234169e-01,5.437992364532283851e+00
-1.433638577810753878e+00,3.530860050808866113e+00,8.969549163748075316e+00
-9.706615013748660203e+00,6.552948425717545211e-01,-2.800642189882449173e+00
-7.759607303401618417e+00,4.739079299417674029e+00,3.750421810713938431e+00
-5.701219517730348407e+00,1.118965090711624910e+01,-5.315620139795479426e-01
-3.601960216370114320e+00,9.777751886020765726e-01,-8.992006937795645527e+00
-3.244880093340148264e+00,-6.131204803367888090e+00,-6.226194351592670984e+00
2.169027817550528425e+00,7.028672882285877499e+00,-2.405904879508917293e+00
-4.538195584638017588e-02,-3.227208970060608806e-01,-6.789273443666548058e-01
-7.281018077022686441e+00,6.511653070705062163e+00,4.048291065405781985e+00
-9.648057666643488517e+00,1.407449620085383657e+00,-4.181360329610700255e+00
1.821184131699742359e-01,7.593691648521371240e-01,-2.373759529824718939e+00
-6.533356853045243717e+00,9.362009956455491499e-01,-8.884249833284604492e+00
-5.300095997669819425e+00,-7.804551552927817326e+00,1.347762605355795618e+00
-6.726157437412362050e+00,-7.419150366786855244e+00,-5.655040676271937128e-02
-9.499338853358160861e+00,1.298164165090692324e+00,-1.406690266276362289e+00
9.543398123594071247e-01,1.308065742491815397e+00,6.182112720057300059e+00
4.818334474899531594e-01,-5.017450460068756390e-01,6.490704234553531293e+00
-8.153965843295100768e+00,5.965511992428026211e+00,-4.730696216689493916e+00
1.160060105835728772e-01,9.609025642372984732e-01,-6.781824260877049149e+00
-9.719250306200992284e+00,-5.270563263236842211e+00,-3.561108176664790292e+00
1.456655848399678765e+00,2.538330822597500092e+00,6.170344875103642046e+00
-9.671787247860821779e+00,-2.238068067705474729e+00,7.996245330348592972e+00
-9.887257505623518128e+00,-4.283855249819146671e+00,-5.071964073764693381e+00
-2.401878276224501896e+00,-6.715155853250655227e+00,1.889775954389109058e+00
-1.038650130885918621e+01,-4.593666712919938888e+00,-4.449874653510756062e+00
-9.862286297365226773e+00,-4.525226451101941549e+00,5.777015947081358682e+00
-7.590716208977125845e+00,4.163627337793992744e+00,9.288178772252820181e+00
-6.415643233994721140e-01,6.293801607948105392e+00,-7.003503633087210467e+00
-6.792485224860612014e+00,7.429950148286343925e+00,6.114025616683093745e+00
-2.938082307662241099e+00,7.976693993542921746e+00,-6.161792957674363969e+00
-1.114066214233262020e+00,1.017980088024129515e+01,-4.791215560119182482e-01
3.008466451668776021e+00,8.642298481834533419e+00,-8.378928704352796020e-01
-2.568847031515712476e-01,-1.106553485672282733e+00,5.076385946950725980e+00
-9.741706090292435505e+00,-1.125424111551341921e+00,6.906134656025712637e+00
-2.369249337859454574e+00,-6.384524789822731528e+00,-2.061758972899010001e+00
2.484697329118860765e+00,6.762215588553727841e+00,5.751019710273541641e+00
-9.556667415811014976e+00,1.368134820993217593e+00,-7.700559893948454304e-01
-3.318911223408820721e+00,-1.497460825738185175e+00,-8.932441325981914204e+00
-6.382190324619495314e+00,1.376651792532292307e+00,-8.941254243441505878e+00
-3.857306722091128903e-01,5.173279019580170335e+00,8.168999287174516510e+00
-1.032470369332284754e+01,-1.063027055126394727e+00,-1.237299996745114816e-01
2.532131475510793983e+00,7.223650254830545236e+00,1.125280935401025806e+00
1.116170886730954992e+00,4.648592273734291958e+00,-6.637899999354702985e+00
1.012341734823693162e+00,3.640969526404614687e+00,-2.139629981284115079e+00
-6.540033586726948789e-01,8.060907056183332031e+00,-5.221192038352602260e+00
-6.527927090539193955e+00,8.793179261369312272e+00,-6.373101803308150792e+00
7.215384555811059641e-01,3.422441308973657836e+00,-6.923102048266752462e+00
-2.237190659424842298e+00,-5.580023734053853879e+00,-2.412417656518238918e+00
-4.824552451243338425e+00,8.064613134048835619e+00,7.549344255890744648e+00
-2.202148285471752232e+00,-5.428969478645123026e+00,-6.833323972103228172e+00
1.522100915907566243e+00,5.452627436640716141e+00,-6.788996496293419725e+00
-8.763410805009529625e+00,-6.729455415976621779e+00,1.390217757686146305e+00
1.919698284088610318e+00,5.504410265740297348e+00,-1.182438801044361387e+00
5.328562205653589734e-01,-1.391558783668488675e-01,7.798866156000351602e+00
2.353692197530768970e-01,-6.780767451831731796e-01,7.913749208825526793e+00
-2.135437616695855301e+00,-5.500142913464981298e+00,-9.909369603885254119e-01
-7.055134633961363200e+00,7.330370253614977294e+00,4.322433584769781234e+00
-1.062933987482813691e+01,-4.930221650832039337e+00,4.714184654658858165e+00
-5.166138521187311206e+00,6.176559750895345147e+00,-8.019210558005783085e+00
-9.423902717680888941e+00,1.271594966824323381e+00,-8.980009659832555169e-01
-7.205977435398369657e+00,3.477826964936105547e+00,9.641397239538365582e+00
-7.061558834529635398e+00,7.731630181192329587e+00,2.016929438268179609e-01
2.093474606895167955e+00,4.437496804336031886e+00,7.685895524944857726e+00
1.764934687093141275e+00,4.041690056911449780e+00,3.597000518453906004e+00
-1.110561920191123342e+01,-2.380616474809258865e+00,-5.489328233812507563e+00
-4.921873865375784973e+00,8.113439411832896297e+00,7.385011621232044021e+00
-1.126622955072162391e+01,-5.791164744774666140e+00,-2.000607632008900572e-01
-3.255004686025493754e+00,8.818105651273716816e+00,6.099629598559766386e+00
-1.781808317637350925e+00,-2.571548836455572307e+00,8.792597387947783005e+00
1.497840776709006505e+00,3.238181234248364682e+00,8.477662378591666936e+00
-8.866970690986116566e+00,3.559898014229073038e+00,-5.495365233393448179e+00
-3.205935588687910620e+00,-5.894118214679839873e+00,-6.443685192228765679e+00
5.942161980156823731e-01,-2.911724324436804068e-01,9.165315287818597056e+00
-4.423122246796439505e+00,-6.912834127493872494e+00,4.729882422339419357e+00
-5.002441104346594392e-01,-1.022323471134479300e+00,-1.171940972515265855e+00
-1.742728281497552656e+00,1.029976402131497615e+01,-6.311561181041701607e-01
-9.441496290858102824e+00,-7.031679821270806485e-01,7.814815176834794208e+00
-7.320184546396018455e+00,6.734461869404578138e+00,2.897870638155861656e+00
-8.703419115316766153e+00,-5.995431773453351987e+00,3.585893472166314044e+00
-7.136015920830542036e+00,5.774602873303990691e+00,8.115010410022705400e+00
-2.728570555999031200e+00,-7.236058159487940955e+00,-3.091834809190714850e+00
-4.179546793103172675e+00,6.569215338532314874e-01,9.642523371707509838e+00
-9.445625093403180017e+00,1.925752545613612643e+00,-8.490337552508897545e+00
1.492713061221716098e+00,6.813167549370482412e+00,5.932374463149181487e+00
-6.345902561959247734e+00,1.019484613284364016e+01,-4.843866573204238080e+00
-6.788072243846681175e+00,7.644861950007403095e+00,5.814639778024591976e+00
-8.062748913344529811e+00,-5.049866059041387523e+00,-5.169871317622366291e+00
-8.035546279181897233e+00,3.505274008080502490e+00,8.924179060064517444e+00
-8.015813466520674835e-01,-2.307263279560453739e+00,-9.891551157179776510e-01
-4.053670167362974475e+00,-1.851879935610789785e+00,-8.719158667273251950e+00
-7.013664612464503456e+00,2.963554142665096869e-01,-8.727575659505502514e+00
-6.711306918951713385e+00,-2.518600453480816626e+00,8.249420856394429791e+00
-7.067931729632044302e-01,-3.343408651390372466e+00,5.326195294124667079e+00
-8.661388651529932758e+00,1.353385147397316191e+00,-8.639774790287017225e+00
-2.239149920460073329e+00,-7.079499665635779593e+00,5.190483418070174437e+00
1.172508280552714943e+00,3.863210076595224418e+00,-5.110079002466203058e+00
-9.357465798345325325e+00,-1.946274236764156562e+00,-7.402183010841609345e+00
-7.785282171488889347e+00,-4.196457153461808254e+00,-6.312390855680794388e+00
-4.012981846068705671e+00,-6.882449292147082787e+00,-4.615767429055340543e+00
