-3.638132062533372846e+00,-5.949052819648766866e-01,-5.156852485412116716e-01
-1.691301704497662817e+00,2.213107410390015684e+00,3.459695732717005701e+00
3.226549250156791615e+00,1.025725190728755454e+00,1.384154607481907551e+00
-2.525303104599231574e+00,-6.358677659530089787e-01,1.449413129185750937e-01
2.802753646902325535e+00,2.977020654553403922e+00,1.387227334031873704e+00
3.410177746429523538e+00,9.014581043128736537e-01,8.145058334507021547e-01
3.068097314880160020e+00,2.985294806394230172e+00,2.288172952933581472e-01
-3.467461080682575858e+00,2.914978736845406981e+00,-1.078314958825615927e-01
-3.741703563888345574e-01,2.992323276045426805e+00,-3.700414010317615521e+00
-2.690065661731285918e+00,-7.266909579075517822e-01,-1.206089068708235956e+00
-1.443551410688195702e+00,-4.305386572028894743e-01,-3.233309746629005055e+00
-3.275897324527463184e+00,2.910819154978869783e+00,-1.205386828879307926e+00
1.903124632775917036e+00,3.147690427135514390e+00,2.541932043221302617e+00
-4.136058407649989554e+00,2.772143747811635528e+00,7.717024561543384120e-01
2.368813985653781540e+00,6.835563716711532400e-01,1.779285791907337710e+00
1.797296904309484411e+00,4.902516057100112512e-01,1.333697256457742730e+00
3.028861346944586308e-01,2.116940489227732147e+00,3.553403689919756303e+00
1.763867839623949330e+00,4.409803558610006391e+00,2.036797530209775164e+00
2.153226193999776328e+00,2.275283409851178273e+00,2.535168146416709067e+00
-3.755104304145364669e+00,-2.241217778928949675e-02,7.860305887507745837e-01
2.225437979649753650e+00,4.375647462265827237e+00,-8.369313192588022643e-01
-4.292373008467782469e+00,1.980078037673816516e+00,-3.401124259990490062e-01
-4.845020422647606240e-01,2.791201787236946785e+00,-3.819967602189065836e+00
-6.512659115224855855e-01,-9.724765278332363205e-02,3.487129388478944936e+00
-4.431454666915357055e-01,3.724671604397934210e+00,-1.960814574583096714e+00
-3.205548046609875357e+00,-7.553303204787576997e-01,1.654808135690063242e+00
2.677173965341237860e+00,3.840055202277399271e+00,8.195094341345685596e-01
-2.655888911209677516e+00,3.231023376114259715e+00,9.608156358811865694e-01
-2.834004161559346091e+00,3.050335690422776302e+00,-1.176803749020153056e+00
-1.805471803451277335e+00,-5.595686212027373152e-01,-2.879508178834322418e+00
-3.701010005729049812e+00,2.825484829635433570e+00,-1.687479408074002318e+00
-1.869177510141937004e+00,1.074368165559558497e+00,-3.385065350561734743e+00
2.902728242751512422e+00,3.558744378786580675e+00,2.225054180037606133e-01
-1.187728485971988601e-01,3.877497603938929061e+00,1.099446318704517145e+00
-3.309751708621784694e+00,8.899163782797963052e-01,-2.295153963404628072e+00
-2.814341337754219463e+00,3.134270213755639745e+00,2.061188779725128928e+00
-1.556207624720068683e+00,3.504323847181778362e+00,2.062764967685487338e+00
-2.190998519151540425e+00,2.421909926737406682e+00,-3.516053521418429195e+00
9.217817572569209084e-01,1.717961399288830959e+00,-3.564149573097784796e+00
-3.746875838655677526e+00,2.239231156903529918e+00,2.008476089787382790e+00
2.055290554161043115e+00,4.180892067457238959e+00,-2.362759773875451774e+00
-1.306161354520094076e+00,-4.033697085531928184e-01,-9.711499153820390973e-01
2.348572120466130286e+00,4.530344134053844840e+00,1.094668941657852557e+00
-2.674169321070546168e+00,2.651838003215133188e+00,3.178709562211043949e+00
3.180786435924233047e+00,2.313270091553695895e+00,4.485322152248021332e-01
3.450724022199232355e+00,1.804865759268311720e+00,-6.650629038426034145e-02
-1.705935780301807814e+00,2.566754239376709101e+00,-3.724570040799783932e+00
-2.983485341446138417e+00,1.389958864755441059e+00,2.691000052748305560e+00
6.214765050603568985e-01,1.181698390176176838e-01,-2.699524786437703661e+00
-1.712926010418689193e+00,3.308103072224048091e+00,-2.329054930164468740e+00
1.387432350912911061e-01,1.219289296862564181e-01,-3.749862804633063096e+00
2.362485401451644318e+00,6.300177708295395806e-01,-1.076823096735102903e+00
4.307279239073705246e-01,3.966512460696682396e+00,-2.604265293016151173e+00
-4.029424149060971239e+00,7.962482540159501188e-01,-5.259955094504557005e-01
2.196542544956824106e+00,1.755156844123525239e+00,2.531227073246758330e+00
-2.525523749599971168e+00,2.733111843472833424e+00,-3.391294015763729686e+00
2.108706121820016488e+00,2.509311336802960923e+00,2.550700957411495384e+00
-3.767167752933110236e+00,2.837870878787029483e+00,-7.645027695135769852e-01
-4.401805121523286957e+00,2.705361360861712861e+00,1.092807529758258456e+00
7.710262295167761293e-01,3.748052836747377103e+00,3.212907348260072737e+00
2.289040843742253362e+00,4.389719027309362254e+00,-1.183117080448063296e+00
-3.854375307982901067e+00,2.855492974268373896e+00,1.376362896476822417e+00
1.632099001692362661e+00,3.958909208281038428e-01,-1.512655884697201136e+00
-3.434312774959295655e+00,3.847686985445931684e-01,1.948239283018925017e+00
5.021601378884519296e-01,1.610484570561159456e+00,3.565827850462522264e+00
1.914963659336743840e+00,2.279384071957686775e+00,-2.944567016548317095e+00
2.214706122440720293e+00,2.795812338211467463e+00,-2.392438199218744899e+00
1.954727997428662212e+00,2.594324449959277690e+00,2.600291178352248878e+00
2.513803052396324844e+00,2.061395499186596592e+00,2.308212056478528673e+00
-2.690831861280008397e+00,-6.314976460180213857e-01,2.452531586904318051e+00
2.381164813568908745e+00,1.996631380446969750e+00,-2.440829253768248996e+00
2.676686353064539059e+00,2.029971916876370575e+00,-2.033828004017769864e+00
-2.873224084796329070e+00,-8.701454564907274980e-01,-1.666512973079405935e+00
1.929022584421213604e-01,6.867919784372311653e-02,2.569336827011231783e+00
-2.929620147848709166e+00,-8.358132440772859661e-01,-1.460764634236753290e+00
-3.115316926340803594e+00,3.021988436721116944e+00,-3.000850243735652678e-01
1.334372374488513868e+00,3.092439278461053265e-01,-1.308736145603930368e+00
-1.257159837096607058e+00,3.611219482831627303e+00,2.002611156828364436e+00
-2.805254261068217403e+00,4.610566379801622761e-01,2.644173690173058588e+00
-1.528960380045774947e+00,-3.297617308916112044e-01,2.123999766617630236e+00
-1.900182802858542352e+00,3.439282598971332039e+00,2.661014346238453676e+00
-2.546794594727644689e+00,-7.202558192037490370e-01,7.259319400765040786e-01
3.179508064444520055e-01,1.360012635028060024e-01,2.571430879283723048e+00
-3.017093112382462916e+00,7.627314449205532254e-01,-2.621075699058024178e+00
5.915533431093500383e-01,1.248035257508172541e-01,-2.249871095476508209e+00
-3.266361184727068157e+00,2.898656028157192699e-01,-2.012000573882224863e+00
-3.160923931823377497e+00,1.574961004472024806e+00,2.544540335443743473e+00
2.201645768473801557e+00,2.325952207619957690e+00,2.418669940371696025e+00
1.818681009440736629e+00,4.394168624699786641e+00,1.870883086809871587e+00
1.957961489098702934e+00,3.934654747154360699e+00,2.160148226134731342e+00
-1.285205608364867524e+00,1.931826665131960885e+00,3.646018209513258501e+00
2.677342304429124464e+00,8.167234445035567170e-01,4.049366339036861162e-01
-1.383950999498298584e+00,9.728335269005987385e-02,3.488424368026395328e+00
2.001527837666976062e+00,4.595027311778482892e-01,-2.658500755192228393e+00
-1.387443043856553038e+00,2.076822065181921584e+00,3.577725330064841280e+00
-2.385286406171778228e+00,-6.599240076019909917e-01,-1.155554279257058753e-01
-3.443661782755278900e+00,1.475229759698492571e-01,-1.754811997935447510e+00
-1.307735179819969895e+00,3.633824714542187362e+00,2.928193050312995371e+00
1.242853707740862346e+00,3.283614045939811987e+00,-3.148806946688750052e+00
-1.995685790929901726e+00,3.430997677051309758e+00,3.275654653412155337e+00
-3.675657231634655187e+00,2.869941898832728988e+00,1.766672562794826096e+00
1.704959105219861604e+00,4.387726552487391629e+00,2.181647667379690958e+00
1.085080256835657897e+00,1.973850882163691756e+00,-3.413992716720401610e+00
5.150872779295555537e-01,2.975224420004275450e-01,3.332088654160011210e+00
4.861097295064191748e-01,1.468061217041375821e+00,3.665417807665669159e+00
-3.811878925950168973e-01,-5.791435541007990823e-02,4.377107363956441177e-01
-3.740154798193158214e+00,1.075273710964046003e+00,1.589211849401071186e+00
-9.889066119394207544e-01,2.642176316328778363e+00,-3.774173584112358704e+00
2.306518067962896712e+00,2.781704861164864262e+00,-2.323014031167419002e+00
3.012861765642722123e+00,2.825295818835078521e+00,-9.793988961472184229e-01
2.426119169219428162e+00,1.968075216187936460e+00,-2.359535313589165018e+00
2.385570418920056390e+00,4.596860419326623592e+00,1.059540039036796832e+00
-1.774554091271863532e-01,3.926715683455952899e+00,1.899538423232014495e+00
-1.338098599530419763e+00,6.586022994042035617e-01,-3.544923700014849022e+00
-9.901018288847319715e-01,-1.922336645690546353e-01,-3.570616769259881806e+00
1.262870209759802576e+00,1.604924055208335920e+00,3.383783690279396961e+00
7.943909092686921580e-01,3.633710678775657676e+00,3.221904811529594514e+00
-4.108804482890104914e+00,1.905364463860206747e+00,-1.503421730393981637e+00
-3.886904761131928954e+00,3.512954774263508662e-01,-7.363397144628263113e-01
-6.665160166364247907e-01,3.893449199745449008e-01,3.662424344102586105e+00
1.908602696721650283e+00,4.356762945012881971e+00,1.046109279938764125e+00
-4.109557413548069249e+00,1.108589157692311034e+00,-5.500101798486433519e-02
-3.178427569066821334e+00,-3.527481927716751287e-01,-1.971892739265553640e+00
-2.296565916432488308e+00,3.187697281697627449e+00,-2.341042638107817542e+00
-1.880212015022136030e-01,3.886445852523549238e+00,3.282099344926490581e+00
-7.602939878274335601e-03,3.567093823403981290e+00,3.465398035497133211e+00
-1.249215858412829228e+00,-3.640171608617930876e-01,-8.909896615796131583e-03
-6.194399476582334030e-01,2.519782874591483868e+00,-3.771325698781098357e+00
3.328699850391494852e+00,8.978806001874828358e-01,1.160441597355782312e-01
-3.200300043094235658e+00,3.020806098227268421e+00,-5.403351529804272246e-01
-4.568865677412089710e+00,2.625243411200971710e+00,-6.969840353711199699e-01
-2.173096606810139608e+00,2.258717917781742024e+00,-3.478932061009948118e+00
-2.758141843127349890e+00,3.165235834360010436e+00,2.007402585008697393e+00
-1.406512706191827222e+00,3.472359214408398564e+00,2.011327584434903781e-01
1.641401759530952020e+00,3.795455555876705023e-01,-2.854481165321325786e+00
-1.996555442557296889e+00,3.383161113252391772e+00,2.922677116243495909e+00
-3.346101870984625304e+00,-5.034732741764814667e-01,-1.618983723684860099e+00
-2.807677936936898266e+00,3.003575707277394535e+00,-2.853206662417332673e+00
-1.527779594648394301e+00,2.124964848450384913e+00,-3.654945660102482119e+00
-6.306498208960289453e-01,3.683224432346744681e+00,3.800390150691738134e-01
-3.800244353770121819e+00,3.320055791477423135e-01,-1.012876097072541892e+00
-1.690644038194367038e+00,-5.620346842458020520e-01,-2.348950249065891782e+00
2.671969780028998098e+00,4.437560879069473607e+00,-8.751589010958762405e-01
-7.957643444621690376e-01,2.627447125538079131e+00,-3.796972280602607164e+00
-2.297270804171767100e+00,-7.584478020795123454e-01,-2.293772848939803932e+00
-1.203063776891055925e+00,3.313632766991277734e+00,3.566103194179558233e+00
-3.591948513085091221e+00,8.292704312892131002e-02,-1.461193363662626199e+00
-9.202897085285111078e-01,1.029250183805498597e+00,3.613701219257966279e+00
6.649723188520186012e-02,3.838515136295344021e+00,-4.517716575034823601e-01
-1.416916629158223584e+00,9.139615674363218423e-01,3.476822669647519959e+00
4.390599430155703309e-01,3.859543793016081192e+00,-2.540910156947703946e+00
-9.007837660262641988e-01,3.698447572155071139e+00,2.440476274457635153e+00
5.288897954483486041e-02,6.379712808107845801e-02,9.017789104234430475e-02
-2.838148878204272307e+00,-7.329877398594345506e-01,-8.039487970945126405e-02
2.647332858210462270e+00,4.539491622079605548e+00,5.874795483815187930e-02
1.646758553380686108e+00,1.087285538625467174e+00,-3.232011871643048817e+00
-2.653763247718505802e+00,-6.145248532858388346e-01,-2.584749505481191090e+00
2.038260647521626279e+00,1.140628426663412576e+00,-3.011655454391149345e+00
-1.902344609846058354e+00,-4.329546470545944103e-01,7.793876273878047600e-01
3.016769001807961370e+00,7.209426969200439794e-01,-1.454979883781850614e+00
-2.507043332490326293e+00,3.229745640071731039e+00,3.305988968551995200e+00
1.019649014511350371e+00,2.860745061490281849e+00,3.328169730031391271e+00
-2.439328637715078019e-01,3.780298900598681122e+00,-1.477007081109448672e+00
-2.163214716933435700e+00,-5.421415524049534307e-01,4.364536243817480066e-01
1.280251345517242845e+00,2.861285679882785704e-01,-8.150292358930588676e-01
-3.276933036240681218e-01,3.675028304839029314e+00,-2.409527370602154495e+00
-1.681557873786055923e+00,6.487666227768557059e-02,3.255645566269583124e+00
3.270240073500860212e-01,3.547455603440011096e+00,3.344126442619038464e+00
2.092131527303019212e+00,4.331790716879509340e+00,1.912377919563887696e+00
2.225292433180881435e+00,2.612087194704947102e+00,-2.497063852514226134e+00
1.617416239213508966e+00,4.353215465462505485e+00,5.109182267196779037e-01
-3.086098045206028484e+00,-6.224684667889908152e-01,1.972488019355050026e+00
-2.936637462758199035e+00,-8.482642122217646241e-01,-4.279168600253629995e-01
-9.746076406060351360e-02,1.928749612627571386e+00,-3.706439839713900675e+00
-2.081814618422862750e+00,8.836559336566260914e-01,3.209935170611204036e+00
1.824955773620496435e+00,3.600084240708054217e+00,2.521537217266675235e+00
2.207574243107911727e+00,2.607484357187664248e+00,-2.419865380959013379e+00
-6.623367714041817900e-01,3.568011607404046881e+00,-3.074961232279825651e+00
-3.607711091970767114e+00,-3.467664059797641585e-01,-1.012642985048100686e+00
-5.458665481171758316e-01,3.801776535623240250e+00,2.804255167331896725e+00
2.838146336724625129e+00,7.570702055812116305e-01,3.265630530350586633e-03
1.394500445105972597e+00,3.192384605661761077e-01,-1.454611250435409842e+00
-3.158962902942324291e+00,-2.181265280783092619e-01,-2.003840598104905446e+00
2.444234279281915612e+00,4.597497986492123268e+00,2.855212483872098805e-01
1.362551784704444824e+00,3.048670174563974378e-01,-2.737413532660338156e+00
-2.709386916152682900e+00,-6.380978053054854326e-01,1.661293083885162059e+00
-7.401997421289772117e-01,3.754432769146502924e+00,9.015449124787251467e-01
-4.132520285544066252e-01,3.622342690315722535e+00,-3.376892078238899142e+00
1.924821142765789750e+00,5.189808029656243216e-01,2.687313923670122673e+00
-2.565618938662211690e+00,3.126856728717473111e+00,9.580546609811668723e-03
-1.628872927079339838e+00,3.544376178211903206e+00,2.053207567951248702e+00
-3.023083407324347771e+00,7.130239908163349405e-01,-2.552334773020931813e+00
-8.729386935412700721e-01,3.521641246332244624e+00,3.642200664587330827e+00
-1.094034685324269285e+00,-4.124303423078709008e-01,-1.695150594909239361e+00
3.270053544896609932e+00,1.159866910626066394e+00,1.264376985869931191e+00
1.025627024630792361e+00,2.553073763892932946e-01,-9.917914537294159061e-01
-2.296556613757749332e+00,2.577708048531514251e+00,3.228256139307420280e+00
-9.835987416650805448e-01,3.540058648441169353e+00,-8.469130753309045412e-01
2.860337807891299100e+00,3.052927226200198074e+00,-1.099893502635636011e+00
-2.940164721169199247e+00,-7.977857874575472463e-01,6.537102348545670294e-01
-2.299896854437083249e+00,2.885929779573303655e+00,3.359913410756397045e+00
1.548438520117618289e+00,4.730526691777591219e-01,2.994074687668084600e+00
-1.318960998094399928e+00,-4.034144577599383386e-01,-9.453340660188925826e-01
3.791299422118586393e-01,1.124930981093269944e+00,3.663970632231206004e+00
1.726203397422065633e+00,4.739490172718147654e-01,5.161137460606034510e-01
-2.220831813677281996e+00,3.237511594135241921e+00,-2.970042067359212723e+00
1.598058393603584593e+00,2.760782335267623733e+00,2.929258790868868090e+00
2.876211987329827302e+00,3.593043249434721531e+00,-7.295902923525575678e-01
-2.153159847314498165e+00,3.273735351832704588e+00,-2.505261822017142981e-01
-2.730497222031140314e+00,-7.115868698212757248e-01,1.115819119957515149e+00
-2.991952906526130551e+00,2.507722282652950607e+00,2.876565694905097281e+00
3.361210875366446693e+00,1.941464747043138761e+00,1.178441604398664140e-02
-1.365927020379145151e+00,3.453333151027322856e+00,-1.188538964728064196e+00
-1.143636969510553048e+00,-3.207983655618033003e-01,-5.962400466272569366e-01
-2.732398931774273176e+00,-4.113329779320530344e-01,-2.485596986171454859e+00
2.373454451634931406e+00,6.289822730209440049e-01,7.472909802086138420e-01
1.952481687957158485e+00,4.362350914785827705e+00,-1.558130173894041626e+00
3.036206781741877414e+00,2.344276808616702290e+00,-1.003511804936317642e+00
-3.476667226612590866e+00,3.599180726598075197e-01,-1.920175478531038316e+00
7.246549862622242433e-01,4.095015248683194109e+00,1.408277876664354000e+00
-2.472868499348158444e+00,-7.473265056771203341e-01,-2.525345643648900129e+00
-1.081328663189589312e+00,1.422107395960143350e+00,3.589180182839208921e+00
-4.380382391018986965e+00,2.177601219260349996e+00,3.909928041954002786e-01
-3.740043838487717043e+00,2.865494137346146442e+00,1.585742253491288389e+00
-3.144479194181517112e+00,-8.587422402210700412e-01,9.816876653258392246e-03
2.753771456005441598e-01,1.197240073391573345e+00,3.640301406462800315e+00
-1.431510711476860154e+00,2.125719379916204854e+00,3.502532973065240807e+00
2.784661361652592260e-01,1.500253414854478551e-01,1.900741068457777905e+00
1.666361123395729393e+00,4.335337234351272606e+00,6.882813468531036039e-01
-3.739281868135097220e+00,2.021986194023859262e+00,1.808498522716086576e+00
-3.411305267965302868e+00,8.322805417481307089e-01,1.968386789501233913e+00
-4.155299851117014498e+00,1.136094775810068125e+00,5.177889242181643592e-01
-8.233078459048535080e-01,3.679643175468038763e+00,-5.970191751366660249e-01
-1.769129083406273839e+00,1.780420348367530936e+00,-3.573265777673313437e+00
-1.873694678038739792e+00,-5.139067160076616902e-01,-1.415876661326568531e+00
-7.921489850133971444e-01,1.100718041271993908e+00,-3.765596085852084496e+00
1.860014014627928702e+00,4.377575302421834458e+00,-1.046741755458409751e+00
1.545347694047802145e+00,4.297773981426167289e+00,2.059188604854609750e+00
9.865168356891613755e-01,3.655089902321239648e-01,2.876816276070869538e+00
1.206451175030993639e+00,4.127259786425093502e+00,7.052501058073635809e-01
-2.313664884548555012e+00,3.069237474856828740e+00,-3.564425034373434720e+00
5.403663628556054643e-01,1.749365151286884634e-01,1.467357436497926049e+00
2.501682197306929201e+00,4.563073076447958343e+00,-2.203144363421847829e-01
-3.467404330759833897e+00,-9.635987233233768157e-01,2.306202417821338335e-01
5.842499926145315881e-01,1.498178514038266185e+00,3.576688117416332524e+00
-3.693212129207547711e+00,-3.253950823963339123e-01,8.013762718789368966e-01
-3.955699415995268531e+00,1.799393696146385668e+00,-1.659002232080348582e+00
3.091274557689364322e+00,8.502368513453910648e-01,-8.900853044151656457e-01
-2.176858579160657836e+00,3.257908651501786768e+00,7.064175914097530207e-01
-1.944518662822327881e+00,2.954778353727062434e+00,3.468303183145378110e+00
-3.446105201111350436e+00,2.961229890360178363e+00,7.106604273345721312e-01
3.155029382215253531e+00,1.050705475984615056e+00,1.626745859883923062e+00
1.287046796975519491e+00,4.107737545778811228e-01,2.317877833163200396e+00
-2.219248359788288383e-01,-1.172025040976903132e-01,4.085822325392696186e-01
-2.174588658701628319e+00,3.365776108979933401e+00,1.943513837902796082e+00
-3.366058721712434920e+00,-9.355018794019910322e-01,-1.133263255033553518e+00
-2.034250572369530996e+00,-5.397426032416704489e-01,7.872942492725353292e-01
-3.719495813713342702e+00,-4.333310416034756307e-01,-5.443035856518579907e-01
-1.714821980663785883e+00,1.728064531803074955e+00,3.420802982745987375e+00
4.713709704545183121e-01,1.331981111626388881e+00,-3.750730574935102091e+00
2.947552616783393642e+00,3.044356718094593184e+00,5.468913030145948762e-01
-1.157107669540118788e+00,2.411701006479448406e+00,-3.794415810439539349e+00
-2.830910656559034941e-02,3.728059908181563742e+00,-2.386938750020396682e+00
-6.613752012451684648e-01,-2.748137999347584071e-01,-1.089007488095889320e+00
-2.780786968499160849e+00,-8.200516747831804176e-01,-4.068555338635843621e-01
-1.453212757972172531e+00,-3.652383501449579795e-01,2.385961838035247862e+00
-1.652358374219419446e+00,3.422539140015190107e+00,9.565424818090463577e-02
-3.553607711525335944e+00,-9.979573514213570251e-02,1.238249366153092224e+00
-4.990679161478642212e-01,-8.770050169925502903e-02,1.468509848127321993e+00
3.455690914150114867e+00,1.098651154663303098e+00,-8.340701358313096225e-01
-3.249581939910159534e+00,-7.869238306053015775e-01,1.279131407233743634e+00
1.874692290778227965e+00,1.915663384410101422e+00,-2.997869597672893960e+00
2.350082945591803196e-01,2.392450180301127549e+00,-3.716292898534459432e+00
-3.177637928960335589e+00,4.299767618227247346e-02,1.953454201124313672e+00
1.332075393316399341e-02,1.054731278344184675e+00,-3.842641219805035480e+00
1.691396533541956959e+00,4.925931615584657197e-01,2.169490031998340562e+00
-2.955811861089820969e+00,2.528882657388357824e+00,-3.057375877533631936e+00
3.189436288379852158e+00,2.754074165319015943e+00,3.252435993887422550e-01
-2.972103793238451086e+00,8.772591774025501055e-01,-2.652371657222712287e+00
-3.282666455302754027e+00,-8.427651969697974588e-02,1.981834176867697694e+00
4.878687119885831147e-01,8.918790070456014685e-02,-6.806248661745527562e-01
-1.453882804567335540e+00,2.460941689143893996e+00,3.585942763300857372e+00
1.752441906433377383e+00,4.280959291115467025e+00,-1.638969052538209459e+00
3.169335637084991664e+00,2.125251545984077062e+00,-8.149010009473576233e-01
-3.648275307750699081e+00,-6.773115586734929083e-02,-1.143668257284475631e+00
1.905902498806831158e+00,4.440861195278130724e-01,-1.337407031453926587e+00
1.920972865593602252e+00,3.782897898905195899e-01,-3.128956347523055292e+00
9.706622602252847898e-01,4.052249006017877520e+00,-1.745724206701050996e+00
1.516978492800300282e+00,4.125889900843225377e-01,-1.750915302280002139e+00
2.696522524969049428e+00,4.210468342067867020e+00,5.098641571242780168e-01
6.741300220202519622e-01,3.924523458417641830e+00,-3.261930323841035761e+00
1.903294562924974009e+00,4.316105716336412712e+00,-5.310043170904878984e-01
-2.282523408701526257e+00,2.667061995630915838e+00,-3.470204027257380641e+00
2.786245606423637611e+00,9.641702736465214141e-01,2.255845985630280826e+00
-1.330789262475999157e+00,2.474587431554524652e+00,-3.706494524749050612e+00
1.409703706213457641e+00,4.258330326260169940e+00,-1.754701134333420010e+00
-1.995605721642231156e+00,-5.232275284409855232e-01,-1.006923822575906291e+00
-2.506277528802851595e+00,9.835131812769593029e-01,2.965762032149071192e+00
3.266190702529121470e-01,1.123258936252292228e+00,3.656681969647872954e+00
-3.932304816248513912e+00,2.724108589044757167e+00,-1.348748798124596027e+00
-3.503641827342138804e+00,2.903611088371155891e+00,2.506127628829181830e+00
2.735712760666583421e+00,7.401611219474942827e-01,8.362633981764322488e-01
3.191126219421395738e-01,3.920584549847335509e+00,2.185138247211705631e-02
-1.795238553282194338e-01,9.993674960909349619e-03,2.081993502883861424e+00
-2.926731017542138602e+00,2.993214124893131434e+00,-2.582184761146105956e+00
-1.614880163157295989e+00,3.412887939533616688e+00,6.982483375588279806e-01
3.065129473383931380e+00,8.474509466402462277e-01,-2.156216214872146708e-01
1.456596751144925372e+00,4.293080037935758320e+00,-3.368102652797605456e-01
1.052576462749462038e+00,3.779071843869649339e+00,-3.202609956452100892e+00
2.177207437717290972e+00,4.034710815540199391e+00,1.839072860156726774e+00
3.339055189205504703e+00,1.785311778559124152e+00,1.928330446408668131e-01
-3.123411324990098548e-01,-8.986827335118988125e-02,-1.379978763051159962e+00
1.762011128246221969e-01,3.862559224070056807e+00,-1.225722824149230838e+00
-3.622563009185300498e+00,2.952210330166749941e+00,1.526291233385777657e+00
-2.610543546084952204e+00,1.548260195267699979e+00,-3.087874222342793740e+00
2.535385139651165964e+00,3.183768307428040512e+00,-1.747034851855168380e+00
-1.702235274114806352e+00,1.416914226399242027e+00,3.442790896885081331e+00
1.705031407979866742e+00,6.840059133172993189e-01,3.258319432605893962e+00
-2.796602605666825170e+00,-7.410034350044918394e-01,1.653919411655908833e+00
-2.835168808038478705e+00,2.991336198005963620e+00,-2.380836285641075634e+00
-2.839144728678548169e-01,-1.480290573094117934e-01,-3.394318142974192654e+00
2.651658229989342086e+00,2.018537602474812953e+00,-2.142203487661658468e+00
-2.609407684775819636e+00,2.586276983537064922e+00,3.118064636524584543e+00
-3.499768153853300756e+00,4.266240023145419225e-02,-1.615012512743829065e+00
8.213314151882626923e-01,4.158801872144580081e+00,2.303618052786076564e+00
1.075490220256267310e-01,1.030763596437374308e-01,7.757067296167661219e-01
1.282468801684785165e+00,1.028121948213533310e+00,3.388973408379221564e+00
2.470378667337612022e+00,3.711348185719021142e+00,1.538359707283608158e+00
9.261345878140155863e-01,1.499162310239715801e+00,-3.521089797216720108e+00
1.582849329808600602e+00,4.224707010042504374e-01,-1.361882684404725818e+00
-2.121353262014118890e+00,3.263495056399859706e+00,-7.474116143917010069e-01
2.352605218128091646e+00,2.347437793092178815e+00,-2.423033576829138447e+00
-3.940967641298060098e+00,3.464972878139621071e-01,3.384476203961319096e-01
-4.300680022359011367e-01,1.190542541874984206e+00,3.633558695700213281e+00
-1.146228103416188776e-01,-1.381780398150035671e-01,-3.169824399969333406e+00
-2.666392992376247051e+00,3.063013851636796847e+00,-1.586152276030402819e-01
1.348397468120626774e+00,3.347342237910094109e+00,2.988578085288360331e+00
-4.498097812005584117e+00,2.641049117673201163e+00,4.571478839410905159e-01
-3.160085659752153386e+00,2.052015362473585292e+00,2.618883079902109667e+00
2.694247959796631342e+00,2.632678073288277076e+00,-1.864492454914423281e+00
-1.422801765427705867e+00,-1.646650200083578097e-01,-3.486653927925715379e+00
1.709275062003197343e+00,5.571499067215289758e-01,2.218454613317520252e+00
-1.784053345279914327e+00,1.321084837299956849e+00,3.422495387708262893e+00
-1.319594435322810622e+00,-2.199335914954424209e-01,3.464430119811991116e+00
2.348705883416168483e+00,4.518227009952530793e+00,1.343851899775219572e+00
1.759197850082334369e-01,3.906225449902661406e+00,-1.316546313235940069e+00
-4.241185596094406485e+00,2.751388956246512585e+00,1.483147484782620928e+00
-9.474457491638693662e-01,8.936772982820142541e-01,-3.680615259435188413e+00
-2.577243622708055293e-01,-5.339825866551702049e-02,-6.883099579445579597e-01
2.810881313011109661e+00,2.984666301382329134e+00,-1.365961380670329239e+00
1.884621563680518586e+00,4.288053890282266245e+00,-2.300540022758937209e+00
-3.322929280813405661e+00,2.954279695686996998e+00,-2.334451143035999876e-01
-3.136184429926683670e+00,-8.610636555287878302e-01,-1.680769207823633371e+00
2.295721709547315026e+00,6.726465731414948968e-01,1.545757254822395232e+00
1.102231680359743032e-01,6.256896801943108433e-02,-3.705255309439503542e+00
2.550923998481901656e+00,7.144784474265890584e-01,1.152519542804161690e+00
-1.399729505931979867e+00,3.608972085640226979e+00,3.469534886784763295e+00
-9.345678884643212614e-01,-2.807439045627356800e-01,7.281631384655443684e-01
-1.631666812355414331e+00,3.252781217147358461e+00,-3.561028809150408314e+00
2.592095965036760763e+00,3.576326543440432104e+00,-1.310292648835619911e+00
-1.611168805589376474e+00,-3.905786028082019468e-01,-4.665057333368554660e-01
2.302968667961436955e-01,3.974095905354574576e+00,1.493611919155425571e+00
-2.500858877808313174e+00,3.126402706687628985e+00,1.525078408518192319e-01
-6.574214018263477843e-01,3.646862975504656212e+00,-3.676197674431410656e-01
-2.893442360499511423e+00,-8.067334155634372506e-01,2.332210652898096259e-01
-3.340719173190384250e+00,1.846986495891382862e+00,-2.598167630668521522e+00
-9.458149997905601625e-01,3.689580723111046456e+00,2.320662014855007005e+00
-1.056403138160493027e+00,3.501847282457401622e+00,-3.541375524969390121e+00
3.053963656537875604e+00,9.616823199539831224e-01,-1.889286309717574053e+00
-4.519993049336634150e-01,2.355001638200345582e+00,-3.805675962023424397e+00
1.310476155588510716e+00,4.254840913983131578e+00,8.374174299089303108e-01
8.633512459944245876e-01,1.302098317243405579e-01,-2.853112766058364613e+00
1.131437498248556883e+00,3.019639596294477979e+00,-3.293677499963254984e+00
-3.550825376744425999e+00,1.477048392220484230e+00,-2.184516704715762980e+00
3.403792440071537584e+00,1.651552141402777618e+00,5.408416469682498784e-01
-2.544706086950319524e+00,-5.181788974043161078e-02,-2.803671051018663096e+00
2.624605217837735260e+00,2.864046667142063463e+00,-1.773322909633441080e+00
1.510712224609299437e+00,5.055290380577788234e-01,2.323451810799034956e+00
-3.638059530338462633e+00,2.189353067918323514e+00,-2.295630250328729804e+00
-2.611841199943840230e+00,2.701622963749866990e+00,3.157021555188911588e+00
-1.972816514106948471e+00,9.074297132348836392e-01,-3.349512230796405365e+00
8.037695535403434066e-01,2.847451168187111747e-01,2.426985943946846636e+00
-2.895972625521916921e+00,-7.257140899907531528e-01,1.506783349590701038e+00
2.540813941038084778e+00,4.521597914499037252e+00,-1.232071689328292585e+00
-2.967969783286240393e+00,3.089311638419601547e+00,2.449340188599585133e+00
2.237298044156469157e+00,4.520695936919238100e+00,5.686137473960454214e-01
1.946668786561156272e+00,3.279334548534485361e+00,-2.578593352766784363e+00
1.381553979642573815e-01,2.936739026084314919e+00,-3.729342620922901030e+00
-5.570920548083990731e-01,2.537854971026429762e+00,3.604259864744367547e+00
-4.016307344421181647e+00,7.914501709471131186e-01,-3.058855521495096874e-01
-1.922981437175766750e+00,2.531649552758593380e+00,-3.653143706032488502e+00
1.510562259768897242e-01,-3.416968115028687792e-03,-2.704194707058690028e+00
2.247844372900787313e+00,6.765641354831217757e-01,2.485721063824196886e+00
2.470831098230981127e+00,3.566249288435653586e+00,-1.890318192471292402e+00
-3.435389164785437544e+00,2.893763116771373323e+00,5.806216460557981351e-01
2.730592007303566326e+00,4.140329509536318398e+00,-8.169658072680404670e-01
1.194245750866296474e+00,4.297430114012248947e-01,1.905909132257807004e+00
-1.873833639392514350e+00,3.319256158352904329e+00,-1.063663945576489578e+00
-1.139577564296337053e+00,-2.694706135457372032e-01,1.708110410618212949e-01
4.782352404680869085e-01,1.115151758877501287e+00,-3.681545551303740282e+00
-3.181410897295289697e+00,2.744843184909488087e+00,-2.954196159402318500e+00
-2.270062213340593438e+00,3.262705289987104518e+00,-5.928469856860093534e-01
-1.682351811316577184e+00,1.847082061820304100e+00,-3.634349599569691058e+00
-1.121867124999822218e+00,1.258142933625660209e+00,-3.623300825195609587e+00
9.322811166954101392e-01,1.937061502408844449e-01,4.796858132723084284e-02
-1.579700708625543015e+00,3.481508120156988184e+00,5.926041108434859650e-01
-1.903322303566285845e+00,3.279848406875588207e+00,-1.096530735588062688e+00
-4.075248221045710828e-01,3.784210355670381443e+00,1.999135071876003478e+00
-2.468965436731282992e+00,-2.612138006794142639e-02,2.773247738916296168e+00
-1.369390229434865436e+00,1.326173462357051358e+00,-3.613017203842698422e+00
-4.687242161842488097e-01,-1.396395670104975395e-01,-6.051224087007500696e-01
1.617299891102156106e+00,4.820122022560727748e-01,5.122019675585181009e-01
1.312430097972085763e+00,4.112040544332771219e+00,-1.460045444924739089e+00
-4.075958756358327051e+00,2.781287771868042658e+00,8.011917790847556953e-01
2.893236589542475201e+00,1.144373805106895237e+00,2.060883949523824477e+00
2.816632390863856195e+00,7.121474820186961541e-01,-1.895057119005886692e+00
-3.831102752388937382e+00,9.660938005961576813e-01,-1.238583268040998719e+00
-2.216287327268078755e+00,2.137480787205984889e+00,3.310330614276220107e+00
-2.812823275720701677e+00,-8.305605797632823473e-01,-7.089286269324357459e-01
2.475307824608377061e+00,1.815250926967053591e+00,-2.365205119129051958e+00
1.881811855063403538e+00,3.748167328943914911e-01,-2.607818416623456148e+00
2.430490839699408490e-01,3.960120178032304317e+00,4.052582594509415020e-02
-1.545907951781749334e+00,1.120980219546250378e+00,-3.549565656016779425e+00
4.237746059418573408e-01,3.947978898550447369e+00,-2.368748890537990093e+00
-3.441454668152223562e+00,-4.172926806034719105e-01,1.379893283811304938e+00
3.032447951405567999e+00,8.912041813730390283e-01,1.599605968644712384e+00
-2.813338294755553637e+00,-2.796490273775146737e-02,-2.495177004250837882e+00
3.008826382592736381e-01,8.597007827292259263e-02,-5.807239386746374521e-01
2.281955298295720597e-03,1.550804290700783294e+00,3.670636315151167839e+00
-2.408961990371954354e+00,2.427882433321215228e+00,3.216680400766497527e+00
-4.134956266466898178e+00,1.967923194985418345e+00,1.193267991115237514e+00
8.202989610151630029e-02,2.148040782441609786e-02,2.654780692620935412e+00
-9.984867461032598257e-01,3.643747590288973548e+00,-4.185661760854006430e-01
-3.556867086442052628e+00,-8.934346733643339089e-01,-6.794712607187646247e-01
4.184213383813816800e-01,2.135626715199115955e-01,1.857223941925683075e+00
2.554841497252246629e+00,3.519078424078804002e+00,-1.606150979511191679e+00
-5.820508808506114073e-01,-2.046573244175200479e-01,9.904397605426294993e-01
-3.956602968658487818e+00,2.356105234781312507e+00,-1.965126205387250247e+00
-2.121496635479742210e+00,-4.364021236225807399e-01,2.276113936590901332e+00
-2.660945629883672670e+00,1.649546036838085428e+00,-3.148922395138168628e+00
5.199147491627997830e-01,1.607347802215693955e+00,3.539688373582906333e+00
7.663250470276037341e-01,3.200549269903047556e+00,-3.511904498367603100e+00
1.480598620725684711e+00,3.581053191704035021e-01,-4.277195014857439470e-01
-1.237061718608368777e+00,3.500532384159075860e+00,-1.614939227747277606e+00
1.400468462274952752e-01,3.087544003365512157e+00,3.532880766305707798e+00
1.044746654888227128e-01,-6.930112961502295742e-03,-2.340922627218347873e+00
-2.082113586413015582e+00,-5.905253602538669266e-01,1.764026198208276330e+00
2.044237418237472959e+00,4.020304517789378806e+00,-2.242469787377160184e+00
-3.072168997816351776e+00,3.077992240453656159e+00,2.766248529244076604e+00
1.014840350391440271e+00,4.154319280312710916e+00,2.912424414868718614e+00
2.402030913253474509e+00,3.810804279476621481e+00,1.560327941201143931e+00
-2.939543995179970004e+00,-7.076740817671609562e-01,1.631448872992888433e+00
-4.029474008791007478e+00,7.146035876439223999e-01,-9.108516157152181381e-02
-2.242638084563841616e+00,2.218097431360090521e+00,-3.513217428498041084e+00
-3.182680144452890492e+00,3.061888187505442893e+00,1.659674122285084819e+00
-3.078895917829280293e+00,6.106092943044120203e-01,2.356127299229059613e+00
-9.926099510036056062e-01,1.038629435003107782e+00,3.651696847472929885e+00
1.872293308556584601e-01,-1.697819981799387756e-01,-3.719938616450986668e+00
-2.178102487873374127e+00,3.416500341800804197e+00,3.040495383040406896e+00
2.754055183541280538e+00,3.848045536968827118e+00,-5.099623535826195431e-01
1.775892826592157317e-02,3.761277304628441787e+00,-2.647344396855693560e+00
1.210542961671198015e+00,2.725429657515639370e+00,-3.256663604856336214e+00
5.153464291466718361e-01,2.964015231329264921e+00,-3.573904353998765160e+00
-2.098082371856921480e+00,3.414102208225237245e+00,3.276894816199993787e+00
-7.593348913550964641e-01,3.782180165315995879e+00,3.102175352894198213e+00
-3.720018365071000588e+00,2.817304454710185535e+00,5.405994215407601278e-01
2.830774845707565657e+00,3.348876889691577041e+00,8.296101131048071453e-01
-3.811615497173021616e+00,1.272062230594142251e+00,1.456303262292624412e+00
-1.470286745378496240e+00,-4.272998157331298064e-01,-7.637382837724302487e-01
-3.797330100967388766e-01,1.229032864826703486e+00,-3.771707619064904371e+00
-2.239433664218513087e+00,3.280044462404717365e+00,5.068881747876453625e-01
-3.501111331151049999e+00,2.787848871766964720e+00,-1.965826104606682501e+00
3.048244299325419515e+00,2.892020300909087016e+00,-1.132359430255601013e-01
1.625519323831620566e+00,2.395784371493255183e+00,-3.039877871257916642e+00
-2.140873757183091364e+00,2.124228584702604561e+00,3.260185529204312260e+00
7.460000698033472100e-01,6.562901872802370251e-01,3.549467342029466899e+00
-1.091097531219334726e+00,1.936288557850866843e+00,-3.724924320795563570e+00
-5.378812653226766605e-01,-6.451606277133922762e-02,1.543140077449989267e+00
-1.665132725734579155e+00,3.305817829275847330e+00,-3.533348481881288805e+00
1.010755045853566569e+00,2.910429908545759670e-01,-8.978930996347044280e-01
1.493913989214110005e+00,2.029603259593926623e+00,-3.221894827675189088e+00
1.129277705556733791e-01,5.838564991088748268e-01,-3.743788403704533696e+00
-2.392978236324388330e+00,3.224686303272197740e+00,-2.763078477548035483e-01
9.482902889666118273e-01,2.365475867470851146e+00,3.361931219143615923e+00
3.167919653017098547e+00,2.177708768217601509e+00,7.032971295058711991e-01
-2.203267505862693376e+00,1.002831055544044725e+00,3.099273361132584448e+00
-2.512805715084634794e+00,5.650581493213486795e-01,2.860840784033061190e+00
-3.998087693928406239e+00,2.790653370301898306e+00,1.120073014098714737e+00
3.757977254984664062e-01,1.136389204403294384e+00,3.673366525744324207e+00
-1.617261495027874973e+00,-4.881278576464067598e-01,-4.864636548134950722e-01
-1.012520252328451331e+00,-3.114967013643620830e-01,-1.827808639161041748e+00
-3.545560872570909794e+00,-8.362768449756514677e-01,6.455034139044034669e-01
9.687351785300825358e-02,1.411237490420350028e-03,-1.132640911427462982e-01
2.099192823258262119e-01,3.756177050165887099e+00,-3.127978979892002798e+00
2.388974389263183618e+00,6.234792514148238540e-01,-6.005910962229858985e-01
1.197017322040693665e+00,2.518407613941777701e-01,-2.075503027518077914e+00
2.226700581013344671e+00,2.874084617227207428e+00,-2.376296575903602104e+00
-3.350265925674042577e+00,3.067851258421968375e+00,2.159709062187208151e+00
-3.327052492423067331e+00,-4.383462588815926209e-01,1.647408440858360468e+00
-2.842851796950016219e+00,3.229726154313666164e+00,2.473422157349085548e+00
