2.530836519612468027e+00,-6.511834286312595310e+00,-6.540660697302572713e-01
1.688253954724284744e+00,-1.577789466634032189e+00,-2.057851395439747932e+00
1.728450310936146206e+00,2.560096349960792050e-01,-1.600614717562147682e+00
4.953382251725958474e-01,-6.447401404687015614e+00,2.886601933166302203e+00
3.991836995483899919e+00,-5.579932428109938947e+00,-2.972687087843466913e-01
-1.873983967335524081e+00,-1.205063840412978093e+00,1.437945235196689930e+00
-1.626529330116620153e+00,-3.409089974783030108e+00,-2.896608486125440973e-01
2.987539192221679851e+00,-5.942559742210944407e+00,-1.479018427095021071e+00
6.090518455218870697e-01,-4.936338125166058077e+00,3.071524788045454368e+00
-5.465678104550321104e-01,-5.755154365239730119e+00,2.215919148493076918e+00
-1.006310790092771690e+00,-1.085145516157721923e+00,2.426346759273135145e+00
8.439929991118828578e-01,-3.601254869692746663e+00,-2.116162288434341399e+00
-6.748478092875864753e-01,-3.295686307928525682e+00,-1.753113228437420457e+00
9.789544653640497307e-01,-4.338127079087819027e+00,-1.893339797805504876e+00
-1.197855065659221729e+00,-2.102237990693019754e+00,2.226984110955711138e+00
-1.852296135164771262e-01,-1.286440203676648408e-01,-2.657288571975677804e-01
-1.914618221345099069e+00,-1.963262471377036134e+00,-8.506653143478438706e-01
2.881924320319909416e+00,-6.376545220977423156e+00,-8.307476330246436058e-01
2.723050753452027628e+00,-6.318421972132659548e+00,-1.927470341787169694e-01
5.654465807801321020e-01,-1.989295905467775016e-01,-2.063390114440133427e+00
2.498696845437113456e+00,2.312779687023427400e-01,-5.792762666805637006e-02
1.396901820921027992e+00,-6.534318955322397038e+00,1.378470070412107118e+00
3.717480290691703715e+00,-3.587731988113648463e+00,3.816568936375267507e-01
-9.309513950065315679e-01,-7.592609505504156926e-03,1.591177854191514029e+00
-3.271128918956527354e-01,-5.253263802112019043e+00,-1.316278330545210595e+00
1.216645168086240680e+00,-6.968976940221558003e+00,-1.625403627998096123e+00
-1.396733467687609975e+00,-4.433919891246199896e+00,1.212741881323870841e+00
2.394618076963098918e+00,-5.092591216814897237e+00,-1.886707642946085617e+00
3.880780236987257492e+00,-5.522041405273738768e+00,-3.405621957445735259e-01
-9.529627030519677300e-01,-3.287475790507501383e-01,-8.805915401211607263e-02
3.188265277037901857e+00,-6.137741079960061796e+00,-1.249326319625746251e+00
-1.474045111990232026e+00,-4.021157076139106223e+00,1.424181342391308780e+00
2.077613276035177314e+00,-5.037426145447439829e+00,3.071901400210849786e+00
4.794850689920714393e-01,-7.041916520648435762e-01,-2.443071080108958792e+00
1.359045823537739395e+00,7.353794089079206120e-02,-2.083730614241380508e+00
1.846291897948107552e+00,-3.104929848296984929e+00,-1.957623235176731535e+00
-2.386647656400130990e-01,-2.532989296504098764e+00,2.620987325554003267e+00
2.585033315578686430e+00,-1.561766525177012144e-01,9.006225362458950556e-01
1.092577403859002594e+00,-1.473982583973243443e+00,-2.276017757833787236e+00
-1.094133998654433615e+00,-2.513448721469550673e+00,2.110891024516788228e+00
-1.867808396557310902e+00,-2.402328043259223112e+00,2.703165212864890865e-01
-8.535905929794651570e-01,-6.245091390436247281e+00,1.233538362662102594e+00
3.096078447450739457e+00,-4.023490288081997157e+00,-1.109143144952895010e+00
-1.265053515729850364e-01,-1.144702992848291578e-01,-6.408808076716199231e-01
1.758999017433638512e+00,7.402857900352652898e-01,1.436944325838980019e+00
-1.850737419006381446e+00,-2.492754805276879981e+00,6.172508309554802786e-01
-1.804154820892260203e+00,-2.924524727453114537e+00,4.075506025338118121e-01
-6.679944768275654088e-01,-2.828416258541934791e+00,2.354146166270250085e+00
2.198713254923782223e+00,-6.418035489045134767e+00,-8.030398378750004673e-02
2.601190762767647602e+00,-6.207286404852586870e+00,1.458297537115498255e+00
8.077175506744130318e-02,-3.240819099803781550e-02,-3.300397177552390482e-01
2.634311637607359202e+00,-4.609153667130733822e+00,2.801943108436903085e+00
3.477720510405110321e+00,-3.198829197525209000e+00,7.281845457154800805e-01
1.970814364791492412e+00,-6.731859573092042304e+00,-1.714252896479155019e+00
-1.529769482308769302e+00,-1.260403082533921859e+00,-1.685867024730096864e+00
2.279718600234684089e+00,-1.929877535068176941e+00,2.257111012695594887e+00
3.556996720008279489e+00,-4.129377638760097113e+00,-6.106570912757572911e-01
-1.967428722517983175e+00,-9.253766354144822293e-01,-1.474389491126347096e+00
3.039641489720649847e+00,-1.456215043653011909e+00,9.040292066384452152e-01
-1.217774657387829196e+00,-3.464752835795825270e+00,1.663622659937940007e+00
6.803541812024164193e-01,-6.534449767162795020e+00,2.757630851712515430e+00
-9.550313578758177213e-01,-3.716777707391462737e+00,2.147878449826726932e+00
1.698434056415737858e+00,-4.512609762484015574e-01,2.257740747563537820e+00
-5.657402374695558178e-01,-3.764710219096568444e+00,-1.685205116962647187e+00
3.645452869338402735e+00,-4.615452740869424808e+00,1.889457072452165987e+00
2.853418172383350715e-01,-4.485779854241380704e-01,2.652365068288117023e+00
4.055201687270578503e+00,-5.829540432857998056e+00,1.150346864662677326e+00
2.148045546328681610e+00,-6.131109218690006912e+00,2.945255202078692847e+00
1.763355013178402597e-01,-6.828880221869237488e+00,7.985253253790793870e-01
-1.134777376040852825e+00,-6.677854468086197315e-01,-2.142667262667890427e+00
4.352019278336491048e+00,-5.767135387137206415e+00,4.841320116101928694e-01
4.450777681277320874e-01,-6.271792485835318010e-01,-2.564110783090592705e+00
1.571618800273095973e+00,-1.713536694806182092e+00,2.523096804636873802e+00
3.420162755106203711e+00,-2.738711493766019967e+00,7.022170437969783574e-01
7.231824052767106548e-02,-3.222967457551055848e+00,2.869042752398841767e+00
-2.123983049491623198e+00,-1.230274381208339429e+00,-7.093604370034656270e-01
2.528397495940396311e+00,-4.807243476441540153e+00,-1.775347028279979478e+00
8.705549130658798429e-01,-4.068523441482618352e+00,3.112837169609433019e+00
4.046464418067644786e+00,-5.178465563714388153e+00,-1.389447186556283173e-02
1.843086343966401142e+00,3.541165921864319888e-01,-1.118331344610438371e+00
3.065195085302317324e+00,-1.631333739254539061e+00,-7.790189173270974932e-01
3.061841935513980317e+00,-5.895470174809215536e+00,-1.302462038243778819e+00
1.595898011345624479e+00,-4.511805097678833754e+00,-1.961966369140750066e+00
3.002037625366108742e+00,-6.348433742078267272e+00,-1.493871832477694284e+00
2.690662161335950930e+00,-6.329540807077171038e+00,1.895319502221580743e-01
-6.001726247886302046e-01,-7.082365592090697604e+00,1.368118618003024478e+00
4.478600226036614784e-01,-4.066196352537445158e+00,3.018951581998587930e+00
3.887024038296032824e+00,-5.137766184198274466e+00,-3.256530583457785677e-01
7.287120892810565742e-01,-3.575485077937325951e-01,-2.443154279330249867e+00
1.857137254034628038e+00,-3.462745847736226068e+00,2.963591492988927989e+00
-1.428335339835752116e+00,-3.350835042783063766e+00,1.660459025642763375e+00
8.571364333225958143e-01,1.014127974685872513e-01,2.325448244357746219e+00
3.405784715204443813e+00,-2.865790184770607762e+00,8.526218000492991056e-01
1.374228214788970837e+00,-2.473514036804935756e+00,-2.160904267644670362e+00
1.468316826985470502e+00,4.399418250786708007e-01,7.972393758250538864e-01
-1.369911986785051772e+00,-4.094960213587156339e+00,-3.324190061058479029e-01
1.383467253263521712e+00,-6.587160995739520963e+00,9.729573806295611638e-01
4.325744407404762404e-01,4.064041996112354171e-01,2.009558614507375829e+00
1.812322281925354606e+00,-5.328183669216737250e-01,2.042515557665207204e+00
-1.147205358603467840e+00,-3.855444176113215882e+00,1.830909011914257256e+00
-3.492287357430617356e-01,-5.404772152551675646e+00,-1.339686379650903980e+00
3.321658551286229333e+00,-2.446826978385494566e+00,1.098777672614741574e+00
1.460980594552248268e+00,-2.244076513828420438e+00,2.587426992894406474e+00
7.437370966949812257e-01,-2.264726572223019652e+00,-2.470345130358305052e+00
7.738196180801401036e-01,2.983210996243100266e-01,7.940633816770082953e-01
8.355532836422789877e-01,-6.330621473865204685e+00,3.057824964802999812e+00
-2.283556162180271798e+00,-1.440080993633599649e+00,2.081183393249474989e-01
-1.220535567962819146e+00,-1.613760605775508061e+00,-1.838573506222998866e+00
1.779280439100361155e+00,-3.659457889435159927e+00,-2.135275509667864391e+00
2.976690957310608621e+00,-1.876405415607141247e+00,-3.659227464502869953e-01
3.217492909696016312e+00,-2.897821115700018879e+00,-6.021650010574882694e-01
4.074910572580683898e-02,1.786078096603925525e-01,1.666444828570314174e+00
-1.279750271185590371e+00,-4.733048002593988279e+00,4.785914717886898262e-01
1.381429440729250002e+00,-4.084691396061049140e+00,-2.166107058744582758e+00
7.146903117438672126e-01,-3.660375627926474085e+00,2.911407279689572469e+00
-1.280467593758783496e+00,-4.948625892614782806e+00,8.365357055402644626e-01
1.450674813819630371e+00,-2.889097881321843531e+00,-2.080763001281467517e+00
3.317898701439912390e+00,-5.957562956599381288e+00,2.766721407856334025e+00
1.228840985241203443e+00,-6.134889757376587482e+00,-1.824495205657028496e+00
1.411850970309159292e+00,-4.240013024458062496e+00,-2.048156672055905680e+00
1.029354497088630138e+00,-2.384765828161949042e+00,-2.205248067618058805e+00
7.578853014127941989e-01,-6.991527038579388176e+00,-8.980516131360737342e-01
1.924329569904641712e-01,-3.578054756782954815e+00,-2.056375690466796691e+00
2.161169952843291775e-01,-3.007459002926039293e+00,2.865113910673701803e+00
-8.739340449741944683e-01,-8.811876498224877063e-02,1.017763706728115780e+00
2.923730345772242334e+00,-5.186779704053058104e+00,-1.440787935266016007e+00
1.284419453719241044e+00,-4.058266433099072756e+00,-2.076421723589737756e+00
4.195461574241462266e+00,-5.476138969108830246e+00,9.687273314776976285e-01
1.402576128876322770e+00,-4.496397805363260503e+00,3.155587321626343922e+00
1.239592162758580002e-01,-5.952899631364370059e+00,2.805998225746689112e+00
-2.079370566355629890e+00,-1.512326455774364975e+00,-8.098134842374045128e-01
2.077149064586754079e+00,-5.707810005869685677e-01,1.958992061218150837e+00
3.058599603623186614e+00,-6.087991372008481505e+00,1.923955157955075990e+00
-7.196366851440649803e-01,-1.294297171184029260e-01,3.599835408746281940e-01
-8.521096432839718460e-02,-2.118888049116679717e+00,2.744600994950284090e+00
1.802479460868034788e+00,-5.027919478461857494e+00,3.248360243715289641e+00
-1.834231605202104876e-01,-5.962485156309427659e+00,2.537120479083651681e+00
3.675047147242819889e+00,-5.706730377066982385e+00,2.393824232815606745e+00
3.169318452618074655e+00,-5.997055984091302250e+00,1.536998343209349693e+00
1.789171571061176635e+00,4.563659502324121098e-01,1.196857309589055007e-01
1.314696792013505311e+00,-6.692784098934621895e+00,-6.005881399095474790e-03
-1.927719093863151434e+00,-2.219847591290736943e+00,1.169430065223539650e+00
-1.434803923626115418e+00,-3.564046788033425894e+00,1.281276666405935405e+00
-1.692340720095306450e+00,-3.441715517894710086e+00,9.104591477603223293e-01
-9.054943849936671896e-01,-5.536751046408676658e+00,-2.253576907490613401e-01
9.987793604811233683e-01,-6.516062524418078539e+00,2.367777783788964641e+00
-3.940743737156164883e-01,-6.954750082058075655e+00,1.265432140288534679e+00
-6.874501993976683822e-01,-5.773792142577943487e+00,-5.326068082171818707e-01
1.653942099166894275e+00,-1.510009063365984838e+00,-2.024198297530707791e+00
2.711223974552552374e+00,-4.601622474005684360e+00,2.730461096571875412e+00
-1.323814439562606582e+00,-3.818152067323219434e+00,1.573610472660039283e+00
-1.476825556334867784e+00,-3.344534744395788906e+00,-7.002332059305613754e-01
7.635770584642016523e-01,-6.019143014587238660e+00,3.027455733005470773e+00
-4.396613077641667311e-01,-4.775083040485621488e+00,-1.406730186193042131e+00
1.524425621270632858e+00,-6.283811303071058951e+00,3.221601040656243420e+00
-2.155682576900434633e+00,-1.641688261387717507e+00,4.643353784317325039e-01
3.321801329448076379e-01,-4.702557277997698293e+00,-1.878374862581185134e+00
4.041583763383675532e+00,-5.658885321653071898e+00,1.966835276501418095e+00
2.559653620480065950e+00,-6.322954135780858742e+00,2.907493729432520865e-02
8.449228413066844912e-01,-6.623107371287592748e+00,1.928891079332657243e+00
6.948576770542636005e-01,-7.071057354015167218e-02,-1.679209570737754786e+00
2.784326784843163427e+00,-8.422952239607208735e-01,-5.193683724387844203e-01
2.548892710522499883e+00,7.763306638929331482e-01,-8.981050578393352801e-02
-1.723915558219878630e+00,-4.507282854151281049e-01,5.467742093436481765e-01
-7.011783193870765873e-02,-6.938647420749505912e+00,1.416098004009756384e+00
1.126280668222977788e+00,-4.445486025041875400e-01,2.401522765218356170e+00
-1.637154945655848959e+00,-6.500469076184870465e-01,-1.695179250734411003e+00
-1.380978389070497067e-02,-1.715555029672440890e+00,2.716210140176054555e+00
1.219752116890462590e+00,2.238977872435097827e-01,2.205479478058045562e+00
1.737236799356362438e+00,-6.247854178216123877e+00,2.290295893079512091e+00
3.063954931757715716e+00,-6.028622458441507348e+00,-1.449560670175005672e+00
1.997423579016333495e+00,-6.518354595047886058e+00,1.100787308593319247e-02
4.258158969135524607e+00,-5.462722170221472773e+00,6.226795163043987724e-01
-1.682098893192329747e+00,-3.057090439800413062e+00,1.171455062622504206e+00
4.423689800812374839e-01,-5.949444448976799471e+00,2.977510900268657945e+00
-6.462399756264267658e-01,-2.305079823881825085e+00,-2.003822238010675605e+00
-1.202019448454582917e-01,-3.520759669490975519e+00,2.668952355373932939e+00
-1.865243104951628705e+00,-2.670850717391410445e+00,-4.062185952262123978e-01
1.904395545116227551e+00,-6.246514369883373163e+00,2.071191512248686806e+00
-8.114269455908354814e-03,-4.753319884123455630e+00,2.866506435198269198e+00
1.014873992008305637e+00,-3.897508023162846502e+00,3.121255753421781964e+00
-2.233830504940156059e-01,-2.277941225972877515e+00,-2.160103578213190989e+00
-8.488604710062560565e-01,-2.212062457307699237e+00,2.359394306417038401e+00
-3.591889711131730500e-01,-6.626880730375147799e+00,2.087959649166831078e+00
-2.109015697552343860e-01,-4.862011645027356721e+00,2.545049261008879515e+00
9.038310856920138692e-01,-1.706575903868245758e+00,2.732098256148243642e+00
3.976621909934032306e+00,-4.425261518302079367e+00,3.700015364982271460e-01
3.377475273086313123e+00,-3.947804192332051265e+00,-7.956378286410672462e-01
2.544686745159190355e-01,-3.775079101862734987e-01,-2.525190965391628684e+00
3.986179939705819741e+00,-4.426020666467815445e+00,9.775573553219162326e-01
2.496970161490086326e+00,-2.499877710654780927e+00,-1.663087804089756538e+00
6.782860168375295373e-01,-6.688803057752333636e+00,1.528512342526956225e+00
-7.356608306366401173e-01,-4.525510551566727990e+00,-1.332652845004693498e+00
-1.500910133053252382e+00,-5.578428930133394470e-01,8.877500809957750150e-02
7.922719935377231515e-01,-6.580055852588015952e+00,-1.506112947478197128e+00
2.966757417387341889e+00,-3.548628869753486903e+00,-1.204480209419282577e+00
-1.087822063916673798e+00,-3.800301320452803111e+00,-1.082977432031483556e+00
1.956169427514572456e+00,-6.371492714676874058e+00,1.217072101978793564e+00
3.371870115572826343e+00,-3.218842332131225614e+00,1.338916363253189745e+00
-1.644248722481092884e+00,-3.055324485192548067e+00,1.356708104743556298e+00
2.739379376743393004e-04,-1.652169139031673395e-01,2.435749682115220249e+00
3.232909179530712329e+00,-4.737173900537201554e+00,-1.163552932843652021e+00
6.395168309608921797e-01,1.870397498038952611e-01,2.647600476752959286e-01
3.102799274311428768e+00,-2.084039278846795629e+00,8.147678782128964237e-01
2.563225139915304762e+00,-2.353470527227327747e+00,-1.535270841743384462e+00
-1.232630870672810186e+00,-4.801136179320010022e+00,5.698995938441956399e-01
-7.270378543015115769e-01,-6.663803972189327851e+00,-2.131317245227487209e-02
2.950067854605981310e+00,-9.209878245614917525e-01,-6.096332310734983023e-02
1.705073875375252346e+00,-9.773306842974088804e-01,2.349695868457918113e+00
-1.602419515468943789e+00,-1.563346325154696403e+00,-1.474194237904590699e+00
-1.754623750872160937e+00,-3.012528865088716312e+00,7.758422332795479326e-01
-2.177338916532566698e-02,-1.866125811050433903e-01,-1.168930884942902759e+00
-6.908595088950451046e-01,-6.292959296228183064e+00,1.826713780904532847e+00
2.327417987884699002e+00,5.145475349227591755e-01,-8.584672566433622087e-01
-2.281629942373704090e+00,-1.056526491505902055e+00,-2.367672779870111724e-02
1.214039690326382592e+00,-6.442665419752903411e+00,2.782646999335805393e+00
2.105062670666071334e+00,-6.672062913132647211e+00,-8.168192055617976566e-01
1.584932564423995993e+00,-6.770124731486683700e+00,-1.364403128120281972e+00
1.350533506643418757e-01,-1.433083165078586019e+00,2.672953094918460337e+00
-3.406157694600130958e-01,-5.702886846484727990e+00,-1.200756599968232141e+00
-7.087063540798984596e-01,1.267911442085330465e-01,2.247078357535519100e+00
1.793076638233336295e+00,-1.084437800927788187e+00,-1.758774544231391346e+00
-4.672172416845818410e-01,-2.118160091447562621e-01,-1.568870649831874964e-01
1.370370778847280313e+00,-3.356770831326059135e+00,-2.199582683957531426e+00
2.511281854174679751e+00,6.009156237643470400e-01,1.454927185437406290e-01
2.522848791907768007e+00,7.232300445884315421e-01,1.150462608604943954e-01
2.425147401830186900e-01,4.041471686766040516e-01,2.560297055532174237e+00
-1.124367975445497436e-01,-4.482191102771449387e+00,2.613329257146268070e+00
3.436738432435185508e+00,-2.977009213001996280e+00,-1.240876297486071325e-02
2.183866059810440241e+00,-3.037523605433511076e+00,-1.734315112222673427e+00
2.996760204583583498e+00,-4.298290501295219279e+00,-1.327936484288114505e+00
-1.451282921852269814e+00,-7.008404190480419516e-01,2.032549632239053938e+00
-5.959881708927988742e-01,-6.876320977692378378e+00,-1.109108899659863035e-01
1.799954970944612098e+00,6.888325009986009939e-02,1.965461886793357316e+00
3.407579863840909606e+00,-5.917385836373323826e+00,2.099878354669578506e+00
3.318753483415961547e+00,-6.282588854765569941e+00,-1.095878559870231639e+00
-4.090462332370889409e-01,-4.904955694177453029e-01,-1.641137890071429517e+00
2.937197902840968045e+00,-5.626350408822420768e+00,2.935690675309149622e+00
2.320506515827934102e+00,-6.484627495345206327e+00,-9.080177722887294856e-01
2.653539513862896548e+00,-1.130131266747711916e+00,-1.107298325437572784e+00
2.097556569898711309e+00,-6.692135828166684952e+00,-1.367963846027721253e+00
3.107923195877525746e+00,-1.550174670350733974e+00,4.564800152714989512e-01
5.936584727219255120e-01,3.052149608592021890e-01,1.763007638230720708e+00
-1.458093376088873683e-01,-7.652461953158236074e-01,2.766770530259735406e+00
2.019787043434697171e+00,7.466233551559383619e-01,1.371226665121842103e+00
1.863163896851637746e+00,-6.521447161982588447e+00,7.679819567536598501e-02
7.538032633370340685e-01,-5.128564318331462424e+00,-1.839315067761265743e+00
-1.925217795100771623e+00,-2.486278009115626908e+00,1.089153071084630442e+00
1.812846840228144796e+00,-6.603458185802398184e+00,-3.439533716512031131e-02
-2.523493584500562797e-02,1.242124548885224361e-01,3.953946159700647556e-01
3.719615343721618395e-01,2.816015089341544209e-01,1.525583042153891622e+00
-1.966290738607290089e+00,-1.893385785934865062e+00,-3.608033453675663638e-01
-1.250959461437098241e+00,-6.243464790755806071e-01,-2.129207064666971849e+00
1.212665328514462404e+00,-2.622002855040707292e+00,2.914444628265623560e+00
2.745075154206399470e-01,-3.433625555093930082e+00,2.861384569971030967e+00
-5.644190668209851935e-01,-1.543371582643284501e-01,2.887732771867313267e-02
-1.925591593636563514e+00,-1.998901955804037067e+00,-6.618858090870592958e-01
-9.603590498349312554e-01,-6.795768267847061839e-02,2.421494402598742823e+00
3.297383460333795480e+00,-6.052932094129306329e+00,7.314781285755211915e-01
2.762770256369072808e+00,-2.310711195742418678e+00,-1.384196577156296071e+00
3.176491243987161761e-01,-6.798108399853623141e+00,1.821910717333505181e+00
4.495590447451267568e-01,-7.148019011163385450e+00,-6.138201808055223641e-01
1.855946177169560896e+00,-6.007317773650751036e+00,-1.783738481586434110e+00
8.431646159249960304e-01,-6.846629001640202716e+00,-1.580730078556317753e-01
-2.252889525706194274e+00,-9.172254782794524441e-01,-1.510149100021139112e+00
6.830174414354537316e-01,-2.152782282516696455e+00,2.786630211307443705e+00
-1.229480479573328289e+00,-4.467560858715363459e+00,1.962930973748263155e-02
-1.324779670771187579e-01,-1.825438858203741188e-01,-1.486586326670352287e+00
-1.393115786604221251e-01,-2.772878932602705682e+00,-2.113527742724708780e+00
-2.269607994783949811e-01,4.196790697176112916e-02,2.436447931610519646e+00
2.483810360926747229e+00,-3.792105028827893243e+00,2.776980293625784579e+00
1.053294316765104766e+00,-6.567990218030931970e+00,2.776274260651576675e+00
-1.269056883526598511e+00,-3.603372784503258153e-01,8.399779263401058182e-01
1.244361509040578184e+00,-5.059055335371337669e+00,3.161835539027930686e+00
-1.067004779780476344e-02,1.920169774849174171e-01,2.263026345298347675e+00
8.677713873776453646e-01,2.270044732562247480e-01,-3.992070954092210577e-01
-1.654403003509153480e+00,-3.461981366934986148e+00,6.362093404169032462e-01
6.667833139226168049e-01,-1.834263292867478690e+00,2.808508847364996619e+00
-4.251436535723658316e-01,-5.928635853601488037e+00,-9.674805969303086339e-01
-9.769529016887659179e-01,-5.837157393231090730e+00,4.540912117579234963e-01
1.814922997301613994e-01,-4.127826067240279784e+00,-1.851076663328220295e+00
2.260517515608589711e+00,-3.592253826371592851e+00,-1.859497337348946955e+00
2.103132958044763523e+00,-6.645364824094778022e+00,-1.031351178397171164e+00
-3.551458195834287374e-02,1.676358362082979447e-01,2.061624653563411513e+00
-6.039057620687148242e-01,-5.286183085569160944e+00,2.129196229188774936e+00
-3.876305102523601165e-01,-4.155730348067600555e-01,-2.011145291457506978e+00
7.119587448998928592e-01,-6.930525344428234646e+00,-1.431875704597383780e+00
-5.981387273754572576e-01,-6.812766913480305497e+00,1.337930535126885090e+00
-1.192009540669357825e+00,-1.452209568527416783e+00,2.175686368492196987e+00
-1.232115367070844458e+00,-3.733018208339847543e+00,1.619930048637555631e+00
-1.856341491902850915e+00,-9.377733590706017752e-01,-1.664300980858650414e+00
2.861871532863561995e+00,-4.235594113210064293e+00,2.641297239343551873e+00
2.010633894407197531e+00,1.951396836968046500e-01,-1.533658044695527689e+00
-6.986436414048691201e-01,-1.763751735141514621e+00,-1.975388430254192418e+00
2.814527968099999722e+00,-4.127760816532110688e+00,-1.405519775304633345e+00
1.145366737227497600e+00,-3.405799864624699413e+00,2.971569215968211886e+00
2.034599551196805134e+00,1.499669741499599640e-01,-1.797420420130042995e+00
-1.710838152889885500e+00,-1.705606984278202676e+00,-1.116271463525670526e+00
9.664029942949021734e-01,-6.688366093351296726e+00,1.138403936469550404e+00
-6.662826573785233242e-01,-1.219825633066447257e-01,3.940423227419237451e-01
9.300203158394094727e-01,3.311547107730969941e-01,4.987936596663197220e-01
-1.567607872701050689e-02,-2.509831179076098095e+00,-2.276350452804608793e+00
3.372448239094767874e+00,-3.026581069704581406e+00,-3.461922937397930444e-01
3.933063680057184541e+00,-4.565405896999503277e+00,5.546054345779531936e-01
5.875322662986166566e-01,-6.637327002810261334e+00,-1.295270335330626299e+00
3.854549327729428931e+00,-5.484773379698362206e+00,-2.904538206657951704e-01
-1.952973616308896432e+00,-2.251350326140920899e+00,-3.030791699110442772e-01
-1.124488849800540313e+00,-4.789594746430030914e-01,-7.800053777573870972e-01
3.642015876143981146e+00,-3.538941906710173058e+00,8.284641877489097306e-01
-1.895760419537311670e+00,-2.647805868315493250e+00,4.235653346805087205e-01
-1.909365190797030154e+00,-1.317415261732748588e+00,1.391985419772992838e+00
6.137816704060762296e-01,-3.597342408401522640e+00,3.016884933942090896e+00
-1.641662225814037201e+00,-1.039067922011204459e+00,-1.654998228896861434e+00
-6.774117793163032530e-01,-3.354215406856789095e+00,2.541398290809272265e+00
-1.787714498827741583e+00,-2.783029214013755581e+00,-6.824355781052960923e-01
-3.580685232049445332e-01,-7.106280498820832570e+00,-4.163329992483617015e-01
3.119734614760549807e-01,-3.835327521209985324e+00,-2.020680035485479475e+00
1.042035551475145372e+00,-3.185560863502106876e+00,3.053080050273104806e+00
2.111875643377650047e-01,-5.545133635319718479e+00,-1.467731637739065009e+00
7.309705904954556521e-01,-8.746614064403483713e-02,2.506834187203204500e+00
-1.855592277801353607e+00,-2.671562283206883048e+00,3.941794036844929461e-01
1.623596149839715341e+00,4.236870748350647919e-01,-9.859249114349886156e-01
1.831458127946596626e-01,-4.123333639623745661e+00,-1.805615153853813881e+00
4.467835708622377999e-01,2.712736314572038454e-01,9.244975035609558356e-01
2.466958292795158325e+00,-4.537559428442017762e+00,-1.788762552595718924e+00
1.368233655321501874e-01,-6.694764357962903922e+00,-1.193588893425749919e+00
-1.400902804497790477e+00,-1.221164267356054933e-01,6.479537778620929611e-01
1.488744659492585998e-01,-4.507534286457102191e+00,-1.927877297500384168e+00
-1.458559662012696156e+00,-4.126366862683850556e+00,-1.775732009173853765e-01
1.909418093642935688e+00,-2.952015180047042442e+00,-2.100732154911757021e+00
1.275317323112962864e+00,3.092617371805940762e-01,-1.894108087599241097e-01
-5.076144917889009456e-01,-3.628818297542411919e+00,-1.699520293777907920e+00
2.748791330075756267e+00,-2.088194424452004760e+00,-1.207012579594296087e+00
2.831014125420856953e+00,-6.145289140386582361e+00,2.391606070739167311e+00
6.481578399304267768e-02,-4.534366911448223902e+00,-1.640934989622404805e+00
2.594310640519687183e+00,-6.189281829786112965e+00,1.659268248015129954e+00
3.105369748290527809e+00,-1.357746280713553855e+00,8.370752074491681627e-02
-8.521218342909777643e-01,-5.085206552940446656e+00,1.639696213054402829e+00
3.388019101930724197e+00,-2.533504053905796027e+00,8.846062708530965102e-01
-2.419032529373300877e-02,2.895708118526567065e-01,1.451363064802862368e+00
-2.240778486682235005e-01,-2.273954305166748568e+00,-2.145692638148287035e+00
-1.523720917134965713e+00,-2.000172218067267860e+00,-1.387927198326756928e+00
-4.405573868687199246e-01,1.197826648873668437e-02,2.000692000558925709e+00
3.415746295073771588e-01,-4.883757980110348562e+00,2.922333591085856774e+00
-1.174164737494886923e+00,-3.879313021412504447e+00,-9.467004058952022127e-01
2.961900264380511683e+00,-1.224492542027053821e+00,4.542972350896050115e-01
-9.343481259504976544e-02,-1.406996176391613618e-01,-1.270754093752920477e+00
2.341114437828942574e+00,-2.579651110385603019e+00,2.423451323771327548e+00
-2.348720800783720974e-01,-4.961757667129865546e+00,2.677686921555056720e+00
-2.686673810781217142e-01,-4.719269935305447916e+00,-1.425435586629159479e+00
2.191793267261210154e+00,-3.425102873274939785e+00,2.687584813651141324e+00
1.659185520372857825e+00,6.340815062142731717e-01,1.794370911945780689e+00
5.006907861223443001e-01,9.129238742840700693e-02,6.206807220251208124e-01
-1.198576505154414829e+00,-4.063000050036682964e+00,-6.058256576798254356e-01
4.067476004810140822e+00,-5.986782681343664869e+00,-3.544007117137109031e-01
2.859444673461178699e+00,-6.297754193109148524e+00,-2.565060934811544402e-01
2.188907413187109796e+00,-3.635415611338085107e+00,2.801120937252867815e+00
-8.662449323250170918e-02,-3.221327718934968942e+00,2.831887613639787915e+00
-8.920739603683759400e-01,-4.176330610970583557e+00,-1.132440409499801737e+00
7.769930497501292832e-01,-3.422851336026465852e+00,-2.053539138198980929e+00
-6.585002892036276867e-01,-7.123693678317242650e+00,6.835684393342389420e-01
1.884035465977764279e+00,-6.398861237867309981e+00,-1.717462172523834818e+00
1.319229988847579804e+00,-4.064087279528613372e+00,-2.019107954929325821e+00
-1.380367631134018946e+00,-2.342553171187411465e+00,-1.475060901165522242e+00
4.095493334940079611e-01,-6.707789091835572926e+00,-1.381676918983737901e+00
-6.219006515800379331e-01,-9.945061277865373528e-01,2.519011528776622821e+00
2.480908642775016659e+00,3.019636622018254668e-01,1.156420654723766983e+00
3.381450693967627874e+00,-2.457993490099354528e+00,1.771092027209430764e-01
-1.553284103462816867e+00,-3.872752900739655502e+00,1.143104277644806516e-01
8.367352769760131315e-01,-6.628719038225035831e+00,2.210333645500348165e+00
2.391806782516397778e+00,2.848127471556333723e-01,7.100238313830363746e-01
-1.483703247668102021e+00,-3.831472686313976084e+00,8.725145466441466269e-01
9.260822237193714335e-01,-6.744344606261675423e+00,1.646905683779710250e+00
-9.687150050674118162e-01,-3.143363350853773497e+00,-1.426693329425380741e+00
-1.504650282134104566e+00,-4.400354249910559679e-01,-3.616726574345367484e-01
2.386514938241341088e+00,-5.366938152022795450e+00,-1.737917600655774386e+00
3.445594999556712779e+00,-2.887785286425586406e+00,7.747273364684610641e-02
-5.910965470685094481e-01,8.276184962293892111e-02,2.047606022518598134e+00
2.643023665082935736e+00,-5.804771194012806612e-01,-7.292034836848265700e-01
3.585623763706941719e-02,-8.906824118374059851e-02,-6.556588750296820090e-01
2.022237683854996693e+00,-1.020341701289700698e+00,-1.776788655178450860e+00
-2.292664149778266491e+00,-1.173666433674523057e+00,2.615453205943989515e-03
-6.474068425447926378e-02,-3.373947024129572814e+00,2.563831473735195043e+00
-2.030427462650160331e-01,-6.813867769161949361e+00,1.755715896026837086e+00
2.389696177944657940e+00,-1.239450074651657907e+00,-1.339734079578222659e+00
3.613882591062455241e+00,-5.592173880708172007e+00,-9.472470311197042081e-01
3.310167824638524658e-01,-7.052941669448649975e+00,-1.516552020899052111e-01
3.248704110570598935e+00,-3.567211291045504495e+00,1.996265827679403637e+00
-2.262520817716669796e+00,-7.287246571842701526e-01,1.219311595268115500e+00
-1.234150803624088216e-01,-4.553370644272990653e+00,-1.674234502539398095e+00
2.630527304117558973e+00,-6.089544190410280944e-01,1.217122489954906905e+00
4.071806936926188669e+00,-5.973602707987987870e+00,-3.126593067005271620e-01
-1.856235372735592082e-01,-6.856600470065407293e+00,2.204720185792548026e+00
1.276269115599097281e+00,-6.484208347613704682e+00,1.597031984179244191e+00
2.906832557744424506e+00,-5.948609604232500958e-01,2.378040570966019063e-01
2.114541923639662535e+00,-5.757205154917375722e+00,-1.780512959705352838e+00
7.088984914873933674e-01,-6.310637377274445292e+00,-1.760981804027522468e+00
1.337255545757106701e+00,-6.899969278433470521e+00,-2.912282896116705766e-01
1.454294491901994002e-01,-1.522774832175942006e+00,2.904480364967876760e+00
8.634122447503070896e-01,-3.007757101937743816e+00,-2.141244651447219649e+00
5.813152650877561056e-01,-4.866678920116956242e+00,-1.819869087477308467e+00
2.165416807288591983e+00,-2.268076308734294333e+00,-1.848403073000924657e+00
3.155498936974994617e+00,-2.607226210636440555e+00,1.588167115644649741e+00
2.141708948814745828e+00,-3.736979114925527146e-01,-1.503906966463465444e+00
-1.732173709578933574e+00,-6.045847034464348901e-01,-8.015896859977140743e-01
6.693427401909594066e-01,-4.313926384136211323e-01,2.609682997277417815e+00
3.826956012313249111e+00,-4.095433932184574743e+00,1.111177907145838528e+00
3.501051015592245186e+00,-6.137744995307172324e+00,-5.066828583850734313e-01
-1.308842848480880505e+00,-4.150622908475567030e+00,-7.496343155590413643e-01
1.750456774105835889e+00,-9.360267411770334389e-01,-1.941357383402482206e+00
2.733317361297987080e+00,-6.032697922630116949e+00,2.731076972499144606e+00
3.179470292031369105e+00,-2.323861083202719335e+00,-3.072965967494760142e-01
2.995982816987319275e+00,-6.178779565328482271e+00,1.827040120305787330e-01
8.110220081431450678e-01,-1.273075543741423177e+00,-2.363255205576972884e+00
2.109242838424790545e+00,2.807504451805494239e-01,-1.437438032713361347e+00
-1.884747676602473998e+00,-1.688929954591388505e+00,1.427733866092086634e+00
1.901800504433892369e+00,-6.484707321142940906e+00,1.111250808660215528e+00
-9.311436813069829954e-01,-5.968401915977615602e+00,3.448977808125299749e-01
2.625053649342804496e-01,1.801818251038962149e-01,1.062804384009801567e-01
-1.115893887274933327e+00,-5.348953255715930943e+00,3.361361655670043747e-01
1.198070903351984740e+00,-9.241518057004045605e-01,-2.269411913723994090e+00
9.854928576278223495e-01,-4.456050295801079919e+00,-1.975365024857939744e+00
-1.001542076152774241e+00,-3.420732359373379161e+00,-1.211684766201430508e+00
3.346763729334556459e+00,-6.043519639671891319e+00,6.544359511131658813e-01
2.937876460669968659e-01,-4.778995745831212005e+00,2.918537621242541125e+00
1.871988635876390639e+00,-4.862297312326767873e+00,3.062211034308169211e+00
7.457273428892705613e-01,4.420872421569820299e-01,2.114241645718594853e+00
7.445612547128752645e-01,5.062098843438631590e-01,1.408766788619453925e+00
3.472943494432014333e+00,-3.334097707464461102e+00,1.448029315116066806e+00
1.521916993757879810e+00,-3.161795444467955019e+00,2.914437297744703947e+00
-2.405744283167951636e+00,-6.689989291889434364e-01,-2.300314478952467101e-01
3.113850989693688120e+00,-2.905329023374040531e+00,1.746384423308567024e+00
-1.058463151958580761e+00,-2.019244390740085660e+00,2.158853371587158065e+00
-3.058987151586977649e-01,-6.196920833656399674e-01,2.664871797301829215e+00
9.775510057757642590e-01,-6.364510927618217906e+00,2.992819595572964175e+00
-6.645201635834797615e-01,-8.738296764170061862e-03,1.765327126097546495e+00
9.224093363407059876e-01,-6.160638054031007727e+00,3.171772142450242082e+00
2.336804205353302244e+00,-1.765395089767585857e+00,-1.657315452540197409e+00
-9.877765904259113716e-01,-1.669763576412804928e+00,2.339427874653112305e+00
-1.251118087220176589e+00,-2.727291235983880791e-01,8.484752751247788272e-01
-1.707793151805510057e-01,9.037842735705237107e-02,1.159578584029809400e+00
3.476087246473329895e+00,-6.067411123390090033e+00,4.575342285399524589e-01
-1.274951285291385572e+00,-1.433430973985940771e-01,2.269347893998651333e+00
3.470745377700571455e-01,-7.316502888690583628e-01,-2.451888598037215150e+00
-6.451898460120132628e-02,-2.618176805087047213e-02,-5.278958038094289096e-01
1.664299069662342534e+00,-5.606079677210082934e+00,-1.841877676192150037e+00
3.191817144015867136e+00,-5.733694124569896466e+00,-1.439892740129498749e+00
2.949494246894311278e+00,-6.249770199279220506e+00,-7.584791492407025881e-01
-8.796788767379748464e-01,-1.652836629324753615e+00,-2.025955137244735749e+00
2.650227585682185083e+00,-1.694216071780215715e+00,1.736813407313375412e+00
2.289635033566480349e+00,-5.585863468313415403e+00,-1.803357719040370233e+00
-1.174787771430755301e-01,-3.779897902820194222e+00,2.779671286978997014e+00
4.601375263022191480e-04,-1.342261137193763165e+00,-2.479314383130903909e+00
1.671859598983777007e+00,5.594565476595469988e-01,1.280411213438921836e+00
2.492452371643025355e+00,-6.409354936583333995e+00,-1.641387318438687570e+00
2.271240683613827915e+00,5.260439701670257540e-01,1.156584413991735394e+00
-1.144856519962351049e+00,-1.547871324148793137e+00,2.329967580789420456e+00
-1.049276908333144132e+00,-5.149659136446365970e+00,2.565348889961249212e-01
4.460765038508131552e-01,-6.909946302200218327e+00,2.879983896046631742e-01
1.468644157777152737e+00,-6.091390743691767362e+00,-1.874298451153243894e+00
2.688807964685686169e+00,-7.690869681734242569e-01,-8.006651979110522843e-01
2.521039407737912796e-01,-7.093368561606604672e+00,5.981200981052738896e-01
1.329135802650977416e+00,-6.358143532357805938e+00,3.034994112942243305e+00
9.677948890081222721e-01,-3.660934158736141697e+00,-2.035569123927728263e+00
-2.379754694313312768e+00,-9.338098210911980335e-01,7.125649629812664809e-01
-1.222025061486345709e+00,-4.523218848452642327e+00,1.093038175705077331e+00
-1.131402983764430825e+00,-4.527406680751951740e+00,-7.367833165994799316e-01
-6.395371275406556144e-01,-1.418102812311523353e+00,2.531518854420060638e+00
1.422833283240383828e+00,-1.241557965336631542e+00,2.561645054385091491e+00
3.504763843991388406e+00,-3.549248288965617615e+00,-3.772668992597145166e-01
1.983679399754386896e+00,-6.681833478804565907e+00,-1.668948308320099994e+00
3.368998767162543206e+00,-2.625339720140119848e+00,8.301630503461958632e-01
2.810027171827123915e+00,-6.188904539140618333e+00,5.653925705583976447e-01
-1.280147179808276858e+00,-2.575617334194541641e+00,-1.397552118994830117e+00
-1.681914885310103136e+00,-1.800439738331869766e+00,1.536278264098988711e+00
3.347969478794956988e+00,-5.251986298354512250e+00,-1.055398722379608190e+00
3.576577904538820629e+00,-6.056269412388835427e+00,9.767901258196727554e-02
4.106279950714853300e+00,-5.780795141012884386e+00,1.557967729603685791e+00
1.671590058125351996e+00,-2.452765836112354769e+00,2.771284506804614800e+00
1.795465682279816511e+00,2.198344283839562818e-01,-1.869098070338762740e+00
-6.999042176409341343e-01,3.785427721052726791e-02,1.041165114427045735e+00
1.598248595390380222e+00,3.414166722078949001e-01,-1.058854070733627806e+00
-2.587510192106320939e-01,-4.504344634505511813e+00,-1.559343459281114397e+00
1.188346138349952508e+00,-6.261867913209261616e+00,3.393011008719960753e+00
3.627274371648366191e+00,-5.751812713276466482e+00,2.240836105488088759e+00
-1.046726698785333864e+00,-2.120638033238613218e+00,2.206197978552359107e+00
1.458041922826965209e+00,3.554601910648032548e-01,-5.443865260803931738e-01
-1.211523582685053890e+00,-5.317028284965602758e+00,1.318370978673532312e-01
2.145077933845920271e+00,-4.695957696020122363e+00,3.057073606054513615e+00
3.638742911810383673e-01,-1.829834545760628206e+00,-2.495884290618457513e+00
1.554808732081262912e+00,-6.543990767667084540e+00,1.653612855232787116e+00
-2.259169488414862315e+00,-1.650019347356223465e+00,4.324846560705771781e-01
-8.158521373366398599e-01,-4.699786899766026593e+00,1.971625047532546526e+00
3.091201495310834879e+00,-2.646212248557661351e+00,1.674960106011260441e+00
-3.854612416220358773e-01,-7.081589989338601399e+00,1.008199144600328445e+00
6.642154387478090838e-01,-2.061263166301249505e+00,2.772697241362800824e+00
-7.773728058519762119e-01,-5.034583959905901018e+00,-7.661329079980946366e-01
-2.451296889062117845e-01,-9.141893760946338821e-02,-6.449573311880874016e-01
-2.050400261161720916e+00,-3.720530700624971043e-01,1.434965826220351515e+00
1.771130640804780665e+00,-5.327380536040648984e+00,-1.944383515189293421e+00
