-2.022670648026625440e+00,4.147842326123413192e-01,5.848784774117965490e-01
-3.914725531780944290e-01,7.843802129280527113e-01,4.277125551866068909e-01
-2.148744377030043839e+00,-1.020952957290177654e+00,-5.537113911118471954e-01
-2.423519380588570193e+00,-1.033466561603968659e+00,-6.268912709218144030e-01
-2.559555089680138895e+00,-3.087429691337421622e-01,-4.856635136791875307e-01
-4.004457798132082802e-01,3.929339519507236145e-01,8.246230347659159188e-01
-1.348910189611960853e+00,6.673095334506179421e-01,2.368465993526686908e-01
-1.476197145043969261e+00,-1.204986582216384661e-01,-8.140997677695090973e-01
-1.490254985899737983e-01,-7.449802870711457192e-01,6.438094987078692988e-01
-1.376787066043971608e+00,-1.105840295049203892e+00,3.248686968633516248e-01
-2.577881689759713879e+00,-6.202848103171320487e-02,-4.227407652851170733e-02
-2.485217021481682220e+00,-5.213558847794811379e-01,-7.972121025959459928e-01
-2.149787029858436060e+00,2.790657568937957578e-01,7.460770646105235882e-01
-2.459452260203349283e+00,-6.395189825986601351e-01,6.062668871006342552e-01
-1.285382184901101787e+00,-1.052401994654470707e+00,4.851044362906629104e-01
-8.959565755612287630e-01,-6.301790558492749439e-02,9.687912324989704782e-01
6.682130650315211418e-02,-3.849692936353629746e-01,-6.285354866635299853e-01
-1.254705021176380830e+00,5.995487101375591710e-01,-3.398082466649300359e-01
-5.669130573633142101e-01,6.864372830070153420e-01,4.917061780849005248e-01
1.155591887968629161e-01,-7.622107850962102082e-01,2.181116848283387866e-01
-7.131967975088797373e-02,2.821933308375826344e-01,-7.169929061599608078e-01
-1.717791527735951673e+00,3.228487526073419711e-01,7.821381013839662222e-01
-2.506540304271677844e+00,-1.168259470025333896e-01,6.786527067399168445e-01
-3.953732695810436848e-01,-6.940700689912513432e-01,6.911754847752870079e-01
4.701823965838778513e-02,-5.878497080165762112e-01,6.706671920904565543e-01
-2.383693967653742529e+00,4.160731210680718162e-01,5.685624739934691529e-01
-9.516923197879469110e-02,5.999960462574311926e-01,-1.644379589730705915e-01
7.962567011740726008e-02,-5.377115247938267784e-01,-2.599991020248332840e-01
-1.451644956564136724e+00,-1.140473046769556964e+00,2.032187570211418381e-01
-7.155766695839675950e-01,-1.021978420320585945e+00,1.698374534999829710e-01
-5.099377200548512734e-01,7.805210974888975306e-01,3.573483829083956564e-01
-1.228826160777898968e+00,2.710769527341079232e-01,8.553249875074219188e-01
-1.799974612251971751e+00,3.457487104762974051e-01,-5.516138722120167426e-01
-6.255747759899805693e-01,2.621199686004552221e-01,-7.618069761431192077e-01
-4.554345783777127288e-01,7.585927640596874522e-01,-4.157253620818261997e-01
-7.328436747644062610e-01,-1.011909955011095263e+00,1.897677384691760505e-01
-1.530364394495438818e+00,5.610429968191249506e-01,4.654404925847599461e-01
-2.639663581115984758e+00,4.552097068292192961e-01,-5.349292166720068242e-02
-2.611823769590365441e+00,2.344687488563596267e-01,6.274613477855435217e-01
1.127082182294627533e-01,-4.213533179085299785e-01,9.927324579759079504e-02
-2.177602970321833808e+00,2.888620112217846758e-01,7.713669376522400700e-01
-1.199450253630177654e-01,7.396966456556377523e-01,-2.353335701578732619e-01
1.191175640310026956e-01,-7.750469696028261524e-01,-3.567852381674507800e-01
-2.504884042561115631e+00,-8.170873479420299734e-01,-2.913107289209798112e-01
-1.312853964338127621e+00,5.901229436882988733e-01,5.587576358723652659e-01
-1.304796087825335293e+00,-1.064161119403064681e+00,-2.466650099812573993e-01
-2.576923173052648064e+00,1.568782795901163818e-01,5.554038940675729563e-01
-9.414161202865442557e-02,2.859487207238975426e-01,-8.443401842964106674e-01
-2.384787353515248343e-01,8.396864764996114783e-01,-3.059316067787696825e-01
-1.597206085691708077e+00,-1.160888965767933101e+00,-1.245799077555192480e-01
-2.244536445482888887e+00,-3.113815554213757997e-01,-8.023133781986103719e-01
1.049392457092229586e-01,-2.498354427917756082e-01,4.315327503845635126e-01
-1.368146496517525179e+00,1.787753049275543626e-01,-7.637338250899150527e-01
-1.102234750697055121e+00,7.463646352492532277e-01,-3.861121415595721029e-02
-8.071818406679936997e-02,-5.141417054656700902e-02,-9.250087323330729028e-01
2.305562980181066757e-02,9.578598078937632099e-02,5.649695287035801927e-01
-1.957132586658818951e+00,1.212436056268282603e-01,8.851905578419575482e-01
-1.968604390653657665e+00,-1.823136355627709426e-01,-7.993789424390841392e-01
-1.030232025632850990e+00,-2.137176564685381586e-01,9.633962897102184009e-01
-1.881175067047762273e+00,-8.591647967214817438e-02,-7.896297243268355359e-01
-2.021369879692910487e+00,4.586203318039648313e-01,-3.824463174510333574e-01
-9.185969369787758687e-01,7.633065827943494863e-01,1.934525630595370638e-01
-2.581415765544963214e+00,-1.660690251952033625e-01,-4.096517016199267558e-01
-2.542903450722765246e+00,3.708939162299399461e-01,-3.759675150236383989e-01
-2.358401015955231106e+00,-1.221936286223811008e+00,1.665401395628069436e-01
-2.286720796105094600e+00,-1.034007448542970220e+00,7.499278803806547211e-01
-1.724096300743038102e+00,5.841735781274407513e-01,-1.920839661486953565e-01
-2.379059174279307687e+00,3.445977780409381630e-01,-4.479076227651354047e-01
-1.280389915752571994e+00,5.801984986672190647e-01,4.692262215631953226e-01
-2.134087732731793530e+00,-5.147181111980400070e-01,9.981915422724351172e-01
6.631010582630270968e-03,6.007342046310319011e-02,1.918606387879227826e-01
-3.630991621833816463e-02,2.841881114676562958e-02,-8.617810152973331972e-01
-1.288695438551497929e+00,6.553788385369921921e-01,-2.609951296929028386e-01
-2.465209459253694113e-01,-5.212821700412260117e-01,8.318924269774135016e-01
-2.077449938802482521e-01,-8.378651404140035064e-01,4.858230787163442810e-01
-2.604600458242549266e+00,1.222237317257267655e-02,-3.743151776118762708e-01
-2.011124131470193976e+00,-4.955491943953066469e-01,-7.807249773482191069e-01
-2.408455308854215549e+00,-9.726423192526992834e-01,5.960295061243915393e-01
6.611532659966820602e-02,-2.552006861143168992e-01,-3.905095407132148227e-03
3.294263433848985956e-02,-8.947085340249690821e-01,-1.016717652120671112e-01
-1.573340063643543063e+00,-7.801139347257719792e-02,-7.917020949149862208e-01
-6.771141210599794791e-01,6.825121125757012408e-02,-8.808840187083637474e-01
-1.116522054234853956e+00,1.006309813316095814e-01,-7.800207818753233102e-01
-4.535957611305622694e-01,7.436924678682949041e-01,-3.176571867689209627e-01
-2.177699789440104894e+00,2.879015406737535018e-02,9.288324368889487870e-01
-1.320233502125382374e+00,-1.759101578001752153e-01,9.512929309371392916e-01
-1.023162755391880285e+00,-8.563795744966019585e-01,-5.903029563181444450e-01
-1.813487600257958521e+00,-4.124045374908513750e-01,-8.162046132553206768e-01
-1.970380253164180973e+00,9.518049049610143031e-02,9.305848490482416802e-01
5.617034598947390905e-02,-5.039783808283727629e-01,7.380528562443370300e-01
-1.656176899762773047e+00,6.105515097991396356e-01,-2.012447034080248887e-01
-5.905707066344454415e-01,-1.009525177884852187e+00,-1.658884619029683261e-01
6.585417806485788228e-02,-4.575652461380319003e-01,7.650780121984879223e-02
-1.483236505801285576e-01,-9.381755778113716193e-01,2.445141671516331550e-01
-9.482165125125298077e-01,3.543564501930520638e-01,-7.026178969302797617e-01
-1.570963872229297786e+00,4.004249333554530388e-01,6.845635837848035310e-01
-6.117701742237392493e-01,8.321794447243959780e-01,-5.364739777747414007e-02
-2.181941776040733583e+00,4.666940747788791977e-01,4.221544813513709027e-01
4.649435449840254309e-02,-1.882837636512983970e-01,6.756570264801891046e-01
-1.416902565244522183e+00,-1.148917291071867908e+00,1.913249993018804607e-01
-1.027314413939566018e+00,-1.067986810084122551e+00,2.778450061918187330e-01
-2.288818341053695526e+00,-1.073312748767734526e+00,-4.752694783352776620e-01
-1.725766033655715237e+00,-1.202339022672382240e+00,3.391044506581852858e-01
-1.293108989012347054e+00,-1.093887919499877182e+00,-1.552048748571006331e-01
-4.416265155978086332e-01,-8.333410659749839189e-01,5.315459146020328207e-01
-2.444052518885284075e-02,2.326624601035961470e-01,-4.064212086163896398e-01
-1.353937615193713251e+00,3.771605122586884073e-01,7.256449545860742534e-01
1.150682045391724639e-01,-5.719863264399241976e-01,4.879348344978696184e-01
8.774044180338720633e-02,-4.274283293971786746e-01,2.570865540675618677e-01
-1.571743271846922196e+00,-1.856288580265243737e-01,9.702792320607234178e-01
-1.254116494852709041e+00,5.954009880076025496e-01,-4.319358853662018660e-01
-7.939001651494924650e-01,6.205242026348262163e-01,5.253057247314361078e-01
-1.636798314139717325e+00,5.978186620161007880e-01,4.056963706347663234e-01
-1.885100739128068303e+00,-9.107577721595481179e-01,-5.651733202578990145e-01
-3.283129600644181800e-01,-5.090790093026812402e-01,-7.826050132097270851e-01
-1.676249778961633741e+00,-1.084029562568844307e+00,5.387349442186547543e-01
-1.114145058601491378e+00,-6.535514960484379854e-01,-7.068358118891110431e-01
-4.027521486626458591e-01,5.032431096767004952e-01,-7.376694240550502046e-01
-2.525169032819034154e+00,-4.476499254337393263e-01,-4.096149346334370112e-01
-8.664093101470511371e-01,7.406809511222355313e-01,-3.382375414156836291e-01
4.290256133777618427e-03,-8.226798631926005578e-01,3.379186963558137302e-01
-1.386802016982851216e+00,7.065216838826839929e-01,-4.817414155850432977e-02
-2.515733510386767513e+00,-5.889052033286887866e-01,-6.468360592459081460e-01
-2.421458229629686265e+00,-1.038754942637836631e+00,8.359144388436914874e-02
-2.640349605531552513e+00,1.913376020935570743e-01,-2.756465807727216943e-01
-2.649652378685179777e+00,5.092686725511295087e-01,-1.181114942051922773e-01
-1.471047940451330138e+00,-9.944481879060520502e-01,-4.333549398928230323e-01
-2.613620582987542740e+00,5.095281235431070588e-01,1.301679128386007966e-01
-1.384822041262732562e+00,6.889134598088109129e-01,-1.145950128284924791e-01
-5.679981718014524006e-01,3.948629783045706221e-01,8.134799124711489249e-01
-1.384821042164376514e+00,2.126761221516608180e-01,-7.557692781463093423e-01
-2.439458422508890223e+00,-3.833700561250056316e-01,-7.981593843611287653e-01
-6.543786272759078981e-01,8.340360687378215454e-01,9.302572352175204895e-02
-8.148023825315088287e-01,6.981364936864364878e-01,3.609800074630479250e-01
-2.357102394652461630e+00,-2.302773969348676786e-01,-7.880656585635351652e-01
-2.620836716156106583e+00,4.292788219074042400e-01,2.331863247770201986e-01
-2.604209679226781926e+00,1.227647973741913118e-01,3.150090176974167933e-01
-2.106436586365053598e-01,4.897185081910510052e-01,7.902379272690454037e-01
-1.186299248332659317e+00,1.269561579299434695e-01,-8.115503817382052620e-01
-3.269005326473947443e-03,-2.303461815181022943e-01,-3.665554112016329857e-01
-2.158977399582614698e+00,-1.052856917044049379e+00,-4.637377590802171934e-01
-1.823862136279696511e+00,-5.405405496524754438e-01,-8.296469522539811070e-01
-4.133825524070360302e-01,8.666891580439558540e-01,-9.572678272820599188e-02
-9.058171607551004575e-03,-6.752895003876352442e-01,-6.381430294853421836e-01
-1.546017688875200635e+00,6.769184550926311550e-01,3.144038963165298184e-01
-1.849448322584469562e+00,-4.162191841257433800e-01,9.825133368274853174e-01
-2.586211797271031898e+00,8.368875453017284027e-02,-2.853152750740438059e-01
-4.106398060028773611e-01,-1.001705862450416040e+00,1.898879318287734486e-01
-1.022537946966530331e+00,-3.264166280420335298e-01,-8.490276041214294134e-01
-2.594072309753850281e+00,-2.068534354171001899e-01,-3.211120954608131517e-01
-2.065737126773198540e+00,5.404617148157682127e-01,-2.253852825545388516e-01
-7.328698099394624632e-02,3.288067038845813306e-01,-6.710291112136398395e-01
-3.054142341936361693e-01,4.029023041603249644e-01,-8.304258206064729642e-01
-9.857864232940490856e-01,-5.019427990267195661e-01,-8.068828072570145560e-01
-3.918741206544383848e-01,-5.121559629558640747e-01,-7.862957048817481587e-01
-8.996808109627562056e-01,-9.865069370813791538e-01,-3.866533458722308803e-01
-1.916924660796987423e+00,2.707687966696548099e-01,7.783019918819075178e-01
-9.099884415347084810e-01,4.947035148983294772e-01,6.735019215148346783e-01
-5.921767335668589594e-01,-1.013739584799579374e+00,2.325506153918531216e-01
-1.758074440091871748e+00,-6.620613972763834676e-01,-8.045189822444851480e-01
-1.997508814205782857e+00,-1.218136311158227958e+00,-2.048803210573304535e-03
-1.423823159474025601e+00,5.965576662218033954e-01,3.924558509142287988e-01
-9.587774969291654736e-01,-7.169212528201079904e-02,9.121414274069146177e-01
-2.391800204728050883e+00,-1.154726494454793029e+00,-1.442779834070327394e-01
-1.863994293750229847e+00,5.866935559062641525e-01,4.230608155428783324e-02
-1.344284056987981868e-01,7.603009887852414384e-01,-2.045195864205282543e-01
-7.098483072429170315e-01,-1.035236724132921893e+00,2.026374635580019401e-01
-5.440224632161512197e-01,6.318406955777670087e-01,5.900874425395749023e-01
-1.612575587389295073e+00,-4.606111769929620570e-01,-8.308075778868015959e-01
-2.672015100003374055e+00,4.023560418827475949e-01,8.046707003401361302e-02
-1.893114685807653963e+00,5.411796034777598408e-01,4.658956856393465240e-01
-1.593285241083620463e+00,-9.891702295668379774e-01,6.276559201731325421e-01
-5.650093447333842667e-01,-1.014734337329268321e+00,-9.516049421121386409e-02
-2.566495886668306969e+00,-1.417607109873068871e-01,-2.532661288822806722e-01
-5.854536886955281627e-01,8.110128771801361491e-01,3.099392674294436378e-02
-4.519496534690983086e-02,4.323228006611884444e-01,4.291112518648314555e-01
-1.318921130393545083e+00,-5.735579674185292687e-01,-7.722009985955184952e-01
-2.041622296157696859e+00,-3.971811246131914386e-01,-8.258424031962451339e-01
-1.642474101335889225e+00,-1.060898479235358405e+00,-3.435036357823547659e-01
-2.552590663597857468e+00,6.864586985813567188e-02,4.468079685117662958e-01
-1.730223400093213293e+00,-1.149158364350276740e+00,3.564025485565617823e-01
-1.139303171981964402e+00,-2.073708216940697013e-01,-8.296503603398995841e-01
-1.563583669670136067e-01,-7.605381390398000541e-01,-5.011084307072241062e-01
9.790401117160634284e-03,-6.748502436100033419e-01,-6.286511057961592375e-01
-1.473262302204350283e+00,6.172207002361899120e-01,3.794191366330670334e-01
-1.219193861011228730e+00,-1.108674004717647987e+00,2.551730620687084339e-01
-1.264588656703559577e+00,-5.911516451401871430e-01,8.934756891459663120e-01
-8.686874062230567906e-02,2.180052071470952313e-01,-3.746654875216982594e-01
-1.079323548232025282e-01,6.253146883756145469e-01,-2.727614099386362345e-01
-1.182669520603847335e+00,-7.722465940895016923e-01,8.224015508575818201e-01
-7.584568501634032511e-01,-3.380606290498363448e-02,-8.629134678015546456e-01
1.229954002248265510e-01,-7.123007460192629647e-01,4.695086796984616617e-01
-2.253566975591783983e+00,-3.033640841681851663e-01,-8.071380955762993414e-01
-1.217185601487899671e+00,6.596903997039749168e-01,-1.596901519574815131e-01
-1.086150633776481689e+00,-1.123131707831258153e+00,2.108694151267664907e-01
-1.208475916234471453e-02,-8.886040490514371948e-01,1.408667806204680073e-01
-2.039259603518773112e+00,4.976457579713033375e-01,4.199635712996631631e-01
-2.552935338209434413e+00,-1.342738264394274794e-01,-8.123610892128999006e-03
-1.913174588296332468e+00,6.210588890006510931e-01,2.373194935265320604e-01
-2.695230404580877676e-02,-4.771675819746280106e-02,-8.636640468022934725e-01
1.114561012011004021e-01,-5.845622544955905164e-01,1.363996443048243190e-01
-1.293661105178755433e+00,6.925791753910747195e-01,-2.485152754696151045e-01
-1.708638910355110507e+00,-1.208452401057790615e+00,8.759506811314539398e-02
-1.619326510779812267e+00,2.930930832343192627e-01,7.989845956017015416e-01
-2.343280418812955013e+00,-3.331347073889338178e-02,-7.504663975808624210e-01
-1.779874871120492363e+00,-1.241830952509839214e+00,1.822393324670497639e-01
-8.303401801128442727e-01,-1.265524797094140230e-01,-8.691455870715142362e-01
-1.430840390945496310e+00,5.001764977289135938e-01,-4.996206475753554588e-01
-1.347413310606307535e+00,6.314698046722613256e-01,4.357053320443506905e-01
-1.884171125369733524e+00,4.278651210991332166e-01,-4.490306901533206996e-01
-1.303820905549326836e+00,-1.987022068901069249e-01,-8.731000904974796084e-01
-1.628795410981874081e+00,-5.598855153394470818e-01,-7.966769854113534555e-01
-2.064518808077984602e+00,-4.775762601175301270e-01,-8.422752649053129037e-01
-2.155875863029161899e+00,-1.308069741895597549e+00,5.015891645432167534e-02
-7.191560377318237940e-01,7.084259984953634737e-01,-3.486933340000508141e-01
-2.424118243679868279e+00,-1.015332923608665894e+00,-1.817755528177244784e-01
-1.765849456867465195e+00,3.938072476378699505e-01,-5.184943475915432254e-01
-2.014146829534445793e+00,4.831781122281555985e-01,5.205604410528996695e-01
7.771528611095289418e-02,-1.993762357890938031e-01,6.021999576365071050e-02
-2.443153698655136097e+00,5.288129238234094975e-01,5.263204919388431331e-03
-2.565712480582313937e-01,7.019989527782839467e-01,5.892127006665268674e-01
-2.414809295173455883e+00,-8.117709088042605048e-01,9.364121910816511907e-01
-5.716142786265283604e-01,7.988063539575854799e-01,1.166929852858533071e-03
-1.152577732426224522e+00,-9.433038626928688108e-01,-4.100467874333686424e-01
-1.688003145338207833e+00,-3.238958444933274783e-01,9.385474821486436969e-01
-2.372114008984111511e+00,-1.070253187796333272e+00,-3.031788438829183252e-01
-5.801732914197803570e-01,-9.729950383186648510e-01,1.733067384376523745e-01
-1.852786231459745414e+00,1.791748966779600216e-01,-6.731828708033901210e-01
8.468747405132676098e-02,-6.340644808844907443e-01,4.912594330345539384e-01
-2.295486068770427046e-01,9.111723196943569691e-01,-2.072415083409523684e-01
-2.934168014364244570e-01,-8.789717885521547425e-01,-3.658607121304355836e-01
-2.622502080596342822e+00,7.635263415391223274e-02,-3.581729550750197832e-01
-2.640565837517343972e+00,2.484861849244477117e-01,-4.798879749545021944e-01
-2.530366435347191523e+00,-1.625375922229955680e-02,9.392168576933742630e-01
-2.183478431400582398e+00,1.228603307076493387e-02,9.684536370604800437e-01
-1.200245002450133436e+00,-1.086170878864131106e+00,-1.105744415804066627e-01
-1.439468737625671180e+00,1.209614293873855079e-01,8.799202713371525597e-01
-4.920696183754989517e-01,3.791342566403628767e-01,-7.655407674672843887e-01
-2.467808610165395322e+00,-7.538711295910065502e-01,-1.445745965940669897e-01
-9.882094325712572624e-01,-8.956280242674322656e-01,-4.797015714927920227e-01
-6.407725211122028419e-02,4.049506732906278383e-01,8.058323726298723955e-01
-1.590674441902289349e+00,2.455300927847134732e-03,9.370079148721621731e-01
-1.029224893338325231e+00,-4.284634058840934290e-01,-8.075179664494904763e-01
-9.523908063182979777e-01,-5.125264192474325853e-01,-7.955771458987660472e-01
-2.197332138449619165e+00,5.423082809262299575e-01,3.506421318682114707e-01
-1.416293748377838391e+00,-6.696960050429752176e-01,-6.983100678793003890e-01
-2.635899824054261487e+00,2.670315909816987632e-01,2.203802906310261267e-01
-2.245724176806305650e+00,-1.268577160182712049e+00,2.626964029027796799e-01
-2.299465623125895419e+00,-1.235738847138913243e+00,-1.889523917181294421e-01
-1.997111442313924956e-01,-7.275965302218655451e-01,-5.851958563214049169e-01
-1.634605054120525036e+00,-1.109203268576021140e+00,-2.551259391196492587e-01
-2.311017129182261876e+00,-1.182420380749181765e+00,-3.516665019448254048e-01
-1.501886802643754848e+00,5.062353546417798222e-01,5.709021377630907335e-01
-6.765334386074192130e-01,6.805442179936600500e-01,-4.600180383019376040e-01
-2.576735418587112747e-01,-6.513003821354466094e-01,6.730270554040802544e-01
-2.053048621208538815e+00,5.694122057701271888e-01,3.608481886010326406e-02
-9.708578658298087083e-01,-2.006014837102952034e-03,-8.744374074291277887e-01
-1.574528310315876700e+00,-2.546032051862145429e-01,9.885961523093945713e-01
-2.573165323306444652e+00,-2.461066826066540814e-02,-3.548033132452985683e-01
-2.887415173206302477e-01,8.835379388660938860e-01,-6.168904791234174068e-02
-2.777714736841668114e-02,2.540146647729102369e-01,8.698401553382909546e-01
-1.382228273458291357e+00,-3.709349879059044008e-01,-8.326413376330721317e-01
-1.102624093131462590e+00,-1.072023212653461455e+00,2.279394882725532812e-01
-2.218780623356956028e+00,-9.951918228307906622e-01,7.244468882828971612e-01
-8.613145398399567609e-01,-4.651507681426638730e-01,8.851752833955379707e-01
-2.023373081233108994e+00,-7.682271243354985568e-01,-6.968039803189691739e-01
-2.414055584347864158e+00,-9.278739374202151780e-01,7.931750890420403710e-01
-4.669486961789303670e-01,-6.992612064813008566e-01,7.123668966276494041e-01
-1.229280446268716798e+00,-7.531173058021021216e-01,-6.848040047278367570e-01
-2.313690064751484088e-01,8.397789978994089077e-01,2.897171715011366833e-01
-2.399195421155024821e+00,4.466897132858919095e-01,-3.472438302865381021e-01
2.770881751863651238e-02,-2.386346181777652120e-01,-6.975004597817243690e-01
-2.419615660453996675e+00,5.484595378766827373e-02,9.010211724728499627e-01
-1.034189311471982314e-01,8.252449898116518412e-01,-2.051654718176438852e-01
-2.013696326373477952e+00,-9.987928718142654594e-01,7.430752382878057505e-01
-6.628640765045900052e-01,8.406594258340930326e-01,2.064173589260156691e-02
-2.243461895690456842e+00,3.343594882829073467e-02,9.393682147590494136e-01
1.289939522298782226e-01,-4.288104885224657270e-01,5.101923980086827681e-01
-8.134166422513886552e-01,-8.601655821120970380e-01,-5.194427619535650908e-01
-1.369134531956722745e+00,8.407237774374759498e-02,9.326086632364620765e-01
-1.388443168536521721e+00,1.591991297088541091e-01,-7.730796698881291507e-01
-1.351782100966711253e+00,6.283594918767060333e-01,3.242950816758466415e-01
1.154022931351506576e-01,-8.470855012874307644e-01,-2.994412100707285473e-01
-8.527231459100558242e-01,-2.159283273870690467e-01,-8.659965123958912603e-01
-1.641414040735682978e+00,-1.350675255056253410e-01,-7.828414154752553200e-01
-6.792575755651621139e-02,6.600430174711001685e-01,2.721182887583462051e-01
-1.257929456286997150e+00,-4.622966590430134803e-01,9.419287561936043884e-01
-2.020787707845334680e+00,-7.950734343559752448e-02,-8.018406079715919565e-01
-1.191433625337918301e+00,2.041212830844848225e-01,8.641430670337373332e-01
-2.196003149260013387e+00,-1.181148615421936388e+00,-3.162582866181148367e-01
-1.122789316010920135e+00,-2.724342849615112860e-01,-8.713411406863177389e-01
-6.904465495821198173e-01,-1.317072301701391612e-01,-9.080860178616168010e-01
-5.669409262750531031e-01,-8.438708727304465862e-01,-4.710090978390459870e-01
-5.992116733033303611e-01,3.709398368848750849e-01,7.482091473364852474e-01
-5.960095879191920076e-01,-7.723944884048882242e-01,6.381889184576486906e-01
-1.824276457835934284e+00,5.456528821516636318e-01,4.272956958124472515e-01
-1.190397186959041287e-01,6.528394219022893852e-01,1.266208937839961857e-01
-9.561142883452776742e-01,6.563666193755262057e-01,-4.058331592671829968e-01
-6.272382739586538358e-01,6.702378440830172313e-01,-4.417133061940351491e-01
-2.224537155343280226e+00,5.153429308071378889e-01,-3.872364303069649339e-03
-2.584521321979176722e+00,4.399892144791093251e-01,-2.658078156043170992e-01
-5.113214472822946721e-01,-6.254679190728560378e-01,7.151139649888860195e-01
-4.311142768794178348e-01,-8.970124822609383264e-01,-4.235767342131339097e-01
1.293007938665396706e-01,-8.139938363358584228e-01,-3.423149988416349099e-01
-2.414806647757167024e+00,-1.082335839177484438e+00,-2.667189894454496391e-01
-1.857339655712082482e+00,4.400318810032772254e-01,5.673334666342770838e-01
-1.852937324639239991e+00,5.803892047413814481e-01,-3.250500225382355612e-01
-8.688604360279655880e-01,-1.034590830046824284e+00,-1.165955225829165137e-01
-1.228080952140038345e-01,-9.160967064306830832e-01,-1.879884823084289613e-01
-7.100062565876270604e-01,-3.514579887764206489e-01,-8.060678516942265670e-01
-2.565478773843394844e+00,1.786472093378748127e-01,7.382964440548743790e-01
-4.812366447076443787e-01,-3.791134677208939374e-01,-8.294849578476738428e-01
-8.748972412092471673e-01,-9.015234680286545732e-01,5.576300949497851045e-01
4.278103996088161026e-02,-7.724169207022557604e-01,-4.563306479017045225e-01
-8.051770952969434791e-01,1.609649230327329233e-02,9.291730659647843282e-01
-3.920411892390639891e-02,2.536434743213064058e-01,-1.852860955961235512e-01
-1.654447633116476468e-02,6.718679918526354600e-02,2.273896315912717347e-01
-2.375804784569735872e+00,-1.251333060327028512e+00,4.027679805110957467e-01
-3.684495338339126014e-01,-1.218477385820886660e-01,9.363773555256101888e-01
-1.241617147215330563e+00,4.532574640054384263e-01,7.143938189901783975e-01
-4.527247971836208529e-01,-6.599309472159891055e-01,-6.621951645348238547e-01
-1.332219762492032222e+00,3.754268134387250266e-01,-6.270121546398657042e-01
-7.396525974216878740e-01,5.456030063949200981e-01,-6.078840607757984849e-01
-7.549510283335611471e-02,5.318682046096596672e-01,1.140964502051663165e-01
-1.646448267157087697e+00,-5.810363926757994291e-01,-7.819792521716519840e-01
-1.918666207066619167e+00,-4.725730461148334727e-01,1.013173099906380603e+00
-1.419004212388047081e+00,-9.277825022826311496e-01,-5.396338092015301457e-01
9.930334811565338926e-02,-5.106609426956819631e-01,2.316427273900631412e-01
-2.673906890730871400e+00,1.381989203411709277e-01,-5.705143098899644327e-01
-2.093513805966796593e+00,-3.142241391429785313e-01,-8.352348571877056260e-01
-1.258471413373673187e+00,-2.553556981935085624e-01,9.494868889243088805e-01
-2.137502707394901780e+00,-4.327064066203765991e-02,-7.921445674208406063e-01
-9.176933811034733157e-01,-7.247721582598812828e-01,-6.592838027509351218e-01
-4.284866918025610760e-02,5.522969564790037866e-01,5.419581018167300979e-01
-2.425231839674426126e+00,2.578946665607422251e-01,-5.016270521575609820e-01
-1.007649578340284124e+00,-1.107874902792544969e+00,1.890839172148180147e-02
2.311524390375619895e-02,-1.030799851929039140e-01,1.250505408643056982e-01
-2.418498431540864857e+00,4.393435644301243448e-01,4.145173552613811707e-01
-2.122112328057627728e+00,-8.191100340980454753e-02,9.755805415123885993e-01
-1.079744047259040496e+00,-1.681989079036877791e-02,9.639955421745362019e-01
1.062512760953866070e-01,-7.883652700452655759e-01,2.077566439389385289e-01
-4.443650722400007552e-02,4.357029649208472577e-01,4.475150029308995747e-01
-2.508383611571793903e+00,-1.004157183610301790e-01,5.414702590927535919e-01
-9.799642477405945407e-01,-5.828047731811433207e-01,8.581578071796239771e-01
-9.378679772638256473e-01,-8.333125817640637534e-01,6.141973332456870383e-01
-2.245701493519285386e+00,-9.665349484336738239e-01,8.096039032210253783e-01
-2.244727553154637900e-02,2.944334911133254518e-01,6.234649416442152869e-01
-1.796434928714384149e+00,-2.730296153151943322e-02,-8.016316580560685079e-01
-9.731104524996712080e-01,7.533441761887015309e-01,-3.309870167614308023e-02
-2.594334418352142624e+00,2.087413914146441507e-01,1.634801605666550556e-02
-2.458316795578230796e+00,-9.310316731713995653e-01,-3.416288112195327020e-01
-2.021941792002060367e+00,-1.123941323269340931e+00,5.644496913087589940e-01
-1.304465206109632902e+00,1.312297504054450448e-01,-8.087569674701505784e-01
-1.750909245338772013e+00,5.972627594680230967e-01,2.371341271555270636e-01
-2.382458795596961387e+00,-1.261573718598221650e+00,2.028568358516121273e-01
-2.591159457815756628e+00,1.452411332913895181e-01,-2.920484763332649725e-01
-2.362653679477967117e+00,-7.224724752819564610e-01,-7.116874218197239976e-01
-1.506747847675829588e+00,5.116399960073233499e-01,-4.327273765980295117e-01
-1.931804275163154339e+00,-4.053569242889648594e-01,9.784118174923981393e-01
-1.880664813904900701e+00,-1.016041599177145649e+00,-4.641210432252828588e-01
-1.832514361018583671e+00,2.230104345237161334e-01,-6.506108425523886574e-01
-1.534944049697653634e+00,6.338315619951874202e-01,-7.834259008544823544e-02
-1.461905288688805760e+00,-8.440323346912558256e-01,-5.902565061368064692e-01
-4.648985665189146466e-01,9.717832524855206378e-02,-8.734417282812734218e-01
4.291240562469222919e-02,-2.712592134092252638e-01,-4.462670320114103806e-01
-1.932075337658209824e+00,-1.077572757139138249e+00,-3.745020445707875067e-01
-1.468419723163919777e+00,6.726454988540386815e-01,1.800681764606111845e-01
-2.986382534604602179e-02,-8.373974200913322230e-01,3.784192809775930311e-01
-2.542742093769381206e+00,4.967079542006433979e-01,5.928932723271799349e-02
-2.212556988218779441e+00,-7.695302236680615637e-01,-7.245010803159117607e-01
-3.864031093136968131e-01,-7.350648929365254380e-01,-5.821663535065134676e-01
-1.880319875652807893e+00,4.278339752333119583e-01,-4.570019145562214113e-01
-2.516729098894447958e+00,-3.608212866164482446e-01,2.276164536866321364e-01
-1.882863779337967391e-01,8.796499496090525172e-01,2.546097812286312045e-01
-1.202308348407540972e+00,-1.117056114412429801e+00,2.431900917253543015e-01
-2.594039549322053606e+00,1.071976130208733419e-01,8.185694482722326304e-02
-2.464461608729486830e+00,-6.146046467495390742e-01,6.626407385789323534e-01
-1.911849479872889945e-01,3.744973340040154697e-01,8.547200337492611988e-01
-2.195608741661285279e+00,4.960786603846197296e-01,-2.198793412787675428e-01
-1.177084689440153209e+00,-3.006208853607869602e-01,-8.395321099405305132e-01
-1.873502077571445601e-01,-8.921138221752045183e-01,8.905923639932900038e-02
-5.429912556740093543e-02,1.011973582377147240e-01,-8.170375265326738079e-01
-1.435501105338580441e+00,4.676163182930185291e-01,6.667036413150495555e-01
-2.437260218830210601e+00,3.263761889702174734e-01,-4.903689638557999220e-01
-1.917407934034664807e+00,-1.105956323469651226e-01,-7.785008673848894389e-01
-2.437234441400771168e+00,-9.990173938923122554e-01,-1.107871956916580830e-01
-1.878152511768520563e-02,2.052476713004061371e-01,6.467775899818982710e-01
-4.388829768394310604e-01,4.716504926479632709e-01,7.359031198606326152e-01
-2.508051643217120485e+00,-6.091077157454004576e-01,2.588200446065846982e-01
-2.504514040690687615e+00,-6.684206093522284675e-01,-5.498684901500078270e-01
-3.727735761398085490e-01,4.964987403111589814e-01,7.335708516993389994e-01
-1.915538590228347493e+00,-9.719583033275256412e-01,7.685301486154746398e-01
-2.204529941543357907e+00,-7.520812736355028116e-01,9.456426075887039984e-01
-1.670496596213362217e+00,-7.152894898663949563e-01,-7.462083086252802033e-01
-5.834600102239902997e-01,-5.325435944453531523e-01,8.533404964868214204e-01
-1.284041019269402950e+00,4.685905028527548866e-01,-6.103868167475494655e-01
-2.316192697195215366e+00,-1.055219177119529395e+00,-4.862749992261578003e-01
-2.272661331014523167e+00,4.777651349922750756e-01,-2.608809526304403104e-01
-2.254289924730123129e+00,-1.044330959781160306e+00,-5.540924452756159635e-01
-7.121845362227060550e-01,-4.784437103910022526e-01,-8.013246488124181610e-01
-4.497847386417659910e-01,8.329614877336601886e-01,-2.210165186245402202e-01
-1.164548481229733978e+00,-3.362597971906285954e-01,-8.591677486544690989e-01
-1.946005955724114500e+00,-1.236888636359663618e+00,2.604841436777814989e-01
-2.539383015087673279e+00,-3.829781468019138879e-01,4.452953518835269242e-01
-2.520878360186169065e+00,-1.718875531804710810e-01,4.001675662510978393e-02
-7.089363239173595010e-01,3.599081464807775688e-01,7.922651111611431762e-01
-2.513051344113299113e+00,-2.748796821699646675e-01,4.126408502930916655e-01
-2.348379103802375578e+00,-1.182021524939012691e+00,-2.571465917055331118e-01
-1.214577685753573277e+00,3.676486942541932756e-01,-6.591736652860291645e-01
-2.592447348275495500e+00,3.113022004221691619e-01,7.269718210483063769e-01
-5.021039432490946863e-01,-5.961752135562976562e-01,8.061090239909409760e-01
-2.384284933679498675e+00,-1.115021427062375059e+00,2.596508640165677284e-01
-6.689479201935519259e-02,4.698512069331052254e-01,4.595884794565164855e-01
-1.816359933861222187e+00,1.080047367739656039e-01,9.587053623230552546e-01
-1.134291886829277729e+00,-1.004512485871877026e+00,-4.249533068678933989e-01
-1.004403756886706800e+00,-7.508419781239307200e-01,-5.723554755404839378e-01
-2.448354749269877395e+00,-7.038641891869303890e-01,6.973034552337447067e-01
-4.972490086025418976e-01,-2.618739336908540993e-01,-8.830878360693371620e-01
-2.557799799931190776e+00,-9.754159731919180565e-02,9.533918136755875627e-01
-2.226234778221483523e+00,-1.135137233676122737e+00,5.546242906994087729e-01
-1.436962590649071725e+00,-1.527859998194888713e-01,-8.397708945378825618e-01
-1.686427129658499613e+00,3.945650125733248248e-01,7.068589764269603837e-01
-2.161072598911917275e+00,-1.032319486813032317e+00,-5.550145160974417902e-01
-1.458529981523396080e+00,-9.642141948032130205e-01,6.361138467616881398e-01
2.154389559843250795e-03,-1.731066143561523774e-01,-2.909295636708306154e-01
-2.105315352984096222e+00,4.516342357067189561e-01,5.721678114014099314e-01
-7.905731647551169639e-01,-5.104697788478482767e-01,8.985813471673153030e-01
-5.151095986335609833e-01,-6.264972859878320532e-01,7.782023832275649644e-01
-2.673974769894401637e-01,7.510212379527243520e-01,-5.030762681474819642e-01
-1.157484565979311819e+00,6.216010507069207325e-01,4.861922998233196846e-01
-1.012507140894170626e-01,4.744093263859646692e-01,7.915914981709040177e-01
-2.054279172646416463e+00,-7.426618206754596052e-01,9.246695855222303306e-01
-1.348840554764114130e-01,-1.092646230725603101e-01,9.257845715233808948e-01
1.084394251920448582e-01,-9.174217292329333029e-01,-1.553254410469004192e-02
-1.478547654772905395e-01,3.278016963996218669e-01,-8.269042534039874326e-01
-2.163906722969466845e+00,-4.862388869784965428e-01,-7.775889174365017142e-01
-8.342146665802069316e-01,7.235625443805611401e-02,9.291561401147261368e-01
-1.716593380799019242e+00,5.218033224365659084e-01,5.040826641469260405e-01
-1.479814046842799734e-02,3.292186519403951239e-01,3.073174465493751506e-01
-1.160884367940014511e-01,3.935346050844226728e-01,-5.788566819642292360e-01
-3.734093747307299371e-01,7.952034010876386505e-01,-3.627591967595322764e-01
-1.168371320238949851e+00,-1.047295511572158944e+00,1.955832302505002007e-01
-8.809496069694360276e-01,4.138724751541889013e-01,-6.844652955338411671e-01
-8.685444650128343325e-01,4.535586368412869995e-01,-7.070590675381971391e-01
-2.294007238326769116e+00,2.395885577263979216e-01,7.991829058749044812e-01
-1.868433308966914286e+00,5.017912752020979861e-01,-3.511873719072592936e-01
-7.796103677671549770e-01,8.280283832636762265e-01,-3.270332261817237435e-02
-1.603844994920741396e+00,5.241759848915361619e-01,-3.993446063460491802e-01
-7.124769336403884157e-02,-6.768771380047552411e-01,-6.371080251150557094e-01
-1.656230533193247423e+00,4.385348740106624899e-01,5.803832733893304896e-01
-2.515147654444940262e+00,-2.435908030548514791e-01,2.397697255105371295e-01
-2.655289270957895909e+00,1.756843498589121533e-01,-5.452342106924225051e-01
-1.339600761167220933e+00,-5.613927643893475983e-01,-7.726381079936630591e-01
-1.996727286032603244e-01,9.005528648543409398e-01,1.351179563207626291e-02
-6.079083462502883339e-01,7.999159708803190716e-01,-2.224440926348119074e-01
-1.660453368659021045e+00,-2.093077745514044380e-02,9.575999709723400644e-01
-1.139288331715333502e+00,-5.214729229531489541e-01,-7.770661032100023569e-01
-2.211362111315045897e+00,3.056173003854797260e-02,9.240530865131580951e-01
7.079289736657692900e-02,-3.503439348176835000e-01,6.281542472735295313e-01
-4.310028095383082458e-02,1.633801448053601169e-01,-1.302106423842088745e-01
-2.349250058745390390e+00,-1.356224841367507317e+00,9.391505324362553475e-02
-2.421538288916184722e+00,5.439863048005604274e-01,1.900658365337211664e-01
-2.052867753519987293e+00,-1.259168963546228870e-01,9.980671499222216747e-01
-1.482096936065334214e+00,-1.167711519906577955e+00,3.926024086225390897e-02
-2.606682348643173608e+00,4.098374688856303294e-01,4.490291644260450687e-01
-2.295204661894313158e+00,-5.887103792122283519e-01,-7.703099371279398255e-01
-1.676172966613642235e+00,-3.750619445086511572e-01,9.663129432504307115e-01
-3.141614617239417168e-03,-2.592799253111568308e-02,-5.236228869796596269e-02
-1.095797170858324066e+00,8.706695580451140337e-02,-8.027868341082785575e-01
-2.567949635601645575e+00,2.989102658957131231e-01,-4.877766104451302098e-01
-2.085245808426951619e+00,7.859734813311487767e-02,9.154465355549434857e-01
-6.400188292362390952e-01,8.123474794648325448e-01,1.513265743154116605e-01
-2.573837276299605570e+00,-2.584013296898953205e-01,-7.736592307584662098e-01
-2.130789081803179386e+00,5.412604548800933335e-01,1.557366693752947062e-02
-3.579431766452477737e-01,7.011379839010186688e-01,-4.432525760179433783e-01
-4.687933249154614679e-02,2.801683959229164245e-01,-6.205854190244997071e-01
-4.046315110032006751e-02,8.432787637639843625e-02,9.116461369332760079e-01
-2.292092999979409296e+00,2.755476996211513388e-02,9.393384813972563974e-01
-4.363843927212782692e-01,2.090962028167426545e-01,-8.752324192540682501e-01
-2.636442389169474598e+00,9.161780477495662378e-02,-1.433455027897064527e-01
5.304282446863790162e-02,-8.379040312557031189e-01,-3.261011908192339437e-01
-1.875817668617123735e+00,1.685559977561274236e-01,8.726229590563993055e-01
-2.202162924498373364e+00,4.155146370701541247e-01,-4.208040845061994384e-01
-2.041735156423778008e+00,1.603606307617544136e-01,-6.643210682131887035e-01
-6.707173432648472211e-01,-4.577245449701585756e-01,8.529795663539379014e-01
1.130224537569812643e-01,-7.996904423782824622e-01,2.294603095749196686e-01
-1.382927466495087687e+00,-3.308963992206026550e-01,9.692796058268134951e-01
-2.769554489268356567e-01,-9.266328353841537524e-01,2.534292705838231408e-01
-5.386039986146328173e-01,-6.470991631091510543e-02,-8.823874768681105873e-01
-1.101428175539781007e+00,3.729172956273300588e-01,8.111193564257519473e-01
-2.547885983597681037e+00,-1.445695900061414740e-01,6.956694682652806438e-01
1.461317350539806936e-01,-5.434141345625473907e-01,4.547653172295802737e-02
-8.185993345186800552e-01,-6.875069368337128894e-01,8.273414373182400583e-01
-7.735498645090271852e-01,7.883791724884330332e-01,2.735717985643252304e-01
-1.725436160990351908e+00,-8.609176358973328336e-01,8.421126274040491300e-01
6.365125202632117805e-03,1.968781263273228221e-02,-3.327825420890251351e-01
-2.433379983713870764e+00,-8.904904278920298122e-01,9.127720946661649348e-02
-2.088424829567177454e+00,-1.016305611728563818e+00,7.659378714238388453e-01
-2.121361244731094775e+00,-9.483407157103159735e-01,7.717792533149991918e-01
6.957727346946635839e-03,-1.193179716273262692e-01,-5.959582861459974956e-02
