-1.486176491452038340e+00,-7.903383406215523932e-01,9.486142749004607966e-01
1.119215742747325049e+00,-2.815069466272419607e+00,-1.991395754678678687e+00
1.252832910295503810e+00,-6.512133495305816311e+00,-1.863159474339198152e+00
-9.760468036388891822e-01,-4.999204245855536577e+00,-2.166865621388884555e-01
2.204810763917753214e+00,-8.814596224853108453e+00,2.146503418936692054e+00
-1.642700192407434923e+00,-1.126086322067878953e+00,4.502533360739798818e-01
8.044207159377816385e-01,-1.020467026721373749e+01,1.171279958977605312e-01
-1.710672576696688818e+00,-3.969655784570473855e-01,-7.618522243009374639e-01
2.179062516186681009e+00,-7.412277314594675204e+00,2.045914409688545099e+00
2.379361360323644092e+00,-6.700929692325598985e+00,2.142845555589133699e+00
7.657618142248704407e-01,7.349194685574039765e-02,-1.782946811555972955e-01
7.214248322532267332e-01,2.322974784549541039e-01,1.788216049206384772e+00
-9.262128595699590239e-01,-3.137875721836396625e+00,8.170263919138626152e-01
9.901849130791436915e-01,-9.702241716835114937e-01,1.647560069644588898e+00
-9.971174157088036338e-01,-3.855511832658914617e+00,-1.207046085757603193e-01
7.762322001469573740e-01,-7.951782882889418147e+00,-1.504127016872646161e+00
3.932714122296367520e+00,-9.107058157508287621e+00,1.376275018596488486e+00
4.125979465197599505e-01,1.061321007057316745e-01,6.424844041400278316e-01
3.378056390012146082e+00,-7.261462935942513575e+00,1.453695982724520164e+00
2.381711230478755326e+00,-6.429721925575316632e+00,1.985778032480713495e+00
-8.818813719707345733e-01,-4.602632046846609981e+00,6.557357484542700177e-02
-7.911609552510119325e-01,-3.912703226295641268e-01,1.838521472169717619e+00
-7.156089778497758402e-01,-3.193277513442439375e+00,-1.192912351024335793e+00
5.999316308243091145e-01,-5.722451941532373354e+00,1.798915892466662614e+00
1.367926451374298580e+00,3.719132475795559611e-01,-5.904381795662481114e-01
-7.931178343932360209e-01,-1.549159851916051545e-01,-1.592007959459307287e+00
-1.369672696980349214e+00,-3.420929312448672821e-01,1.340465656475747558e+00
2.187965990037267883e+00,-9.695484821595007574e+00,7.125620513842921833e-01
4.699136374916978443e-01,-2.563939327065369866e+00,1.929838275818303472e+00
9.846236223101784146e-01,-4.441659705510508260e+00,1.988407364017056311e+00
2.402567956432205332e+00,-6.294067647363512208e+00,-1.797805932127406248e+00
8.190219589181146898e-01,2.318142356701120566e-01,1.366621426373094472e+00
3.639730514288065155e+00,-5.958135319608404146e+00,-3.033458792937278048e-01
-5.412064142765395935e-01,-2.144567751270058054e+00,-1.485623256461774178e+00
1.264606671823145234e+00,-2.629353524527442421e+00,1.857629750558072779e+00
9.652358784270451686e-01,-9.001798663093770969e+00,-1.298539579905356511e+00
7.455489833154970158e-01,-2.125116575036797961e+00,1.961829028151578225e+00
3.250576103536939598e-01,-6.913901108596815170e+00,1.504457822739833972e+00
4.719835156129355003e-01,-1.001320722382927819e+01,5.994526806129727436e-01
6.719404047096012578e-01,-9.911815813737318237e+00,6.209569520615931815e-01
-1.046332219352342996e+00,-3.445003492280127144e+00,5.278773666152186683e-01
3.634884573939245467e+00,-9.373720045018886893e+00,5.050809894476727679e-01
7.052408642369021319e-01,-7.619854516793467702e+00,-1.465774347005033507e+00
9.337415479499252546e-01,1.063926917915945375e-01,-9.391715101393219856e-01
9.762731223649205869e-01,-9.952439057660487975e+00,1.894283753702891981e-01
5.776371246425192618e-01,-7.096733914103335650e+00,-1.589492963061475139e+00
3.787454894119776094e-01,-7.698888670631030884e+00,-1.081160047712998784e+00
1.850496255547974533e-01,-1.472522266309781225e+00,-2.040611398458668013e+00
-6.548852253869454909e-01,-2.325754745966537584e-01,4.338839955280243688e-01
3.854458548229354520e+00,-7.463013849860516302e+00,-8.821876079007552329e-01
3.166181209028270938e-02,-6.489476392508767510e+00,-1.137498462465315718e+00
-7.550430409629060868e-01,-8.237488951862204090e-01,-1.675341976236550678e+00
8.615425450314687650e-01,7.458367931195568346e-02,1.317845613521751780e+00
3.738297935721152321e+00,-9.210960435445366912e+00,1.628964660929758557e+00
3.325848955256932804e+00,-5.194430218896903817e+00,2.982353153891312836e-01
2.373297597760727129e+00,-2.515308617948623926e+00,-1.133513017741210049e+00
1.492674969727811218e+00,-8.091225569832113607e+00,2.051373302020189637e+00
1.623196902509628226e+00,-9.871964580766016795e+00,3.605044396183464117e-02
7.021826381730071898e-01,-9.701151868702437397e+00,9.286125424735989231e-01
-1.535690642972971975e+00,-2.312809229978963987e+00,-2.145972704617767346e-01
-7.570715985889604482e-01,-2.049080069245424074e+00,1.479173538088535800e+00
1.878678831999538446e+00,-6.921769375376332079e+00,2.042226143309063158e+00
5.684520834616675344e-01,-9.999830104997466051e+00,-3.349736317869593805e-01
1.148178260713142329e+00,-9.879432441179520907e+00,1.059059991648368060e+00
1.110889463170525726e+00,-3.343387909920816803e+00,-1.801706163188566023e+00
3.538746787838018992e+00,-5.421335709589202523e+00,5.343422302806311031e-01
4.305248240115854941e+00,-9.048471458711407678e+00,7.536976254652177909e-01
-5.942322472125204369e-01,-4.183103357455643767e+00,-1.194449017496059584e+00
1.835247101512905488e+00,-8.722988287233112814e+00,-1.806738594505943540e+00
1.969512298909928738e+00,-9.625053009382723346e+00,1.985045171280022336e+00
3.912942361169584160e+00,-9.156489979340779684e+00,1.319036991635144096e+00
4.314418254936951413e+00,-8.629877129521874579e+00,-3.414356988981340213e-01
1.628758150057851850e+00,-6.933427177671096509e+00,-1.999720996205101020e+00
1.977865005312428481e+00,-7.375692765599825229e+00,-1.836707623310855686e+00
1.122405363115389854e+00,-8.827581792582211762e+00,1.687488516352543266e+00
3.851843059949540571e+00,-7.897399235191663536e+00,1.387721925973202985e+00
2.878785143467483376e+00,-9.417030986204238729e+00,-1.650560342658148327e-01
2.952331387664106632e+00,-9.545361738016493902e+00,1.343858242501164701e+00
1.287264557948821220e-01,-2.038530244568938166e+00,-1.891416989141505800e+00
4.878754339445302013e-01,-5.469098899722397711e+00,-1.713677611663042333e+00
1.047672280638543674e+00,-5.871584896308480239e+00,-1.827363840715536369e+00
1.409793980756121057e+00,-7.119217208235768091e+00,-1.698538718763694000e+00
8.416481729756638552e-01,-7.784087335126926632e+00,1.585552536207224250e+00
3.740478370326066337e-01,-5.312518974716948783e+00,-1.831160637144360281e+00
3.514096605428034703e+00,-7.924776211676040738e+00,1.497088596181476383e+00
2.180260556673713435e+00,-9.873231721324447818e+00,-1.764611086648011140e+00
-1.810635535742813607e-01,-7.806023183133214083e+00,-6.834016533345825539e-02
9.870861736321224766e-01,-2.049007045362146950e+00,1.960433798400133210e+00
-1.590908676396060040e-01,-6.528552064952275913e+00,6.547626924998292131e-01
3.759222437525028493e+00,-7.722418435726901009e+00,-9.236845456899729356e-01
3.892148287952361674e-01,-6.027235365676743006e-01,-2.011504510583972394e+00
3.223644207222184921e+00,-4.556937609613389562e+00,1.091137809798527619e-01
2.870249042004863416e+00,-6.543710239257650052e+00,1.897329014053613871e+00
1.409591053985533193e+00,-1.546218436948018526e+00,1.654703713139216381e+00
3.944067934268870257e+00,-7.685773389325174065e+00,7.244667990288969905e-01
-9.860241758086993880e-01,-2.245323823232488802e+00,-1.243171301525036077e+00
8.593957194582305670e-01,1.867573594373224954e-01,1.485531688025557129e+00
6.938870698901790368e-02,-6.905510899052281104e+00,-7.220904802032691583e-01
2.925305675907811320e+00,-8.441172697332770980e+00,-1.806314171860477380e+00
3.703288250515021307e+00,-6.277115771221185803e+00,6.888683527113808047e-01
2.635400034810104319e+00,-6.573569175852642665e+00,1.820198757664293288e+00
-2.363920584076507625e-01,-7.018151394138315347e+00,6.129633657935049662e-01
1.550332269056993395e+00,-1.809601552724470208e+00,-1.421248617703576134e+00
-1.758595274293058397e+00,-8.052292156933983369e-01,-6.321762798149953566e-01
-2.648416480395644479e-01,-1.636584730607218707e-01,1.617108814294528074e-01
1.783027822656791939e+00,-9.603489774885126451e+00,1.934918292388703387e+00
1.135362171543137233e+00,-4.997652355864617313e+00,-2.033764732347536963e+00
2.566807249749341047e+00,-4.042540280549289378e+00,1.366569915372173760e+00
1.263828091578474422e-01,2.900956756003445491e-01,-1.707791622718719982e+00
2.382369383837477983e+00,-6.061834848711874280e+00,2.015580253335918837e+00
2.649999978528951416e+00,-3.847079427877300173e+00,-1.075089141275304527e+00
1.642080916173591865e+00,-4.464029690558792396e+00,2.030186060826294270e+00
-1.564242372616067467e+00,-1.919343895936081568e+00,-5.745343694232780685e-01
2.417218499916931496e+00,-4.871561086435880483e+00,1.805037908108705791e+00
-1.381817378133038510e+00,-4.439472174202420685e-01,-1.307089280976035939e+00
2.580949267415515891e+00,-4.375201143825062644e+00,-1.409008377506752563e+00
5.173506112567765047e-01,-1.605656962278692923e+00,1.931531381281264670e+00
2.277542190985643700e+00,-7.797302644259980653e+00,2.024750930480768929e+00
2.556237465155570376e+00,-5.242549628232985981e+00,1.605356661082048886e+00
-1.414967210558700339e+00,-2.879553963890102430e+00,-3.679366174892997887e-01
-1.533767396651936621e-01,-5.671728524306212549e+00,-1.222353026726341607e+00
1.944495496974698590e+00,-8.375916311948341075e+00,2.120927020732793267e+00
3.018272654105220165e-01,-4.181362032626664949e+00,-1.785616457897353460e+00
2.537693922658754708e+00,-2.255784315053965816e+00,-6.764704736505294802e-01
2.065730341713746920e+00,-4.438081128167348233e+00,1.810280079045842205e+00
2.341344572908738986e+00,-4.232239035377851621e+00,-1.440248979985068400e+00
1.357647353473826479e+00,-8.863614971516133423e+00,-1.708634386536167726e+00
1.462627833410544698e+00,-7.967051432519542509e+00,2.023474970901811165e+00
-1.023889484989938259e+00,-2.521078291377266023e+00,1.362440027047345348e+00
-3.268246313714326390e-01,-6.669875405945279390e+00,4.901978500063373101e-01
3.761918000912961801e+00,-6.692562420763800368e+00,-9.962576694049854464e-02
3.391424454357271578e+00,-7.569392712552668101e+00,-1.367093584185950172e+00
4.130961183169911344e+00,-9.153999713538972571e+00,4.256187687509076917e-02
-9.908242340367046097e-01,-2.935481920397781774e+00,8.149087944291876218e-01
4.052238597120504937e-01,-1.365638689083993551e+00,-1.888047263476291038e+00
2.144602919164725063e-01,-7.594778711546251060e+00,-1.031909564064671381e+00
8.693641833126733998e-01,-1.019677025082997091e+01,2.942659227486019158e-01
2.961668969722334843e+00,-5.073527538654463598e+00,1.410087402996120787e+00
3.809636146689938663e+00,-6.499768111858363895e+00,3.087114417666117841e-02
1.634837082478801884e+00,-2.982200069823303767e+00,1.954506609011363638e+00
-4.324709292469091637e-01,-6.091129882405680540e+00,6.518372463386997717e-01
5.821872484307869522e-01,-4.408081112470466856e+00,2.103667553830778747e+00
4.091974580375999260e+00,-9.254840643901772523e+00,1.221081154454526807e+00
-3.014855536015132453e-01,-3.437927098349257138e-01,-1.835819908055332128e+00
4.127965760451341559e+00,-8.108576962277890487e+00,-2.951113488515359484e-01
-5.428114133604771130e-01,-3.851645931322135841e+00,1.542700356243873028e+00
-1.848266501699476483e-01,-3.347394003888403802e+00,1.851938461288538562e+00
1.175956856821302354e+00,-5.253568321368555338e+00,-1.803620199760655129e+00
1.478541778311774246e+00,-5.918010087127240082e-01,-1.444517963389043258e+00
3.559994156904230600e+00,-6.466622274310725338e+00,-8.907721169047491117e-01
8.290614537189147093e-01,2.806239110902173373e-01,-1.524756867468399113e+00
-1.258595615022906955e+00,-7.626710863507408789e-01,-1.443649901010400249e+00
7.970128068217998685e-01,-7.687583657491944500e+00,-1.206679105933630813e+00
-4.061747736855572111e-01,-6.036573717368125536e+00,3.687313581176722144e-01
8.508145037406494859e-01,-4.647826778372826872e+00,2.072968208543942037e+00
-1.961558973476686119e-01,-1.567549449809335638e+00,2.009285879106491812e+00
2.405984663616933084e+00,-2.055035687870930605e+00,-8.240311242300314420e-01
2.604016780627417926e+00,-2.934949868093185366e+00,-7.939766272010154724e-01
1.559847615061532133e+00,3.790348749808902240e-01,-1.220422208088578708e+00
7.040962439562252762e-01,-5.163248683035152276e+00,1.958900900078460960e+00
5.221084854572372036e-01,-2.617783084887573608e+00,-2.026630058467670636e+00
2.269901853045219742e+00,-1.379889571315368269e+00,8.684961635234933475e-01
-1.263798569944231565e+00,-7.370048061426602848e-01,1.458074631354758122e+00
-4.805169624486345659e-01,-9.593048268436517312e-02,-1.575362438801134690e+00
-6.766802401882054951e-01,-1.838954995506950629e-01,-8.986253402667796486e-01
3.748813769127778972e-01,-9.535360342100512199e+00,-1.074906844046143312e-01
5.092326193171829996e-01,-9.019681985247103739e+00,-7.655099244647192158e-01
6.188328150452999665e-01,-6.517407519687357542e+00,-1.686455233238713047e+00
-2.273722622242697888e-01,-4.055748073510780038e+00,-1.496105273574189098e+00
2.785355266977467714e+00,-3.089025756061908989e+00,7.855427887978979618e-01
-1.499922719059880949e+00,-1.222496640661872025e+00,-6.917380593598811966e-01
-9.972685547224566793e-01,-3.386787973929834106e+00,6.292558978714017925e-01
2.084538895852806384e+00,4.365262656525971674e-01,2.637196990482341685e-01
3.117858210028130017e+00,-8.712770936057410154e+00,1.898564830621923827e+00
3.962909561609271880e-01,-5.673894142355352166e+00,-1.580215490355258545e+00
4.591792920432025138e-01,-5.492498793670377744e+00,1.663007330146390128e+00
4.309493083278316483e+00,-8.471720748354549357e+00,-3.644320798042390286e-01
-1.375947337027012829e-01,-7.408439413459253942e+00,2.308240834776873474e-01
2.206132391368207379e+00,-1.801596935018985324e+00,9.276078087709984654e-01
2.022625183666820980e+00,-5.277265394571702295e+00,1.881911136515012073e+00
1.318072074992604481e+00,-7.376826320732965847e+00,-1.825783123537955133e+00
1.556257947420285614e-01,-8.105082546130651266e+00,8.057778404962403496e-01
3.342749834544908261e+00,-6.971094414113749416e+00,1.303703127526704586e+00
1.238360183806212600e+00,-1.495558250312074344e+00,1.766148332176629143e+00
3.892882257205537488e+00,-7.687512818532561631e+00,1.035408667904271995e+00
8.739567653030586580e-01,-9.914131511744798786e+00,8.197134797430206676e-01
-1.399159724437369912e+00,-5.667439799448641402e-01,6.609500928227372007e-01
2.510681254741782720e+00,-5.061639652609843054e+00,-1.461813613375094301e+00
1.129800919198449716e+00,-9.643135765725380892e+00,1.540688640140621457e+00
4.331320542110140281e-01,-7.708916407010125482e+00,1.595017724372727708e+00
-9.885540516442773429e-01,-3.712191717411092107e+00,4.404625131312716602e-01
4.015803523811082520e+00,-8.177132821717226108e+00,4.250692139802596525e-01
1.299815359162760586e+00,2.419815430459232586e-01,1.090621282684804072e+00
-9.504285874858507954e-01,-4.462119349929011491e+00,-5.050479629562368844e-01
1.983378540937513979e+00,-2.662809021286107303e+00,1.602982637750623551e+00
4.414842847021329675e+00,-8.794142749952088778e+00,2.449496089812418509e-01
2.078268326363163609e+00,-1.139020545948553620e+00,-1.065561708156740783e+00
3.134502956336946422e+00,-5.868303269145770606e+00,1.376682932413177296e+00
4.060730499346628108e-01,-9.377549843301602905e+00,6.209976461547163096e-01
1.883652203763560129e+00,-2.465608629538555974e+00,1.666759293382510609e+00
1.106084628018975807e-01,-6.448592537521407486e+00,1.288786330019681570e+00
-9.978884848494675719e-01,-4.564332403403541960e+00,6.276785861259859441e-03
2.288729276488681297e+00,-6.653814253015479352e+00,-1.871482332423387129e+00
1.254030864478668406e+00,2.726302181083516962e-01,7.916953626018035095e-01
4.348670102908273272e+00,-8.906089411826974001e+00,6.977679216073331414e-01
2.529531511053952908e+00,-9.687337159422979127e+00,-6.888592692013112417e-01
6.180775066447594113e-02,-6.115325084900754327e+00,-1.218713490752282969e+00
2.999612934653648644e+00,-8.162336238981325209e+00,1.920154600467952610e+00
1.950589011100173575e+00,-9.380517012060142434e+00,1.966391345981391536e+00
-1.902632991661814266e-01,1.803521551935739764e-02,-1.711546674202202301e+00
6.429599063514251922e-02,-2.210802108418477463e+00,-1.935196465245051067e+00
3.379444754598701639e+00,-5.666401385943182767e+00,8.033908368505857656e-01
2.547866507200179598e+00,-7.628758074092637287e+00,2.002390419235305696e+00
3.814022742235600449e-01,-2.515078928540134040e+00,2.064221128927401949e+00
5.699334133687068427e-01,-9.215080440246172344e+00,8.107319382558623166e-01
1.205163257710473515e-02,-8.449827963035213330e+00,3.388507745762129320e-01
9.966039485634322626e-01,3.775243794914032169e-01,-3.341179025229275568e-01
-1.333278190830006482e-01,-2.869826881268154217e+00,1.877351220989897929e+00
-4.675187746203905981e-01,-2.106495228406258580e+00,1.748827539187064017e+00
-4.755738629937489859e-01,-3.804878939101033808e+00,-1.221950537677628290e+00
-2.753894591754474930e-01,-4.696137486350002277e+00,1.552729846956923287e+00
1.085204520203923995e+00,-9.430392534235892299e+00,1.431230484592768137e+00
3.518555524318024652e+00,-7.011883990931827348e+00,1.092255125486411682e+00
4.305578706178758708e+00,-8.578962704769672598e+00,-6.560970743227533264e-01
2.652275513540746643e-01,-8.035836637268253924e+00,1.049891035802410499e+00
3.503891428934788888e+00,-7.951848160108548669e+00,1.615273147242940688e+00
2.781666070256142986e-01,-4.858886987248054901e+00,1.829510477425802639e+00
2.937810095712880099e+00,-3.280418290634041334e+00,2.128345633880978915e-01
-7.674402563316254922e-01,-2.833382564217635569e+00,1.285334314564581470e+00
5.402810374528005388e-01,-8.402945157647964791e+00,-1.167777643876604099e+00
3.905937576900581298e+00,-7.983817552683091456e+00,-8.966043764392920279e-01
2.275980337876776005e+00,-8.527855390320184803e-01,4.032006128238739551e-02
3.517277634357738769e+00,-7.355643590267559873e+00,1.315894050003147742e+00
3.593091256405775979e+00,-6.053736172097293533e+00,7.433352289503288857e-01
2.892680310888813278e+00,-5.758007258010879426e+00,-1.289356261213594923e+00
-3.683728893316020048e-01,-5.749276680947418505e+00,8.963143221436834507e-01
3.452433785054861204e+00,-9.348793681254166543e+00,-1.238819993053584811e+00
3.154162038653592237e+00,-7.692786987432073786e+00,1.685310121927317217e+00
-7.342147724069477688e-01,-5.018895427691400180e+00,7.894293889041479328e-01
5.030398863593632530e-01,1.886582166333281019e-01,-3.536368325070876062e-01
-6.555419264144177749e-01,-4.995727284107735144e+00,1.495088226448502977e-01
2.249847100125497601e+00,-5.064499414983441028e+00,1.908939062392145614e+00
1.880256114274396761e+00,-4.939686271327688338e+00,1.992992182301170923e+00
4.256709963822417286e+00,-8.643052730825399266e+00,-7.351958335325618765e-02
-1.316633184304656368e+00,-2.405561889393370567e+00,3.616393449705534446e-01
1.869136041051337571e+00,-9.874069551293178648e+00,7.462684896227336218e-01
-1.315306644400047187e+00,-1.937619981380062084e+00,1.000370045416052678e+00
3.385768706944140227e+00,-8.184658062785704402e+00,1.743970156262706350e+00
1.255169506455623418e+00,3.071756460391050214e-01,-5.153440890164304733e-01
-5.494636879053995671e-01,-8.531571377337250628e-02,-1.908158799006515860e+00
-3.914099915978258570e-01,-6.210444401383257151e+00,-2.147834692635742504e-01
-6.788487377408436441e-01,-2.567950490425282561e-01,-1.543123423966183738e+00
-1.127398149811551287e+00,-3.316348964996636894e+00,-1.131119476899151294e-02
1.443358103209640309e+00,-8.852531535088966619e-01,-1.654328031202906946e+00
-1.124152512069694909e+00,-2.026654462381021649e+00,1.248143133425241080e+00
8.495686018361190417e-01,-8.876075808591817662e+00,-1.137933883327553852e+00
-1.881350247918176066e+00,-4.709706872227478747e-01,3.243069237894812828e-01
6.499227774548871350e-01,-2.668442767208918376e+00,-2.013753895072577293e+00
4.319911038849370222e+00,-8.823727727343310789e+00,-5.438066795346929716e-01
1.075545053712274823e+00,-6.897425557701119203e+00,1.810168198427881903e+00
2.158135937879546440e-01,-7.959019979947993484e+00,8.370834663458230906e-01
-6.615304429365345684e-02,-4.573390567611729018e+00,-1.501594844454640532e+00
2.689171600698383457e+00,-5.992073971989286818e+00,-1.586749653156191542e+00
-1.129208441519948147e+00,-1.877303548976816838e+00,-1.291315700146121959e+00
3.159497463336423451e+00,-7.259227666242378696e+00,-1.466984684701007735e+00
3.888917299940788386e-01,5.228255974685327295e-02,-1.393462686723190957e+00
3.103003703567069671e+00,-7.061330506800961970e+00,-1.619434329300727171e+00
-1.351450040299727817e+00,-3.543618460323719743e-01,-1.291386351462971760e+00
3.545319009061424165e+00,-9.315272901789427351e+00,-1.457323677320162325e+00
-1.507652404699143078e+00,-2.585409763386411708e+00,5.468001382689857692e-01
3.131073496864794414e+00,-6.334310948428484522e+00,-1.214933252335444136e+00
-5.015460807919346065e-02,-7.516965347285183618e+00,4.133027658816685324e-01
3.769936428069933676e+00,-6.823370543745298278e+00,5.110003424615944256e-01
-1.162613499519709270e+00,-3.324491715403069314e+00,3.843429767214193160e-01
1.126130794491169013e-01,-4.418364279843837394e+00,1.694783932039908070e+00
7.013582156708695337e-01,-6.606056868203058485e+00,1.872464741201431693e+00
2.088157025311866200e+00,-5.278049392530131945e-01,8.548296324597433049e-01
1.900775962733618929e+00,3.167108279473597743e-01,6.725791920937140844e-01
-5.228363195290870458e-01,-5.161989934525602841e+00,6.361224351692098544e-01
3.448620776009707345e-02,-5.027553547070774620e+00,1.591716825530688828e+00
3.313895908607398688e+00,-7.098910063253159208e+00,-1.139250336177801914e+00
1.708344868084019419e+00,-7.768421249549166241e+00,-1.970501247481569296e+00
3.870339412153468994e-01,-1.433958677324503439e+00,1.867920751225289111e+00
1.834888819458907472e+00,-6.948432693673362692e+00,2.015397425846428003e+00
3.672535379649322529e+00,-6.163715207743129199e+00,3.250076841713738784e-01
3.114586610457540927e-01,-9.106227218663773826e+00,2.090967865947494508e-01
1.310688235609215546e+00,-4.050707835083557029e+00,-2.033575373631424821e+00
7.814858655366359041e-01,-6.023513676289692143e+00,-1.796233155566273609e+00
-6.332194558554475883e-01,-3.086863826955350998e+00,-1.213108372529511092e+00
2.630761860809752495e+00,-2.903958115828114916e+00,7.096897720119926811e-01
2.172888453100137784e+00,-7.224991066748407853e+00,2.081687034224145361e+00
3.240582393753088208e+00,-4.558743653089654124e+00,4.931737394690730580e-01
2.172205174732199762e+00,-2.883409702968572130e+00,1.639403471040845828e+00
2.331043202699377037e+00,-1.413017815733758065e+00,-6.368448773308835742e-01
1.491523970195668847e+00,-3.081724503464510878e+00,-1.777754059189347480e+00
3.106065149077457566e+00,-5.078521276224615910e+00,-1.060403304049330808e+00
-1.565957163164924948e+00,-1.518215953350434910e+00,-5.541407562642893803e-01
-1.119219228260331267e+00,-2.523511560025660572e+00,1.109005149345347885e+00
2.860151071031066028e+00,-7.571953831731623730e+00,1.999443818836913467e+00
-3.241996470536193109e-01,-6.632211489866072895e+00,-5.657467447343604572e-02
-3.706123446045392344e-02,-5.990533216688641360e+00,1.209054660342869791e+00
6.381469071906780144e-01,7.153479834242987279e-02,-1.831074372394312588e+00
3.524098485662562119e+00,-9.247322384404444762e+00,-1.877568985045221794e-01
-8.036397502874903509e-01,-4.734513506191367682e+00,3.960359720729905164e-01
2.593798401733791614e+00,-5.836248422963463689e+00,1.785604415820398749e+00
3.018240284780480565e+00,-5.455278454316484726e+00,-1.090479242977172358e+00
7.141420237868046916e-01,2.141108495809655454e-01,-1.367787472922546710e-01
2.739695740662019041e+00,-9.539415824321780590e+00,-1.617625318933840539e+00
-2.538798910193839145e-02,-1.705115402892529053e+00,-1.866304297747119367e+00
4.056051309978292885e+00,-7.819942843903715968e+00,1.367210665110480672e-01
-5.130734388699135229e-01,-6.010589683515046744e+00,-2.281260213738785791e-01
2.296210044755533364e+00,-4.512481408515681913e+00,1.775450609968111326e+00
3.741375097806665995e+00,-6.554545989924159599e+00,7.820253561733278014e-01
-1.685220011972424770e+00,-1.402714742322042740e+00,-9.219851243128052783e-05
4.067214727712091360e+00,-7.869392334147065071e+00,5.899919308821387487e-01
-1.703663485683198697e+00,-1.084987578458288748e+00,-4.878049432119785367e-01
-1.269041755612202893e+00,-1.258455314419673288e+00,1.242105654141419713e+00
2.780223685359698660e+00,-9.635527911650131117e+00,-1.763584197189369096e+00
-3.778664730606339228e-01,-3.237254545889788115e+00,1.694809800757876683e+00
1.211966117244325236e+00,-2.637581864660211384e+00,1.883380834096321177e+00
-4.126350653846684313e-01,-8.811499149139472020e-02,1.506297283470240833e+00
-9.040071084324970974e-01,-1.541023836245948575e-01,-7.659475801919484184e-01
2.218116124239360776e+00,-6.471676897941987860e+00,1.900748558962548351e+00
2.098816580473025439e+00,-8.840910640049402858e+00,2.062165578022264523e+00
2.772178589966592721e+00,-3.581242241304610108e+00,1.023293419749800037e+00
2.109182028550829813e+00,-1.622569139670936966e+00,1.124001266109528885e+00
1.715196309464576796e+00,6.570120347885274881e-03,-8.912018387336100300e-01
-2.533620930137490262e-02,-7.589790517357989152e+00,-2.255613656997454974e-01
1.580708799786178842e+00,-1.757131694656969945e+00,-1.683098218168334714e+00
8.950179161814038054e-01,-1.476928360416504438e+00,1.872444878074908781e+00
1.899552078205766659e+00,6.398392340946799095e-01,-1.971477301250383063e-01
2.979824007337351865e+00,-5.812274087221398489e+00,1.346305990821975440e+00
-9.167686089573837682e-01,-3.304648874976774953e-01,-1.534681738213475422e+00
-8.674358263203209018e-01,-1.333875259407646841e+00,-1.771173289363079828e+00
-4.056260557160522584e-01,-6.465246206641563909e+00,-4.437421979398935568e-01
1.283815339397085475e+00,-6.478661559313424689e+00,-1.760221100507724623e+00
3.751302601861442820e+00,-8.497740410732706806e+00,-8.566978159743484644e-01
2.224068947920486039e+00,-9.727802562162988664e+00,1.589492364097641275e+00
7.254018856615638278e-01,-6.968734445173923930e+00,1.758943748697076037e+00
-1.693724277610381801e+00,-4.050054066295600830e-01,7.827659236104365925e-03
1.712855161980391561e+00,-4.184487901584638792e+00,1.973127574254415428e+00
-5.262469314327533620e-01,-5.495584894112420571e+00,7.399836639920553960e-01
1.298737952384222849e+00,-5.763978523243229901e+00,-1.960063381688474049e+00
2.035203846619134005e+00,-1.285646986674536807e+00,-9.968058759528206636e-01
-9.438242702970895959e-01,-2.946282228360860511e+00,1.074901469209506244e+00
1.851784062555940968e+00,-6.306150823398782634e+00,-1.878351192270222070e+00
1.262245969191302386e+00,-6.102229876037815082e+00,1.951351604854607569e+00
9.064068434324262791e-01,-8.030178093192136268e-01,-1.716299855848972822e+00
3.401805262447525902e+00,-5.971434760395061048e+00,-8.350779506136429831e-01
3.884936513221259879e-02,-7.232434929368684706e+00,4.584337580600543749e-01
1.783280626729622398e+00,-7.630843083810223693e-01,1.420410601401084660e+00
2.045775183729038105e+00,-8.858876438358684879e-01,-8.106990790647997658e-01
9.289717078949158990e-01,-3.701131029582779508e+00,2.043438312423434322e+00
3.466353201703446629e+00,-7.357847623048437313e+00,-1.128551078660413154e+00
3.040184956800658256e+00,-3.917288076308644396e+00,-4.727624448749144781e-01
1.694789879087299056e+00,-2.461776583300386623e+00,1.944116389945907075e+00
-1.187872423440096137e+00,-4.505949282827619862e-01,-2.202072727819503473e-01
1.726738071173380407e+00,-2.455977412843605379e+00,-1.575151632881370833e+00
-1.354360299369049114e+00,-1.837003175813616274e+00,-9.861628222640252961e-01
-1.740827186156107542e+00,-1.031905209155512315e+00,-6.645447940031995460e-01
3.132485849451179583e+00,-7.800796426144447793e+00,-1.538584321264124366e+00
8.153043004133190275e-01,-8.655910899269885661e+00,-1.287095267346839877e+00
2.688857649990497478e+00,-5.977355553108189667e+00,1.677982900888059792e+00
7.767890276366398172e-01,-9.336022091646325904e+00,1.248319005334852072e+00
2.403465070159483297e+00,-4.038556186600163578e+00,-1.484351197677928225e+00
6.186285462770079180e-01,-8.235912877683244204e+00,1.387911314180163558e+00
2.423549816191275852e+00,-8.383634077448055777e+00,-2.015535732500871813e+00
2.657520922451451106e+00,-9.517341774967611912e+00,1.414262761919375722e+00
1.164797829747204583e+00,2.102761157040071438e-01,-1.597702296357384366e+00
2.119390165833349826e+00,-3.866347499251494124e+00,1.590492283677140906e+00
3.819893113716174238e+00,-8.117944021958479084e+00,-1.091763986717535273e+00
2.891771188200632281e+00,-4.156519355850506692e+00,7.671269292957232366e-01
2.129123702292304632e+00,-7.046273619364837870e+00,2.151621538071517126e+00
3.185208648307759294e+00,-7.533630661114210092e+00,-1.597263118912180868e+00
-1.320987223116762976e+00,-1.370089631155406273e+00,1.159680563271715314e+00
3.842337398557242878e+00,-7.211874290258086795e+00,2.475483416137752857e-01
3.001301157109232509e+00,-5.708347916831633562e+00,1.295704431657562550e+00
1.340381052066344836e+00,-6.714142344922169769e+00,2.015077464587201828e+00
3.390358204886626314e+00,-9.427029274784914037e+00,-1.201671485342445278e+00
1.751137591813568983e+00,-4.174560889773789363e+00,-1.988589228815031307e+00
-1.228050114844870117e-01,-7.891943364209642597e-01,1.978498826849275138e+00
3.552743142889274619e+00,-8.988263217889430834e+00,1.765247962154909089e+00
3.527224366624260199e+00,-7.620716706494349957e+00,1.430541609742805420e+00
1.364385035830078197e+00,-9.936676997935020239e+00,8.551918756654754983e-01
-5.366035358462923899e-01,-1.334910130565486464e+00,1.753351261701199482e+00
-4.661077411978612473e-01,-2.979429223206577326e+00,1.437023338796956429e+00
-1.019242096458491620e+00,-1.592211593054707608e-01,-1.473502696663290257e+00
2.524189634614574795e-01,-8.766282505640143441e+00,-2.656197873027410505e-01
1.691937174774189589e+00,-1.377209830485474740e+00,1.409806129978439015e+00
-1.015625054024483775e+00,-3.299334943797154196e+00,4.477210266475177280e-01
-1.537098583994154222e+00,-2.895583768465495034e-01,-8.566133983991072176e-01
1.081833706602728817e+00,-3.298413593233060936e+00,-1.826155719092186214e+00
1.289568889846669730e+00,-5.641731271320330476e-01,1.620528876796706985e+00
2.403775980864779616e-01,-5.972398518976577364e+00,-1.441943263026828292e+00
-5.293249934065973328e-01,-5.095538691439791101e+00,-6.583406789052362873e-01
5.987042610419993638e-01,-9.615161985857072935e+00,-7.861292421950872855e-01
1.804664474255257334e+00,-3.908726078528722336e+00,1.769463022215973513e+00
-2.291622767533325611e-01,-4.855172861648273219e+00,-1.330942918598432501e+00
2.982472950523197497e+00,-3.672284144022775365e+00,-7.656212034033319513e-01
6.802033533149649536e-01,-6.281562642894516379e+00,-1.761779539033239805e+00
-4.257911464230160203e-01,-1.590037024705956537e+00,2.014285951614691594e+00
2.688965090915264700e+00,-5.252444126550580350e+00,1.688707426766440811e+00
3.464005669093985329e+00,-5.783885721840063887e+00,-4.220993083411504476e-01
2.597774298464107900e+00,-3.128806942533834512e+00,-6.000898038013720015e-01
2.059981024770513258e+00,-3.903049783473985013e+00,-1.694416141284421862e+00
2.317947557327226515e-01,-7.128131584526597564e+00,-1.207677267703885615e+00
-1.187302149055683209e+00,-3.985007523122263695e-01,-1.330721203495816241e+00
3.258132921153227723e+00,-4.782820578593861782e+00,-5.740180753615418130e-01
3.451145744372808188e+00,-8.990288147828325194e+00,1.690644035011933388e+00
3.401325073076433725e+00,-5.788841781742335435e+00,9.021529047147354152e-01
2.028439794110926453e+00,-9.709708527066833739e+00,-2.322265527911894500e-01
7.260931187447569046e-01,-9.625146462218182819e+00,-9.215364747073089280e-01
2.911844978825876673e+00,-3.147359172805086924e+00,-1.156967515252993461e-01
-8.182687663877076245e-01,-3.590819392965077794e-01,1.796553994150952738e+00
-1.613258675328966413e-02,-5.091351998210270402e+00,1.717189205747984726e+00
2.750563455997256046e+00,-2.908068746135309190e+00,-4.474407825157528107e-01
-1.991173667436519079e-01,-4.001226203293960282e+00,1.615286526794018629e+00
2.186385716738106666e+00,-3.115227305164686378e+00,1.719458195579665061e+00
2.427231433738500144e+00,-9.607767328027522424e+00,1.376608020339706195e+00
3.701584463663731395e+00,-8.309163298733064806e+00,-1.196195032616897524e+00
3.227137613624957879e+00,-6.218684980030735332e+00,-1.318256793869840404e+00
-2.006663654906168937e-01,-4.235437593973876425e+00,-1.596840835728618568e+00
-1.313566175565731520e+00,-1.401674542083148234e+00,-1.082384646834599673e+00
1.057344341148569455e-03,-5.658043420272996116e+00,1.514840100172737181e+00
-1.957328514569882383e-01,-1.480841589635810918e+00,-1.927848453777154969e+00
2.567933515325059979e+00,-8.403224860818452768e+00,-1.809507136294019602e+00
-2.562357581258726258e-01,-1.754382587876984090e+00,1.875370698013955506e+00
-1.675257572130922190e+00,-1.309135330987683643e+00,6.328705306686428500e-01
3.086073670860652651e+00,-6.996206518509986871e+00,-1.333450410920216767e+00
4.142331779255148838e+00,-8.406587037014734420e+00,-4.836958914179618763e-01
3.693028672245576516e+00,-9.110686954769589008e+00,1.664029461884664718e+00
3.257823144485998412e+00,-5.267071912195618211e+00,-5.808585374991785955e-01
1.238268067532181105e+00,-3.947685315606248135e+00,-1.817262209023259523e+00
-7.324007495629514253e-01,-4.840345312632258201e-01,-1.750165450715477133e+00
2.471633408123288689e+00,-3.046517433213669523e+00,1.031105288938606312e+00
4.821584039089559237e-01,-2.375549260277221908e+00,-1.997529815448098933e+00
1.439037067671127823e-01,-5.158948846183855963e+00,1.746319275882476596e+00
-3.500089586038296896e-01,-1.942711213463773179e+00,1.783126388446525823e+00
2.891602450118023970e+00,-6.639931636973846807e+00,1.611752274835481114e+00
1.603376690623192991e+00,-9.867969314649863932e+00,-1.202303572673820931e+00
1.693527369809000760e+00,-3.089565268482903804e+00,-1.792963737820816306e+00
1.340716317613369402e+00,-2.934335854851461978e+00,2.063004594584809670e+00
-5.550776982940752724e-01,-5.894745683771801303e+00,-1.224465713124895244e-01
3.887851519627554708e+00,-8.039262937355651673e+00,-8.210535048287380677e-01
6.233322790199123942e-01,-4.325051283536160973e+00,1.837719785931534844e+00
-2.405063685947073093e-01,-5.676266813434097891e+00,1.542910078156704889e+00
-2.941854687366196042e-01,-6.987396326407123048e+00,-2.843074781740702051e-01
2.021654476904353626e+00,-9.840000239472459498e+00,8.053085321877677671e-01
-1.512634145752660420e+00,-1.395654350468424010e+00,-6.714738674675899688e-01
1.029179858560498761e+00,-9.987457622588637562e+00,-5.788004881286390457e-01
2.612985850120884024e+00,-9.441554935772966672e+00,2.257459840449719479e+00
5.687476479531087259e-01,-9.773209731442815240e+00,-1.435416593375674621e-01
1.960193208890782524e+00,-5.433625427869503532e+00,-1.948924176539714948e+00
7.941161457528371770e-01,-9.530874601844541161e+00,1.343696153731954279e+00
6.978557622389603976e-01,-9.096371932534045968e+00,1.246160862447129647e+00
1.937887714187080501e+00,-9.701219699512902750e+00,-1.275010594614776060e+00
2.801406855503685733e+00,-2.796005100170800173e+00,2.998767471311957200e-01
-8.009402052681637851e-01,-4.944720298663373370e+00,6.655370574708732168e-01
3.561476538117584578e+00,-9.184098237242430685e+00,1.571433781207762781e+00
2.322582826556760516e+00,-4.828208588950353430e+00,1.677222209610907733e+00
3.940399416216804784e+00,-7.387212798215346155e+00,3.130087885365698264e-01
3.634628220026220102e+00,-7.932514444751403992e+00,1.366164660691929766e+00
1.286778957831795633e+00,-4.973517548468437965e+00,1.984309933260494541e+00
2.287217311459266433e+00,-5.147749747747631943e+00,2.034930288701418455e+00
3.694423742146933698e+00,-6.297347239621687187e+00,-2.111127368188155662e-01
-3.832498595956633225e-01,-1.553108504949950452e-01,1.568410070288408065e+00
-1.340342724488765569e+00,-2.065453187923162570e+00,6.323977423972690914e-01
1.714411807040349123e+00,-9.871370645044803827e-02,1.076587177003096807e+00
1.065332155989990648e+00,-7.837461581272854971e+00,1.900907446512351662e+00
-4.346229991248928282e-01,-2.532822770258268630e+00,1.669592862346610751e+00
1.102893919106458176e+00,-8.366808216537993559e+00,-1.666310451954028604e+00
9.773590508246678965e-01,-5.641023935566961356e+00,-1.895803918171107272e+00
-5.819269596537466338e-01,-5.664411826519948789e+00,3.345833459721093694e-01
4.151638819529078206e-01,-6.524404688781081596e+00,-1.426222738575800175e+00
3.097039225108921268e-01,-8.988705844688977820e+00,4.749356295290918170e-03
2.569548354923314459e-01,-4.683690479040936161e+00,1.731065624326378005e+00
2.990982992917115002e+00,-4.224528488372908619e+00,5.545757729421711968e-01
8.111631984519326322e-01,-1.035656642785209636e+00,1.929494609049765552e+00
-1.082180114052712305e+00,-3.816829564684056653e+00,-2.192391090550311894e-01
2.413460841483237029e+00,-9.788383458602234910e+00,-1.322329241188272997e+00
1.617964691587639725e-01,-3.565713254845708668e+00,-1.732371355775109034e+00
-1.763042798560287838e-01,-6.528662627666032670e+00,-1.049374103867455998e+00
8.671678331077126156e-01,3.636128397348544761e-01,1.317217249024859926e+00
6.893103279785348647e-01,-9.935387674526282353e+00,-7.344351339402656054e-01
-1.175733349905744296e+00,-2.775144638959479715e-01,8.177015272075297547e-01
1.744890978135863913e+00,3.178490273586848103e-01,7.950760723981759037e-01
1.932537524160611531e+00,-2.002739404921554389e-01,-6.146927949951492831e-01
-3.667577862200790961e-01,-5.278869900357716638e+00,-1.183842099660775027e+00
9.236579968224936099e-01,-8.199047863449735019e+00,1.939094479665748771e+00
-8.129469386802362640e-01,-3.577498529616921275e+00,-1.071359113602539992e+00
-3.094704821945447049e-01,-5.397911575033150555e+00,-9.922487856109233340e-01
5.113769157957731570e-01,-1.187049854976013563e+00,-1.855595200085782492e+00
-3.264859383905199808e-01,-4.186402991854391686e+00,-1.422860209458714831e+00
4.878237817672282373e-01,-9.756471135928430627e+00,-2.024241465422142033e-02
1.793143942001405922e+00,-2.755579077411060007e-01,1.149119267432097136e+00
7.299954420116810949e-01,-1.801397685368465895e+00,1.997188546787279639e+00
1.317700340282561333e+00,-1.634698861732639008e+00,1.781885494994488006e+00
2.488331165630590282e-03,-5.790656397090561569e+00,-1.320212666391328504e+00
1.750307129642677983e+00,-5.606290662709192851e+00,-1.872596725031056009e+00
3.919805340393395454e+00,-8.003786720085653172e+00,-7.078462582199172015e-01
