6.222039377742304644e+00,-4.657031572228873095e+00,-1.371843669515493414e+00
6.660670339732479128e+00,-4.693916132424739374e+00,6.461355000975435026e-01
2.378229583259145130e+00,1.370931605515866236e+00,9.626670262517720289e-01
5.005626502835084146e+00,-6.618582804690462673e+00,2.162601914331702402e-01
2.730482256225629012e+00,-8.109776694898089389e+00,1.347144418869825389e+00
2.676124737039282220e+00,1.368182286428798911e+00,-2.474650388473923629e-02
5.949022973772704503e+00,-3.838390364941130617e+00,-3.593067110949574872e-01
6.529801832685578233e+00,-4.649378801041702758e+00,5.634730150591868991e-01
3.242199036123917022e+00,-6.746869595465727620e+00,-2.752332691283502442e+00
5.920545229020252265e+00,-6.042396318443637782e+00,-3.305293136156008948e-01
9.426158410136493693e-01,-6.496521103312585588e+00,-1.047446209474905743e+00
5.237841739681694087e+00,-4.296416464318261852e+00,1.873982594952782410e+00
5.747116935922889081e-01,-3.888047548041312140e+00,-2.725940236427024654e+00
5.887843334378125348e+00,-5.918279822910163190e+00,1.451355436309642810e+00
6.438841004258184064e+00,-4.347503805711267155e+00,-1.226766995334913624e-01
-1.579654595162697239e+00,-1.699646261489036636e+00,1.698355128825546068e+00
-8.608522085612011487e-01,-5.843214662617067789e-01,2.340083132699668500e+00
1.322672960201522196e-01,2.308247786783686195e-01,-1.624059895969737655e+00
4.088656391839986526e+00,-2.121410409101243566e+00,-1.773383914037688358e+00
4.331253484553215571e+00,-7.084332692268515252e+00,-1.389117730253859095e+00
-3.319908060328661259e-01,-4.634731445529824079e+00,7.388885131910643000e-01
-6.128042571664360505e-01,-2.940174976777545912e-01,-2.181850649778684925e+00
1.880638718706638235e+00,-4.182447221376554225e+00,-2.931714353653547711e+00
4.834205579225006488e+00,-3.399734345570833760e+00,-2.124770233861162705e+00
3.628643460480530880e+00,-5.711362012622664963e+00,2.628428125468557308e+00
3.561179020518852045e-01,1.582395609924016067e-01,2.369021497155444855e+00
6.198954519350569070e-01,-1.385642336280775266e+00,2.799602497634051890e+00
-3.035181982655322241e-01,-4.359428505470684279e+00,9.858560434247561899e-01
-8.595793755572487260e-01,-2.877170910354696964e+00,-1.667159956522186182e+00
5.702251924911073688e-01,3.652841013264711556e-01,1.230523465288293039e+00
-9.412453449999151622e-02,-5.026417873143633308e+00,1.252697809577141830e-01
-5.215844336152997140e-01,-3.930067848236380001e+00,1.177667700481360269e+00
5.254124874328500727e-01,-2.472027943003777817e-01,2.917749524648386661e+00
-1.554646025281714694e+00,-1.026398335673599060e+00,-2.581816115279503276e-01
-1.383562114818722932e+00,-3.033940969776663277e+00,-7.011384798276264485e-01
3.040987873585970558e+00,-3.694022350412399791e-01,-1.559585490100191985e+00
5.776296473201487203e+00,-3.889985078812757457e+00,8.271731861782556372e-01
3.571710930180198584e+00,-7.192053075055350853e+00,-2.945076728664058230e+00
5.956466158795382881e+00,-4.106075892808859429e+00,-8.492735449274663173e-01
6.216310361199793855e-01,-5.419429797801659454e+00,1.160046144039705185e+00
5.332621287225597584e+00,-6.494022446199089416e+00,4.696482058238321544e-01
1.207920391108183028e-01,-4.958122923455992925e+00,1.166714339487584517e+00
4.828676966189252795e+00,-3.991640569127985483e+00,2.155589849015255854e+00
-1.013701936201745424e+00,-3.517137476933192453e+00,7.526109178849815784e-01
3.539989125396257874e-01,-1.286767720040544738e+00,-2.840189247900593905e+00
5.270677092891029591e-01,-5.861281043269909397e+00,-6.855607012962720015e-01
2.646574756177393795e+00,-3.812258103173573165e+00,2.834154628794515851e+00
-8.140131823909966396e-03,-2.001917824741452356e-01,2.364506060640697349e+00
5.493586143777574371e+00,-2.810170581719890315e+00,-2.681549819880353347e-01
2.611876864704904211e+00,-3.135617218298606623e+00,-2.972013353632829258e+00
1.667457875010874613e+00,-4.317211349648763630e+00,-2.823288450190740928e+00
5.620735603404596326e+00,-3.408581490702339512e+00,-7.308846549974521434e-01
4.150140868281019912e+00,-1.340779229106666248e+00,1.013943298612330013e+00
6.287599014671693354e+00,-4.168055586679527913e+00,-7.510521988405283178e-01
-3.835646254139141176e-01,-4.528632410748422821e+00,5.842496583134551003e-01
-5.773262001147430045e-01,-1.694996006368787000e+00,-2.525468927748244941e+00
2.606720583283383075e+00,1.227274068189835976e+00,-1.377967398000136748e-02
2.557032236667223124e+00,9.088539895111490408e-01,-1.274685175640302148e+00
-9.121100918008655523e-01,-6.849655598333088680e-01,-7.951591185365435299e-01
-1.402320124422882008e+00,-2.326658692966748987e+00,-1.728764803946523321e+00
6.122978758113108988e+00,-3.760642098951283874e+00,6.093138451509155784e-01
1.915951615218611348e+00,-8.082055924120295387e+00,2.582006167691699300e-02
1.267101893477011965e+00,-2.780620404510177668e+00,2.672185517771669794e+00
3.105404721551260572e+00,-3.579994246035092420e+00,-2.965936334835199695e+00
1.812788951752261624e-01,-1.187721499434311011e-02,2.014985033223715583e+00
-2.153090776774098103e+00,-1.664542774548883886e+00,-6.188589879648578318e-01
4.841550158580589347e+00,-4.683472191368089454e+00,2.426104030017470770e+00
3.591181690262402526e+00,-3.626713435119520490e+00,-2.779681385459310317e+00
5.453208224915040425e+00,-5.847527593944861657e+00,2.438874003096886955e+00
3.026536196988234284e+00,-6.187927217250305922e+00,-2.912951933870520538e+00
-1.793597166743066129e-02,-2.427602682680225221e-01,2.332325579968492324e+00
9.777372241257200614e-01,-6.530153592087563297e+00,5.555011542730073359e-02
-2.130311653808001360e+00,-1.477464552231568362e+00,9.672496852659849820e-01
3.033993172867432975e+00,-9.092761022170301466e-01,2.074496510622975798e+00
6.176073093950083859e+00,-4.007463052878596166e+00,3.782063240080198452e-01
2.903113289811849906e+00,-7.083354040729180623e-01,1.978190554751143360e+00
1.311009041289491250e+00,-4.858556515356507788e+00,2.228024551260487041e+00
5.237931784786278300e+00,-2.999132941485586734e+00,1.144618887918574579e+00
2.437182931355215576e+00,-3.776913791816033927e-01,-2.151198623543626454e+00
1.435491088260503867e+00,-7.178090737303430835e+00,5.977431483065186457e-01
-2.457100414991532089e-01,-4.769796365516362435e+00,-4.625552871200964145e-01
-1.789475339417042898e-01,-4.164317552885150597e+00,1.100689594656755421e+00
2.148732484761918471e+00,-8.297807892833603205e+00,-4.467385954089283517e-01
3.731068106450858402e+00,-7.544188589352094354e+00,-7.317641479637374546e-01
4.503079986372161336e+00,-2.150660349460554066e+00,-1.350239569522262650e+00
1.245846685291109868e+00,-6.255405283685203877e+00,-1.676676072241177540e+00
1.811738857331981256e+00,-8.089721778643678363e+00,-5.493634443434168846e-01
5.582205515926220940e+00,-6.227135728559777483e+00,-1.861485965852990976e+00
5.476489510353583334e+00,-6.281735908071402363e+00,2.251967459573466446e+00
6.199904337546803035e+00,-5.755161642030264701e+00,2.072984176587451710e+00
1.875257329036247977e+00,-5.634879524452476751e+00,-2.584659666801386813e+00
4.301409601957944417e+00,-7.177991931579004614e+00,2.154013365735965024e+00
5.464947473363624297e+00,-4.327398830560984067e+00,1.872547059604878106e+00
3.014854064751092633e+00,-1.399654853257578102e+00,-2.415300784398421108e+00
4.677578584434123776e+00,-2.796934875340201909e+00,1.583996768875751249e+00
1.916665693101410994e+00,6.002509698348396094e-01,2.163077759748837092e+00
5.034992213777389480e+00,-2.903581049753022558e+00,-1.139967889121663358e+00
-2.297156081117707416e+00,-1.896170034839460117e+00,1.325767041155791193e-01
4.190274532616209413e+00,-1.810993482336422211e+00,1.419214498801023128e+00
4.890753321300900680e+00,-3.103668352442690015e+00,-1.952864739517589321e+00
2.543589647475152482e+00,-3.939635502181916493e+00,2.760358318370562003e+00
2.979098305126478552e-01,-4.771993620507112510e+00,-1.845471123483848341e+00
3.770890199306263124e+00,-7.472366782168029964e+00,2.422404804940479828e+00
2.617455875051615255e+00,-1.633969988743363855e+00,-2.564926439019811433e+00
5.461827426094822080e+00,-5.055110631160546930e+00,2.082203506808494531e+00
3.340259810898813519e+00,-4.079907537018824470e+00,2.730678642361192399e+00
2.398995156609507795e+00,-5.453372063169662498e-01,2.180143644467342323e+00
5.122289212022013594e+00,-6.568230345542932724e+00,5.698633438381935923e-01
-1.520033221177852223e+00,-8.834271717015159675e-01,1.549737204372182986e-01
-7.058468489072233787e-01,-3.021914404411744748e+00,-1.859156892249232307e+00
5.062947397696796470e-01,-4.482248801164969265e+00,-2.096387615452781628e+00
2.716291336923350563e+00,-4.121883074014870418e-01,-2.095635112879236761e+00
6.778427850874366722e-01,5.167244897790169711e-01,-1.234991219507899363e+00
2.248936561445884941e+00,-8.338312473520900880e+00,-1.327912726582446967e-01
2.219535929442161937e+00,1.109131368570827281e+00,-1.378914094292265302e+00
5.686601043312839110e+00,-6.313963161208866026e+00,2.064296274002670017e+00
2.690698953367792523e+00,7.329684972609166183e-01,1.300645516289866244e+00
4.515745567733168819e+00,-6.803986190697977499e+00,-1.111333305290774565e+00
-1.659787407103819890e+00,-1.718232541687323645e+00,-1.765369259625385157e+00
3.754662122427191218e+00,-6.324471365394738420e+00,2.657949220712013005e+00
4.499127938797637505e+00,-2.770995280667633232e+00,-2.099560739016385735e+00
1.834614211556877317e+00,1.201769395425880349e+00,5.368246869496259288e-01
2.482403443655382347e+00,-7.125996840256421549e+00,2.000140242567154836e+00
5.134686686007731815e+00,-3.582222175708315692e+00,-1.986170611625797999e+00
3.004584600937313943e-01,-2.680289984253065416e+00,-2.736134095155530854e+00
4.439433010985440298e+00,-6.981962121381730668e+00,-2.401257346883237442e+00
-8.957834123037831109e-01,-3.212004313544577272e+00,1.560315207319489916e+00
2.193630435676631407e+00,-1.333497001809525795e+00,2.629795083815702039e+00
2.845572704389404350e+00,-7.950781294301452640e+00,-2.255599321700854532e+00
1.924748276865398067e+00,-7.774054712479794738e+00,-1.181448140671192304e+00
9.420504977925601153e-01,-1.474395627648336093e+00,2.764329978320675618e+00
4.953431069582758361e+00,-2.894010649921318734e+00,1.214227746512764661e+00
4.244573962170298032e+00,-7.231192671992491050e+00,1.981775432372105517e+00
5.088462941121552952e+00,-3.736380628099032375e+00,-2.174576609370106439e+00
5.996364853656894311e+00,-5.956542509205893232e+00,3.951473987661044962e-01
5.324206476239303765e-01,-2.845017909730117367e+00,2.507196001230105331e+00
3.341689965114441385e+00,-7.386920397944111372e+00,-2.815896251863221789e+00
3.064312834981917977e+00,-4.072594856382795392e+00,2.873095101974053378e+00
5.145157252473721243e+00,-2.446659748906468312e+00,4.211396840416044285e-02
4.734691110783758816e+00,-4.568926985302458554e+00,2.461608290389862841e+00
-1.007311868425533746e-01,-4.442578945065862150e+00,-1.407686731347448816e+00
5.301333261796913554e+00,-6.314692238900706300e+00,-2.473133251828329104e+00
5.510332396394824528e+00,-6.209789296714107287e+00,1.995926948110235744e+00
2.304314778532156716e+00,-4.987522259009916858e+00,-2.803444939473566766e+00
1.654791963419925072e+00,-7.172132786224008960e+00,-1.098562181982524644e+00
4.189961867826717423e+00,-1.184482448002062593e+00,-8.234767806087638087e-02
3.864140472548903915e+00,-1.834921183507805198e+00,1.808530209386696397e+00
4.190201069825783442e+00,-7.126201563955224749e+00,-1.705694228854553351e+00
1.702539708905642879e+00,-3.280753497301164501e+00,-2.937610073183901882e+00
1.607683911352616457e+00,-6.257205642746799690e+00,1.676406274450490175e+00
2.717453460637417884e+00,6.123467640165389803e-01,1.263269417550223039e+00
4.479831210819362752e+00,-7.013432224543830529e+00,-1.977775287205212562e+00
1.397728625802103219e-01,-4.923091632977221743e-01,-3.003296401327772536e+00
-1.927413708554064575e+00,-1.146664154353939535e+00,2.865032827106552271e-01
4.049136397028612055e-01,3.509141513901990472e-01,-2.094645305542313984e+00
5.445396102545692507e+00,-3.130816876312661812e+00,-9.035962680152517246e-01
-5.237184337138106605e-01,-2.770200057507977487e+00,-2.030249870115301114e+00
2.434374575288666520e+00,-6.331001052608576929e-01,2.404198982427154796e+00
3.542699888024966715e+00,-7.538386425723042628e+00,1.874657197746188164e-01
1.417142834174338173e+00,-1.306127496715011826e+00,2.785684639098489512e+00
5.433036703786349175e-01,-1.161910596651706484e+00,-2.933838794471200551e+00
1.492960660642065118e+00,-6.490113511959799908e+00,1.263730150683332276e+00
4.693963059399206550e+00,-6.662106711212437027e+00,-1.426757006139738881e-01
1.857130526846646479e+00,-5.734549394702700198e+00,2.251413153465520178e+00
1.583437313193948537e+00,5.850892397651393795e-01,2.400803935583880833e+00
2.692146167037582583e+00,9.637483902623553700e-01,-1.072331484608461949e+00
-1.217757642470316037e+00,-2.089667690850498083e+00,-1.955899327673232602e+00
1.395010361137927202e+00,-6.823609118852555611e+00,7.769883147885900954e-01
4.020801319459740952e+00,-7.402225236917828077e+00,3.929622957694464680e-01
3.238454638516238049e+00,-7.066678205299036009e+00,2.401192812411825805e+00
-1.125201509632608454e-01,-2.567950572223843264e-01,1.793565055552770460e+00
6.663564074927002423e+00,-5.052587284740342355e+00,-1.217721687954523402e+00
-3.747117904260194310e-01,-4.190352417395262208e+00,1.177675864157534669e+00
-1.091877520942867497e+00,-7.315301511023561964e-01,4.101276827128690350e-01
2.579895225181194629e+00,6.923729090023730270e-01,1.380359336880410570e+00
4.717169791802934498e+00,-6.762924124879848620e+00,-2.707542011794249692e+00
9.261379464328825528e-02,-4.393234556959601633e+00,1.291962898622427858e+00
-5.690742694548647229e-01,-5.695507888233783955e-01,2.082347663448403718e+00
2.337131014297403553e+00,1.549715249197922029e+00,5.650752162191149397e-01
1.338900847300866781e+00,-1.753593047837437302e+00,-2.942974035246715303e+00
4.556023676212573648e+00,-5.486484588239248339e+00,2.602083011293226722e+00
3.527547621787186394e+00,-1.698604556910650487e+00,-2.235715298785805771e+00
-2.102046010764386796e-01,-3.688078537561130688e+00,-2.001308576357849756e+00
4.052356547240934859e+00,-1.517486809385495183e+00,-1.570851250185111070e+00
2.601989751294741637e+00,-2.076156317282048747e+00,-2.876197936811415001e+00
-2.377144371973353987e-01,-1.716323614132378439e-01,-3.461788630173088799e-01
9.498765795809294143e-01,9.551936608480536550e-02,2.832860099028539302e+00
3.854556738539151262e+00,-3.645509934040609412e+00,-2.690338015794990767e+00
1.612376346839656804e+00,-5.916703038841125029e+00,-2.204053558858181550e+00
2.528614898303662262e+00,-4.037383987399232765e+00,-2.997053449331089414e+00
1.718268545974618755e+00,-5.218511807243130463e+00,2.229963219924405493e+00
2.710916327246668533e+00,-7.468065904836555191e+00,1.873747569047210293e+00
1.220878730505948750e+00,-6.759031438578290363e+00,5.619945443775186122e-01
4.091755946629694662e+00,-3.360953581080353914e+00,2.327374220813613004e+00
6.318608005487764689e-01,1.715372088095560854e-01,2.387204832889775474e+00
3.347389995362181736e+00,2.115623407689444235e-01,-5.397630493563659870e-01
1.577125453591670112e+00,-4.994659117453359443e+00,2.202614981777387904e+00
1.346960210882508946e+00,7.349687558875250826e-01,1.924173611194898381e+00
6.903769072973842569e+00,-4.748294147259262132e+00,-3.987678850035712985e-01
6.342276204369752257e+00,-4.295242981684915584e+00,4.119608806221721764e-01
2.737520766874425249e+00,-3.132550754268709436e+00,-2.902287094379478738e+00
4.650223510568943119e+00,-5.113494504077527480e+00,2.487929599828609728e+00
2.441276253768128068e+00,-3.120629832997890762e+00,2.938673059452132641e+00
4.563650611853373285e+00,-6.257542392861804359e+00,2.695917260105467506e+00
-7.476360005037023804e-01,-3.699500394858529884e+00,-6.846657216210858543e-01
-4.918922929590825999e-01,-3.381065773336072056e+00,1.750617247322348469e+00
1.242272611088875711e-01,-3.848956780447249759e+00,-1.962000162476434495e+00
-9.171051869155991687e-01,-1.508721819812119058e+00,-2.652889533439194203e+00
4.435116548075801468e+00,-1.949424037822264477e+00,1.136727850229028558e+00
4.438203317553158556e+00,-1.599484301880427006e+00,-4.918510047140923769e-01
-1.348968150814787437e-01,-3.183459315924505595e-01,2.414313339724821095e+00
-8.098418194715500951e-01,-3.678922507087596938e-01,-1.561111898546839516e+00
4.879673667215308264e+00,-6.796264789165047837e+00,1.033327256768219460e+00
1.076520226820750548e+00,4.483918860001446793e-01,2.745636327022118461e+00
-3.901677901480270494e-01,-2.195860080365680922e+00,-2.435523193433808409e+00
2.993021867485453139e-02,-1.376058764863683725e+00,2.776886271120214467e+00
6.126492927188857962e+00,-6.067669470875555859e+00,-2.246495862323606207e+00
5.046976327546687457e+00,-2.253980732950425558e+00,1.411563228776554178e-02
2.142611903600022405e+00,1.446813948261649330e+00,-9.504014829235058956e-03
2.859089878490522096e+00,-4.730615569386966257e+00,-2.961076105226881694e+00
7.796055715622812743e-02,-3.344249189766777874e+00,-2.275527465958411266e+00
4.492278904803515438e+00,-1.759671758883570414e+00,3.632870399737520017e-01
2.870215910188079533e+00,-5.803225781370655589e+00,2.559822841055013232e+00
2.380296279972723195e+00,-1.168198207552503254e+00,2.597249312969714730e+00
-1.198573834199933685e+00,-7.443634471142468456e-01,-2.339608002440443979e+00
-1.135929153912192957e+00,-3.395927795061333132e+00,-6.765438752598962324e-01
1.774115855466619651e+00,2.790062706246932422e-01,2.369991050099546026e+00
3.589439804502656983e+00,-6.153492595206357940e-01,1.304212752407289289e+00
3.802257994028752086e-01,-1.832245417339958049e+00,2.820572788933065400e+00
3.743470523437930186e+00,-7.315180825801873787e+00,-9.119515503948241730e-02
2.417576226948658036e+00,4.330602418951922661e-01,-1.670229902673182165e+00
-1.021687242091870312e-01,-4.422621132927098131e+00,-1.395672100376166958e+00
6.086286400504610228e+00,-5.640473661226393709e+00,-2.225297769864304609e+00
5.103066150406808887e+00,-2.545770141894534877e+00,3.742370999779220386e-01
1.622707641500933828e+00,1.218711926128348555e+00,-5.808864081499506282e-01
2.203927931267324336e+00,-7.911057597146727183e+00,-1.461083005150192626e+00
4.278383578427072287e+00,-7.018951408215821530e+00,-1.666635005741917031e+00
5.047085007950980362e+00,-6.335529137220438756e+00,-3.015618464400582788e+00
2.869917673893494392e+00,-1.619579906411561465e+00,2.425424782532712431e+00
6.828705677704752786e-01,-4.820356077859590194e+00,1.964079809063894011e+00
-1.931080767516984986e+00,-1.474851481566487710e+00,1.466995345269840323e+00
2.251911299637504360e+00,-5.024607723144747240e-01,-2.397285336564090485e+00
-1.507932823795597788e+00,-1.167662750804961069e+00,1.311440069317204804e+00
2.811236220505989980e+00,-1.535188251293338579e+00,-2.433811664059060575e+00
3.955559232952660320e+00,-7.185297047214171506e+00,-2.747364180449879179e+00
1.079367352838494831e+00,6.763368726475322834e-01,-2.248634074680666117e+00
4.033358010138887728e+00,-7.304990612319198107e+00,7.261015545211320088e-01
1.663446498965284848e+00,-1.930037285842286066e+00,-2.902492408221169828e+00
-9.139382452468223228e-01,-1.319592027909710863e+00,2.406834031153938902e+00
-1.196149672024806598e+00,-2.865586111188902496e+00,1.390291272983386284e+00
3.822638405299310094e+00,-1.929025321169973495e+00,-1.925263322733379745e+00
1.534486341786591046e+00,-5.146251456648784028e+00,-2.584685016903336852e+00
-8.764567983851008215e-01,-4.236721006788224941e-01,7.382597050732771227e-02
2.598201982518248965e+00,-2.188392993976060907e+00,-2.803497988388563567e+00
2.479356741849121804e+00,-6.393660555584990135e+00,-2.730816618824120301e+00
3.678617385800461381e+00,-6.810414947027231491e+00,-3.010315177191461355e+00
2.705691540981202348e+00,-1.436946859553768219e+00,2.392126019021016070e+00
2.052656710776468607e+00,-7.605566443617278516e+00,1.120231030007343698e+00
1.974983452936823980e+00,-4.762735298070248646e+00,-2.858968377722940879e+00
3.375962520792551658e+00,-4.764333207673218773e+00,-3.081148956523485971e+00
1.188046452465628455e+00,7.176878859997045668e-01,1.722859003891184515e-01
4.604302676168652297e-01,-2.863395782453315164e+00,2.576082613259882859e+00
4.298918686936471723e+00,-2.289777870481085831e+00,-1.894662307076718566e+00
1.026826964949090648e+00,-6.563739488706937131e+00,-1.030858944408498790e+00
-2.309759693076326170e-01,-4.793446580494268083e+00,1.831447683244622204e-01
4.428185519366381939e+00,-1.437302003223067670e+00,-5.779491688105623526e-01
5.140251710658213291e+00,-6.577227777782396423e+00,7.443004715719610254e-02
2.161280421781569316e+00,-7.845203209279062229e+00,-1.156231511735562378e+00
3.550170384773597032e+00,-1.023230699454405812e+00,1.463694073360301218e+00
2.480705899148673232e+00,-7.456323570463909700e-01,-2.416894601164887302e+00
4.718323649459127189e+00,-6.763823701679124056e+00,-2.317245339359709888e+00
1.194594458935094305e+00,7.001161911306224006e-01,2.378970174619743805e+00
4.269619907318160656e+00,-1.299355658625225507e+00,-2.064632207792921892e-01
3.702908602815520034e+00,-2.989453632999263810e-01,-2.044942186841514908e-01
2.876271908990166271e+00,-1.488293468111011320e-01,1.654464469267446836e+00
-4.166284273608812649e-02,-3.017464809845349816e+00,-2.384361557295901157e+00
1.566306848586047185e+00,-5.111750090086501608e+00,-2.516456427890469527e+00
3.403342590530560319e+00,-1.619946706271699455e+00,2.183670716189157091e+00
2.522074641662762406e+00,-2.721537248817089250e+00,2.735676190103720540e+00
5.281727971533016763e+00,-2.681895187390546997e+00,-2.203465686443727423e-01
-6.259157636710941386e-01,-3.188664010232497681e+00,1.614300283034530992e+00
2.190192568836679676e-01,-4.605107043535577205e+00,-1.606775772692975002e+00
3.344233936186536305e+00,-5.035761337870559018e+00,2.708250068713842218e+00
2.671417600709435458e+00,-1.097047660815011483e+00,-2.456866870495221011e+00
2.909722798707675473e+00,9.384464081804712032e-01,4.637959080255429217e-02
5.577519587745407570e+00,-6.271302591746665378e+00,1.778013263190844295e+00
4.325807204273521833e-01,3.343142691231233976e-01,-1.776902859016517677e+00
-1.599011155050628519e+00,-1.102667339557644288e+00,-1.322088071543890408e-01
6.123110478615877206e+00,-5.924475297840418264e+00,-1.117778415442773454e+00
-2.088381789851438519e+00,-1.920056011220980574e+00,-8.890305701404531691e-01
4.135917288934822800e+00,-7.190315945787896013e+00,4.640651434489114213e-01
3.442888226101744831e+00,-2.360206573704814126e+00,2.268168142839626533e+00
3.302398062782831545e+00,-5.665429726988242543e-01,1.623143795383041876e+00
2.166230578753348013e+00,-3.333629621952559852e+00,2.671168059104164438e+00
4.450608083814266536e+00,-5.208714634063769999e+00,2.557422668333503957e+00
6.442609801756226773e+00,-4.503272816711688442e+00,9.034597347164129433e-01
-2.082585869892704888e+00,-1.947596602070366112e+00,-4.003211712120912091e-01
4.195820203104335455e+00,-7.219661143345690313e+00,8.912898585100950122e-01
3.718291058500400759e+00,-1.640401058892810182e+00,-2.120375225332359559e+00
4.396160256221153251e-01,-4.805242814347531422e+00,-1.944173248082391670e+00
-1.022564852229730370e+00,-7.294532111806846242e-01,-1.707591345057095644e+00
3.398736540150478547e+00,1.655220790218954185e-01,-7.007542056844406897e-01
2.031133654725382431e+00,-3.672922239017358148e+00,-3.064156376618101252e+00
5.386151597406845681e+00,-6.122065609121688290e+00,-2.143733352582215979e+00
2.113522201785546617e+00,-6.962208708845888161e+00,1.702373004634547771e+00
2.638300241771663668e+00,-5.478884135237747977e+00,2.538271425018066463e+00
4.434389916146339594e+00,-6.914287009128893047e+00,8.061795921053550584e-01
1.266912565301977267e+00,-5.910606023711402202e+00,-2.023884867971805335e+00
-1.772957348317512949e+00,-2.365752003023477990e+00,4.959664332421262478e-01
4.319747915008752770e+00,-1.104921433406508058e+00,-2.038018069889013517e-01
1.999653163340350037e+00,7.866143009949830844e-01,-2.072396950527105819e+00
4.805669465136761076e+00,-2.766581369372419719e+00,-1.421687471433595196e+00
-7.307128777752500692e-01,-1.353131740511059888e+00,-2.517225026175067715e+00
9.900144106609906069e-01,-6.856549959119712767e+00,-1.192448155693479755e-01
3.296081629727307671e+00,-1.357276321294865085e+00,-2.259239454567594674e+00
2.095894218139805254e+00,-1.273981452943120152e+00,2.711803247205502032e+00
3.548535130337308274e+00,-1.457423768296942368e-01,-7.598625771565326037e-01
3.029108179664835032e-01,-5.228370058524652642e+00,-1.398987508045863137e+00
7.611668360927666965e-01,-2.558137523142828496e+00,-2.831668756114221530e+00
2.496138182803251393e+00,-3.792058687082554336e+00,-2.998768307409822143e+00
1.437970979215282552e-01,-4.513291829594972882e+00,1.483530556529521593e+00
-1.065238724089517669e-01,-3.394119303606707216e+00,-2.107170093113917453e+00
-1.542447851132034087e+00,-1.785661911513301892e+00,1.814949319446472531e+00
3.057102525160163786e+00,5.612631193194530521e-01,3.472248001739053902e-01
3.510335474855577065e+00,-9.712003506838402800e-02,-4.093139553646422679e-01
1.402717271060844428e+00,-6.070493209894752162e+00,-2.007399436519152758e+00
3.328762926678564771e+00,-5.045329115742510417e+00,2.642387449072800987e+00
-1.811431135370031864e+00,-1.216607439474557406e+00,1.711329466038336022e+00
3.927374061658347681e+00,-6.917278030188586335e+00,2.611295577359996845e+00
2.686016327157441652e-01,1.193773580064476647e-01,-4.138720581173236379e-01
2.932457717792632756e+00,8.043730528007062563e-01,5.861666265475625748e-01
5.747697652761083020e+00,-5.590056142725075006e+00,2.099448612864303954e+00
-1.412880631622773775e+00,-8.097422243534356801e-01,-2.212221881340408203e+00
6.362256096005889816e+00,-5.552039150501721032e+00,-1.379380132822120020e+00
-5.734636104800970857e-01,-6.360715447866008843e-01,-2.648277727825558259e+00
1.124818490502158985e+00,-2.305857714534992553e+00,2.794793932621649102e+00
4.901780453385486958e+00,-6.563559542638861544e+00,-1.164458551067462100e+00
3.988433765316069302e+00,-4.841137716542877278e+00,2.778888343300679242e+00
2.038081853619913453e+00,-7.319253455855484702e+00,-1.780359735854001535e+00
1.529081484450069084e+00,2.700704787226157477e-01,2.441863774367059037e+00
-1.085369467443246944e-01,-3.044910558434591241e+00,2.310655583942208491e+00
3.309926877183475558e-01,-2.616375617276865739e+00,2.722147649286350557e+00
2.965892380219115942e+00,-2.151182211199454297e+00,2.520404164911189238e+00
-1.544573880622291728e+00,-9.901998049697866566e-01,9.830061825757249183e-01
1.408845210842618823e+00,-7.035338732448025212e+00,5.591652172875288818e-01
2.991044746220574257e+00,-8.080780919676088914e+00,9.620334433561114063e-01
-1.322575426545167035e-02,6.078533719580394082e-03,1.725814833333686016e+00
2.965759298156682267e+00,-6.596435990819929707e+00,2.554700262816538725e+00
-6.389947739987008601e-01,-6.226304886727968002e-01,2.756451384371734203e+00
-3.155372987110053318e-01,-1.588650073839674048e+00,-2.786874348642064181e+00
4.213599367818348540e+00,-5.363693585523812146e+00,-3.059423758335909405e+00
-3.914852409974106662e-01,-4.493150629358601655e+00,8.203807534902740617e-01
5.982201849243473646e+00,-6.040429236050846917e+00,1.506735749697741600e+00
-1.946314130799154496e+00,-2.114594990896635718e+00,-7.020049433348953816e-01
-1.140280282338005380e+00,-3.172766770827711191e+00,-1.041889976587862643e+00
5.941193820698562611e+00,-5.905869529257468997e+00,1.056255128561146561e+00
6.582791029607858446e-01,3.203145245363976379e-01,8.276972825148459778e-01
2.048046598324428036e+00,6.632917347464609703e-01,-2.022912740451593194e+00
-8.940027493324583796e-01,-5.604894426549955622e-01,-2.020432290586913648e+00
2.862730714383918240e+00,-4.638740808602102916e+00,-3.101505920858980581e+00
2.743846052497969090e+00,-7.450726140108625550e+00,2.075405790750893598e+00
1.127729420068658506e+00,-1.142223353394308916e+00,2.738749988272781710e+00
-2.700957823639199562e-01,-8.342031937103635553e-01,-2.875025551174316796e+00
4.308270521236826411e+00,-6.315173014553653985e+00,2.762723077878139755e+00
-4.273187823963542353e-01,-2.367880840959887045e+00,2.413285369538897385e+00
3.683590118288812221e+00,-6.255581455771236365e-01,-1.043460886239788277e+00
-9.559278290451246329e-01,-1.673521577002566207e+00,-2.511842464059129032e+00
1.579652187909238656e-02,-7.662145935858408752e-01,2.890157996179470334e+00
4.185087822553938075e+00,-7.104339092006259015e+00,-8.141070928881979363e-01
2.497630582517518683e+00,-1.831116203049840685e+00,2.643218049042731277e+00
3.126706803338034302e+00,5.298647863387171419e-01,-5.131735923080391615e-01
1.039778102309151464e+00,-3.820279682513971764e+00,-2.598563007071543307e+00
1.898546180141875150e-01,1.011823406287217370e-01,2.794870908953117183e+00
4.515736497019441131e+00,-1.399751916416210218e+00,-1.583833503367559903e-01
2.866978306944424348e-01,-5.106065733602300760e+00,1.229325766925306818e+00
2.689586862307531412e+00,-2.038539055883536122e+00,2.581731599454331505e+00
5.322829178903330849e+00,-2.878269865814355732e+00,3.292593007642037328e-01
4.328645456411733150e+00,-6.997686576586643170e+00,-3.017948541012498431e+00
1.386429197366701588e-02,-4.895751961885872028e+00,-9.042465509965511572e-01
4.151179226380149245e+00,-6.517091246302677554e+00,-3.109945456962648347e+00
2.713830187569998387e+00,-3.816286296562894087e+00,-2.993366978650762178e+00
4.010111123998853166e+00,-2.045995845778819877e+00,1.672957073745865442e+00
4.517561391657399783e-01,-1.788328083336502061e+00,-3.082752865749623261e+00
3.926041792900654581e+00,-5.667236160046471127e+00,-3.026632580400737904e+00
3.526628478196211169e+00,-1.642115505333561654e+00,-2.258251004251465410e+00
2.222760868083000663e+00,-3.034438686712388922e+00,-2.867154869027544351e+00
6.353936771276790241e-01,-4.172959272713628209e+00,-2.365329831497680946e+00
-1.195874450023194091e-01,-4.039804214975295515e+00,1.692360721716694938e+00
-1.248938808681727790e-02,-2.846626480036429374e+00,2.364201710682074076e+00
-1.254619457992997233e+00,-8.278660577717779079e-01,-2.013616252845944921e+00
6.646530045435781631e+00,-5.425694216492249033e+00,-1.394601659402913807e+00
-5.312758475600654062e-01,-4.168299406697073550e+00,5.936417240187701339e-01
1.286444828068468160e+00,-2.569527310984854318e-01,-2.836551822504166154e+00
-2.040778267409239621e+00,-1.845651858178279037e+00,-9.386138185263237510e-01
1.280331673494736533e+00,-1.164644696081096997e+00,2.748712152636232364e+00
5.846994781173999733e+00,-6.144493449836956778e+00,1.521997886155264990e+00
1.651554928059807859e+00,6.151284726185243246e-01,-2.316177233059604657e+00
5.211618604743605943e+00,-6.349591530176330600e+00,-2.872832022334872004e+00
4.626652204067307039e+00,-3.697004665065809270e+00,2.174223538313530657e+00
4.846465348301423504e+00,-6.204956388734733430e+00,-3.012082671803238298e+00
3.012436881235906583e+00,-7.815004196728682295e+00,1.647234142505698884e+00
5.968389408248222505e-01,-5.929002713568574556e+00,7.232035484851951912e-01
3.222656351347234160e+00,-7.818177022348288929e+00,-1.696976890556403106e+00
5.428294217070138039e+00,-3.076793785965153738e+00,-7.722799957827158890e-01
4.219458827883179275e+00,-3.938395746042620438e+00,-2.662712254969399339e+00
3.654261728035522516e+00,-1.443603977718720843e+00,1.704870180693395021e+00
6.280238908623589467e+00,-5.222785080368501198e+00,-1.863557995003818801e+00
3.321336460731360685e+00,-7.555583291181891425e+00,-1.493373744802237280e+00
-1.359777844401819147e+00,-2.522999389955690841e+00,-1.139831099238751033e+00
1.478001440404397737e+00,-6.610206655502045336e+00,-1.823071057562721142e+00
2.832924932739088408e+00,-6.551258419812144851e+00,-2.597197193529767301e+00
5.467862550434520408e+00,-3.046369310111783246e+00,-9.170334335438301565e-01
4.168357849501580503e+00,-2.696702758421155810e+00,-2.279599697464732788e+00
1.915325817323173752e+00,-7.798708963643060876e+00,2.373205165549408524e-01
2.006522847312113000e-01,-2.080549032440186519e+00,-2.880520997064317523e+00
2.333472530927843902e+00,-4.168321159340821147e+00,-2.926944418883092869e+00
4.929456812390687226e+00,-6.669986589551284872e+00,-3.289191601325966996e-01
5.717671958082835459e+00,-6.070936843666420835e+00,-3.112255954814512338e-01
3.605266931166685840e+00,-6.741299211886909504e+00,2.601028334408246323e+00
5.888759199116174514e+00,-3.649451027284896565e+00,-4.337778680985616142e-01
5.672601257338819813e+00,-4.163314475728680186e+00,1.606072315611461132e+00
5.795135597694931917e+00,-3.898359315003040226e+00,-1.331512972834898667e+00
3.332387588067585726e-01,1.685046458924630008e-01,2.326926308252182274e+00
-1.070985272250324360e+00,-5.734027624030308967e-01,-8.057411778962830784e-01
2.072944816007230351e+00,-8.087819462872639420e+00,-2.466922239166142172e-01
3.125599919064244059e+00,-8.531201600030063892e-01,-2.077665642849514160e+00
2.298508725273602782e-01,1.306612409051992885e-01,1.490681733937472719e+00
6.668436624395258638e-01,-8.675317877019532720e-01,2.856489474655750094e+00
-5.919273579824908538e-01,-3.270832707217392166e+00,-1.573448170988221984e+00
-1.648011550998097929e+00,-2.670084873856202634e+00,4.997842900273853917e-01
1.027424368007951588e-01,-5.041966912856853611e+00,-8.684748551494069213e-01
2.762826890415873482e+00,-7.895654205172784934e+00,-1.991758948385579098e+00
4.526181363458920970e+00,-5.638603002205978321e+00,2.636424657162498519e+00
3.215744862579096530e+00,-7.609590869066827246e+00,-1.849636233144259956e+00
3.112995192324156335e+00,3.597365100136563076e-01,-8.302253812900681762e-01
2.814227090035076317e-01,-7.513561987899612660e-02,-2.852830033992881820e+00
1.514637363028671802e+00,-1.147737306487145448e+00,-2.853483926197654341e+00
-1.482374234442552785e+00,-1.722951773565392530e+00,1.819165404151617205e+00
4.844884946661667691e+00,-1.831684282077447046e+00,5.668849228745229674e-01
2.980347773611204953e+00,-4.971234184184043947e+00,-3.009065241070342012e+00
-2.080836778854882052e+00,-1.908647108157438987e+00,5.302524935996855149e-01
6.570529013354871495e+00,-4.866991553235036960e+00,7.850969549375625967e-01
9.463086824461459656e-01,5.818655456348057475e-01,1.756228424817714240e+00
-6.438666434755341283e-02,-4.912494144494798931e+00,8.823952563248722569e-01
-6.328321799300408168e-01,-1.011460545642272058e+00,-2.699825726049956742e+00
3.842246892834981331e+00,-7.490336637200299741e+00,2.473514190377613886e+00
3.636430271279228243e+00,-4.717717423309381597e-01,-3.211343671412367207e-01
6.313873982281019259e+00,-5.858383108048780485e+00,-1.733630710937029917e+00
2.525290032366551696e+00,-6.111014908991810657e+00,-2.630630965082422890e+00
-4.482773527268084091e-01,-2.805467408736988411e+00,-2.290842857931318477e+00
4.911873533000020942e+00,-3.272849396851794435e+00,-2.065248667007296923e+00
4.404558626553266798e+00,-2.941899015174208376e+00,1.976851595349726320e+00
1.280213389698434678e-01,-5.040840454996901698e+00,-1.307693915935847828e+00
1.855099616679406260e+00,-7.153447034337794719e+00,1.237408599668962772e+00
5.291389288710258931e+00,-5.970755163614557937e+00,2.400289290181232271e+00
1.078510359722849810e+00,-4.727018847945685387e+00,-2.403160359787183342e+00
2.507081907357479267e+00,-8.336412870371459505e+00,5.005937509725617574e-01
1.574267489708997880e+00,-4.418888671975727434e+00,2.529848330446784477e+00
6.140748306261442302e+00,-3.995424693591814957e+00,-8.714719123001852807e-01
1.515266322347585959e+00,8.458341118272615367e-01,2.151575146992325827e-01
3.476109530897215638e+00,-1.918005043729677228e-01,-1.898273133247075639e-01
-4.095430179503924406e-01,-1.636943134411815270e+00,-2.607978563583110976e+00
2.044673127248391342e+00,1.184049787644372076e+00,-1.815224529798689757e+00
1.888638559233412062e+00,-7.903215367050551166e+00,1.439252668137691316e-01
5.398687283806795634e+00,-6.437870635231242922e+00,6.313600386046207547e-01
5.731828244044693044e+00,-3.222199540487053593e+00,-5.378515180625509373e-01
2.112781475755663330e+00,9.149837808275641526e-01,-1.753351370592883596e+00
3.909724331008713971e+00,-7.069093372992282243e-01,-2.787825164505388087e-01
-1.826032200788092474e-01,-4.744501757999626257e+00,-1.996281701963999178e-01
-2.343322214992613173e+00,-1.679794093568877544e+00,-4.678219476386735742e-01
4.824936900526425987e+00,-3.351617947724835567e+00,1.764648626102069962e+00
4.302543859225788081e-01,-5.518984142149755634e+00,-6.704664699034168507e-01
7.032266667085985690e-01,4.300136499378410249e-01,4.303943308160256831e-01
2.746981161885780232e+00,-3.250716404418643735e-02,1.874895383119380199e+00
3.354577298610727620e+00,-5.792033006529925032e+00,2.636372719242121132e+00
2.123260381315936751e-01,1.393165828706292853e-01,8.631405450170175353e-01
4.848741110545923938e+00,-5.991435745904912125e+00,-2.943835586409782934e+00
1.907346370545476066e+00,-1.246033028921114560e+00,-2.855685455465271527e+00
1.462522772193723730e+00,-6.998403233434261850e+00,7.833309203373584051e-01
3.463766905438457222e+00,1.074828495849572962e-01,2.615401079286636676e-01
-2.300316227490457166e+00,-1.535035077607320053e+00,-4.422715774458865212e-01
-3.252132455265343558e-01,-2.303076435169968850e+00,-2.609324130440000111e+00
5.264030946068746886e+00,-3.339633953679367551e+00,-1.417000245345392040e+00
1.760561805319554640e+00,-6.758794700602817507e+00,-1.525506776450792135e+00
-5.693519583338813028e-02,-8.292406780679639766e-01,-2.856492350329960406e+00
4.935729834072398070e+00,-5.944808698315663165e+00,-3.070672581932295753e+00
1.064881265152326367e-01,-5.151634842422871507e+00,-7.973388633201728970e-01
1.008242575603899072e+00,-5.433350727041426964e+00,-1.861413870193285858e+00
8.889419359194503656e-01,-4.455526240017805506e+00,-2.236954116134334480e+00
1.729147280799608222e+00,-6.370835987472458051e+00,-2.198585088466294746e+00
2.640078112621938811e+00,-2.736375569593246446e-02,-1.914160575000301900e+00
3.749299093587994847e+00,-3.661616556494175612e+00,-2.835512825374354229e+00
2.618661227135716807e+00,-1.495453479902437044e+00,2.513690649891819451e+00
1.721648916409435764e-02,-5.175195434924126481e+00,-1.537049572447267975e-01
1.004009156166458139e+00,6.920904720772157181e-02,2.882609211175739539e+00
5.599285543435536638e+00,-3.968907174401163473e+00,-1.641658030385285461e+00
2.810762385130730068e-01,-5.590560503759953725e+00,-8.419658457839115928e-02
3.871494357491485072e+00,-6.957429368103523748e-01,-6.818322041238408238e-01
4.988948224029570611e+00,-4.869912366358255085e+00,2.313477165068250407e+00
9.373844838168355897e-01,-2.621047490693558579e+00,-3.041497888283481554e+00
