1.766241418149197662e+00,6.136852362769055880e+00,-2.122204493443752060e+00
3.427419520781266549e+00,5.702999484401471086e+00,-5.418632506906902790e+00
5.678030721303518602e-01,5.625377142870546972e-03,6.230733236791802243e-01
-9.252438640421321026e-01,3.821185183209225844e+00,-3.796640022575374473e+00
5.596369463321253512e+00,5.837504324263146138e+00,-1.971064433093572488e+00
-8.500297540849890421e-01,2.599972753232907330e+00,1.163592936671092426e+00
5.443494107168583618e+00,3.934047211415406586e+00,-5.351075618903587738e+00
2.918892063756817645e+00,-1.931021953873720332e+00,1.091991116672511142e+00
3.383766236965181307e+00,-2.002821081910949985e+00,4.261628225147226501e-01
3.598170155214556853e+00,6.042684215900560041e+00,-1.496840822328405540e+00
-2.234681908063806954e+00,3.072794373723359840e+00,-1.025969893258853238e+00
3.569142404436961957e+00,1.262920094138746618e+00,-8.068824231559808879e+00
1.961653897853997019e+00,6.750298664268760129e-01,-6.902575479187049723e+00
3.406083834157488166e+00,5.908902152424449383e+00,-1.539664362805781783e+00
6.777692698875517063e-01,5.226320846350756000e+00,-6.332233437928086239e+00
2.861493927577601681e+00,7.297590402877807136e+00,-4.009236998241578753e+00
-4.482508188852294545e-02,-2.799324942053863285e+00,-2.082926178631071323e+00
2.966444647363379872e+00,6.002909996949520988e+00,-5.981682351532668918e+00
5.311205856663582914e+00,-4.926668945946477973e-01,-4.054247196695145661e+00
3.814931883422095993e+00,6.728850257736789242e-01,-7.560110160977364657e+00
1.195627791610451851e+00,-2.841270275864927530e+00,-9.662961150330117155e-01
1.642242197576695206e+00,5.075842014737221852e+00,-7.360714665912597710e+00
-2.309946537729449023e+00,4.945962858941275186e-01,-3.546482562858762844e+00
3.141543775068674632e-02,-3.009881532781936819e+00,-2.096703356187389566e+00
6.416760422265848973e+00,5.896960740227668030e-01,-2.980082793989220047e+00
2.446589421773405437e+00,-2.642379184533729664e+00,-2.039961840468730081e+00
1.645286193660743468e+00,-5.354600786477580199e-01,-5.685822874226548862e+00
-1.599560715593900451e+00,1.134429934384921568e+00,-4.821775270609416908e-01
1.936804400965906892e-01,5.176716576721296370e+00,-2.339724616315507433e+00
3.433575682702872278e+00,-2.211856066162236623e+00,9.544426823323590159e-02
2.306998583617478893e+00,6.754693010920359342e+00,-2.925388777090287107e+00
4.495306539448364447e+00,4.780421988169315739e+00,-5.015318455783600582e-01
1.147422263112290342e+00,6.084538240987001245e+00,-3.384169035602024866e+00
-1.973333410437125846e+00,5.398450446754193832e-01,-1.509831643120841838e+00
-6.592079146238531973e-01,1.567341643015434993e+00,-5.280183763352016335e+00
3.813015588537284728e+00,-1.100887976143374525e+00,-4.820047813288477201e+00
1.583443653066649581e+00,4.893981087990779244e+00,-7.637891327248778062e+00
2.675115589984180087e+00,-2.406111776607305242e+00,6.127035145929728976e-01
4.061435708866856231e+00,5.346984709684012849e+00,-9.447378704353539547e-01
8.260112225507222350e-01,5.613900839131452436e+00,-2.943270354424936119e+00
3.768110926885634093e+00,-3.587637070736404143e-01,1.570509766027688325e+00
2.967989392874873289e+00,6.302055358877415081e+00,-1.928208183894261962e+00
3.158196653792195718e+00,1.528564773248309638e+00,-8.063215553315977502e+00
4.050802465100257876e+00,4.803276397624904881e+00,-5.936301002597768495e+00
-1.699175129420939623e+00,-1.701581266281423810e+00,-3.160585041366014369e+00
1.715805946189975728e+00,5.635608144357600047e+00,-1.249268175954078020e+00
-1.743529404649624137e+00,-5.338315932179453771e-01,-1.728054292932175606e+00
-1.528676393708292558e+00,3.468929321648761555e+00,6.614484548913551754e-01
2.757014259841722215e+00,1.348908533732388060e+00,2.499092897911363131e+00
1.343487148221491623e+00,6.058793135672871699e+00,-5.304166741534049656e+00
-2.377639515256793068e+00,4.021504693721816293e-01,-3.186233324774891074e+00
5.920717786571922936e-01,5.670268768541330218e+00,-3.632267982096899495e+00
-2.379894224559423233e+00,3.139770210699103892e+00,-1.279292576691283934e+00
1.443600657315062818e-01,1.580210274920403668e+00,-5.900941748246630425e+00
7.655995198386585932e-01,3.085135009818191776e+00,2.256817918643383880e+00
5.982529468868738931e+00,5.445271945368623356e+00,-3.664253048180812655e+00
3.118099507810787152e+00,1.549911024026976447e-01,-6.843669367224560318e+00
6.264318710198416795e+00,2.174553510716898064e+00,-1.158732809420705667e+00
-1.084833075789387369e+00,3.568949131219963711e+00,-4.058837795964152839e+00
-9.381896427773468439e-01,2.792278271986192717e+00,1.057907028062277766e+00
3.941117045291374854e+00,2.774440189152199143e-01,1.431766860513299822e+00
2.514674766576932008e+00,2.271227848783221148e+00,2.314839405555296104e+00
1.589707129709858752e-02,2.592078915970386088e+00,-5.672593523685666383e+00
-1.185586594758913925e+00,4.411955484064400856e+00,-1.573530208318483226e+00
5.129936416551371670e-01,5.431070351518346051e+00,-5.025871614791545205e+00
3.148829800614908248e+00,1.202160743560156231e+00,2.369436577166446956e+00
5.033358733425691511e+00,6.499657760043580090e-01,1.110650670673008766e-01
5.329695180051135850e+00,5.080373574166785478e-01,-3.808999303529840286e-01
1.940337845459265020e+00,6.719333507615878887e+00,-4.020076293360246744e+00
3.845254285399034355e+00,3.026269299625886866e+00,9.536244844501936546e-01
1.009060502124217606e+00,4.118169308668178985e+00,1.085340635901035355e+00
7.160898251779989288e+00,2.892802627016698214e+00,-4.496857832364501206e+00
7.244062591174434296e+00,4.660621111841646069e+00,-3.103065258528986181e+00
-7.676423496125386325e-01,-2.120823167643920204e+00,-3.262509197612763145e+00
1.744369580277564502e+00,4.712169567418175831e+00,-7.825557678415539620e+00
2.965312564334758871e+00,4.832576079699838267e+00,-7.690216144353873018e-02
-6.200100741494607437e-01,3.740522347765202316e+00,1.232496997815497153e+00
8.924659151227087861e-02,4.861865181507655898e+00,-4.851467251026853056e+00
3.052476508745197492e+00,-2.481794100851757889e+00,1.658926615452286646e-01
-2.379660561892690041e+00,3.018035912859136971e+00,-1.484110553173856761e+00
2.799330466046933363e+00,1.187394424814693927e+00,2.504460497376914674e+00
7.177581259602570540e+00,1.358534941435154408e+00,-5.533035581413437320e+00
1.503144099661506417e+00,1.154769421067163071e+00,-6.892612068838168682e+00
2.901446123754214956e-01,1.695931022258654997e+00,-6.266465353560088936e+00
-1.383369364155744963e+00,2.082165192947870835e+00,3.430829659273729182e-01
1.668397309979817722e+00,-5.854128735998354038e-01,9.866737033162029658e-01
1.403814341340151817e+00,5.991192521097859824e+00,-5.570164043569916679e+00
1.330676196065028183e+00,-2.356494131991089702e+00,-5.748365040797777104e-01
4.277530443527134629e+00,-8.831008228675732985e-01,-4.661815765006428691e+00
7.045966220001382396e+00,5.089961275063219048e+00,-2.405378699014729893e+00
1.617491341210750999e+00,-1.571046327464884262e+00,2.261145392229637063e-01
4.352163765875270762e+00,-1.305551254157870211e+00,-3.624873300795898867e+00
7.636524422653415911e+00,2.010931624604101131e+00,-3.184265998837690237e+00
2.935862538311382774e+00,-2.383128960266920782e+00,-1.702639255358025627e+00
2.135024410258244743e+00,6.946016354051137931e+00,-5.867252107533616368e+00
-1.033204535780147149e+00,2.157209292187786787e+00,-5.129019325801290385e+00
5.253750996975149690e+00,6.255338749651478736e+00,-3.601057554933397409e+00
4.041876414276341478e+00,5.928119952988464725e+00,-4.990137491664470737e+00
2.454620980014082576e+00,2.785293310324134186e+00,1.999527857408771592e+00
3.221432262854935225e+00,3.549449312715307947e+00,9.884610622170807437e-01
6.055223433270747080e+00,2.257946613634201238e+00,-5.761608684069448927e+00
-8.418283136203028594e-01,3.928664410482833436e+00,5.670760364521787444e-01
7.576317677609508472e+00,2.813096658945289263e+00,-4.096621691555228040e+00
3.355180105379126587e+00,4.171895243326497749e+00,2.547698831642989381e-01
4.648191649402688697e+00,3.788217376406947334e+00,-5.832551879991573429e+00
2.168169615737393752e+00,-2.969567400001597246e+00,-2.184642851217998061e+00
3.799230159628508741e+00,4.495681794625304484e+00,6.661771788680452555e-02
1.050540333082663924e+00,-1.762922209060054701e+00,-4.439099696138572249e+00
3.838498793673256415e+00,3.754188600931207542e-01,1.732787692112417011e+00
1.177811586048005843e+00,3.150142518086351373e+00,-7.471806828571475378e+00
-1.692485984226998585e+00,3.392220577277039073e+00,6.331999144196900353e-01
4.706477945510841643e+00,-5.182626134790809802e-01,-5.720287360280862821e+00
-6.879932940290967025e-01,3.712366940480511968e+00,1.275572147018282143e+00
7.494295888479962642e+00,1.286843598861776794e+00,-3.931115603058715102e+00
5.018988669258501290e+00,-4.715323513657845300e-01,-9.591451645481715582e-01
7.916163767678365382e+00,2.129810501235799070e+00,-3.977726423796786648e+00
3.691863182784495656e+00,1.566624927988075899e-01,2.020583847356527851e+00
8.063436676966151406e-01,-1.355095636429839434e+00,-4.620908589001716749e+00
2.774059218068417820e+00,-2.083693342750909672e+00,6.805092201416697018e-01
4.428427447659912808e+00,4.264427374618153799e+00,-5.943976732279593556e+00
3.100857913761850604e+00,4.195076422210116895e+00,7.659211427695240548e-01
7.837863186306456065e+00,2.380552159377930632e+00,-4.217713095924901623e+00
3.179518648766983091e+00,-1.181680836929685841e+00,1.840499553406646394e+00
6.256252644628861326e-01,5.581109067760305464e+00,-4.022280323995669704e+00
5.434686326349933871e+00,3.159355163928351917e+00,-3.809835924797289053e-01
7.082248190735737303e+00,5.236015879383079330e+00,-2.837989665987276755e+00
-3.254902703794554930e-01,-2.579725278882240680e+00,-3.075308741400584633e+00
2.808490959268504561e+00,3.876831740617562527e+00,1.038149816159427363e+00
-2.872747288888140460e+00,9.190130812860216603e-01,-2.028881582461612432e+00
5.084917133760975538e+00,-8.158021804149329093e-01,-3.532704787833389037e+00
2.020707107035764505e+00,6.415362120529914947e+00,-2.939329873416001604e+00
3.976000455939566081e+00,6.856332744099411514e+00,-4.211664408431284201e+00
-8.928103702147063281e-01,-2.511238563239984067e+00,-2.897826721603140587e+00
-1.612497881795950994e+00,3.105012600288008962e+00,1.084129763003291780e+00
7.430275721725634774e+00,1.530337455002090952e+00,-3.366665141560021279e+00
4.645349454238888676e+00,-1.019106770354470282e+00,-4.481439783832308343e+00
6.821953902652213575e-01,-1.854704327726703017e+00,-4.111347854004999469e+00
9.683675805329394759e-01,5.753066767777757384e+00,-5.514781309238552254e+00
-8.029655522187125749e-01,-5.529960649506813208e-01,-4.647721455810805757e+00
4.675041010456483015e+00,4.340567604439018901e+00,-5.716465162018772972e+00
3.916256914623107210e+00,7.000372476874291650e+00,-3.064912374219588731e+00
6.331459606697804610e+00,1.899030101414314053e-01,-4.900540916940617109e+00
3.467148614030667098e+00,2.016589401331029041e+00,-8.305742727789784396e+00
-1.010276823896234522e+00,3.986286956267325099e+00,-3.396485687206112658e+00
-8.590409922172175250e-01,-2.620814698964947009e+00,-2.930643282715854614e+00
2.782583929369421671e+00,-7.059423087005681774e-01,-5.824386290958885937e+00
2.924810697220872946e+00,4.324820981583206603e+00,4.856519366484650102e-01
3.514906641981815127e+00,4.975022213247221714e+00,-6.064765844663429384e+00
5.950765288034375544e+00,7.682526358546987177e-01,-6.923766090728982192e+00
-2.048321537039513807e+00,-2.613139138056269628e-01,-1.949787585043478044e+00
7.833473562950318048e+00,3.629468186313043798e+00,-2.930000386876130403e+00
5.502507138608028647e+00,4.411090925320373834e+00,-8.293364168215396903e-01
7.464744257926348325e+00,1.110500905716101050e+00,-5.112018814034239966e+00
7.593441154659164916e+00,3.664620926621248831e+00,-2.676820632048617643e+00
2.315295025263286455e+00,7.183825838594141366e+00,-5.106052622742500269e+00
2.653004426316691866e+00,-2.793526515049884029e+00,2.498985499406371213e-01
4.248413750570156910e-01,5.416324674741072265e+00,-3.145790831508356256e+00
3.336417678635931860e+00,-2.138668198631873629e+00,4.886063880841243212e-01
5.151405507183691945e+00,-5.364730152587818823e-01,-2.045427863147634362e+00
4.146901021842764656e+00,-4.159884285670829573e-01,-5.878847911188589848e+00
-3.098551636462117287e+00,1.540167913719002080e+00,-2.071420128842409891e+00
4.782655142229183198e+00,-3.796798446585970543e-01,-5.696312509546277880e+00
4.705206674882781215e+00,3.337777180273444166e+00,1.852812454855851110e-01
3.841170692795758068e+00,6.097404221946616243e-01,-7.282269767972016972e+00
2.443877260934602447e+00,5.967216014991314488e+00,-1.664775604093569283e+00
2.533904063767506543e+00,4.310365323472349353e+00,6.544160422483052963e-01
5.838304997498785731e+00,6.835385642200541234e+00,-2.672952180228406860e+00
3.405068440984305500e+00,5.316414570322735678e+00,-5.756818232257118195e-01
4.400712715363503946e+00,6.217678915502157011e+00,-4.533670816021916572e+00
-3.117924683937901786e+00,1.878172728506280365e+00,-1.384283076034601434e+00
1.951407588324685971e+00,2.686222326439641428e+00,-7.879267429272304391e+00
-2.564858082807383255e+00,2.670093884375654536e+00,-1.905850552199204406e+00
-2.513919659431947728e+00,1.577275821894644325e+00,-3.031653016853352423e+00
5.530089650715000360e+00,5.599534191789854454e+00,-1.646999188751259391e+00
-2.245360741057848664e+00,3.049857730833385627e+00,2.651034073786354694e-01
5.484178687707541577e+00,6.751050238522148028e+00,-2.726411585382721992e+00
3.128497045761585049e+00,2.943892884875367155e+00,-7.964801452903404133e+00
4.176627239071686759e+00,-1.106372166033673804e-01,-6.228262161845448119e+00
-9.440665841938360447e-01,-3.910733239932285832e-01,-1.331226552205973412e+00
-1.925275577437342012e+00,3.707570741940585002e+00,-7.227823076245943890e-01
5.220916036817596861e+00,-4.651021464241407721e-01,-4.817647605205964467e+00
6.183645873710561958e+00,4.934572546617318700e+00,-1.533838886596095685e+00
4.062060752688641863e+00,1.570374264156683575e+00,1.412590060264888869e+00
7.340964231845584775e-01,2.252407637058464029e+00,2.343540655943167295e+00
5.989804601154760988e+00,3.741712731871059461e+00,-5.016744325650851266e+00
5.613719432301158108e+00,-2.819658603330471580e-01,-5.166725917038288429e+00
4.652860759453255057e-01,1.709187430782552308e+00,1.455334205795084879e+00
4.602852972761756867e+00,3.285069013259598769e+00,-6.655660231119166603e+00
4.954523369642592101e+00,5.764546734617955082e+00,-1.487040235317278025e+00
2.833356721869066064e+00,7.021776449494068650e+00,-3.571267587547752420e+00
3.116758815826671025e+00,5.445538526784836186e+00,-6.210719499815893663e+00
3.697156288826317194e+00,4.660638000914184786e+00,-6.113718403160652848e+00
7.146037759877127193e+00,4.993990570395701489e+00,-3.108570345364628729e+00
5.537957532778184699e+00,-2.726865973288194467e-01,-1.968186160548793584e+00
1.983331686781998560e+00,4.148064556674647463e+00,1.104247968928916190e+00
6.204279450367942594e+00,2.744669471356241952e-01,-2.603200049027948992e+00
7.448326884858533781e-01,3.896298369155055230e+00,1.330410278822849124e+00
3.514773646890964054e-01,-2.858224041484681344e+00,-1.790882343848294145e+00
6.215687354138018428e+00,2.633004695524006067e+00,-1.135078814141939896e+00
5.502960460352682714e-01,5.258057218262544907e+00,-1.467925927279943421e+00
4.387800665606709671e+00,5.267137798761311274e+00,-9.300705654681575840e-01
9.408507964735254303e-01,4.472141920023325667e+00,-6.710512705753172824e+00
-2.324258040435362549e+00,3.090113319502129752e+00,1.471348359831231023e-01
4.385870645162222026e+00,-1.325898667161168332e-01,6.153044106523840595e-01
-9.433402696761563622e-01,3.968471787439564746e+00,-3.877190512624574037e+00
1.633994408823307376e+00,-2.962892942224437665e+00,-1.996094190894068587e+00
5.108065842720244554e+00,-3.414506838378211229e-01,-8.244264798465522626e-01
8.613410046708808165e-01,-2.143615831065352584e+00,-9.337683692898927079e-01
1.605714489624052721e+00,3.661627386955135233e+00,-7.827726363825081357e+00
-2.643043807278736335e+00,1.354702583015478412e+00,-2.654543979704851342e+00
1.901972686213155184e+00,6.626141423643353789e+00,-5.299767016072577164e+00
-3.068285564912963670e-01,6.235126221024686055e-01,-5.273144723762305475e+00
4.911321459229891495e+00,-2.991164722280371668e-01,-3.780905726416371460e-01
-2.153756803433057421e+00,6.122612709379536833e-01,-3.662897028179452175e+00
6.147466885139384551e+00,2.753525671735527869e+00,-5.269903612296805484e+00
3.616532066280591984e+00,3.310164283309971367e+00,-7.371883435510724780e+00
5.344746776523385812e+00,4.546579755282802893e+00,-4.989529713956549983e+00
5.694109051643740926e+00,-3.372309685932330936e-01,-2.798399124059265830e+00
9.348888670215019792e-01,5.903923455742403625e+00,-4.456420398430463337e+00
2.327924494137921574e+00,2.975317043235629288e+00,1.913764233848935126e+00
2.422689351889782738e+00,6.192382062415348720e+00,-2.093767055031062529e+00
-2.658172371121612976e+00,8.293174612107258037e-01,-2.721985693935847994e+00
6.785626934221016704e+00,5.156184893155716154e+00,-2.351125258240599258e+00
3.286117772282183935e+00,-2.386962473827944020e+00,-5.180302701369895457e-01
-2.420149413934853388e+00,2.547061772359465071e+00,-3.165467202813231906e-01
5.193952476377576843e+00,1.435311223594297303e+00,-7.297320167636336841e+00
-1.523958894961388033e+00,1.303940733738495394e+00,-4.264020653369561487e+00
2.119345973660088367e-01,4.446251058021123193e+00,-5.502177350558936197e+00
4.592766842440496156e+00,3.662797062485009025e+00,-6.088008275453646867e+00
6.407236593821612480e+00,9.412556563478110538e-01,-6.479780540588834015e+00
2.560581331346181155e+00,7.003248991023910186e+00,-3.368541762326556110e+00
1.392070460687484523e+00,-3.083362699111205085e+00,-2.465669570695468327e+00
-1.757752858721616240e+00,-1.845663713326250177e-01,-1.808113688117956697e+00
-3.317643961794911056e-01,-2.297123784029135862e+00,-2.240239524245041469e+00
7.378679054844829110e+00,9.791376417728684389e-01,-4.530400418192525258e+00
4.455103928339742225e+00,1.866118588555619739e+00,-7.556578159506466719e+00
8.418111959588866489e-01,5.755738207809153018e+00,-3.838256400102627364e+00
6.289657289159263698e+00,3.576464883612487711e+00,-4.853478589083332295e+00
2.781715173315340905e+00,7.279157882929657042e+00,-4.917174133494694566e+00
4.389070915144977825e+00,-1.545028753426843648e+00,-2.205963155012905741e+00
4.389917541230333065e+00,-1.531161671494950305e+00,-1.681959076415416643e+00
1.397058529849030117e+00,6.056311875194432481e+00,-5.821130228890371683e+00
-1.141016340695536702e+00,4.494761476992217841e-01,-6.220106520921274695e-01
4.893133690904624133e-01,5.400416515132916651e+00,-2.023098278166144848e+00
2.610576767402357667e+00,-8.040345141308419263e-01,1.937753157424285000e+00
1.885048292211288334e+00,6.210464798350858295e+00,-2.441708070663330510e+00
1.450513454418718151e-01,1.136646936778936023e+00,9.566825397433196265e-01
4.913539073698824033e+00,-6.906319042970907596e-01,-9.336967805382696550e-01
3.451847759095181267e+00,3.049340919497259605e+00,1.124772740707779217e+00
6.525798759348620415e+00,3.290125100792563817e+00,-1.706811356260615753e+00
3.081659263133499138e+00,-1.274358316372836919e+00,1.842217511133443342e+00
4.258871589749820608e+00,5.860061082386740949e+00,-1.295764035905883294e+00
3.457953048917898009e+00,-7.108696464227826084e-01,2.029313821032920906e+00
4.356025357649375707e+00,6.325662729966377462e+00,-4.374615390446638052e+00
1.505978137580339105e-01,5.041454116265869700e+00,-1.860876078126868505e+00
8.728033076029128035e-01,4.100940709587070465e+00,1.030629082251994788e+00
-9.000527494065603262e-01,4.262577386386795730e+00,-3.113120917201890769e+00
2.382759440338559076e-01,-3.182089718290098457e+00,-1.903366818990521736e+00
1.696033591613373748e+00,2.310761353131873364e+00,-7.605591801756854231e+00
-1.048511808542153395e-01,3.696682250846386353e+00,1.867461835542264081e+00
3.455694672942935419e+00,6.351815432950068008e+00,-5.440767759312959306e+00
3.241698499546709300e+00,3.750021618048734240e+00,-6.974014003412460916e+00
-2.426182979841482734e-01,1.165047934851762390e+00,3.326346114136325416e-01
4.980547890669149602e+00,2.586002207812823084e+00,-6.571865801561781240e+00
3.581591521166495262e+00,7.207782154922610651e+00,-4.369959537393301119e+00
4.015892003229779128e+00,7.085729580554260387e+00,-3.019121701680496539e+00
-8.185188947718343710e-01,8.901203724266366635e-01,-2.156399477631942840e-01
4.411296684728072570e+00,7.049915626806535052e+00,-3.538562057853597675e+00
3.856242992302614692e+00,-4.087893615373005551e-01,1.148153672376406309e+00
-2.102793545161031563e+00,-1.716671146642252954e-01,-1.904981559519459910e+00
4.274250910679749715e+00,1.959805150906974935e+00,-7.693500925430060811e+00
-7.514237651466525447e-01,-1.875338254309074193e+00,-2.132370044476068927e+00
4.250933572347186384e+00,-1.972990176790772321e-01,-6.011410189667528492e+00
1.459963647362625849e+00,-2.012552108318185429e+00,-1.790375643067743661e-01
3.119081644965532529e+00,6.676725146471348182e+00,-2.796691293075948437e+00
3.168391681335204879e+00,2.269454545737394024e+00,-8.593069929312974864e+00
5.965423238702584285e+00,6.708420789152061303e+00,-2.655178713172707372e+00
3.621205464155861531e+00,4.863469684840729279e+00,-6.421098520776500784e+00
3.232574923457938731e-01,3.640760940221455799e-01,4.670106426314412085e-01
4.877233049206365911e-01,3.088004164896001935e+00,-6.541156269327546013e+00
-3.359051034741384334e-01,-5.449537234282192388e-02,-3.497697172412027600e-01
-1.220359841355340480e+00,3.246012242441624007e+00,-3.730403486345805764e+00
4.152564586278769676e-01,5.559478768602490462e+00,-3.014161652686583537e+00
4.562042223294549559e-01,5.564667419105712831e+00,-2.245116718934470956e+00
3.228757673971594855e+00,6.807146905858123986e+00,-5.140537861267067576e+00
3.894998524520401961e+00,-1.711522554426439635e+00,-1.010397618437673062e+00
1.382125187627309515e+00,3.455223411756676466e+00,-7.581052896037800970e+00
3.022113941643403412e-01,-3.220562973733857248e+00,-2.142332004428213477e+00
5.952708768481204116e-01,3.150485772700555742e+00,2.037419456350763713e+00
6.498751113199029206e+00,4.117468371542129191e+00,-4.068033583657705954e+00
6.337101578707208027e+00,5.404028990935915822e+00,-2.055153704337393972e+00
1.575074587663555681e+00,5.823417336757666263e+00,-6.976703569063740673e+00
1.008322128059932599e+00,5.289918770663736503e+00,-6.780855265497803153e+00
3.911737121686461371e+00,1.433107098354973408e+00,-8.363812769263390123e+00
6.237441527918621276e+00,5.548356233728374498e+00,-3.180372440249684463e+00
1.355738737003998384e+00,-1.471942709678026873e+00,-1.698770214150817637e-01
4.384945815191256813e+00,2.317427157628054069e+00,-7.310242050982103557e+00
7.879085744169944228e+00,2.479105370066533531e+00,-4.024771850301888776e+00
4.568713750862074541e+00,6.151533357736086671e+00,-1.877823794384085199e+00
5.910168976818849451e+00,1.866279376953284386e+00,-7.392245302222052450e-01
5.086093015194817823e+00,2.431241410513974799e+00,1.156077098902821426e-01
-1.012952245409689811e-01,5.008595445113899203e+00,-3.352595139354872078e+00
6.306095687577153441e+00,5.883915190103685688e-01,-6.245426007395949775e+00
1.206891866033786620e+00,-1.675258738450787543e+00,-2.746734246005745894e-01
1.350655000404578976e+00,3.342065564649100207e+00,-7.617822864425376039e+00
1.807556631604231967e+00,-2.710346530182225600e+00,-2.703927821072488857e+00
1.449880796699653196e+00,-1.292226633541160519e+00,3.208177279173159424e-01
2.187177979677315864e+00,-2.407596092438481605e+00,-2.969358646734510110e+00
-8.103590076314824975e-01,-1.631599172551256638e+00,-3.748539907428853901e+00
4.776799633567864412e+00,6.655574940751093571e+00,-2.521586214701901252e+00
5.198954899319032208e+00,8.617022575971496415e-03,-6.190518143889721436e+00
1.946433195318855169e+00,5.379146157586137456e+00,-6.581477599526384115e-01
2.529856918406853783e+00,-1.723971617145962698e+00,8.969177771436812607e-01
9.026821246957362765e-01,8.195413406941455259e-01,-6.195110438135622566e+00
2.641826850395561088e+00,5.715454108337109318e+00,-1.404451402167020024e+00
6.838553041254342713e-01,5.344968381927817980e+00,-1.502662807679106205e+00
2.080635215985921604e+00,3.199176774920817756e+00,-8.287731806679820679e+00
2.979790438296994193e+00,9.158769441518674892e-01,2.397629699974396011e+00
3.439156277319183053e-01,5.186177619482307044e+00,-4.863422801793302774e+00
2.164918560673997128e+00,3.411864942669589951e+00,1.649153613916038541e+00
2.249536606141719020e+00,3.840686163602696990e+00,1.146848963796970100e+00
1.422255741266422291e+00,4.340907081496255593e+00,7.760915833511040640e-01
-1.388942479711251066e+00,1.750702639874313737e+00,-4.434225375002970537e+00
3.022852849445955004e-01,4.338355099062746412e+00,7.510211392072629888e-01
3.808088675038889259e-01,3.259965083212950532e+00,2.283812344475824041e+00
6.486642283573202938e+00,5.883032095899648262e+00,-2.987734434549520923e+00
2.725631510070647856e+00,-2.519709950775900875e+00,-2.304959469384081583e+00
2.290545451066203775e+00,-1.983289827741857581e-01,-6.280360451968443058e+00
4.630780108478503188e+00,-8.316429856332114845e-01,-4.701351079872985395e+00
-7.924594563465159336e-01,-8.630255995075191144e-01,-4.391813052544202733e+00
7.633043724404198649e+00,1.461135485931869704e+00,-4.987265763894838777e+00
2.799261323206558849e+00,2.302737322128078024e+00,-8.355714549436131122e+00
-4.399398153784193077e-01,1.774647195502697450e+00,1.092326021835482663e+00
8.983911680304879077e-01,5.668915111564473364e+00,-2.729751083222331065e+00
5.986897307887312003e+00,5.706320675224985095e-01,-2.047959295353147802e+00
3.766823282623976255e+00,-1.775088478411203097e+00,-3.130566453741078448e+00
-2.618109747853843761e+00,2.191062794759718990e+00,-9.443978579520068140e-01
-1.116273279488616099e+00,-1.885592143247982744e-01,-4.208131845985743524e+00
4.446219939327105131e+00,-8.104289659034946691e-01,-4.964940694540648458e+00
-1.814558472326951444e+00,-1.137815690964687487e+00,-2.385361768475925182e+00
-4.542683344349175978e-01,4.891941980629101572e+00,-1.877995656972438976e+00
4.635656199161681812e+00,5.788922580252881644e+00,-1.363968596933295974e+00
2.326633840075923221e+00,5.260622266291210547e-01,2.427156584867268929e+00
2.795446885323506159e+00,5.357905061268569469e+00,-6.299914589550353661e+00
-3.036776074350737153e-01,3.242579261432189774e+00,1.947064465370406783e+00
2.000507902830687357e+00,-7.289947850509939098e-01,1.348827885572748908e+00
6.901428746261855096e-01,-3.289987842866788359e+00,-2.148371174627281555e+00
3.323346024441740987e+00,-1.645030764615698082e+00,1.379357932415214094e+00
6.357355613009102235e+00,5.063709758608741396e+00,-3.469929369666998387e+00
1.645046065359389464e+00,6.612428283303003695e+00,-4.004580674712880928e+00
2.918461933328298841e+00,7.172833979708553187e+00,-4.044958844771189277e+00
5.935853685975189364e+00,1.384518947802472422e+00,-9.061883176415638230e-01
-2.381103752901779558e+00,2.959461892024509044e+00,-1.918703103064160809e+00
-1.170459587069285101e+00,3.811901105129274381e+00,-3.750241221760353572e+00
-9.285450191709286871e-01,3.653880895161855324e+00,-4.363267537714531130e+00
1.275047297348492314e+00,-2.601028417829939432e+00,-9.922402130703458223e-01
-6.026817660048064962e-01,-2.541212019052869753e+00,-2.516261968286477746e+00
6.619700624808759315e+00,4.755124955599968617e-01,-6.061948493014558181e+00
1.925556715572951161e+00,5.674118466471734124e+00,-6.795107728213695353e+00
4.180105681718806032e+00,-1.528606186243566478e+00,-2.886943336236469371e+00
3.310093024506560511e+00,6.556468032099332710e+00,-5.254339257109432282e+00
-2.682042038572363563e+00,2.998133650415960805e+00,-7.649802474917126727e-01
-6.658759926543287300e-01,6.982095126466486557e-01,-7.641199484064430114e-02
1.479044844575866380e+00,3.778937584175590114e+00,1.639458834523783493e+00
2.973248399228862748e+00,5.454683061591066640e+00,-6.048295696953600586e-01
5.062761442766232634e+00,-9.452760972385503280e-01,-3.627306139893546000e+00
5.976059054632441914e+00,1.667079335580489916e-02,-4.841554378185526808e+00
8.145878191406941138e-01,5.928681625117642184e+00,-3.657022520424118905e+00
3.847152995901736094e+00,-1.250674420154984201e+00,6.334813279143942655e-01
4.771820966358307992e+00,2.569870723497292619e+00,3.894086385350199464e-01
-2.161152553968118673e-01,4.136460778814998740e+00,6.558774987349479391e-01
-2.719291093329217812e+00,5.593623299636224511e-02,-2.873670762114533872e+00
5.323714824070596707e-01,6.234989980234467710e-01,9.218263001202477991e-01
1.740953862988209977e+00,6.630336587491352240e+00,-5.216301390151089734e+00
5.423800577926948030e+00,-3.249107981813686985e-01,-1.366448809413582710e+00
1.340323432723969255e+00,6.375847735692470764e+00,-5.262685034914097670e+00
-9.734845523569479742e-01,-6.795227126127452166e-01,-4.101588199982126426e+00
1.558387737102056247e+00,-1.431882001279094707e+00,4.910350813989304841e-01
7.488033642880560059e+00,4.756831623925333652e+00,-2.636753167970691702e+00
1.390580860558400911e+00,4.530691136819824827e+00,1.536133918646170882e-01
6.670985082542581601e+00,2.025627495168083936e+00,-5.689735376439690739e+00
6.124603046902125314e+00,5.557383667219879086e+00,-2.048078574362039550e+00
-1.284642893863896074e+00,-1.989724742455176054e+00,-3.235981043377842425e+00
-1.592866497146088856e+00,-1.623656784491758431e+00,-2.595369369857762454e+00
4.950583470556114918e+00,2.790574247141888176e+00,-1.183453337758500964e-02
-2.264399912977174356e+00,-5.916639532637886223e-01,-3.359479451898863545e+00
1.355831962942904090e+00,-3.281597032225749722e+00,-9.834006404923411049e-01
4.257037871065113777e+00,2.784152839058620543e+00,6.885886778420480248e-01
7.629625125685413956e+00,2.779332659357778734e+00,-4.057553921660770335e+00
1.004331510446286435e+00,-2.950309284204050364e+00,-1.417209550884577451e+00
1.340538308942779366e+00,5.641266658709533033e+00,-6.706605276011861960e+00
-1.741502202837595714e+00,1.109193051296033961e+00,-8.582125512514653387e-01
8.069169214670653290e+00,1.948853193286666841e+00,-4.003499532016931539e+00
3.400282955161525233e+00,-2.513438470169220285e+00,-1.232072417616312476e+00
3.084056032145065185e+00,1.290741011313078390e+00,2.116963585152837446e+00
6.016181279737424781e-01,-1.954191230465657236e+00,-3.739649731917898734e+00
9.701711529682839341e-01,7.214697892025631054e-01,-6.178538174112562231e+00
2.157795590993786483e+00,7.673062272993448341e-01,2.297172583451166261e+00
6.130033184435938587e+00,4.875321408204217333e-01,-1.990285762847272322e+00
1.823962769881751766e+00,3.333810573994890003e+00,1.728290660991399941e+00
1.406016382852967039e+00,3.315181698225948104e+00,-7.371852143069203223e+00
-3.584523097653559698e-01,2.048840999703230636e+00,-5.579247179979585525e+00
-4.755927123281535329e-01,1.348409625244566756e+00,6.566539374362055925e-01
3.328799677284010272e+00,-1.381831333998650768e+00,1.621974655326802184e+00
-8.993651618949033422e-01,2.625855080445644418e+00,1.085465022770277566e+00
2.682490115951420062e+00,6.780549465607000892e-01,-7.103165211010443514e+00
3.230216543698101628e+00,4.800091990701146116e+00,-8.549760746805849798e-02
-9.261134265246830921e-01,1.878290649887897623e-01,-4.756626201889966765e+00
6.322878256018947818e-01,1.070674474812812749e+00,-6.384425907028024483e+00
2.136725772099331344e+00,-9.975474163818196516e-01,1.180267527860092036e+00
3.311444820105229336e+00,6.967909748793145397e+00,-5.029510033238641320e+00
4.126192473670623251e+00,1.761151296644098307e+00,1.272222143787153037e+00
-1.271545791757436428e+00,-1.629510342010723978e+00,-2.464124215740373103e+00
-2.695883601380956729e-01,2.132824336469137272e+00,-5.848036307670264833e+00
2.413834389595391094e+00,6.509520872731077823e+00,-2.741510378800845693e+00
-1.460791896142638935e+00,3.787702980381648210e+00,-2.203561940907919681e+00
-4.425221416455909496e-01,1.666842163104024443e+00,5.864382737788155220e-01
2.589878868224904096e+00,6.799731064631045818e+00,-3.350056169389905136e+00
-5.197867999958684093e-01,2.279755018630709618e+00,1.266116251675056592e+00
6.573707635355885870e+00,3.266057439047393096e+00,-1.362393271700633957e+00
-1.095478841358525690e+00,3.786208125997899021e+00,8.506531025511976374e-01
1.115725210980394122e+00,-7.094151678017919238e-01,3.757749746438021066e-01
6.351754726036411114e+00,1.819722105160307135e-01,-5.035565350225651216e+00
1.278448056843424441e+00,8.250507478356655655e-02,1.435188578534948523e+00
-1.950657191530717594e+00,2.474989171423824796e+00,2.713043046001993863e-01
-6.441735492330484814e-01,3.114951259756719271e+00,-5.059355293995719371e+00
-1.230565382704255528e+00,3.777252119981097334e+00,-3.118960556462328171e+00
-2.003406909495233368e+00,2.711512573478155996e+00,-2.548672328028618761e+00
5.638662768689100879e+00,1.043485864435133470e+00,-7.218319656848129817e+00
3.377167474007202852e+00,3.016479778215568786e+00,1.356308190500868927e+00
3.289074685114403707e+00,-2.228852130586721270e+00,-1.593346051204155067e+00
4.209764102642186145e+00,-1.521031516983390119e+00,-8.206074144751118737e-01
3.666315418871394893e+00,4.639339794315670673e+00,-6.356366893767592785e+00
-1.449718640469539688e+00,2.216958337043626770e+00,4.638191575454194693e-01
-5.681291059615539707e-01,-1.303085483869861116e+00,-1.507941819058996602e+00
4.824939376767928501e+00,1.303847429131361535e+00,-7.560472564647699123e+00
3.319221596102787331e+00,1.429255362097693549e+00,1.995401212107765776e+00
7.378439833396676306e+00,3.099997735656303544e+00,-2.517480176942821668e+00
1.743818873445627027e+00,3.131908069499113267e+00,-7.962391260317710717e+00
4.824022165497837022e+00,3.298513624746922890e+00,-6.150229478515714554e+00
5.660906482516744553e+00,-6.580862963816228040e-02,-2.507912139252354233e+00
2.011289344323853090e+00,2.475574306773665079e+00,2.396112185142976525e+00
5.061414013842397974e-01,-7.477095795936068434e-01,-3.005910915676051065e-01
3.664091651158559171e-01,-6.746829068211139813e-01,-4.881503755104168008e+00
-1.818351515035986576e+00,-1.369621052735705335e+00,-3.366301576452266797e+00
-2.267782944897426045e+00,4.584103049746494629e-01,-3.457436190684177291e+00
9.055300290267211949e-01,-2.133966959305725608e-01,6.768335988493090483e-01
4.322509879158098478e+00,-1.052746897436076079e+00,-4.190896702754628222e+00
4.462460645112701130e+00,3.108239494709853279e+00,-6.952282555033284517e+00
-2.129174166427082682e+00,1.237995896360625236e-01,-1.726046624549699482e+00
4.624865677277409937e+00,-3.194360009664528599e-01,-6.141810804420456904e+00
5.301300217598399200e+00,3.775362673741728958e+00,-5.343976439370027087e+00
4.755134823289809409e-01,4.322246081853282185e+00,-5.946213230955398998e+00
4.619461798733775382e+00,6.323089056938359098e-01,4.483125267373557210e-01
-1.498208703225977878e+00,3.696645008902339047e+00,1.038572009426314696e-01
6.845429585662926364e+00,1.726262453111514716e+00,-5.535440052459982496e+00
4.842569889450674125e+00,5.919891424267545332e+00,-1.653997671732976738e+00
1.989501498415470193e+00,2.170363622894137201e+00,-7.871975849294250871e+00
1.492659648852584287e+00,5.451681817102274508e+00,-7.292059186421782080e+00
-9.376053768275588451e-01,2.688328319399876154e+00,-4.626866987195761283e+00
4.498801943561067773e+00,1.758297906998342208e+00,-7.511252024717418152e+00
3.435543532912879172e+00,6.157402635776680455e+00,-1.632831588411176593e+00
5.397545640595263094e+00,1.625488733331126756e+00,-3.207833307982587145e-01
-2.574622491540668801e+00,2.724863728804732155e+00,-3.830675029995228575e-01
-1.043462934929487052e+00,4.075105108851881042e+00,7.293953420940883781e-02
4.148310610299267509e+00,5.859690504138372447e+00,-4.778928358773066876e+00
5.587143882034157016e+00,1.053242237598756237e+00,-4.353819050888139142e-01
-1.741252993784456082e+00,-1.138561240715935119e+00,-2.300608428647986869e+00
2.764134952413729973e+00,-1.223117012461392816e+00,-5.151127459036750622e+00
4.349404052188437397e+00,3.806557037183888159e+00,-6.066119376471456270e+00
5.421150404487756091e+00,-4.470528895076770759e-01,-2.096917589840169960e+00
3.811697065123263339e+00,2.415153763557644329e+00,-7.668492317621124599e+00
-5.621330028365518761e-01,3.249171402091734606e+00,1.891109230394640628e+00
2.426263619928973547e+00,5.590251878224702375e-01,2.659716312604868627e+00
6.729566997346381640e+00,5.208700080591976089e+00,-2.224400210434036129e+00
4.741841884441902799e+00,6.627934018070700262e+00,-2.344226880464010954e+00
-1.553443984667581601e+00,3.227706151398276102e+00,9.702618938747334942e-01
5.063694662445655803e-01,6.445156302905229451e-01,-5.860765908408147595e+00
2.591950373442461153e+00,1.747765063241864869e+00,-7.915911816279005642e+00
-1.509265996957255718e+00,3.739353156765303776e+00,5.354918728504285408e-01
6.202623836009549585e+00,1.593729817953847272e+00,-1.264233516800222556e+00
2.426028327884098612e+00,4.525019459184708381e+00,4.099476094431263040e-01
5.112991039443675945e+00,3.387119723093444890e+00,-6.145188713672837366e+00
2.838048373385673173e+00,-2.499858129730824441e+00,-2.710130079171237938e+00
4.859430488571907958e+00,6.508721317886760893e-01,1.773334641576224668e-01
2.339876867518198456e+00,7.196313588186948884e+00,-5.319491651062562276e+00
1.127779524039536740e+00,4.312072490932211011e+00,7.412498827759709252e-01
1.851961743199249666e+00,-2.786410845787738122e+00,-3.956697677800478097e-01
3.255109916879859622e+00,-2.368033157047772619e+00,-1.982159902690765030e+00
6.234642651605943442e+00,2.060929441550295671e+00,-5.928876728629183468e+00
3.674446489149855832e+00,-1.218202758146825104e+00,-4.237402101373883845e+00
-1.326361346274955721e+00,3.547829881720580225e+00,-3.651422180528634875e+00
2.586708732346230555e+00,1.885393021798353330e-01,2.597321341334251965e+00
5.342151248054652690e+00,6.768199599393235566e+00,-2.591985479240833001e+00
-1.461815876817876392e+00,3.765902272642335902e+00,-2.319966920701675761e+00
4.960955659722647404e+00,6.518318886326674111e+00,-3.879732023367749250e+00
4.182715989698448933e-02,2.315470252941050244e+00,-5.996267840957550277e+00
-1.673365279105567538e+00,-2.505945724219611481e-01,-3.826169348943944115e+00
7.003243794656826893e+00,1.148589648877162528e+00,-3.658900184518325549e+00
-3.005606436077634669e+00,8.417415198280643329e-01,-1.915218806579831012e+00
