-6.541170706650631939e-01,-1.294438337872455103e+00,-2.176154912660736240e+00
4.114589123444168522e-02,1.074197393898934871e+00,-1.436881553834810976e+00
-1.099865233551790000e+00,5.340067685107633411e-01,4.676257528587393630e-01
1.863701490064027244e-01,-5.108577828592754111e-01,-2.537005638806954622e+00
-1.194615485128818766e-01,1.166751900988528101e+00,-1.405560494806737282e+00
-1.289604402892801982e+00,9.240539580721522928e-01,-8.669614358976506230e-01
-6.828911572567952781e-02,-1.293336329833394860e+00,-1.998074939090487001e-01
7.264873228274835171e-01,1.614495060736166332e-01,-1.335137860239072216e+00
-1.699590645803767508e+00,-6.809958804063556137e-01,-1.127406733192069854e+00
-2.015373689241612976e+00,-8.682586741156096410e-01,-2.107095744832984341e+00
1.869857450973838042e-01,-4.146054539516758064e-01,-2.603922830596018034e+00
-2.085713328224380714e+00,-9.332558346395692928e-01,-2.397835149275949540e+00
-7.898451140564698436e-01,-1.610716718456206287e-01,3.162926976533669832e-01
2.819848126147526668e-01,-2.982979499253903266e-01,-2.441895450411384338e+00
-1.296572908454220352e+00,1.167639665214572409e+00,-2.192939481477323316e+00
-4.142800633909946573e-01,-1.264943367614057568e+00,-1.311820225152704689e+00
-2.418233204687189053e-01,4.439445033628159898e-01,1.362564849771216446e-01
-1.802326946814347242e+00,-1.055104757191203557e+00,-2.161026271336472959e+00
2.198697396812324123e-01,1.242651126434038522e+00,-2.035060748386252616e-01
-1.589439345606052045e+00,-1.294949765593812252e+00,-2.534877148476733399e+00
-9.380908574594438720e-01,-5.765133112387856862e-01,4.081236874005529924e-01
-9.199998791121933861e-01,1.057198355269855616e+00,-3.508761082676240761e+00
-8.850499395002768832e-01,9.650656055182282866e-01,-3.675493306278436734e+00
-1.042914419805815868e-01,-2.034300097524879281e-01,-3.442933719838517703e+00
3.678508533540773007e-01,6.206707766124929249e-01,-1.905621635923452573e+00
-1.201925600403145999e+00,-1.316961056647359962e+00,-2.300142489625530473e+00
-1.674806716437437837e+00,1.781320239969427788e-01,-3.272700995799370904e+00
-1.716461254077011445e+00,-4.311342538092908239e-01,-3.216632775693176516e+00
-3.444868886514291240e-01,-1.245159761641762231e+00,-9.600158393085707065e-01
7.611966703846612115e-01,8.837811657371718033e-01,-3.272789177471649991e-01
-6.166187222878241059e-01,-2.003649350734822976e-01,-3.727848256927396520e+00
-9.716443921868470612e-01,-4.161796575612897731e-01,4.264069397701999442e-01
-1.359424173988996287e+00,1.030072292831102354e-02,2.608122426520515999e-02
-2.180604308862579277e+00,-5.033490891962963953e-01,-1.745535254561353833e+00
4.896996353820786130e-01,9.201082214889623467e-02,-2.422105538706548211e-01
-5.519611059108532336e-01,-1.128286668873784482e+00,-2.892095466207386778e+00
-6.140306270852996517e-01,1.212096051783330797e+00,-9.163689426791926662e-01
3.481160148251733616e-02,-1.222187523734855397e+00,-6.712321109721779422e-01
-5.176353502667965234e-01,-1.245769134014994339e+00,-2.473680550845278603e+00
-2.643922709693712902e-01,8.957780994492776649e-01,8.749992812016695043e-02
-1.601958046223583398e+00,6.591305731504938370e-01,-1.119734082912545947e+00
-1.573946379308985621e+00,1.155350223440325674e+00,-2.098290234260199227e+00
1.215164346407832247e-01,2.533023531512581528e-01,-2.693778204828870315e+00
-1.255438232577624103e+00,2.319004123206823975e-01,3.178859799165108524e-01
-6.735113389411829798e-01,1.003206387669760113e+00,-3.432266752846195867e+00
-5.073059203268829309e-01,8.752887161697735507e-01,-3.257249538829701585e+00
-7.521961260560334761e-01,1.224671668398182867e+00,-1.273509099507067033e+00
-9.294216451504838661e-01,7.117130405479868971e-01,-3.595885412801333558e+00
-1.969394303190181272e+00,-9.365328699508495003e-01,-2.249219535202827469e+00
-3.714430646262963931e-01,3.595651720791481210e-01,1.422391799863692574e-01
-1.776207623208369890e+00,-9.239816470182367070e-01,-1.642956185004690095e+00
-1.180542546598345455e-01,1.957817991267312985e-01,-3.197452975029549727e+00
5.560202523223898297e-01,7.726222099972162027e-01,-2.865575164246172979e-01
-1.523961589346873591e-01,7.087312650766979250e-01,-2.961397096178711941e+00
-1.994070598765970592e+00,-1.247417712921590344e-01,-1.317128525704030606e+00
8.771794123674755417e-01,2.500742147155262107e-01,-1.145844659989863290e+00
-1.349894816792418739e+00,-1.083644079775086588e+00,-1.139109732913272666e+00
2.064872938245709000e-01,-3.097567316456518727e-01,-2.600954774420227711e+00
-1.688505347477694096e+00,-1.264710084365422649e+00,-3.251323558652910783e+00
-1.058764455780711877e+00,9.958650935192681075e-01,-3.543554153409150143e+00
-2.375827233185883625e+00,-7.681195521715334928e-01,-2.672156288399997415e+00
3.986437851335055127e-01,5.371602421079673118e-01,-1.828977009228772488e+00
1.072747597878613623e+00,2.955478230955012608e-01,-4.612661482735290197e-01
-1.324233322419742676e+00,-1.219962738801772417e+00,-1.694382212407097299e+00
6.721220091057342749e-01,8.491711184361607767e-01,-9.001518867293859527e-01
-1.090730238138042374e+00,-2.236842316840321199e-01,4.774238408724746363e-01
-5.838820352052231932e-01,1.111951118189997700e+00,2.683928736922427949e-01
5.861697420750981991e-01,-8.120751236670334938e-01,-1.082200125686008985e+00
-1.702620839379681117e+00,1.098138165738330230e+00,-2.537018304649421019e+00
-1.716338732851901527e+00,-7.574851975765215517e-01,-1.255633414811134552e+00
-1.391340486486973560e-01,5.225759449267770584e-01,1.131510935957241032e-01
-2.132720358259026838e+00,3.807022654894865465e-01,-1.878389843867497078e+00
-8.065396303197421846e-01,1.158818802459506525e+00,-7.380239924755830350e-01
-3.724156010125968114e-02,8.401629989138268417e-01,-2.438630708654998980e+00
-6.132962319966095421e-02,-1.353269469709972528e+00,-5.351235804875811297e-01
-2.043888476969898615e+00,-3.742546202879812878e-01,-1.562953320273327007e+00
-1.136326696906521327e+00,-1.032252947608701898e+00,-6.346118230329292897e-01
-1.177432879894948270e+00,-1.002927780810374259e+00,-6.295475532494807513e-01
1.537728762309326924e-01,-1.023321094351799188e+00,-1.433635573810324804e+00
-7.427972038699510726e-01,1.171702970598061944e+00,-2.380493225783676614e+00
4.580937815525596563e-02,-1.279786992246876975e+00,-5.830102150334250943e-01
6.228960770398281888e-01,3.229554396728228083e-01,-1.652329189588832570e+00
6.484173939894569139e-02,2.705810369460329157e-01,2.101475919178215097e-03
-8.635291201899684133e-01,1.191948746460580466e+00,-9.229007590445859055e-01
-4.988427111426032012e-01,-1.300198679755673048e+00,-1.592282874248435398e+00
2.871008877608387522e-01,1.127047735327808997e+00,-5.600790436906498693e-01
-1.582232732097325067e+00,4.901075552201510921e-01,-3.328327459409413880e+00
-2.071009912411889697e+00,-7.640827705831653160e-01,-2.115789938326191777e+00
-9.476864999681652302e-01,1.006654008283926593e+00,-2.576416761125491783e-01
-8.251238675083404361e-01,9.903187991643926935e-01,-3.555278816040622125e+00
-6.733831115217764340e-01,-8.254326250280276112e-01,-3.716043255475280027e+00
1.520757238772352804e-01,-2.963742046610378100e-01,-2.746922406277190642e+00
-7.849994999701821463e-01,-1.311809400989361274e+00,-1.442673987741262209e+00
-2.388016318703259255e+00,3.326228719826169189e-01,-2.532161559214099800e+00
-1.349109210541801662e+00,-1.302245678799625495e+00,-2.903836075729219868e+00
-6.469437005648385197e-01,2.988949144398982960e-01,3.028282644068415186e-01
-6.406439899764788670e-01,1.020971050283184578e+00,-3.056382397368119452e+00
-1.263584148637426408e+00,1.225445554499610124e+00,-2.225282380625050571e+00
-1.164381188520888566e+00,-1.358551179628581185e+00,-3.128482453756744164e+00
1.351640814474437124e-01,1.103440072300670982e+00,-5.806411586954590698e-02
-2.060386495987751587e+00,-4.948625173147044864e-01,-1.553353916910565014e+00
4.315767264748265331e-01,7.486075767497691880e-01,-1.511479743342780235e+00
-1.829828120255362789e+00,2.117602783992343363e-01,-3.251760298098482327e+00
-1.415285380773693147e+00,5.657520821897787933e-02,-1.539759232948113626e-04
-2.004547494400001906e-01,-9.690951659171341825e-01,7.914619417385826416e-02
-9.782307395415180684e-01,1.077405369424492498e+00,-5.042797045993893112e-01
-1.795564777656685429e+00,-9.465508297386709957e-01,-3.137113389479277537e+00
-5.167715597957346363e-01,-1.269987399095743985e+00,-2.188453794327171131e+00
-1.546040235833819665e+00,1.178007332943504126e+00,-3.143255324820392271e+00
-6.062301307097170966e-01,-1.258749006299591411e+00,-5.476344222777018711e-01
1.187368951610790146e+00,2.984883785029389669e-01,-5.332464320854979345e-01
-1.729920145587347857e+00,-1.314051643183515417e+00,-3.106574083411534737e+00
-9.727913979200832895e-01,-1.032335756097008339e+00,-3.576264310281736858e+00
-1.362526820654264892e+00,1.034728549228893790e+00,-1.387670749566527695e+00
-4.360701319431543599e-01,1.145682959320037719e+00,-2.114967208571191026e+00
-6.545474052011012178e-01,1.199359679275678658e+00,-2.177937497384841159e-01
-8.235859335016032512e-01,-1.349840162155089285e+00,-2.274411960003305033e+00
2.157085135029142842e-01,-1.886677490310355032e-01,-2.739475437217194109e+00
9.193297398718394686e-03,-4.519310291123512235e-01,-3.017987386651744153e+00
-1.664530016840811921e+00,-5.494912196402155224e-01,-9.248634806021800436e-01
-8.952976640953909104e-01,-1.224410951659093527e+00,-1.102973510202263974e+00
-1.108207861715424514e+00,-2.589311997248104902e-01,-3.513712548711557915e+00
-1.956276283614241995e+00,6.356512766099357004e-01,-1.851647458402983393e+00
-5.452418984870801566e-01,-1.130207888138568206e+00,-2.903804816104371689e+00
-4.816751147041713477e-01,-2.574318758935495444e-01,2.040985182318351132e-01
-4.560714588693465243e-01,8.601819492556478375e-01,-3.235789001307681989e+00
-2.046924313997628531e+00,-5.920744762035574649e-01,-1.812636539242932221e+00
-1.104436302665465996e+00,3.632688823321969518e-01,-3.541863071923002426e+00
4.115688548465565866e-01,8.577676534216610582e-01,-1.317045687582320213e+00
-1.566010390967377264e+00,-1.062784384902235368e+00,-1.544317929155667679e+00
-9.321679009855620909e-03,1.611024718525759167e-02,-3.188373769192264451e+00
-1.766160113388783870e+00,-8.008046736716231129e-01,-1.547599606270890549e+00
-2.391291654373325581e+00,-1.225589774791177727e-01,-3.006284197482965048e+00
-2.584772227577076809e-01,1.182597440799965760e+00,-1.144303386951085910e+00
-5.671878779006631621e-01,2.274552556926071056e-01,2.497709967239905016e-01
2.417992169155611104e-01,-1.257625680737639029e-01,-2.625173992341032214e+00
5.395831244629764045e-01,9.526351265660623069e-01,-8.192143904118398545e-01
2.624547279775338304e-01,-1.179614225726906218e+00,-6.327300067350595247e-01
-1.940810787336169074e+00,-5.981540045569431197e-01,-1.645991957541867334e+00
-8.125030755817802541e-01,6.615130567876941203e-01,3.445203935193670852e-01
-1.419233923044594947e+00,1.230591361770748016e+00,-2.549321291008148194e+00
6.285360265708024412e-03,-8.313599374953362098e-01,-2.604533565700943409e+00
1.177586524858827317e-02,-1.005517778426600506e+00,-1.996984110063169560e+00
-1.143541132581633368e+00,1.212454508949391441e+00,-1.777508071690003799e+00
-1.506325454660177199e+00,4.790456144938490257e-01,-4.220104594237090723e-01
4.014509498981845836e-01,-1.110528066047687945e+00,-5.392427402702887340e-01
-1.426183760560090885e+00,1.277131805172905477e+00,-3.322502890711620083e+00
-2.377875568194347089e+00,-1.486842221056964009e-01,-2.226503484416168632e+00
-1.946963091444972704e+00,9.007538374629171507e-01,-2.168172939831589652e+00
-1.246862908878013876e+00,-1.072850239785606341e+00,-3.406013609816671117e+00
-1.515905880133418426e+00,1.178611363440032811e+00,-3.184181933706237810e+00
-2.037211501496057064e-01,-8.928357591768296686e-01,-2.835682562774707094e+00
-1.016370363503818153e+00,9.314854812179995669e-01,-3.535209614598916250e+00
-2.274611493310624066e+00,4.204915946613233535e-01,-2.152565467199957006e+00
-1.594008587736087890e+00,9.597769913682080434e-01,-3.283060503761930704e+00
-6.185158993610987421e-01,-1.242455666603378583e+00,-2.816310843445905210e+00
-1.526489697864197304e+00,-9.370756802924625761e-01,-1.198439330909575773e+00
2.295827882459051394e-01,-6.974917042053607741e-01,-2.222475470954593302e+00
-2.085537833567920329e-01,-9.523592267535985201e-01,1.542835899280020906e-01
-6.555910219530821648e-01,-1.296982297300149911e+00,-1.281906064666132217e+00
-3.695170239356935782e-01,-1.258209946960646031e+00,-2.348728028897663078e-01
9.417226630778977592e-01,-4.618995953325343296e-01,-7.935092410097838167e-01
-1.652204612987731691e+00,1.185977970358313538e+00,-2.734806068469858964e+00
-8.018549534766890030e-01,2.983872441848386403e-01,3.769844469648704899e-01
4.846228080114682868e-01,1.871095673170578844e-01,-2.153896869158565541e-01
-1.729286753764064377e+00,-6.626948343167172739e-01,-1.288350889528199206e+00
-5.915118063841587892e-01,-1.109737283357174809e+00,-3.373282440571902630e+00
-2.047886594872652566e+00,-1.096692710071005106e+00,-2.834478364055085908e+00
6.015400986844104958e-02,2.639471195727382535e-01,-2.911901674529911332e+00
2.654756222974343771e-01,3.820634940733513285e-01,-1.383560616166133461e-01
-3.720817652816525989e-01,9.529140294704148140e-01,1.304589551302423878e-01
-6.871453866937068389e-01,-1.296946296542996757e+00,-1.618694322666535124e+00
-2.337481059488291102e+00,1.955065389115932806e-02,-2.089660650192226132e+00
2.669104739969953011e-01,-5.490134429380302272e-01,-2.202566603529811484e+00
-2.425862906389009144e+00,1.840736848264110381e-01,-2.379029294602123645e+00
-9.467855553528229384e-01,-1.317929010378349197e+00,-2.506921490069691671e+00
3.760365616618829288e-01,-5.607097068794919537e-01,-2.153979946816107827e+00
-1.677410494328118284e+00,-8.192448380175977318e-01,-3.255920562738698010e+00
-1.185977172572846960e+00,-2.804119536477315822e-01,4.202575659572545530e-01
-1.527218047716327964e+00,-9.981953856487328913e-01,-1.240106304199386278e+00
1.129153266305227832e-01,7.085053182836437147e-01,6.696738668942829771e-03
-1.634060522235307067e+00,1.279298737024964043e-02,-5.767502077253514603e-01
-8.847624998415016817e-01,1.123383065959719929e+00,-7.060683915196566129e-01
-1.288882572968349294e+00,-1.060173138956618022e+00,-9.963708746320516507e-01
-2.052026957891732728e+00,3.839192222220824124e-01,-1.630145893489031161e+00
-1.868796712323904874e+00,6.032145183900061713e-01,-1.551905700494707663e+00
-1.668749615896513383e+00,1.021677840344490829e+00,-2.190801046721747802e+00
6.415522982911737726e-01,-5.406561727660723626e-01,-1.393542100836940856e+00
-1.318637729181583174e+00,-4.747675689512564912e-01,-2.616687304990602050e-02
-3.439182031218199764e-01,-2.730811870027812782e-01,-3.861539962683323335e+00
6.978015849877352572e-01,-1.475473757551476750e-01,-1.467088683592878917e+00
-1.128730216324186131e+00,-7.649349322126720585e-01,-3.480062114418277730e+00
-2.197750769937919513e-01,9.580386106198971463e-01,-2.564807559407380921e+00
-1.331113494841158262e+00,1.972237825223585317e-01,1.586774675051247085e-01
-2.380129471262522500e+00,-8.332280973462482532e-01,-2.772312012823054950e+00
-1.186363086001056555e+00,1.060115899088662328e+00,-8.357618668739057455e-01
6.753399897523443274e-01,-1.501608836363820323e-02,-2.769578957228112648e-01
-2.174994368424828739e+00,-2.580368475091017189e-01,-1.825325181511121775e+00
-1.063264848421405784e+00,1.192317129998473169e+00,-1.570357503055014536e+00
-4.194580397926447879e-01,1.256694464925431687e+00,-1.616225777469018299e+00
-6.791567176760425761e-01,-8.415786447268897019e-01,3.678654078131544103e-01
-5.322193553500925711e-01,-6.735474729128674287e-01,2.673681785086099993e-01
-9.368372419572497112e-01,-8.364639529510251581e-01,-3.645027180067780481e+00
-3.185165985564715196e-01,-2.736021241763027523e-01,-3.760897690103406354e+00
-2.184799620550825328e+00,-1.270958271114639715e-01,-1.876743063441677295e+00
-2.115629427621540604e+00,-6.498976183518914707e-02,-3.072676429922370112e+00
7.831102370489644304e-01,-7.595896048756624053e-01,-8.413549406136933140e-01
-2.080829670649775753e+00,-3.987426645820368876e-01,-1.609396570320180464e+00
-9.546376211950341473e-01,-8.517082113618781314e-01,-6.288360346011326318e-02
1.118312315992107786e+00,-2.556768620053154750e-01,-5.143538938874505639e-01
-7.032663314687742639e-01,-1.316216812977721418e+00,-2.404932784571642834e+00
1.123843107941713937e+00,-4.405308829847592311e-01,-5.416798977793709780e-01
-5.694992645827440247e-01,1.165725804505618024e+00,-5.374649745435216008e-01
6.997999283164808570e-01,-5.897935339687804257e-01,-1.166239623157192540e+00
-7.136199249698067515e-01,1.235809733805038668e+00,-1.289796586325766103e+00
-8.687548735488849205e-01,2.754106275249318392e-01,-3.632025775515164590e+00
1.201880361597544716e-01,-1.193143162874111818e+00,-8.095288530016661044e-01
-1.836285039313261036e+00,6.596532696981010080e-01,-1.404712212235882829e+00
-1.447232092141696791e+00,1.242805304589228665e+00,-3.092499432925434721e+00
2.124093658288421227e-01,1.088316758644036986e+00,-9.923002975038028861e-01
-1.119734902620650313e-01,1.178263525073388163e+00,-1.481465434882131449e+00
-2.416044800833097028e-01,-1.294217049868235048e+00,-7.176558331117641742e-01
-6.995834743818117873e-01,-7.220794155443396312e-01,-3.633012680473787448e+00
1.406617162243732899e-01,-1.203175617431769151e+00,-6.585011453601320452e-01
1.056348979385829612e+00,-4.230432794367565696e-01,-6.590560793420984220e-01
1.533185070895075053e-01,-8.126593164146189707e-01,-6.501594479130012871e-02
-6.627511454111360001e-01,5.030568261357406534e-01,-3.752501786754248059e+00
-1.887027907209780864e+00,-1.201165184107767292e+00,-2.530320507641333982e+00
2.897624003416017779e-01,-3.115482853253281892e-01,-2.374640316353209712e+00
-6.163774797834205010e-01,1.262208938180356288e+00,-1.458987667329426419e+00
-1.230151141568280426e+00,1.214932438000249970e+00,-2.422777837392591671e+00
-2.276812719555147080e+00,6.509052349739737897e-01,-2.541553798410681519e+00
-2.204954035153912528e+00,-5.297674574130905034e-01,-3.011184533233752347e+00
-1.595287319690466443e+00,-7.401497705884000355e-01,-3.274434432052587773e+00
-5.269902996594406919e-02,-2.509457110072696451e-01,-3.141251106111710101e+00
-2.318232599982459341e-01,6.866795543069869057e-01,-3.054135524613135644e+00
-6.600723219557945720e-01,1.067547458141392847e+00,-2.816489219622541285e+00
1.622508544464253410e-01,2.073910414836467597e-01,-2.816144549626242721e+00
-1.358830067030392996e+00,-1.282054790344436812e+00,-3.409025011930535864e+00
-2.319109832708658558e+00,-3.383437531915915453e-01,-2.151970463683618995e+00
-6.148154721306480219e-01,8.685212125117560689e-01,-3.689005435353887918e+00
-2.024295876094008850e+00,-9.006487592433872758e-01,-2.166489423710337370e+00
-2.158233301956014927e+00,-1.068565751073906833e+00,-3.003733626820022540e+00
-2.796739313019969142e-01,1.122685397259810536e+00,1.218028909277132782e-01
-7.486001468240945922e-01,-1.574590010585731059e-01,-3.614507871927727489e+00
5.526947639492537645e-01,-9.685801007700082232e-01,-7.526204471384823069e-01
-4.203493702716220581e-01,5.353384041706579222e-01,-3.799398132636148340e+00
-4.296223570148548498e-01,-1.086411705241769887e+00,-2.977398162869659082e+00
-2.309727463081300503e+00,-1.642654859317293492e-01,-2.033968546498326813e+00
-5.845050103814777298e-01,1.293645072797235063e+00,-1.150576458602763585e+00
-4.040925093827095194e-01,-1.280395953740296910e+00,-8.457682250109053168e-01
-1.344203366621269380e+00,-1.144063958678306125e+00,-1.416089987577848541e+00
-1.944129407894700012e+00,-1.286969759676656500e+00,-3.100825466129511820e+00
-3.980363063288170911e-01,-1.229698256010430396e-01,-3.824572545472570528e+00
-9.945266602020498281e-01,-7.085302384049536606e-01,3.406455486213963990e-01
2.275446351181874272e-01,2.248522288215448195e-01,-2.442074395301591316e+00
-4.027719355984898386e-01,5.242953956361893209e-01,-3.656513233058915180e+00
-9.219545407440348228e-01,-1.305192835402411156e+00,-2.143506048286991206e+00
-1.906017420336262980e+00,3.303928911906769406e-01,-1.296674246427405031e+00
-9.720941111956773462e-01,8.892783607845826666e-01,1.886624629711754486e-01
5.023053322631443329e-01,-2.893873630674168029e-01,-2.536150892562025749e-01
-1.776942330595160380e+00,-6.948983233627579192e-01,-1.345383677467729022e+00
-2.098267542551443654e+00,4.553961196262183986e-01,-1.814064834860998010e+00
-2.146809498202684185e+00,-8.513643367076850765e-01,-2.395786401363714457e+00
-1.480104881477327661e+00,8.214344571006879647e-01,-8.734194551447340693e-01
5.234631707213771579e-01,3.545172841042845135e-01,-2.507347491523504446e-01
-3.473501803978911173e-01,-3.018312355888884135e-01,1.766661175714266396e-01
-2.235182045868941092e+00,7.743806619427704430e-01,-2.462887201005661275e+00
-2.602746611883691941e+00,-5.315481498973767191e-03,-2.673834399384749982e+00
2.380231461119176606e-01,1.613798582094247425e-01,-2.635861711538293850e+00
4.159810266953713476e-01,-5.552872268336055822e-02,-2.200497774810526330e+00
2.034872204798752332e-02,8.373099288330504431e-02,2.219176907508854310e-02
-2.079705405778947025e+00,2.553138763480634621e-01,-1.533911698495063813e+00
4.679614112715271140e-02,7.901224518547574904e-01,-4.995525989693848368e-02
-1.021691919136320958e+00,1.269723784180163406e+00,-1.987323483633292254e+00
-3.619114125566060686e-02,1.230105764765399012e+00,-1.158512972755060488e+00
-2.387979910654879578e+00,2.584173891197930617e-01,-3.020889524162757134e+00
6.385146552388614172e-01,2.378898401664250872e-01,-3.097557697683860911e-01
7.064089288780956988e-01,2.382621943695620581e-01,-1.403189089561009739e+00
-1.759458663935279665e-01,-5.673518003301664114e-01,1.238175937643703761e-01
-2.161694601298104867e+00,5.399523142783480001e-01,-3.055987256475408476e+00
-2.008240983698461601e+00,1.024112012035436781e+00,-2.975334043133567974e+00
-1.676654108473720761e-01,1.084987500681733996e+00,4.358856387238239233e-02
-1.677029865627189809e+00,-1.101096029616757122e+00,-2.153694224540169344e+00
-1.345268965346639867e-01,1.286522312113941524e+00,4.864580066916398063e-03
-1.118609408625423240e+00,-5.020005571144459111e-01,3.600104285312162866e-01
9.203270954574092888e-02,1.250226952332869068e-01,-2.895505819836377448e+00
5.238434944012582140e-01,1.036461280082285219e+00,-8.175687740622216149e-01
-4.098161868249424744e-01,9.960927315546465044e-01,-2.851256836413437856e+00
-1.905229457782758873e+00,7.314180153237229698e-01,-1.799787445457085688e+00
-4.748665723154084639e-01,-2.542391855387202693e-01,-3.787848473267867000e+00
-4.239874227168009546e-01,1.161760797288619917e+00,-1.965838929595655316e+00
-1.403011330471888307e-01,-7.082006108400732414e-01,-3.059869339840020963e+00
-9.198775824729974460e-01,-1.089091763166358806e+00,-3.091403236695093870e-01
6.372398762555007978e-02,-1.144405022061677712e+00,-9.636001553110270512e-01
3.375879084896342697e-01,7.520412041305946094e-01,-1.795852557707019903e+00
2.512466269658226170e-01,1.174678545772813498e+00,-8.716216776873323413e-01
-1.315760393742023249e+00,-1.288720208159162439e+00,-3.391359533691034489e+00
1.098758164857031483e+00,-1.020666892058046255e-01,-5.248921211419503852e-01
-1.083948743105665399e-02,-1.061031668070117284e+00,-1.916486340990873227e+00
2.419890626369424619e-02,7.674311424336968113e-01,-2.480747684077304172e+00
-1.421718159965012829e+00,-2.881668857785673055e-01,-3.325170764616484309e+00
-3.502140240737627863e-01,1.151433673159667631e-01,-3.843952323101221591e+00
5.877529301747311807e-01,-1.003584407593073990e+00,-2.656045015420561151e-01
-9.348410855603063174e-01,-1.104934507765656049e+00,-4.071090082874274096e-01
-5.088115466792444419e-01,1.144704004858474677e+00,-2.405487948813645360e+00
-3.660344294942854959e-01,-2.901731486752601175e-01,1.502296426996368728e-01
-3.507400997804497322e-01,1.291090580244225183e+00,-8.660511362058002094e-01
9.962432782895314087e-01,1.239702009142093081e-01,-8.579112197806144646e-01
-2.276765930345703737e+00,-1.418140733439340051e-01,-2.018796341745340062e+00
-1.716044259032015518e+00,6.016707069286171272e-01,-1.181737350547311882e+00
-2.575731986449679045e+00,-6.124729690748758476e-02,-2.884442419584892559e+00
1.515181227322550672e-01,7.813510555177465289e-01,-8.999479318070956191e-02
-1.314493745935359836e+00,-3.622020110311735541e-02,2.302433802025056764e-01
3.326728880061610716e-01,-6.643735508661745559e-01,-1.965962514809860284e+00
-2.479169497460301574e+00,5.243129797859836377e-02,-2.495158238130196882e+00
4.865024458425232790e-01,1.011158396715654106e+00,-8.343514773209435020e-01
-8.113127623116934695e-01,-1.363158132645637011e+00,-2.082794914581171497e+00
-1.041870762286042362e+00,1.059078165615926714e+00,-6.219699830654343842e-01
4.480303587909801322e-01,1.512782901926352230e-01,-1.682803241595557664e-01
-2.275747202567823813e-02,8.361930521704274977e-01,-2.240966867679192287e+00
-1.029401216620231319e+00,1.023488584605288798e+00,-6.117758071107911588e-01
-1.857656528039510979e+00,3.879545935935734269e-01,-3.154816099123039841e+00
-2.455603985779157838e+00,2.695868632255938313e-01,-2.943294092757187119e+00
-1.695911688798610095e+00,-4.682712548826992727e-01,-9.294119911214433483e-01
-1.398929687779358888e-01,-9.713498757551584928e-02,-3.437884629301471318e+00
-1.024415963552023134e+00,-1.261528389219783719e+00,-2.030614157911805329e+00
-2.086261613039056328e+00,7.228844911213845315e-01,-2.192555829791970279e+00
-5.253107091499074066e-01,1.857291070551628787e-01,1.763006342364749901e-01
2.212627672029253700e-01,-1.055802941585897159e+00,-1.111080626901586488e+00
-9.198452349243583237e-01,-8.750685607375613406e-01,1.890703581032603386e-01
-9.213863627580161086e-01,1.095907840099910047e+00,-7.151452355115374138e-01
-7.936594350259988939e-01,7.428544371450092054e-01,-3.673212198835008380e+00
-5.320901556906184604e-01,-9.077958351926829206e-01,-3.658110525679771907e+00
-1.580495067836816814e+00,8.018161685213298639e-01,-1.147993904819425204e+00
4.047645413962116523e-01,6.508755060611809418e-01,-1.746231725195541484e+00
-8.212143858287271891e-01,-1.261923395635143441e+00,-3.013363826294045644e+00
-1.711391451875176606e-01,-2.799629836481661860e-01,-3.507804770449382215e+00
-1.484111090619576467e-01,1.229730067327805765e+00,-8.944369051438940676e-01
-7.828098401911817161e-01,-9.307955092702161481e-01,3.395541278479053959e-01
-2.017223843809214934e+00,-7.389709610024046693e-01,-1.838657863961025152e+00
-1.810520845333449369e+00,5.480971573194434038e-02,-9.422328945413414036e-01
-1.390645307269396058e+00,1.160692204419049078e+00,-2.301267944528285980e+00
-2.258056583670908224e-01,1.250869939418241650e+00,-9.757102861123890802e-01
-1.743288448782203126e+00,-9.202552304340073652e-01,-1.643875746643070013e+00
7.400807102244896241e-01,7.034682872819995048e-01,-3.334157794499970073e-01
-2.526166864854040739e+00,3.638695344613146476e-01,-2.729675644892324726e+00
-2.083488869879412508e+00,9.727127299790915282e-01,-3.128027367547367987e+00
-8.589815994882729067e-01,1.171405229763560207e+00,-6.944133061879682600e-01
-9.475388559862352178e-01,1.255482137320935498e+00,-1.666997535783020234e+00
3.092013304558827724e-01,-4.556601067930499821e-02,-2.419427843323061822e+00
-2.270705884595929369e+00,5.629475969370766331e-01,-2.421662568372737301e+00
-2.332797415811211028e+00,7.404947697516344185e-01,-2.954077703392808285e+00
7.193290765303210314e-04,-1.100725138379243795e+00,7.059681115056323786e-02
-1.589198612681069545e+00,1.023298543699009411e+00,-1.715786221634695963e+00
-6.115406301211827600e-01,-1.221663406169027244e+00,-3.506618283820970849e-01
9.569492972937364561e-01,7.105876280201363082e-01,-4.968456553454687064e-01
1.142030163265630227e+00,3.052526496101855558e-01,-4.998438408226661411e-01
3.181861843221354264e-02,1.080988289225897736e+00,-1.576939921803359956e+00
-4.974380388617301585e-01,-1.551002929213541985e-02,-3.787067571168344138e+00
-3.705868200501282739e-01,-7.995099328525046012e-01,-3.349940275161231273e+00
2.715187658472494325e-01,-3.388374499674747242e-01,-2.467289933015269998e+00
-1.156006188288685593e-01,-1.096787210361046982e+00,1.212986822800883047e-01
6.900098752782954925e-01,-7.224461177090348851e-01,-1.049854315902574831e+00
-7.705370823653840961e-01,-1.154387555604234228e+00,-3.397574120297558675e+00
2.647977160680673459e-01,7.054936427913693908e-01,-1.168958273377611878e-01
-1.280455872893781599e+00,4.006400556480033126e-01,-3.467494354519925270e+00
3.607216262930529882e-01,2.348872286278918253e-01,-2.330899323053237993e+00
-9.435788114363230505e-01,1.240757689295288291e+00,-2.452043250573852529e+00
-1.312411395523027435e+00,-3.410945492415011215e-01,-2.292200338553070094e-02
6.502919728125539089e-02,5.687671858798174496e-01,-8.464689603894428455e-03
-2.415708945435609323e+00,6.674397818761961254e-01,-2.851075882241820736e+00
-1.233121865615984802e+00,1.219531431245367115e+00,-1.979292738150424169e+00
-2.605756561851705122e+00,-1.657258296688186860e-01,-2.739795493243277758e+00
-2.143316788874801038e+00,-9.054563761533226396e-01,-3.019486308046895218e+00
6.181955620071171165e-01,8.582774757533807586e-01,-9.265317562977271049e-01
-1.333109150372765672e+00,1.238398892353739233e+00,-2.032729858412366308e+00
-6.940616590575017231e-01,-1.284349838960274326e+00,-1.075833329103667246e+00
1.048383917490764761e+00,-2.054023155336883455e-01,-8.622463567975476861e-01
-6.296411191252617723e-01,-1.062670332841526566e+00,-3.548904561860382501e+00
-1.434560001821894915e+00,4.106823436240933378e-01,-2.139696824645495321e-01
-1.054645322226726023e+00,-1.307776542259906360e+00,-2.190338949464971208e+00
-1.146222707638104632e+00,4.712092478916735661e-01,-3.464577135640314332e+00
-2.325818236742174694e+00,1.552214034109488001e-02,-2.060164106042785548e+00
-2.196253850172241950e+00,-5.034205545241867696e-01,-3.031161794580653712e+00
-1.339665304066080864e+00,-1.289732692696309968e+00,-2.573349769551932287e+00
-1.238126211904123863e+00,5.934938869538001205e-01,-3.421764223066128818e-02
1.288737138150593819e-01,-1.202515215271705129e+00,-5.928041812322638604e-01
-1.213806054766580766e+00,5.347869250201309210e-01,-3.463265665386573655e+00
-1.804044824382594170e+00,2.634141268586271400e-01,-1.016115008145800580e+00
-2.081080046031462238e+00,-1.172904686013391151e+00,-3.091778799722099791e+00
-1.513512532019131995e-01,-4.941974210484666452e-01,-3.329478965171654536e+00
-1.810205054046600814e+00,1.137029856991403243e+00,-2.912635437632651314e+00
-2.301246449612298850e+00,-3.374284563319758790e-01,-2.101087114215637541e+00
-5.785290946843092419e-01,1.231400731773686141e+00,-1.026718987554426921e+00
-1.672344521632649628e-01,-1.028647153797984215e+00,-2.339260574976717688e+00
-8.650739649846521662e-01,9.670892512511091166e-01,-3.604131659436802693e+00
-1.104874767290050075e+00,1.295241854666724812e+00,-2.199528721937648257e+00
7.311220267544732421e-01,5.519996309985953920e-01,-1.340029841176670899e+00
-3.940122882722031372e-01,-8.921014877890282024e-01,-3.322699788994815773e+00
3.665847693689460729e-01,-1.205677294613518802e+00,-2.772976835791906569e-01
2.430711372300810857e-01,9.720648563208550419e-01,-1.242359181298686943e+00
-2.337528466440154329e+00,8.280168916589270012e-01,-2.949375109442199161e+00
-1.162397620994994440e+00,5.324788112735336920e-01,9.755209709435358478e-02
-5.777745702754896739e-02,1.251124912477781237e+00,-4.275390836477729883e-01
-1.436980914762002071e+00,-1.172937900544169798e-01,-4.739374650497216873e-02
-5.942521447449635730e-01,1.237792411754172095e+00,-8.195952460898420222e-01
-2.139822927948732190e+00,2.500099465012860511e-01,-3.033432980674987345e+00
-2.295799105569358289e+00,5.373717717211294875e-01,-2.343666495334860045e+00
-6.956622927231401743e-01,9.395625392830841971e-01,-3.501109897245248348e+00
2.586160165722598547e-01,-3.857784844061349916e-01,-2.437257756699004574e+00
4.586680350386516669e-01,6.065218076579655948e-01,-1.334487913734316855e-01
-1.055196468585345215e+00,4.682707690424491309e-01,4.511376296441230727e-01
-5.079729324294276482e-01,-1.318740388776121764e+00,-1.478576165786173569e+00
-2.209229372854113471e+00,-4.946964333086452670e-01,-2.070150010871576907e+00
-1.345305470820883365e+00,7.121386736586929889e-01,-3.419292657587065687e+00
-7.254649786405544809e-01,1.212506862648262018e+00,-5.532761000258327178e-01
-1.499713672293280675e+00,5.102473227655100751e-02,-3.938846597592034482e-01
-2.103401479796892792e-01,-3.240102850789298716e-01,5.886969061107775320e-02
2.062767375967352323e-01,8.800305473912652943e-01,-1.248863563248199804e-01
3.894252369655147317e-01,7.165733198787906932e-01,-1.602595267293024373e+00
-1.547670266363646352e+00,1.164664494152213292e+00,-3.138778097434019809e+00
-1.143450780635131059e+00,1.169071585866882756e+00,-3.407671974354736122e+00
-3.228710360058054674e-01,-8.270301259285252060e-01,-3.259261983646905225e+00
-1.860633993146699527e+00,1.560973387375766408e-01,-1.030170657111459276e+00
-1.847877272928495351e+00,3.834648281667959457e-01,-1.293397414101940646e+00
-1.261019581283479019e+00,1.209809121356786976e+00,-2.612546802294347881e+00
-8.991791741877858471e-03,-6.503118014174367190e-01,-2.855663664949564140e+00
-4.369998400956750517e-01,7.944594849737532938e-01,-3.579274501716261714e+00
3.307249526460245836e-02,-1.167898948332411146e+00,-1.017543083358012357e+00
-1.724112139680806788e+00,-2.265211141747276169e-01,-7.694192267465699286e-01
-1.934346414002192427e+00,3.021424901939073759e-01,-3.111707939696906955e+00
-3.192288854006022913e-01,1.187864302729415789e+00,-1.739255543802052717e+00
-2.131117292072361113e+00,7.180506985391478525e-02,-1.590824043408210375e+00
-4.502133154672610105e-01,-8.180736232537174635e-01,-3.576436554726309058e+00
-1.390433938308307749e+00,-1.114087635372833063e+00,-3.304519413141667972e+00
-1.319196021947302899e+00,-1.295946513718426729e+00,-2.140771170129184942e+00
-8.928673780913926050e-01,-1.085237975999432614e+00,-2.759840519903400957e-01
-1.449088623494431349e+00,-1.730208203735923433e-01,-3.388783876424532604e+00
-1.368586940452848122e+00,-6.818013249752539195e-01,-3.392882478676043423e+00
-1.794052969403076681e+00,-7.577088466670167666e-01,-3.143149105453857839e+00
-5.440194716661514995e-01,-1.009323387438688761e-02,-3.761429473601211271e+00
-2.099358612951429226e+00,-7.692878633967874524e-01,-2.116883785446916910e+00
-5.288911201830841513e-01,-1.311823354002488069e-02,1.796818036678521913e-01
-2.612086699103985055e+00,-6.539753141846250950e-02,-2.780597874406767644e+00
-2.529048982313787386e-01,1.281184991121291583e+00,-1.204762042447045767e+00
2.584203118686357881e-01,1.019680561173096356e+00,-1.263790204188114386e+00
2.800492684115999387e-01,1.142968530289924178e+00,-7.218709012235755562e-01
-1.328443133160286171e+00,-8.426944917090478659e-01,-5.436354675459699193e-01
5.836292015924458010e-01,-9.065888247479828022e-02,-1.815738043698563731e+00
-1.796234337284041249e+00,3.895521113816981518e-01,-1.013053598257999788e+00
-2.470648558130856376e+00,5.605912444476576217e-01,-2.890846657512716522e+00
4.146681375124895430e-01,9.400256384750920180e-01,-1.179646175224188021e+00
-1.202163481202230377e+00,4.493763348693348147e-01,1.673866551637649969e-01
-1.560732475536942943e+00,9.907754083846600501e-01,-3.344895408127199765e+00
-1.246954083372431299e+00,1.025783050010383946e+00,-1.034581408299904970e+00
-1.059741048679190278e+00,3.627260378974350163e-01,4.864422413758705543e-01
-1.008836809732210238e+00,1.055073456003557286e+00,-3.551131179934493787e+00
-6.761549257651109368e-01,-1.025230467703443171e+00,-3.490692399037040428e+00
-1.233668511897412445e+00,1.121947288032726364e+00,-1.635810559101469774e+00
4.802603207968644261e-01,-6.241500315467556348e-01,-2.431352899983943716e-01
-1.394401146533902791e+00,-6.398741515496965127e-01,-3.706519289273588758e-01
-4.260113788937427981e-01,-1.167560967748002110e+00,-2.361923154267876690e+00
-5.118137797976255454e-01,-3.549335528626881842e-01,-3.787656305665862089e+00
-1.402801589186861930e+00,5.347171879031192843e-01,-2.164381492488789416e-01
-4.294030524492365997e-01,1.212145488388505221e+00,-1.949977842216436663e+00
-8.835944441921041170e-02,1.070686704235075393e+00,-3.084759833815217331e-02
-1.353165396635218398e+00,-7.290726103715576834e-01,-3.882684560115703953e-01
2.642894303480680107e-01,9.584670808078620263e-01,-1.175106812102655746e-01
-2.548080963783256880e+00,-3.950099448566865012e-01,-2.710964650248981478e+00
-3.360969775855573993e-01,9.504677542700380455e-01,-2.590587264364642373e+00
-1.567321931209259001e+00,2.089216298901923341e-01,-4.125354061096463409e-01
-4.923481817541101035e-01,-7.917112702513532385e-01,-3.601527163678255317e+00
-2.373323968956587482e+00,-9.125176245105285355e-01,-2.849152049324264802e+00
-1.601685730632142590e+00,4.057584900308277565e-01,-8.258912122290295033e-01
-1.611718782055642896e+00,9.265908450105760918e-01,-1.435988859995675382e+00
6.151517026456893023e-01,3.809929881322850487e-01,-1.657705399698102156e+00
7.367851342718512164e-01,5.928143250438616674e-01,-1.277198510524742314e+00
-1.199673823288801344e+00,9.063469997787505783e-02,4.263393859760652438e-01
-7.411172900830996502e-02,1.453314059902257871e-01,-3.314851031164209871e+00
1.155715482929688731e+00,3.138441844624664245e-01,-5.134189789870059473e-01
5.060060499461075390e-01,1.091807755496795984e+00,-2.657294385299087125e-01
-1.711618230302945465e+00,-1.060600808195045541e+00,-1.837764214568264443e+00
-1.209279740053675667e+00,-1.361437522500798192e+00,-3.451495971414521247e+00
-1.603200190616351994e+00,2.210240592262658899e-01,-2.929845413622160222e-01
4.087753878090591431e-01,1.002913783814785020e+00,-8.834550371109517464e-01
6.811168560693944274e-01,3.314043141284275240e-01,-2.935492136284358899e-01
-1.404324231093449171e+00,6.732632815829494577e-01,-3.426313408742027278e+00
-7.868532749540065874e-01,-9.523063225242829333e-01,3.311229962521419212e-01
1.762585757739980330e-01,-1.035258810679355213e+00,-1.293229051975774757e+00
-8.724744652747155049e-01,-1.275009243546447513e+00,-1.237165603844815109e+00
-6.808448498616388456e-01,-1.167976110526180999e+00,-7.953863746133377211e-02
-8.944153907331908737e-01,1.245358309221207938e+00,-2.227564468476799675e+00
-2.163475964522987294e+00,-1.726760325226920079e-01,-3.041931319729241245e+00
-2.097149198820288607e+00,-1.047320093069686875e+00,-2.699252976253745828e+00
-1.329429183131060954e+00,-1.302188762839033176e+00,-2.121768040666724975e+00
-1.218937056039813394e+00,-3.394288065437311985e-01,3.297110780775533434e-01
-8.066562603208005111e-01,1.105679831755487674e+00,-3.011360120647134320e+00
-2.115994729938882823e+00,-5.986707714895157517e-01,-3.058970511508082968e+00
-9.582571959197375699e-01,-1.326401667481153845e+00,-2.569828790176320155e+00
