1.071205815093159819e+00,-2.273116458756344882e-01,-1.396552888374919865e+00
4.481225083221246908e-01,-5.960820582784461807e-01,-1.238469543863875089e+00
2.989077645777802328e+00,1.960975861424426869e-01,-5.847866355304038866e-01
1.852325280428163801e+00,-1.104375128907670423e+00,7.306605734865975199e-01
-2.475093222741186483e-01,-7.246203427446129552e-01,1.043036995361142083e-01
1.623503723608247795e-01,-5.807376133692567777e-01,-1.200768715719039426e+00
1.325018237271258448e+00,-4.546268771118001095e-01,-1.423181735218570054e+00
1.944305406483458620e+00,-1.950608958987783970e+00,-2.057949930445222286e-01
2.294175133494209540e+00,-1.849490499004571742e+00,2.075084399088114873e-01
3.534694396875144751e+00,-7.843292338625899029e-01,-1.297969223814930295e+00
6.533163031800840459e-01,1.584013427400189911e-01,-1.284209067509918034e+00
1.881556237061424941e+00,-1.756842364957972746e+00,2.179432284829443955e-01
1.615761435788400480e+00,-1.178357985765928095e+00,8.119518775693644885e-01
3.281383369940565675e+00,-1.409482863797121066e+00,-1.538641717650638396e+00
1.062758082673675331e+00,-2.769161516923429947e-02,-1.379816416441525861e+00
3.660592847249553472e+00,-1.064831311277871784e+00,6.134304390417881780e-01
-2.888506349532172363e-02,1.647380013511117458e-01,-5.079807378060881007e-01
3.940003442002242728e+00,-2.110026384661274623e-01,-7.001120907479237154e-03
2.456064265953016967e+00,1.005811228113704936e-01,4.224356465928899573e-01
2.415530914881558022e+00,-9.850237649124929940e-01,-1.621476085331826633e+00
2.527124734499357483e+00,-2.014755170547628094e+00,-8.015950455130212982e-01
3.302471148205710083e-01,-1.189162780009594744e+00,-6.216046688745801019e-01
3.097421993844090338e+00,-1.831106427496004274e+00,4.462004481770168729e-01
3.595540610700571182e+00,-8.465506608584832948e-01,-7.441323299017824633e-01
8.631320555967777475e-01,1.405368146566092491e-01,-1.288045324687550064e+00
2.767165730039915506e+00,1.133311759823295850e-01,-1.102531695002342493e+00
-1.188285714823549971e-01,2.951081947832676078e-01,-1.129977517787858599e+00
1.134014033007229694e+00,2.336696531326852289e-01,-1.176652453403749465e+00
3.061170586459427856e+00,-9.535912426641118822e-01,6.683071115957488484e-01
1.336897269432552326e-01,2.388966239939760983e-01,-1.226908663555891454e+00
3.005943596259571304e+00,2.311000313394121208e-01,-4.282909062003459888e-01
2.955123410171541121e+00,2.715853362553305450e-02,2.698406992174311458e-01
3.661491264601067410e-03,-1.733045876714291722e-01,-1.234674828046278927e+00
3.331296987981982927e+00,-1.085545036704193222e+00,6.642074463611464807e-01
1.461466087650422851e+00,-4.773019022931170308e-01,1.026241736224109635e+00
2.290558825476177063e+00,-1.629026407039614988e+00,-1.341196165726371570e+00
6.889491148466683201e-01,-1.754678274274572569e-01,1.076003892124001604e+00
6.726784342141353124e-01,-9.484547698999228338e-01,8.803226357462269336e-01
3.304043586703141189e-02,-1.531484526982909988e-01,4.827292224664633258e-01
3.457866735256537982e+00,-6.970355792538602824e-01,-1.636480183632377017e+00
1.031518804854169247e+00,8.536666355607896994e-01,2.588405497080775719e-01
4.424566739728563042e-02,-2.433191109749943681e-01,4.246681788130594049e-01
1.454622443369885332e+00,-1.135854328006576042e+00,-1.348124757265747764e+00
1.917486021008673880e-01,1.273372054864946867e-01,9.767657428139776554e-01
2.297699427334038980e+00,-1.625990173821503237e+00,-1.255953923111183368e+00
3.553121613161138725e+00,-5.464700035738114803e-01,5.290181730576349883e-01
4.448231471926791455e-03,-1.251342458584110862e+00,-2.753145458023437686e-01
3.282329281778336938e+00,-1.807712484405169517e+00,4.264977620682518511e-01
2.716962212597651138e+00,-2.095256217792567544e+00,-1.081453447981246985e+00
5.386538021031063161e-01,2.893431247396828151e-02,1.136219268116950953e+00
2.265921108373593729e+00,-9.597296992628469303e-02,-1.331298902685415619e+00
3.741411223209648806e+00,-2.909021057334130189e-01,-1.172305062655504493e+00
7.459469749727071219e-02,-1.175602149724443546e+00,4.501702577226675550e-01
3.072380808276948816e+00,-8.299219708898737391e-01,-1.712497440310581487e+00
3.498070063094671944e+00,-9.113205480728322483e-01,-6.648387825391234296e-01
8.666172236162730247e-01,-1.353225291460181667e+00,-9.246516668033238906e-01
6.996054338161209474e-01,-8.593213877278734758e-01,-1.181063294939225239e+00
1.695654139674009464e+00,-6.527754165792616359e-01,9.763356280662816022e-01
4.876429777766124740e-01,-5.107530750925974861e-01,1.034043316771234400e+00
1.771158579490853979e+00,-6.349037795501403236e-01,9.004451927810253054e-01
8.349796451508952055e-02,-6.685582094008772902e-01,-1.106471440268075757e+00
9.813268506516443779e-01,-1.046813874691331137e+00,8.015939240045206748e-01
2.325270502098260028e+00,-4.034651096451563057e-01,8.342569757155630095e-01
3.164275632952553430e+00,-6.326809726777974374e-01,6.875319597105991054e-01
-2.969099898533406612e-01,-1.181789923007448229e+00,1.031749217837905352e-01
-7.934868266001779413e-02,-1.228285231764393970e+00,-2.806777658243293505e-01
1.597132159574473853e+00,7.818700969738682227e-01,-2.999865282879202177e-01
1.955077687395128105e-01,-1.018071558614966898e+00,-8.988641424592745954e-01
1.431648007480647466e+00,2.410949505866217535e-01,-1.194643737985268128e+00
-2.809787840346072985e-01,-4.736214887334462276e-01,-4.842763705393646201e-01
6.384811974286676017e-01,-6.035649788762480483e-01,1.048968191650470061e+00
5.420146606279498958e-01,-7.915025308084969735e-01,-1.205444506902435098e+00
1.213550801685487207e-01,4.462993849181705053e-01,-4.454268305284808660e-01
3.602935442110732467e+00,-1.041352389652792754e+00,6.508435503527416621e-01
3.722984121360832788e-01,-1.184909199364856613e+00,4.891200717791602814e-01
5.441258870153485860e-01,-1.421858229165722465e+00,6.587794589990064731e-02
2.570379904792574610e+00,-4.674369106118376749e-01,7.616556552975370931e-01
8.638754570786256748e-01,5.318242085831721422e-01,-1.021926781180720223e+00
3.054617347993710652e+00,-2.287195483181715172e+00,-2.431006655096027702e-01
6.551772975621193984e-01,7.637866760409513234e-02,-1.238612947927864028e+00
5.204095962393918279e-02,-8.122595856565206773e-01,1.002644483055035396e+00
1.832516227689768185e+00,-2.246855232166461713e-01,-1.466027972494478471e+00
2.330809062433560452e+00,-7.743040835828091106e-01,8.357192613880630727e-01
1.589923766502204350e+00,3.160821139037002236e-01,6.970611865557314601e-01
2.807242489754139814e-01,4.817748657732973672e-01,1.007947303021936358e+00
-7.335283521058190426e-02,-4.030912215126745135e-01,3.410860094578317958e-01
1.698903378773823913e+00,-4.534347451526974382e-01,-1.490557875886657557e+00
-2.667750803701812723e-01,-3.844334211374200727e-01,-8.981824148883399417e-01
1.103848609111109713e+00,-9.676922601882160802e-01,8.528200147975352197e-01
3.539926795054019415e+00,-1.073601488182907238e+00,-7.696808508195440712e-01
5.135878680309102773e-01,8.784697392487255119e-01,-7.265933924190469684e-01
-2.596054219143728026e-01,-8.193217873812441709e-01,2.507310039711094229e-01
5.533590424495152815e-01,-2.864446866347727938e-01,1.161351707645651654e+00
1.105082373696755882e+00,-9.123999598233515362e-01,-1.313661254046193161e+00
-2.893931140608941854e-01,-5.688505006446441525e-01,-2.729051591796208265e-01
2.026382847395289399e+00,-8.470143196302505340e-01,8.900504909289816968e-01
1.199638982544556365e+00,-1.650901082743779558e+00,-4.792576831233660295e-01
3.320339073481331837e+00,-8.288554906505303244e-01,6.427581281828249615e-01
1.897407879374496620e+00,8.459466917704751288e-02,6.788721922394383990e-01
7.353993020651364843e-01,5.155551552231165680e-01,8.792535091949765791e-01
2.585323995461366930e+00,3.517716962993684415e-01,-4.561462961417549894e-02
2.804437805044889487e+00,3.270398859582641093e-01,-1.859423318605675779e-01
-8.157180189844548401e-02,-8.105874679636889679e-01,-9.459956973815988324e-01
3.086301215824982958e+00,-2.252371525576573053e+00,-7.282141408203174349e-01
3.863493367652653721e+00,-6.013385180138011155e-01,1.338651093290053051e-01
-2.766947806457162873e-01,-5.409711524600419041e-01,-1.074322255596138476e+00
1.301821324378605205e+00,8.064336301399153140e-01,-2.943896655752929470e-01
1.012888703606786400e+00,4.233307822375981799e-01,8.516212972622388966e-01
2.270445083464336378e+00,4.278801374072483954e-01,-2.794004854510723224e-01
8.766899520792793554e-01,-1.521349191465609207e+00,2.132861533718506120e-01
1.511613812298818471e-01,-1.206801090548339728e+00,-7.158179493775250757e-01
2.931637578774111685e-01,-1.240699363704218960e+00,4.362662613220095187e-01
3.296877486141390756e-01,6.502772176126038195e-01,-1.073844195501882481e+00
2.909188293173677664e+00,-1.688004316701074758e+00,5.216708271134498087e-01
2.205218509855191300e+00,-4.411601810661590628e-01,7.671742813594385479e-01
1.851994977129059361e+00,-1.844864596155933567e+00,-5.072357701889503856e-01
2.875631136984939662e+00,3.043795817576257501e-01,-2.469273749748385205e-01
2.290399210682075637e+00,-1.575903625691759569e+00,-1.343938867021248873e+00
3.393163966038558854e+00,-1.473315596348987677e+00,-6.081744378521976024e-01
3.091751508440612639e+00,-6.177353198371773324e-01,6.550301806718351605e-01
1.218265711451727240e+00,8.155056655747332517e-01,-3.785106174203887175e-01
3.211561020995584492e+00,-1.814535281832369673e+00,4.599315616696568187e-01
-2.965166338198407248e-01,-5.887055710003396003e-01,-4.299548425792837913e-01
7.180407211610628782e-01,-1.332356895677691444e+00,-7.005757881059353487e-01
2.980680221834810961e+00,-6.464822667489793506e-01,7.493530189511861117e-01
3.119104995494776933e+00,-1.810737897246482778e-02,2.977577942284281853e-01
3.630343889699315429e+00,-3.784804667405111123e-01,-1.278823977313521265e+00
3.623050382259453084e+00,1.013075409089636905e-02,-7.815423474228039291e-01
1.861978933285177495e+00,-1.340013536322574472e+00,6.324850206213051829e-01
2.778520854020855690e+00,-4.983708641347978641e-01,-1.694164490601132611e+00
-2.559533681928944926e-01,-5.357908505335648996e-01,-4.189258689718503015e-01
2.208525352343586601e+00,-1.433469005599083967e-01,-1.415411957278375210e+00
1.067855212428264533e+00,-1.277323376974533353e+00,-1.078300665847984785e+00
1.263635436338725215e+00,-1.404470950596325096e+00,4.998317065471887810e-01
3.261357507416839940e+00,-2.014679884489400941e+00,2.772852272121033579e-01
1.810896334735020874e+00,1.086444759427784290e-01,-1.283369348094592466e+00
3.181617781462341199e+00,-5.324879348172989468e-01,6.552845026064403333e-01
2.007562500619509027e+00,-1.236677080856980249e+00,-1.465081539687446810e+00
7.297532015613800160e-02,-9.814822464787718026e-01,-9.017608728162609388e-01
-2.607538697020841401e-01,-7.577809546205737101e-01,1.322566285285337873e-01
1.904514453241834271e-01,-1.194790044727661593e+00,4.924979490199334897e-01
3.092482002837295241e+00,-1.588336539359968880e+00,6.117034542550316978e-01
-1.367679806767775896e-01,9.221640274542027005e-02,-8.798515337438603812e-01
1.540257070532379480e+00,-1.458633482210528687e+00,-1.107220830703084413e+00
2.448067420549603912e-01,6.918215677715126022e-01,-9.367791379581169586e-01
2.699820822151447253e+00,-2.117818469119544300e+00,-8.727090177165170992e-01
3.231973685133944674e+00,-2.029264331553778167e+00,2.613773112811671462e-01
1.290391044011558686e+00,-9.006988218787412848e-01,9.248018164847252587e-01
3.415945715051921461e+00,-1.262801793091865576e+00,-1.313252787060509741e+00
6.551320475053784564e-01,-1.317580083196294050e+00,-6.386260453130070402e-01
1.135268574609016090e+00,-1.617336679377024744e+00,-5.391984609698328296e-02
-3.724878938659449412e-01,-9.666323487743172516e-01,-2.180535404909832164e-01
3.649534564721099272e+00,-1.277330731894403382e+00,1.516532330316742172e-01
3.327634252085335392e-02,-4.032365390317164122e-01,-1.197071427281415357e+00
3.368680772937032941e+00,-3.925886943538329787e-01,4.393732059648956523e-01
3.912406419939738811e+00,-3.933063784482496855e-02,-5.058713920072783754e-01
3.338950609588537954e+00,-1.848249568749797067e+00,-5.759468152458441237e-01
2.574944494898266711e+00,-1.672561517947515064e+00,-1.344481935358659896e+00
3.488659569432162044e+00,-1.602388651486883697e+00,-4.110016381117300721e-01
3.456349076038522927e+00,9.679451192323852704e-02,-6.212123743696159606e-01
3.603795265460800312e+00,-1.281841205958667462e+00,-4.495649714114326873e-02
1.652062518789724876e+00,1.716093442382868317e-01,7.277158754640182803e-01
2.288207653503606220e+00,-1.697829865114692582e+00,3.884746761684148564e-01
3.252851882722715970e+00,-1.587303980955626415e+00,-1.629889077069092584e+00
1.708693132974893336e+00,-1.134157385146027153e+00,7.517783067046117651e-01
5.208372373777717668e-01,1.042430075647718279e+00,2.125092783120058337e-01
3.563620196156412234e+00,-7.917457297342895828e-01,-1.013928802800027063e+00
2.147853364660353481e+00,-9.574263178490718396e-01,8.376440836488632247e-01
3.061580914881446791e+00,2.365738094501087380e-02,2.535424538477593082e-01
1.301328499678955142e+00,-9.703931729004064977e-01,9.315820193683231887e-01
3.205281498211892011e+00,-2.081851687806343776e+00,-7.650694860355609084e-01
2.243424972028798814e-01,8.211052347486930136e-01,-5.928846617295061572e-01
2.015503829080063536e+00,2.965452310740295805e-01,-1.098661159643809615e+00
2.434284889004041386e+00,-1.791585693123128209e+00,-1.067783473712441644e+00
2.425116548717896503e+00,-7.209960550962066783e-01,8.297959691252058123e-01
8.482236642815064176e-01,-1.053693646758512070e+00,8.115140635764136468e-01
1.567639538199383287e+00,4.437167465093631684e-03,8.949565435006860969e-01
1.529556130562279792e+00,-1.685970123752345895e+00,6.746187093438663074e-02
2.768448411713661628e+00,-6.279521468662548900e-01,-1.674714661538670990e+00
1.256537355830620317e+00,-1.420806079483370121e+00,-9.238435855338489322e-01
2.259535047166312705e+00,-3.783240380113598866e-01,8.267021480194060024e-01
5.042344935022305963e-01,-6.228526656566716335e-01,-1.160882910123924860e+00
4.577353634819450456e-01,5.956095209755846165e-01,9.424177455006549353e-01
6.495068099952479995e-03,-7.351270731408841019e-01,-1.027374714584389892e+00
1.676569554536973261e-01,8.128662033716307356e-01,-7.433686636144017923e-01
1.521227464186920342e+00,2.739603131770965705e-01,-1.201172485908228227e+00
3.640307901129317347e+00,-7.164281928618714268e-01,5.448886809266079156e-01
2.447833315146762168e+00,-2.174874039488212951e-02,6.246761211571750794e-01
-2.433838348921955191e-02,-5.710999154251563681e-01,-1.101286321157466830e+00
2.202657260678993367e+00,2.016184231867307053e-01,4.763220058144470026e-01
9.975543435720612973e-01,-1.041048218820095794e+00,8.303078002771445698e-01
6.098185288021770178e-01,4.313368157327488600e-02,-1.283364545317258409e+00
2.626802907931213404e+00,-1.416630012818382411e+00,6.161258251169954292e-01
2.943613811815663617e+00,2.079286383602575172e-01,-7.749995003315398590e-01
6.737092779551216992e-01,-1.420318688970842569e+00,2.279900520959369237e-01
3.591190552383206058e-01,-9.316987488489278935e-01,8.353271650386800973e-01
3.603419234821084949e+00,-1.209390048177045318e-01,-1.272716732198724277e+00
2.262598010253131786e+00,3.621135263294438800e-01,2.137553466734564978e-01
2.760458636230628926e+00,2.533572577922821867e-01,-7.413413405124685829e-01
5.874232635266524172e-01,3.779294642409268823e-01,1.026217696600252749e+00
1.827667124207353444e+00,-1.895676990365986248e+00,-3.900420592571968714e-01
1.310926257125542227e+00,8.092504595548780655e-01,-4.032288682495767385e-02
2.100157832698975380e+00,5.519405131957894062e-01,-3.924836860930857041e-01
-1.097415645591282019e-01,-9.521304298865700122e-02,-6.313624250209252109e-01
1.121269654989197173e+00,8.717431892908251712e-01,-2.003097003422695324e-02
1.689645036312242832e+00,-4.798087687266880397e-01,-1.476607210177077745e+00
1.508974905252089327e+00,6.032914621695987245e-01,3.019283783140257471e-01
3.554998963748729590e+00,-6.671847032610510597e-01,-1.626345749965643295e+00
3.643927101100646659e+00,-1.441496950145937650e-01,-1.196604605057546733e+00
1.706395684884894459e+00,3.037565765756379821e-01,-1.064652438789969624e+00
2.440946817180765560e+00,-2.323900949607834443e-01,-1.374290827185235875e+00
3.598325445665808253e+00,-4.531067803475934408e-01,-1.466472702863083510e+00
2.788561703133540792e+00,-1.822841883121270490e+00,-1.369512291115174030e+00
2.388249970692239987e+00,-1.634964425359273887e+00,4.381060053807838695e-01
1.686286839092548284e+00,-1.238570480542986241e+00,7.031521842283461332e-01
2.243396092748600967e+00,-1.412922833330086059e+00,-1.369565724165533460e+00
9.951199804004484673e-01,-1.574338306185258274e+00,-3.845312227772315627e-01
1.559871190768603588e+00,-2.859556473090572593e-01,-1.431119300276368911e+00
1.877220887389228210e+00,4.677134328808168484e-01,-9.806565159579520019e-01
1.901167669929919368e+00,-1.867977582970492545e+00,-3.231682300798169871e-01
3.769796690171181464e+00,-1.014334784647444032e-01,-8.651847599015043411e-01
3.609552536466999140e+00,-8.490618324118162086e-01,6.283896552729133500e-01
2.232683179682350971e+00,-3.397073559368031792e-01,8.065197118520442965e-01
2.123061567671001626e+00,-1.152951232740730525e+00,-1.486842024263217210e+00
4.396768666103424428e-01,1.073214466272393253e+00,3.657586101588458649e-01
3.066688704910940366e+00,-1.859379092546295187e+00,-1.435858726751590986e+00
1.868436586285425749e+00,4.148344533393547029e-01,-9.832268295328702168e-01
3.446515979371673311e+00,1.178092725593011952e-01,-3.879581091895575318e-01
3.077359685571969372e+00,-1.628143978896756439e+00,-1.622101613508520890e+00
2.168290057563998730e+00,4.596160954825951328e-01,-6.613246145128128806e-01
2.489816885677921032e+00,3.985031238040418478e-01,-5.016729822484882195e-01
7.931440757693072885e-02,-9.073367179711265551e-02,8.711888268413100489e-01
4.304806306565892894e-03,-1.262160534422251290e+00,-3.260189711246362920e-01
1.241514956737122866e+00,-1.580798006122800803e-02,1.003257320011606168e+00
2.024973385861591257e+00,-3.883140010409432130e-01,-1.506010834696647427e+00
1.897565868643512399e+00,-7.433552422817545358e-01,9.023360252967652650e-01
-3.500578279554158317e-02,-5.666037872092991590e-01,8.922459653943579649e-01
8.262438669649835310e-01,-1.300006268927174524e+00,-9.080021452446208619e-01
6.736830796955530776e-01,9.609493563616156031e-01,3.540203353969092331e-02
6.768289744587930867e-01,-1.442952565802329667e+00,6.581830367970248341e-02
2.010719356344763398e+00,-1.149083928683530598e+00,7.822747264936000811e-01
3.115864854851021715e+00,4.186066423036954171e-02,-1.085130779844637905e+00
3.032303150040067230e+00,-4.354025265749043583e-01,-1.599991367400955378e+00
8.821150094121553709e-01,7.351873770712008538e-01,-7.177252896143578864e-01
1.458370606655115420e+00,-8.472067414900399385e-01,8.535514155775976164e-01
1.061815824575647715e+00,-1.634732095465644575e+00,-6.278009350528048760e-01
6.933504109144297267e-01,6.905765314202263472e-01,8.154033434634646582e-01
5.920628889104804227e-01,-4.667238261912440289e-01,-1.328871067302138886e+00
3.162156544189471230e+00,-2.156427647661955493e+00,-7.289402620634845009e-01
3.323406287310526341e+00,-1.840787831106884376e+00,-7.835908754240451524e-01
1.793162077892268558e+00,-1.874230594942829731e+00,-5.121436270570859373e-01
1.505301094815142848e+00,6.564310832172336463e-01,-7.517481967238668350e-01
3.148714646092913405e+00,2.251682634913946823e-01,-7.773615865916380097e-01
2.062737987044717780e+00,-1.821440896885630378e+00,5.179706249587958528e-02
3.149690227717916624e+00,-1.229609299464097250e+00,-1.714309636793371894e+00
3.077082627719274210e-01,7.548816392258225205e-01,3.790826909620850227e-01
2.366769203473161998e+00,1.305040795305044687e-01,5.774042671988194320e-01
3.876697290406072582e+00,-2.680105166259692528e-01,-3.066767862148146034e-02
1.323634703128655055e+00,-5.592765753692219288e-01,1.036120937121769225e+00
-1.910728137314830766e-02,-5.276484675750381381e-02,6.025302749461188684e-02
1.060872844688073302e+00,-3.715990518419645672e-01,1.022588565895333756e+00
1.493710381506128948e-01,6.606134030100211385e-01,-6.737284718818755680e-01
8.741455645821615272e-01,-1.466943286326160223e+00,-4.813889590286978826e-01
3.289345606036523151e+00,1.394014535630218321e-01,-7.894372074640028103e-01
7.130053386694058526e-01,-1.385230801049620375e+00,4.591755598775238423e-01
1.204888699870096724e+00,8.334278727404231812e-02,-1.297615301692764289e+00
2.445168410686457072e+00,-1.564552727810802679e+00,5.390834715412293754e-01
2.195977167153301490e+00,4.356825656131331770e-01,-7.765318282938735717e-01
2.502351251640195784e+00,-2.048516883232375463e+00,-1.999085349844110376e-02
1.170654267849426944e-01,-7.946835527721249903e-01,-1.023715819220427425e+00
8.648536178366170724e-01,-1.240903721514982516e+00,-9.893495075174875142e-01
1.598535066781475944e+00,-4.638922641759024579e-01,9.743431302289434770e-01
2.796763508371318707e+00,1.811313413687586638e-01,2.707113864609467790e-01
7.510431378234679878e-01,2.529243818369393657e-04,-1.269912437338877487e+00
2.784417946345165706e+00,-6.365621653663510182e-01,7.861954387297208635e-01
2.293354940760994332e+00,-1.951443264877905204e+00,-3.469468212231812676e-01
-7.792644868589858331e-02,-5.860942337490359089e-01,5.261880004735655092e-01
3.348499496217083315e+00,-1.640051036752562919e+00,-4.734137423083236151e-01
3.408114656954636335e+00,-1.339716008608800468e+00,-1.064907092899801899e+00
1.596578847151238212e-01,-1.249426928749575616e+00,-3.303532450700820133e-01
3.378736882325526381e+00,8.111498584510186405e-02,-9.210443505116125973e-01
2.906096820139003167e+00,-2.185100280789991967e+00,-9.687807706616451131e-02
3.047444482475050176e+00,-9.349479151031859780e-01,7.572544490483787971e-01
1.339509214173360219e+00,4.911622789718765869e-01,-9.712819471151202810e-01
-3.183628111095054142e-02,-5.890398071942493097e-01,-1.124489727871691880e+00
1.521474580798403808e+00,1.161187281031330482e-01,8.769929637196176575e-01
1.387091942521170851e-01,4.350337527583040820e-01,3.080686645696699144e-01
1.587637289791788975e-01,3.063953945415455182e-01,3.262875199686658401e-01
1.887612391583305627e+00,-1.465019551380718710e+00,5.116665605539997275e-01
1.083703277444769686e+00,-2.819527697998752136e-01,-1.422469593994145409e+00
2.063970625545193727e+00,-1.211130437800847393e+00,-1.509976920823157709e+00
8.174907757673418596e-01,6.965687537852227607e-01,-8.237721724251156896e-01
2.050253536553960476e+00,-1.259996057506947098e+00,-1.492446867349581430e+00
-1.174431185785216186e-01,-8.039448152850423024e-02,-1.279361197277723461e+00
3.457092370772660850e+00,-1.265824909208353777e+00,-6.534600911561967429e-01
3.738557499693916153e+00,8.972976517037446753e-02,-2.375838474172033143e-01
2.771512059097584579e+00,-1.606960447723284613e+00,-1.541961363133674157e+00
2.394379075180062433e+00,4.454825701815274264e-01,-3.329256612473756038e-01
3.979480636841664642e-01,-1.345594512524640018e+00,1.400767670790099284e-01
3.652388404892525475e+00,-5.185518891162650412e-01,-9.444618817753336337e-01
9.449165713581255677e-01,-1.527962248207852092e+00,-7.556496590816840220e-01
4.237630495267084574e-01,3.492152003205750144e-01,-1.125521056097732009e+00
-2.756033283218019530e-03,-5.283752468679959735e-01,8.916114242498556219e-01
4.041503072139943087e-01,-1.322478933815161461e+00,4.638205962887825273e-01
5.054778357100495612e-01,-8.089575136226692109e-01,-1.128760845021372416e+00
1.682015958214680973e+00,-1.536321121742282303e+00,-1.051114007724604615e+00
2.133785491924062028e-01,8.124265305829528883e-01,-1.989026979900446745e-01
-3.192551065083290007e-01,-1.072020906959334496e+00,4.300166878517956426e-01
8.494174980446970169e-01,-4.639710352346614886e-01,1.019959440564590647e+00
-9.195831236095662609e-02,-8.551259826266026653e-01,8.163284976145437355e-01
3.900476032083398437e+00,-2.767187456522642308e-01,-2.827073372218260050e-01
2.337990461226788330e+00,-1.491790825994509184e+00,-1.411893333235093806e+00
2.589503998018176212e+00,2.767100949019182243e-01,1.979084095678794453e-01
1.440870597302821021e-01,-1.247110480018287330e-02,6.591769080212649401e-01
6.720075237643707844e-01,-9.695931523547156594e-01,-1.073094058024961051e+00
1.816939710750487824e-01,7.758285713030700359e-01,-5.096223265225013899e-01
1.171763179857679749e+00,-9.157854777137076907e-02,-1.329010052988891077e+00
3.768390245192021926e+00,-7.399368762005267275e-01,2.021917557511953845e-01
3.455566887992549407e+00,-1.200010051095396157e+00,-4.019456980000032376e-01
1.271746403416975868e+00,-2.406865159625019845e-01,-1.410855874148427391e+00
-1.025787407345860880e-01,-1.236887198730477921e+00,1.221186534247740707e-01
1.851106266132025890e+00,-4.853893241816226722e-01,-1.530814033080286407e+00
8.155975571734477292e-01,3.411259460318489256e-01,-1.162201945199362152e+00
2.214471259304574835e-01,7.365652178961227259e-01,-5.145029781929229273e-02
3.734224545061323397e+00,-4.188764184213124575e-01,-8.996498028444277484e-01
1.486159827297274250e+00,7.546650550034932348e-01,-2.446621352770240454e-01
1.485185031215356721e+00,-8.000628309624580048e-02,9.217894289181076672e-01
1.946724507156210926e+00,4.325502829767585711e-01,-8.094144521895872968e-01
2.705007056340698934e+00,-8.517103687223508413e-01,-1.645318276734684337e+00
2.160791052996285377e-01,-1.255779400699284620e+00,-6.195248069896144294e-01
3.587823694004916852e+00,-1.113093118895762901e+00,-1.305161740274423388e-01
-2.920778097372260795e-01,-5.848932503487849210e-01,-3.414845406085036950e-01
1.290118121229784531e+00,3.773721112992379778e-01,-1.189184229648827529e+00
-3.229922701166328403e-01,-5.099396921236153402e-01,-9.477346271571248648e-01
1.661580849767820833e+00,-1.412000410805842598e+00,5.758644076462451356e-01
-2.318855698660145792e-01,-4.326521313494695598e-01,-7.096167976377480979e-01
1.688601311847600428e+00,-9.849390405877186394e-01,8.990650414491277997e-01
1.591373114031047420e+00,-5.996864786570841321e-01,-1.452998936164560995e+00
2.479179302976109778e+00,3.633537309404860638e-01,-1.892081132161550078e-02
4.100818884845411350e-02,9.299031697304531094e-03,4.331028035605971049e-01
1.170353827920354250e+00,8.403478900126410966e-01,9.757267748874599508e-03
8.713466040870745388e-01,9.340903797917392559e-01,-2.735402954441544521e-02
-3.594823270717696362e-01,-8.519119060781944475e-01,-7.354361500527232254e-01
9.017359102458489817e-01,1.929393274212849452e-01,-1.281587189466549370e+00
1.410349494255149994e+00,-1.634150429946191307e+00,4.255499274820010759e-03
-1.259465474800748608e-01,-2.952261454468127488e-01,-2.994909080124389389e-01
9.697593177085678251e-01,-6.755929545242255196e-01,-1.275024027725481179e+00
8.780271013746020203e-02,8.087792800518371905e-01,-8.215328381968760585e-01
3.289582291295852112e+00,-4.308073775021239449e-01,5.417913251543208242e-01
2.524332699627345189e-01,7.621293138319291671e-01,4.701274600409371396e-01
1.334069763326798386e+00,-9.407643909459811882e-01,-1.326143346636820652e+00
2.009784517344206822e+00,-1.248930154090270195e+00,6.982575226103490129e-01
2.546640407292197761e-01,8.809575863778921212e-01,-3.719734805097054120e-01
-4.710901292202028523e-02,-9.600024919466862983e-01,6.741660175322728987e-01
2.012469703241444030e+00,-1.289344071435055250e+00,7.718141924106037832e-01
1.861492373502284359e+00,6.243408770259474272e-01,-3.124253327938104063e-01
1.995159405058614777e+00,1.551602943120255484e-01,-1.112227027534983037e+00
-9.507033637691961192e-02,-6.715964141055817960e-01,6.400269961948498176e-01
2.422952949642206200e+00,3.554001825437781009e-02,5.299286936164875339e-01
8.985342472350780207e-01,5.562529965186552294e-01,8.004778137232095858e-01
2.832758541397530472e+00,3.243750197694056370e-01,-7.223196694817174413e-01
2.322903174830391215e+00,-1.121099600921604100e+00,7.845287560148495043e-01
1.051093146764659148e+00,-1.291784768465151778e+00,-1.029149532681568946e+00
3.593000989230072495e+00,-1.154437488807958712e+00,-3.614357591677812981e-02
2.213038847828274758e+00,5.133095654866322022e-01,-4.507251763537657441e-01
3.237188514003812578e+00,-2.016176269739733851e+00,-3.808997007335508944e-01
1.286437003390474287e-01,-4.667335925297803056e-01,1.091763926541102547e+00
8.289807050334840888e-02,-5.557728624655345895e-01,1.086786516531513591e+00
3.655539555673859464e+00,-4.678535441324377930e-01,-1.057815683225836301e+00
4.104334405022654758e-02,-8.089684215344659091e-01,9.320724433726221836e-01
7.139503384764221694e-02,-4.342203549053607059e-01,1.108063070756084789e+00
9.589227382413888501e-01,-1.473069064807795758e+00,2.322093107513509835e-01
1.679788974528090284e-01,7.090231233878698802e-01,-6.323912371451329006e-01
2.263053029325607035e+00,6.299768028523500263e-02,-1.296982716690437520e+00
3.189795112637558550e+00,-2.370254028088425446e-01,-1.418709736674884203e+00
7.114565670907063710e-01,-1.426293110161126032e+00,-4.418200488469953280e-01
3.590742247049606650e+00,-1.225362327108661775e+00,-2.348285962739182775e-01
1.247707546755604691e+00,4.103318408983047116e-01,-1.084530569337690098e+00
2.770812763375035015e+00,-5.822606657761769666e-01,-1.618500217225435245e+00
3.717598633973792643e-01,1.043222202888594463e+00,2.005043076301169513e-01
7.406601697445259758e-01,-3.719846163513081394e-01,1.091923604947749871e+00
1.196046279851543215e+00,-1.168268324217539789e+00,-1.238909132916258482e+00
2.572224157908415521e+00,-2.038969869786045663e+00,-9.791054418668500015e-01
5.908244087353118346e-01,-1.501077736424732523e+00,-3.962205625739119164e-01
3.361416396290913600e+00,-1.371640217577170529e-01,2.539543445839916869e-01
3.299280331985900538e+00,1.149831166170403596e-01,-6.809452079920487177e-01
2.747129187265880401e-01,4.930289666111274394e-01,4.517018301355555376e-01
3.055163937145521036e+00,-2.133897907235592584e+00,2.278937507931480880e-02
2.049740867531042010e+00,-1.894236940490336751e+00,-6.263209464320056430e-01
3.092848849757293905e+00,-1.321845859221883746e-01,4.587300115738492390e-01
4.281162236504693075e-01,1.885009167574382138e-01,1.112343631142564293e+00
7.529535795264549747e-02,-9.840072168687644116e-02,9.919796566801417637e-01
8.048849335598778909e-02,-7.828937470076454685e-01,9.317406734708634231e-01
3.610805885842690799e+00,-1.140094969657036605e+00,1.796021601021149938e-01
-1.500029514125313101e-01,-2.630322999250586657e-01,-8.961474241050698675e-01
2.189333210783851680e+00,5.150381958524634651e-01,-3.528972424052767565e-01
2.252468272427325058e+00,-7.325667033105141002e-01,-1.574718688304338698e+00
3.602649377062487002e+00,-1.521198153913700946e+00,4.977772227310123809e-01
2.234291242274219602e+00,-5.172892119964300761e-01,8.623588739010344950e-01
1.831086711115557097e+00,-8.413391253461804942e-01,9.347255480575180631e-01
3.831682766635094328e+00,-5.271352109978418854e-01,1.879353779439190963e-01
6.957999854304096621e-01,-1.085362419653866040e+00,-1.038022281566439275e+00
3.272530914633169807e+00,1.319744324827895332e-01,-2.112026536518054887e-01
1.064005676406953205e+00,5.011781991310123585e-01,-1.000797806437990767e+00
3.428499409018840538e+00,-1.195224675211871701e-01,1.745164732198994650e-01
2.788726687459400555e+00,-2.098238886348561483e+00,-9.496341110652861683e-01
3.789334448220242013e+00,-3.774984609919348859e-03,-7.740548457278635386e-01
3.722536030048056777e+00,-2.075387736905725533e-01,-1.105753637857972871e+00
3.665455784965968355e+00,-2.662340747079659092e-02,-1.088348819490293717e+00
2.499969983336269852e+00,-1.133061146977039302e+00,7.253306990211123573e-01
2.969526008784477256e+00,-5.476739528780127930e-01,-1.626952072709714203e+00
1.474268563588229997e+00,7.270300604370588671e-02,-1.337418622521040490e+00
3.482831560550537553e+00,-9.416075237075747228e-01,-1.271418814845896916e+00
3.571768798121333521e+00,-9.474259349411081610e-01,-8.192377647943694940e-01
-1.601892727362982105e-01,-5.860653229729716474e-01,-1.292869061730836933e-01
2.501661750533064499e+00,3.691712762707471951e-01,-1.089347806183554451e-01
-2.573760372530974408e-02,-6.856132292378471771e-01,-1.056578686703807834e+00
3.034438222987828393e+00,-1.770655017203866199e+00,-1.534948537504146060e+00
3.432118714427470518e+00,-3.879540218763508075e-01,4.143179127478475166e-01
-2.290247101058256185e-01,-9.326074257959777736e-01,4.450402066126848966e-01
3.601999433783955151e+00,8.432474990142256599e-02,-6.867794085273295490e-01
2.462795669846452373e+00,3.748283448936161610e-01,-7.294758940604106900e-01
1.396388455295428210e+00,-1.483531552387872265e+00,-9.550699614147817318e-01
1.682793247364849698e+00,7.328561720147229730e-01,-2.479944346706599023e-01
1.730917926481431390e+00,-1.641843933711426118e+00,2.848832164865729433e-01
2.620056807989287861e+00,-1.492309596440255071e+00,5.917755296312418034e-01
1.664146803798143059e+00,1.234666093033034984e-02,-1.336943346477940331e+00
6.135358188434525406e-01,4.729211309519248951e-02,-1.303797238317192964e+00
3.507346623217550086e+00,-1.511692872131145338e+00,3.519056428781885959e-01
1.542251935863519829e+00,-1.650878286812623497e+00,2.405837759753968463e-01
1.200304690204624380e+00,-6.036347322626757217e-01,-1.354721607195421784e+00
2.081618153532537097e+00,6.193759656441578665e-01,-3.924786608353831308e-01
3.016673357352531060e+00,-1.864938580733537687e+00,4.070723077795273537e-01
2.466174291216232994e+00,4.523449861319382426e-01,-3.374014466472300966e-01
1.708394873985796369e+00,-2.610931819674061627e-01,-1.403275020227342740e+00
1.303508542643316614e+00,-1.685422718723510238e+00,-3.453439808292763646e-01
1.416679599785237498e+00,-1.235803725931366781e+00,-1.182158001462000563e+00
3.414439772233549331e+00,-8.083278259047020908e-01,-1.684221648987826780e+00
1.085101652613348566e+00,-9.102333083020011095e-01,-1.273990811559698955e+00
2.940722342583386162e+00,-1.837848324429910418e+00,-1.412235192439367681e+00
2.386493475891102722e+00,4.396562842676559058e-01,-3.568923282564882837e-03
3.111981230970476187e+00,-5.519670316667335541e-01,6.577758500810270137e-01
4.268128275187718090e-01,-1.213115833503199514e+00,5.703667215489546249e-01
2.523635722194196074e+00,-2.097730156487321640e+00,-3.970626534633546756e-01
2.565091082032286973e+00,-1.482605817899772749e+00,6.339193402954491630e-01
2.632436745723877536e+00,3.460185701986062679e-01,-1.593175864324512248e-01
2.267057195074308584e+00,5.735460143318626275e-02,-1.238674119907186233e+00
5.236680610003383585e-01,7.275959526858607473e-01,-9.217606074560815710e-01
-2.549520190898531546e-01,-5.381318567841875122e-01,-4.876602313771387642e-01
6.769947974839950477e-01,-1.095763072199607141e-01,-1.269435970310792028e+00
3.879911483660972049e+00,-1.302475395708043750e-02,-6.525506722843812391e-01
2.639787615580555524e+00,-1.934355992040179162e+00,2.181708710676295293e-01
3.707825137765971224e+00,-7.578300013459600137e-01,5.184806645829966865e-01
3.023693608437106661e+00,-1.301220304413295503e+00,-1.673781524095924622e+00
1.333116434419213681e+00,8.218901850022963806e-01,1.302489810532332926e-01
4.855319094360302512e-01,-1.116027352504869841e+00,7.145338972363484142e-01
2.236184923030557048e+00,5.283185975733061257e-01,-2.982946673325603815e-01
3.833946270639647214e+00,-2.939504143039573525e-01,-5.452528143930696070e-01
3.609150713191430437e+00,-6.040810210624494303e-01,6.081563219049987978e-01
1.805915835075223297e-01,5.386783718731815718e-01,-2.492867076048844444e-01
1.581301881372545459e+00,6.760153631393621687e-01,-5.549828119457352882e-01
1.778995862546036921e+00,-1.776666991739045631e+00,1.314730233528330627e-01
1.690481542065174758e-01,3.198207806304141365e-01,2.069453330605214580e-01
3.771746302733636647e+00,1.020364960467559645e-02,-4.136016797795060151e-01
2.705744275341940952e+00,-1.272240650737160639e+00,-1.657578914251560454e+00
8.062844250951832492e-02,5.403154031609841423e-01,-6.198846690019644834e-01
3.701294219573643574e+00,-6.704973812102340558e-01,-5.670703138767515528e-01
-2.484618531563106969e-01,-9.497861671488714297e-01,2.680471243137558246e-01
-2.773591696920329475e-01,-7.994219505213367993e-01,-7.747969372881834300e-03
3.552888312137595150e+00,-9.488533204494642437e-01,-4.379851523858033224e-01
-1.712162994664201410e-01,-8.285112796852426298e-01,7.161832965650275495e-01
2.216850145936107630e+00,-1.965624473024773167e+00,-4.162578179368064402e-01
2.865977418376361552e+00,-3.995976397563373583e-02,-1.292899596137336626e+00
3.569693546574428389e+00,-7.007999499006588584e-01,-1.216203697169130349e+00
1.017249909169144262e+00,-1.558514539888367523e+00,1.547444181203497804e-01
3.349837326260207138e-01,8.896823937600347731e-01,4.207858974158609766e-01
2.642249065219969939e+00,1.237280721147495689e-02,4.919097426409103635e-01
2.407231783898818200e+00,-9.156710566127627127e-01,-1.535024960280283013e+00
7.338223769153091602e-01,3.970949767305063938e-02,-1.294615170423013550e+00
1.247542634712049736e+00,2.064758781775631047e-01,8.822022088804171158e-01
2.490355015690459251e+00,8.098616418173677778e-02,-1.188260682266918389e+00
-4.024065967859904308e-02,2.233402661240010412e-01,-7.401369419670091876e-01
2.987813091495018281e+00,-9.470447435720875662e-01,-1.659299170753264940e+00
-4.404078381296168410e-02,1.177704803882030915e-01,-1.224587391661565716e+00
3.439560603647855430e+00,-1.936125560700401316e+00,3.484315221997206780e-01
-1.774967382760427211e-03,-1.615444247492966445e-01,3.016081237439377505e-01
1.506227337738728522e+00,-1.730559059530317079e+00,-2.128878525650255704e-01
3.073665266755377434e+00,-1.300067506656712668e+00,6.996229875279083021e-01
4.153536901884558041e-01,-1.336267277767157813e+00,-6.173981345917857189e-01
-2.058751368798035150e-02,-1.094495005249823461e+00,-6.625036240113846286e-01
3.310099834990673617e+00,5.087455660116022016e-02,-9.895106107826702191e-01
-3.621300384498967601e-02,-6.765801543612674773e-02,9.246643559586156802e-02
2.095537285741532418e+00,-1.857595512705883189e+00,-1.242625407386969971e-01
2.086402554236199247e+00,-1.629427189409364818e+00,4.458236451929771249e-01
2.790958253297101677e-01,8.434326218249693641e-01,1.589001818448095016e-01
-1.776422609700965549e-01,-5.223263656926221410e-01,-5.116624940067625582e-01
3.726992726878917583e+00,-3.279469520343330502e-01,-1.390446429002727857e+00
1.368071572469637731e+00,-1.438314148134828052e+00,-1.053543042693734222e+00
7.652666313777914953e-01,-9.219248025375338385e-01,8.657785787388191379e-01
2.383166358315838451e+00,-4.025091140095984898e-02,6.293109777339488398e-01
