2.613899629909525402e+00,-1.406468158826681136e-01,7.497777932691674918e-01
-2.934950090550929147e+00,6.535235618145800451e-01,1.676507034596010026e+00
-3.738439092410343889e+00,-1.699111572817626703e+00,1.204858465210439045e+00
3.984737645786373239e+00,3.849694036162839783e+00,1.440079337722036446e+00
-4.216498937577516593e+00,-8.793086256562527847e-01,2.282980979975771374e-01
-4.404719815255396576e+00,-3.860873508299416113e+00,3.575383033693225743e-01
-3.543255832800407679e-01,-4.840497590083971069e+00,-2.036453558142241604e+00
-2.467256532105667421e+00,-4.643710213204551351e+00,1.722673551887541343e-01
-3.051484613960252279e+00,4.387953589438824409e-01,1.659844651374782876e+00
1.815843626486538076e+00,5.916782657962105674e+00,1.809067334690667161e+00
-2.704589804035859135e+00,1.994439401828568714e+00,1.146428748930470753e+00
2.794106674987931527e+00,9.065462761808957826e-01,1.154056250442257125e+00
-7.594389889525270110e-02,-3.754503643952335157e+00,-2.306978200329258488e+00
2.361326685373042356e+00,4.565118229083889645e+00,-2.438209256850650264e-01
-4.713543128338652188e+00,-3.668106444474469985e+00,1.678718341485161969e-01
1.693398000561044059e+00,3.742593000005268067e+00,2.247305023140077296e+00
1.225181243310622614e+00,3.612495708553728146e+00,-5.125304565213336661e-01
1.827468077956171610e+00,1.788620845633458689e+00,-1.433667932721453431e+00
-3.788984129060082751e+00,-5.888342099641157290e+00,-7.930246320650452541e-01
-2.277055177838243516e+00,2.536652156641210354e+00,1.551507554577095993e+00
4.177456106856250351e+00,1.086742599909175544e+00,1.044832064468644017e-01
3.664874790293715545e+00,4.944187914449960530e+00,-4.949453037881486328e-02
-1.589443066557102158e-01,4.611848896361839145e+00,1.947233771539956138e+00
2.388010341769758238e+00,-1.758035089385121985e+00,-1.392570891359106167e-01
-4.839673549772619765e+00,-3.370032458448818602e+00,7.538533342414674432e-02
1.174289538492032881e+00,-1.456856495175387955e+00,-2.140278527553521215e+00
1.409306167286664135e-01,4.994942282232911701e+00,1.176890652448175922e+00
-6.027043783254656950e-02,-2.672819890195052839e+00,-2.307785229826579521e+00
1.806941355520932824e+00,-2.200593391897002427e+00,3.929758683415750242e-02
5.571066877423285213e-01,4.297477912203982342e+00,2.314179688833697845e+00
-2.923732714398798560e+00,-3.622807583218224270e+00,-1.907624953868441775e+00
1.943200369474997746e+00,-2.968728053757391905e+00,-1.454670726297801142e+00
5.867793833370924528e-01,-3.704701605955434296e+00,-3.440275578321551064e-01
9.491512966564925602e-01,2.175615810104461811e+00,2.148473943959629651e+00
2.108452329823248927e+00,-2.752785759340964145e+00,-8.536222413772396322e-01
3.609494509633430770e+00,1.549875428059875881e+00,-1.317536242795077195e+00
4.418672156580441879e+00,5.585704096568303356e+00,1.066295349924422764e+00
3.295044508671109984e+00,1.516046349300672613e+00,1.081161690349444093e+00
2.402410254670543033e+00,3.232891143241008347e+00,-9.055167265902012153e-01
2.730809885696657169e+00,-1.439469973507415457e+00,-2.069215839021565639e-01
-2.243819702098297064e+00,-6.141131535981545042e+00,-1.502752895606902506e+00
1.989096467720756323e+00,-1.836374571070745310e+00,-2.003527703208979105e+00
-3.953211208698705459e+00,-3.846078944318172432e+00,-1.466431854759600029e+00
2.101576975010376547e+00,6.079476750370886862e+00,1.441195838206507540e+00
-4.059547624661991705e+00,-4.992500909176205703e-01,9.642038866699805810e-01
-1.747225805027944778e+00,-6.665927726668451347e-01,1.730228965334809077e+00
2.480413587247528362e+00,5.057358395769457005e+00,2.142180450147857407e+00
1.429766708436206457e+00,3.370719876416843341e+00,-7.034584238823624602e-01
3.880797651121908887e-01,-2.506244053805511296e+00,6.137713576890785339e-01
2.406558928487664950e+00,3.149796385569135770e-01,1.074971817141388675e+00
4.482389366790370033e+00,1.466791865481485990e+00,-1.456398395309527194e-01
-3.987177731720988660e+00,-5.047626688906143855e+00,-1.511496656002956795e+00
3.713641895392129300e+00,6.471862902260610007e-01,-1.311737189479478038e+00
-4.708643308330814570e+00,-4.614011108720586840e+00,-9.195093513169203536e-01
7.705665615468754170e-02,-2.529419514222698062e+00,-2.287455933192462876e+00
-4.409845393978056194e+00,-1.823810558504382673e+00,-2.154987219609609539e-01
2.524052477832179786e+00,6.082869454033769330e+00,1.669652603487362219e+00
-3.649142697142122582e+00,-1.807288910143914684e+00,1.240633204099735210e+00
-1.917678657281548515e+00,2.004204835858832912e+00,-6.950564978441069186e-02
2.285304246720150645e-01,-2.308575275430601259e+00,-2.259798717194248407e+00
3.501222381314878174e+00,1.748259120707019720e+00,1.085490299178289764e+00
-2.736786144560664713e+00,1.309468659626540354e+00,1.687540599699658195e+00
9.730125947159823374e-01,4.405050334454529093e+00,5.821868209866067762e-02
1.822025047214987703e+00,2.475329823480139524e+00,1.993535235397269956e+00
-3.786373485348933920e-01,-1.237182226886770042e+00,1.428822931045176992e+00
1.838080288236701776e+00,2.295147406872271922e+00,-1.233953169373986913e+00
1.958898783894773121e+00,2.799547206890258266e+00,2.039076559193640836e+00
-4.597747607681865745e+00,-4.143971257846353673e+00,-9.544747521887554376e-01
-2.507584298705205939e+00,2.265015569865463263e+00,1.163443907291139778e+00
2.763510549916753725e-02,3.691696082311992200e+00,2.312751134690817167e+00
-2.870779965131188050e+00,-4.836576297609557429e+00,-2.030624774373367636e+00
3.088477158584360005e+00,6.029014917696320808e+00,8.733268276436920718e-01
-2.968386123320842174e+00,1.260046815783192997e+00,3.596949508066642487e-01
4.167502200308003779e+00,5.698005664630669820e+00,6.458517961335585866e-01
2.440524543467903484e+00,6.061410041865518572e+00,1.711312952697580547e+00
-4.696472287343952168e+00,-2.190415275081899704e+00,1.609760530389550345e-02
1.876292956772545262e+00,-3.118896099470760408e+00,-1.322533786486841167e+00
3.570967162467375999e+00,5.402091053789926711e+00,1.763914945976066573e+00
2.880569320117793541e+00,5.904914703266685549e+00,7.534469297790542530e-01
4.070996873709503916e+00,5.739914946576996968e+00,6.092316226461175210e-01
4.386668375238627071e+00,2.618980669776794556e+00,-7.279365632079196624e-01
-3.302964201260870425e+00,-4.997013710596390546e+00,2.021045943804760173e-02
1.672138727691355076e+00,7.106621830800878836e-01,1.554827066184063522e+00
2.203895642988617176e+00,5.829413007743499797e+00,1.938341801030621037e+00
-2.474323579566566789e+00,-5.408756897832808441e+00,-2.037101912871907228e+00
1.060679347277963425e+00,-3.636364295656563161e+00,-1.984305553228306263e+00
2.586506139641948199e+00,-2.114600363599179467e+00,-9.203035856292721695e-01
1.093252254625864506e+00,3.501902365589295019e-01,1.626311694665123930e+00
1.347400913523964627e+00,5.721560069637115831e+00,1.216298832708149646e+00
3.540243985775300750e+00,5.868248122758206620e+00,1.684976545443037654e+00
-2.384470673871249780e+00,-3.053061292393989934e+00,9.711034014503650003e-01
4.646670948500733478e-01,4.128148109625375817e+00,2.331800219510168581e+00
2.499514204374006621e+00,4.234253383763929790e+00,-4.182159350832451161e-01
-1.206033932192446256e+00,3.853543532881440914e+00,1.628803642430778353e+00
-2.847385296998656834e+00,-3.097524498720223285e+00,9.649483133594118911e-01
-1.382053911726653928e+00,1.068217006770347366e+00,-9.196917144775242914e-01
-4.217310110829351366e+00,-4.963987288091668226e+00,-1.418953751388770668e+00
-4.095014644106131030e+00,-3.659897838118097102e+00,5.606415534138953216e-01
-1.207754219587793054e+00,-1.694401713783153518e+00,1.375411525631504261e+00
4.779655591243841428e+00,2.902619222135137456e+00,-3.036612566331121643e-01
4.874844098350528121e+00,3.975613294834161149e+00,4.122288976311546671e-01
-2.645945092037870872e+00,-3.564503602851084363e+00,7.863189417634132150e-01
-4.237633334452438061e-01,-4.236867333690661930e+00,-2.281489101187281765e+00
-3.807995904257936992e+00,-7.768818998683126864e-01,1.290967911171983840e+00
-1.032188222210613793e+00,-1.859930184059321645e+00,-2.056656283561214327e+00
1.566721185674946781e+00,-2.064574450558349206e+00,-2.092365595765705244e+00
1.503451032386293740e-01,-4.654163595795248298e+00,-1.029849797779407883e+00
-4.636410792905549805e+00,-5.039469992965678991e+00,-4.650015633973051399e-01
-2.023861677330154762e+00,2.432359664139569055e+00,3.899756853820384173e-01
-4.839595945644297181e+00,-4.099682600278722333e+00,-4.277493396248941426e-01
3.290293165937337339e+00,3.831517183000130000e+00,1.789003897665777831e+00
-9.686776035464165213e-01,-4.213415111381149991e+00,8.878928551310774631e-02
-1.799544607592999279e+00,-3.415171572017080326e+00,7.521477238634464157e-01
-8.277362873346584271e-01,-7.798537796976636738e-01,-1.806015248323790567e+00
-4.798017012971764750e+00,-2.769930665972537565e+00,3.006188785082569703e-01
-3.278267716349231975e+00,-3.714533045612772089e+00,6.830799992375397034e-01
-2.651477481756018939e+00,1.473010190965712285e+00,1.753003420148673275e+00
3.070558544411420954e+00,-2.414816226632938712e-01,-1.642504787504075692e+00
1.266287730288070845e+00,-2.472090642419840556e+00,1.632966962538345002e-01
-4.548027283828553813e+00,-2.438349752676944870e+00,6.742249096705154043e-01
-1.822538396859923138e+00,-4.187571546872796091e+00,-2.245900226440475045e+00
-9.028058834142204114e-01,-5.598973219606799390e+00,-1.580437674762414035e+00
4.140887319390652799e+00,5.264676885417358676e+00,1.451340952717639743e+00
-3.173401244560217105e+00,-4.921486529194047499e+00,-1.920539290113480568e+00
-2.945194729816356105e-01,-4.094565153820549419e+00,-1.371893294409339548e-01
-2.072012328002266757e-01,-1.819606476571700604e+00,-2.182276555998411194e+00
-4.576587998022584536e+00,-4.675281279356204855e+00,-1.093741019363108524e+00
-5.420092720607421199e-01,-3.683994240169273793e-01,1.729247649831316735e+00
-1.270052100623205726e+00,-3.981895837454904719e+00,-2.326637943169278078e+00
4.787568016064021492e+00,4.408348088478605931e+00,2.548095145298683306e-01
2.608856906223416261e-01,-3.023554024668119844e+00,-2.288230252022938505e+00
-2.111226039080646100e+00,2.759550490100391773e+00,9.003901219167894654e-01
1.779351049016270059e+00,4.349905261138964363e+00,2.279405655935964337e+00
5.770451462265258069e-01,-1.901580120273706598e+00,8.347042294428472786e-01
3.336426281430095453e-01,5.522657390544415401e-01,1.876828376816210397e+00
-9.812203161883285008e-01,-8.186909213874181690e-01,1.638663973031178056e+00
2.868203480499062152e+00,5.000696573535527101e+00,2.008612046891480318e+00
-3.625825916498901513e+00,-1.925649901812366283e-01,-1.343047515449592444e-01
7.081375736905504148e-02,-4.218756082613235314e+00,-4.374706434624893725e-01
7.301774966901836139e-01,4.933208008769238262e+00,6.055858467063025552e-01
7.924295423406270134e-01,-4.239275802597997078e+00,-1.599373793303275004e+00
-1.676372090858051500e+00,-4.052838375992105391e+00,-2.257992292996029438e+00
-4.591107591284941059e+00,-1.798208763932207299e+00,5.000650108866302457e-01
2.675393451622468444e+00,-9.102525166424801917e-02,7.204674245978260894e-01
-2.918299944851491912e+00,8.275128834899067032e-01,1.671373340563534482e+00
-3.965571123500848394e+00,-3.672952057274755600e+00,-1.394553650153053770e+00
2.561711475404973015e+00,-6.160871821035748264e-01,5.058110655020033875e-01
3.572590740987839908e-01,-4.643273196142805759e+00,-1.300816562644808050e+00
2.461909064274157455e+00,1.077721985715678898e-01,9.586369859040276831e-01
4.575427344521972195e+00,3.344847961883320231e+00,-4.115854674389883838e-01
5.448616842409068073e-02,4.634994434320639733e+00,2.075038628612293934e+00
3.063871219884250152e+00,-1.512627405546332682e+00,-9.791216726043234786e-01
3.503712129768937089e+00,4.218159496326248536e+00,1.775296653827653781e+00
6.640550020441544909e-02,-3.810903737602948094e-01,-1.870831737598776634e+00
-3.997774680053884033e+00,-1.959776851325807367e+00,-7.661120505084828558e-01
2.847441529232602075e+00,5.504525764839637958e+00,1.986877691660511314e+00
-4.782862713880069450e+00,-4.791691452118913119e+00,-4.839541705885656020e-01
-2.328854851462739628e+00,-9.254749111974557296e-01,1.642487656914955130e+00
-1.996364013975679530e+00,-6.681014032208911768e-01,1.729981949145379394e+00
4.613078618826055077e+00,1.902847265302938240e+00,-3.645311296684702884e-01
-3.129753216779634695e+00,1.157511232522152822e+00,1.381387954963428699e+00
1.334207761563737105e+00,5.192169229179569356e+00,2.149955278951429349e+00
-2.596855708060702206e+00,-6.238826180066411098e+00,-1.558044098575120051e+00
-1.136332417128366190e+00,-2.497395486289681887e+00,-2.149998020696011203e+00
-1.229008324054813528e+00,2.709098613690546387e+00,-2.334893120510471431e-02
2.356514435778729322e+00,-2.350197340805231239e+00,-6.677367076203861718e-01
4.122053106540695566e+00,3.149978863098550352e+00,-7.465704051608438307e-01
-3.555019630805225095e+00,6.726382830800622381e-01,1.034473213797459046e+00
4.275409621961044238e+00,2.276740073081552573e+00,-8.906058818391269227e-01
-4.247674486195355925e+00,-1.325758267927560796e+00,-1.100342847688643988e-01
-3.418784379308930088e+00,-6.207322646283074619e+00,-1.124283661486784380e+00
-3.286686316846536116e+00,-5.188525991301405682e+00,-1.140878575047333671e-01
-3.678258017394833157e+00,1.723365211807389996e-01,2.790789161936700902e-01
8.665151406623600172e-01,-4.193795721163692924e+00,-1.710632000853815171e+00
3.525901184176333913e+00,5.594000794613079641e+00,4.051365838764554583e-01
8.263629378233312561e-01,4.816699950467833169e+00,2.190129076415485709e+00
-4.469019390406411496e+00,-4.733567776634535207e+00,-1.183038603478538731e+00
-3.621602618993397527e-01,3.897997283243154865e+00,2.190192080846956824e+00
-8.511851654999874617e-01,2.518381691267491007e+00,2.266838877127521634e+00
-4.149541360725125472e+00,-1.049818739613665119e+00,-1.369201056450425613e-01
-4.169545887718912880e+00,-4.608202250206127282e+00,1.661731667943907309e-01
4.436819789367001832e+00,5.495745906586007479e+00,8.077903666784858050e-01
-2.567119224167280223e+00,-3.321116522877103350e+00,-1.960000188068546478e+00
2.028825200368087778e+00,-2.830965957484084861e+00,-1.520103485228266216e+00
-3.465561492113952813e+00,7.554857119486508843e-01,9.075790998639758911e-01
4.720912762728186607e+00,4.963086506819956334e+00,7.420200763459480209e-01
-2.424000563404979935e+00,2.091868571315372183e+00,1.681365469401260970e+00
1.456741571212972319e+00,2.190542714699688975e+00,2.051193217342987651e+00
1.817647658376030817e+00,-2.580782121561148390e+00,-1.905436442295397326e+00
-1.660341606737325781e+00,-2.911487021504806094e+00,9.519159528062219877e-01
9.841997096063117428e-03,-4.442678918502550367e+00,-6.233561257152085977e-01
-3.845058630321171123e+00,-5.158645060658747283e+00,-8.479010681207851952e-02
-1.529482586162089541e+00,-2.135163986211456422e+00,1.266141153329348068e+00
2.948715158042492401e+00,3.906607286470673124e+00,-6.204509148119410344e-01
-1.874238277970062816e+00,2.979928339705304019e+00,8.178042974675736598e-01
1.293015695976833079e+00,1.374838938693011825e-01,1.487935823083118558e+00
2.307237435807380610e+00,5.354570348596984886e+00,2.120277035498232543e+00
4.387931151585267919e+00,1.224797027637248625e+00,-6.966827628036944553e-01
-7.964419327315362951e-01,-5.411325279144113765e+00,-1.717723555158504389e+00
-2.124066184960215597e+00,-5.911942510390239214e+00,-1.030400059778060484e+00
-2.377294113239869944e+00,2.385618548639822922e+00,1.488935409945728594e+00
3.502086779494777868e+00,5.961739705710464854e-01,5.059597723394156921e-01
2.679857927979833576e+00,4.388884680001216232e+00,-3.552069333601473589e-01
1.040133772539451940e+00,-2.180582546603799798e+00,-2.209967061736548555e+00
-5.189279128798288676e-01,1.387080347117330970e+00,-1.116241770188509896e+00
-4.392108103274964925e+00,-2.924609392771433836e+00,-8.639147286666339909e-01
-3.745210768009257229e+00,-2.454843817979311726e+00,-1.185208253259229183e+00
2.642844293140907408e-01,4.993139963976852336e+00,1.854827155122459770e+00
4.532633365077411547e+00,1.778359978491756754e+00,-6.136574159931460631e-02
-3.112017050413957708e+00,1.063187860876654289e+00,1.522973197809779133e+00
-4.367327373969215110e+00,-5.379483168074193244e+00,-1.261009864465093999e+00
-2.138331958806747757e+00,1.912234837267287269e+00,1.942809730046539674e+00
3.664243578191688666e+00,1.856033621425110247e-01,-1.316514972462066169e+00
4.189702793870082154e+00,3.376798511230605371e+00,1.140650707987505008e+00
-4.180987105434384787e+00,-1.827487048023802130e+00,9.551465240049684668e-01
-2.761623601261840477e+00,-2.089145687561715647e-01,-8.327608336742330364e-01
-1.330678346188921279e-01,4.167463457752367262e+00,4.252000382019952562e-01
-2.259784497942995518e+00,2.623496524810449593e+00,1.424071287832173294e+00
-4.544742681761093195e+00,-1.802842920709806007e+00,5.812590725532420510e-01
-2.798582092303373514e+00,-3.872693952299001818e+00,6.245191325621934908e-01
-2.214079421522897384e+00,2.210917325885471740e+00,4.056864733142503399e-01
-2.647825391011326968e+00,-5.914055019458793971e+00,-7.332228066664461252e-01
4.539239271956833299e+00,1.686792433646592704e+00,-5.116890216125815627e-01
-2.136190875456015270e+00,2.753699628644082686e+00,1.247040842436072605e+00
3.322817923366095272e+00,-6.802310157053803596e-01,-2.427929100464222556e-01
-4.527377883152246874e+00,-2.628085730410266940e+00,6.674499822107129443e-01
-7.241926244270704416e-01,-2.293243430578989717e+00,1.044975716008392785e+00
4.437766011391832244e+00,4.354940815132769316e+00,1.162478991883030721e+00
-6.788664434677967874e-01,-1.990345799815559591e+00,1.189179143560874286e+00
-3.767867791279867262e+00,-3.190805972412353864e+00,-1.375095577149819670e+00
8.324855376867660306e-01,-2.769084699883754386e+00,2.449762064003595807e-01
-1.327223322162113917e+00,-5.671470326724254996e+00,-1.775598705098664576e+00
-4.000044787339700036e+00,-1.442806268580034024e+00,1.146320073580211263e+00
3.456099025694109983e+00,1.251892363395889829e+00,-1.416568178988283355e+00
-1.472886862193182322e+00,1.645502371599822267e+00,-5.773862357130437051e-01
1.085561211894058964e+00,5.673857423227705254e+00,1.606903781264762188e+00
-2.210765892780039543e+00,-6.061345595186745427e+00,-1.516628087250327050e+00
-1.986559407657313203e+00,-1.156279774389642023e+00,-1.591821774819657920e+00
-2.002865386862038299e+00,2.989697914155482472e+00,1.138053059450186533e+00
-2.974305779354221357e+00,-3.845461629430683814e+00,6.768896237008896755e-01
-3.622422620944708793e+00,-4.358758663613550688e+00,-1.690911439032386721e+00
-1.985035825829978062e+00,-2.471674774683637832e+00,1.178472473581565483e+00
3.854782840368562447e+00,-9.865563897898990339e-03,-4.057241166575648039e-01
4.786009958280904364e+00,3.884511975204191891e+00,6.063531896627091244e-01
-9.003491110532191311e-01,-4.330181919282853897e+00,-2.322314007468286867e+00
-3.383146601487505567e+00,9.654459869436130548e-01,1.000146725183852947e+00
2.734372209425145694e+00,3.023217342484620485e+00,1.866460649473394184e+00
-2.872601978557542957e+00,-6.028086074502719605e+00,-8.973499991279527688e-01
9.982505502728237223e-01,5.519720431777744629e+00,1.825765175239888460e+00
-3.359219320983227952e+00,-2.123811299605020686e+00,1.229292926876345726e+00
4.122824986647681378e+00,5.731874239753910194e-01,-6.188014477610344066e-01
2.821876432352256714e+00,4.182898081621003072e+00,1.988192059384506605e+00
3.648658646713917708e+00,3.268054685513714919e-01,-1.307851412492511578e+00
-2.543303251919381669e+00,-1.031419318864043921e+00,1.615107081696786739e+00
2.629216945012673445e+00,-7.423331451289221228e-01,-1.822823107331236425e+00
1.983731146773936027e+00,4.940485619091918856e+00,1.179551309623185773e-01
-1.885542008145266957e+00,-3.784900748634306034e+00,5.657936564953940373e-01
-3.875408214940428753e+00,-5.508449936367525446e+00,-1.595102883936497129e+00
-4.668987150497498462e+00,-2.798313942060787873e+00,-4.293763268068446770e-01
-1.064134840395486004e+00,-4.809164137631358749e+00,-3.101275052597274318e-01
-4.292875382782561644e+00,-4.028757886624612539e+00,3.711780296776552301e-01
-3.643823633136879181e+00,-1.938857785313760518e+00,1.192117643093693058e+00
2.140977623582916767e+00,-5.653036098619400596e-01,8.168018354232038369e-01
3.240999063406576397e+00,-1.099337057882873614e+00,-1.172703725177745238e+00
4.558256535527014514e-02,5.012058632692713012e+00,1.418245690702632400e+00
2.663117420136869473e+00,-1.597884962369552575e+00,-1.669857368075750248e+00
-3.234220431485312908e+00,4.024325771415339370e-02,-3.878354363354930556e-01
1.054086247149882860e+00,-2.051814227410112768e+00,5.823405161721701973e-01
1.713942287194777814e+00,5.720637855182984843e+00,1.972260085330251433e+00
1.284668920548592386e+00,-3.780071828689408608e+00,-1.388367883424216132e+00
4.438934418334806509e+00,5.034287370965992992e+00,1.143122253664257570e+00
-4.500418023968277836e+00,-3.202279115843369439e+00,-8.249195741831899520e-01
-2.141776541483786822e+00,6.421941438285904136e-01,-7.605988468294895277e-01
-2.767379815567148071e+00,-2.217799667326620039e+00,1.279091953885707733e+00
2.135533158778262219e+00,-2.073290801467207345e+00,-1.925335999465324743e+00
-8.330040050302133237e-01,-4.995617329739359569e+00,-2.123179856254647113e+00
4.058011904777501400e+00,6.607541185644559834e-01,-9.172223725469972333e-01
4.523531028702956647e+00,1.784788062831612399e+00,3.435329654921592812e-02
4.301352929498461819e+00,1.732302359490618615e+00,-9.293851775393786596e-01
-4.523448026140822975e+00,-4.252677650999031833e+00,1.550367361538687871e-01
-3.003150453864979585e+00,-2.740762062376399300e+00,-1.664404983468874777e+00
4.707079136552475340e+00,3.523945929636199015e+00,6.414963829866743295e-01
3.316841327806061557e+00,4.551501766365274593e-01,5.822108191665565924e-01
-4.050385851577163798e+00,-1.608490266024695359e+00,1.048043136710868684e+00
-3.634838338410980363e+00,-4.305814173733209849e+00,3.955764334251113956e-01
1.545429045747714336e-01,-3.098403482871923575e+00,3.782175134640836656e-01
3.734645172476937613e+00,-2.732104366808121854e-01,-1.019093419968706948e+00
2.494415639667950657e+00,3.507716295276168239e+00,2.033614992920074194e+00
1.663586953182180306e+00,3.929658547875358288e+00,-4.444552848667097100e-01
-4.862985659496697755e-02,8.699212620121057338e-01,2.005142100537918637e+00
-4.123025528800591033e+00,-4.738243502602128565e+00,5.811443747173114516e-02
-1.019552324129072041e+00,-1.991152176675704322e+00,1.233727306072522012e+00
1.042431472201637899e+00,-2.976866299320432674e+00,-2.946972963712820096e-02
4.127080119497680499e+00,5.060452816093423678e+00,9.683322199008535802e-02
-1.497697143261318864e+00,-4.113599960373337971e+00,-2.283418357624918738e+00
-2.389411999858053637e+00,1.937121525777844688e+00,1.790240812224012545e+00
-3.353195034391225349e+00,-1.247676441246198031e+00,-9.301859198414699215e-01
-3.746236113177973337e+00,-3.337630760287099707e-01,1.235676312196578364e+00
-3.697188444335863355e+00,-4.503588612645319955e+00,-1.710025247338974319e+00
3.749383553721100437e+00,5.407627048731035169e-01,-1.285639395983632305e+00
4.875308112921798553e+00,3.049584541776573676e+00,1.538716470361189970e-01
-4.638360664136668809e+00,-1.975146404846342296e+00,4.297249492059417308e-01
2.448719333154386391e+00,1.517525840563867190e+00,1.519180165324087950e+00
4.651807177541920524e+00,2.688057899377645388e+00,-4.662188374287731807e-01
1.710651232486064766e+00,2.787233278956327887e+00,2.116502287797597859e+00
1.685115838280093037e+00,5.814793601553573055e+00,1.921346613311637919e+00
-4.535040656066241738e+00,-5.147473171576510964e+00,-1.030705665016224959e+00
2.695744470077218735e-01,-2.901807795481605723e+00,4.396379229667413124e-01
-2.633036393228642247e+00,-2.983694400649776313e+00,-1.889740454446492413e+00
-4.434926186935570058e+00,-5.156543971645806579e+00,-1.100239642292347053e+00
3.020169651879778261e+00,6.161395868773907658e+00,1.432718523009282485e+00
-6.667211724567699838e-01,2.804647242935477180e+00,2.249211651405508050e+00
4.634021871223493960e+00,1.870311176873730830e+00,-2.491319836303886592e-01
9.394228299040752184e-01,-9.073625736642008111e-01,1.181639727944679308e+00
-4.214417672838296269e+00,-5.618284485381900950e+00,-5.748580846942337175e-01
3.625481018802269695e+00,1.448176325777827511e+00,-1.309341045538057413e+00
-3.496367559572820749e+00,-1.810662916419137680e+00,1.264616441800377133e+00
3.196905710893112484e+00,1.633267164521634118e+00,1.228633968099980489e+00
2.839048683588889510e+00,5.626795634088487041e+00,4.917132868919434907e-01
2.475684096443298898e+00,4.813222404376392483e+00,2.156927845444290170e+00
1.566495895731992327e+00,-3.280283998679875967e+00,-1.732034925568659345e+00
8.096169700072095576e-01,-4.160250342259952383e+00,-1.019433417998213853e+00
-1.852772975726121540e+00,-5.461642996201531375e+00,-5.783315518670302247e-01
4.858349557451910883e+00,3.919952876447935441e+00,6.074999639016481767e-01
-2.100559332980089344e+00,-4.861195230233789744e+00,-2.183569630329622147e+00
4.841856798597006240e+00,4.682165687702858570e+00,4.851474216888454483e-01
4.463238173959913624e+00,4.527474039142243001e+00,-6.534712762188910062e-02
-4.586745982803535071e+00,-5.263665574812040227e+00,-9.444960072440913290e-01
-1.479126503610126708e-01,-4.999397593909472803e+00,-1.373141476646924097e+00
2.156531706736746656e+00,8.147012279406541380e-01,-1.710908772331711347e+00
1.913696294371838746e+00,-2.590774332110322931e+00,-4.089965143927585811e-01
8.117821761562596938e-01,2.062835320759980995e+00,-1.157315103149232360e+00
1.978881170027946501e+00,-2.334319323776460120e+00,-1.919212876490680619e+00
2.326417403706582121e+00,5.060340821410562739e+00,1.266053488389323745e-01
2.543463550243215465e+00,-6.953977223710524624e-01,4.605893080100338932e-01
3.352787906189782507e+00,1.195661687572908916e+00,-1.422351922822843839e+00
-3.848185006834039079e+00,-1.842262185412629982e+00,1.155897132264239291e+00
-4.035494702465029171e+00,-3.455514485309456596e-01,6.177690249371016185e-01
1.013962925561919581e+00,-4.067854325976388630e+00,-1.607860792113125381e+00
-3.467170279537501010e+00,-1.367229006253868562e+00,1.373019568468525131e+00
3.360121969570696976e+00,1.772234384125086049e+00,-1.298162669539744352e+00
4.507918273616434490e+00,1.758184427982419029e+00,-5.011522927175470210e-01
-1.197969502223480198e+00,-5.608261410905086564e+00,-1.165187262106508248e+00
-4.347577576583644188e+00,-3.240465347864323498e+00,6.402061641359186872e-01
3.520407153209872964e-01,1.958503770733724947e+00,-1.113009140417882126e+00
1.791950645803855435e+00,-1.686219111708929130e+00,-2.069589283273876479e+00
1.729671994259657231e-01,-3.321581129086928375e+00,-2.283740463440675494e+00
-1.133689704055220071e+00,2.802456057693719860e+00,2.162013069404463028e+00
1.178507292756369118e+00,1.415587628355358119e+00,-1.491847824193820893e+00
3.604016198058224152e+00,5.820848388631143067e+00,6.296141167053762588e-01
-3.570531414291280736e+00,-4.293661643478928092e+00,-1.709684916137976352e+00
4.154071565795772081e+00,6.698302460651736068e-01,-8.027073286615856729e-01
-2.083668682220989332e+00,2.920137880886867876e+00,1.303961582954793696e+00
1.317409042925420382e+00,5.807505732111175156e+00,1.505997299727702909e+00
2.738246651085297856e+00,3.952201479339886969e+00,2.003783492896098473e+00
-3.088983653822442998e-01,2.469519263292554001e+00,2.263656334151202376e+00
1.160674000133682382e+00,-2.504603392776576953e+00,-2.214521579410455132e+00
-2.665688558718860346e+00,1.861790613663869109e+00,6.039964218830699005e-01
3.034788612980440448e+00,4.260550898971352751e+00,-4.748806994477173249e-01
3.046349561988267673e+00,-4.723479271284274916e-01,2.661873870880369641e-01
-2.151125930070386438e+00,-6.126056607843856305e+00,-1.386298029107687180e+00
2.301737374279894333e+00,-1.866569893954363346e+00,-1.717652290121610970e-01
-2.358330168369716373e-01,1.761831860062383071e-01,1.835489110051157224e+00
4.336096848634601181e-02,3.535689434332142334e+00,-1.863897235801988961e-01
-8.107102122092575414e-01,3.982009731293418398e+00,7.764147842612835193e-01
-4.097644252314453617e+00,-5.397345584463547397e+00,-1.491516615657944689e+00
4.669084259897985589e+00,5.157012150682527718e+00,6.926127218685724785e-01
-2.327620555150404336e+00,-2.745161019994467377e+00,1.097294804625798870e+00
2.013867414400943190e+00,5.102590708841798772e+00,2.195727235940394095e+00
-7.164740170509631412e-01,3.795147520124393381e+00,2.102423233901693500e+00
-2.639370639775745708e+00,-5.264077581184323229e+00,-1.606737130922357426e-01
2.689492565693521797e+00,3.716926516395958391e+00,-7.260307343275980152e-01
1.484552068378255818e+00,5.834485004203295411e+00,1.729659883443062540e+00
1.259376960033495640e+00,2.536947669217271883e+00,2.156254387883596912e+00
1.722441922205191878e+00,5.225499247370688494e+00,4.295605358142849939e-01
-4.439872280096790469e+00,-5.319933640661317575e+00,-1.101394885428063963e+00
-2.028117896247197294e+00,2.277805786556923895e+00,2.436768433696871183e-01
-8.883254658758484856e-01,-2.612492758706667306e+00,9.382035383654246941e-01
-1.852341206867698320e+00,3.131744419577918936e+00,1.428980503300174121e+00
4.439833508731794165e-01,2.078191555416144087e+00,2.208979489129083706e+00
-1.861723299808099918e+00,-4.636749378942222499e+00,1.088335114940500725e-01
-2.213260537367165881e+00,-1.143550668472988585e+00,1.608006420981974660e+00
3.815763526061112909e+00,2.085697818738340370e+00,-1.099702203594776551e+00
3.479335697047735820e+00,3.751614799112890086e+00,-6.491005939145924053e-01
3.153660299694402980e+00,3.244589411898391784e+00,1.735572687425686489e+00
3.960488911125656042e+00,1.664360393572746677e+00,6.961490110594367176e-01
4.816832737382017449e+00,4.473627458185911010e+00,6.986670931161831355e-01
-1.130995504025968490e+00,-2.911879696271479467e+00,8.570788674081781799e-01
1.341687963544977658e+00,-1.335931507667385887e+00,-2.128733328811225345e+00
1.567273232039036568e+00,2.478596777403588636e+00,2.068665408381794357e+00
9.249999963377588674e-01,-3.204585499537115023e+00,-1.352582889259706656e-01
3.391365671815254501e+00,4.845013580758972815e-01,5.387748459008244728e-01
-3.400914568377451097e+00,-4.094271636290553573e+00,5.226902839110284527e-01
-3.505023225256530317e+00,6.139365814611509320e-01,4.789587969689543812e-01
-7.163798167595644140e-01,4.172398320939719518e+00,9.211019547150184339e-01
-4.115491552366557393e+00,-8.549764086172312316e-01,9.576490099511388854e-01
1.404908110150063560e+00,5.787199832948731526e+00,1.782895772827514991e+00
-2.156883245762645007e+00,9.688475188523408832e-01,-5.991549318291289339e-01
-4.863805250695470761e+00,-3.304977252389088793e+00,-3.344746366103532043e-01
-2.560296058371474892e+00,1.730742410997488170e-03,1.804703789051492091e+00
-1.810892771898887643e-01,-4.538084254025766207e+00,-2.180418842924932044e+00
-9.204840902372454225e-01,-5.154703136583869139e+00,-2.131715476967620315e+00
-8.353361139961178461e-01,-1.363519469351222486e-03,1.863825530453954604e+00
-2.853191744960119625e+00,1.776249113866072760e+00,9.831389505861228839e-01
3.374033159906270285e+00,5.115272488754946778e+00,2.756735843617829848e-02
-2.327909579617879476e+00,-5.003583132515643683e+00,-8.421686235085061589e-02
2.500249901415920295e+00,-2.287788772904656653e+00,-9.354491233710356957e-01
-4.280890814177034542e+00,-1.062515697341196219e+00,1.998820736951447130e-01
-5.770093966974424449e-01,-4.266341997850829237e+00,-1.022191464809607958e-01
3.430445505528409544e+00,6.099236519656883182e+00,1.023860398639207636e+00
4.312772998467087504e+00,2.269644020903703652e+00,6.695621068714966428e-01
1.862974541894697467e+00,4.950290043242121740e+00,2.201745286166488569e+00
-2.405935698965088410e+00,3.639825423804308180e-01,-7.516677367307738056e-01
-3.637168687177811943e-01,-6.452251444279960557e-01,-1.884602155949582469e+00
-3.556454775711443084e+00,-7.726324039283077871e-01,1.382643680991940460e+00
2.455039048724942941e+00,2.652100787256520320e+00,1.870489747395724933e+00
-2.864040489687667890e+00,-4.520901158739544456e+00,2.925113555352375494e-01
-6.354613338441154058e-01,4.346284591668687192e+00,1.117819630055651992e+00
4.570974784404634450e-01,-6.897716165763766449e-01,-2.007481045425256738e+00
1.420385858809889656e+00,-2.021193775352943423e+00,-2.135788309356487336e+00
1.510886388051583928e+00,-1.381365907137216631e+00,-2.102048735720856598e+00
-6.509418115489846723e-01,3.765446794431109634e+00,2.113030336205327320e+00
2.499511396925958806e+00,-1.130896902179238550e+00,2.317031983287575481e-01
-2.941592943156399631e+00,-6.105584031893733332e+00,-1.071025327047743669e+00
2.391478727346623590e+00,4.325982628223592030e+00,-3.663101727316062095e-01
-3.014644845960840591e+00,-2.690458744579201422e+00,1.113544392713292419e+00
-6.194553868205315839e-01,2.698281964435830016e+00,-3.964247042497384133e-01
-1.900143103698665570e+00,1.440155601941118246e-01,1.919611706569551268e+00
3.320507435066859525e+00,5.606603061585508918e+00,3.607457491733911392e-01
-4.313485306832063770e+00,-5.281077096409672933e+00,-1.285218319461582270e+00
-3.358001282641953633e+00,9.461603672428738898e-01,1.079277108522231687e+00
2.634739147424740136e+00,-8.479059964347529510e-01,-1.841965693045072072e+00
4.181660074469972233e-01,-4.594160022412220101e+00,-1.371040396967434738e+00
2.174066904421406488e+00,6.120694094155507692e+00,1.468007321126961751e+00
-3.929871068802248235e+00,-1.456179334278570492e+00,-6.289425679296741789e-01
-3.455489504809745593e+00,-6.179084619372207321e+00,-1.027331514126596401e+00
-1.808371992053723121e+00,1.768229266037670389e+00,-2.855719799949542614e-01
2.159484015073966479e+00,-2.753474588428739267e+00,-1.444387711581875289e+00
1.415720356817201653e+00,4.633904435238480168e+00,3.542040895225163216e-02
-2.137433068308739692e+00,-3.704828289372049888e+00,6.581099740975592249e-01
4.718435993307706688e+00,4.962496419777175483e+00,5.151700576307534085e-01
2.878596746150369867e+00,-1.720896961681321224e+00,-7.319904082355868091e-01
1.409083232390817786e+00,6.392679820786972833e-01,-1.756267519460321891e+00
-4.183846022027730704e+00,-4.192901799512616989e+00,2.974816393774263323e-01
2.003088558838452826e-01,4.896745289761452291e+00,1.945560944650377655e+00
3.401275228967965525e+00,6.160091509479645566e+00,1.304217389405050831e+00
4.584182397771164652e+00,2.185424764159260125e+00,-5.035567806212969399e-01
-6.939551805752149916e-01,2.822925131338439808e+00,2.262251381381909621e+00
4.299447044149049546e+00,8.961026126360120969e-01,-3.772524121820496346e-01
1.155875350485500164e+00,5.576305520075901967e+00,1.138292683813559858e+00
-9.697207915443113446e-01,2.013177313342905173e+00,2.206038052045381281e+00
-5.225220996930709516e-01,1.044387640387903493e-01,-1.605874081418856125e+00
-2.654017446618009313e+00,-5.996590652551804013e+00,-9.222779609732194572e-01
-4.016507730027868206e+00,-2.400203213674085401e+00,9.505675227983453324e-01
-2.697215518644560550e+00,-1.050414718500034539e+00,-1.237307246898788460e+00
-4.513272339411964040e+00,-2.320803563881893794e+00,-3.991970615810214174e-01
-4.900938007555876830e+00,-4.289315808122328377e+00,-2.934812936365567837e-01
-4.749035125667854018e+00,-4.286624035206551220e+00,-8.059903860867752012e-01
-2.483851794451281680e+00,1.468432414986858836e+00,6.992251518397893731e-04
2.374413550719182364e+00,-3.084572966327570054e-01,7.817687304301919049e-01
4.834490276750062598e+00,4.051478186844048146e+00,6.698494173773358318e-01
-3.516901779151256235e+00,7.303742410286735431e-01,7.197097054059760080e-01
-2.620712289431744724e-01,-1.748663973543127803e-01,-1.747496256849497831e+00
1.669175821931638382e+00,5.697210365602177085e+00,8.714043743939713371e-01
-2.729877633482244104e+00,-1.135199775088158614e+00,1.569710280203987729e+00
1.478113993943440674e-01,4.582390708561858261e+00,6.234272227119136423e-01
4.287835439720283581e+00,1.706073281040815459e+00,-8.535878122046464123e-01
3.196089812969924893e+00,3.300570417758204034e+00,1.737090608399177727e+00
3.409059514759652298e+00,-1.055994889176975135e-02,-1.505409596513424875e+00
-1.767811864201659144e+00,-5.945078940852026150e+00,-1.265998847478293943e+00
1.228847547088764980e+00,4.808111685639667066e+00,2.407113432513537377e-01
-1.769015003789428775e+00,-1.647376451994974067e+00,-1.821153668530516745e+00
2.858275595046789963e+00,3.103699160783692790e+00,-9.704384663364482577e-01
1.094820074479787853e-01,3.572025726768905063e+00,-1.483658031672586419e-01
-9.344203023906290095e-01,-5.574758292415751271e+00,-1.404045369788559539e+00
1.370404380788685206e+00,5.791354493221486877e+00,1.666330210642632759e+00
2.912047070973504057e-02,3.202265682742781561e+00,-3.575234683713341965e-01
-3.778044489767386160e+00,-3.175512429032147921e+00,8.356664218712416270e-01
2.429689646446746565e-01,2.606392408508054981e+00,2.285076041238163658e+00
-4.386413991450732297e+00,-5.546789987984564796e+00,-7.028923530084638660e-01
-2.152677489820336909e+00,-4.962947207584842424e+00,-7.847536643112106025e-02
4.205509608020988388e+00,4.726642777747641411e+00,-4.054533444550018073e-02
-7.642993559309709806e-01,-1.609499742807903200e+00,1.349584519661042092e+00
3.629216739649629986e-01,-4.427009436943476928e+00,-9.312054415615013125e-01
4.192945178663983974e+00,3.667664441497268335e+00,1.266499925310143215e+00
-3.963457626503297804e-01,-4.811771311681342311e+00,-2.070932354319601210e+00
2.232718654599621377e+00,3.221570267232103379e+00,2.033948873597486884e+00
1.402041011811130944e-01,2.678199144527352527e+00,2.287455924283155806e+00
-3.055419786152208328e+00,-5.827157015765466852e+00,-6.471956204014025493e-01
4.556126469827760594e+00,3.349743035598371055e+00,8.188688614767817286e-01
-2.647973555676871538e+00,-6.187403347379963670e+00,-1.444824606603970496e+00
2.289057743348453133e+00,9.614453483441739445e-01,-1.646114459019121679e+00
-1.563960022689344420e+00,1.399514147860084323e+00,-6.498799940032897737e-01
-9.589006715993759755e-01,-1.024841575623441914e+00,1.598600715012952200e+00
4.009175119641081864e+00,5.895479581265479219e+00,1.270564899863185770e+00
2.984603793644238223e+00,-1.353275805319445579e+00,-5.228405355221478201e-01
4.550199965587110817e+00,1.850473606696260154e+00,-4.984913142716839718e-01
2.366672880610868113e+00,-3.229518540765858869e-01,8.046123333003143419e-01
8.619647817255965405e-01,1.619578072247552125e+00,2.046011357907135064e+00
-4.231727716942918605e+00,-5.712934866670315692e+00,-7.674856796541227322e-01
