3.594620817752504305e+00,1.046232153080541671e+01,-1.889291526483120931e+00
2.588631156437885217e+00,-1.371215806588131692e+00,4.525437778027907032e-01
2.921767429990065779e+00,2.470419365458735417e+00,-4.710941796471347587e+00
2.120468434754818166e+00,9.730684473495706754e+00,-1.564305922216836509e+00
3.762796714269684095e+00,1.066547932212200855e+01,1.889189189598598384e+00
2.057277838194753627e+00,-2.522439395723175881e+00,-2.911582615645128325e+00
-1.907016434859766907e+00,-9.876724496186906066e+00,5.483758787303393278e-01
1.704282835998515599e+00,1.038825700747832315e+00,-5.610505091581825532e+00
-3.596696135841866315e+00,-3.803775372516289277e+00,3.857807370663696833e+00
1.960098369959378362e+00,-1.606083951758476402e+00,2.613662481644007940e+00
-3.657049064753136847e+00,-9.239994051413857434e+00,-3.118868513314352775e+00
4.016004682287769967e+00,4.480182937733006909e+00,-3.150633257862808456e+00
4.371086235433384815e+00,1.046893933778171792e+01,-1.141621899483988178e+00
9.238592690058485823e-01,6.232891522688472463e+00,4.846863353342235392e+00
-3.619731971626003020e+00,-1.088183349264424749e+01,1.086038192313380391e+00
-1.153316670160102753e+00,-9.184704568882322562e+00,-6.886464039464623710e-01
-2.620848998490428627e+00,8.845099716228616016e-01,-1.305921637326497242e+00
3.844070032409782067e-01,7.845868743350711938e+00,-4.409977154349392081e-01
3.434647893393226958e+00,9.809760092902875428e+00,2.988147830315236231e+00
-1.941090423309474566e+00,-7.692488680568612125e+00,3.737578683470880403e+00
3.585956616736210467e+00,5.434900317644429713e+00,-4.132521630617527642e+00
-3.426590559512746825e+00,-6.329799170368028527e+00,4.258808348979833625e+00
1.763776835080587135e+00,-2.314732648583827324e+00,-4.274865910904436461e+00
-2.165268446452473405e+00,2.783114265048046487e+00,4.746787577578621131e-01
-2.363238391499622448e+00,2.361842593768118448e+00,9.980258484918239636e-01
-1.806557044626049269e-01,8.391308979565197390e-01,5.877967394405041013e+00
-4.244495714649111129e+00,-4.033676761062711336e+00,1.692397506991522693e+00
3.093163456025135538e+00,5.339887712982577916e+00,-4.676427336818548497e+00
-9.032259728222205020e-01,5.054354031119737023e+00,3.388081835985941037e+00
2.086382472868128168e+00,5.342657076421364337e+00,5.021539868663671413e+00
2.631914391446750212e+00,8.777186327936600918e+00,3.893787054713677254e+00
-4.764579306509555856e+00,-9.207586236513577660e+00,8.465455700155601892e-01
-3.940977332960085899e+00,-2.710311586560267827e+00,1.908780000936205756e-01
-3.128031736592172596e+00,-2.960469828547224846e+00,-3.361855873886542057e+00
-1.477637626890444311e+00,1.074267068197229058e+00,-4.059224509910332124e+00
-4.641211363352987895e+00,-6.892964967245807983e+00,1.608093070266290558e+00
4.438410952844221491e+00,5.351885114349551387e+00,1.581427069027649679e-01
1.114984372411545799e+00,3.371314165917704830e+00,-5.363681745279368585e+00
4.329883155174170106e+00,9.860685696366934039e+00,-1.690145982138184566e+00
3.353376737930355844e+00,7.884579051766790414e+00,-3.883537728836202518e+00
-1.047001949375698793e+00,3.573823542215394777e+00,4.488992981275680805e+00
3.969123189154164510e+00,9.981716431959704039e+00,-2.103206915003906552e+00
1.899720953314147698e+00,2.597716845501102156e+00,-5.503446803275100052e+00
4.763090015131243860e+00,9.386414582252987415e+00,-1.061593736989808849e-02
3.938042126622662842e+00,6.235791159164739028e+00,-3.671236492000120144e+00
-2.225812525579089929e+00,-8.504420745185880648e+00,3.216940502899150012e+00
-3.769476118086335426e+00,-1.033754951309068915e+01,1.853259149956894003e+00
3.996842476597319838e+00,2.860318991729057458e+00,-8.013983349811264478e-01
3.060041100927122226e+00,8.934002294278631240e+00,3.532526684156239938e+00
-4.634231998294177757e+00,-9.376174868124463657e+00,-7.390943935534464160e-01
-4.742161565232467346e+00,-8.116907044988828090e+00,-9.678266332313565160e-03
-9.214504428820479154e-01,-7.940114370016267742e+00,2.146583549102716315e+00
-2.872778929759056687e+00,-1.089405716194304041e+01,-1.251189936715002116e+00
2.662423786010505111e+00,3.202964453173461123e+00,-5.033293695019369629e+00
8.196797953939850556e-01,5.454972149572006046e-01,5.506476564748521874e+00
-3.258629955444735771e+00,-9.355342025060073397e+00,-3.316390271139546986e+00
4.370464516684149925e-01,8.066693829502307622e+00,1.047561006492818247e+00
-9.961819668493480107e-01,2.307171575867012603e+00,-4.009944207668781679e+00
1.731226257287240777e+00,5.118510112292475434e+00,5.168918394526331284e+00
4.436641675339081381e+00,1.001041714786274639e+01,-1.157675541939567010e+00
-2.217197929315828653e-01,-7.273226704302389933e+00,1.392929268857846070e+00
-6.432689780372025101e-01,-8.446404976987716751e+00,-8.532335632703262895e-01
-1.807137360827060668e+00,-9.991728551222701427e+00,-1.176293046061803738e+00
1.128955834538643677e+00,3.541012087109747686e+00,5.546247964570750533e+00
-1.315543565233539436e+00,4.298862969859002625e+00,-1.075139917466162665e+00
1.475817939797995360e+00,5.967187899920946004e-01,4.882147294043478247e+00
-1.811717124900078746e+00,-3.581712386141239435e+00,-5.203196736633277197e+00
3.413950358672766416e+00,8.808763551219829679e+00,-3.347052453185894283e+00
1.897931615278589890e+00,1.825151869312160224e+00,-5.544184180505403070e+00
3.521894706651592877e+00,1.091530212184742155e+01,-8.835299586453568832e-01
4.685996954092288114e+00,9.353421778196478797e+00,2.571744040499173156e-01
-3.441494790783304669e+00,-7.607439368806355517e+00,3.912529454001142604e+00
-2.679133562551958558e+00,-6.540251226677808560e+00,-4.537749256641737894e+00
-8.318783517972201391e-01,3.525711524396785146e-01,-5.162356212174919357e+00
2.780311421395694094e+00,9.519780256920356010e+00,3.380879052524444095e+00
-1.354635925996427792e+00,-4.711173281395515944e-01,5.673258669225485384e+00
3.472265641013242199e+00,9.527907745293875408e+00,-2.828040559167806833e+00
1.379625782202804407e+00,-3.980704439565474484e+00,-3.283946388090700719e+00
-3.613870409166450415e+00,-2.868150263528197907e+00,3.455360031008353427e+00
1.750875242875978843e+00,1.244887253584284537e+00,-5.640039471056136122e+00
-3.388795089467476540e+00,-9.074589878384657915e-01,-3.964325990305896941e-01
-3.218609090356528757e+00,-5.734170641906446431e-01,2.658837110909612278e+00
-1.087531048842425241e+00,8.368908660907943275e-01,-4.705110058658742211e+00
-6.198732288635391136e-02,-7.457590070013432104e+00,1.548726438270283355e-02
6.191930860711200024e-01,-5.888012248024081935e-02,-5.857845725908256362e+00
-3.549381769044054558e+00,-8.665668876596310355e+00,-3.293343386756941271e+00
2.915166926218906163e-01,7.394418896785515116e+00,-1.111574116513442512e+00
-2.421827556725638098e-01,6.585656480130440471e+00,2.683522112756408617e+00
4.373159016484624573e+00,7.084592977506106948e+00,1.742006921216291193e+00
-2.047584119859815477e+00,3.149263892984687452e+00,6.792742708993507739e-01
-4.729663667318932063e+00,-9.232591695960506328e+00,3.509938153795240656e-01
-5.881072176577808452e-01,-4.544290598218308830e+00,4.637781457560027576e+00
-1.257362290915412295e+00,-3.385735832416753244e+00,-5.492555881718782729e+00
2.925806657182217219e+00,2.033941944576041383e+00,3.249671144398744715e+00
4.790786653549929941e-01,7.695893489294585166e+00,2.880306843853824184e+00
4.495094627357584471e+00,6.097290952139527320e+00,8.170268450299472685e-01
2.385832717216085808e+00,1.055746027150267885e+01,1.052746648115105321e+00
-2.930402042808177399e+00,-7.507125505669255183e+00,4.132376595646064743e+00
-3.858678872872385313e+00,-2.345491992991013408e+00,1.649724938757989090e+00
-2.418416897524612086e+00,1.992018721361737077e+00,-2.449006613357598838e-02
1.984741624821898531e+00,-2.825214357614537874e+00,-2.868394646526807090e+00
-3.408366275442105131e+00,-4.732841429422387058e+00,-3.398496120332545889e+00
-2.380212056101414841e+00,-4.377546057033664617e+00,-4.857880731758792869e+00
-2.064163215768592519e+00,-7.272483331900370551e+00,-4.586722457264855279e+00
1.676634856182009026e+00,-2.303662826461605917e+00,2.702450452416018667e+00
-2.368527664933473831e-01,-7.675828718645316684e+00,-1.578779377595718458e-01
3.482142217510854731e+00,1.356444858427083844e+00,4.632188812422093349e-01
3.822351520504007283e+00,7.519793818241185868e+00,3.131075399843858520e+00
-1.523578441487308810e-01,4.028521476303096982e+00,5.210022492641984471e+00
2.133867501575630321e+00,6.158939652091263817e+00,4.878326409404992070e+00
4.595535445302230571e+00,7.413133352884935690e+00,1.012041855394762102e+00
4.042864206018527362e+00,4.960249561769064286e+00,-3.256749764083350929e+00
-2.699916075573960850e+00,-6.788205908015451095e-01,4.271913186286560915e+00
-1.556515558097395779e-01,-3.407345650815771787e+00,4.837352072672745251e+00
-4.289832315768620674e+00,-4.717951536262544820e+00,-4.020217400769346416e-01
9.690928198916431979e-01,8.777488750345344926e+00,-2.155933076391678416e-01
2.894919215354285313e+00,-6.022378449421434965e-01,-2.199494248882770897e+00
2.264880999448675158e+00,-2.403987806167578345e+00,-1.957322998429668282e+00
5.051709006712303829e-01,2.962823200225741971e+00,-5.259610559998749935e+00
1.642800151735895442e+00,-4.086131032057115142e+00,-7.470319518756356469e-01
-1.666406915580204984e-01,-1.470007443757411991e+00,5.553030458455206819e+00
6.312278225300849144e-01,7.297369011820944884e+00,3.899543340703937044e+00
1.067838386182528909e+00,1.954100981071454024e+00,-5.699026069770075864e+00
-3.604900621934878924e+00,-1.571743460857060848e+00,1.402990284714911606e+00
2.089171285278539347e+00,3.464257152388017236e+00,-5.419023558379427286e+00
3.502202129508043882e+00,1.090901273079476042e+01,-7.778036233476049999e-01
-1.862651725533748248e+00,3.618726405453565498e+00,1.265842162721469988e+00
1.297820240905331657e+00,9.027920555682300119e+00,2.415893009008352799e+00
4.177279209464823673e+00,6.114037726548224860e+00,2.169134596957061678e+00
-2.537868172088413310e+00,-1.829397466886928392e+00,-3.896692533388899538e+00
1.553094753540188222e+00,-4.047170789670093249e+00,2.751047518803461100e-01
-9.547766480990743654e-01,-7.141361208514802605e+00,3.093040002340037287e+00
3.654695976425240467e+00,3.960735184253933117e+00,-3.864847575141929337e+00
2.834522927789806523e+00,-7.842606242075840228e-01,1.657516031207436485e-02
-3.255493894657623954e+00,-9.878887783048961424e+00,-2.886871128390766206e+00
-1.925113514098888201e+00,-9.585996130832143081e+00,-2.582015986428530585e+00
9.365730721227623068e-01,2.348375450066929826e+00,5.617025223665674361e+00
-4.372020410411402658e+00,-9.477815416069960364e+00,-1.703125242964092845e+00
-2.081237287171317618e+00,-9.884253825019669648e+00,1.266783618514430332e+00
-4.436392789020748850e+00,-1.033730293059861793e+01,-1.538068523476929517e-01
3.702382643736187529e+00,1.782594275992877231e+00,-4.836199101168216496e-01
-2.614365293445739535e+00,-4.773755697072018300e+00,5.014370795682470572e+00
3.688155753525750757e+00,1.814378081353143823e+00,-9.638496078780824927e-01
1.734726459577695223e+00,3.509532815724072385e+00,5.294231315525874670e+00
-3.770419831708348379e+00,-1.101581275469065702e+01,1.190006929432082527e-01
7.554042423114369909e-01,4.379750817580537969e+00,-4.888625333022292629e+00
-1.603447341559150585e+00,-9.584337469549401689e+00,6.665543343797529774e-01
-3.581590708808298551e+00,-1.066513554654071250e+01,-1.841652066750782302e+00
4.100269742819729224e+00,9.762108207340430610e+00,-2.259065055761197094e+00
-3.356486043006267295e+00,-5.565685600299467239e+00,4.407289252606830132e+00
-4.118954633601727089e+00,-4.457249689495524692e+00,2.764183256913447906e+00
-6.853981814841344500e-01,-4.473576372544787461e+00,4.732932420183601607e+00
-4.138228528191619127e+00,-1.025073004350857886e+01,-1.495130425024091325e+00
3.149350520147444765e-01,-5.825172845850313585e+00,2.095831006440282973e+00
1.926740856456314210e+00,-5.213052465924620238e-01,-5.052936754183801504e+00
1.443634213500712415e-01,1.959211178360795946e+00,5.766682551508941046e+00
2.105983806208525433e+00,5.039187514561773718e+00,-5.148292139958568825e+00
-3.457607418510740604e+00,-3.986815161311034750e+00,-3.063482483440002735e+00
2.682854197821476383e+00,9.496902782785873853e+00,-2.625416238143226000e+00
3.533168547032322637e-01,5.841692530233705050e+00,4.654399738187225744e+00
2.796231084845768877e-01,-6.941781477302111369e+00,-4.554875563203887867e-01
-3.322403319691585644e+00,-5.799965640391442356e+00,-3.864871862451475071e+00
3.374426869966895115e+00,7.157110689110560697e-01,-1.455239143541603664e+00
-3.038795461159939926e+00,-2.921248771937803301e+00,4.617523994792769315e+00
2.673282313802926701e-03,-7.363959862386223243e+00,-1.988249901578600098e-01
3.049158072644814199e-01,-5.935238895729953335e+00,-3.670020485853937586e+00
2.233649789364305249e+00,7.731377833239197805e+00,4.381528994469720217e+00
-2.255423262868375911e+00,-6.068298241381063995e+00,-4.834157928338937538e+00
4.777041619955313401e+00,9.300094328980822667e+00,-1.830634904087080073e-01
-1.375583038615181275e-01,-6.304640428863768520e+00,-4.160340792999734028e+00
-1.323921118230072747e+00,4.646893420354412108e+00,-1.077192605220767263e-01
1.596606779950786370e+00,8.418694053023623169e+00,-2.654404055186213363e+00
-1.995540274182004303e+00,-4.552232795587453751e+00,-5.067656251170301829e+00
3.791977382469737368e+00,6.087341392423956776e+00,3.137931712709208121e+00
-1.238136687134571368e+00,4.179499584612711427e-01,-4.770001574920042842e+00
3.856693796308326760e+00,1.062777184108758988e+01,1.773429977395598156e+00
-4.354670578664419089e+00,-5.086044824518159757e+00,1.886219026481077865e+00
-3.759777245274448898e+00,-5.218875262323265929e+00,-2.827310395757766326e+00
-3.455351989053692119e+00,-3.969990741648497856e+00,4.263065024270615844e+00
-4.234959110513566216e+00,-1.073535434902993480e+01,2.028192093321870559e-02
-1.101454039915071181e+00,-9.036032192731399348e+00,-3.010685405291614880e-01
-4.777501890061095935e+00,-7.543327218292599667e+00,9.542462864889078578e-01
2.127961199247282664e+00,1.057317291968337569e+00,4.252594393504099735e+00
1.507756419401117265e+00,8.814794772062709782e+00,-2.026074790805739934e+00
4.185023969168150670e-01,-5.795446132037783471e+00,-3.443990192499879033e+00
1.069075342727900280e+00,3.334097612632720864e+00,-5.427015769691835523e+00
3.814589070528169756e+00,2.423214980700444166e+00,-1.986124878968481333e+00
-4.646518129357983362e+00,-1.004951524301445787e+01,1.211468164630719879e-01
3.115402783279134891e+00,-1.234091884474871476e-01,-6.186851676274767176e-01
1.120290808473345834e+00,1.538310121722942236e+00,-5.772825941891281509e+00
4.558414034379682178e+00,9.456897351250379558e+00,-1.650094456744920723e+00
1.895853723087671749e+00,5.466799868591355249e+00,5.182270772552745264e+00
4.026604019973098580e+00,8.651074182114721012e+00,2.677144408664113406e+00
-8.628804502107243479e-01,5.765020896645991932e+00,1.527078625494354913e+00
8.458910920107731712e-02,7.085779085745758543e+00,-1.090812683762729884e+00
-1.530269342920125286e+00,-6.514117908098292498e-01,-4.886655040178530029e+00
-6.000310780601673111e-01,-6.229512780328989585e+00,-4.651785893604723832e+00
-2.742737660052990023e+00,-4.762339197882563546e+00,-4.412097363397096572e+00
-3.115624129601315850e+00,-1.943170122343847173e-01,2.315744124037392826e+00
1.573850667633499845e-01,5.117987874829067252e+00,5.022947529290247459e+00
4.522396599280277485e+00,8.425510319082167854e+00,-2.335149355049275677e+00
-2.273953710222937463e+00,-5.411632397196716404e+00,-4.916104881666865545e+00
-3.663269399290118855e+00,-2.494123290978432994e+00,3.019639817699479423e+00
-2.156911392869825139e+00,-6.083716769847307582e+00,-4.882904818408782432e+00
-1.662783102096729637e+00,1.454925936043498735e+00,4.939333280501975842e+00
1.584682335825478017e+00,-4.059100559353061577e+00,-1.663808398144915324e-01
4.313609157054213751e-03,6.660113402552350514e+00,3.430667725171370197e+00
-4.745676500205661341e+00,-7.064061977744485077e+00,1.178696668938893355e+00
-2.968872666535657512e+00,5.392518214242025820e-01,2.047978370823217986e+00
-1.914413042754455008e+00,3.274588839532191820e+00,-3.567347384374944252e-01
1.983022779408176950e+00,9.886458265411350865e+00,-1.141195856314020540e+00
-3.318479229681276621e+00,-1.076554493530820267e+01,1.247365060786569835e+00
-3.659418348731717341e+00,-7.743805320120489277e+00,-3.311334621730634975e+00
-2.263512306736751967e+00,2.492426954412892304e+00,1.991064904590416296e+00
4.385057756176201416e+00,4.737404981094008427e+00,-4.670807306588531382e-01
1.614648772298632018e+00,7.885634064305765634e+00,4.149608728994116369e+00
8.509944377360170176e-01,-4.685096758682230522e+00,-3.931024547254884816e+00
-2.038163291811422084e+00,-1.025095233534828765e+01,-1.368793797852088545e+00
4.199910671956573971e+00,8.807709801734397104e+00,2.304632675448181622e+00
-1.889569947538186856e+00,-9.096727324757317490e+00,-3.387672912502594613e+00
3.259377311817929446e+00,1.103671502883861955e+01,-3.161747703128144349e-01
4.343112233789407917e+00,1.037861395211211324e+01,1.067223958451964050e+00
2.276342012827861971e+00,8.548297576740072401e+00,4.014163795141370450e+00
3.449789151493280137e+00,5.613434410468423508e+00,-4.328919923069827647e+00
-2.210682194624556118e-01,-2.416370131422735046e+00,-5.777011988172042756e+00
2.891473575507394145e+00,-3.818689530095664003e-02,-3.250204285866319154e+00
3.887163804833746905e+00,1.109498656127478711e+01,-3.405697605543138162e-01
-4.066319964472011605e+00,-3.402295574614830009e+00,-1.855875665586662338e-01
-3.194621385783083856e+00,-1.211197425715032638e+00,-1.703844025953199282e+00
2.289390942155389297e-01,-5.162437496176798923e+00,3.101031379566765001e+00
1.014412529498873061e+00,-7.617924436774682617e-02,5.108276589323326178e+00
-4.621778375339611777e+00,-6.349569835836675225e+00,-3.157043566009670177e-01
2.978448772607545925e-01,-2.476535913155937685e+00,-5.648097187713401190e+00
1.724740261409105857e+00,-3.828608780334338935e+00,-7.468304777218940371e-01
-2.920126692991340978e+00,-2.065503709804331844e+00,4.632759049917607896e+00
3.955295476744159711e+00,9.901814593636490969e+00,2.303104951619880936e+00
5.554157889162650852e-01,-6.039420676350890638e+00,-2.565627676737142870e+00
2.461870000406739312e+00,7.202691430949729856e+00,4.577951888510582101e+00
1.094220899080301374e-01,4.581885818653629316e-01,-5.697144986853706072e+00
-1.450804775438112593e+00,3.323732250950669709e+00,3.860288951323298523e+00
4.261362265325034926e+00,7.694206789230646493e+00,2.331657948839767514e+00
-2.576513208987889048e+00,-1.021300228543572075e+01,-2.387628720858034903e+00
-3.849919524163893492e+00,-2.312282733203899987e+00,1.539115393162855172e+00
-1.055345645782058028e+00,-8.090679136699905349e-01,5.807898226710301870e+00
2.363674063160963623e+00,1.042799192720254808e+01,1.348393624767972421e+00
-3.929965885197746811e+00,-8.898193109758793184e+00,3.042813558676539909e+00
-1.749402117579232252e+00,-7.361826631819315736e+00,-4.586695605109749607e+00
4.266934001323331671e+00,8.564502447465876855e+00,-2.682285582718917372e+00
2.897453405993657416e+00,1.091296242058735366e+01,3.979936086655240235e-01
-5.971981387242533135e-01,-8.010325531330874327e+00,9.693347405007934903e-01
1.049558247850560955e+00,-2.266503528708213810e+00,-5.267805763242948913e+00
-4.555457494848506705e+00,-8.611350090805538926e+00,-1.438428257303880686e+00
2.904578521895131882e+00,4.440888826552528812e+00,4.132460678771246343e+00
-6.906704943619141890e-01,-3.388248831562528984e+00,-5.645307608776122699e+00
2.343045349817345802e+00,1.015081949514194193e+01,2.300726765585487943e+00
-1.008853141245968033e+00,2.897383587188420151e+00,5.038793014797856351e+00
4.539161416434245311e+00,1.033176422898976554e+01,3.439022117472973483e-01
2.750627699760989753e+00,4.287120622283212334e+00,4.429359528880508101e+00
-2.719789932155825873e+00,-1.035686534723994434e+01,1.291188604965131326e+00
-2.383913802450445374e+00,-8.788884941034408982e+00,-3.759784238115987165e+00
1.994931127269494509e+00,2.229503642109802897e+00,4.853884425063524688e+00
1.987276626698917692e+00,-2.495637769771554826e+00,-3.395265102640496746e+00
-2.387141879771731645e+00,-1.055751033996813248e+01,-4.891776750892236625e-01
-4.734133611209835557e+00,-7.501981649761791715e+00,1.311192500325625288e+00
-1.100408402334164704e+00,-6.196498348564567493e+00,4.048452679746553429e+00
1.775980129724671341e+00,5.573670058021952478e+00,-4.912504301687617314e+00
4.558915799144545922e+00,7.794142462357905643e+00,-2.382039723033952061e+00
3.730210960775806495e+00,5.901746600865390491e+00,3.235474702670769087e+00
3.341076993110688176e-01,-4.581986440634310043e+00,3.428490980356865059e+00
8.375239501761254646e-01,5.449966588744779017e+00,5.251587484369442116e+00
-3.880883084880102807e+00,-4.918907834720472216e+00,-2.366652915686368708e+00
3.087950010421928848e+00,1.082037093757181445e+01,1.621808107839049828e+00
-4.603443153961126910e+00,-1.011847873174925994e+01,8.675908150374871397e-01
-1.373993256996566048e+00,-1.596913310720787349e+00,5.747268923169484012e+00
1.643486896991225743e+00,5.513965773099999801e+00,-4.841227908943057656e+00
-5.665049125560780441e-01,-6.444587017009094865e+00,3.180820223297932792e+00
3.742723144689054759e+00,2.002519884876655443e+00,-1.033898442598697454e+00
-4.187074954369168545e+00,-6.155522875122953153e+00,-2.070115911867840719e+00
-1.093989053965084945e+00,-9.157992127498193469e+00,-5.929362280168568589e-01
4.797191230563851327e+00,8.653512346126742472e+00,-1.627962745789255095e-01
-3.253976607928945608e+00,-6.829462619870992235e+00,-3.926127194026709066e+00
1.046908230557872077e+00,-5.450711042971419396e+00,-7.411649458370758170e-01
-2.719912870814284567e+00,-1.156796007795625636e+00,4.541176773373878817e+00
3.516078731854918260e+00,6.413843299346602578e+00,3.635618001797375598e+00
-2.483897835088997308e+00,-9.942822393075973153e+00,-2.714428087332884765e+00
-7.543870766240753367e-01,5.433079768618778171e-01,5.833342788436142179e+00
2.814306848532395655e+00,1.457726897807016531e-01,1.894629981138205466e+00
4.643191469807315563e+00,8.710404124887142885e+00,-1.571056311478018719e+00
3.646904630215249021e+00,8.352660342462709053e+00,-3.524382977392639837e+00
4.226165016674140240e+00,1.080542812356054760e+01,-2.760175020004874691e-01
4.328530890009845145e+00,4.634680288521742852e+00,-1.745023204943734196e+00
-1.841226858453894666e+00,-8.927541250353860036e+00,2.411896051683429576e+00
-4.748665090547385503e+00,-7.679417753691314630e+00,1.472553293201440017e+00
3.286207391904480524e+00,7.259927752378734667e+00,3.890501026781401528e+00
2.413899042987261989e+00,-2.177574066460691515e+00,-5.842764547946996956e-01
-2.485754404037123333e+00,-1.012481422738478187e+01,1.368968822906538430e+00
2.707784115405186931e+00,1.286308262833798954e+00,-4.590667806461415701e+00
9.758785736454812509e-01,-4.568751993086166863e+00,1.954124631847633742e+00
1.223545934116746919e-01,5.817779202719436604e+00,4.390350457068119105e+00
1.532524059389773763e+00,6.783441655287095529e+00,-3.995417094279148706e+00
2.578594763194888451e+00,-1.049307448817445865e+00,1.242925993108504379e+00
-2.939303816731318797e+00,2.084963889527868264e-01,-8.118432551934132713e-01
2.080323072648174065e+00,8.443784632823296832e+00,3.995838785050402020e+00
3.074630833686477160e+00,8.452831321804554321e+00,-3.629261276510728607e+00
1.972784962699036138e+00,6.086765787422381280e+00,-4.624960684794737098e+00
-1.601831918103751473e+00,-5.106463578677844506e-01,-4.633611988466897813e+00
-1.861708723856029923e+00,-8.931928215236082380e+00,-3.471173862309586688e+00
-1.304295235335833691e+00,3.134304548451333217e-01,5.665347989960959119e+00
-2.767718719795898785e+00,-1.071134592148652764e+01,-1.465034207750303796e+00
6.750168770714739530e-01,6.001202886193617303e+00,-3.752804043470392870e+00
4.353762252013529732e+00,4.569775115002144616e+00,-1.438771646990152087e-01
-1.219560636035435852e+00,-4.954965856213928710e+00,-5.321274068127968881e+00
-4.371359467085559558e+00,-7.905005724722899529e+00,-2.025337027822766256e+00
1.518351786938805681e+00,2.003356914078186612e+00,5.182390012547314129e+00
-1.548812508581760339e+00,-2.930177914332606548e+00,-5.395006321860859266e+00
-4.644569858285208852e+00,-9.351156646779529069e+00,1.505317390862457305e+00
-6.364030494970208951e-02,7.291777328214893217e+00,1.503460927324738128e+00
-2.085218108012636851e+00,-5.147031262646273753e+00,5.028021444858663536e+00
-9.093640301528184422e-03,-6.700609927495279727e+00,-3.431682251635453706e+00
-3.584759592296823616e+00,-1.351886856087436639e+00,7.133939525470524012e-01
3.159784291468228812e+00,2.251474959200292780e-01,2.482023962979630627e-01
4.026370350908185181e+00,6.878139679763724423e+00,2.654622373898367638e+00
4.581281726714996339e+00,7.709609279772453583e+00,1.030959893730450050e+00
-2.318867503521751861e+00,1.691332496197389457e+00,-1.229625061088861493e+00
2.958349314119026019e+00,1.279808157031186333e+00,-4.202274220530510362e+00
3.174470903135209632e+00,6.697847982585797055e+00,3.995601017905191288e+00
-1.027012141181593785e+00,3.728497430557620618e+00,-2.791793164700228314e+00
-2.024471231984526387e+00,-1.005425075647204736e+01,-1.664596121422136310e+00
-1.258322544153440470e+00,2.944707694459959946e+00,-3.097683869960307756e+00
-2.715771960368166926e+00,-5.513111627410554050e+00,4.831367116658945804e+00
1.919546993517029732e+00,3.650100702928923413e-01,4.194172844020929602e+00
1.821420102668069863e+00,4.003532988519486580e+00,5.272276258747226940e+00
2.648509252925093094e+00,-1.376046286950175501e-01,2.132311680866279868e+00
2.726596418801126909e+00,1.365236654211446909e+00,-4.575926337629869778e+00
-1.435976979180750845e+00,9.240381151707207641e-01,-4.209368849300649806e+00
3.449735427012045275e+00,1.036097553175920716e+01,-1.943455264225007362e+00
-3.736488462702693525e+00,-3.415435149574959528e+00,3.468170858767233078e+00
4.479910545379738096e+00,6.138648770600658722e+00,-2.075171792806298487e+00
-2.777829822101196999e+00,-3.538203633802584847e+00,-4.088869945951119078e+00
1.717254248627655855e+00,-2.007952732432866760e+00,2.910783578798826543e+00
-2.628881290924635294e+00,1.009619118512476543e+00,-1.192815929291877852e+00
8.766253265193209021e-01,-5.947484985279976044e-01,-5.750864207309381193e+00
1.615154955619149790e+00,8.054845591681539574e+00,-3.087186967939782090e+00
-4.224311778630415404e+00,-6.140501051149761302e+00,3.073095711274042241e+00
-4.532282343212992615e+00,-1.034107021442860486e+01,5.397577924974572561e-01
1.519316435273281973e+00,5.046125974875992348e+00,5.280155918105199575e+00
3.311156099172206435e+00,5.727667503861520792e+00,-4.421780663515415100e+00
2.416067837259615381e+00,7.066342265092180774e+00,-4.276042024254637752e+00
4.493963714331774995e+00,6.947725539138613904e+00,1.283366808071046306e+00
-2.982303304145488720e+00,-9.851865732128066711e+00,-2.974335670690801070e+00
-3.017537547406884180e+00,-3.593514825276121094e+00,-3.732620755174803406e+00
-1.823141445899033375e+00,-1.225533777056812434e+00,5.477056588208190746e+00
1.004338856746025188e+00,-4.532399832058688766e-03,-5.731379536155220222e+00
1.395333931295440477e+00,8.944468836194740646e+00,-1.590979122923559475e+00
-1.075234602292775898e+00,4.215888555115967939e+00,-2.047168591661691295e+00
1.998227228970151481e+00,-3.035114320910417884e+00,-2.005278269156299586e+00
-2.444144306036340364e+00,-8.651459993960331829e+00,3.313662146393246299e+00
1.126872064240870053e+00,-4.841714816181464265e+00,1.001319904309495357e+00
3.069964441580790737e+00,-1.412441179278284276e-01,-1.610026861463150771e-01
1.541687936731267916e+00,1.344525438982735910e+00,-5.617796220566140697e+00
2.134846703643924481e+00,9.168663322158204565e+00,3.371101086562166671e+00
-3.422344710053659256e+00,-3.636001439221774767e+00,-3.032064291832362368e+00
-6.380953742742301316e-01,5.783113121185122552e+00,-1.119210469733546320e+00
8.575231507036914502e-01,-3.063885083425109457e+00,3.739745290853013771e+00
1.409996727567181418e+00,-3.030815596369250020e+00,-4.232065051359420238e+00
1.277924429581004162e+00,-2.168981853628442202e+00,3.677334721485985725e+00
-2.092040451413010871e+00,-1.030504470764618219e+01,-8.553519795611522203e-02
3.419247904158562168e+00,7.587920141492364712e-01,-1.492865534873043520e+00
7.451848947002966961e-01,1.923292129726547728e+00,5.743515442145318950e+00
-9.909378827706560866e-01,4.991614923852771391e+00,2.972267100930138017e+00
-3.757963892644993642e+00,-6.550677587950467284e+00,-3.162381676705826816e+00
-9.193784690251437242e-02,4.772389799510937003e+00,4.894135028941719590e+00
3.741411637528698098e+00,9.906598662494278784e+00,2.604986577566216432e+00
-4.669237977185830779e+00,-9.565405376661425763e+00,3.246007517667666153e-01
-3.404200325525196469e+00,-9.687950590739063728e+00,2.734257353875052310e+00
2.696999619757994182e+00,-1.357612907764733201e+00,-2.500727515299568382e-01
4.190965392662310940e+00,9.359572141703472070e+00,-2.486209113716216113e+00
1.684729578101145764e+00,3.393543980979212726e+00,-5.522545542070517399e+00
1.420561084787752559e+00,-2.635672291034785619e+00,-4.601090467819996199e+00
-4.130345453525746002e+00,-4.226834908225310272e+00,-8.103728496429514205e-01
-4.280904054543621662e+00,-4.651983806011984690e+00,-7.093280299402755507e-01
2.376853711486028420e+00,-1.836878031992197124e+00,7.617782000203189297e-01
1.417876848277851431e+00,1.092019972111518022e+00,-5.726731247266259039e+00
-4.392072523803990158e+00,-8.859638518535295049e+00,2.458180353949197094e+00
1.142383410584816072e+00,1.265263492101343701e+00,-5.715154761379147352e+00
-2.006223696921075383e+00,-9.558824787045507421e+00,-2.779099573051671879e+00
-2.276884806055151422e+00,-1.011583505523034354e+01,-2.396502723230417242e+00
-2.005063510630104240e+00,-6.264457327925316399e+00,4.573623976111431233e+00
-3.845848833394478028e+00,-1.075304879327436325e+01,1.380472259201936502e+00
-4.693679008226826710e+00,-7.004678300950497594e+00,1.296618018576965348e+00
-2.928200053453039242e+00,-1.789520381703930685e+00,4.381022587665410306e+00
-2.561373266309837415e+00,1.682069135315528818e+00,2.201260113055712342e+00
-1.164069250231622998e+00,-1.733092713216257685e+00,5.760147726440000504e+00
2.986641356741194908e+00,-4.343844070025996151e-01,-4.504749333039369530e-01
-3.310793610461587377e+00,-4.340228304951591731e+00,4.587822233569143648e+00
-3.367850459771413174e+00,-1.397618394019670252e+00,-1.348033394073103741e+00
4.025760397940862489e+00,1.016838420455755099e+01,1.948324129053391252e+00
2.872305478771277065e-01,6.313269436702535486e+00,4.295097164116866928e+00
-3.051123693692697536e+00,-8.295250944960391948e+00,3.779439196193004058e+00
-1.348459863892997879e+00,3.885516317659748253e+00,3.561060056398289486e+00
-2.749366379256785731e+00,1.154094138939832481e+00,7.157072182729685705e-01
2.267783425191853830e+00,2.748672582359985017e-01,3.496121809187661800e+00
-2.492001722222314530e+00,7.492637527665551023e-01,3.869191768925019925e+00
1.193430698258986927e-01,-7.066819070187754903e+00,2.076626676771320956e-01
-4.243049187154357860e+00,-5.783140786516463905e+00,-1.654816041913895752e+00
3.138490787098384693e+00,3.606485969507257749e+00,3.527531929742689698e+00
-2.421595465972669281e+00,-9.955632144720446774e+00,-2.860103259995652181e+00
3.087038037200518836e+00,2.749895326090017633e+00,3.274894109130461306e+00
-1.908993205324274411e+00,2.019296826020297031e-01,-3.862323840874218206e+00
1.752008227918918193e+00,3.809346477891875526e+00,-5.437539214966056633e+00
-9.108303244269565502e-01,2.980776006047024307e+00,-3.785376524433481382e+00
-2.100174533212417205e-01,6.524962751070352951e+00,-1.085236461492520510e+00
-2.380474623539902801e+00,2.327541318922063507e+00,8.818399070225351188e-01
-4.454299602862372254e+00,-5.321151013056677925e+00,1.644844619614605818e+00
2.706049012477869553e+00,5.846443383730288268e+00,-4.724386312465552962e+00
-1.680756560315312287e+00,2.501267706439428196e+00,-2.457773205684206985e+00
5.543614459894300461e-01,-2.547295441691500351e+00,-5.503272037725926324e+00
-1.163661841640566963e-01,-6.143418545268318098e+00,2.653324494095582686e+00
-1.144429248966859491e+00,-8.943760903943376306e+00,-2.177445048130729255e+00
3.083447916070208628e+00,6.049273875514313836e+00,4.124310060366563668e+00
-6.257890920262503265e-01,3.493956811132385987e+00,5.051942245720973723e+00
-2.212104482887722323e+00,-8.729059832851923773e+00,-3.885175028166408584e+00
-1.303933065915258593e+00,4.322283251671263038e+00,2.957066618882292275e+00
4.461599785438616905e+00,5.855351212415637718e+00,-2.207021559183586223e+00
-3.890519716117700755e-01,-8.066834698831819139e+00,-2.471696404867061991e-01
1.582931061581814403e+00,6.277016350635955533e-02,4.528890708558249933e+00
-1.149566199674886491e+00,4.098304124575003371e+00,-2.146471672886308912e+00
-1.263236238069025186e+00,-8.601100048299889167e+00,1.717692652878873627e+00
2.796802545336145029e-01,7.837802685436964900e+00,1.458014682691231689e+00
-6.168338984293072480e-01,-8.458424198872503297e+00,-8.533278137765041294e-01
2.474279747640051763e+00,-1.189809234844674268e+00,-3.232591679988546574e+00
3.037991993518565970e+00,2.190966863954975530e+00,-4.455641682848430207e+00
-4.035458747127945500e+00,-3.918851419808275338e+00,2.679411563744551472e+00
1.282586751853638463e+00,-1.084325235539522980e+00,-5.395498386356752718e+00
-2.967239350892930894e+00,-9.952859588486436593e+00,-2.837533585502761468e+00
-2.482446869870084338e+00,-3.447582473944127646e+00,5.177013092321975485e+00
1.530528653960956387e+00,2.195378821602938846e+00,5.187991846721608624e+00
3.135590169156692752e+00,1.105970750313001716e+01,3.630924464782103178e-01
-2.775940310601404004e+00,-4.716901600211112822e+00,-4.455135295003555207e+00
4.300101825615099571e+00,1.061124281351546195e+01,6.529569189408291896e-01
-3.624214617079692946e+00,-1.663509018876222489e+00,2.093477614493890915e+00
-1.108887622867550382e+00,3.939257996424786690e+00,4.024972885497276387e+00
2.499992540924177664e+00,9.309342065976363045e+00,-2.601646393372759825e+00
4.473707283174001681e+00,5.433354802025391450e+00,-1.388153952230659627e-01
-6.429439289762873821e-01,-3.066921693856606179e+00,5.343289093292105107e+00
3.092920358320500718e+00,-2.278593998983663160e-01,-5.804035275906395119e-01
-1.761581144099715557e+00,-7.634069673382777310e+00,3.610368632267391131e+00
-1.555679596210223226e+00,-8.813741079510220899e+00,2.039239145376737561e+00
-3.932945717113192963e+00,-8.044947983928663504e+00,-2.971491676625440004e+00
9.305621943357065273e-01,4.149526941157806736e-01,-5.781190561261873029e+00
-2.011242244817701419e+00,1.562159627508847404e+00,-2.506811248117454483e+00
-4.151161372484922119e+00,-9.685594340196161056e+00,2.391506718568520817e+00
-4.204097443867327755e+00,-6.525239008856531520e+00,-2.215346663446615683e+00
2.956702441799193171e+00,9.525975800010896277e-01,2.392335392713135889e+00
1.286355944443213772e+00,7.674192210325183616e+00,4.175445053864843103e+00
-2.400564146481646510e+00,-9.851027208127037582e+00,1.928345110854586819e+00
2.402527407141486826e+00,-1.636284749950864592e+00,-2.949762438523507946e+00
2.166258739118223531e+00,7.563253458079832292e+00,-3.990994462452224667e+00
5.063547433493996719e-01,4.868982643770394247e+00,-4.347597669419476674e+00
2.463620297826000893e+00,7.158887802010128532e+00,4.483599134704864042e+00
-4.169110301965710086e+00,-4.272904258407348443e+00,-9.699832517191718795e-01
-6.048160625335440299e-01,2.450073094890469871e+00,5.522625026214082133e+00
3.079271224672289975e+00,1.184503057901200584e+00,-3.862234877455148929e+00
3.917884132678491227e+00,1.082372331531946408e+01,-9.902290663422058659e-01
-4.267518164388054203e+00,-6.698374755166291550e+00,-1.957744994755031387e+00
-2.886559365259111054e+00,3.246572244487767600e-01,-7.948284711825083226e-01
3.905230804383494903e+00,2.508659412836300451e+00,-9.928763976858026030e-01
3.891392414336888539e+00,2.729334111830221232e+00,-1.652957472741976686e+00
-2.976874974982959721e+00,-9.293633471890798248e+00,2.917442442324178042e+00
-1.430814237808059941e+00,-9.435172846238028654e+00,-1.521668626948173397e+00
-4.554715589075088999e+00,-9.730055360985742752e+00,-7.847556027758735286e-01
-4.581086902400060445e+00,-7.475124272601338049e+00,2.218941181766128867e+00
-4.512628159146418128e+00,-9.694278460990236823e+00,1.466999857056820344e+00
1.492299163485959479e+00,5.580223364436398548e+00,5.247174767710089505e+00
-3.271988243954318420e+00,-7.738008892159468743e+00,4.029415907545852882e+00
-3.668167815787114705e+00,-2.631892447101749077e+00,-1.397387186889823996e+00
1.279525105876773372e+00,-3.964665356355192016e-01,-5.588980430291776713e+00
-2.717801253682984974e+00,-1.023995019264063444e+01,-2.640777867309213267e+00
-4.101528257783247255e+00,-3.312311714861881029e+00,1.279851061977849369e+00
-2.041696340376890628e+00,-6.626142251750052559e+00,4.494984079275824662e+00
-2.495474724924036991e+00,-9.636005591026604478e+00,-3.184648261928441304e+00
3.917111819450477039e+00,2.571866384990227239e+00,-1.502429864523494141e+00
3.901575592412084514e+00,3.671037162908397100e+00,1.565147787054833373e+00
3.058372573814305717e+00,8.389161762088995777e-01,-3.510049765198247407e+00
3.294729399839233075e+00,1.106896621481507204e+01,1.070371759170482440e+00
4.126518533985668924e+00,8.396347149798412346e+00,2.437188353107956118e+00
-2.431815060883195656e+00,-1.047066380455836665e+01,1.864318497662196816e-01
3.822343979214143594e+00,1.002497358111539327e+01,-2.234743728100454518e+00
-4.594647051944966698e+00,-9.910433868610699193e+00,-6.552372174775850100e-01
-4.440792180923447852e+00,-5.202771563478816752e+00,1.670007906370879203e-01
-4.753523856560182281e+00,-9.335749709007970409e+00,6.499379127271881496e-01
-4.332322340700096142e+00,-4.658618889339035007e+00,1.358325160641531415e+00
-9.698030481294758198e-01,-2.702709907266694245e+00,-5.632060379998537591e+00
4.714595878433001097e+00,7.504997983239301007e+00,-1.686532286262733216e+00
2.894196231924869078e+00,-7.586043348029867239e-01,-1.400517633264125372e+00
2.401549017210760084e+00,1.185510035679312901e+00,3.758690407196038752e+00
-7.076959460808837088e-01,4.371355400595708929e+00,4.397230093067013179e+00
-1.165433083829088501e+00,3.517448373080397150e+00,4.309348409101100508e+00
-3.601786443771716417e+00,-2.311858499923883592e+00,2.900928816911815478e+00
1.789608794571145856e+00,7.861041583814732725e+00,4.339362107620324593e+00
