-4.972418226701724286e+00,4.237678734866419106e+00,-3.207258816682408753e+00
-9.064829290475383550e-01,3.459182048367325901e+00,-1.262730346229685274e+00
3.942976685031018835e+00,-4.174167983759199174e+00,3.520920969731819561e+00
1.124306234688118300e+00,-2.039442048271209451e+00,3.570939871575396829e+00
5.801010090440655853e-01,-4.612870628152483832e+00,-2.034550431200485399e+00
3.667848958975261642e+00,4.650710463129517636e-01,3.219576019129170241e+00
1.708695176674991600e+00,-5.070742629491497233e+00,-2.835973056927907354e+00
-3.260081801909454846e+00,5.050882164933408802e+00,1.285644475580836055e+00
4.182082598235782100e+00,1.089513458610446850e-01,4.639681797637910776e+00
-7.834977757196919246e-01,-3.446897639064661067e+00,-5.665838667284342378e+00
5.014294782825370334e+00,-3.725659702219439318e+00,3.940670808947411174e+00
3.633300978115454161e+00,2.914325018978294879e-02,6.777660137995129119e+00
7.386616611890706174e-01,-3.145311807551101624e-01,4.719012892482338906e+00
-4.800229435204959927e+00,2.043816851464526518e+00,-5.801218243981700162e+00
2.333675528716709024e+00,1.117357443203071732e+00,9.753979606951108661e-01
-1.115239435212334485e+00,-3.636885557255134405e+00,-3.846207483752282386e+00
3.638340346294414829e+00,-3.110581055492126268e+00,4.729908945325125735e+00
-2.291371116167020272e+00,-1.388828371909695214e+00,-1.259307578335760347e+00
-1.835868731988244962e+00,-1.360838376060546695e+00,-6.527854663301952520e+00
-4.160708264541898238e+00,3.915179383451628414e+00,5.402003362653758772e-02
-2.461274506276378560e+00,-2.432691620325899695e+00,-5.163901273833935157e+00
3.460480715698785570e+00,5.737975703837721042e-01,6.705474180962132102e+00
4.029876519712765948e+00,-4.270855950727838746e+00,3.365720556941295794e+00
-2.549916198290479663e+00,-2.257792393204891557e+00,-5.701697712900148929e+00
-4.940494631812986981e+00,3.858898903286099191e+00,-1.899889042441508247e+00
-1.059223662446772130e-01,-3.274531654771091205e+00,-5.438511756391376295e+00
-1.990405615874738743e+00,4.428996151255344849e+00,-1.122403564367445705e+00
8.221681242577785209e-01,-3.618708286420210918e+00,8.764983214303390113e-01
-4.744291529205769464e+00,4.609783417871339495e+00,-1.776422852064579949e+00
5.648404465899180549e-01,-4.024984947091802212e+00,-4.746690978198147448e+00
1.922656236320091194e+00,-2.157303361757188842e+00,-3.076628279764250351e+00
3.375472321457999580e+00,-1.089947548492125884e-01,1.399919767183772645e+00
-1.280733911424228877e+00,5.590223805535954327e-01,-5.079154229149979827e+00
2.448639746523705973e+00,2.536928859995056573e+00,5.265930884064456308e+00
3.556837693758164054e+00,-2.428582648745096328e+00,5.414528345642781737e+00
-2.383630672481801049e+00,2.746413352206452441e+00,-4.154550383380330558e+00
2.402232379173637078e+00,-4.410676826909499582e+00,1.728786951692488971e+00
-7.186688066022979271e-01,-2.923842628814926847e+00,-5.643965119822912380e-01
-3.485082530436437676e+00,4.727107258976833037e+00,1.258573684142487270e+00
1.564620311424824273e+00,-5.164467936593083230e+00,-1.917899354864223804e+00
-2.630960552990369461e+00,-7.857992852693620467e-01,-6.744131941683296105e+00
-4.722241930028561185e+00,3.728864099899227291e+00,-1.201506329135785256e+00
6.091383901600785356e-01,-5.568723959975180327e-01,-3.735543359307062605e+00
1.846638498113652549e+00,-4.456471521824627580e+00,-3.564053404426646754e+00
-1.395657650788943327e+00,4.520856385698097668e+00,3.208992138416767725e-02
1.640555332108992292e+00,-4.895136190861125947e+00,-5.115640603135405140e-01
4.963803581834798528e+00,-4.239982866426810659e+00,3.074838121333383967e+00
4.298850507698754875e+00,-3.012384157995344314e+00,6.513146055705687498e-01
3.471187044828226487e+00,9.452138044677244055e-01,6.548317472700793118e+00
4.352485748183867464e+00,-1.768256411641567105e+00,6.068844503523940226e+00
-1.340108391588622910e-02,4.443422656806461646e+00,3.656869896824940458e+00
4.711006288042200119e+00,-1.776965527002229761e+00,2.835143661813836147e+00
4.134415818782827046e+00,-4.602197741257549879e+00,-1.142181411930398988e-01
2.095945372127787643e+00,-9.230611226528797619e-01,-1.954929770494494568e+00
-1.621037371787127812e+00,-1.695021354266545988e+00,-6.413979245956610953e+00
-4.020599522119406188e+00,3.259635110067877761e-01,-2.908293597239799411e+00
-9.410770669280763556e-01,-3.678620295856922073e+00,-4.968124039019990335e+00
-2.266986385244271318e+00,5.272763566104809563e+00,9.989169700074986835e-01
1.574186847704999392e+00,4.336586985813182388e-02,-1.873912998459174251e+00
-3.489821549557425850e+00,-6.850488938943408712e-01,-6.528298584712922015e+00
2.652287301065558989e+00,-2.309631811229889031e+00,4.826259431894730056e+00
3.801028099977763475e+00,-4.408424649008284568e+00,-8.104405566918425619e-01
-4.003681032808687590e+00,-2.052607971032789080e-01,-6.191299373708661236e+00
7.400204597258035477e-01,3.240969029508534716e-01,-2.805548421230758649e+00
5.060814723006116900e+00,-3.016697668800999210e+00,4.916577062942828924e+00
-4.831906790645250638e+00,4.535428832766839058e+00,-2.567272760981117230e+00
1.157961790186750606e-01,3.500793671862793222e+00,4.836549739449665375e-01
1.937918353367634738e+00,-9.821773078294389059e-01,5.449225555293880419e+00
-1.631712640565866845e+00,-2.903711510958434605e+00,-5.955886066746042928e+00
-3.942346431497627979e+00,1.745683171272566447e+00,-6.149255074281729350e+00
5.396338485742605551e-01,3.982850815258049959e+00,2.835283686728929275e+00
3.821618141953122993e+00,7.544073076461590421e-01,4.900454644191435172e+00
-7.503541228248233885e-01,-2.462157100859902137e+00,1.123280317677610718e-01
3.214138447378060093e+00,-3.555808073077684206e+00,-1.786806351668675186e+00
2.327723991179257546e+00,2.431662088786878506e+00,5.898207804934151532e+00
3.075698093346527440e+00,6.925024864407192116e-01,1.980441304374886746e+00
-3.782993701921651297e+00,-4.501524169733762681e-01,-6.342495145149248614e+00
-1.436205287873328462e+00,2.356518388719897494e+00,3.870349307091275559e+00
4.597063825865178366e+00,-2.380705350087565453e+00,5.628116166099652595e+00
3.862113034836825998e-01,4.232612652695451949e+00,4.114797642332992389e+00
4.327734069234055347e+00,-4.930292336740174086e+00,6.584205030550782656e-01
-2.584243363757302347e+00,-1.115874334340366758e+00,-6.705986781998531931e+00
4.805088136198578219e+00,-1.701648635907409224e+00,3.289984001228277499e+00
2.236305795624300874e+00,-4.858141849223180486e+00,5.029833428877303891e-01
-4.417116235565440974e+00,4.933549498109753628e+00,-1.731982113759829467e+00
-5.200663547796183117e+00,3.168825633926471319e+00,-3.417758031142455355e+00
-2.112759175350769958e+00,3.578493670065758359e+00,3.352857335722133847e+00
-3.787277916830209534e-01,3.780062341518270586e+00,2.138860780155556474e-01
-4.977442188942485579e+00,1.795341027443168702e+00,-5.497895811427880197e+00
2.975669779541466387e+00,-4.416594374822404134e+00,2.360859354912552721e+00
1.046836037285628240e+00,-2.720301401426777232e+00,2.583181533427760801e+00
-1.819001270623544331e+00,-3.087909590092376977e+00,-4.159650305656752423e+00
-2.956866721704258349e+00,-5.544419361033824378e-01,-6.715445541821160269e+00
-3.677571695233357030e+00,-3.404011650596370231e-01,-3.000880168724429531e+00
-4.795196751437665883e-01,1.092643801684817007e+00,4.323237587726444175e+00
7.056120830691960943e-01,2.506229064404762674e+00,-1.883593265100517722e-01
-1.992961462394942096e+00,3.099409516913851803e+00,3.433951420329927728e+00
3.052284681922160736e+00,7.057838993552758566e-01,6.796080111316527450e+00
-3.395819825040609086e+00,4.756011654104856934e-01,-6.586127663380231034e+00
-2.705656728755151619e+00,-1.456264237066715594e+00,-2.493869712768130853e+00
1.231489493300623739e+00,-8.289872604017370916e-01,-3.147803282219998611e+00
-3.450065690297403176e+00,-6.840487084574762289e-01,-6.653204955781459873e+00
3.910199011887064202e+00,3.248591170988754384e-01,6.398983387594118000e+00
3.376281156797967586e+00,-1.719590083956590854e-01,1.365714467961053113e+00
4.647726520245276660e+00,-3.676207453883669540e+00,1.099851949407065321e+00
3.802419176315179339e+00,-5.049026628097863068e+00,1.505192353901890767e+00
-1.663330863890448708e+00,5.591838530501599402e-01,2.273249903092351865e+00
-2.328989079149601071e+00,1.098235024405594285e+00,1.642838713751402446e+00
4.723938092730647353e-01,3.864420183637483408e+00,5.209895904341401263e+00
-4.206889775746613935e+00,1.112559560446600426e-01,-6.177279997162638203e+00
3.375302740386605826e+00,-5.230349361078699744e+00,6.930572565820052322e-01
2.752747467738188458e+00,-2.415904405346180894e+00,4.820489643434905602e+00
-2.783004332512889700e+00,1.607425124520673876e+00,-5.606727536390331501e+00
-5.630871663412307937e-01,4.424937906331106952e+00,1.463790741948071794e+00
4.998045118073884296e+00,-4.236405392360349964e+00,3.105030871270305859e+00
-7.820945049878064159e-01,4.865567214017820774e+00,3.287268252579496508e+00
-2.898824819498450722e+00,1.253595386544569257e+00,-5.965415489923512560e+00
3.201010277417315919e+00,-2.790383476372015337e-01,8.411896804625342838e-01
4.244911250487867882e+00,-4.007335102597521237e-01,6.284159579317671884e+00
-4.205851250799972796e+00,2.513787344470261864e+00,-5.582475777993507471e+00
-2.162003853345422666e+00,4.488631555352509572e+00,-1.322788887034761940e+00
-3.084169976866548701e+00,-1.610062049248225824e+00,-4.014656700001037137e+00
4.115779443552469274e+00,-5.168708131914796944e+00,1.289196085855241147e+00
-1.259651920624908161e+00,-3.272098185066865561e+00,-2.656587361011980786e+00
1.836188300149756536e+00,-1.387357163394673965e+00,4.957808242993617220e+00
2.274403763840427750e+00,-4.653072653158969452e-01,6.079228131967245652e+00
3.415834237045805466e+00,-2.733688395797304160e+00,5.090427307716506533e+00
-2.488683530818093459e+00,-1.854565811312813395e+00,-6.504799696813159393e+00
-3.260726288868289302e+00,-1.005321055938388053e+00,-6.693205926246237780e+00
-3.591142042519169131e+00,3.045389722482804151e-01,-1.747173580703575535e+00
-4.731149930983497676e+00,1.971314544004309166e+00,-5.876561382895087782e+00
-2.589496888138304698e+00,-4.461785083851052547e-01,-6.672643196113575037e+00
1.666408840418465598e+00,2.455783896678974898e+00,1.813880183611487507e+00
2.936036510666315102e+00,1.773447851585128410e+00,5.984143739060293399e+00
-3.853690093256070703e+00,-6.575471259146450365e-01,-5.951138902650589202e+00
-3.074678435484552885e+00,9.110723644008593691e-01,-6.238890503389084685e+00
3.127989303448836189e+00,-3.425357435968333419e+00,-1.896385087613177367e+00
1.296176687350557355e+00,-5.061870532264206801e+00,-2.381461203466336052e+00
-2.488716849847821155e+00,4.594741795621798630e+00,2.765208161280115817e+00
4.525567036353100647e+00,-3.620735253243209772e+00,4.564305134081334536e+00
-4.907794394479298106e+00,1.553443341551138168e+00,-5.484190016454932426e+00
3.971437597574481337e+00,-3.725428453662598560e+00,4.184741066783148611e+00
-3.693889882941736147e+00,2.030476945480553574e+00,2.197548449708876597e-02
-3.947247470563023608e+00,4.929391909232550439e+00,-1.980182872859878263e+00
4.308851526440824031e+00,-2.486842551093576201e-02,5.949598395193278932e+00
1.956580112680159411e+00,-2.541924058517950780e+00,3.894754790555139845e+00
-2.241091743696119298e+00,-2.563770996593282003e+00,-3.937716290258919560e+00
1.545425509110484708e+00,1.285668610557506586e+00,6.356697210850923874e+00
2.620073169878666786e+00,5.303366426855835036e-02,6.558502742315067913e+00
-4.100319616064165729e+00,4.079357794468677412e+00,2.500717395838473189e-01
-2.141768474395481014e+00,1.925248515099378999e+00,-4.773576188942000087e+00
-1.397084743164579868e+00,4.745592954186526491e+00,6.363944782794618282e-01
1.265304362690949036e+00,-2.849651415198808380e+00,2.675965984339982562e+00
-3.193540509309132691e+00,5.303125326614617663e+00,9.096357145193894045e-01
-3.988361789379366140e+00,2.220553418696079861e-01,-3.029911168994085191e+00
1.377977249128585491e-01,-1.248898442044095169e+00,3.114326363789006624e+00
-3.654141482585623990e+00,4.803877858073114737e+00,-2.245028045793147520e+00
-2.204321641402447352e+00,5.266683296572165496e+00,2.288714926845219377e+00
-2.965386848015484134e+00,-2.248832950750297710e-01,-6.742556919775239521e+00
-1.874783731167420919e-01,3.018121994205594127e+00,5.353585508585228858e+00
-1.304575416901664120e+00,-1.857704954626557159e+00,5.336383028108336590e-02
-3.481300798495846394e+00,-4.768098538692189248e-01,-6.610913861000013547e+00
7.226780294446027986e-01,-1.398539277649281765e+00,-4.241844547424585166e+00
3.149538091917430727e+00,-3.604752457348301409e+00,-1.923156230632920849e+00
5.334393641483502480e-01,1.217989763964000938e+00,5.473730860934820086e+00
-1.712763084534373759e+00,7.671232306022113256e-02,-5.814497359019915379e+00
-3.186267431928007987e+00,4.793394966733682594e+00,-1.884558049129555046e+00
1.617802530567058250e+00,1.710773806734642966e+00,3.843780040109894269e-01
2.685911864166345975e-01,3.730165884891074146e+00,1.400228601495674186e+00
3.492812603582229336e+00,-2.575549433128901722e+00,-8.311237285436251510e-01
-2.698801807290534427e+00,-2.156185388531222102e+00,-4.226902779078346661e+00
2.086257855376887349e+00,-5.877527595764073798e-01,-1.642167440912873477e+00
-4.361446896893389713e+00,3.315735432210624722e+00,-5.857282700885353410e-01
2.512114754973421960e+00,2.308515188472344715e+00,3.944245337545030150e+00
-1.746095269857110277e-01,-2.022265807030680040e+00,1.764633961283505137e+00
4.082654770223952845e+00,-6.781704040023949220e-01,2.553174987539911012e+00
1.555522289630523192e+00,3.353641305879475620e+00,4.436051189355565860e+00
4.294536213420743209e+00,-4.796239238056465126e+00,2.427060878868657401e+00
4.548728123569405923e+00,-4.112742824961672206e+00,7.591012599504493030e-01
-1.983070063311628273e+00,-1.421822563992631017e-01,-6.187235926777793438e+00
-1.519126959436420732e+00,4.878762989035978492e+00,3.309103229393095535e+00
2.968527154282777136e+00,1.230389722721532131e+00,2.607542148594919507e+00
3.514247438908969734e+00,-4.968197012128968915e+00,-1.030155595485659159e+00
1.905868075836931741e+00,-5.079852213740442046e+00,-7.508568107916820944e-01
-5.008704111379971735e+00,1.768458226732457117e+00,-5.337251926195174079e+00
-3.256420539025752792e+00,8.005082756562570401e-01,-3.632618841777195962e-01
1.264957505297011453e+00,-2.372268171988931029e-01,5.337695348558004760e+00
1.779538044501684624e+00,-4.131762247833702162e+00,1.454060251179418506e+00
-5.151982608731689339e+00,3.246985513517036903e+00,-3.045944135275508113e+00
2.056127881189548479e+00,-2.911663688718598042e+00,-3.214625406175867894e+00
-1.674684980845088322e+00,7.605564302163266843e-01,2.397286476145865208e+00
1.137489240277340663e+00,3.582456794628160690e+00,5.147751316640719388e+00
3.232790772503772558e+00,-5.218162146313814809e+00,-1.180946175592267000e+00
4.724237356946189514e+00,-1.691299453156010602e+00,3.019640741119075766e+00
-4.807541927896632483e-01,-4.137401433329429778e+00,-3.873890581734394267e+00
2.182332588243764526e+00,-4.380123141548665444e+00,-3.229736205500137736e+00
3.769536042722770652e+00,8.770243112758075998e-01,5.578015296318095118e+00
-2.700906587202230646e+00,3.108620686914343456e-01,2.415752216047336587e-01
-1.227735189021261109e+00,-2.221940455604352938e+00,-4.499789697582876058e-01
2.120094881846621426e+00,-5.953107167222154716e-01,-1.583156908228661175e+00
4.397149999409911025e+00,-1.771523941761446785e+00,1.850304356378569715e+00
-1.917875640349903321e+00,3.561489228583411659e+00,-2.552511471699458578e+00
3.029255805159688286e+00,-1.658805193285311841e+00,-9.694226546845622350e-01
4.659625187047175210e+00,-4.638776715787165550e+00,1.731944874548519975e+00
2.378598339053537458e+00,-5.304820612501980115e+00,-8.257648028613751023e-01
5.097625802060349542e+00,-1.869938249734773406e+00,4.678980821464064910e+00
-2.232762627750638718e+00,2.685763917532386635e+00,-4.050438730365710782e+00
6.363945155294924438e-01,1.573502359707256382e+00,5.709376437562725393e+00
8.664773771605056574e-01,1.569078321233973838e+00,5.942801261441785776e+00
5.210067792891296179e+00,-3.303636536072004137e+00,3.430305015794160362e+00
1.436268072857793454e+00,-5.076233098919055386e+00,-2.336098902709828451e+00
1.284407983958568034e+00,-6.800527956679877084e-01,5.022181197358243310e+00
-7.496761350813825331e-01,-2.862373507071394929e+00,-5.927904434236597631e+00
-2.925214314826956485e+00,3.097820401300299120e-01,-2.636860975088419212e-01
4.578145943737927936e+00,-4.286066203013849218e+00,3.426147736293339463e+00
5.785502909148337869e-01,-3.484073346762764700e+00,6.847173285604361004e-01
-4.324886471070776395e+00,2.284561880252023724e-01,-4.363214423382694385e+00
-4.874596991081386332e-01,-3.971934163746528412e+00,-4.900546038773142321e+00
1.181415258788178768e+00,3.219083917384740090e+00,2.288517830849640333e+00
-4.053604644143866231e+00,4.684702560370050506e+00,-2.661412532590929025e+00
3.911775293690096245e+00,-9.392563528951458629e-01,6.535712796453256423e+00
-4.888343830150001068e+00,3.314520290490610144e+00,-2.022468757340407208e+00
3.022954784460023525e+00,1.887008593269814183e+00,5.033445343163767127e+00
2.943201388406298857e+00,-3.238715058699856097e+00,-2.036335633463071559e+00
-2.249530942608197748e+00,1.957541068007922158e+00,-4.830479306116050253e+00
-1.165014096668143040e+00,2.493226390530547842e+00,-3.037120079778572901e+00
-1.229660964604654960e-01,-3.171416192114173249e+00,1.217823477536267573e-01
-1.965392450137822156e+00,5.282835240107080388e+00,1.705700022946077254e+00
4.561839425192816933e+00,-3.594196938378316553e+00,9.233034052109465595e-01
6.299569183776394521e-01,-2.643027041888612150e+00,-4.816523996274804098e+00
-3.748577297421547438e+00,-3.312577791005373307e-01,-3.205698253932392383e+00
4.431234048776294121e-01,3.764892330488874839e-01,4.877725240197061218e+00
8.674171813717059809e-01,3.835502272252898415e+00,3.634613696026724572e+00
-4.840929651416365359e-02,1.067736398798568631e+00,-3.206220233915131779e+00
3.703946950330490484e+00,-2.221705208564566991e+00,-1.521752469068727021e-01
-1.511415705724506453e-01,-9.925322105805738371e-01,-4.964100601262033230e+00
3.612262918049647276e+00,-5.018038968871028210e-02,2.181477970454849480e+00
-3.382145916498287885e+00,5.122508704894293885e+00,1.125783206151986127e+00
3.059689926851893560e+00,-5.302157269694837360e+00,-1.340670928097049019e+00
4.436899972192387409e+00,-4.352204214173082342e+00,3.386207550960058654e+00
2.426199102016938003e+00,-2.551806008422784267e+00,-2.503846028818130787e+00
-2.130659360653126555e-01,2.634106682337088223e+00,5.290307186458075073e+00
-3.846638245518430477e+00,2.947354496448416405e+00,3.246625915252273620e-01
-2.340787818172273216e+00,-2.564316533950710131e+00,-5.026451633784985162e+00
-1.096559235791751408e-01,3.954709956970183793e+00,5.042767735281343811e+00
2.820623234373145771e-01,-1.459859826870227417e+00,-4.765338472025464789e+00
4.485489176177596127e-01,4.028772451005716349e+00,2.873587561418174730e+00
1.471243404109509878e-01,-3.265920986075080634e+00,-5.312580839992986803e+00
-3.267900542568013211e+00,-1.499175456133156503e+00,-5.530014413073297774e+00
5.053536848953369187e+00,-1.698259206607476424e+00,4.793823824350482710e+00
7.809644308268366419e-01,-1.774106833418670037e+00,-4.323242667023727392e+00
5.495317928777287975e-01,1.342756598462271800e+00,-1.976453222293496292e+00
4.878434105166551404e+00,-2.061225650079409721e+00,5.632345049708412432e+00
1.333774136397487986e+00,-4.752357236168606391e+00,-7.606920278951445624e-01
-2.036329737612678770e+00,-9.080093442869384690e-01,-1.558973931792070194e-02
-3.068533602692407936e+00,1.108631405510726253e+00,-6.141928312552684233e+00
2.718260646456152507e+00,-4.270936073322418203e+00,-2.576407971689599119e+00
-2.454897252450391587e+00,4.443673885966729742e+00,2.867904333658296778e+00
-3.249495685498943409e+00,5.377980107246588481e+00,2.331022201863700294e-01
-4.237474417260896686e+00,-1.221448121433606898e-01,-5.957596332750505042e+00
-1.573555803153939836e+00,-2.163472578077615616e+00,-1.078301984743858855e+00
-1.220456314687462934e-01,3.767021285746019021e+00,5.098951997132931346e+00
1.947022894585097141e+00,-5.232216819273135755e+00,-1.277756731547083024e+00
-2.749920709350109682e+00,4.417867371529998088e+00,2.436602260560626121e+00
-5.789858112101915477e-01,3.503251801264707144e+00,4.924700608232051025e+00
1.321293601878385182e+00,-3.708723041715143331e+00,1.494296616017323664e+00
-4.786605431940675892e+00,4.397231474441587018e+00,-1.460567990564156426e+00
-4.184532903843427576e+00,3.584723409190246013e+00,-1.299403473348732622e-02
1.136349992706683354e+00,2.435174575327651858e-01,5.505465950864454783e+00
-3.891377738443705159e+00,4.562209614710859285e+00,6.522391383476324744e-01
-2.015795451611067435e+00,-2.723492397577011559e+00,-5.706038582829969563e+00
-4.478696933379708867e+00,3.184489538768296768e+00,-9.152404165596312868e-01
-1.098026446888530572e+00,5.879927747897393253e-01,3.144656507254413480e+00
-1.323067184758828230e-01,6.073165444201821250e-01,-3.779281741323265109e+00
5.116584062542538724e+00,-3.292529190668339378e+00,3.031596216914874908e+00
-2.990453564989572932e+00,1.754070963402355243e+00,1.082204520819746163e+00
3.551518933634694175e+00,-5.220181192950501980e+00,-4.770286591957604294e-01
-9.274660644373369234e-01,1.296214208673935664e+00,3.896093088314803499e+00
2.682642128679821436e+00,-1.816113722266821773e+00,5.327928067612194063e+00
3.313673352787645410e+00,-4.631140015325504677e+00,-1.619728464281092517e+00
-1.296957141538912284e+00,-2.539483892892926420e+00,-1.047830140015831857e+00
2.531898025197838464e+00,-3.041178599229514390e+00,3.981297331475596835e+00
-3.961058083903165716e+00,-4.296397260050368039e-01,-6.293591841239735807e+00
2.941090041812477462e+00,1.902204776976122780e+00,5.829502835953198847e+00
1.801069694766066043e+00,-2.443558188974856105e+00,3.909812097494599570e+00
-2.547963495483622332e+00,-2.555185857466838462e-01,-1.975539938846598287e-01
2.074994748185175819e+00,-4.185559247247840453e+00,1.671843809481321719e+00
-5.227433310489124629e+00,2.980533399495935765e+00,-3.683098683289831143e+00
-1.991281091020024874e-01,-3.175665288170677059e+00,-5.737004798883480611e-02
-2.450145678589038312e+00,4.419457878005106366e+00,2.881633352919051649e+00
1.847262030182880377e+00,1.365010522603681498e+00,6.453936147295578962e+00
4.373897872323903258e+00,-2.492507767093200322e+00,5.596325366663924328e+00
1.345348426196806058e+00,-4.697889635422071386e+00,-5.347579696107885860e-01
3.761865356547021477e+00,-2.805726151431266580e+00,-4.808291472347203110e-01
-2.397839876067287435e+00,5.145756300491555635e+00,1.626686423529920544e-01
4.338470811001623240e+00,-2.520991439402292311e+00,5.571736469603063568e+00
5.884331570690041202e-01,4.043690970887506175e+00,3.342088258257117861e+00
-1.508948371611046557e+00,7.394393160373720075e-01,-5.196975770481679469e+00
3.037782701756212678e+00,8.470500679663134358e-01,6.804355078185526651e+00
-2.273780630627120214e+00,3.228026969485805475e-01,9.982394843843581667e-01
1.272072213056550660e-01,1.379917872670653356e+00,5.149479425571517055e+00
-1.014006900519117016e+00,9.594660670686694370e-02,-5.207914423342359989e+00
4.568629756148276932e+00,-4.313934691226176454e+00,3.528507409136302897e+00
-1.564180168454222031e+00,-1.448550434577365209e+00,1.484899528945752001e-01
-3.455743693346398526e+00,-5.282696491398006788e-01,-2.791117063574794166e+00
9.391160730370433640e-01,-4.692777646256618418e+00,-3.798838006655325117e+00
-2.822969568799287288e+00,5.302389631202554021e+00,1.169276269386925859e+00
-8.647574391487483636e-01,-3.865867104664470588e+00,-4.718637878894518245e+00
-4.666409220212545117e-01,-1.418796089071223954e-01,3.413482372282214516e+00
-3.885563026564615718e+00,-6.998929373753360883e-01,-5.754653574526995996e+00
4.025434519209619921e+00,-5.193884008179840528e+00,5.688059516779622182e-01
3.598647088982433129e+00,-2.027672383555808366e+00,5.786666666151586647e+00
5.112699912105537869e+00,-3.765780845565412704e+00,3.228649902824501705e+00
3.059696052736516236e+00,-5.147363701303880212e+00,-1.542014101360875467e+00
3.421694927157513444e+00,-4.032626584393710800e+00,-1.477767221294213673e+00
-1.062320823619874899e+00,-3.582174539839102501e+00,-5.282953302525466910e+00
2.730330102570163398e+00,1.701045104015998843e+00,6.502226002030283780e+00
-1.383762366985207048e+00,5.375574946622808659e-01,-5.206224000466837865e+00
2.356860558262964922e+00,8.478553588781058137e-01,6.646764155410534336e+00
1.201678704258534180e+00,-3.393585624994127858e+00,-4.434393436860784021e+00
-3.428287574551741046e-01,-1.929324767085675019e+00,-5.620118023447998823e+00
-7.753248430646756395e-01,2.693661326696595637e+00,-2.290182279037143331e+00
2.109627319028899883e+00,-3.036299148218310595e+00,-3.208418243365140032e+00
2.428811805731068141e+00,4.109966185057357113e-01,1.595344535707528266e-01
-2.596785387650067389e-01,2.325282886046096120e+00,-2.003513432877323197e+00
-1.081383376805602758e-01,-3.930246967539662961e+00,-1.635065859518608500e+00
4.628634324355267893e+00,-7.802145762579919541e-01,4.657622938511945421e+00
3.990437006561300404e+00,-4.817852244545321461e-01,6.565606270656810572e+00
4.532461284433975557e+00,-4.684991479348195931e+00,1.058212537418238730e+00
4.130554662696422907e-01,-4.523210875149056953e+00,-2.196077764603631355e+00
2.588569885577244545e+00,2.269387837878620306e+00,4.233911515730633290e+00
3.414546285343820209e+00,-4.444487248353462761e+00,-1.463952651346813738e+00
-3.156132384138796709e+00,1.279995961078981725e+00,-6.062638546561481157e+00
-4.564896486161473255e-01,3.947615355300610585e+00,4.827737968480598774e+00
3.154608139017422097e+00,1.647110700124533533e+00,5.855650187344282998e+00
1.047740192551333882e+00,-3.994370248640650711e+00,5.354687567752527411e-01
1.756598968308516806e+00,-4.534097537177813386e+00,5.284334015472140766e-01
2.420143514080807634e+00,-5.136005296950603594e+00,-1.270080769730381476e-01
-4.625797837823339975e+00,9.894025710251800332e-01,-6.146189298902334563e+00
-7.837451598115838802e-01,2.150555618084676990e+00,-2.988720840154813985e+00
-4.259954544735307103e+00,4.959730045917404517e+00,-8.554077448305505982e-01
3.431843826092646932e+00,6.375233564084459292e-01,6.665774801656121795e+00
-4.874631656739677327e-02,-1.446374403753462712e+00,-5.086447072940534220e+00
4.822787429496504075e+00,-2.961092377439360934e+00,5.062164913019572943e+00
5.190617398801201432e+00,-2.262321469116951533e+00,4.756588933912777151e+00
-1.993215749964794670e+00,-6.833452035805107627e-01,3.440755902017099688e-01
-1.292477117451235724e+00,-2.602947797484421066e+00,-6.145672588180624452e+00
4.811017782611709315e+00,-4.564674064265473064e+00,2.664371939473176631e+00
-1.237226661989572873e+00,2.424703251976381146e+00,4.098865184955297281e+00
-1.704550358295070955e+00,5.064845592552960518e+00,1.048403275648793098e+00
1.571633663836380368e+00,-4.290036018317001099e-01,-2.303313641150367630e+00
-8.428151629843056991e-01,3.811832516416413075e+00,4.734287545213319071e+00
3.057634301698870072e+00,1.640863977316206146e+00,6.215494123934687032e+00
5.018558381568465343e+00,-3.380318717221154401e+00,4.405886976754217699e+00
5.172788207864171817e+00,-3.210660505637438433e+00,3.965252151197692587e+00
2.850764201685889176e+00,-3.184367004688158698e+00,-2.188454179600713090e+00
3.109975989369100358e-01,-3.450691583528630257e+00,3.692991444432612291e-01
-3.578613984634433809e+00,2.010893217345915696e-01,-1.870670973328849795e+00
-4.080144823896691975e+00,4.335608558783166089e+00,-3.400533952595760301e+00
6.934186569937433875e-01,2.539303073799904276e+00,-5.893854782674530501e-02
1.166767329377135676e+00,-1.324604962093901106e+00,4.306327844507548797e+00
1.693128710780018364e+00,1.783507871491522012e+00,6.065347515279814194e-01
-1.206506716251538602e+00,-2.592289262228440361e+00,-6.110430478422469669e+00
1.836676199574982071e+00,-2.250935776543893097e-01,-1.689683601294770687e+00
2.730159628890165724e+00,-1.078280303972810383e+00,-9.990246122086857694e-01
5.121122934275911476e+00,-2.352434823499924832e+00,4.977109860101901262e+00
2.640252165886024738e+00,-2.366896518547891848e+00,-2.133378229347027588e+00
7.928519701430359889e-01,-4.800844690964025219e+00,-3.324825778712407143e+00
3.237158139841202598e+00,1.361099944557726815e-01,1.438909564530436835e+00
1.917051162798171005e+00,-2.374362584707021551e+00,4.057908928135130822e+00
3.820519891228384424e+00,-3.405136337930691592e+00,-6.318684083123359274e-01
-3.905789396929445267e+00,2.693937333873242412e+00,-5.307372970675939605e+00
-4.118073815618705780e+00,5.161678079843033728e+00,-1.266546708182464620e+00
1.358881801835865044e+00,-5.013518387666090703e+00,-3.147207089100036104e+00
-4.101205207410867359e+00,5.196067219309171037e+00,-8.621602166478322671e-01
2.109384425163759680e+00,-1.057913113806805638e+00,5.531299098544842252e+00
1.314416173141127686e+00,-3.397115750155371011e-02,5.515648275150830671e+00
3.228090680122809863e-01,4.165508705663730105e+00,4.507084673815548115e+00
3.337016332049836720e+00,1.452794825022596825e+00,5.312865242457440296e+00
-4.472614290370049983e-02,-4.255206991209738554e+00,-4.622289040227876455e+00
2.621233255794972905e+00,-5.273191864262037676e+00,-1.115624920395130726e-01
-4.128422081532082899e+00,1.821117005035137071e+00,-1.182279606268222594e+00
4.388940081673742277e+00,-4.921542665027980767e+00,2.080579397575174294e+00
3.623624474170247467e+00,1.037581405001163581e+00,5.868291594953311652e+00
3.628973137817241401e+00,-5.330292170110528360e+00,2.729017637619557402e-01
1.196146999568762359e+00,3.338792196802163215e+00,2.671605959859440382e+00
-1.793793625405990078e+00,4.131081944296527197e+00,3.668086373470212713e+00
-9.334281585079473587e-01,-7.305753184406542644e-01,2.098551188932470613e+00
-7.093439474333789185e-01,-1.564902088975875571e+00,-5.803294535246993568e+00
-3.768806491358375421e+00,-2.681270979258895681e-01,-3.219537751898231104e+00
-4.664729350250397921e+00,2.440915866471826678e+00,-5.573736225003617761e+00
-5.214608488702489275e+00,2.621984708865284119e+00,-3.920964772873948956e+00
-2.421824830550088237e+00,3.177146461194972460e+00,2.826265979343836943e+00
-5.080547573521510429e+00,2.063352607884979317e+00,-5.390875240142558589e+00
2.177479639208257378e+00,2.017134154185259209e+00,6.430774901143171185e+00
-3.814822526626885146e+00,2.436888522763117848e+00,9.353931026419609607e-02
-2.565074535390375665e+00,3.364194313391325242e+00,2.669009832422303941e+00
5.179692250535852693e+00,-2.796911768540730314e+00,3.778281469147285243e+00
1.686622224145026161e+00,2.841578178212902372e+00,2.749106768825436031e+00
2.357167241636834998e+00,-5.044512357183455364e+00,-2.464484917087666815e+00
-4.125407639620127243e-01,3.025073793452956572e+00,5.158216996950670818e+00
5.171668322676994833e+00,-3.558476823978145021e+00,3.914591526008829536e+00
7.865368240768998154e-02,3.430839801995444027e+00,3.712767160206682515e-01
1.709188863467437036e+00,-2.688887966404557073e+00,-3.656300984066660931e+00
-4.818587274436384682e+00,1.376119450705584502e+00,-5.642062908994883941e+00
-3.559270256551504641e+00,1.527174901685269592e+00,-1.900121026856802786e-01
-4.397444535437814217e+00,4.967122165243009313e+00,-1.643118767616985165e+00
3.111945841703513072e+00,1.221375690086569765e+00,6.579283409758874157e+00
2.286269917623584114e+00,-4.721401882262242999e+00,9.020585154716838083e-01
-6.850064426177423504e-01,-3.664823881640236536e+00,-5.284947726492600140e+00
-2.874173587427781840e+00,3.081718598156875100e-01,-6.517435194797022824e+00
-4.350588177440124049e+00,2.336559013893761971e+00,-1.145791363176124733e+00
-2.574574868645583603e+00,3.813974971214151299e+00,-2.932061194298862805e+00
3.667923753597142955e+00,-4.907969280035243465e+00,2.017725294262616931e+00
1.999015433438188882e+00,-4.350799832425119362e+00,1.288213755859463072e+00
-1.382825323154595054e+00,-3.434169728358504425e+00,-5.031945713434292422e+00
2.031617979992661915e+00,-1.249322173423923932e+00,-2.299822714497391285e+00
-4.225466798791429390e+00,6.243446498903515440e-01,-2.958717756470595095e+00
4.304447345708370065e+00,-1.498070695161532795e+00,6.187583506700074842e+00
-3.432235008140239518e+00,4.227680368409638234e+00,-3.122966575837129000e+00
1.796406508321196194e+00,3.161021940855987644e+00,4.714494816910013597e+00
-3.481237176235956632e+00,-1.479074452006699236e-01,-6.682107450134004090e+00
-1.854460963722641020e+00,4.528089537982117885e-01,-5.694415745875191170e+00
-4.828185276150635197e+00,1.659650499398859669e+00,-5.826603158124171067e+00
-5.368227351144261306e-01,3.378471205820142931e+00,5.070864666102393947e+00
5.111423362199266407e+00,-2.303803302356504101e+00,3.959635833052515874e+00
-4.387850405349449923e-01,-6.840782538298046944e-01,-5.095605200075116414e+00
-2.870206483890827553e-01,1.946072710502031233e+00,4.998491967202164155e+00
-5.946070074753334600e-01,4.428238047202633254e+00,4.458597905704272613e+00
7.186442141605990930e-01,3.818408426866331418e+00,2.983583262900790345e+00
8.220372613297198816e-01,-1.776970181559084594e+00,3.449671579751594663e+00
2.946638567198125447e+00,1.953868763955515231e+00,5.364869997927283585e+00
1.042007139245989533e+00,-4.880855277168126172e+00,-2.200743899103053902e+00
3.909432345596114633e+00,-1.360236601199056761e+00,1.095865819989413348e+00
-4.933369009036370656e+00,4.125451350419659491e+00,-1.895185033318546930e+00
4.633840010627062966e+00,-4.629352156866329615e+00,2.470049775949823445e+00
-3.465252293704722319e+00,-1.230151846904379731e+00,-4.434689791784874657e+00
6.575492904745159350e-01,-4.741259466331799288e+00,-3.687782060330917044e+00
-5.403088785746987810e-01,1.265852014385572710e+00,4.326698006271485930e+00
4.452423880016201707e+00,-7.362795936784103379e-01,3.523440911741556381e+00
-3.835734653256489324e+00,1.097681879194747356e+00,-1.241590133513412519e+00
4.088600924292610905e+00,-1.204266233063507885e+00,6.339137820586301153e+00
1.474950394068801129e+00,-4.992788178212722805e+00,-3.166858238520118274e+00
-1.425837386851693145e+00,-2.173286751665345129e+00,-7.218278774323835245e-01
4.956544816260671560e+00,-3.385128612746145293e+00,4.701559939799150989e+00
9.668724572948522722e-01,-4.339564426522295904e+00,-3.130914295082876109e-01
-5.175075407594599497e+00,2.705760432122809700e+00,-4.667428016691409276e+00
-2.055548689794964634e+00,4.544804590839031100e+00,-1.064863427557717346e+00
-1.776584817508867487e-01,1.167094608300432323e+00,4.713615637659681390e+00
2.900456940309332321e+00,1.352729384028454218e+00,2.817717141645629919e+00
1.574604798595886201e+00,2.537541886145646242e+00,6.291410876173898714e+00
-1.684159390137898837e+00,4.029421626400777612e+00,-1.470836621729625149e+00
3.797083004687833885e+00,-4.217048809512643714e+00,3.387694622781780573e+00
-3.029135742015220512e+00,-1.795667947658357910e+00,-5.631945018887838827e+00
-3.251896893394838006e+00,5.786994855465947829e-01,-6.545909667108635865e+00
4.513793512171410782e+00,-6.710379982370427987e-01,5.998156563336610070e+00
4.137677870761701904e+00,-5.078176607905247941e+00,1.355889919116659126e+00
-2.157658207669237882e+00,1.226351808300200741e+00,-5.404712295537801303e+00
1.810482201872560593e+00,-4.845026647228733552e+00,-2.625226609082142309e-02
-3.910105900521689382e+00,4.932696387332267562e+00,-1.967868877122758375e+00
-2.811030728344192653e+00,3.335806601047706654e-01,-6.446156118278881131e+00
2.972383747277858590e-01,-4.569486778958712137e+00,-3.436876210385339192e+00
-1.482310437192260633e+00,-3.150213205434923669e+00,-3.087207863249568973e+00
-4.378881682980376944e+00,2.373999607992264504e+00,-1.244527967986752470e+00
4.780491395755385398e+00,-1.195428949262730134e+00,5.632341107975330274e+00
-2.418750333156293841e+00,-2.463639804764876207e+00,-5.514444573851628562e+00
4.954855783652108769e+00,-3.478438491002744382e+00,2.067266767124580795e+00
-4.266970054080775121e+00,3.472724535645294708e+00,-4.593287521459300748e+00
5.089998265664834598e+00,-3.106016014068280207e+00,4.708733832916594864e+00
-4.736957130138588212e+00,2.972629682107026827e+00,-5.088790045492246783e+00
-2.581946124508974205e-01,4.544878350040221449e+00,3.123138223971074989e+00
1.651945081850672681e+00,-2.625970280791625200e+00,3.474879750722074334e+00
4.055800888027530249e+00,8.278366257871773437e-02,6.409808643205488821e+00
-2.957552699374439431e+00,-1.920245276649301891e+00,-4.706230958143010845e+00
-2.238359465582947738e+00,5.059082117885566277e+00,1.514884078220012920e-01
-1.147790374242415368e+00,-3.324032207074806955e+00,-2.679025863896809856e+00
-4.491196107172817698e+00,4.820765020722048710e+00,-9.171380108688964583e-01
4.262381279942863088e+00,-4.858202850347935531e+00,2.179398516122183160e+00
1.205192276183763678e+00,-1.523419470220902960e+00,-3.680049536649193875e+00
4.957981488192451991e+00,-1.686435560590273663e+00,5.508887388126224138e+00
3.074593827402656299e+00,9.199464532240861914e-01,2.429004968355934935e+00
4.505753848645328574e+00,-3.342273678995904884e+00,4.805639955186595813e+00
-4.198985512933000486e+00,6.855255299325512253e-01,-2.837212412668444816e+00
1.900152707051822043e+00,2.865529819949418133e+00,3.609078328452313578e+00
8.919497901774439685e-02,4.299626032370435169e+00,4.294820739297480650e+00
4.642788973829031107e+00,-4.706376774380657935e+00,1.812164068763095326e+00
2.061928481032191673e-01,-4.119940216491717599e+00,-4.867889878316867147e+00
4.233020174199871200e+00,-2.949196989352770970e+00,4.614187268278873710e-01
-3.726146727033595174e-01,-4.049734610384607691e+00,-4.774749494064574051e+00
1.661894812026755597e+00,2.524484554147357063e+00,1.912355550772530499e+00
3.310965450805869459e+00,-2.644984994963986424e-01,6.680270172539111151e+00
2.016013967787881889e+00,2.040931011219484947e+00,1.782572048645250984e+00
4.048667610576208276e+00,-3.009704336599394736e+00,7.495974757090789753e-02
2.916901196366531668e+00,1.946804516100000715e+00,4.471927112982310604e+00
1.832200299357513940e+00,3.069756381404622481e+00,4.235386999603879765e+00
-6.289211561234487879e-01,3.131773512081408750e+00,4.890456770328141189e+00
-7.731583944436370981e-01,1.836675200208673475e+00,-3.281963915329033643e+00
-4.376470223020690220e+00,1.810182294153224181e+00,-1.818405533322583256e+00
8.692151697984653591e-01,1.414774130204977665e+00,-1.373007066852776292e+00
-4.235571781716397588e+00,3.130543111768181674e+00,-4.204000007928851423e-01
