3.787525183766949688e+00,6.130738758640743136e+00,4.340476493507825495e-01
6.444924034015461878e+00,-3.105439142578321141e-02,4.919979481084011952e-01
-4.000072777854016159e+00,6.638227648406445525e+00,1.668174082039237671e+00
-6.883378643823809817e+00,-3.129921995947424040e+00,-1.951155165316730555e-01
-3.506877699346922395e+00,5.339703372946112303e+00,-3.031348179956834255e-01
-1.674416923196705209e+00,3.156372419594981604e-01,3.155193458590771272e+00
-1.027801558813867722e+01,-2.161092484005300740e+00,3.949886439712107400e+00
7.735167792643194318e+00,-5.216281084660184142e+00,-2.473588408818801820e+00
-1.146237561819712525e+01,-1.243417166082446901e+00,3.829218077731497250e+00
-8.611739995633980627e+00,-4.219297776395848132e+00,1.112089469551015286e+00
-2.178242348683700147e+00,-1.659171678599544508e+00,-2.093773187509043510e+00
1.098467080596940981e+01,2.888425475775829199e+00,-2.486610630084920004e+00
7.599433206825503273e-01,-5.091214585430223316e+00,-2.348885885741422985e+00
-2.384760336313888340e-01,-2.586795256935188636e+00,-2.578216075661025730e+00
-1.189611430700364958e-01,6.132949794474028771e+00,-9.925194396266435737e-01
1.309709619444987538e+00,-1.898936734526157633e+00,-3.040334338566086814e+00
6.320823074056247215e+00,-3.775655462552891972e+00,-2.269286610659935755e-01
4.448844276347544202e+00,-3.110793767118707809e+00,7.680831189721852859e-01
6.404214745102085438e+00,6.003748282441053519e+00,-1.044741757941998639e+00
-4.856772079768671091e+00,-5.723959111255799037e+00,2.276830477223944715e+00
-8.033124321368855902e+00,-3.289289657116051036e+00,3.692983195677320030e+00
3.418107302733874420e+00,-5.640745560170699058e+00,-2.677374547838965668e+00
-5.712656447030473039e+00,-3.768092319275959223e+00,3.306376877391782543e+00
-1.021606991911158957e+01,-3.266879327723883897e-01,1.419977840104832634e+00
4.651252113311088898e+00,-4.762671906366912289e+00,-3.181821679468054942e+00
6.955103922220962076e+00,-5.482501620422023159e+00,-2.620285327800651931e+00
1.059133622852776746e+01,-2.709317198092954904e+00,-2.537465531444364153e+00
5.757500028237492185e-01,7.087878861845711143e+00,4.840663592219191652e-02
6.408927562522301002e+00,1.149055091403943463e+00,5.417071670408430961e-01
-1.470526886261280364e+00,-2.839435982178206697e+00,-2.222367845017346522e+00
5.905844887911522179e+00,2.264664834381423741e+00,6.702688768811828623e-01
-1.190571000944222035e+01,3.385942317705740723e-01,2.987085042746814079e+00
1.144965616776852180e+01,1.472180408278063179e+00,-3.814627555343818255e+00
5.069602688349273301e+00,-6.132167646273262385e+00,-2.193212188330529333e+00
-7.144015058638885307e+00,3.353095670233636305e+00,4.641218764453010071e-01
-5.540235283911018271e+00,-6.201394170839765074e+00,1.799144524367083608e+00
4.903884438582672978e+00,-6.042258793442833564e+00,-9.024132548909357121e-01
7.997804261995739239e+00,4.535072994247221878e+00,-3.164699438133244058e+00
-1.105960989782798443e+01,-2.180380639984623503e+00,2.323953909184665267e+00
9.742608796323185771e+00,-3.741648101885736821e+00,-3.433477822394775281e+00
-1.067517532014758430e+01,-1.728312326278496514e+00,1.850141180090454140e+00
-1.084746530860868141e+01,1.323764682096705558e-01,4.145608341916124040e+00
-8.711417375657942941e+00,3.109420039019302529e+00,1.246944693762402689e+00
-1.247100811301797396e+00,-6.806227400902510993e+00,7.170416018796138546e-01
-2.233532581136369100e+00,4.777865265712928355e+00,2.779222816266410767e+00
-5.737951126869956120e+00,1.469285768052555792e-02,-7.574982269259143974e-01
1.159072878795216610e+01,1.701668229597411486e+00,-2.770826143504879102e+00
2.864602730133305908e+00,1.010566937698364365e+00,-3.356118309384819032e+00
-3.320067939451623040e+00,6.054976484346011212e+00,1.585131903502545736e-01
-9.717510546042216646e+00,7.961855314551461449e-01,1.266960656943074692e+00
-1.177619716291986229e+01,3.547791514571135146e-02,3.049151758390270306e+00
8.254009594869289757e+00,-1.883782659233550261e+00,-4.168649457425368077e+00
7.534947595941125620e+00,4.501390266126271911e+00,-3.133206018364536494e+00
5.346537651813229708e+00,-4.096087726409251673e+00,1.211764189896518962e-01
2.035214648635321311e+00,-2.660132224143822999e-01,2.073798465516372591e+00
-5.745172934050394531e+00,-6.291168282440050774e+00,1.292163677075707451e+00
9.267200511576213273e+00,-3.927241835122594171e+00,-2.108950382226374654e+00
4.402081516031407737e+00,-6.370558503397848682e+00,-1.113193147073910927e+00
-6.470659007190080914e+00,-2.869684925533209086e+00,3.687328099533729198e+00
1.182482543029228950e+01,1.607304737640622150e-01,-2.982900691873245691e+00
1.029800979394646276e+01,3.653347018450350703e+00,-2.940247539575982838e+00
6.286372587754921248e+00,5.862292274552097560e+00,-6.471411803379800709e-01
-1.007858768491131585e+01,-4.671670240709482197e-02,4.270152181868563268e+00
-1.172835669825338556e+01,-8.020407462865448700e-01,2.907309275568823903e+00
1.591324716274510775e+00,4.945170378029106750e+00,1.745269141282765002e+00
1.975511839129446168e+00,-4.608531403495075729e+00,1.174358174320707660e+00
2.312812971793132277e+00,6.737422854539037331e+00,5.327033971092463016e-01
2.731215432551074684e+00,-6.779707254222810064e+00,-1.249373587631246840e+00
8.079888950137389614e+00,-4.335071108228627068e+00,-1.513104267413045045e+00
-7.780403227494570473e+00,-5.713506207653921143e-01,4.186251794067445076e+00
-6.482272212068322936e+00,5.805949708336890502e+00,2.107447026905581833e+00
-6.144478889372011476e-01,6.850687904393806704e+00,1.204698404099355136e+00
-2.058957305155055539e-01,4.923803499374747261e+00,-1.616995081392876399e+00
-9.318305262767047736e+00,4.073335357418467195e-01,9.827463486051493113e-01
-9.132949057004066118e-01,-6.197072806596876759e+00,1.222119253112387005e+00
1.285241507580184850e+00,-1.525067393555560091e+00,2.159141939945512068e+00
9.697051587691591479e+00,1.653666741871904433e+00,-4.122694295935515285e+00
1.209130991810323907e+00,4.659623094033904955e+00,-2.071128181280585068e+00
-1.091482065633841181e+01,2.395757151904756466e+00,3.411386534057045061e+00
9.437021544715296528e+00,4.540984432241050861e+00,-2.397004701631802348e+00
1.403030740550264666e+00,1.600429967249802576e+00,2.333223750433149224e+00
6.058610020546374209e+00,-7.096039571764831688e-01,5.608027456410162870e-01
1.051837675198935251e+01,-2.927153875787110948e+00,-2.764714109620585614e+00
8.701202000275550796e-01,-3.725061024118330177e-01,-2.944381802350429123e+00
-2.470895749638517547e+00,6.504696136940723683e+00,2.079716220313141684e-01
1.040972038617127282e+01,3.510531856428233510e+00,-3.025451470266011356e+00
1.179339156680691580e+01,-9.389912202285068954e-01,-3.478781651170756994e+00
-7.938491175716824166e+00,4.793359917286664995e+00,3.038957361730720397e+00
4.898878503907191373e+00,-6.281007405507892827e+00,-1.270783437544229288e+00
2.845732874576170524e+00,6.629921003461404005e+00,3.278492988624372995e-01
1.871388750571089998e+00,4.776394729866550448e-01,-3.137265188947569339e+00
-1.047494119414223412e+01,-3.487680107372868932e+00,3.070161761630274544e+00
3.728702088369703738e+00,-1.685735406733195330e+00,1.328977195757002683e+00
-9.439880317923028841e+00,9.284254108125161720e-01,4.281134462953446906e+00
3.332208851706721209e+00,-6.471847235840795243e+00,-6.250118811539816521e-01
-5.285775080714776308e-01,-6.025239356687747794e+00,-1.601021850969597926e+00
3.942284329071023219e+00,5.383235535354542023e+00,7.357589108779707399e-01
-1.050349262312969323e+01,1.564469337568141105e+00,4.106167261175156291e+00
-1.197698421611548980e+01,-6.951561388850170664e-02,3.104199643442444589e+00
-5.124313180948782964e+00,-3.128770171327603933e+00,3.372347341037362334e+00
-7.426488459709670309e+00,-3.212391164834681234e+00,3.626370666410326571e+00
-1.894404168214130602e+00,-4.377094952549701823e+00,2.380822774638962080e+00
4.463563810685925448e-01,4.795809322973994426e+00,-1.841107107319868597e+00
3.173483318961964894e-01,-6.217976407084125690e+00,8.605600161026535355e-01
-2.271334010875488918e+00,-6.971874494065794181e+00,9.506818686665554491e-03
-3.816309158037455296e-01,5.964588804862808402e+00,1.859131092540943886e+00
1.175114442639126722e+01,7.639516153352360339e-01,-2.996849634320190692e+00
2.478977916093904277e+00,-4.377931523526076063e+00,1.114672900767562425e+00
9.664576674267502554e+00,2.416192686717043792e+00,-1.229786929103838355e+00
7.128937980102293404e-01,2.706871188027700104e+00,2.446108761458596348e+00
-1.092015350166390952e+00,-3.888583399521508888e+00,-2.139238652011183461e+00
2.585399537474030840e+00,6.997789432677505417e+00,-6.537152922116070686e-01
1.036712343353114996e+01,-2.261224500667449178e+00,-3.945891979411016770e+00
-1.874192545966901102e+00,-7.001501373129063843e+00,5.625701273425725013e-01
1.183023900583786769e+01,-6.907904866162251079e-01,-3.158396399719455960e+00
-5.299606694698865361e+00,4.720376570792999438e+00,3.322404287854054061e+00
5.286875539642579724e+00,-4.820595655122498435e+00,-3.280224804286738571e+00
9.834179556949470324e+00,1.398257274534807415e+00,-4.111897766703842549e+00
3.663557184700498404e+00,-9.668346317955180957e-01,-3.635808348817380686e+00
9.902241063018903944e+00,-5.394447024860876509e-03,-4.257142175100730341e+00
-4.366896306458194488e+00,-1.896194104300067629e+00,-1.299589163967493910e+00
-7.901376227159261134e+00,3.389602190384007230e+00,3.833975966894460630e+00
-8.809629326895123569e+00,2.946771078629616625e+00,3.940515088362151364e+00
-8.659074458772574090e+00,-2.244604960334370070e+00,3.987626069926874184e+00
-1.122525252976160459e+01,3.605038775071698343e-01,2.253744722558994162e+00
6.860414265121154820e+00,-3.416022846439458860e+00,-3.367254858744266888e-01
8.959629745907651710e+00,-4.512950821095309983e+00,-2.882207449201631189e+00
1.056666630140060542e-01,5.639323027025834101e+00,1.969436474471525145e+00
5.581036141659482475e+00,6.215686850497032623e+00,-1.855855020885018414e+00
-6.562537656510483153e+00,-3.379064737806684704e+00,-2.723662085791765386e-01
1.030978270500783500e+00,2.529734636817787763e+00,-2.661782897862036368e+00
6.028450608246998854e+00,4.620870393048035041e+00,1.990617327358499833e-01
-9.777558963106757872e+00,-4.079165961002757079e+00,2.974290664919258198e+00
4.445127006864366237e+00,-6.230991003113969029e+00,-2.316840916500950254e+00
7.113363268682865836e+00,-5.356740270974158946e+00,-1.895256424397554040e+00
-4.381464686628433469e+00,3.996477615330671807e+00,3.381362606730364373e+00
-6.367770555794512788e+00,3.591964295564240572e+00,1.953481382121356191e-01
1.209415181648068049e+00,-6.982463806149573848e+00,-8.855309407959546242e-01
5.686047756779710305e+00,3.328289563890141967e+00,6.248082238445927805e-01
-8.834398687684894114e+00,-3.564262692309857705e+00,9.828113879059263702e-01
-3.171070778469034845e+00,6.804166812397200559e+00,1.422415212020178288e+00
-1.169877821855042654e+01,-1.428386988618215225e+00,2.882573069986779757e+00
-5.376718108835643051e+00,6.200684455176384446e+00,1.494290606986290237e+00
1.157002976098097591e+01,8.629023402278498400e-01,-3.766011984438005555e+00
-7.955488415336254171e+00,2.357099201879031547e+00,5.809654089848046432e-01
-2.866933890702336285e+00,-4.040840729269530307e+00,-1.594267508221114404e+00
7.078312925108704690e+00,5.497041428998389101e+00,-2.366793776256064241e+00
-1.054184875931004228e+01,-1.390219642132910272e+00,3.985975000624481179e+00
7.599086739100804344e+00,-1.875068386810351706e+00,-2.834480611046218401e-01
-8.149588402087086791e+00,7.038943494740814710e-01,4.240770300564312478e+00
8.376226288460117075e+00,-9.218781939908324841e-01,-4.212899318869971488e+00
2.723103062686560882e+00,-6.201359968145173873e+00,-1.752060620025707241e-02
-1.003561570429468652e+01,-3.953158286660163778e+00,2.156983076326941973e+00
7.546963060317227523e+00,3.236486586328400694e+00,-1.748481872314051055e-01
8.460254892415280281e+00,4.373304624034066279e+00,-3.203451447099675775e+00
6.025896287173560850e+00,-5.069594942683339767e+00,-3.137659328284351012e+00
7.698867082150331775e+00,-4.990427815628896369e+00,-1.859124175893171138e+00
2.093627208535157713e+00,5.791366969668493958e+00,1.274243189539770560e+00
-8.790123747362891038e+00,-4.908124608258102484e+00,1.923927797320567734e+00
-5.506564139593669083e+00,6.149326524723833565e+00,1.511580512104736984e+00
-3.437858736707243956e+00,-1.065005698087603703e+00,-1.674371919350778892e+00
-6.370841164903630727e+00,2.203544720129049228e+00,-2.389983456536833584e-01
1.081303556856298798e+01,-2.718562690148996541e+00,-3.006114092480302702e+00
-9.731700522986820090e+00,-4.197442569816817404e+00,2.091235966360526444e+00
-2.855676051421618844e+00,2.062457566398594899e+00,-1.577153667346411048e+00
-1.049124836874842259e+01,2.957739528250425298e+00,3.289099184038120516e+00
-2.221774883555363456e+00,1.026174057052534838e+00,3.311558130049549575e+00
-9.458220049419727715e+00,7.202825636691603250e-01,4.244412339570914128e+00
-1.945269823870978243e+00,3.098972075965195305e+00,3.117706117667298660e+00
-2.891982758044687740e-01,7.509848667194579663e-01,-2.560874627016075156e+00
-1.084401354053268385e+01,-1.939401875599123581e+00,1.988203715152748075e+00
6.810193292959930034e+00,-3.457144881295863392e+00,-3.801126863556991697e+00
9.644525295417262001e+00,-4.033224453337330928e+00,-2.929260311167226405e+00
3.383325146377920145e+00,-4.968174146430240690e+00,4.957161537027789389e-01
-5.554304173462798033e+00,-5.683555456428554642e+00,1.329656211204026106e-01
9.650288628832209170e+00,-2.877688389267211821e+00,-1.765257639461404349e+00
-1.024855769813932937e+01,-3.425300290124912550e+00,1.923618089776483853e+00
3.368494781878931921e+00,5.645316337396222295e+00,-2.143357660428636624e+00
-9.648878967584144206e+00,3.900872709017116247e+00,2.616197825050530668e+00
5.345626401059555555e+00,-1.651524696343424248e+00,7.661258027275913429e-01
4.734152749765293322e+00,-6.164791559158619094e+00,-2.316205203265332191e+00
1.000379570937937501e+01,3.298407816610043675e+00,-1.599982122100596982e+00
2.640416319872736395e+00,6.948835740222526702e+00,-3.027558582350327043e-01
1.182245430805870612e+01,5.765895308528162788e-01,-2.859827173478025397e+00
1.158084777897753215e+00,6.610183531272189050e+00,-9.076549312200692388e-01
2.448599768490149486e+00,-6.933686771977401797e+00,-9.741013546428548553e-01
6.550617679010906080e+00,-4.283167722249958231e+00,-5.485417053394733289e-01
2.807930147571010782e+00,-6.817330383031577234e+00,-1.056544036783422458e+00
-1.114176144381452183e+01,-2.672300449247547505e+00,3.156521408560801323e+00
-1.125651552001793121e+01,-2.386217722042003775e+00,3.422769652510520011e+00
-6.705925809526470438e+00,-4.937140865338099260e+00,2.854756320828534921e+00
6.314482074870992001e+00,-5.060707685822422697e+00,-9.409968911772680356e-01
-8.558558919341049176e+00,4.380673660697896210e+00,1.972937668277310763e+00
1.108646591004854898e+01,-7.193635210899981258e-01,-2.141505533654024074e+00
8.496030054353299832e+00,-4.157179735826018963e+00,-1.647638575164085406e+00
-1.024441988697721850e+00,-8.490558713704873250e-01,-2.462757316897697724e+00
-1.114793828572509327e+01,4.510886899864953725e-01,3.990002252358506585e+00
2.719197788957837147e+00,-4.002749586322526199e+00,1.153461237221516278e+00
2.752661141342907847e+00,-6.152064059364252380e+00,-2.233366260740440090e+00
6.691718308700807860e+00,3.826895682930310905e+00,-3.392209316478345116e+00
-8.451663493493457580e+00,-4.900837587878841717e+00,2.717560210785066932e+00
-1.470640420864508302e+00,5.482932811393723682e+00,-9.455924699075326512e-01
-6.427075690083343673e+00,-6.132035818652274983e+00,1.520214390028835627e+00
8.528962195272881130e-01,5.310101010628801355e+00,1.892870580417325366e+00
1.842760164250434762e+00,7.037705282531281803e+00,2.390751550146696658e-01
2.164501741587717021e+00,1.574054178603017329e+00,2.082599371253314402e+00
7.698178193557955851e+00,5.370679511021990038e+00,-2.339620211117367621e+00
-2.851832050614704905e-01,-7.088609605815047177e-01,2.712450900376436991e+00
1.125388855660845877e+01,-3.187938817720663287e-02,-2.238911079140370131e+00
1.114463173431018994e+01,-2.171788021291354287e+00,-3.311172990978996200e+00
-8.620750278264861066e+00,2.011143270815795692e+00,4.179111991133524384e+00
-4.859230373333552677e+00,1.980297046706943398e+00,-8.597164321731972647e-01
-3.437934709309878878e-01,-2.700143702156585057e+00,-2.583956603387457918e+00
-9.667608837033183633e+00,-2.914305719973052877e+00,1.339597217997998246e+00
-1.133195676546200836e+01,6.776035043468141561e-01,2.348832906448921065e+00
-7.806244244469725757e+00,2.756902577206418847e+00,4.050537376241686971e+00
-4.171637023428775848e+00,-6.773951939189504223e+00,6.355636058435768510e-01
6.649906986223776961e+00,-4.144338643207207795e+00,-5.751846039910959441e-01
-1.114134170905998111e+01,7.423987113081329525e-01,4.076880945293420488e+00
1.107783512772205192e+01,2.442503893709401463e+00,-3.608403813135646843e+00
-2.374440977971334021e+00,5.178164232110909815e+00,2.722375016474167353e+00
-9.753567818137895529e+00,3.558861911283301538e+00,2.418341266925542410e+00
2.253148932804107663e+00,-2.332233357458477485e+00,-3.256374010519227369e+00
3.276076109143125414e+00,5.945682850025412414e+00,-1.851606071307515089e+00
4.756870133762284958e+00,1.766209570169708476e+00,-3.622326483448454759e+00
1.008201661386479309e+01,3.588279932182112386e+00,-1.841133165585179032e+00
1.213471851477468944e+00,4.541211174083898960e+00,1.960619408413405207e+00
9.257010505936172251e+00,-4.115170645499349078e+00,-2.314482994873026556e+00
1.143609193764818244e+01,-1.408365535936811686e+00,-2.731386990083867872e+00
9.703844975865896672e+00,3.594966820987687495e+00,-1.576307384840718084e+00
4.697289386723058513e+00,-3.248216313813319100e+00,-3.609984703093879865e+00
3.788128980794474909e+00,-6.627161450829516021e+00,-1.492395880659821650e+00
-5.690722695204366133e+00,6.030684102071207420e+00,1.717592850402065663e+00
-8.466311303099709917e+00,2.099978035040150903e+00,8.208238402338279283e-01
1.030256465097213248e+00,-4.763846236977867576e+00,-2.510914664498782312e+00
1.083790060348383832e+01,-1.390045224638536192e+00,-2.104583757717169767e+00
9.127666303350233434e+00,-4.297496467647991203e+00,-3.101278118281281415e+00
4.617527997269846196e+00,3.832512664904443866e+00,-3.120822073790475049e+00
-2.950595808809150622e+00,2.738368652641698819e+00,3.390480949812858302e+00
-3.195869194161347071e+00,1.868673612001678697e+00,3.512023088544416360e+00
-1.077215081561409527e+01,2.315324060552603314e+00,2.563294915218463199e+00
3.827188079529092235e+00,6.526253877193393116e+00,-1.424742607192561739e+00
-3.323808575298042189e+00,-3.475197451722560338e-01,3.511942348988072560e+00
-9.746077915314121043e+00,-4.172172051368179702e+00,1.982823564912059133e+00
8.865439861155691714e-01,-4.803114111101052686e+00,-2.468158231193676500e+00
-1.191079461141740836e+01,-3.602673324311431724e-01,3.251417084057297124e+00
-1.090198378567762916e+00,-2.863501927716249895e-01,-2.404371424084976727e+00
1.620560942863750187e+00,6.927031460053518330e+00,-6.457737966019388987e-01
-1.149499059056041794e+01,-7.002013708536058978e-01,2.353603479357652795e+00
3.295391416849021482e+00,5.155323852289898312e+00,1.138968482489764122e+00
6.812146654460994988e+00,4.248412281731453355e+00,-1.738396816408451992e-02
-9.853427147949275877e+00,3.725631285079546551e+00,2.813916395880683652e+00
8.229285091595391677e+00,4.655565848580359933e+00,-1.097353138591084187e+00
9.776191763185622385e-02,-1.259876091409273924e+00,-2.765683103711316981e+00
-1.158681133032832022e+01,1.464942715760992220e+00,3.093758586744282280e+00
-4.573741587445406154e+00,-6.589924725512013026e+00,1.301235083275995796e+00
-4.802072740469063739e+00,-3.631265445211807386e+00,3.213731921743451458e+00
-8.540844498862009360e+00,-3.215231473694182274e+00,3.645804973211685951e+00
1.140807812966959744e+01,1.449239843637038394e+00,-2.365655484461695490e+00
-1.075191477403983242e+01,-1.352528470638221236e+00,3.964232123426212784e+00
8.913956631983671386e+00,6.496926409554951709e-01,-4.182586620358562435e+00
1.690081906303887438e+00,3.812465619380247528e+00,-2.526883765766500645e+00
9.745378215615011497e-01,4.417411834918108404e+00,2.099737646637915400e+00
7.572635547708395087e+00,5.181006989495681836e+00,-2.736000852436476283e+00
-9.050021217343626745e+00,3.400958253678854071e+00,3.747064779961267078e+00
8.858165017449884715e+00,-4.415363225426722771e+00,-2.566136386829128480e+00
1.084328418169286934e+01,-2.485841947152951370e+00,-3.344181939710368923e+00
-7.466785873671170748e+00,2.137169500586340920e+00,4.131843246360518584e+00
-4.545785824607885495e+00,-4.053204017756623756e+00,3.058571278835450880e+00
3.103172278917755378e+00,6.502153206677508734e+00,-1.457006473378365197e+00
-1.715589906824978916e+00,5.723714726723030388e+00,-6.882859278452801988e-01
3.799226397654001719e+00,-5.016731777782389656e+00,3.630855706672207472e-01
-1.114746575086151603e+00,6.424937306761177247e+00,1.793572007444547811e+00
-6.509085790490303225e+00,-8.080294263367147067e-01,-5.018960669600215363e-01
-5.007794110859675740e+00,-1.947708137937448569e+00,-1.048311002713908646e+00
-6.986149199472495575e+00,1.991652477230390295e+00,4.091462570125297127e+00
-3.190265406073492738e+00,4.221473453654684960e+00,3.163082151523479268e+00
-1.568212040196248047e+00,6.323755734165050768e+00,1.947870727621063613e+00
-9.317279177634679499e+00,3.472300054748640008e+00,3.643591177792229185e+00
-4.611533243765085999e+00,-3.294436562576288918e-01,3.747381151291812262e+00
9.544713115830964156e+00,4.449796027673865950e+00,-2.609542808077119691e+00
-1.015004858582180169e+01,3.116698605408806610e+00,2.453424483868781536e+00
-9.129636735939641312e+00,9.183069573094455595e-01,9.279203461050130608e-01
-3.205467337310771825e+00,-3.274662385793412067e+00,-1.574377460662027772e+00
8.689637247003993537e+00,-1.312778233635505609e+00,-4.274010554633031589e+00
-1.126047927790463454e+01,1.125762290663277598e+00,3.984919186418284021e+00
1.170831307498847673e+00,-3.259111459996023363e+00,1.878044443495577642e+00
-9.731857503373946727e+00,1.884290726149104422e+00,1.447839129974979544e+00
-4.331085724779698554e-01,-7.090860029311039092e+00,-3.740600347172826079e-02
-1.098086212567343445e+01,-1.898928789290155406e+00,3.756890784909977299e+00
-2.079187541003157058e+00,-2.191783474262705589e+00,-2.093708144023978868e+00
-3.411894997015484599e+00,-4.465522780068872599e+00,2.659722763973233928e+00
1.160788049567144853e+01,-2.561154456837310689e-01,-2.712149378081250006e+00
5.548545801975355296e+00,5.788569031464606773e+00,-2.285180729014765877e+00
1.040155039104772250e+01,4.644808338305828621e-01,-4.197203498417309220e+00
-9.701963995548133823e+00,-3.446210889653090970e+00,3.436963435884492934e+00
4.765841967337391516e+00,-3.531049900246194806e+00,5.313793707905909436e-01
-5.057591090006331669e+00,-6.631883627116495816e+00,9.578210869183796383e-01
-8.819599764556137700e+00,-4.508979558668193555e+00,1.361536930261762812e+00
5.061388910940368469e+00,5.376419737577707636e+00,-2.507309972801843312e+00
5.835820747017133492e+00,-1.966428714301459379e+00,4.740426684740554064e-01
1.121632806827591544e+01,2.450746993570943832e+00,-2.504280738665964900e+00
-1.015078985853696381e+00,2.878395916621483419e+00,2.896866430429107631e+00
2.330107945981268358e+00,-3.629175397769896172e+00,-3.082906211764838478e+00
-9.888220522745450936e+00,2.809277355851313107e+00,3.934249957352582872e+00
-1.177690740125097157e+01,-1.516388472893859807e-01,2.941090928161458784e+00
-1.941129984522728114e+00,-5.627151493188192743e-01,3.179275038656919961e+00
9.778301891104133503e+00,6.190303045993426068e-01,-4.210074964030098066e+00
8.952174602700290862e+00,-3.457881448661441759e+00,-1.601745450731609788e+00
2.117519120773545094e+00,2.865574731470193814e+00,-2.853076970537361756e+00
6.880771918361785033e+00,-5.298708890005444871e+00,-1.581514651571722219e+00
-9.222961796790986710e+00,-4.798640888425796724e+00,2.391337464248809219e+00
1.563844563073131522e-01,4.491655328298097771e+00,-1.877521174644594115e+00
3.888405481307320444e-01,-1.438511480082472760e+00,2.453294425676877388e+00
-1.589776884505756938e+00,-1.724779449482155780e+00,2.943763967137443593e+00
-7.270962547739475701e-01,-4.936701974548650895e+00,1.882283427804961606e+00
-6.492873384140116499e+00,2.850031449584593091e+00,4.212626907716460938e-04
7.368700012817370748e+00,3.305567137624198182e+00,-1.336150330611563242e-01
3.803665590966926136e+00,-4.855033229472653922e+00,3.881312867563874169e-01
1.160842800161823440e+01,-1.809930213403610488e-01,-2.748725609617864940e+00
2.647655475298374750e+00,-6.829920118495678594e+00,-1.442367255798663539e+00
-9.543869006537523347e+00,-3.604281320595573934e+00,3.487213859718337083e+00
-7.672351709451562307e+00,3.346533875212082343e+00,7.669121554270016405e-01
8.429654016929658766e+00,2.123873941992335368e+00,-4.014459599795554112e+00
9.060205356251206377e-01,4.342556087917374796e+00,2.098675933053113951e+00
3.299651739999748479e+00,6.866783525154770196e+00,-1.917910550612535736e-01
7.636087075003731961e+00,-5.502107665120518076e-01,-6.274443213882505144e-02
-8.757953375922173933e+00,-4.465598381816562323e+00,3.116967424665855191e+00
1.533903124642428173e+00,-6.951392669468586583e+00,-1.082653845625278111e+00
1.100057319230545616e+01,-2.389123079328706378e+00,-3.308877842220198762e+00
-4.274747790336605568e+00,-4.910032914255771708e+00,-7.917429707992915677e-01
4.765758910434170659e+00,-6.388100221364601872e+00,-1.483803451087412739e+00
-1.164218496606696718e+01,-7.949415522272741397e-01,2.751237834881003153e+00
8.695709517247510734e-01,1.879847777550587073e+00,2.478130692779240807e+00
2.098799289780979738e+00,6.991217914970206060e+00,-3.107306771252346111e-01
6.173429460260032364e+00,1.697030222350164097e+00,6.226923936275138294e-01
8.362344121348858295e+00,2.040890073908265823e+00,-3.994694058374448797e+00
4.498154133575357427e+00,5.758827802001305507e+00,4.029531936368889733e-01
-6.489137461507330507e+00,1.717511758334171912e+00,4.020200562034885294e+00
1.184212742301262011e+01,9.953807039556909764e-02,-3.638743817217958920e+00
-5.214265727255575911e+00,-2.660921904112979242e+00,-9.079271098043762978e-01
-1.085799568470680754e+01,6.859614174166690503e-01,4.076667438305264568e+00
8.094553256457955870e-01,-6.287391929058824047e+00,6.915731852610034203e-01
-4.049565729430956829e+00,5.227334729111216660e+00,2.944538870465232439e+00
7.590007823010842536e+00,4.555210265673433234e+00,-3.073134434479283694e+00
5.272002925366529702e+00,6.364920061190209921e+00,-7.336973081075948144e-01
-4.637877688222053152e+00,-4.863961962289330643e+00,2.751181273823438467e+00
7.305589883310987354e+00,-4.720690913255736199e+00,-1.287855071133942042e+00
-6.662852633507967859e+00,4.600848244613673366e+00,8.467667317683480466e-01
5.302987619435035604e+00,2.607102310725497585e+00,-3.582990520682937330e+00
1.131193323270513673e+01,-7.480608718313851435e-01,-2.493722005789436036e+00
-9.264562017585284970e-01,-3.365968234379637991e+00,-2.291592356972687927e+00
3.824432011763309713e+00,5.066194440884781436e+00,9.342799402735557646e-01
8.512471730697326322e+00,-2.900376283386831400e+00,-1.046786360261041882e+00
-1.065008358147034784e+01,-3.420115358194048660e+00,2.476199945394998991e+00
7.621591314190525601e+00,5.674817455356521378e+00,-1.627209029057759215e+00
6.375914306596225600e+00,5.627111868637775238e+00,-5.246823100315888277e-01
9.601896116744626508e-02,-1.415380748338370909e+00,-2.773072110105121002e+00
3.388716262300366378e+00,-1.067464883181427737e+00,-3.531258088417169816e+00
8.820151686201349150e+00,-4.546028855585891648e+00,-2.493695845728819194e+00
-1.189633479621845602e+01,3.257537899027205253e-01,3.442457011732028338e+00
-2.568600451952008257e+00,4.448175146994217677e+00,2.963048495376532809e+00
-9.117398340491625675e+00,-3.140274208299344672e+00,1.000800415664671261e+00
6.725766947500058990e+00,-2.773887239965547646e+00,-7.536514058511400993e-02
-5.727302539115782798e-01,4.171134919696090293e+00,2.579997461195199016e+00
-5.392172119145437925e+00,3.778966427599442124e+00,3.635128219266335670e+00
-7.500974652912839602e+00,4.777527609268291009e+00,3.268234522119325636e+00
-4.956071521741018948e+00,6.224124133988600427e+00,1.238224775704384051e+00
-4.655198242932120145e+00,-5.472537618855078279e+00,-4.872735968626323855e-01
5.249901522301108514e+00,-2.352269278712340483e+00,6.677758718464239518e-01
7.032540385500241520e+00,5.953325072323019107e+00,-1.578157292778729293e+00
1.063925592655897567e+01,-2.734096258229520515e+00,-3.580541720013935336e+00
-9.321486150105325663e+00,-2.125942501872605916e+00,3.981812800449582301e+00
2.588715592301594093e+00,9.345738676976474979e-01,1.975529730077371093e+00
1.430662206777636003e+00,3.182863863298385221e-01,-3.044212627083817679e+00
-9.410466539977930367e+00,-4.550216818553761478e+00,2.820242582764134642e+00
-1.144187998117106808e+01,-1.037296709663876104e+00,3.809484541587676354e+00
-4.491103826978058988e-01,-2.863315948520271714e+00,2.444640719507301441e+00
1.030493872035054181e+01,3.191312093512051362e+00,-1.870318255617726466e+00
-1.756973253237352137e-02,7.031607861795749592e+00,5.349363642266692365e-01
-1.134041239269365509e+00,4.904413179109103460e+00,2.536413368237808275e+00
6.521350456126318917e+00,-2.828755308213787512e+00,-1.308359553707355225e-02
5.911845837218284494e+00,2.666289911592357509e+00,-3.660903875191174439e+00
-8.652755744792086645e+00,-4.178023576384052973e+00,3.293186242174860112e+00
2.428163657198351810e+00,-6.025765108842836781e+00,-2.332018524802119686e+00
-3.809817744726365252e+00,1.767688080423273078e+00,3.624536084041888540e+00
1.243052304012532971e+00,-2.535613644406299105e+00,-2.967818461802822494e+00
1.161183019048798570e+01,-8.763799198070913732e-02,-3.773048539530779788e+00
4.278190424850944140e+00,3.179575244686687174e+00,1.198302976646464346e+00
-4.844362954116702369e+00,3.890271585265285825e+00,-3.572865740404299606e-01
4.860758546562032656e+00,2.786719440136978587e+00,1.086934526077295349e+00
7.818288052284823486e+00,-5.000472179710961917e+00,-2.877850912620547152e+00
-8.749266951133742864e-01,-4.899091163443056729e+00,-2.015596253586703579e+00
6.218718162260167048e+00,-5.934350127049173196e+00,-2.085773677452526176e+00
-1.131341208254289299e+01,-1.103551790459934789e+00,2.297412666309602614e+00
-7.475500608880300213e+00,1.779920384923769250e+00,2.452491467258645919e-01
5.199043296514433976e-01,-5.022389493554702433e+00,1.479420293119589891e+00
8.297404659451869335e+00,-7.639978828644777842e-01,-4.565468376320242494e-01
-1.075782339965149426e+01,1.920539288286567725e+00,3.925152182278821567e+00
1.007891086468898223e+01,4.064748431663079309e+00,-2.639141731377116162e+00
-8.197855489816666008e+00,1.209325834301663738e+00,4.198609502826637474e+00
1.425839315702151611e+00,-7.061411210545715633e+00,-6.740928822245088048e-01
1.341056929095634453e+00,5.631727078908747686e+00,1.585433836632692328e+00
-2.593723816355420375e+00,-1.413246843545606479e+00,-1.929175500573487190e+00
8.888215196873655799e+00,3.136163059494275096e+00,-3.715816464383508322e+00
5.881947404565894821e-01,1.827791893125098044e+00,-2.663423353713576081e+00
-1.014171007576863026e+01,-3.849102433112194799e-01,1.388533772665031529e+00
-8.131353959029507195e+00,-4.851838843348503794e+00,1.012084482571736332e+00
7.483630027595827627e+00,4.516574027129103719e+00,-3.151290682610311311e+00
7.098095595819729375e+00,-5.378476466015087887e+00,-1.748632445367925836e+00
3.739549617441320084e+00,5.130649136208634609e+00,-2.443884530586241777e+00
-1.133404327611657081e+01,1.120650435263371270e+00,3.794844245841348496e+00
1.735740033172271657e+00,-1.174971974878417758e+00,2.076214761660303942e+00
1.008970371585103010e+01,-2.473497840185737484e+00,-3.980973821364104825e+00
9.706947819940545230e+00,-9.665905575950872741e-01,-4.236975879413013679e+00
-6.739527784168828362e+00,-5.973585482022427229e+00,1.626357473462881842e+00
-5.934962874698432866e-01,6.149729933435998941e-01,2.872779954522603152e+00
-7.618383664632205843e+00,4.089330863987380660e+00,3.657594661437698846e+00
-1.107744687535865324e+01,-2.971989597982959808e+00,2.764105458156374429e+00
5.099387980607871462e+00,6.399839924026138327e+00,-5.449748468199356877e-01
-9.267111676656112351e+00,4.205909753792353101e+00,2.900013051838981060e+00
-8.616975532005508143e+00,-3.960657791126685812e+00,9.613801056855626470e-01
8.317768820960985465e+00,5.318345670996834862e+00,-1.855848787732538696e+00
1.602990202679517306e+00,-5.014795156539335608e+00,-2.549483748515330994e+00
1.387438845198828430e+00,-6.573782023448980105e+00,2.320890894317899633e-01
-1.117165340378859284e+01,-2.072751064529203102e+00,3.683689822597922880e+00
2.007162847021974894e+00,-5.639363041281326261e+00,-2.393737000865137521e+00
6.029403051411017067e+00,-8.334265958353714865e-01,6.047514824911287556e-01
7.513703847292690696e+00,-5.238051414635015668e+00,-2.252852124762172448e+00
5.823078200082427713e+00,-5.624406392124119414e+00,-2.864916476537096024e+00
8.281660086429027956e+00,5.165609902046778501e+00,-1.409156694825915990e+00
-1.171106894934504794e+01,2.019044318394811466e-01,3.794244086061455246e+00
6.079449718403014735e+00,-1.690647319061077347e+00,-3.980633549064789278e+00
-4.141534364828675763e+00,6.566328299625707743e+00,1.649959509497727961e+00
-2.017846340846828568e+00,5.003155977159130519e-01,-2.074621198224241958e+00
-7.896234289984836785e+00,-2.558779921431107773e+00,3.900047340987685462e+00
-3.268894251195391121e+00,-6.044079123260060804e+00,-7.084671026111629688e-01
-6.549716337081221695e+00,-5.233905565197031429e+00,2.709984746198126349e+00
-6.895236481476682000e-01,6.032332466425303075e+00,1.927276606276982385e+00
1.110847448208727251e+01,1.299768211367003656e-01,-2.103400699007905938e+00
8.130676674473246379e+00,-3.318353530677513152e+00,-3.879417260961909975e+00
8.248892098376190418e+00,-1.558924235994161522e+00,-5.222115484812682729e-01
8.727640463377566604e+00,2.785690395238905825e+00,-7.346256455663576768e-01
4.806035447655525594e+00,6.568780075804195207e+00,-1.188116103202824014e+00
-1.149941267295913150e+01,1.533081925753856933e-01,3.831185596686633055e+00
2.519409942835050931e+00,-5.668851381630990449e-01,-3.371574448276387859e+00
-8.794654045078271309e+00,-3.959089328174076439e+00,1.077130074381168034e+00
-1.964578025816909435e+00,-2.351570702853434724e+00,-2.089257572216639769e+00
4.453595339326573033e+00,-6.423927153600556217e+00,-1.253096862252021548e+00
2.556304536634633973e+00,-3.948288864919724084e+00,1.215931529361354624e+00
3.682344514538993252e-01,-6.681336764329208755e+00,3.854553733197491616e-01
-2.581018775571715107e-01,-6.642584114169359566e+00,-1.218757148921660205e+00
7.566534603890101351e+00,1.556824142127094746e+00,3.669514248183431554e-02
-1.571780722930931296e+00,8.816960865089896737e-01,-2.150616327209693868e+00
-1.060026792575881416e+01,-4.517005643778937429e-01,4.094622905828466664e+00
-1.085431934428117273e+01,-2.611286873825305332e-01,1.889833965255033110e+00
6.883692137674781719e+00,-4.744569164713173248e-01,-4.096852289498492894e+00
2.222968566889470310e+00,1.224783172938358033e+00,2.084587054587511812e+00
-3.502643581389788707e+00,-6.005629837063352738e+00,-6.242619099448628583e-01
7.091749146874555265e+00,-3.732916929158296426e+00,-3.757698674867938848e+00
-9.047110574421568074e+00,2.444227450420203562e-01,4.248333786885457819e+00
2.938313723677111522e+00,4.820421718359415131e+00,-2.460908349144794283e+00
9.463111294746950009e+00,-2.156441052365616784e+00,-1.376753114138951073e+00
-5.097913157665090900e+00,5.329218834440140995e+00,3.025354424918238472e+00
1.121727693427440542e+01,1.380361707980878094e+00,-3.871838020866780639e+00
4.870435368327060033e+00,-6.407123673445426881e+00,-1.792331091117885133e+00
-3.620670375311311862e+00,-1.758502149450234198e+00,3.393270171219387787e+00
7.946321007816517401e+00,-9.605851238375090473e-01,-4.198609574877184336e+00
-9.371578688784469868e-01,5.042025807951640459e+00,2.439466297921903060e+00
2.862727230454532368e+00,-3.077127235518611226e+00,1.387571186503257836e+00
-1.099088141083931269e+01,1.623070949457796133e-02,1.954103748824276066e+00
-3.996676263814857855e+00,-4.643181076962671128e+00,2.696452730360293426e+00
-4.556850716384905020e+00,1.754720812480412784e+00,3.760154294004412368e+00
-7.507461747954567777e+00,5.346585000561707268e+00,2.233947834914460362e+00
-2.745004996501186234e+00,-6.051615342656179841e+00,1.721772321109789727e+00
-2.492602232290170861e+00,-6.708049790565527637e+00,-3.521953440181638251e-01
-7.469667948573884608e+00,3.671746002254664631e+00,3.775732567075329449e+00
2.146798605786843540e-03,4.192486186467113685e-01,2.692111452251436887e+00
-7.173717658649640505e+00,3.459477674019577176e+00,5.714747965871880275e-01
-3.780675949292887084e-01,7.072239597051951598e+00,1.251051200115809447e-01
-1.236087050205044946e+00,-7.112027755762051484e+00,-2.976392327892128375e-01
-8.826556087939884776e+00,3.790037491225058286e+00,1.682830819830033686e+00
-1.651356729032477322e+00,-3.667723098344015109e-01,-2.228597887768538843e+00
-1.187114436774873560e+01,-2.240343482427472332e-01,3.603390855820128191e+00
6.290693305978003025e+00,3.059853319166898178e+00,-3.557797460926509725e+00
1.178281162290417683e+01,-9.804616227223310609e-01,-3.385222470794836624e+00
5.380813658120190190e+00,-6.145425062752673639e+00,-1.611868879012873457e+00
-9.161960198418078960e+00,2.204579317570424468e+00,4.101112602075101421e+00
9.914729859091717667e-01,6.992519797055541275e+00,-4.061151420495318631e-01
2.735427433875543990e+00,-9.949750244530224386e-01,1.798365419262580422e+00
-1.062568619939134607e+01,2.786415350856093376e+00,3.305222413792424430e+00
6.207941943487219838e+00,5.809648575050891939e-01,6.191505122484008972e-01
-1.095797309138637132e+01,1.055470334748355388e+00,2.225993042909115704e+00
-2.904285942589035052e+00,5.874083007667329603e+00,2.449433716905946135e+00
4.044641669650003379e+00,-8.510714841754475346e-01,1.352770395573362761e+00
-6.822258573925338965e+00,-5.688564176332364664e-01,-3.653741567322772998e-01
-7.053932732390858495e-01,6.979261507175953838e+00,1.042792976728235788e+00
-6.639650270252483111e+00,1.921876241691835352e+00,4.065942625572354530e+00
-5.923656496618393774e+00,-6.170414677626861355e+00,9.538747791952364441e-01
-8.999539111555941773e+00,-4.151041944370629011e+00,1.229444218677661516e+00
