-2.897752507342457040e+00,-9.382180594550201813e-02,3.457711151772156377e+00
-2.494501166585447738e+00,3.534778714664634641e-02,3.576756271252725217e+00
-5.695205999773659933e+00,5.198408218188154351e+00,-3.105693023136388842e+00
1.215257086743601223e+00,-5.266221374891757456e+00,5.579408496795704053e+00
4.156533901973518574e+00,6.458057910707138971e-01,-2.013110200996160781e+00
6.022806136407319322e+00,-4.382215123775512922e+00,4.144665214987701241e+00
9.016905244863445690e-01,2.913658990294730966e+00,-5.369054870802568047e+00
1.249465544512409210e+00,-2.521936857473120241e+00,-1.167914080174330627e+00
8.594023813129761935e-01,2.153822584217793601e+00,-5.247680510697176004e+00
1.484481236957318817e+00,2.859132108828607244e+00,-4.963280726064820847e+00
-3.561847204078038676e+00,-2.121142417362190946e-01,3.007421615296291151e+00
5.156196568429998628e+00,-5.351468209391216035e+00,5.648063390503414105e+00
-2.825079299913634490e+00,2.028844567910845775e+00,-4.845788419867269603e+00
2.555575815266568185e+00,-1.855504419443597230e+00,4.805014982530971146e+00
-4.023518353093252564e+00,5.588294563650801905e+00,-6.339862955365219932e+00
-2.302374985382201533e+00,1.438119905021508105e+00,2.490436642291549596e+00
-3.697181261456048862e+00,6.150073423808140483e+00,-5.229550758543438427e+00
-3.728795149999261649e-01,-4.192272040433770997e+00,5.098869672442073231e+00
-6.665760724756152056e-02,2.546666219446433121e+00,-5.588169871927274990e+00
-4.228078569957622435e+00,5.287347625342011526e+00,-2.526108879818344644e+00
2.554798239116131686e+00,-4.254599498175949179e+00,1.049464772148960279e+00
-5.580146802521603000e+00,3.089475857291144045e+00,-3.584781478308546543e+00
1.879029959928439020e+00,2.223998680336841005e+00,-2.810692994302070313e-01
-3.668430577438283713e+00,-1.304078082344570566e+00,2.021329613896513333e+00
-4.457806388741449410e+00,3.409448687574668568e+00,-5.096102980206330457e+00
-1.332123308112171056e+00,4.924436086949971703e+00,-2.856593991978180647e+00
1.888132170173334679e+00,-5.566814370285613656e+00,5.888641447537207085e+00
2.069219870650560456e+00,2.433282085104083947e+00,-4.469640136967822031e+00
3.447865197392836034e+00,-2.137714139560217053e+00,-1.569196473885366316e+00
-6.048996957125434726e+00,4.848931603223852527e+00,-3.786956989681309782e+00
-5.053001623489676852e+00,9.387695938494807768e-01,9.118294185891193671e-01
-8.240309046611102861e-01,-4.061131755962350098e+00,4.327117733042722847e+00
-3.942195226483301562e-01,4.841954745123856263e+00,-4.020103661142216289e+00
7.059134210335227255e-01,-4.038848562689087096e+00,6.067530007056014973e+00
-2.307327847772586260e+00,-7.771734605507929494e-01,-1.824131604026435483e+00
5.887526822028947393e+00,-3.125497892528078747e+00,1.014391302257545480e+00
-3.453374247731858304e+00,-1.495010638316622620e+00,1.277588674385730094e+00
2.151240175802295873e+00,-3.353471761908843884e+00,-2.712673970508502896e-01
3.374875456867577395e+00,-5.917066101240829212e+00,4.339999441553537451e+00
-3.664733142146282763e+00,4.294388246027835976e+00,-1.006615411124666792e+00
3.559263312309898897e+00,1.691481419793088303e-01,-3.040262525078504474e+00
5.341896708637093205e+00,-5.833957251530871524e+00,4.491865362424153574e+00
-1.414822578760543736e+00,5.325839479116881492e+00,-4.188224075919888101e+00
-5.809986813308031239e-01,2.812014267088492225e+00,5.305366237467608048e-01
3.099085072044618361e+00,-6.080699580444800745e+00,5.499370675511851658e+00
1.257754019310966198e+00,1.393438764558990295e+00,1.658136197821195035e+00
5.331818242138451902e-01,7.831715464654512848e-01,-4.470108738166592488e+00
4.936610109936777846e+00,-5.685926904434162488e+00,3.572911913414433815e+00
-2.456808283530886594e-01,-2.688069447809914081e+00,5.558434154345786027e+00
3.865281502426636706e+00,1.031775657081586361e+00,-2.271714323279740100e+00
-3.204538065412445125e+00,9.337412890650950148e-01,2.666401245000140197e+00
-4.332042641986960652e-01,-4.086156771493409501e+00,5.183038122654368252e+00
-4.120797707596185688e+00,2.630385222718002236e+00,-4.665669133348438358e+00
-3.990027722771327223e+00,3.605019729069103729e+00,-5.586989837996931385e+00
-2.557218884707183615e-01,4.258571936541128089e+00,-5.808752525851328841e+00
-2.497072203659328249e+00,5.708185037611228196e+00,-4.247650228016463636e+00
-6.435227961882694636e-01,4.086233406786228706e+00,-6.124085596211786608e+00
3.092189625900240824e+00,1.915402859526308843e+00,-1.956022499119035807e+00
1.004055743795885691e+00,4.978782590729710078e-01,-4.220073820447358237e+00
-4.717815844611354392e-01,4.231930223536112479e+00,-1.985858260557766819e+00
1.717066662365210661e+00,2.862700976550728971e+00,-4.559655779844448809e+00
4.168105035184303198e+00,-5.139854159054603855e+00,6.213500707817331659e+00
-4.775648974600543717e-01,2.456045556298949606e+00,9.807957792848797096e-01
-7.896687985734747173e-01,5.077470574185002583e+00,-5.302403228785660616e+00
3.813576486520788400e+00,8.372888412071257669e-01,-2.341286189038429000e-01
4.248088537188174918e+00,-2.345513897713789930e+00,4.318137161826502535e+00
-5.655319384078487666e+00,4.111965122550163443e+00,-4.601608499797345431e+00
4.955789295527178950e+00,-1.954714209393249913e+00,-8.828386029394971191e-01
-3.589067638615013323e-01,-4.139856277357531589e+00,2.917105633393360709e+00
2.908489249036037450e+00,-5.392310173367797610e+00,2.954959923274093736e+00
4.520968544855046289e+00,-1.271388425857617799e+00,-1.710111279432176890e+00
3.239847588495665676e+00,-2.940286129330727416e+00,5.437305688558014438e+00
-3.629159295668691332e+00,-1.380783900363639294e+00,1.733320251491497377e+00
3.057941449806900192e+00,1.954997222825325620e+00,-1.695018381965526677e+00
-2.550918349047669453e-01,-4.385456802074208404e+00,4.785168728112404679e+00
-4.411589022259296278e-01,-2.009787332215163813e-01,-3.409767927057593795e+00
6.113192379184064329e+00,-3.170210455251727844e+00,1.867863423559495528e+00
5.316595652532947192e+00,-4.323095537568906188e+00,5.086581486460847401e+00
5.052869293510323878e+00,-3.996498757231958798e+00,9.694097667984507005e-01
1.857124363722791882e-01,-6.611332548368656914e-01,-3.072133307825044568e+00
-5.138128641434137833e+00,2.255675312595312398e+00,6.137136254852317840e-01
-6.822242998134893099e-01,4.772825805915056563e+00,-3.321479610146782946e+00
9.675246629085458849e-01,2.737554086586026170e+00,-3.034469896782412413e-01
9.843046593997794025e-01,2.872324519745461310e-02,3.479940243867686078e+00
4.150077025661399688e+00,-3.056276136706872926e+00,-4.718925831910876223e-01
2.513965956406548852e+00,-1.069232168223346324e+00,4.013037372958058846e+00
-5.916927496601662728e-01,1.785889353486369568e+00,1.880960200444238506e+00
4.509180232143675582e+00,-2.947309349087328112e+00,-4.260234106251282182e-01
5.166054468076952233e+00,-2.920469758448278608e+00,-6.185310953349720114e-02
1.347627228313737602e+00,6.394742521531440183e-01,2.584855274645993184e+00
-4.614853389248249727e+00,5.255591851897675859e+00,-5.987759362355276949e+00
3.584568506067101090e+00,-1.579824685533886441e+00,-2.087547008814729654e+00
-4.933106546453805308e+00,3.810256021178117236e-01,5.314786466221206318e-01
2.961788831660563392e+00,-3.896399265634499454e+00,3.890257850666302142e-01
7.512787333430718251e-01,3.583461130765110081e+00,-5.352110895881270203e+00
2.209453866994298910e+00,-3.145247838636997972e+00,-5.089770450284166747e-01
1.932047708780111561e+00,2.676031998451702698e+00,-4.538484451641115136e+00
-4.594026520140906733e+00,6.166293096831465981e+00,-5.083791676841778795e+00
4.382321740644333552e+00,-5.933932193937373256e+00,4.072369986680740794e+00
3.353946056972786582e+00,-3.229189872777509240e+00,-4.381738551374017021e-01
-5.928770716897839854e+00,3.748814848947840339e+00,-1.608779346768068219e+00
-2.759122050028522732e+00,-2.215979978380850923e+00,1.932453110006515429e+00
2.688233562936507060e+00,-2.460927873812537747e+00,5.239099942080548189e+00
-3.140610249107299801e+00,1.991773780263828009e+00,-4.641040673759670554e+00
4.249682071267519429e-02,-1.180114126692319854e+00,4.723577507851502766e+00
2.193412745076292747e-01,4.332255254672905842e+00,-5.269747237568343401e+00
-2.961480648808615168e+00,5.733575110803389663e+00,-3.994835348270295405e+00
5.770528078011127882e-01,-3.855807158030351012e-01,3.977216085519525546e+00
4.416347374465692255e+00,-6.046933339301194366e+00,5.753231006491040134e+00
4.745582896602662970e+00,-2.521689644009867948e+00,4.057111473900338439e+00
3.087111037203210007e+00,-2.064234629239672270e+00,-1.735231648346786670e+00
-1.949546201640627308e-01,-2.301436160289472177e+00,-9.040864762822026224e-01
4.641018976960145537e+00,-2.383033646351479184e+00,4.013799910663770731e+00
1.867261989662073018e+00,-5.551913398419007883e+00,5.576733569673464785e+00
-4.372956626864643148e+00,2.992117369787698600e+00,-4.813759942208528209e+00
-4.033619361668874248e+00,-8.585977478858439760e-01,1.748451369936326438e+00
3.009989024656204215e+00,1.527776956486823545e+00,-3.616541788244586275e+00
-1.567718427311184826e+00,9.715127758985832029e-01,2.953966376852666276e+00
5.482816919126555888e+00,-1.420001658002002731e+00,4.895806554325325410e-01
-2.939537316482328855e+00,2.764071554605978420e+00,-5.386168406811697729e+00
-3.066587194065722777e+00,-1.180528647946598397e+00,-2.838677591569323533e-01
-3.589642139669540377e+00,5.746739255010157699e+00,-6.250917259500463175e+00
-5.076215257235911160e+00,5.412948521182601169e+00,-3.150392177275997518e+00
3.235346737555028884e+00,1.640451441179456848e+00,-3.053557297914148094e+00
-3.776351857972016557e+00,6.150347227553098151e+00,-5.235962606345516690e+00
-4.472582767812459892e+00,2.763907589116878061e+00,-4.538643264603332561e+00
-2.883480296268919219e+00,2.645390280264261929e+00,1.171325585721212814e+00
1.158752618251736699e+00,-4.927984322379292514e+00,6.063236027995745125e+00
-2.323224798904804267e+00,4.204497225223795098e+00,-6.334220082344203639e+00
-4.695355891946738858e+00,2.829275165638178158e-01,-2.962807448046534953e-01
-5.688030663346290261e+00,1.853366864807111991e+00,-5.261834661303841365e-01
4.206910671710421212e+00,-3.679513237692320526e+00,5.460388892263481786e+00
-4.725504888544342919e+00,1.820550681465696041e-01,1.634749610652405094e-01
1.888883392334980371e+00,2.289276392070762611e+00,-4.596080144478827734e+00
-6.013780318930100677e+00,4.759140487004437148e+00,-2.988371987719835143e+00
-7.981072038291430193e-01,3.575557955731361481e+00,-5.372280148627667229e-01
-3.063742168579461467e+00,5.674365360528060620e+00,-3.683409262325311850e+00
-2.138390087880721602e+00,-7.213695336821327464e-01,4.128899498639964527e+00
-3.100128449925423801e+00,3.945235499790872291e-01,3.081611935346583397e+00
-4.746438776987228714e+00,1.374718996771840507e+00,-2.489778230831843686e+00
-1.952238507594495021e+00,4.790903141803315890e+00,-2.134225192955786721e+00
5.450336273249573260e+00,-2.590206190402266628e+00,-3.497474953441049444e-02
-7.115192467839870361e-01,-3.335321554387014054e+00,5.478977738123442798e+00
-7.521544355539490079e-01,-3.802979327134235366e+00,5.165938626319498184e+00
4.001561185643004670e+00,-1.869302387932137155e-01,1.636364191038874649e+00
-9.258728286170353483e-01,4.546336622047570053e+00,-2.415987594360793800e+00
-5.561302873086164666e+00,2.585384862064305178e+00,-3.039460035399103255e+00
-1.502174059866945521e+00,5.442411533079430264e+00,-5.323038217981377329e+00
-9.838287551968929456e-01,-9.310789257206635305e-01,-2.436815337379093283e+00
-1.318668163916270730e+00,3.746246011772669249e-01,-3.764864350830767314e+00
7.837329842362867893e-01,-4.085373250816123125e+00,6.205314135568278822e+00
4.212105370301867602e+00,-2.246492378294648873e-01,1.370649535700732224e+00
-1.205420362020022340e+00,3.917728488075172599e+00,-6.235812124125236444e+00
5.207154814882297700e+00,-1.018824751765516012e+00,5.826749353638708273e-01
-2.526531215782607531e-01,8.180589439222929471e-01,-4.441920588334622444e+00
-5.192624310564614376e+00,1.190713496983884623e+00,-1.401104726473967999e+00
-3.568164879352375696e+00,5.966535427809319003e+00,-4.267696836291708706e+00
-2.432838168948854296e+00,3.948671991749904464e+00,-6.286425121864861687e+00
9.611938098086162396e-01,-1.915918182990688612e+00,-1.865843532652982750e+00
-7.619123705475491226e-01,-2.605063298735857735e+00,-1.090642451620127545e-01
-3.617779441478016889e+00,1.848306578711781611e+00,1.830810324599926542e+00
-1.032353274872308768e+00,5.251548493166029452e+00,-4.902726574808109028e+00
5.030963689627753865e+00,-3.180219503323315156e+00,1.249141244574388382e-01
3.991230537926529820e+00,-2.322208738831223140e+00,4.424893112324439493e+00
4.957241111285640933e+00,-5.859585533328921514e+00,5.366935652701136483e+00
3.592806605684716104e+00,1.102333343709471558e+00,-4.327274376248959054e-01
5.556737741932516350e+00,-5.356027614785336510e+00,3.438372412238618114e+00
-5.416145188067432947e+00,3.934416147214163217e+00,-1.122334914014326834e+00
-2.018928911968412176e+00,4.206926113511559429e+00,-1.074685521662354537e+00
1.614597728646552488e+00,3.365556260505893516e+00,-3.301499689167051166e+00
-6.060385360414568545e+00,2.963788324277185193e+00,-1.746217393448952659e+00
-4.534566320561991937e+00,2.318224230248632001e+00,-4.037379873448937673e+00
5.992252787449186435e+00,-4.204487078529181687e+00,2.180900566933724694e+00
-3.500158295119568219e+00,5.669246003417968360e+00,-3.431202014646068221e+00
-7.940237893845377704e-01,1.860400760374917306e+00,-5.216485594075217946e+00
2.589738910831020924e+00,-2.005433337614309419e+00,4.900567320788115744e+00
-1.892367482069556184e+00,5.157256182711877024e+00,-2.978721435830494979e+00
-1.138419925196584304e+00,5.155261675081646011e+00,-5.593805177049663513e+00
1.273128228064356549e+00,-3.267586632063197438e+00,-9.620263548305438284e-02
-1.266661422336984533e+00,3.305140591359903013e+00,-6.064994236759344126e+00
1.984653473909645083e+00,-5.534338344887512307e+00,4.209790805171461869e+00
2.447623009234486169e+00,-4.616444234501765997e+00,1.650977123215168874e+00
-3.192119821871936658e+00,1.341370040110425377e+00,-3.923488236515146443e+00
-7.209393657352739515e-01,1.485678806006136332e+00,-4.924842744798176852e+00
-6.605672166920842914e-01,4.456550858275908134e+00,-6.026201837300324549e+00
3.124144895971341374e+00,-4.232964616171792094e-01,2.874166051747164108e+00
-1.904872721761387278e-01,-2.504693512104569919e+00,5.487339085354794754e+00
3.406561349826342511e+00,-1.874463596798569553e-01,2.274085023825985541e+00
-5.739407932455640626e+00,2.552302504168615815e+00,-5.917488812696291012e-01
-5.433330355153351832e+00,1.990805946188429765e+00,2.160638766461996374e-01
3.064581905491714053e+00,-4.671280530821927179e+00,1.604901143916073192e+00
5.229081447785456582e+00,-5.362566821374002757e+00,2.985856662671090067e+00
1.830941793469205825e+00,-3.835205617744147144e+00,6.261643792434131051e+00
2.764824408141054235e+00,-2.859453038827873605e+00,-8.976970458747927095e-01
1.032576614248443381e+00,3.094398698438788120e+00,-5.191129773214149701e+00
2.757219398071752980e-01,1.784630422179509734e+00,-5.119193812561103840e+00
-2.244165883986780852e+00,5.615785971986662517e+00,-4.236728293163791292e+00
3.340785964232822813e+00,-3.555392056863588390e+00,-6.323596640790016266e-02
1.022865908561946924e+00,-4.348932769107645591e+00,1.812454587504776615e+00
-4.005865410905986579e+00,5.812690677590626187e+00,-3.693374084742928609e+00
5.715067158893976096e-01,1.618871148140947680e+00,-4.994922899160630259e+00
3.004220033913767907e+00,-6.019995823114113520e+00,5.161929190125032818e+00
-4.682551530086911384e+00,4.358084500183479371e+00,-1.250220416245483968e+00
2.374306852093059028e+00,-3.691124804303744344e+00,1.445632089153910949e-01
8.397921038742895972e-01,-2.103494403709691873e+00,5.419856840958977351e+00
-2.381540213921603810e-01,-1.201631716384135240e+00,-2.366129575170119459e+00
-2.424563561622877561e+00,5.826301768241856749e+00,-5.860378477276858789e+00
-1.369032478895046756e+00,-3.622797808458253943e+00,3.904618641986581817e+00
-1.982474261455922093e+00,3.233556079328069099e+00,-6.017007991343534812e+00
5.904430250739467034e+00,-4.401535600589308039e+00,2.266184396713140092e+00
1.857743748993458510e+00,-2.718317864935892114e+00,-1.049191480486504569e+00
-6.168686169697658706e+00,4.542841367306007960e+00,-3.016563850077756292e+00
-3.956723489270861371e+00,2.899948432031402401e+00,-5.012590208253849156e+00
-1.989577892689014860e+00,5.509338803421528041e+00,-4.030093305187620878e+00
4.921426385243524493e+00,-6.010054537112917927e+00,4.774384141043468865e+00
-2.833868835638578165e+00,3.577885149545376176e-01,3.196299710372803915e+00
-4.606469345990756636e+00,5.705926143911508319e+00,-3.606608712791651961e+00
2.775143806719700124e-02,4.496201357941461474e+00,-3.629376518788506534e+00
-5.975823678280630880e+00,5.154379054673493776e+00,-4.171532024259120952e+00
4.952785308299370470e+00,-1.794387425099332356e+00,-9.935346227902903671e-01
2.942619768066464747e+00,-3.732760111142147813e-02,-3.379119378534411577e+00
1.289712992464349117e+00,-3.839953325667357475e+00,7.808906453572402873e-01
5.438176472485430901e-01,-4.249775379120072749e+00,2.042182515562970924e+00
4.090030140246042833e+00,-6.203960018971685031e+00,5.336626828132398970e+00
-1.788678034743825807e+00,3.162746642609076897e+00,4.120351980048693186e-01
-5.742022737400562349e+00,4.004409905584789264e+00,-1.482249165569451410e+00
5.269564159345140553e+00,-3.034578177578001856e+00,3.991238297568092896e+00
-2.001040490176269504e+00,3.339331767342416324e+00,-6.027454543718008928e+00
2.934715735860285335e+00,-2.360820630649184793e+00,-1.491793065431448406e+00
-6.958673891854685323e-01,3.128912280041775684e+00,1.548486230623762616e-01
1.087103229754864619e+00,-2.139336424791845603e-01,-3.624556037483509296e+00
2.357952099316101613e+00,-5.345406299192286825e-01,3.525188586640428223e+00
6.032867813511167965e-01,-4.633345827840406272e+00,5.842002517062062417e+00
6.120688252303717602e-01,1.624498505373314750e+00,-5.040278252894114353e+00
4.149558121859950433e+00,-3.866637517090391274e+00,5.649020731187352595e+00
3.233434342889955626e-02,-4.261928162743984672e+00,2.608238139422740964e+00
2.237775203053943063e+00,2.335014860440485507e-01,2.618411340995276948e+00
-1.445903698022862338e+00,4.500477613469559657e+00,-6.334307100424112491e+00
2.411588669455938305e+00,1.127344488391843980e+00,1.198009492368293794e+00
3.131187847144676351e+00,-6.087457271808316861e+00,5.203984014944161629e+00
-2.645931419435775922e+00,-2.352388375803718290e+00,3.424353692832684093e+00
1.375653791418781857e+00,-4.266107781781046882e+00,6.369944148268224637e+00
5.976362373832738051e+00,-3.752954813955805768e+00,3.557462766853643377e+00
2.517737465654029672e-01,-3.083137386851903639e+00,3.183142804061356301e-02
6.082597048220560687e+00,-4.420976085718666404e+00,3.601383795751153194e+00
6.056238586054155659e-01,-3.972322922725858074e+00,1.329123174170452781e+00
1.820178428839153817e+00,2.843566573368372818e+00,-1.542267682317324917e+00
-1.344433927369497628e+00,-3.394050670165120742e+00,2.279615442740213105e+00
4.668497559065209579e+00,-5.018224809641787409e+00,2.184938218022205447e+00
3.513420233309254570e+00,-1.303948124635647021e+00,3.617262583860931358e+00
2.382680434864674179e+00,2.557167802264781908e+00,-3.858536278461607072e+00
-1.572065873801355984e+00,5.513811038116545937e+00,-4.770058740387587370e+00
6.709005895657143004e-01,8.506969345909540792e-01,-4.492270184712707781e+00
4.427057080510515163e+00,-1.814474077649264494e+00,-1.421903819970179006e+00
-2.171745521786734301e+00,5.291602500608405535e+00,-3.256812231152979908e+00
1.086726028369006336e+00,3.308039584406506695e+00,-1.627816103038352225e+00
3.676765969597205252e+00,-2.792425719098182046e+00,-8.807808482063714806e-01
2.573504374359309566e+00,2.398306138560672984e+00,-3.493478206561509314e+00
4.180879847327419796e+00,3.327720420278021951e-01,-2.149035879493008228e+00
-6.602781124667025381e-01,-2.137010916402049432e+00,-8.775158498246118377e-01
3.160889105993490933e+00,-4.982742033922247238e+00,2.075176691807410378e+00
3.040654161441948666e+00,1.962280713501247442e+00,-2.909994839805587485e+00
-1.685733220193998738e+00,-5.106028181333106541e-01,-2.626218585524118243e+00
2.657438369981083959e+00,1.925990119088850427e+00,-5.832788879014996208e-01
6.139986470989998502e+00,-3.663728976735268983e+00,2.097075523781143147e+00
1.511637923911717252e-01,-1.717942189197134262e+00,5.121068857490147508e+00
-2.575734094584911649e+00,-2.280772292586717764e+00,3.821105031549606235e+00
-4.714350894232587130e+00,6.145475510274687636e+00,-5.297390750542398941e+00
-1.833694677721737221e-01,-3.667667806301700750e+00,1.427507141380006672e+00
-3.080173583980715946e-01,-3.130010262393761344e+00,5.692094904323383275e+00
-6.129310944742609735e+00,3.342848809160903212e+00,-1.868065417189580746e+00
4.844110492807321755e+00,-3.410856206634966248e-01,-6.415660592346217328e-01
-1.564120304312082155e+00,-2.830546117566819397e+00,1.067413622602518819e+00
4.636950725159281639e+00,-2.522499107920483041e+00,4.143078997562474441e+00
4.579577758970025947e-01,-2.791720438500208790e+00,-5.015094539644009419e-01
-6.022226257421375850e-01,5.020632245084867940e+00,-4.763802393074621833e+00
-5.718877996835450617e+00,2.775450145703926452e+00,-6.669830831038163765e-01
-2.704071953753512059e+00,-1.284414763802664394e+00,3.994628509619274404e+00
6.778170779722560990e-01,1.315813352409675563e+00,-4.819865967191280021e+00
-5.443950232346398188e+00,4.348224442499732945e+00,-4.938899398272320163e+00
-3.865704961111861238e+00,6.119230886326189278e+00,-5.878794706233072098e+00
4.623896491281121790e+00,-1.208144919735811174e+00,-1.530216732601188623e+00
-5.400387224321860913e+00,2.442195581077965194e+00,1.538001668101471320e-01
3.251569528950730703e+00,-6.026822950822742442e+00,5.932441010689888827e+00
2.046075170137743982e+00,-4.963140600082702747e+00,2.482248538327428200e+00
-5.036333103582442128e+00,2.017537564416598705e+00,7.352807944801016404e-01
1.790164929856608245e+00,-1.010978703819649382e+00,-2.932265707464235760e+00
-3.067844278777911438e+00,5.537626075980353946e+00,-6.344073334676967768e+00
-4.974665931301752053e+00,2.691265342596109722e+00,-4.022546521309873668e+00
-6.359289941430402993e-02,-1.198240649627273946e+00,-2.459009468765830597e+00
-3.154574208713496031e+00,8.738485649758922502e-01,-3.418394764368969607e+00
4.969638385055788810e+00,-5.645409944152725679e+00,3.474593187944177597e+00
1.880390264799045363e+00,2.407635491087024793e+00,-4.683449769827721099e+00
-5.141301635753784183e+00,4.922158948742341167e+00,-5.610997606062307241e+00
-3.113144636447596980e+00,1.055875865052739337e+00,2.652170362081943455e+00
-4.492505549189909964e+00,4.185260854692819166e+00,-5.669336699077232034e+00
-1.925065822572074703e+00,2.682938095732973149e+00,1.058917712854291926e+00
-2.998772952528764968e+00,6.226231149013023991e-01,2.944117160253691967e+00
-5.819030052122347918e+00,2.909694714943003468e+00,-2.884100764583981125e+00
-2.813815712369630795e+00,2.449393785057679462e+00,-5.208949209575968631e+00
-5.314776687153472068e+00,5.830004604113828037e+00,-4.788139884931049473e+00
-9.461024035403896582e-01,3.745719664184183006e+00,-6.110927411157728528e+00
-1.007350082826828475e+00,-2.874310942696315596e+00,5.309023568769581480e+00
6.531146981515496552e-01,-5.022192083048823363e+00,4.245474924554919482e+00
4.251689383734091443e+00,-5.650692703679916384e+00,3.356274686961213227e+00
-5.994493993762713302e+00,3.631135077403397027e+00,-1.792366821272215027e+00
6.348213900507316820e-01,-3.896645981716001739e+00,6.147975662027979737e+00
1.636826342727589978e+00,3.387077869043426670e+00,-4.024657382736047673e+00
-4.192790999238819261e+00,5.419227142254721130e+00,-6.194863933118993415e+00
4.719398895867552013e-01,2.760933161561480720e+00,-5.498196930474947841e+00
-2.928949698504541121e+00,-1.801747641701192837e+00,7.839329474312569657e-01
2.538809544882782543e+00,-1.123230344685927529e+00,-2.682532057076199017e+00
-3.118190431034412402e+00,7.393056820031230769e-01,2.820841463421028372e+00
6.478370462242634409e-02,1.103886894409275898e+00,-4.726390290080813905e+00
1.307376892067870111e+00,-1.519656662992032281e+00,4.906795050700440086e+00
-4.598808537999197199e+00,2.637328195243300866e-01,1.768538462904960085e+00
4.754969317627587011e-01,-2.783320480116976192e+00,5.772565054554982034e+00
-1.056097397966963003e+00,9.597121333312055302e-01,2.921541034352569621e+00
-1.432762162863393751e+00,2.553004589054196583e+00,-5.594760320058430381e+00
2.246160386834286538e+00,-4.301399550294763507e+00,6.380818612639127529e+00
2.083608568416458251e+00,4.166538383811814739e-01,2.443913022624512710e+00
1.458511443119772377e-01,-4.598306011785199487e+00,5.207364650517716242e+00
2.933677043351391234e+00,1.073776387758810902e+00,6.990128115754381533e-01
-5.325062121850079322e+00,5.085835091680065645e+00,-5.335766403584108808e+00
-3.018653649812243600e+00,-1.897056195826531733e+00,3.391327720656164058e+00
-1.420277385776181234e+00,4.248999409979552055e+00,-1.429562377219722791e+00
1.004544547392542286e+00,3.259584089237987925e+00,-1.366901276796558484e+00
-2.446395982445747297e+00,-2.543396425442637998e+00,3.516839099059639207e+00
2.225991895215809535e+00,-1.771188604539666533e+00,-2.127749801275751640e+00
5.491071716020932136e+00,-5.479021016674031408e+00,3.503348178890279385e+00
-2.598365152303699244e+00,3.431646237563439339e+00,-5.943238800185953075e+00
-5.249274555850871771e+00,2.267053299359792273e+00,3.753791472861174872e-01
3.007430777258289556e+00,-3.500783157446214933e+00,5.938200075649778142e+00
2.165409802546352722e-02,2.126110011476145534e+00,1.235630718585804866e+00
8.055546771132433836e-02,-3.148178661974399439e+00,5.761134285405805855e+00
-5.705211858512081236e+00,1.990230844136436028e+00,-5.994480237987545035e-01
-3.240162170480173742e+00,4.643097943576611542e+00,-6.425932810397023687e+00
-2.897163586531917634e+00,-1.339413298063725000e+00,-3.155167673960791452e-01
-1.103692139192870458e+00,-1.871993804377369619e+00,5.051535333243735160e+00
3.324190243157064462e+00,-2.595923433514374379e-01,-3.017652697020015484e+00
1.699872306108561437e+00,-4.263966435390894594e-01,-3.425762606451810743e+00
-4.247999160629569282e+00,3.150262887814671675e+00,3.034322967320032260e-01
3.110694382410176928e+00,-5.345868335707478991e+00,2.809041946447007110e+00
6.405723364542841303e-01,4.161116270695648822e+00,-4.066533820171148506e+00
-1.347675572587532677e+00,-2.925703202735624231e+00,4.974306580224396868e+00
1.048061305964601786e+00,-3.042145450982445709e+00,5.915586317062199839e+00
-1.609982943664454991e-01,-2.579416197031358493e+00,5.604827906189282949e+00
-4.155908469308680075e+00,2.664920101078970038e+00,8.532141182498723664e-01
-5.101093864746519824e-01,2.742145306557062678e+00,6.429942761769349424e-01
1.625437662045267073e+00,3.289420900822196181e+00,-2.738192488840218708e+00
1.702073829944930727e+00,-5.418779908279335977e+00,3.929210692826055507e+00
7.953070524232546123e-01,-4.613408635756551135e+00,6.044097456870436424e+00
2.636365130239410437e+00,1.784962799022748792e+00,-3.966106373313339262e+00
-7.475981338868831205e-02,-2.912276001418304006e+00,-1.947854381424467610e-02
-1.191160838750424666e+00,4.087776641612792972e+00,-6.274238659326372591e+00
3.478494986841706549e+00,-1.874624019738827529e+00,4.309666053022902510e+00
-1.034628142196783562e+00,4.467701985102016660e-01,-3.981565140590264118e+00
3.801907972622932341e+00,-3.679320327287086911e+00,5.729099425581578586e+00
-1.485260346214197814e-02,3.701223598229939071e+00,-5.819440127144011932e+00
2.670492412124443771e+00,1.203709714060673175e+00,8.436874795900862756e-01
-3.000114743134379758e+00,-2.125173604691034335e+00,2.556479421888373960e+00
-8.542197135881538506e-01,5.098540087126637310e+00,-5.431546622754821918e+00
-1.524019807902564860e+00,-3.497253519582784964e+00,4.061207937879890650e+00
3.101287826858458274e+00,-3.790813446631335015e+00,6.039157455641484873e+00
8.455318943779099872e-01,4.784155942760390801e-01,2.987110069503752463e+00
-1.972329583337995018e+00,1.555988587097464348e+00,2.368652873129790226e+00
-5.542158521649363401e+00,5.582145710154120977e+00,-4.584510151441367753e+00
4.953042879532310039e+00,-5.309011673615321669e+00,5.889562451495384821e+00
3.751690675434804501e+00,-5.323606592934489790e+00,2.739070400384576942e+00
-3.381392821202157117e-01,3.571444485690628667e+00,-7.881852709432550785e-01
2.534535123643759214e+00,2.185412069118754630e+00,-1.065029794863415091e+00
-4.083914620507195004e+00,4.704257936283243069e+00,-6.120908889088117810e+00
-1.996485638700312482e+00,-3.113219121979974080e+00,3.330448498311322059e+00
-3.427666723883299404e+00,1.999243180486832472e+00,-4.475901809781996477e+00
-1.493603407672119188e+00,8.886605475662637810e-01,3.030155463535423088e+00
-3.328919369357231872e+00,4.784322751933092199e+00,-1.755703475085449661e+00
1.813429287932121658e+00,-5.462858941047025851e+00,3.988814928474098132e+00
-2.029245459001594476e+00,5.232737866100366730e+00,-3.144282929336245314e+00
2.628477301986307246e+00,-8.453131941517170178e-01,-2.895504678506080953e+00
-5.143960618378255134e+00,4.397387552498426722e+00,-5.241938416323012717e+00
5.817966793164012884e+00,-5.378989698125731245e+00,3.760507965646854966e+00
-3.531858447955918745e+00,5.775629031308271877e+00,-3.754960644780821699e+00
2.822995443026966367e+00,-3.627224828468157969e-01,-3.218955620750454827e+00
-4.688531813977306228e+00,5.186991171159731628e+00,-2.580072614215148885e+00
5.910960430756341033e+00,-3.946014533533170443e+00,4.036629980478213753e+00
5.268635867782128557e+00,-4.430091710441031339e+00,5.260744445210648657e+00
6.166696764373744699e+00,-3.612834155254542434e+00,2.892349713628647567e+00
-3.612153996689525748e+00,1.967836581425596920e+00,-4.357678508360688596e+00
-5.829480772690904367e+00,4.099879439146135951e+00,-1.796904039233676365e+00
-1.180488223578068707e+00,2.456830506625099275e+00,-5.554006270285689162e+00
-3.541485885602780659e+00,5.873319582803877559e+00,-4.145312303118123154e+00
2.952004250500630977e+00,-2.792452153808457460e+00,5.453989559773349427e+00
-2.524275505728139191e+00,-1.721286364731557716e+00,1.275728574682785362e-03
2.197572567139348010e+00,2.026249364334086478e-01,2.673195991224879275e+00
2.487273902566951855e-01,-4.560027811488961191e+00,5.459863586806959823e+00
-4.031056923365530231e+00,5.807494023904711256e+00,-6.190414601622618029e+00
-7.086966636530439567e-01,5.004135589678202933e+00,-4.418955736700475256e+00
-2.540150241494828709e+00,5.725478850040730094e+00,-5.901735640743702049e+00
-2.660514279702299589e+00,3.575422473404106238e+00,5.176789028959864758e-02
-5.689198218850094690e+00,1.990696132189846201e+00,-1.460329860508740030e+00
-6.921587570728314764e-01,3.399878392116812531e+00,-2.802134305609921272e-01
6.071814907930073169e+00,-3.425142274982178936e+00,2.807094928205557505e+00
3.324729914906630501e+00,1.681764643978990836e+00,-2.404761989198324290e+00
4.625799975330274982e+00,-2.265414632392246386e-01,4.913365334757758274e-01
4.352472542307583403e+00,-2.121948361728204890e+00,3.939753543602325880e+00
-2.799495216429210426e-02,-3.426646116134420161e+00,7.715635409128469568e-01
3.886839974315327684e+00,-4.164189138168879367e+00,5.929764378514838619e+00
4.671511608718614816e+00,-6.973392933946038763e-01,1.391394608742197558e+00
-4.830336153707420088e+00,3.719393835762887068e+00,-5.041384087996203522e-01
3.117739531282625265e+00,-4.673977660656910338e+00,6.389244858758003076e+00
-5.296475833300593017e+00,2.577582055755429202e+00,-3.349589434096799323e+00
1.256487457149735310e+00,2.229264950415461577e+00,-5.062184201738284095e+00
-2.428805409495972345e+00,-1.348398984079137497e+00,4.187037906975290547e+00
-5.562209067919310357e+00,4.502765150146046835e+00,-1.971137441533321821e+00
-5.173882016324768962e+00,4.271703678711816110e+00,-1.303962190096500606e+00
4.408902351613806836e+00,-9.406442749962936611e-01,-1.960751614184871761e+00
-5.778964868067677507e-01,4.915435938618594847e+00,-5.170965429813194625e+00
-4.130167078276175019e+00,1.356357721957841544e+00,-3.226825922374140010e+00
4.268966101958322490e+00,-2.777283468507246056e+00,4.655672945312047339e+00
-4.681383473245483096e+00,2.407136565403403594e+00,-3.889092910909709655e+00
1.299647933120855914e+00,-2.004802652608600688e+00,-1.838644258299797052e+00
2.392397289307560015e+00,-5.125154669968464027e+00,2.692997176313015384e+00
6.381279570234638099e-01,-2.603101984838578353e+00,5.643837555616025625e+00
1.279823538745308076e+00,1.118638907937365312e+00,-4.607849814029602697e+00
2.665239237331701982e+00,-1.895286177257178295e+00,4.791308668113307689e+00
3.222071983180208488e+00,1.430641298708722031e+00,-3.402732675050934130e+00
1.784712300311070088e+00,1.119373246532575639e+00,-4.433256157774811079e+00
-1.814127709703558855e+00,-3.247687976355376094e+00,3.372470547219366122e+00
-2.942810876269217335e+00,-1.434800401556485472e+00,-2.608837449123125110e-02
-4.169371479820689785e+00,5.585683148409695598e+00,-6.217008038573718309e+00
-1.939102006878692830e+00,-1.923947313789442948e+00,4.606990143743685096e+00
1.821051432926107827e+00,-5.218866872618962205e+00,3.240576478096623969e+00
4.313401671586071906e+00,-1.364793598536612196e+00,3.018375967901393953e+00
-2.125646225228829511e+00,-2.134666773324623623e+00,4.436994891772575222e+00
-4.735485085796640625e+00,1.678546677541730814e+00,-2.983117749256289031e+00
-1.207488553384714752e-01,3.025614985511021704e+00,-3.290497735190905937e-02
1.876852247189798817e+00,-5.335993266990941564e+00,3.523193365492429230e+00
7.074608836465404726e-01,2.089717457836719916e+00,-5.253616200079211040e+00
3.446440284661485443e+00,-6.055918723955967309e+00,4.623618184368092798e+00
-1.237394648228467675e+00,5.362464131826229163e+00,-5.142796881202506221e+00
4.368665772350873056e+00,-5.362097609946710891e-02,-2.068712457879741784e+00
1.555662116391492544e+00,9.197831892106071994e-01,-4.446620143776053524e+00
-3.860460089504563985e+00,-4.637581056656039369e-01,-5.380060410262494930e-01
-2.597086145432702331e+00,1.902160831567075716e+00,-4.842750135867262884e+00
2.395002336320725345e+00,-5.598141799936137808e+00,3.916101988240475062e+00
1.165687257571526469e+00,1.398434566673125268e+00,-4.800414038590202992e+00
2.989389751293414221e+00,1.720985962058996899e+00,-7.519544235775825758e-01
-2.395114767720185611e+00,-2.542004501767503033e+00,1.877109837780139623e+00
1.820376291876463437e+00,-2.599657991687270298e-01,3.474908244418919434e+00
-5.083707102203919304e-01,-3.818236591717377060e+00,5.375999304338050067e+00
-2.314580070193103190e+00,5.069197828514538706e+00,-6.445037024456540031e+00
4.329313004998952330e+00,-2.538155127463968874e+00,4.451997758575148012e+00
1.559956139483218429e+00,-1.971183448696864071e-01,-3.593548208258396937e+00
3.485812335294743658e+00,1.491441443027561098e+00,-1.948347861479977405e+00
4.448121287819916114e-01,-1.152265493487894421e+00,-2.661062757920444000e+00
-8.695095880360046436e-01,3.727379214707410515e+00,-6.189044947099604066e+00
-2.939222177471340292e+00,5.915194372882380591e+00,-5.656887659672744206e+00
3.783872713046537939e+00,-5.130350164385355960e+00,2.353052141338419556e+00
1.736850491135094376e+00,-5.546369931335169312e+00,5.766375591821266688e+00
5.435660430121097342e+00,-3.739217550107537313e+00,4.559675330531665516e+00
-6.532940198749505045e-01,-4.808114016362632914e-01,4.224698498863313390e+00
1.536660601688977890e+00,-1.892739873384392979e+00,-2.014901483095266954e+00
-6.021956014571946403e-01,3.879214532331357823e+00,-1.199507954051772352e+00
4.619733224216044043e+00,-9.525046958626804949e-01,-1.741278440210140444e+00
-1.021634825705002081e+00,-1.642278950394497672e+00,-1.411472496897677065e+00
-6.052355396875710447e-01,8.816546162665528374e-01,2.987100052436513220e+00
-4.124113312671883413e+00,-6.818452655263456119e-01,1.109820704001039937e+00
-2.122146600559060015e-01,2.724887267126547385e+00,-5.735444878378739730e+00
-1.868615756091962288e+00,5.050809570952284666e+00,-6.294221442239223308e+00
3.821202560056400355e+00,-5.766332895885825316e+00,3.590421027069230053e+00
-2.264669574977683730e+00,1.287424233787921313e-01,-3.078216530535614837e+00
-4.007905782174812970e+00,3.083947795488057309e-01,2.509096622862005077e+00
-4.693881216284317759e+00,3.402370654501303715e+00,-4.933851806843607690e+00
4.054272946998798588e+00,-5.928067328168272532e+00,4.013254783742984166e+00
-4.530044756271291106e+00,4.715108091479972785e+00,-5.915933419664286319e+00
4.457827557974702870e+00,-4.680003798765711487e+00,1.646810708504448328e+00
-1.616735476707005237e+00,5.561141605018494971e+00,-5.279574916561844411e+00
-1.197616986167503894e+00,-3.580277016658148348e+00,4.748200141828778698e+00
-6.083496897737060038e+00,3.174993273471263144e+00,-2.575403852384007930e+00
-7.528454058892772860e-01,4.899650511031460987e+00,-5.619647989580837333e+00
6.080784644056110189e+00,-4.347472381800260521e+00,2.805488965425085635e+00
-1.820902070573448661e+00,3.599869559104173611e+00,-2.024604157598442200e-01
5.503632653831792787e+00,-1.590968949394329757e+00,1.281861494321968165e+00
-7.796094030577092049e-01,4.611057113546134900e+00,-5.953226142643021745e+00
-9.106572728380289972e-01,3.009396805129026742e+00,-5.867521274895651118e+00
-4.999173235148705707e+00,3.204650697240292612e+00,-8.027427885815337227e-02
4.111138685374181811e+00,-5.375209444501553024e-01,2.009081394102031126e+00
-6.910997596245674890e-01,-3.064706178488034283e+00,7.294853690996560003e-01
4.901036494557419410e+00,-5.844369097557850168e+00,3.986878264261005000e+00
-1.976045025552238377e+00,-2.076740963524378536e+00,1.124074616439769692e-01
-5.965178253209618475e+00,3.947613316606039646e+00,-1.719314554478120316e+00
4.269818842332866460e+00,5.472139196411806017e-01,-9.820517440391246522e-01
1.784920004330565302e+00,1.126681973291665750e+00,-4.447298322648041591e+00
5.386820974770728299e+00,-1.872977983217152920e+00,2.219835757585753022e+00
2.610880861728963165e+00,6.401997829752845703e-01,-3.816871154322318827e+00
2.023326269728237037e+00,2.666356007924975291e+00,-4.326025962476330200e+00
-3.160264373820953931e+00,-1.687374111146472622e+00,3.108394431262655022e+00
2.493728245354308815e+00,-3.704592486168133636e+00,6.175612440816596660e+00
1.672520692076771009e+00,-3.524212133865090468e+00,6.107395828080793621e+00
3.788094453491950286e+00,1.212475747012466076e+00,-1.423066695236746337e+00
