4.155828197737215568e+00,-2.841565956208333965e-01,4.068824662442484197e+00
1.850976245157535338e+00,3.674400229964857711e+00,3.553455433660476004e+00
-5.213701639415199374e+00,4.691691218226036852e+00,-4.089530696340138327e+00
-3.232966752460394222e+00,7.698278792935216330e+00,-4.968067234545091027e-01
-4.551089007104234696e+00,6.659810136674199077e-01,1.865728878505346522e+00
-2.966305671241697972e+00,-1.850164494760701661e+00,2.413775919942700021e+00
-2.149051891869587116e+00,-3.404184627739572644e+00,-3.134676035014924533e+00
2.015620965930337238e+00,-7.445844343550875877e+00,-9.701630998208174983e-01
-2.624769069206086325e+00,2.816148301866968406e+00,9.173789622222784601e+00
-5.344324370600515905e+00,3.282141327575465173e+00,-2.888050819830584093e+00
-6.943168132796994074e-01,6.256249382040865115e+00,-5.962740492589102548e-01
-9.788349652765320208e-01,-3.918755814799085080e+00,3.715516145419531124e+00
5.910901852110209909e+00,-6.628144881891550710e+00,6.536856950712151282e-02
-1.804089175150682900e+00,-1.004779562074173960e+00,-8.488549547820930741e+00
3.080188267149606585e+00,-4.990574623952702460e+00,6.125964767842701164e+00
5.607724836060877571e+00,-3.751207960154428811e+00,2.058542495990383081e+00
1.279403886812118474e+00,-6.324174691025851835e+00,2.450265807522559847e+00
-5.927459504896031461e+00,5.314389082856222579e+00,-1.014928174382467407e+00
-5.839680038896545078e+00,6.348331809101602552e+00,3.388629977633216050e+00
2.929336916397392798e+00,1.408390932818642360e+00,-3.943253375964188123e+00
-4.737456152554403443e-01,3.842829785634755080e+00,8.837289339936974741e+00
5.599746909471458700e+00,-7.478506336748370842e+00,-9.683087784280505206e-01
-5.643989872271898633e+00,5.485387008687082400e+00,-2.410420382499669056e+00
-2.904800132787228151e+00,7.834001015047453720e+00,5.584254616960797613e-01
-4.781284664671900053e+00,5.846903937346358049e+00,6.732386966335118572e+00
-1.867217485818971623e+00,4.171656364892370128e+00,9.410990181206623006e+00
5.647968168633911823e+00,-3.846226268927882774e+00,-3.026451069954529061e+00
-5.851556000376072930e+00,4.747376477492944780e+00,3.099655259440918798e+00
3.360771740689204368e+00,7.470563799208620459e-01,5.345847265496707301e+00
1.716375950124214400e+00,3.722799217493073076e+00,-1.587995727006572544e+00
4.259451485720258113e+00,-7.007287650391990752e+00,-6.825309366193658356e+00
-4.386615550143575959e+00,1.795271476928152476e-01,1.346927569226639587e+00
2.853858138550510737e-01,-5.925077989072187634e+00,8.001133617862971059e-01
1.794742319523504603e+00,-3.287705269086321547e+00,7.761805238110500937e+00
-8.916509543117900893e-01,-4.406321338887433825e+00,-5.664511817292445350e+00
-5.754552089067533238e+00,7.484815247537005334e+00,2.312250207126705703e+00
-3.483317211086423004e+00,8.030287047680864987e+00,3.977891493352394559e+00
-4.118759013753425791e+00,6.049795224672553928e+00,7.668950821282883190e+00
1.612481286885616871e+00,-7.185207627588667378e+00,-1.879754011818340675e+00
-3.929251633279728040e+00,-3.215114878495222150e-01,-3.750114827351402447e+00
1.087783605330248315e+00,1.166405614692009429e+00,-8.177897213271720034e+00
4.956488226582784762e+00,-7.854901892121336715e+00,-4.076567721708348024e+00
-4.133117801764889521e+00,2.068881314257881687e+00,6.530345788156719955e+00
-5.599946690603670341e+00,6.642779426887440941e+00,4.514862233946057124e+00
-1.037369773901002601e+00,-4.553638703911142116e+00,8.708197116673737082e-01
5.034924429688919290e+00,-3.706400071046312750e+00,4.304973243713954290e+00
-2.583505822544890584e+00,8.827593598492832205e-01,-8.262512963978782210e+00
5.483908471983009569e+00,-7.433541517984848745e+00,-3.674537589575890717e+00
4.099717678482091010e-01,4.880319223956605335e+00,6.014393869504364609e+00
-3.012306410619602914e+00,4.222188081568107876e+00,-6.945485174877364720e+00
1.012826925913530574e-02,-5.135437996963258200e+00,-6.197487564198680410e+00
4.159121499442215431e+00,-6.833597491961417525e+00,3.197768358316125159e+00
3.655657010832591425e+00,-1.939488536977136413e+00,-7.452706744259148586e+00
-5.766886954930653175e+00,5.652204529855207937e+00,4.017604638602030320e+00
4.079236047302845058e+00,-7.909534486316347923e+00,3.963371501868914737e-01
3.627859550031828029e+00,-7.050343182882190973e+00,-6.951790766479287953e+00
-2.796098309825949979e+00,7.454644510208532360e+00,5.298281704373947854e+00
-4.623501519239143764e-01,5.255776799746734618e+00,-3.673360207661402921e+00
5.946161675685998738e+00,-4.665984125608013677e+00,-3.394210604350136884e-01
5.214747417483244440e+00,-1.924337045794446865e+00,-1.295720501652414480e+00
9.638984317727046225e-01,-6.639664133125345202e+00,-9.304183518457501689e-01
-4.776033340763810031e+00,3.620530841811032019e+00,-5.045528562137183037e+00
3.964411654599011570e+00,-8.243864814540156516e+00,-2.756639139840035391e+00
-2.148055241760192136e+00,6.178979960868569599e+00,-4.078351918233459550e+00
-4.291887483842667272e+00,2.962511224995566739e+00,6.861424586893162036e+00
-4.320091224884857084e+00,3.970967595111599135e-01,-3.635541603133020772e+00
-3.889326340531643833e+00,8.232837665617585898e+00,1.167481334008283911e+00
-2.336666596956181952e+00,-1.609698988015486387e+00,-6.882433146362231469e+00
1.797897184410002680e+00,-4.032053191487720234e+00,7.178231671525706403e+00
-3.261504024327680717e+00,-1.797477802532965407e+00,-7.495834214384378136e-01
-3.023703354225975026e+00,-1.420781789205421308e+00,-5.374467194707241546e+00
-5.566676133907491497e+00,4.288228880691283607e+00,-2.963492206414555685e+00
-2.107955557162280336e+00,4.208600379830055971e+00,9.411762944007545428e+00
8.503128092854940201e-01,-3.463137145931967087e-01,-9.281356658075948118e+00
-2.437501088437655783e-01,6.123004418230277857e+00,1.057152404631917619e+00
9.416320982272033957e-01,4.883973086433116562e-01,9.375309141872472551e+00
5.916146098386500185e+00,-6.868411533482426279e+00,9.073554742551437347e-02
-1.596295616478097812e-01,5.450620131521790590e+00,-2.157579620152906941e+00
-9.254211285832780742e-01,-1.408930142459532187e+00,7.942764004315153059e+00
-2.040212089578986809e+00,3.173492764235790631e+00,9.482322231535533774e+00
3.906418773810528933e+00,-1.695239036823640966e+00,6.389299316937970374e+00
9.956006574013006594e-01,-2.009864788010821801e+00,8.729661422748790756e+00
3.376083486504045439e+00,-1.800381934996704070e+00,-7.767559597388914661e+00
-6.048188406590816690e+00,6.657030907256678454e+00,1.905502094551791759e+00
7.908209793697179579e-01,1.913259777519120686e+00,-7.599763707508061295e+00
1.746214412851994968e+00,2.138979894416720651e+00,7.518828377914821282e+00
3.879678004091797749e+00,1.901684791138829045e-01,-3.370661625813078821e+00
4.693374892004920085e+00,-7.111160688065582214e+00,2.532298913892194747e+00
-1.737810848099954120e+00,1.797463921351074578e-01,8.690848263648094374e+00
4.702335557594407689e+00,-7.400528473622646430e+00,1.890485345967545916e+00
-6.070241516950940941e+00,5.023021176328478887e+00,1.633882222281738850e+00
-4.209274631401704880e+00,7.205568395858106712e+00,6.410303952988418708e+00
4.319268142106230002e+00,-4.518139888460761533e+00,-7.564870464265525563e+00
-4.192470773135658746e+00,2.633836703910023225e+00,6.772408256022628414e+00
-4.978446819002095403e+00,1.732011039092497429e+00,2.808158651718240417e+00
1.468839723675472442e+00,-4.692384467937841031e+00,6.148212052315986220e+00
-7.590867368784907088e-01,2.518903399266553045e+00,9.625018048883539734e+00
2.575188660587913070e+00,2.788786951768293498e+00,2.226478800422524440e+00
7.179773047278238396e-01,-2.094205125590215683e-02,-9.261184692416003728e+00
3.027137077918494068e+00,-7.865482980232449961e+00,-3.654014496687672864e+00
3.892450868036162692e+00,-3.364916408635622691e+00,-7.993502088136430039e+00
1.676255344349519616e+00,-4.126426906032575559e+00,-9.350199811540075956e+00
-3.681251960645544941e+00,5.674102444916305998e+00,8.057190014348451612e+00
4.488799990266846507e+00,-5.637284556565420601e+00,-7.241565698313748634e+00
-5.740567379451758434e+00,4.754436105598391471e+00,3.573297682061259195e+00
7.130797583944256113e-01,-4.756263483016943461e+00,5.202493356652089673e+00
-5.175582604018037713e+00,2.277455403716465376e+00,2.496502637615617637e+00
3.670432176319119666e+00,-6.585508771326255006e-01,6.323932905564952023e+00
-7.889023949046334305e-01,3.235241424697861579e+00,-7.442600295858190940e+00
3.249026522855504417e+00,-5.116383146130200288e+00,6.040396903239663828e+00
-5.292214297043704718e+00,5.173922469459281359e+00,-3.575776704339891587e+00
5.062160082479828738e+00,-7.914431410643870457e+00,-3.926730407487337704e-01
1.088539934904376061e+00,-3.102887925100645372e+00,7.813618529471350271e+00
-2.943783742038781792e+00,2.488077085179640324e+00,-7.819449469431225985e+00
-1.089138311464082465e+00,2.727504816577220215e+00,-8.095927515399589325e+00
5.630783099937888281e+00,-6.220465650515069278e+00,1.931107643327139689e+00
-1.210338126584589169e+00,-2.944580549197331809e+00,-7.602854767555237814e+00
5.827497717346790118e+00,-5.717801329953510425e+00,1.292735328948260154e+00
-4.617892810539394044e-01,-2.902298647563788858e+00,-8.774113642771736110e+00
3.709490432839824159e+00,-1.070939673454092134e+00,6.377817557243128377e+00
-1.833775649869648028e+00,5.726900975144197936e+00,-4.537161750560396278e+00
-4.887630119095471848e+00,6.338611593376362485e+00,6.361179288403254084e+00
2.955856091039481992e+00,-4.557941872661229077e+00,6.554551143152582249e+00
9.550317693231602512e-01,4.251298066366664408e+00,-2.879720444696477699e+00
-2.578140939254857322e+00,4.996497425634414569e+00,8.867918231406299867e+00
-3.096576283377836525e+00,5.246244994696918518e+00,8.578011451566817769e+00
1.009517163226097525e+00,4.843067797375844030e+00,9.678521791293814847e-01
3.234758689025257539e+00,-6.176769870980986177e+00,-7.915027021662123907e+00
3.739365374117418650e+00,1.130461685458914678e+00,6.038711708343417195e-01
5.514825887765852919e+00,-4.919662576225453776e+00,3.086754370803968417e+00
-4.214340487497737264e+00,8.253326165532417491e+00,1.703167831325929971e+00
-1.364960292314612023e+00,7.029841058147798805e+00,2.185744062944850796e+00
3.638121227012563796e+00,-3.479802566155625748e-02,5.750040396193265124e+00
-4.032697084226313677e+00,6.450930163187090116e+00,-3.978763799339514406e+00
-4.323590412441132180e+00,4.632775277366636857e+00,7.693341029470561310e+00
4.339943974027961615e-01,6.724439599611473639e-01,-9.044901670403149296e+00
-5.505756565685112847e+00,4.977124543712801774e+00,-3.154927300107341903e+00
4.598510663809038057e+00,-7.957795136961529181e+00,-2.135941017664281377e-02
-2.077223879667776885e+00,5.953951611153151191e+00,-4.452288100067767651e+00
5.814865265850360565e+00,-5.273634400107554576e+00,1.531596429717096086e+00
2.795784423531751273e+00,-7.627664313481368197e+00,5.668681620518770670e-01
3.778610560406815200e+00,-5.002376475218484941e+00,5.850895223531569656e+00
4.523902172732350735e+00,-8.217034500247811124e+00,-1.373920512133950167e+00
-1.106744541100233237e+00,3.344067072293400944e+00,9.558797100883284159e+00
2.537922345125748436e+00,-2.927270404269133319e+00,7.968719626150464919e+00
-1.454542940720439992e+00,5.911654816571180859e+00,7.274164523529035975e+00
5.882750621265308233e+00,-6.943867136808481888e+00,-2.633366930508065806e+00
-1.529099316907081008e+00,-2.381014717195228059e+00,5.772890692055298700e+00
4.099479190861097244e+00,-7.180354539313219320e+00,2.771940641299039498e+00
-1.451116936796408519e+00,7.053882554984961750e+00,2.698450130276683456e+00
-7.107307185962020712e-01,-4.933228653974677691e+00,7.881137010054308778e-01
5.278523535380681864e+00,-6.738074396954838008e+00,2.256389446668264576e+00
-2.867672944863649320e+00,-2.111245948844256315e+00,-4.110976458455231963e+00
-1.708137490238988088e+00,-3.970579696263857983e+00,-3.114770958312869098e+00
2.732872668436092223e+00,-4.909415103041935846e-01,-7.664862427849562287e+00
4.679044714227224233e+00,-3.250493638012679654e+00,5.210240164862491419e+00
1.981603190320705976e-01,-3.880811709444800250e+00,-8.578591514296675768e+00
-4.483241408593218402e+00,9.489561641174979467e-01,3.103556304760755502e+00
-2.175744406275334775e-01,-1.437595176704265509e-01,9.468783856710775382e+00
-5.236323689852015129e+00,7.711018208262022888e+00,2.396827431260837582e-01
-3.381348264391314529e-01,5.770267936858314961e+00,5.414239716871890096e+00
-5.518090140045732728e-01,-2.214590640752030826e+00,-9.173344918329661368e+00
-3.938788740927483545e+00,7.190725606876483766e+00,6.587945147455767092e+00
-1.001964030615996704e+00,-4.129562450018808839e+00,3.009771067155091018e+00
-2.382276975132635144e+00,-3.166202711971843886e+00,-1.236296914778935774e+00
3.581428001347283452e+00,4.437027576219469971e-01,5.017397700210692868e+00
-2.556822571102125519e+00,-1.171532261716983880e+00,5.762679253624703790e+00
-2.806734953411686995e+00,-8.965907535008991180e-01,5.448347721537860622e+00
-1.705039208791093719e-01,-3.277761487989209854e+00,6.460097568317806349e+00
-2.108967564567097330e+00,6.732529556790930236e+00,-2.681059129706540034e+00
-1.869206957196870134e+00,7.234687745726148478e+00,4.136292660211702277e+00
5.536447372043919180e-02,5.619349447813432263e+00,4.629740577177019922e+00
-1.972753664451025291e+00,-2.423925148185325007e+00,4.758232274861825317e+00
2.108569792988139291e+00,-2.899249686472169518e+00,8.164125567531216987e+00
-4.984285712355569053e+00,1.545627035806211858e+00,-1.530099311899180137e+00
1.435144070059080623e-01,-4.393116180035450569e+00,-7.879444128156631422e+00
2.125970586930245598e-01,-4.480000765608885160e+00,5.137108472943139326e+00
-3.382457019200896919e+00,3.242668624751781969e+00,-7.242885294604579194e+00
5.235510786186694965e+00,-4.585495350000797110e+00,4.086774266362050767e+00
-3.916107086982739016e+00,2.348647810664724833e+00,-6.649042465510057731e+00
-4.993898140792966345e+00,5.362484533036726120e+00,6.536981664932436153e+00
-4.044989533883080135e+00,7.300743826851852525e+00,6.454976888255668399e+00
2.497108635099208218e+00,-2.348930308422772395e+00,8.177268661605053168e+00
-4.423850111835573862e-01,-2.369975555740475581e+00,-9.068922213529353016e+00
5.146221483358099036e+00,-2.057293006829500115e+00,-2.303479714647819865e+00
-4.416285804293220707e+00,9.795859978581039629e-01,3.710343744508347363e+00
7.894656644666981915e-01,5.054852728721867194e+00,2.128836807821193222e+00
-3.188804475008632622e+00,8.090922353406140743e+00,2.219967212760218356e+00
3.752632458125588322e+00,-2.867327138417443688e+00,-7.980742855130350755e+00
2.802890576181111371e+00,-2.406569599013392846e+00,-8.805619649182796493e+00
-2.526439254298867843e-01,-1.559892408824919974e+00,-9.546497334751105512e+00
-3.726358124073017475e+00,8.205839187752255626e+00,1.315611698838651922e+00
5.490729309561510618e+00,-2.871518792915394247e+00,9.060512121346365744e-01
3.279002850158707627e+00,-3.319617887851516347e+00,-8.653462775313665034e+00
-1.506450816341441845e+00,-4.266776242824510845e+00,-2.548371869461208750e+00
-1.326805955139015003e+00,-1.291984071058714933e+00,7.635567048835420145e+00
-3.336216407314641419e+00,-6.374903213886040643e-01,4.467200550812374438e+00
-4.409599465953945585e-01,6.195284054208475943e+00,3.720973274904262329e+00
2.630402834641303311e+00,-6.923075054009611762e+00,2.672170237369307699e+00
2.753643022141674113e+00,-7.910724893040895545e+00,-3.021998433768429138e+00
5.355852809593034003e+00,-7.870593513538160835e+00,-1.311453367292182426e+00
-3.130841347241321238e+00,6.040544793501977594e+00,8.106625937006029403e+00
-4.493408465110388050e+00,8.604958108163859309e-01,3.007296428854687953e+00
4.234617251076014277e+00,-3.529468818040804923e+00,6.132204590729928739e+00
-3.603516425511573029e+00,-1.116615489327403843e+00,-2.556891600456502101e+00
1.060545414353497806e+00,-6.476540364954257889e+00,-4.838580799331005267e+00
-4.998275474546324482e+00,5.323212319266320769e+00,-4.122888567507611235e+00
-3.392898304720976199e+00,2.083003967343490803e+00,8.021033882760056244e+00
4.934198416452211688e+00,-7.594894058233579770e+00,8.868552139198346840e-01
-3.311775175127934290e+00,-1.259245761288412702e+00,2.850426487738238368e+00
-5.446120698321201825e-01,5.810522328929617508e+00,-1.992860567789631610e+00
5.673014786320134561e+00,-3.303867880747941577e+00,-1.633077027592713115e+00
-2.389373596294459556e+00,6.097584697034008627e+00,-4.450399631641795750e+00
-2.276906111241143726e+00,2.215042815080902727e+00,9.278971776839039620e+00
2.003554802336121043e-01,3.341914755906082224e+00,-6.318963689992414423e+00
-3.615731634452794552e+00,7.495131495765125607e+00,5.985309927759247195e+00
-5.473407150407270549e+00,4.888742923496656623e+00,-3.019032368334565675e+00
-1.282139799122570478e+00,2.048642541036698184e+00,9.736152528410558560e+00
5.150871964963736005e+00,-7.538111113622012915e+00,-4.317100956942230283e+00
-1.465714553813831866e+00,-4.065536568182664290e+00,9.980282667442512690e-01
-5.657669285323795982e+00,6.870409236110279316e+00,3.906807803783958644e+00
-2.131140941186262072e+00,-3.195492673398603767e+00,-4.361347704415104332e+00
-1.330676786086887109e+00,-4.353523554103429838e+00,4.946718705656706350e-01
4.000770368746752403e+00,-6.166786779864418477e+00,-7.518091106424434678e+00
4.640439052661155195e+00,-6.926202599143463923e-01,1.564888194808160549e-01
2.749405114048384391e+00,-8.478691278778597296e-01,7.977264502616242758e+00
2.097053649397035979e+00,-1.119008767136517646e+00,8.660822529563722227e+00
-4.133538170616941620e+00,2.399184090518113877e+00,-6.191676090900136487e+00
-2.938044777389461348e+00,4.234916010612256088e+00,-6.811343472800957421e+00
3.635814695110149763e+00,-8.105478896677441369e+00,-1.418728462430369097e+00
4.103866005464478661e+00,-3.647759847076303075e+00,6.144829882462576442e+00
-5.687814228963661733e+00,5.071859547949136626e+00,4.392082461053214537e+00
1.395806283004959347e+00,3.982145818816685834e-01,9.018902259585008352e+00
-5.276564880896158272e+00,6.469357045170132992e+00,5.598218786196749619e+00
4.887236670057655274e+00,-1.519599381289136852e+00,2.304523094507368697e+00
-5.106536685655818530e+00,4.181062116865812861e+00,-4.315041811916519698e+00
5.778194342503290670e+00,-6.182599912394054265e+00,-4.233015242810322043e+00
4.952973777973082470e+00,-2.414190530135517765e+00,3.815683978979089730e+00
-6.005587601537680342e+00,5.716990470295451487e+00,2.837396373953372741e+00
3.220881118141775801e+00,-5.657167306317523625e+00,-8.369967705997741092e+00
-1.272651859356158432e+00,5.102722697647720906e+00,-5.311865327696257744e+00
-2.491095737591658033e+00,2.509317267371180549e+00,9.124535505407168401e+00
1.112728803382855292e+00,-2.038980201736155795e+00,8.701557688577683081e+00
1.621011856688924446e+00,4.515832368002111741e-01,-8.296890544549366808e+00
-2.942489776160654102e+00,7.695939848559581797e+00,-3.945122236962289586e-01
5.794217846901690727e+00,-3.774479526148082353e+00,-8.301765617652201099e-03
5.981265736190219506e+00,-6.344455514601847312e+00,-5.802448797574922823e-01
-2.670091204884742719e+00,5.642718807201361209e+00,-5.230985051314346101e+00
2.967286124457992891e+00,-7.564500700585637283e+00,1.268591670212807720e+00
4.177252243623300387e+00,-2.210935275608187034e+00,6.064675056426222177e+00
2.525453032093771810e+00,1.644684565305052137e+00,6.350191350502824683e+00
5.940906706250635771e+00,-6.223013961590598164e+00,-4.204612687722459469e-02
-4.845925517960463225e+00,6.189970145140478941e+00,-3.759227906497467853e+00
-5.012415397211106516e+00,2.207187790067486777e+00,-3.414641308539852371e+00
-4.213026018497937564e+00,5.241089582024509586e-01,3.733862810518672859e+00
-2.939498379221213153e-01,-2.402798690693911166e+00,-9.363170671639934994e+00
4.134849666531416057e-01,-5.863935004502716986e+00,-5.158349796496408679e+00
-3.907898625540194182e+00,3.537441335550012056e+00,7.975557274960403120e+00
3.496013733022501846e+00,-3.482218654050801998e+00,6.904842187355838767e+00
4.472743755463264748e+00,-4.025113557529419239e+00,-7.178881843838202492e+00
6.007331224512070245e-01,-4.928847456352653644e+00,-8.013777189180796512e+00
-8.046827746901283884e-01,-4.759433433872661823e+00,1.359886156500248910e+00
2.494592260635626779e+00,-1.208670720624408057e+00,8.348177422886211119e+00
5.700979006567734153e+00,-3.918938234528922315e+00,1.348387053119129320e+00
5.696543525754933945e+00,-5.663344392933094440e+00,2.232856282909553070e+00
1.419053914379782899e+00,-6.129686239510500734e+00,3.013505710565328233e+00
-1.066765940218363129e+00,-5.984473295552716898e-02,9.024196379065813289e+00
4.746900718673065178e+00,-2.980319172646598513e+00,5.085062480622022818e+00
-4.746954153003505539e+00,7.710773492940218077e+00,4.897473464591366010e+00
1.652898564985069707e-02,4.404755314969246882e+00,-4.865519752884679860e+00
-1.340873013661141533e+00,-3.348889891327402335e-01,8.599629265804670908e+00
1.604977311955110952e+00,3.652937971050846055e+00,-2.244162555716277652e+00
6.036185990102773680e+00,-4.830935123771642914e+00,-1.797876440758670702e+00
-5.768846839930129811e+00,6.521448085859766763e+00,-1.117719939330620305e+00
-5.188137217574530169e+00,1.910199837375070819e+00,-9.665943114476840308e-04
2.457370026786793726e+00,-7.460685490523159658e+00,-4.978399321060125615e+00
-3.938001469863668280e+00,-3.177604332533118248e-01,2.710569624923226506e+00
-3.563057118717515959e+00,2.755492596608704492e+00,-7.039484128901912996e+00
5.148473070122369100e-01,1.578966647808977664e+00,-8.275438576836794624e+00
-5.959981114094961008e+00,4.731964167316139225e+00,1.019669331240933730e+00
-2.406839621361285264e+00,-2.443969869642857340e+00,-5.419336911261686041e+00
-1.904953690183097015e+00,-3.665563927740264738e+00,-3.064220181031062307e+00
3.436751412807476758e+00,-5.596444424782411886e+00,5.309288453810780517e+00
-9.642939473091468594e-01,-2.036306975207112568e+00,7.308167544068316701e+00
1.370221420003124635e+00,-5.593045241267533108e+00,4.440511464470869640e+00
3.382320330907063965e+00,-2.341040856819466942e+00,-8.162175666798715312e+00
-2.198761502556573877e+00,-1.226583308519963778e+00,-7.721769223692525941e+00
5.304052847925537328e+00,-2.809830012986159531e+00,2.378988556747347882e+00
-5.887457284431087068e+00,5.685028409684758088e+00,3.658754790430440273e+00
4.943271646895644800e+00,-4.627638019543266701e+00,4.437502293533587050e+00
-5.899405188881039486e+00,4.925214470239070330e+00,3.196416780290054049e+00
-4.414164704377864012e+00,6.318494037213596926e+00,-3.898891610881751735e+00
-5.849024530752858553e+00,7.146344603369502835e+00,4.252148729259546123e-01
-1.453224511477529401e-01,-3.950431424300800409e-01,9.244609114202200217e+00
2.106912369362159421e+00,-7.480812302186046203e+00,-3.177512526584681751e+00
2.429712982005765021e+00,-3.825184767390767071e+00,-9.439254692741634756e+00
-1.665374084579427816e+00,6.930704303901689123e+00,-9.961147302270486614e-01
5.763265333362278753e+00,-4.066470993551352997e+00,-2.762131289253437316e+00
5.654090649276604985e+00,-6.472978910543870867e+00,1.779473069036271005e+00
-3.239983746908353002e+00,7.919487603973449197e+00,6.791090238776220644e-01
-4.775230930213560931e+00,1.428759339618838053e+00,-2.932697068346670655e+00
-4.233628284264445263e+00,2.247378621770297347e+00,-5.804823072485174151e+00
-4.821417077363981285e+00,1.258152311827067660e+00,1.703952084920184573e+00
4.086423243807966177e-01,-2.041532046702812409e+00,8.516734278550616821e+00
2.208562372848888788e+00,-3.891844186588056864e+00,-9.440382474782515132e+00
3.566570557103429628e+00,-7.862136553319844623e+00,3.297044749314717027e-01
-3.348193643752732207e+00,5.397563076243357294e+00,8.347237216626409051e+00
4.241689279815106239e+00,-4.989568104183504382e-01,-3.173530896120889899e+00
2.115759493382282752e+00,-1.034936703172314038e-01,8.604547444564738967e+00
-5.277194176966220951e+00,7.653152676640780250e+00,3.688281996882240676e+00
-6.042922135417355456e+00,5.461385032541580031e+00,1.676478163788065689e+00
-3.019185605597551891e+00,-6.813631369042778552e-01,-6.379177713400820515e+00
3.878637498049520183e+00,-8.141139685323123487e+00,-3.536370543269985234e+00
4.979025907036990439e+00,-7.872906206455585476e+00,-3.834099325898790322e+00
5.834419245478327021e+00,-5.290388409337570153e+00,-3.852457769119297826e+00
-4.390643015702535124e+00,5.039986884771200382e-01,2.534708411093549607e+00
-3.579343876803901647e+00,3.356898052851652547e+00,-6.874653454251859586e+00
1.116085886767732349e+00,-5.207039024902886837e+00,-7.999335273583414896e+00
5.857303161238616163e+00,-6.150060024631118338e+00,-4.099102070268525466e+00
-3.972969421753437924e+00,-6.481765942346280340e-01,-2.059849334396320064e-01
1.807503167902231533e+00,-1.145134077712025022e-01,8.866194325883849814e+00
4.720119628336493456e+00,-7.928045543996653954e+00,-4.567298232323047102e+00
-8.034885071666437728e-01,-1.999156965766136107e+00,-8.973834436865779196e+00
1.311386635762546438e-01,-3.118545324606370794e+00,7.116854905231573269e+00
-2.086497880853984466e+00,6.040649752557420094e+00,7.965865981208104962e+00
1.796812776914114451e+00,-3.157597889583851347e-01,8.819077988813067037e+00
-7.355997343998018634e-01,4.460284922232683691e+00,-5.858208342021251624e+00
-4.557971538690773983e+00,1.679929539460879750e+00,-4.596112195766139941e+00
-1.094274060661694303e+00,-1.136062028079791064e+00,8.143278468789162616e+00
-2.643598317370241535e+00,6.438898231108248993e+00,-3.877998687273585432e+00
5.729751487023952095e+00,-3.760196820904907256e+00,1.460753264917384442e+00
5.966363174217808485e+00,-6.288053144064169153e+00,1.724647276969989429e-01
4.809886907449503646e+00,-4.088881951101816625e+00,4.969501883923468810e+00
-9.284661395083938507e-01,-4.790981075921802557e+00,1.578339306573750545e-01
-4.061081017932948178e+00,2.158736433519171438e+00,-6.386318551183823189e+00
6.321464698903533908e-01,2.244681775981458127e+00,9.028759425874367750e+00
-2.556173240748441877e+00,7.825262835738884704e+00,2.220775999683851865e+00
8.414207208584518760e-01,4.897234016144361490e+00,1.988165347523430659e-01
-2.961267597708300503e+00,3.045548681458823737e+00,8.866612934025063453e+00
3.707318263651761647e+00,-7.805169015660622378e+00,8.712907635746209856e-01
4.015934586189376709e+00,-5.682225730723832413e+00,5.093694491581625350e+00
1.949418246933823040e+00,-3.353230541183725322e+00,7.689089493334757996e+00
4.821563604405876724e+00,-1.839377336802553442e+00,3.877865543405709658e+00
1.977791962474224174e+00,-7.129366663595204656e+00,5.707071502027482035e-01
4.871866309038019871e+00,-3.311164954906844038e+00,-5.899523682669205016e+00
3.710945373209239229e+00,-7.165981301690255378e+00,-6.684840760338201626e+00
5.239377657011484724e-01,3.650097195748144951e+00,7.899262582444496417e+00
5.994501291595653925e+00,-4.545640664107241768e+00,-5.404204677902434417e-01
1.869147324629098827e+00,2.006014932956070140e+00,7.656837663681751671e+00
1.636306378175615306e+00,3.396654566370673756e+00,-3.167082269352198054e+00
-2.221908453650899951e+00,-1.279106738069005988e+00,-7.608710471600871550e+00
4.027375025134793951e+00,-6.536955022925914349e+00,-7.259394194814333012e+00
-4.915028926621242356e+00,1.152505395900342400e+00,3.337335296509015836e-01
-1.206780625615223368e+00,-4.542756973186376612e+00,-2.985259362797965554e+00
3.630454407594059241e-01,2.845749504976232025e+00,-7.016011570711524037e+00
5.963266376897558452e+00,-4.812926352927391349e+00,-2.025555291402884595e-01
9.355508168897865851e-01,3.580493115408045046e+00,7.300746592323641870e+00
-2.614296036867203021e+00,-2.229476473260441072e+00,-4.898968210681728053e+00
-1.540911307829367083e-01,-2.266758442357666770e+00,-9.399128362027310502e+00
5.989703701266474667e+00,-6.678931426108343672e+00,-2.479075613685421953e+00
-9.424427259226824116e-01,-2.972385257690660865e+00,5.954616402403132724e+00
-7.073832003917013278e-01,6.468812042044401522e+00,2.876649159456443172e+00
4.153559898325980271e+00,-1.075042235508355759e+00,-4.909500731274159868e+00
-2.943876177721262533e+00,-7.915316800922200802e-01,-6.655262408301440225e+00
-8.951785749849661133e-02,5.788392348303285750e+00,4.178838707028241117e+00
-5.607053879582061917e+00,3.977179971682540671e+00,-2.352877389305934486e+00
-8.787788634985838065e-01,2.833118806837084058e+00,-7.903625024838953017e+00
-4.453345876751908961e+00,7.172969915289222342e+00,-2.369426080948108027e+00
4.143119151404254019e+00,-7.172454074190878437e+00,-6.654554211202381886e+00
5.150617243581390170e+00,-3.812552752619700502e+00,-5.432605225872134902e+00
-1.636844625529170427e+00,5.271464174784024515e+00,-5.453448365380135776e+00
1.549578538233309599e+00,4.190096533684752877e+00,6.872614342366953344e-02
-2.366810768683451638e+00,2.798731409382658519e+00,-8.053014152139491344e+00
-5.979616418601837680e+00,5.327635036345185426e+00,-4.380013011929009825e-01
-3.879950731383103868e+00,9.110682634857925066e-01,5.611763386772760320e+00
-4.132253581826070388e+00,6.686022979503498220e+00,-3.676854394337445875e+00
-2.218201998774817607e+00,-2.685703893237163520e+00,-5.321322867264046685e+00
-1.432553909908841072e-01,-5.472673179867607374e+00,1.007428386498659290e+00
-4.495509543400172170e+00,6.572043489619053602e+00,6.901158361825588727e+00
6.114361036370741687e+00,-5.774260167091515683e+00,-2.058956144960531476e-01
3.740753638405487358e+00,-3.971239386703834917e+00,6.505434876593771065e+00
-3.658824381269809134e+00,-3.381736829232435126e-01,-5.122254746778483359e+00
4.707691961624791865e+00,-3.418493317237676798e+00,-6.396494559415267567e+00
-2.746177560960712527e-01,-5.633045883802513032e+00,-2.275247088367447823e+00
2.212817909804249528e+00,2.660337697035142668e+00,-3.280258285384094030e+00
-9.060404043367596971e-01,6.617298487105057525e+00,1.235037014054437998e+00
1.722198978601477748e+00,2.454663468003743798e+00,-5.361344492907197612e+00
4.753095741754229109e-01,-6.149222412748702737e+00,-4.460929209049457000e+00
5.216307208011388141e+00,-4.679533830222226243e+00,4.055570316894030469e+00
-2.177636658332736452e+00,-3.396786035809536308e+00,-1.738864388460003435e-02
7.099473185871765235e-01,5.056402023110688759e+00,3.334519474890666135e+00
4.217371131856740618e+00,1.957810798872096913e-01,2.602167192757383063e-01
1.187831072623753093e+00,-1.163877507617818496e+00,9.095060841633703319e+00
5.174511444714109842e+00,-7.185819271943534758e+00,-5.250941455612454511e+00
-5.453126736918382456e+00,3.757535742951492619e+00,3.875308617117656507e+00
5.758015996429390881e+00,-3.771082847991090503e+00,-1.922108949387094423e+00
-4.587521867722572644e+00,8.133447443949426869e+00,1.776520418781314614e+00
-6.028027668172232012e+00,4.711115708425298365e+00,9.538637994049044277e-02
-5.177256101135576216e+00,7.232743437984953339e+00,-1.387009718580776374e+00
2.062948929976175239e-01,-3.706284362899615825e+00,-8.838846318091619025e+00
-1.728696230536507894e+00,7.217521275558048899e+00,1.390947843326632460e+00
5.728372564642281173e-01,-5.989742816762443134e+00,1.737819428400009913e+00
-4.794987355043065946e+00,5.799177498731324931e+00,6.908530766141776525e+00
-1.708676138236320474e+00,-2.628240430830959817e-01,-8.913199726000861745e+00
3.002596050521644688e+00,-7.384048404197085524e+00,-6.053308260596184986e+00
1.273585315149299069e+00,-6.571559040506685712e+00,-5.280524382517200799e+00
-1.312539895557885083e+00,-2.685251049829756376e+00,-7.697163247830402177e+00
4.460521188275836657e+00,-6.504754698297497306e+00,-7.085968942665879844e+00
-1.857588018940671271e+00,-3.521126476715261244e+00,-4.321981196096346345e+00
-3.876628140690680624e+00,7.117929260189644225e+00,-2.697702119007689969e+00
-4.572065252162127891e+00,4.289652548862322057e+00,-5.377530883593602873e+00
5.570893832458923889e+00,-4.070755344682892130e+00,-3.775189448105973788e+00
-4.330780018592149005e+00,7.639711675133467494e+00,5.587306732908561280e+00
2.547682813689045922e+00,-5.220359618266670942e+00,5.980088921979773708e+00
-2.273146264361521673e+00,-3.142350412528179593e+00,-3.331344714117876471e+00
-1.391802393859168818e+00,-4.424872539696669271e+00,-1.331829491750440075e+00
-5.242993637700214649e+00,6.220256631117373480e+00,5.906056054394002608e+00
-3.116845042190405923e+00,-8.520187529268523630e-01,-6.160933542871134705e+00
-2.403745070734483735e-01,-4.158314632133660815e+00,-7.648404866606156816e+00
-3.207078895976106736e+00,-2.533696615178621658e-01,5.521813344173661875e+00
4.465367238774261338e+00,-2.640384738401416187e-01,7.448224585288441002e-01
-2.845118322961377455e+00,7.860636117723849736e+00,3.854518608346070963e+00
2.330243621620573968e+00,-7.469791791294778882e+00,-4.724893782700879896e+00
-4.323350329341652198e+00,8.055990660455627506e+00,-1.104993965805416561e-01
-2.259229727072918692e+00,6.362761759247534954e+00,-3.838884004334734978e+00
-3.856605442079133361e+00,1.876990867985104117e-01,4.183865380302489001e+00
1.234340777593864846e+00,8.185015758181567458e-01,-8.331519370132005164e+00
3.002718574192359213e+00,5.662771768105974157e-01,-5.641814022078389890e+00
-2.373262867221537231e+00,6.844042099721390215e+00,-2.675560064757950940e+00
-2.522554038727980785e+00,-2.881000952143511817e+00,3.841486699316651321e-01
1.964807031600343423e+00,3.524604170204272968e+00,-7.515990554012657032e-01
6.022869195113639051e+00,-5.279950215822744042e+00,-5.526293474384653681e-01
5.765351717118919694e+00,-6.105886456247673344e+00,-4.275639194613817473e+00
3.099573342195306225e+00,1.506916299737594889e+00,-3.191119678823622685e+00
-2.777974615109850998e+00,3.027643121067795207e+00,9.178365348423355385e+00
-3.899811725091688164e+00,3.008467569278799214e+00,7.742385836987667247e+00
-4.021439282369717816e+00,4.086643152677713609e+00,7.992133711964024556e+00
-3.580391141278968625e+00,2.043719466825564712e+00,7.483424316461286807e+00
4.125134178759153336e+00,-2.183263676141636023e-01,-3.346119987123792772e+00
-1.312372642752897889e+00,6.908503497463460263e+00,3.784008818959442522e+00
-1.653801182400950198e+00,5.620857773352036624e+00,-4.557167938759713266e+00
-4.505986953632089786e+00,5.598209701285818962e-01,-2.311710232144297716e+00
2.905504164247921572e+00,-3.381854934855308414e+00,7.542497392289098990e+00
2.907672438763667433e+00,-7.583445008368677520e+00,7.650871466915531993e-01
4.302564531603390918e+00,-7.623504612602774344e+00,-5.365239781485838577e+00
1.754044857439692739e+00,3.658918323580659493e+00,4.548448769112487078e+00
-3.275215640603282630e+00,-1.854383171514899731e+00,-1.594888471008624853e+00
4.331156920499776852e+00,-6.200226249826280345e+00,4.095962146150707639e+00
1.480234234524897274e-01,-5.578496989290887775e+00,1.912826553682212660e+00
-3.373689782577716567e+00,1.613630564074880258e+00,7.674685274390620648e+00
3.724812008844994304e-01,4.988900058726851938e+00,5.430111028576641630e+00
-4.095818399684849176e+00,6.699951251617475734e+00,-3.783095302662052628e+00
-1.726645643820874376e-01,5.132079609400358677e+00,6.772190352698175708e+00
5.001962100953006640e+00,-2.651624387797069993e+00,-4.579004944726999149e+00
-2.130970939338044268e+00,-3.266406254029715850e+00,-3.514678513557629280e+00
-2.459698663180018841e+00,-2.246486427459465585e+00,3.490223499551453834e+00
-6.829808925390659091e-01,-2.847949816150793900e+00,-8.523080726627650705e+00
1.104734796393755658e-01,-4.950509667945713232e+00,-7.022825777061219910e+00
4.443034762051221165e+00,-2.815638003384962618e-01,-7.593713891775487612e-01
4.558565213846692554e-01,3.367964697664124429e+00,8.339360792244489673e+00
1.943147674829414306e+00,2.822825444093750136e+00,-3.649026945774163533e+00
-1.592247780459195683e+00,4.058874622795888065e+00,9.458420428516276957e+00
-2.538471148276604250e+00,-1.918525771875646546e+00,-5.971430031222279666e+00
-2.813923849851278081e-01,6.094562928671163782e+00,2.023749800654674580e+00
-5.698404324621415551e-01,4.567944409755234858e+00,8.415320363636674017e+00
1.018186559131218027e+00,-4.860213541630988843e+00,5.371583524590083591e+00
2.174487259670765393e+00,-4.369686729506442546e+00,6.851429421917764273e+00
-3.577502081876882567e+00,5.540812987532528489e+00,-5.419205108706301566e+00
3.544582586118740331e+00,-7.728933136202269516e+00,-5.180347082197781283e+00
6.655608341175044407e-01,-6.399206991995360028e+00,-3.742344829329424805e+00
-2.012035728836699011e+00,-3.313863330835053134e+00,-4.297693123381987945e+00
1.233108522316262334e+00,-4.679048658870196498e+00,6.023158379473096069e+00
2.585299114458333047e+00,-3.367144731240312883e+00,7.749403798199969273e+00
-4.501811929440467375e-01,-4.981885991580032425e+00,-5.372801127585133507e+00
-9.620253952909894046e-01,5.765614351170845531e+00,6.879877667597027902e+00
-6.668588743390069240e-01,-2.141705670531393491e+00,7.404013134856165301e+00
2.920962705442026408e+00,-2.021339448510910852e+00,7.824924000153876236e+00
-1.178314976649365242e+00,-1.885615585259388327e+00,7.141028010390208181e+00
-3.235160872930321396e+00,3.910197878716013875e+00,8.909412218759744206e+00
-4.092595490539943981e+00,5.383474375383189292e-01,-4.602041680958457448e+00
4.834760233901042703e+00,-9.818448092254336013e-01,-4.463039747505156973e-01
1.930829502756841620e+00,-4.904140889167956985e+00,-8.937632498533956138e+00
-3.240988517967265281e+00,4.030958427922980647e+00,-6.823038867118708772e+00
2.263494086440003716e+00,-2.266312279325913615e+00,-9.220678470403816718e+00
-4.474714800372799672e+00,4.216618950510252262e+00,-5.550730918954857707e+00
1.880698825320306078e+00,-4.092998495658583202e+00,-9.394508448448110727e+00
5.443173271326154250e+00,-2.758958241157867253e+00,-1.741992886692495635e+00
2.729651120795241470e-03,1.374294672067396972e+00,-8.719734089715371894e+00
-6.071666707706266930e-01,2.837513229787988145e+00,9.610300226077789887e+00
5.425017459680790743e+00,-7.309928427748841884e+00,9.086588928525514142e-01
-5.110300306168808149e+00,1.913078623959375113e+00,-2.318430315787129992e+00
9.150895494651935247e-02,-4.657151015693663965e+00,-7.561687025820579500e+00
6.857576171323535030e-01,-4.430149293827359891e+00,-8.667789456561424188e+00
-2.528238682664321946e+00,1.604601897464501825e-01,7.603829525326976757e+00
5.952200688113832960e+00,-7.014172996236121449e+00,-1.688494302992868290e+00
2.566730392229402469e+00,8.363726572070075971e-01,-6.068813453420736970e+00
-4.092327898610160553e+00,3.018978523042493034e+00,7.359461222607198039e+00
-3.575311504298771537e-01,3.256777239698847914e+00,9.295756402675882768e+00
-2.008437416794802477e+00,-4.164490823948437392e-01,-8.455704327050600710e+00
1.275127862110682297e+00,-3.144318021083998715e+00,7.763437928285370937e+00
