-1.132441444932356100e+00,-7.591299264627719090e+00,2.791623347297726987e+00
-7.101884380228977445e-02,3.582315724718434513e+00,-7.136444218077969026e+00
3.907906442116910739e+00,-9.000140319574984060e-01,5.159684652397620752e+00
-2.416059835129306776e+00,7.643928547978185328e+00,-7.491290568155117846e+00
3.078925334245243839e+00,-6.878255381878789265e+00,5.468193956628200958e+00
-1.058251356887030203e+00,8.527874089241652689e-01,-6.140138395625160506e+00
-9.797097050607340707e-01,-6.060821753422275471e+00,1.118116808906392118e-01
3.198918553821921584e+00,-6.859091926064650124e+00,6.912524663527142010e+00
3.950414538353402172e+00,3.386888396986285521e+00,-4.993489268932307934e-01
-2.634064742246174706e+00,-1.734536597648874245e+00,3.730541603084351010e+00
4.297659238146631644e+00,-2.047474546845191590e+00,5.201272576621839505e+00
2.510765883914143348e-01,8.646388317762848885e+00,-5.052383035847574533e+00
-3.222495332509831001e-02,-3.877973304404767507e+00,7.190353074195393823e+00
2.037250645178509956e+00,-6.558525976046927219e+00,8.311124417130374198e+00
2.545232649742553033e+00,-7.633691194869277830e+00,7.700069656560987852e+00
-4.231987333189950462e+00,1.656596098764164138e+00,-1.553449271911250928e+00
2.523302135695482118e+00,5.137913828733505106e+00,5.656170644492028998e-01
-3.966311323436745528e+00,4.902168553168986698e+00,-4.624117281442837957e+00
1.328812574352277731e-01,3.307550911900969393e+00,-6.872334026827339848e+00
1.914599319753137019e+00,3.760739686021330908e+00,2.426071321967921079e+00
-2.409850565671159406e-01,8.318736031236376505e+00,-7.468651933819062450e+00
-5.452255955600467940e-01,3.785614492731417702e+00,-7.494989419732888791e+00
-4.458857373195591833e+00,-5.237935482463549342e-01,-1.815232293502071714e+00
3.875195655482678525e+00,-7.654118372450179342e-01,5.198620478754311769e+00
-1.524640667232449065e+00,-1.093250559664266985e+00,-4.793615456613178338e+00
3.703623292057272476e+00,-4.934075435211410010e+00,7.082486828731171968e+00
-1.276338937153509434e+00,8.485642879337991218e+00,-7.318751787711637924e+00
3.220568635243743483e+00,4.919569233037987210e+00,-2.885504379122530327e+00
-3.390864151640883062e+00,5.449049366988327314e+00,-7.563583122820045190e+00
4.731458049166000768e-01,3.257468889606925266e+00,2.798074747457920175e+00
2.663618178279675064e+00,6.523832173713471683e+00,-3.407569680061546258e+00
-3.017913595360410817e+00,1.138552913677391309e+00,-6.111476259439659664e+00
-3.167680822197645463e-01,-2.039381717899010127e+00,-3.705391739996875877e+00
-2.633729808928110927e+00,-5.132745942038532405e+00,4.489605848663122956e+00
3.091892743034788005e+00,-2.028291257617981014e+00,-6.754057278401184305e-01
-2.069512199932045604e+00,7.947972456549547537e+00,-4.987547855855885892e+00
-1.194037551577446843e+00,4.602796545327487721e+00,-7.993135619274426951e+00
1.365729547191089521e+00,-6.273546883323857237e+00,1.546759830622054466e+00
5.013528435669509786e-01,-8.702012695676593523e+00,6.911491652882353343e+00
1.554744777583513038e+00,-1.847005622181681739e+00,-2.603140770596855891e+00
2.231200849819902299e+00,3.801830403426143423e+00,2.202154349835834690e+00
-1.242711687264156373e+00,7.412523758632665327e+00,-8.272579637254382945e+00
-1.704956604792660535e+00,-6.187239392259731297e+00,5.241513289627087735e-01
3.260984923194365503e+00,-4.363455736669232365e+00,7.569389659993118968e+00
2.790214061037393112e+00,2.180240382178090908e+00,3.718388079395424484e+00
4.419301100754452705e+00,-1.989466582375845505e+00,3.031795567290493931e+00
4.281096535603730047e+00,5.387636484180748919e-01,7.071086643384014714e-01
1.836190415384139296e+00,4.078896530990093083e+00,2.011303535713257151e+00
-2.734030261070826917e+00,6.379312435018934302e+00,-8.039806618947199723e+00
-2.805333227925653539e+00,-5.297240196153152780e+00,6.771040348984459778e-02
3.829564078850590469e+00,-2.378360249191483256e+00,6.280449359923428787e+00
-5.811297673230172434e-01,-5.727620599647052835e+00,7.348676064393345087e+00
3.059648595456467390e+00,5.511457107264549293e+00,-3.207697845920529200e+00
-1.362312884362952170e+00,-7.930428083917209214e+00,4.978531284025478065e+00
-4.036520001667225799e+00,4.512266822077765305e+00,-4.598888069378621601e+00
4.448399415086674580e+00,-2.346408861664177170e+00,3.184093660160618011e+00
-4.056872763951848704e+00,1.676407383743280244e+00,-5.407945838212597778e+00
9.732810511105443041e-01,7.824630868119179183e+00,-6.430814244915917577e+00
-1.572030809792596795e+00,4.853960630464603909e+00,-8.186972824133718518e+00
4.417320916462641911e+00,3.474126335957182787e-01,1.219688515782599625e+00
-2.129164168707138316e+00,-3.206999158292772378e+00,4.938379864331501778e+00
-1.336207527835002296e+00,6.135779202378476072e+00,-8.309714508651891762e+00
3.929040662413979756e+00,-5.090636991200793382e+00,5.635723949243994113e+00
2.225997526472386134e+00,-6.616274540778594115e+00,8.293362224445736786e+00
2.859961302526114135e+00,3.176700385630509160e+00,-3.940307568989028564e+00
2.188872193464008742e+00,1.321978657728734907e+00,4.639194672742068981e+00
-3.378583525262635945e+00,-1.506694927411022844e+00,2.411758067012508278e+00
-7.290787607532974723e-01,1.779324436562011336e+00,-6.542179856753319811e+00
1.001917834393516227e+00,-8.569899711394423747e+00,7.274541883410670096e+00
-3.730154779664402120e+00,-5.704181294982522132e-01,-4.409465746009427534e+00
3.102112090922692911e+00,-3.461724438966591322e+00,7.285370348812699959e+00
-4.155423180328594590e+00,3.732406882645901369e+00,-3.646346958939801652e+00
1.406584846935173605e+00,4.513279011166148713e+00,1.656789206711719364e+00
-1.317958242448119197e-02,2.234476322199559495e-01,-5.222772913206162215e+00
-8.639538763469795102e-01,-1.677198917102742382e+00,-4.235960873226101597e+00
-4.123748455231266874e+00,7.145394667798327104e-01,-4.621477179282893921e+00
2.829201390115602788e+00,6.829221923077297696e-01,-2.928114994547511785e+00
1.775629420160477423e+00,-2.420811980618963410e+00,7.178774258868589442e+00
-2.031331272799238974e+00,-1.867696122494690858e+00,4.509427134196948295e+00
3.112031631310724578e+00,-2.936836762450082627e+00,2.240600826928306755e-01
-1.059913732681328158e+00,8.404775351799191441e+00,-4.706038708810423188e+00
-4.435127737777296630e+00,1.992500079534175850e+00,-3.445417878726065641e+00
-3.431775136354418887e+00,-2.833050172482112661e+00,2.649956279511889612e+00
-3.593036187101786183e+00,-3.704610730000013952e+00,-9.441773968959429331e-01
-3.590214234134437632e+00,5.876484725276741372e+00,-6.615579466462989444e+00
2.902928653398521686e+00,-1.554857474581683885e+00,6.459212932903785287e+00
-2.405940218346324322e+00,-5.170099947062327672e+00,-5.058364371599184395e-01
2.197422110705932852e+00,5.284374591182740000e-01,5.211840720001253757e+00
1.348846375274855403e+00,4.100948870248684486e+00,2.053273497112172219e+00
-1.099597813898420595e+00,-2.177800940926888362e+00,5.631201228660597913e+00
3.710257613154602563e+00,3.363626901695205174e+00,1.323962412415315981e+00
-4.168341308410404622e+00,1.427957607916333194e+00,-5.203024808655967171e+00
-3.105912577323234114e+00,-5.243551573789291709e+00,4.539301536249550906e-01
-3.693273630620819592e+00,3.428632321808217309e+00,-1.696833696659798330e+00
-7.647086135404574936e-01,-7.967494272194810989e+00,3.440125266516136815e+00
1.181662645490404173e-01,6.994826012253503755e+00,-7.703976942307484421e+00
-3.150772403963756130e+00,-5.497627875654781171e+00,2.624555735934180678e+00
4.295112583533727602e+00,9.432366058117463981e-01,6.005212479651695912e-01
-7.225688437646737849e-01,1.673382463313823010e+00,3.458671417963272710e+00
3.554578644034377177e+00,-5.926770676533740456e+00,5.007533677972226371e+00
1.494265235300635153e+00,1.374423712832868905e+00,4.566878072783207898e+00
-1.229803191524791339e+00,8.615845766408815720e+00,-6.168837160671120756e+00
3.448627634905808481e+00,4.492970466904496085e+00,-2.118743387216353469e+00
-1.967671414502785376e+00,7.830387108113312955e+00,-7.933874240799334565e+00
2.859139032686956128e+00,-4.892247894001775954e+00,1.769910810815720437e+00
-3.385587167019369570e+00,7.590197737456207128e-02,-5.135122955811209700e+00
1.926684769603333347e+00,7.091098284639445026e+00,-5.250786096132975977e+00
-1.798623685626746571e+00,-6.852832019888478676e+00,1.590102454934359200e+00
4.470301335058074699e+00,-3.158328161203892703e-01,1.807997184759541298e+00
-3.314935014594695861e+00,-1.893399092759635360e+00,-3.583336305875479688e+00
2.951052783845174776e+00,-7.288552808659835236e+00,7.020352526150050565e+00
-8.474976587496317881e-01,1.089513025578768279e-01,4.464517592078419028e+00
1.168215187936078481e+00,-6.034173110062210910e+00,1.140847340773726515e+00
-1.282826765874888642e+00,8.090042797500093030e+00,-7.884495781224940991e+00
3.810518808225182408e+00,3.439482362886826738e+00,-1.160100381220399601e+00
-1.080583986586215461e+00,-7.610386743774039786e+00,6.492670037174100628e+00
-1.144321162082866383e+00,-3.597738324663596998e+00,-2.556309362309161504e+00
1.702531653672762824e+00,1.681996146269444381e+00,4.367452221597055484e+00
2.924828948818049223e+00,-4.308936699294435790e+00,7.729402076974455582e+00
-9.397027893081014716e-01,6.337258534368760410e-01,4.112246675585100597e+00
2.187756928758891384e+00,7.151505674253617606e+00,-3.879799608343241335e+00
4.834418031056649245e-01,5.002204120577836477e+00,1.022313847473496295e+00
4.092247909475922540e+00,-4.149719054645729877e+00,6.008667237249690096e+00
4.088571058198780861e+00,-6.593826325554087431e-01,4.436663247842779767e-01
-3.852578628922359805e+00,-3.624102369027416337e+00,-7.942072785288821490e-02
-2.412060887265826903e+00,6.482702153467909234e+00,-8.172456382086817683e+00
-7.641470657961972890e-01,8.814375758498464108e+00,-6.384590213037781403e+00
8.947244012653867706e-01,-6.370996913725334387e+00,8.238083425516190772e+00
9.570450160524086591e-01,-7.232589856966312070e+00,2.531628152043037705e+00
3.744588350925441400e+00,-5.134673028181230059e+00,6.808752173973964261e+00
-2.676596846859093048e+00,7.423305887319167518e+00,-7.700148642722086656e+00
-5.284361811186720770e-01,-3.701852893189468752e+00,-2.330574641479008058e+00
3.347317135919436470e+00,-3.640413717371841607e+00,7.178982446888412028e+00
-1.880418325207976471e+00,4.371240360990670482e+00,1.512790104951386716e-01
3.253788651977287838e+00,2.297801683674170814e+00,-2.834158424384530139e+00
-4.343249083000022104e+00,6.727638230017713994e-01,-4.190506937914372898e+00
2.459747859621936872e-01,8.174371852101929292e+00,-7.096688902152637368e+00
-2.295039364253666392e+00,-1.241138157501188832e+00,-4.642003775803218879e+00
2.169363057141991291e+00,-5.285631400190761831e+00,1.135923114285327440e+00
-4.099688017676450968e+00,4.213086685453504288e+00,-5.791067501369895787e+00
3.787305792904239077e+00,2.847136455307988534e+00,-1.755759443647081142e+00
3.440669905955684005e+00,-9.604222086477669507e-01,5.799445243196267974e+00
-3.750433610090829539e+00,1.061848042975513051e+00,-5.545153987255662997e+00
8.458858374033856320e-01,5.825079285423456099e+00,-7.134205796386321907e+00
1.234431216454850100e+00,5.286564887503169885e+00,-6.609810863931889990e+00
-2.034630427114907381e+00,8.237450571516145459e+00,-6.945544465441738424e+00
3.769406565336961279e+00,-2.684381820507462546e+00,6.476465231427138036e+00
-4.002733414080116070e+00,-2.977801220858339981e+00,1.738989409983465739e-01
1.961325989629959077e+00,2.473757456452295056e+00,3.621592756686505599e+00
2.192505954548749969e+00,6.565219383986548252e+00,-4.985165527105142935e+00
1.451323456717380278e+00,7.407012982391937506e+00,-6.055868150194565480e+00
1.512670238975612147e+00,2.145396566649351577e-01,-4.118148809027761814e+00
2.242131001095118759e+00,-7.936404388692179346e+00,7.275713221877395220e+00
1.701599014054177905e+00,-7.777387066509836799e+00,8.162459392484008092e+00
-3.796782786796808917e+00,-1.898286068238909996e+00,1.562498785904245402e+00
-1.882968532034181575e+00,1.968159756763541157e-01,-5.805102311903673318e+00
1.301599740887773304e+00,1.008704126397378831e+00,4.882690260003772487e+00
-1.412268209340669323e+00,7.881921080224008058e+00,-4.074260214686256099e+00
3.677201167678403770e+00,-4.804232146706866935e+00,7.106543670255729417e+00
-3.611422250485358809e+00,-4.452217310301052500e+00,7.360374563295338790e-01
7.866697767113708384e-01,8.418989284794532679e+00,-4.608088321237051588e+00
-1.103159247613936911e+00,-1.172487332833804796e+00,5.107491545972780322e+00
-3.333156021253480983e+00,7.337045131029329426e-01,1.120946186782760812e+00
1.432106340074059236e+00,-8.384401863846282055e+00,5.279652695806983154e+00
-1.296779680312002858e+00,8.597761121069449786e+00,-5.615529026501526744e+00
-4.241170175182903401e-01,7.871080198078034051e+00,-7.935750040104550429e+00
2.417909488366228210e+00,-3.657947693122240107e+00,-1.730153798392619624e-01
-9.133890996128705142e-01,-2.487891267252869021e+00,-3.603775927138276103e+00
-2.359033523728374604e+00,-6.427175837260843849e+00,4.485663867752769818e+00
4.099683946146452485e+00,-2.834507841023655050e+00,2.222580802610423678e+00
-1.319584444147713809e+00,2.910941502558373806e+00,1.950212358789917833e+00
-4.386536635803397033e+00,-1.169112059251456781e+00,-1.811506646329251291e+00
-3.002558718555072392e+00,7.277127888658650789e+00,-6.783488285221345393e+00
-3.300649636577223767e+00,-3.424896791971212107e+00,-1.948294836954833631e+00
-3.213031214154140613e+00,5.692341853537926433e+00,-3.522639358090306594e+00
1.482998217723169032e-01,-7.717348961105663818e+00,7.765133721473619133e+00
1.899467982468814098e+00,-6.586825531241212062e+00,8.372839779573606478e+00
3.443278752708943014e+00,-2.210730132337305420e+00,3.161229017220353738e-02
-2.004846874977639359e+00,-6.916067790988752684e+00,1.918898103254209397e+00
-3.297721168016944038e+00,3.779966305781076397e+00,-7.385202711495628236e+00
2.005595698536566385e+00,7.250870371435627071e-01,5.053760983251672556e+00
1.800847689212275116e+00,7.360995840245500688e+00,-2.940184449495305774e+00
5.596073281549612810e-01,-4.304237286126463502e+00,7.688503402522193220e+00
-3.247796943526464641e+00,6.510480439748905113e+00,-4.776408009477031591e+00
-2.796375827059004671e+00,1.708256147017886528e+00,-6.612734872621671478e+00
-3.066313451590942485e+00,-5.894221035347678717e-01,-4.853915353288564383e+00
3.825713639896470397e+00,-3.542356076210302351e+00,6.712546609911116846e+00
-1.103333796685363466e-01,-7.956737417913619659e+00,3.297115108417317142e+00
-2.355422612114424386e+00,8.116010030917705009e+00,-6.679268636454589014e+00
-2.599017786652310757e+00,6.713662052729271856e+00,-3.666843167658036418e+00
-4.389655385780168118e+00,-6.055154915118596826e-01,-2.599840291098871159e+00
4.020855397771370576e+00,-3.111569137730014756e+00,2.316174986782730816e+00
2.356034346314235695e+00,2.828452637063380681e+00,-4.575794971553433399e+00
-3.308286151579450163e+00,-2.655782380275741872e+00,2.795539044777272331e+00
2.404325368817591624e+00,5.953099137203693658e+00,-6.025267973309385017e-01
1.020954530491154255e+00,-8.102804231678719660e+00,4.158704394049141051e+00
-3.168783125112226706e+00,-4.020992314456163896e+00,3.458958519171920099e+00
-3.597893121126133575e+00,6.135253228793873248e+00,-6.499948198069159133e+00
-2.898792289777408993e+00,7.267666475372265289e+00,-7.366567303504539588e+00
5.199596560041546134e-01,-2.025060362296541072e+00,6.560420302243849200e+00
-2.244259071906927083e+00,-5.911004602318933543e+00,3.804724856435534042e-01
1.654549892726403737e+00,4.433045266931450179e+00,1.677379944969986214e+00
4.053926034433996684e+00,-2.804553659717459624e+00,6.035471679777641540e+00
-8.809278224869041551e-01,5.966745540059934960e+00,-8.154069113530338697e+00
7.587296009359333071e-02,6.665870348636920184e+00,-7.780928916054066669e+00
1.966526638679228833e+00,2.822909400264165924e+00,-5.081187287098472005e+00
4.121546766299990949e+00,-2.746661884571948153e+00,2.209519664080538348e+00
-3.297917261129589495e+00,-5.186113761021830193e+00,2.309943823649849293e+00
-3.678050909316858519e+00,-1.785221674781780621e+00,1.754780787184651025e+00
8.471894153139054584e-01,-7.843963712696023771e-01,-3.984134648259286759e+00
-1.126276902469893093e+00,8.553386494563037346e+00,-5.415477892731703768e+00
3.554754522865641864e+00,-4.732936103977166020e+00,2.957639954759973655e+00
-4.238718071631321749e+00,-1.583888397185259311e+00,-4.850541262328095793e-01
-3.603989026432913523e+00,-4.405271215982494049e+00,1.345467145489550820e+00
-2.785127627604611966e+00,5.389574022078972293e-01,-5.809754678519793103e+00
3.378942862993504992e+00,-4.944194297012350248e+00,7.439287160035806146e+00
-1.139807006031150705e+00,5.714015024989854474e+00,-8.183793030051186079e+00
-4.157552184514172744e+00,-2.846979085856918834e-01,-3.957754593550178779e+00
-1.650142087212853603e-01,-7.821091840828083619e+00,2.868575915109736751e+00
2.727609261775146621e+00,-2.359797149296058993e+00,7.040146995885479875e+00
2.285330437604514042e+00,1.014095328248781902e+00,-3.770088602051313575e+00
-4.292119165090857003e+00,3.728874704472702750e-01,-3.973898617679078704e+00
2.169617614426806895e+00,-7.179020085537851870e+00,8.139831113181621447e+00
-2.998454269533263439e+00,-5.536318529570491975e+00,3.158957470386286825e+00
2.799740065873201900e-02,7.170119338097084016e-01,4.656742262276782007e+00
-4.490562153506680865e+00,2.190075198088604846e+00,-4.147776702154104100e+00
8.449471246378441602e-01,-8.774558103360277528e+00,5.598385486990510529e+00
6.793693295056365544e-01,7.051680392104862527e+00,-7.157775215914119471e+00
3.239164790435138386e+00,-5.222383894237112578e+00,2.777145626118632027e+00
-3.272558565901431682e-01,-5.891058831691801778e+00,7.748587178642039885e-02
2.574462200221760533e+00,-4.257302569467837083e-02,-2.789324129160454468e+00
-2.096439646148593905e+00,-7.111080897308974080e+00,3.088926536514000620e+00
-1.961834192972430335e-01,2.589928855757696713e+00,-6.699501002499667734e+00
-3.081066544291438447e+00,5.868706325490811615e+00,-7.697696431928556571e+00
-3.953522839531278255e+00,5.053593103131730047e+00,-5.773710064563617017e+00
-4.062326553018959174e+00,-5.082359696959714013e-01,-3.770607058018617064e+00
-3.251375593856650870e+00,3.747122099808514184e-01,-5.453355801521772683e+00
-3.164415871812979120e+00,3.070499280794545705e+00,-7.061567226936894315e+00
-1.669694934203920678e+00,8.463346568333514952e+00,-6.481500640283741177e+00
2.461422783956506155e+00,-2.482126486471233129e+00,-1.144074085657969420e+00
-3.637890560864103229e+00,3.924664113894052342e+00,-2.102421016827751288e+00
2.929054273812812248e+00,5.257172625814895639e+00,-3.840819048013965342e-01
1.558895242869706266e+00,2.326217241564838112e+00,-5.305609752993407646e+00
-3.505216706169494767e+00,4.975281662011263428e+00,-3.014070825224776762e+00
-2.184781158510018528e+00,2.780707977510711526e+00,-7.320047434339702619e+00
1.355123956433737398e+00,6.039153373547956782e+00,-6.512725051247747032e+00
3.666195139607129894e-02,7.866682167086029409e+00,-7.478513971233842206e+00
4.475200526700055192e+00,-8.418062352811102322e-02,3.125041000207205766e+00
-2.284803947035270788e+00,-2.950298447057906337e+00,-3.073641087049493237e+00
2.351483189927399131e-01,4.538431952919709467e+00,1.445785293524164183e+00
3.446655956688427835e+00,-3.110120848941608784e+00,8.370704249388754015e-01
4.289386256173731482e+00,1.177851454038193246e+00,3.061619507202257839e-01
3.178059371048020498e+00,-3.736522697900292123e+00,7.389616047495191076e+00
-4.008015595442670609e+00,-8.380370023063284934e-01,-3.549042269130282978e+00
4.242159168728298013e+00,-3.360927897579639723e+00,5.309044681561140955e+00
2.101325710061434204e+00,2.993838556891697422e+00,3.194806748574768651e+00
-2.790825582295068052e+00,7.629323008064242906e+00,-6.582221320261725239e+00
3.887251747489453457e+00,-3.655622033828575645e+00,2.371689982741748803e+00
3.609106408348881523e+00,7.019736732426417047e-01,-1.441994707848290869e+00
-2.788560124301840970e-01,-1.454685974628692424e+00,-4.235113774537147435e+00
-2.861822840059071726e-01,3.881705117357004742e+00,-7.337964900730396423e+00
-3.556038869092036592e+00,-4.384336825764126644e+00,1.435768689778820884e+00
-1.598468838751290200e+00,7.001190944308958386e+00,-8.436671867742610686e+00
-9.923020397793147485e-01,5.461581077885159230e-01,4.110640536876990936e+00
-4.224961469255766211e+00,-1.886533263961199580e+00,-8.281383231365059272e-01
2.356713534953847056e+00,-8.082430118068907987e+00,6.760912135685043900e+00
-3.063432545496168391e+00,-5.401151439566165280e+00,9.349507568371987487e-01
-3.597410892724503650e+00,2.534664947290995229e+00,-6.487216866995295206e+00
1.243189779557064001e-01,6.337316976954515901e+00,-6.747561995056303719e-01
9.976252438640791365e-01,5.090281519264546084e+00,9.291702850270621150e-01
2.355120654985371598e+00,4.549923312491891636e+00,-5.080298146567503004e+00
-4.196149706058447393e+00,4.086689021959415413e+00,-4.161871603121213070e+00
-1.736323657721048130e+00,-4.722939208486865326e+00,5.913992313183496385e+00
-1.776382817210582776e-01,4.660080619387406031e+00,1.123853898950583519e+00
2.738694377017280690e+00,5.925507547055405944e+00,-1.038023091755008176e+00
-4.483675881358617055e+00,5.408996403177430690e-01,-2.869778761108318310e+00
-1.777180200326234916e+00,8.074047468315544762e+00,-4.869624875585392587e+00
1.920255150516431586e+00,6.983250269156811463e+00,-2.111955122093691184e+00
-4.544346382872065382e-01,-8.670731456898538525e+00,5.336294717248862618e+00
3.936822445919022417e+00,-3.282969037552930569e+00,2.349283238794579898e+00
-3.197433728040387280e+00,6.632420951184481162e+00,-6.986810949188249964e+00
1.948167758410106254e+00,-7.981448555814528056e+00,5.049186994953735130e+00
1.013159389500125407e+00,1.424104683192819243e+00,-5.353663336095317860e+00
3.965959697364938030e+00,-2.736488131780048683e+00,1.684976832018271420e+00
-3.276644730369124403e+00,7.237119110824397072e-01,-5.700757266507203269e+00
7.637098438026337366e-01,-8.162336409857861241e+00,3.968682484883223172e+00
2.879828850465218526e+00,4.063585175181454012e+00,1.669927245498856960e+00
3.352411415530967886e+00,2.015754016615491917e-01,5.050350578664008161e+00
3.154531788234820500e+00,-5.510732147996582952e+00,3.021784599526434079e+00
-4.288302622234533068e+00,-1.687751684184405354e+00,-1.408091802088479838e+00
1.247489590453803254e+00,4.097621496558430998e+00,2.105211622436576668e+00
-1.947818399693924007e+00,-6.240211943759388369e+00,5.607537364403222035e+00
-1.307180843904769629e+00,-6.117613982671453954e+00,6.513172368672401902e+00
9.632066688876286253e-01,6.450467893458093016e+00,-7.746388283773951722e-01
4.070418135605359033e+00,-2.476405786428188538e+00,5.804801217080468589e+00
-4.340567330833460247e+00,2.671342133113355555e+00,-5.111291908078388957e+00
-1.823153976302629431e+00,-4.484895394533996438e+00,5.811475567689875277e+00
2.176301583667216377e+00,-7.667443502355472340e+00,8.015051051427256823e+00
1.526866007516938462e+00,-7.379691211304008291e+00,3.302703728010309980e+00
-3.295649420792984063e+00,3.168154195758952074e+00,-6.030019801173839289e-01
-1.279844758836508722e+00,-8.095687900806670001e+00,4.646484251827899037e+00
2.357984963110432819e+00,2.257048914352050684e+00,3.742036134640805312e+00
3.874133109289310539e-01,3.673518322748696718e+00,2.318902734390338338e+00
5.678114958766239395e-01,-7.283585871365922060e+00,2.403546167473883166e+00
-2.531367839548416043e+00,-3.332618014421565356e+00,-2.703031272230258519e+00
-2.713680757156760937e+00,7.296374867448743196e+00,-7.620153246202233888e+00
2.965537166239276434e+00,-8.507368145478204635e-01,6.024906239160987553e+00
-3.327324248022906605e+00,1.524635625808593131e+00,-6.254120363353503187e+00
-4.222976856411619018e+00,3.370328259050452413e+00,-3.192490238519491985e+00
1.693599536382337511e+00,-5.687421186349840063e+00,1.208813134805072353e+00
1.249513487652059940e+00,-5.257554258259546920e-01,-3.876833363121846787e+00
-3.255099002970220479e+00,6.734331956645084105e+00,-6.591810891594487742e+00
8.621711604598834011e-01,6.388062237884652106e+00,-7.046557487281101650e+00
-3.374534433626257685e-02,8.651477140028449142e+00,-4.985195039561952868e+00
1.283505863128708402e+00,7.364715216558990196e-01,5.018323872454216961e+00
-6.428404671655076584e-03,8.265723518131329328e+00,-7.161635277002992517e+00
-2.668168211004306567e+00,-6.286881315546894555e+00,3.522302325691915037e+00
1.984894727668125469e+00,-8.330667159594174365e+00,6.312823404890823831e+00
3.478030751339403537e+00,-6.274552070285380978e+00,5.386134449119619028e+00
-1.021072342777536862e-01,5.054483493582623943e+00,6.876198806441762290e-01
-9.810965065680076203e-01,5.638701900180249638e-01,-5.916715306164714860e+00
-3.531148606563696113e+00,-4.654132487521497552e+00,1.030233123491825609e+00
-9.737178871111107359e-01,-1.496841957292363232e-02,4.528488155818051197e+00
-4.034208718926324821e-01,-8.619846984278510149e+00,6.377586007530445578e+00
-1.995358654293282408e+00,8.092132910777536381e+00,-5.655935051235256417e+00
2.484279102079026691e-01,-8.696536551835865936e+00,6.811045905684910196e+00
-2.339881927344013679e+00,-1.325667734006897192e+00,-4.539995757066014548e+00
4.324455695559537460e+00,-7.418935758212467091e-01,4.389581690127324798e+00
2.983374039608807760e+00,-7.239256898380039829e+00,6.204241342352337263e+00
6.457715529235152907e-01,7.946823803931929220e+00,-3.310543098967964060e+00
-3.797430447015383681e+00,5.384349500107918907e+00,-6.229974109455235443e+00
4.385020983463337352e+00,-2.761628826347179988e+00,3.226013277811301094e+00
-2.916727852170995394e+00,7.366008351971839119e+00,-5.997506118302898592e+00
1.911910701207053753e+00,5.749791362486201152e+00,-5.807792151406561132e+00
4.063434057441389413e+00,2.992905661695580921e+00,5.460935752386516032e-03
-2.828629365762366898e+00,-5.489754555282423176e+00,5.491416385971908953e-01
1.644540475824033177e+00,-8.193492165880602585e+00,5.167989238499911764e+00
1.602448827464020509e+00,-8.577807313950041035e+00,7.016812978600883710e+00
-4.301070067554143783e+00,4.460054910758549651e-01,-3.999185619763527821e+00
-1.303487818470719262e+00,-4.640070244196070171e+00,6.338888585119708985e+00
3.759013939210178901e+00,-3.432455664025580777e+00,1.850114231168648704e+00
3.215621030071400543e+00,-4.917883794463326019e+00,2.445713018773469472e+00
-1.588611632656003358e+00,8.653963706492831420e+00,-6.697192822865135398e+00
-2.585407995437632334e+00,-5.081803444532503100e+00,4.532171682822332848e+00
-6.639610160516757897e-01,7.458583337639848487e+00,-8.053128165277463779e+00
1.630672743872771502e+00,7.799656977501207678e+00,-3.828626506222367887e+00
7.027933193692350589e-01,8.428771035890951779e+00,-5.026984561762947834e+00
2.429441608149748522e+00,3.130750391356196705e+00,2.959582943202768046e+00
-8.218409193842122207e-01,-8.498162413150904371e+00,5.598953810738459325e+00
-2.716375834461693728e+00,-6.125205264987307885e+00,3.932995447541087319e+00
-7.070610582117329290e-01,7.732520690691446319e+00,-7.953923966880600105e+00
-1.364047205355486625e+00,4.990990579827140117e+00,-8.087934140880028266e+00
4.705182640462579613e-01,1.654807409909599958e-01,-4.937983354873574982e+00
-4.209929772750288790e-01,-4.045089786354856720e+00,6.936420283854701552e+00
4.645369923579193427e-01,-3.093735376370492229e+00,-2.471816578088779970e+00
6.445309067435389672e-02,-7.293106121094145244e+00,2.027198672188805340e+00
3.784364773481319943e+00,-2.214716322592369835e+00,8.002015575752964294e-01
-1.179377144412701028e+00,8.459981072221168574e+00,-7.360319079867439385e+00
-4.063830888509291306e+00,4.861328435212691979e+00,-5.281689045551951622e+00
1.632612774035245407e+00,-7.380199747730221027e+00,8.395870965276460041e+00
-4.066680097794906246e+00,-2.645499820597699614e+00,-5.514411235213162454e-01
1.384102049199217754e+00,-8.630976671659629673e+00,6.447346561238558316e+00
3.972987306467496094e+00,1.409143978736876246e+00,-7.432771031069090872e-01
1.518612081893273125e+00,7.225978958305000255e+00,-6.011363944794032577e+00
-4.373725684525955337e+00,1.013896520790013911e+00,-1.564595603925633904e+00
-1.205751136617270847e+00,-4.513981216149608455e-01,-5.244011501720565072e+00
-3.719934328824839320e-01,-7.833456765085315965e+00,3.025688093576339277e+00
1.718737115183344599e+00,-4.575850084202206070e+00,-7.286626041240260032e-02
1.454715830014111644e-01,5.203930389427420700e+00,6.894730291331229166e-01
4.371448464281542101e+00,2.615484218087187895e-01,1.368374669646090780e+00
-2.824234670696627703e+00,-6.276080308864322888e+00,2.513575919319733121e+00
5.326283220775145377e-01,3.343449410183965576e+00,-6.601128392114982368e+00
9.916505104897010980e-02,-4.691400436974331178e+00,7.586077948597755416e+00
2.243967505526070827e+00,6.413314667894172594e+00,-1.266979263610370721e+00
-4.106766552962084482e+00,-2.016578610774171221e+00,-1.781082787999735073e+00
1.725901546519253538e+00,-1.635867978991477178e+00,-2.640519828478376851e+00
9.550248714436784248e-01,7.645989529898679360e-02,-4.502083086553070324e+00
7.650913535193873960e-01,-5.032069772893458470e+00,-3.818305615917139129e-01
3.095773592330359758e+00,-1.328492380163271980e+00,6.246849241689588439e+00
-2.267009533368052193e-02,-5.815875825500898877e+00,5.089310839189024882e-02
-3.178108821871919787e+00,-3.322415025508428377e-01,-5.057389164460269093e+00
-6.033635615086523352e-01,8.820160730703578977e+00,-5.906123637186253994e+00
2.350917046377098973e+00,-7.850543168482118972e+00,7.317768967756475895e+00
2.919178732903964235e+00,2.371493173082663386e+00,3.413600112619880278e+00
6.783203159656555625e-01,-8.777181760249078479e+00,7.143353372312382987e+00
5.737379579618194780e-01,-2.459027329425277131e+00,-2.970677018998640673e+00
2.653755496592215657e+00,-6.913397164234146963e+00,4.269024611477858500e+00
4.362997541835459181e+00,9.732486475453708819e-01,1.638657464303564737e+00
5.276860952962000306e-01,-8.701203121621110981e+00,5.061409849493505142e+00
3.853351878838132460e+00,2.869491296796347513e+00,-1.397013521887919829e+00
4.146678010748288123e+00,-1.835294792803293218e+00,1.358394807910824342e+00
3.933107318162630595e+00,2.931535560530705187e+00,-1.076464429146160251e+00
-4.365001914521127624e+00,3.793916658191133495e-02,-1.402751316916150515e+00
1.874377993565668143e+00,-8.347651314765771602e+00,6.818330269540505917e+00
2.165974102121692280e+00,-1.641429441052586924e+00,-2.179475329164463293e+00
1.072474774053582713e+00,-6.198593194093268366e+00,8.244867264311450228e+00
2.670474010335542214e+00,3.113845915138012899e+00,-4.264081306209130950e+00
-2.840573459618400687e+00,-5.245846484726072845e+00,1.750156125140031049e-01
9.580831488231844606e-02,2.383280399671757199e-01,-5.185909018075025578e+00
3.222470265748162976e+00,5.243778137205919343e+00,-1.526981919890623818e+00
1.030511023619636868e+00,4.260410823345489817e+00,-6.588381425805481584e+00
-1.016387050940742443e+00,6.053050306998119190e+00,-8.312120871535201516e+00
-9.536994255084892957e-01,-3.519343800295133384e+00,6.425701465695418335e+00
3.984477562681340013e-01,-7.197330887064299354e+00,2.104792467149635193e+00
-1.521095465525317270e+00,-6.715264423747883349e+00,1.314818043184105223e+00
-3.684608798809836938e-01,-7.964438226616166183e+00,3.185378829501401832e+00
4.317065859003502482e+00,3.217759461662448861e-01,3.458108954903457377e+00
-2.029077764495339498e+00,4.912796596857570641e+00,-6.235821126822562732e-01
-1.235679963602527298e-01,8.792146387540483943e+00,-6.142474324624439319e+00
-2.832018291787577802e+00,-9.715474519968785028e-02,2.461752393159888808e+00
-3.373018706745137596e+00,4.546772165903774976e+00,-2.239964352020950233e+00
-2.926126545626911657e+00,-4.537817954921000485e+00,3.869011251930557727e+00
3.612393694982369841e+00,-4.982222779816139813e+00,3.347275365351360055e+00
3.962595124247874079e+00,3.387482527110049269e+00,-4.676759743440652567e-02
8.820550261140729376e-01,8.133719647925945040e+00,-6.439395048687360124e+00
1.304737121230089114e+00,5.913329558918614559e+00,-6.536453873380251522e+00
-2.719034884892735704e+00,-4.245299212652496657e+00,-1.451792331609253583e+00
3.988696157579887380e+00,-4.515732037804158772e+00,3.878655339780737066e+00
-7.712661368322519528e-02,5.487425922997317684e+00,-7.761952232539421459e+00
-2.858207550242172434e+00,5.829883431718489106e+00,-7.953377395642911907e+00
-3.800826548578888797e+00,1.720639466900154346e+00,-5.397342515412465458e-01
-4.433736006519374939e+00,1.677632057344122796e+00,-2.635536122428483452e+00
1.387522361174759578e+00,6.484804800424356586e+00,-6.420611107809365947e+00
-4.054149553347119905e+00,-1.990770649834033845e+00,-2.294379923828263390e+00
4.240335789368808506e+00,-2.323580096865563993e-01,7.353315295225272274e-01
3.712105649524617967e-01,6.247668814940966264e+00,-5.071051420313260616e-01
-3.869012038311681057e+00,4.384019398489755193e-01,-4.917222117057552744e+00
4.128898093990751583e+00,-3.041953607220001743e+00,2.434971555673815402e+00
-2.849101680651083601e+00,5.573742470288316930e+00,-2.582645999379472368e+00
-1.060727550604666398e-02,-5.337263874777798733e+00,-5.145625933600804780e-01
-4.717303948711246142e-01,-7.050666757844170185e+00,7.397947469785591146e+00
6.595438089877745380e-01,-3.339307739599297165e+00,7.275824997466475708e+00
4.006977095949395107e+00,2.289693910503120211e+00,2.052218286241857648e+00
-4.054741741327970495e+00,4.545388403797050891e+00,-4.448838668503478644e+00
-1.198446202835628388e-01,-3.770304472462969958e+00,7.146770336947516178e+00
2.106036932206358792e-01,4.937577145287631808e+00,-7.484150522639553493e+00
3.547154702751781574e+00,4.094306480952593752e+00,-2.235206715894416440e+00
-4.369457955780150726e+00,-4.582757602867233993e-01,-2.867470651331520681e+00
4.027694555954850486e+00,1.511075466615173335e+00,-6.012687816376383054e-01
1.789166302768551375e+00,7.608249424928156479e+00,-4.679868001401540134e+00
-2.386074547627223819e+00,-3.488058093336266818e+00,4.796025946808152973e+00
3.679954025882973268e-01,2.040457347110042008e+00,-6.155992355664780646e+00
5.423274463641953869e-01,-8.727691800926997701e+00,6.539477617578285162e+00
-3.721168679680129543e+00,4.529049143692585488e+00,-7.069192082025883117e+00
-4.053777154127844007e+00,-2.129635242811046325e+00,-1.869373926731062951e+00
-4.234965147692289378e+00,3.449594825709598744e+00,-5.757919849201146967e+00
-4.203083175627553847e-01,3.835143331996613281e+00,-7.401175157744924960e+00
1.928185397944114365e+00,-7.943363920223585062e-01,-3.046964505661057032e+00
-4.830092738131437913e-01,-4.560666977855353466e+00,-1.436075796811118632e+00
1.194766246830823331e+00,4.695138217213656873e+00,1.387620302356663782e+00
6.081104703265619582e-01,-3.437387402147006554e+00,-2.006503532831975800e+00
-1.292345290916591116e+00,8.679800185701608939e+00,-6.565035583189931856e+00
1.915313767912877108e+00,-5.747157079321593365e+00,8.308481262841475257e+00
2.243982387483596241e+00,-7.909016053750329789e+00,7.480890427034068146e+00
1.100564454540464032e+00,-1.914532283121762379e+00,-3.036942291557835905e+00
3.225442509352538512e+00,1.798386928354456238e+00,3.764926512656194824e+00
-6.260044639085149409e-01,1.667881783317356259e+00,3.482289381981603427e+00
1.122998125754572474e+00,2.750390594460178750e+00,3.418047361013283769e+00
1.796292218876668567e+00,7.345483999576056355e+00,-2.795560362260485654e+00
4.494991174685525337e+00,-1.704014462748504322e+00,4.000567320291184892e+00
-3.869921138090167467e+00,1.940112611983948021e+00,-5.977092155269899010e+00
4.208710723551969402e-01,7.762126890956965397e+00,-2.855827598630332087e+00
-3.392404979336273385e+00,-3.276953957412159557e+00,2.859883558996181296e+00
-5.003277429587104086e-01,1.985147079399709469e+00,-6.522031504024951687e+00
2.594746455825022391e+00,1.497534514897168378e+00,-3.608332501398856529e+00
4.081635687846469018e+00,-3.684725254147321660e+00,3.061913699159416691e+00
2.798024378305610682e+00,-4.660609382442609139e+00,1.303081768758437953e+00
-1.285637979750415605e+00,-5.042151647954123739e+00,-1.093632287565442063e+00
-2.706270352439259064e+00,7.940647554229424143e-01,2.106741707895554594e+00
-1.848906471725234146e+00,1.526820783315667285e+00,-6.641391142163178607e+00
2.179747480088013223e+00,-1.800045998289039995e+00,6.799150538591745452e+00
2.311484405202874903e+00,-7.967618542637599610e+00,6.773390975364285360e+00
1.703294130528460792e+00,-6.053262568446605485e+00,1.611160601189297381e+00
7.768626608693638413e-01,4.482266734511323847e+00,-6.876987497899951229e+00
6.757960506950210222e-01,-6.959832927467784813e+00,1.927333004415219264e+00
4.314848958820143743e+00,-1.212851773379797660e+00,4.730834324417815928e+00
2.168025175284289841e+00,6.502504197893012261e+00,-1.273781983361858883e+00
2.096337627100784751e+00,-1.288149129095948586e+00,6.507590078165335079e+00
7.478640021676424832e-01,-6.367203115107047395e+00,1.182477358131109435e+00
3.454615777248765784e+00,-2.715021886729987788e+00,6.724628529967290547e+00
-2.350725656296701604e+00,-3.975702986620564872e+00,4.855946057527336990e+00
1.072612585270044328e+00,-6.575625626097403309e-01,5.989253496280394273e+00
2.777435332281949165e+00,2.169284670556997252e+00,-3.616905101077211082e+00
2.218608769874408804e+00,-3.557732930233114654e+00,7.672001156815367651e+00
-7.172662996072504127e-01,-6.252560244992008798e+00,5.045887679498128886e-01
-3.368000770222143281e+00,-1.183861362442324872e+00,-4.135267830782543896e+00
7.264676325756039832e-01,-2.019760773227447181e+00,6.648229135640366216e+00
-1.514414939320102294e+00,-7.489225995523995927e+00,5.821318055335289898e+00
3.882879878974967003e+00,-4.835452708278948464e+00,4.290446894505329567e+00
-2.417198506932995539e+00,3.531307764852499087e+00,3.008643025850331054e-01
4.081988305082342450e+00,1.293689286144493300e+00,-5.896710182077362639e-01
-6.705028716219414431e-01,1.459177380256890533e-01,4.578217824063462338e+00
-2.310205450589941201e+00,8.100517803257954341e+00,-6.233113778703347485e+00
-1.544774304326226755e+00,-6.743252829002944537e+00,1.337599937533112016e+00
3.587535286144101221e+00,1.659525782996485344e+00,-1.867821168966800061e+00
1.071070013409249011e+00,-5.432197110073954782e+00,3.294750442364792198e-01
3.421554916129726731e+00,-3.673161223746194359e+00,7.146964122556458854e+00
-1.105701405333340048e+00,8.192513868888596562e+00,-7.801214447592122347e+00
1.450045006017037119e+00,-7.768221918450900709e+00,8.167206428059319734e+00
-2.725389397813626324e+00,5.717483623549937555e+00,-8.091372831219137751e+00
