-5.039185264518720730e-01,1.730568212513493798e+00,-1.023834374320800222e+01
2.641112748649058428e+00,6.619709514237589687e+00,3.562246917711286986e+00
2.510506037215190389e+00,1.508599231327732992e+00,-2.490846415115966384e+00
-1.265691653751292112e+00,-6.864383178444396494e-01,8.353544978652060138e+00
-1.995470666144814331e-01,1.475273534771142758e+00,-1.073542822873029934e+01
-1.734253027045948414e+00,-4.650438466197692300e+00,-9.287277299304408373e+00
-1.639444683785834078e+00,-2.214707268069301183e+00,8.080794919216160110e+00
-1.997304898568826426e+00,-1.724521805214765280e+00,6.187592791116424351e+00
-1.263157785963272994e+00,-5.577600575980361519e+00,2.973272557988053677e+00
2.092233540934025360e+00,2.066268638025398285e+00,1.114705610758129062e+01
3.404390891836321043e+00,4.564595174377988229e+00,9.710206668559773213e-02
-2.060441090738350134e+00,-5.691285300293682958e+00,-6.951939354376800217e+00
1.932869328133004050e+00,4.281019914772833168e+00,1.021706302969603897e+01
1.173268211411133022e+00,-1.194744276601935162e+00,-5.197660618990136427e+00
-2.447326134765825056e+00,-6.601589536822510595e+00,-1.727944656118911571e+00
-1.661848461755074668e-01,1.829532238455387594e+00,-1.059953718041212056e+01
-2.474029061696301657e+00,-4.901206584447361791e+00,-9.659675492592754154e+00
-3.060785584382598845e+00,-4.166250693684884432e+00,2.786462878008661104e+00
1.794214351350893910e+00,5.715559292844594630e+00,5.649734897893158525e+00
-2.074002671128915232e+00,3.830692624027989823e-01,-1.987280169258920592e+00
-3.000893664334539412e+00,-6.525826321792711049e+00,-4.392805621854948050e+00
1.735105892202559730e+00,3.227132463602294443e+00,1.124410264175313579e+01
6.656328166603174834e-01,4.317472529261258352e+00,-6.464323666129235590e+00
-9.098091172459241149e-02,-2.983927132373892288e+00,9.009930356850132327e+00
-3.445938279061920628e+00,-3.639380980258835496e+00,-4.600399634632427848e+00
-3.195110256396521908e+00,-3.425974086854412182e+00,3.620160826500106177e-01
-2.909562989686404588e+00,-2.193560528531095510e+00,-7.708792621591374683e+00
-2.866592317550585189e+00,-5.709399500511201708e+00,-7.750148930961393567e+00
3.390270773378353919e+00,6.186026677599054224e+00,1.855468323987750745e+00
-2.652955876500501020e+00,-3.966902468850723285e+00,4.747472558729972647e+00
-2.681241065097058396e+00,-2.974143074058792191e+00,4.088606306281060476e+00
1.887008882025163592e+00,3.680376901544047286e+00,-7.531565213906748824e+00
2.712694715183429306e+00,5.879194149808752101e+00,7.490263602304962909e+00
1.063324370130317664e+00,3.976707774149542463e+00,8.845814829655166633e+00
7.032183821651248889e-01,3.176437265712505065e-01,-9.768504548390858133e+00
3.448318698086730638e+00,4.042494458104052946e+00,1.998608897517409222e+00
-3.449408990416180210e+00,-3.756733350454219078e+00,-4.163461454266252026e+00
1.028190610713433512e-01,3.877408009602056005e+00,-6.222237347550208852e+00
1.442412970615358336e+00,5.827472977518658226e+00,-2.157761585938749338e+00
2.870171203640695889e+00,5.401889638977793062e+00,-3.302970942870105286e+00
4.732514318338340020e-01,4.674401451677222319e+00,-3.452131106706622710e+00
3.219252229320433700e-02,1.182575376831643155e+00,-1.099583419426469533e+01
2.656148373412605679e+00,5.305729129085333007e+00,8.946387199457332073e+00
7.362281261268487365e-01,-2.643940123561438593e+00,6.301981377541210350e+00
3.435486866821943597e+00,3.638070730935100361e+00,3.012345199103283466e+00
-1.979865196514990044e+00,3.361010277496807586e-01,5.529071631256383679e-01
-2.984029023514691570e+00,-2.476048898774823925e+00,1.152347096585292462e-02
-1.014515842325141248e+00,-5.124590425586540654e+00,4.430866225461397967e+00
-3.226145873880789328e+00,-6.376724040132925708e+00,-5.360625906103314797e+00
-1.684193505599036023e+00,-5.515210000818409952e+00,-6.508527186033334466e+00
-3.318495200547682877e+00,-6.049577422499747392e+00,-6.135205113073816996e+00
-3.496982541520766929e+00,-4.355287566547365152e+00,-2.163577135017321407e+00
-1.317358597062828096e+00,1.903404204561454538e+00,-4.788299322794113522e+00
1.216634819133549650e-01,-1.856019034310053550e+00,-9.066978718563788675e+00
-2.310181374918582442e+00,-3.272126731439163994e+00,-1.106884002708979509e+01
1.981662138668897510e+00,4.772730353050126162e+00,-6.383109468073047132e+00
-1.898899273827690193e+00,7.813196846302806753e-01,-2.422529569674895189e+00
3.105950762955714817e-01,-1.757400195539834398e-01,1.146521874274216835e+01
2.718886241833890161e+00,3.656747550604340979e+00,-4.495288177607847047e+00
2.091569827448888752e+00,4.615528762340764146e+00,-6.217122087396730556e+00
1.666138396347828010e+00,6.070470117343870875e+00,-1.413541408541039157e+00
3.442883975203451907e+00,5.098609217605493349e+00,-1.868262773327034401e-02
-2.382616091026028116e+00,-5.122763781921657156e+00,-9.071461959185427304e+00
3.206934088832232632e+00,6.374228520206671078e+00,4.882603723186732303e+00
2.603290360817327009e+00,1.622658026819105537e+00,-1.868627539964019979e+00
-3.257637461293317216e+00,-6.359584109575589395e+00,-4.651000428799692443e+00
-1.401211198276883785e+00,4.720689154415778077e-01,-1.012354469358476372e+01
-1.962557164708497837e+00,-6.283406475722959073e+00,-4.913460017897658405e-02
-3.514987520471404725e+00,-5.183099372026685359e+00,-1.168207818778096652e+00
-3.020410974210023802e+00,-6.122697114392451567e+00,1.569137173635575921e+00
2.854508886378308574e+00,5.529110359996888491e+00,-2.980015370967178168e+00
-8.940419286826162271e-01,-5.164703617729108132e+00,-2.838091265885712478e+00
2.713923553372023623e+00,5.048669552357623047e+00,9.241939453358989809e+00
-2.551622182353295631e+00,-6.561391551647929532e+00,-3.085505633668875536e+00
-1.923437645651996597e+00,2.950907463140221565e-01,1.406690573464520089e+00
-3.369664984079064229e+00,-6.245430722110397070e+00,-1.242358595834410551e+00
1.073166536371101598e+00,5.552386066720271351e+00,-2.607928816624373036e-01
-5.848039870436466670e-01,-3.871269013752831167e+00,7.829252205556700872e+00
-5.886549608479615392e-01,-4.507220914528581979e+00,-4.322133089510345805e+00
3.589434001513260863e+00,4.699888715519552562e+00,4.738840902813201694e+00
-3.068795533814941745e+00,-5.864809917278618556e+00,-7.571206349361712995e+00
3.281294740010773925e+00,4.678615784823325185e+00,8.241559871083177669e+00
3.546612225472550062e+00,5.287826483460230875e+00,6.104410034133229246e+00
2.612570014617771275e+00,1.706136458743755524e+00,8.952337616701019130e+00
1.772764386710371953e+00,-3.243348660843429765e-01,8.496381373173370832e+00
2.018715347327221799e-01,-3.681573381748008078e+00,-2.005745339413616435e+00
3.403463821180849336e-01,-3.675971125243737703e+00,2.704586871843877027e+00
-3.208457890951101898e+00,-2.646878930571576749e+00,-3.993673013546402029e+00
-1.292078856544257581e+00,-1.919873078581609382e+00,-1.169736858196726637e+01
2.477665276250060167e+00,2.296375193343416221e+00,1.034786827084110250e+01
-2.284164544539970976e+00,-6.445014072722035081e+00,2.738882033418858497e-01
2.776869338295963274e+00,5.863653183700710869e+00,-2.883721030678464192e+00
6.753655367342211724e-01,4.639857941071868774e-01,1.182433192858397497e+01
-5.753001199669499632e-01,-4.174676298357842263e+00,-5.859393088886339029e+00
2.380372067963368643e+00,4.388075780053683594e+00,-5.691507242895303520e+00
2.799202798872329367e+00,3.225054583713901302e+00,9.802179933385497534e+00
-1.091185791469705180e+00,1.372725344606095632e+00,4.994755994575569957e+00
5.009884673528605115e-01,-1.906629337966047055e+00,-7.113147405606139451e+00
-4.661338615719613498e-01,2.537189040060300993e+00,-8.460186461451689510e+00
-9.491577525708431162e-01,-4.042583679623531268e+00,-8.119315159388564851e+00
-6.880680795629733337e-01,2.885263897854883020e+00,-5.025964701957100544e+00
1.221129420368406882e+00,-3.057924898553104898e-01,1.082883107223623043e+01
1.409147370502139007e-01,2.721901242565293977e+00,-9.461122060348799323e+00
-1.595563353700105436e-01,-2.807092824851708190e+00,-8.197753863465484514e+00
-1.378565169924317990e+00,1.403849300649493426e+00,2.478094602745323005e+00
2.655223435537583665e-01,-2.809077808895920736e+00,8.510949967562709162e+00
2.665156099116505306e+00,4.229458636090781987e+00,1.003793407233662904e+01
-3.519393899392839753e+00,-5.560980566819483606e+00,-5.978081463656996775e+00
-3.399390907647635629e+00,-6.058477141421077405e+00,-9.780922647594216812e-01
-2.491322247205252527e+00,-1.915368132792887312e+00,-9.668823149773299264e+00
-3.278782408292837403e+00,-4.733050435710568493e+00,1.410593878860079142e+00
3.938600845588428184e-02,6.579350788009915574e-01,-1.111497590860247264e+01
-1.495265797555092036e+00,1.500969805430082182e+00,-3.401846649129135480e-01
-2.728514462842031918e+00,-1.236835470572352769e+00,-3.678590194808704972e+00
-2.292552966813427240e+00,-1.586829978092316296e+00,4.382094376408951497e+00
-1.053308467596845155e+00,8.922718247423625515e-01,-1.033692044409757926e+01
-2.072316385214075130e+00,-6.120329946579028402e+00,-5.007007527537410851e+00
2.790704550340599166e-01,4.141731125821994652e+00,-5.716444047587314614e+00
3.448750119726176067e+00,4.213675655928851072e+00,8.751742465164474849e-01
-4.547185366186972666e-01,-4.078268067749690751e+00,6.903406259694465419e+00
1.423411872533844776e-02,1.767860227036076592e+00,-1.059641797302251298e+01
-2.758629387359740281e+00,-2.757916645073702711e+00,-9.657620160377810237e+00
3.414187877432167006e+00,6.110560363574840004e+00,5.293973921222860923e+00
-2.227727304792877394e+00,-6.526767661838091428e+00,-7.833081189768744679e-01
1.007055091186350060e+00,-2.500046623824166314e+00,5.016025997330253450e-01
7.059179043105118234e-01,-1.356631309390536666e+00,-7.501873428252725517e+00
-1.649676733306127074e+00,-1.461050079794749657e+00,-1.178454395476411243e+01
3.374871806682456121e+00,4.457973418359788553e+00,1.616769771641322351e-01
7.093743378816683709e-01,4.935368898886673961e+00,-3.848225773566295693e+00
3.880369823992728118e-01,2.950831306395843789e+00,8.768140700519440500e+00
4.614452237853240713e-02,-3.900955970489927704e+00,4.269755791474874940e+00
-1.316416782223734261e+00,-4.226059990248300480e+00,-8.977748623613617696e+00
2.180999492748067148e+00,6.128939053614359089e+00,-2.407022532730552111e+00
-3.275687105563640955e+00,-4.114722485013435183e+00,-8.141041619027468812e+00
-3.042522960004635291e+00,-3.598818538070642337e+00,-8.942086282261245245e+00
-2.574185767163159166e+00,-5.169798546517223592e+00,-8.942634391428905261e+00
1.999522976592349233e+00,3.090510446833510949e-01,-3.178333491615808803e+00
-8.415822795926429789e-01,-2.544182181240194573e+00,9.828820081320492008e+00
2.096997903780120964e+00,-1.310958217012537508e-01,-1.104571402950204478e-01
1.133016703015767623e+00,2.335407205740959447e-01,1.154014230555041998e+01
1.522505314192944326e+00,4.362648472273905398e+00,9.398394862251389981e+00
-1.620571264439707448e+00,-3.855273924072618374e+00,-1.043220879198487339e+01
2.736620117101782768e+00,3.593131465694240134e+00,1.029656681576438437e+01
3.169551685526560192e+00,5.325413873619864624e+00,8.043770358636084694e+00
3.048333681728572220e+00,6.219640657968027675e+00,-5.974660153420228159e-01
-1.096317402294725990e-01,3.963696627535012951e+00,2.947888178018291949e-01
-1.894205273653114974e+00,-6.283556984957170854e+00,-1.146364132169279682e+00
-2.687950647716057073e+00,-2.152753470787500678e+00,2.405907121043594721e+00
-3.434235070473435680e+00,-4.467544579753451650e+00,-2.727602116922445141e-01
-3.222686930771689440e+00,-2.939909389209647728e+00,-2.518478814784810282e+00
2.740951286146157351e+00,1.466392098854691461e+00,6.696572247548508550e+00
-6.438797592264425829e-01,2.154615893190926279e+00,-8.917155229222899493e+00
4.586950657167678802e-01,2.339827487342478030e+00,1.020890289146352181e+01
-2.503958464865442490e+00,-2.794385946885603378e+00,4.716119641944830576e+00
-3.360743049307855834e+00,-3.478684147348515054e+00,-5.130253190009614883e+00
-2.256482261528054145e-01,-3.742116209706180197e+00,7.294978790504384136e+00
-2.587612854402957296e+00,-6.660291419636175547e+00,-1.101471573776367174e+00
-3.006930823313666012e-01,-3.144405324659038214e+00,-7.993886316247298396e+00
2.056103228422688556e+00,6.093587274553058819e+00,4.903605575961428542e+00
1.458397272319545523e+00,-1.706079921469766836e+00,3.093293742418705250e+00
-2.607257763414664309e-01,3.451764831642057940e-01,-1.144903979379789050e+01
-3.556012499428403473e+00,-5.631515069050168520e+00,-5.588210931656857561e+00
-3.296924473465028704e+00,-4.846822514461161191e+00,-8.098468339211081002e+00
2.537026580977865819e+00,4.273090880129369218e+00,-5.230940732712530128e+00
2.949214252257958080e+00,5.348066641901677798e+00,8.773159611802949343e+00
-2.269828937162063465e+00,-5.210883136638183366e+00,5.005999500295105875e+00
-4.751569028072716860e-01,2.475559531587769868e+00,-8.738389046181419317e+00
-6.387767279330924808e-01,9.291168840941749218e-01,8.489306038966782708e+00
3.193792860868592598e+00,6.519820753720959594e+00,3.970696264774858708e+00
-3.136174016696227529e+00,-4.479342232939271362e+00,2.196218565597881422e+00
-2.425770198318510928e+00,-5.469141861033695484e+00,4.421259903157077176e+00
3.387150522895927551e-01,4.473991875314358602e+00,2.554018363140293957e+00
-7.497791534917459533e-01,-4.289622281609804411e+00,7.008703961487844580e+00
2.658934047786536414e+00,4.667140682029748966e+00,-4.722922957861722004e+00
3.133913126695905937e+00,4.085624029871731011e+00,-1.995001717809806729e+00
-3.342160830541414551e+00,-6.041286501888050608e+00,-5.895908264707371949e+00
-2.509035443478771832e+00,-4.930980504290818800e+00,5.063549327457491422e+00
2.012545309831489604e+00,-5.038901788428654660e-01,3.991890587997733331e+00
1.367462019664584139e+00,4.857673826368178460e+00,7.587302360146384927e+00
2.617208509929870974e+00,6.677288261826638482e+00,2.304341201240795556e+00
2.532739714786699015e+00,3.047788769823097432e+00,-5.053916332506442899e+00
-2.962701760914165483e+00,-4.859955212597344421e+00,3.389281274475428596e+00
-2.213248562438706379e+00,-2.222869893198839986e+00,5.869564828533162526e+00
9.495868113955462375e-01,-4.197797612486224850e-01,1.119612952850912890e+01
-2.438361861992064880e-02,-3.976886024131338182e+00,-2.091078132798803058e+00
2.906514255502397948e+00,6.395777511073678312e+00,5.888130750747302855e+00
-6.025273373644628450e-01,-3.201889355514250912e+00,9.179070667293855124e+00
-1.029891846073627687e-01,1.368596231608317226e-01,-1.127299456538551148e+01
-1.569615380964259899e+00,-4.316182681513033081e+00,7.283679977901995173e+00
-2.209344308259631795e+00,-4.737640470731325215e-01,1.724746035259524746e+00
-7.028368789543292250e-01,-4.545104769934197542e+00,5.987755208256468009e+00
2.912460884168986297e+00,5.125903291230779146e+00,8.860980746798359675e+00
-2.208468183173682320e+00,-6.255645166867842555e+00,1.907300611654995093e+00
-2.325005479980768897e+00,-3.898907200522161887e+00,-1.072501604851122892e+01
-2.224655944337770919e+00,-5.832483555137430997e+00,3.884395065271854630e+00
-1.204240326881778483e-01,1.997428095418998906e+00,-1.040880886382721116e+01
3.267319191450265947e+00,2.965750437067170342e+00,5.472149096810557722e+00
5.202547899321465635e-02,-3.992341303918212514e+00,3.889281512998454371e+00
4.821675477996877068e-02,-1.107199176644911631e+00,-1.034320292751215220e+01
2.589604745627642313e+00,3.349356537624162300e+00,1.054792458558746482e+01
3.324759517019027832e+00,6.516584712131341384e+00,3.826169652814126909e+00
-1.431979446154421742e+00,-1.515654358618036435e+00,8.389748748952778001e+00
2.112376796034619364e+00,5.842596990675076540e+00,6.591422407279833529e+00
3.366957205082130145e+00,6.397463262418186858e+00,3.313851933376597447e+00
-2.596132032396485823e+00,-8.169458351494062187e-01,-3.527812283927733272e+00
2.728843267654259108e+00,1.324497010457290846e+00,5.909068514190353838e+00
1.965725462967855552e+00,3.223775809250287061e+00,1.128466901594927130e+01
-2.522639613573534501e+00,-1.461107842630587239e+00,-8.760470059950113964e+00
1.973799589643550734e+00,-1.514548451513814398e-01,7.849707062614843522e+00
-1.893343026362119152e+00,-1.727764516742383849e+00,6.827866347201155151e+00
2.795675413768922701e-01,2.070013259317405652e+00,-1.043599199646957132e+01
6.404115561123372435e-01,3.919443775029418209e+00,7.445582186516916501e+00
-2.578618636034421652e+00,-1.115498439992619994e+00,-6.811334874211341983e+00
2.288916755584210261e+00,5.374654465795781988e+00,-5.002254413258648391e+00
2.173895695886404855e+00,-1.106410247938380970e-01,4.907408732599061629e+00
-2.725849767825712089e+00,-2.049854721733153085e+00,1.816374392521390879e+00
6.406086453476456111e-01,-1.280789422693857649e+00,-7.879708361845733755e+00
2.271011995121226867e+00,6.949170282109526919e-01,-2.130736218644371238e+00
2.522382975724941190e+00,2.074821042890237610e+00,-3.527948944518791929e+00
-2.846482591876482893e+00,-6.021064924033172616e+00,-7.222633660139716305e+00
-1.911701060437330346e+00,7.023207431715262627e-01,-4.179322702155832125e+00
1.762414248441113163e+00,6.224269582190450123e+00,4.570743085541830175e-01
3.014960681545844512e+00,2.255611735194382295e+00,6.308398967639192279e+00
7.687561053833384950e-01,5.124134133818985859e+00,1.762887231525055887e+00
2.233756158911833989e+00,5.382507691335948863e+00,8.544057491759913248e+00
-1.748865144529374138e+00,-3.512382003403735076e-01,-1.018849183174506656e+01
7.001325086619282212e-01,-2.256677480634238009e+00,8.488115061768116476e+00
1.803484212284989230e+00,6.088777493852209233e+00,-1.411481793443371435e+00
-1.520419554146916763e+00,-3.836328287682344129e+00,8.155895718270832262e+00
1.411199771607264619e+00,4.667986811061097363e+00,-6.724681264713312068e+00
1.985630651314441941e+00,6.396725433679540274e+00,1.634644218517054659e+00
-1.379968438545499554e+00,-1.188890134766541484e+00,8.482682849947126513e+00
-8.853191420270544176e-01,-4.169448807792172751e+00,7.576461086549598711e+00
-2.474633425771942896e+00,-4.925720078704594940e+00,-9.562490564934464032e+00
-1.394999785080338062e-01,1.273853966677073180e+00,-1.115547201268359245e+01
-1.262729456237067005e+00,7.581822563678478066e-02,7.240176652718186112e+00
-1.951967156233120448e+00,6.688850606841816315e-01,-3.831435133177043983e+00
3.133450100040760411e+00,2.461274005226902428e+00,3.147591748765460107e+00
-2.430175180032141835e+00,-9.379253835457684874e-01,-8.041603578913212758e+00
8.577713874037150577e-01,5.122163636869879078e+00,-3.057073265028697584e+00
2.898850228252835767e-02,3.814747771339265459e+00,3.589398143662430929e+00
1.875255594195528008e+00,3.721695271882601741e+00,1.082246671491323653e+01
3.949134294818308355e-01,-3.491630707898879304e+00,3.374297006319544767e+00
-2.326598605557293808e+00,-3.580966705351555923e-01,-6.617805942524997986e-01
-2.482908401459910763e+00,-3.021734286133589187e+00,5.039916262064267016e+00
1.173411824381059176e+00,3.260476199460833335e-01,-8.284172156734891601e+00
1.452356869784487525e+00,5.111255043074592663e+00,-5.700220582785378021e+00
-9.819028142571191164e-01,-4.050827786310098766e+00,7.800433120622244587e+00
-3.172609661030307393e+00,-3.211350324524945066e+00,-7.349717468768306894e+00
1.744259800210679723e+00,2.058500086274527519e+00,-7.657980661846147008e+00
-1.867788998984476700e+00,7.844223291668362963e-01,-4.209172253771389371e+00
-1.675554173064727426e+00,8.437050348884703732e-01,1.894863622717679386e+00
-2.798211664676628185e+00,-1.812787394896994808e+00,-7.025163681085230927e+00
2.365062237101155596e+00,4.729379844201188066e-01,6.370322493138028008e+00
1.201244494758186843e+00,4.343090852393521217e+00,8.518440915065472296e+00
1.527484602890038401e+00,8.695560561304266356e-01,1.159580882682050529e+01
3.224521751325374108e+00,3.028278644680998166e+00,6.371989241888577737e+00
1.685712323515462518e+00,5.029171440413932714e+00,-6.100910743894845112e+00
-3.174535484743596481e+00,-4.748191086371709169e+00,2.051534235761155234e+00
2.643421249716901400e+00,3.599288602326567332e+00,1.060087561649999266e+01
1.542178235008430320e+00,1.236445078717297363e+00,-7.843298188616271815e+00
2.117938049651291177e+00,6.406330788224619432e+00,3.127849926368669320e-01
-2.587116523890740094e+00,-5.110810586341009376e+00,4.392588507361204542e+00
-4.633938424784983523e-01,-4.493671807325699596e+00,4.609781445902296326e+00
-7.640221821746039366e-01,-5.077120613892883938e+00,-2.286416749146800598e+00
2.302927718274448310e+00,6.197347087574242686e+00,5.726569071152593615e+00
8.158332257263062326e-01,1.017234683623000180e+00,1.175249061785631888e+01
-2.601958070773982445e+00,-5.027793376690319782e+00,4.656618410117073559e+00
3.091014633569201253e-01,3.540989783197753482e+00,6.848714770977928801e+00
-1.393869268937909522e+00,-3.168488682557548675e+00,8.703277600204371467e+00
3.245690657050341432e+00,2.809220666786783394e+00,3.580356197004663787e+00
8.689291363836498805e-01,3.774705662201694456e-01,-9.406323806678864585e+00
8.919471959094037172e-02,-7.033490688981545169e-01,-1.070291249714085957e+01
-1.911455391547407290e+00,-3.911534097195574322e+00,-1.054421030820319771e+01
2.598734465932090565e+00,9.829571649172401671e-01,2.080190589933053058e+00
2.439175419877405382e+00,5.698304070024670764e+00,-3.915551900588181145e+00
7.728933229497130242e-01,3.392360213482761289e+00,9.109690231273186001e+00
-2.657709874219062574e+00,-1.759431111166549044e+00,1.543700141019260341e+00
2.728538830841355178e+00,1.958844541293665475e+00,8.617760042658789033e+00
2.409586883761477338e+00,6.240730750936259952e+00,-2.059032585168380614e+00
-4.091587319188266791e-01,-3.898318956468532104e+00,-5.929846588028300225e+00
3.611883407510003252e+00,5.629827616578125138e+00,2.491246434192377457e+00
-3.384570025845299757e+00,-6.475667076631001606e+00,-2.994978095287423869e+00
1.686084352344344284e+00,2.442569703673916237e+00,-8.063578693870070424e+00
3.230824077382030701e+00,5.243547427062407174e+00,-1.467132182612856939e+00
-2.136404329591201190e+00,-1.521638103578298207e+00,-1.064876444445456727e+01
2.167246909776256114e+00,1.976404279670315400e+00,1.103537056920572823e+01
6.036551311476560100e-01,-2.556602352603023487e+00,-4.284039032012439741e+00
-8.705646673167291016e-01,-5.071500192944545127e+00,-3.300015643231312801e+00
2.819539839702137396e+00,1.786119671786538854e+00,6.961587288822629560e+00
2.072114739799950200e+00,1.709784721979978439e+00,1.094675781682459714e+01
-2.368512605943544624e+00,-4.778926485043382577e+00,5.507597544492012887e+00
-1.883323602044374434e-01,3.845145398384180790e+00,-2.199580928574538685e+00
-1.744620235511267214e-01,3.884117900707820592e+00,-2.734967946733763977e+00
-2.704157993277725769e+00,-1.198415623672686614e+00,-4.475522037119652907e+00
-3.917907937292944287e-01,-1.891918950198124838e+00,-1.045768722070064172e+01
2.627737443154874786e+00,1.083099850880618220e+00,1.093105384362100585e+00
7.103597517300760389e-01,3.583301799365886886e+00,-8.704699890362032733e+00
-2.481502352736263184e+00,-1.774233058902219273e+00,3.152146870894013020e+00
2.021942873326500190e-01,4.410395676027462741e+00,1.045421695246192106e+00
-2.163041963000860601e+00,-2.721346362178329148e+00,6.466500001460742553e+00
-6.664231690292368171e-01,-4.572040917965698448e+00,-4.679062612835584112e+00
-3.003410528726719875e+00,-3.840532794077621048e+00,2.611703636815624119e+00
-1.741989887676849591e+00,6.557604788597853895e-02,-9.570972929731249579e+00
1.991448582312116633e+00,4.713824553065463441e+00,-6.388272906997231715e+00
2.034997087191847687e+00,2.079403371319014759e+00,-6.565884221904458862e+00
-1.888691161239699712e+00,-5.739260315880138741e+00,4.093473558948019786e+00
-1.803465615010042544e+00,-4.390990318760470856e+00,-9.683800677327919715e+00
2.393792715244265956e+00,6.203829381470495008e+00,5.913254772464210163e+00
2.984677845529491336e+00,1.976398296532736909e+00,3.752669644809399241e+00
-1.484404095021445658e+00,-5.176006973200417249e+00,-6.990400527218664450e+00
2.634631399407038721e+00,1.354782570516594564e+00,7.510660281810063843e+00
2.161005811917311004e+00,4.237085644339134483e+00,-6.647810025906288445e+00
-6.417377312208312201e-01,2.150465376488874814e+00,-8.748497642768178650e+00
6.035969022541352036e-01,4.597149432948601233e-01,1.171188346862386354e+01
3.435950380291333595e+00,4.029103974728508675e+00,1.642677822823965350e+00
-1.558488693750739840e+00,-6.004090241453808652e+00,9.343983576053725981e-01
-1.218352875191797136e+00,-5.393066477058363617e+00,3.737934517926987166e+00
2.139069205966943610e+00,5.405303870888880979e+00,8.191088862271946880e+00
-3.210069105672795686e+00,-4.784074699265884689e+00,-8.482755070616606830e+00
1.105989848965742602e-02,-1.816708352320820286e+00,-9.579360780635918005e+00
2.658921858833018792e+00,3.528719121150617255e+00,1.049466876415529981e+01
1.912366775105856176e+00,5.036430145106650436e+00,8.508519111406020130e+00
6.577994938217543996e-01,5.005981908078990017e+00,8.981588860242942784e-01
9.855296667926738419e-01,2.020098817937122426e+00,-9.759995282882302448e+00
-1.156847271809082617e-01,2.369425299547572195e+00,-9.796670436991416153e+00
5.560398991112713851e-01,-1.078944924686301987e-01,1.160113068412799464e+01
2.651032990676409185e+00,4.496682484498111698e+00,9.950381337332659726e+00
-2.628700816431531084e+00,-9.951453882537513174e-01,-3.298477129468339264e+00
3.251941000953444405e+00,2.949341037538860011e+00,5.052808537834708069e+00
-1.421571551070727857e+00,-7.308872343314728459e-01,7.683761340045006882e+00
-3.353214839366569056e+00,-3.470336388519905668e+00,-5.152240014538707058e+00
-1.664047185668722673e+00,-5.968700872934443957e+00,-2.904243589111065837e+00
1.897733700824090874e+00,5.962251869661485237e+00,-2.835075484594054895e+00
7.755959799600798954e-01,2.059255091305352892e+00,1.104170591839821824e+01
1.346882142014409700e+00,4.345236544790648914e+00,8.950758052097047113e+00
2.809157716788921899e+00,1.629146579237457093e+00,5.859414806017364086e+00
-2.689164994514311235e+00,-2.708690045606749752e+00,3.491736421548583991e+00
2.311204411172506634e-01,1.503537672172355233e+00,-1.081045949584611598e+01
1.034298265647814574e+00,-1.323032945097697644e+00,9.582255831899228582e+00
-3.560658633269999651e+00,-5.883204897220281282e+00,-4.675943480966785692e+00
-1.973137053970810628e+00,3.526146466507364408e-01,4.022044778935915388e-01
2.956074476730568446e+00,3.885445555730413503e+00,9.436557289688122907e+00
-1.783601714641365410e+00,1.049213795107679870e+00,-2.396677046645978582e+00
-3.048916998154780345e+00,-5.424760022904323797e+00,2.403177872199010690e+00
-3.503166798460467746e+00,-5.351976343448295204e+00,-1.239773360819356185e+00
3.383344126323317269e+00,3.491988075997295216e+00,2.596913528092324341e+00
-3.593382487919603019e-01,3.438899484262220696e+00,1.381883363979877544e+00
3.114388448818299349e+00,3.208526246803838244e+00,8.186461030572997899e+00
3.472486681538152542e+00,5.996285648182196226e+00,4.292715403379354200e+00
-5.506581875382545732e-01,3.007244395602555631e+00,-5.699980150984860217e+00
-5.002474891347181707e-01,3.267937987550046053e+00,1.103646831286018148e+00
-2.429773390920242360e+00,-5.650652304939745019e-01,-1.678914697857923022e+00
3.332179209083402149e+00,4.077070684946362711e+00,1.569204957157350755e-01
-2.909943894274476861e+00,-1.732246258753589618e+00,-3.925083675994418098e+00
6.514074355131653782e-01,-2.010740001382768760e+00,9.264267627770758295e+00
3.226853899968287198e+00,5.104811634765447081e+00,8.050356521502138207e+00
2.630955295479547318e-01,-1.127044625863387717e+00,-9.690737425139234418e+00
1.579000840972462349e-01,-3.820401574467972683e+00,-9.368431402839743072e-01
-2.487344553542911729e+00,-5.171210039358498989e+00,4.882755781875604661e+00
-1.081958766390937916e-02,3.096557582608200132e+00,6.334916706284993815e+00
-4.864800584553091167e-01,-4.510368087775901813e+00,4.882104155245682975e+00
-1.651944189028486054e+00,-3.315143917027858933e+00,-1.116192002522939042e+01
2.605819337074931852e+00,6.094071912925437040e+00,6.601254974012000787e+00
-2.071205628115138364e-01,-3.795740347302221096e+00,-5.237033602062089344e+00
-3.007444370120427202e+00,-6.591239445559513577e+00,-1.022738356270924021e+00
3.536209152431517122e+00,6.008872792556092968e+00,3.672431892103527495e+00
7.939431473183272692e-01,4.555133717104169477e+00,-6.223884070959316617e+00
-3.602492883478389363e+00,-5.151595243813617664e+00,-4.251849135487620224e+00
-5.613106817988067210e-01,2.878695963693030935e-01,9.699754104411200117e+00
3.278796672548160096e+00,3.677316767143840259e+00,7.536410822573963664e+00
2.142982219218870110e+00,1.359626999746556653e+00,1.048144609453096088e+01
-3.321685570656866204e+00,-6.371391100300045629e+00,-4.143436167724616759e+00
2.321505504343487569e+00,4.600331898400920050e-01,-4.644120130679568748e-01
-3.103596804864324987e+00,-6.665619548281328299e+00,-3.491586756024630311e+00
3.281285865989099992e+00,5.122019221202415373e+00,7.692925380593255369e+00
-1.792876781085322335e+00,-5.842990473066577373e+00,-5.027462397595280130e+00
-1.598260109041171051e-01,-1.744551387152549760e+00,1.074837873764530194e+01
-3.193997622943588466e-01,-3.114910333666083900e-02,1.066137819659802943e+01
-1.260136812655112459e+00,-4.102607084692410311e+00,-9.009173557889562645e+00
-4.776393901565357258e-01,1.528695529293043531e+00,-1.052795985145542801e+01
2.346903694035167298e+00,1.054033828754826319e+00,-2.640767878087420417e+00
-3.226571949252856175e+00,-4.082356338134377260e+00,1.374552265802956086e+00
-1.295559371114565650e+00,4.037839426105330198e-01,6.371603371706793695e+00
1.937441939121765655e-01,5.080287851437946811e-01,1.138277987165010607e+01
3.292801816100486167e+00,5.965126794225252382e+00,-1.846734369805076992e-01
2.299579710256795639e+00,3.627539638692995339e-01,6.538039230889694409e+00
-1.624210592305011636e+00,-8.454639286145537724e-01,6.912101857789159531e+00
-2.846381447878155058e+00,-4.434935839687193848e+00,3.830679873416784620e+00
3.324200091801658985e+00,3.830758422102686023e+00,4.247796007753629199e-01
3.420242369411429645e-02,-2.044219095594827174e+00,-9.020986199644344339e+00
-3.506475925215804867e+00,-4.266599775118497639e+00,-6.120686806759096044e+00
-8.713751331275335632e-01,2.668165387422370305e+00,6.229790686537468591e-01
-2.264052710986192984e+00,-5.853939778244813930e+00,-7.005915187798955834e+00
2.878251460663334704e+00,6.049015657224619424e+00,7.092973834434459945e+00
2.509221102006955029e+00,2.027110159634200937e+00,1.011348440596698417e+01
3.338845348016934445e+00,4.333040271651907638e+00,7.520045259917821134e+00
2.302763328290937661e+00,2.369671004947858095e-01,5.245139991948312819e+00
-1.982857915090887380e+00,-4.260593345680687150e-01,3.910581203988365839e+00
-3.206093211700572265e+00,-6.488284493241514461e+00,-4.886705385018068171e+00
1.076882128658756210e+00,-1.320552968727029652e+00,-5.419565084897112861e+00
1.661171520916976840e+00,6.067543533876396111e+00,1.200359041923016123e+00
3.669824544533556443e-01,-2.100689187714404937e+00,-7.508462111696491803e+00
3.500746968779445467e+00,4.467695780557296992e+00,1.404108532598449921e+00
1.103828536643829183e+00,1.449389037248828060e+00,-9.316735407515931655e+00
-2.190970804686412254e+00,6.520432298782509462e-02,-1.089230710376743794e+00
2.464341562629883242e+00,3.386098293437342921e+00,1.072806242919292785e+01
2.646491812509655261e+00,5.245477838759600608e+00,-4.303874100648971357e+00
-8.771560650772030066e-01,-3.739731316574595787e+00,8.369164329720176099e+00
-2.919992650242505317e+00,-5.534915008911910128e+00,-8.412692252379009972e+00
-6.721114628478391806e-01,1.297893580417643467e+00,7.780424832975071148e+00
-2.724947896745969711e+00,-4.294581513887759883e+00,4.627717931626134984e+00
2.525731444100944856e+00,1.431973333634019463e+00,-1.799644098925075264e+00
-8.943842332791764882e-01,2.232393482357322156e+00,3.185341715985983591e+00
1.075273144698882133e+00,-8.638399229517711442e-01,1.048091147297912862e+01
-3.084312368220687439e+00,-2.518452731583076254e+00,-1.746660321595706389e+00
9.084528102193978327e-01,4.035424597065022212e+00,8.127869744341474245e+00
1.819445332531099302e+00,2.433717331687255125e-01,1.000321884906409586e+01
1.527926472603809149e-02,3.682268873780394358e+00,4.042815558870199943e+00
3.164474580749279564e+00,4.001677503941792224e+00,8.807658272848073011e+00
-4.930042935096923262e-01,-4.465571824789014599e+00,4.996839581601845381e+00
1.293445937437874171e+00,2.593358023103653043e+00,1.136341683400996061e+01
1.550346951242421945e+00,1.504922234135500192e+00,1.172087600124496554e+01
3.079335629315238076e+00,6.559470045315262787e+00,3.025979658205513179e+00
-1.129316937489454054e+00,-1.845198981435451691e+00,-1.167214937886526194e+01
2.697912943843669975e+00,6.202085493208829625e+00,6.336466951498883837e+00
-2.709230547615880044e-02,-3.103098110840118995e-01,-1.102782453383002981e+01
3.433363066277176134e+00,3.797829919529048581e+00,3.416662853139214029e+00
-2.803534618727177907e+00,-2.780190794049557823e+00,-9.602772681166440449e+00
8.054407523591041729e-01,4.723648437926291521e+00,5.058916208045636687e+00
-2.413569391231155326e+00,-4.804187039537923809e+00,5.542154429818091366e+00
1.404858180892945230e+00,5.146264273968954583e+00,6.509967687906865308e+00
1.183471062892394343e+00,5.564583802915623600e+00,-1.613309099021652093e+00
-2.048647797264092352e-01,-4.440569970469555372e+00,8.260977484375122692e-01
-4.895998197717046363e-01,2.963126050764994801e+00,3.207164563327361773e+00
-3.518593980636735896e+00,-5.958466871487490657e+00,-1.791692570616390423e+00
-1.165991234037080382e+00,-5.527639653507070427e+00,-2.119548559196712034e+00
2.556900927880644825e-01,3.159478750481306442e+00,-8.715703493947026814e+00
-2.717484548252414811e+00,-1.395806003596114842e+00,-6.516458036893382655e+00
1.836560088401685942e+00,3.763532058379114087e+00,1.069718092935056575e+01
2.230980828741753630e+00,4.810135558595220573e+00,9.539615143744505588e+00
-2.121886275626128970e+00,-5.523997143926950848e+00,-7.539275021064575810e+00
-2.649188582170710848e+00,-2.911866534866920819e+00,4.037566644534827276e+00
1.420039640744290788e+00,-3.484484371869456254e-01,1.030882409244894049e+01
-1.555182878676842462e+00,1.321625728098160701e+00,-5.956277628402401270e+00
1.377857478698249594e+00,-1.799112756557692983e+00,8.095872563567587665e-01
-2.949807204118854997e+00,-4.452817149318194723e+00,3.386760776390052019e+00
3.531840613913897808e+00,5.930357048965485767e+00,5.095816867169862263e+00
6.854872032942588289e-01,-2.543858081207874822e+00,-3.675641879665492606e+00
2.532033634210107298e+00,6.598556083584703913e+00,3.586488066683264808e+00
3.268061699891099181e+00,6.143069829328448250e+00,5.627966816395788108e+00
2.770142034400614239e+00,5.843412059517612889e+00,7.814759052832951802e+00
3.099903074860677510e+00,5.599293350426639115e+00,7.947808981629567171e+00
-9.269670920666893688e-01,-2.231064651875493521e+00,9.732506281386450908e+00
-2.768145617907513678e+00,-5.556795933586093028e+00,-8.391492681901455697e+00
-1.522580223963205803e+00,-5.035765658007137269e+00,-7.624825273509768131e+00
2.862719793398315282e+00,1.687120059710719211e+00,2.968721141686428311e+00
2.942058456180185466e+00,6.232755262530782936e+00,-1.145654910812712091e+00
-8.988742658220667536e-01,-2.308343835908485797e+00,-1.124735372789792187e+01
2.957371172716860119e+00,6.646749510668334970e+00,1.640942945993019819e+00
1.080617725135106344e+00,5.333524287087386684e-01,1.183135345541821337e+01
1.897053956887749360e+00,1.538401639428023104e+00,-6.590939783619981007e+00
1.581799048638734551e+00,5.997380837308539547e+00,5.173427332318036864e-01
3.417998716931974990e+00,4.389144176710748191e+00,2.464173576709774161e-01
1.171233129752313529e+00,-1.947435285116726922e+00,6.173884122595299395e+00
-2.701484322285492734e+00,-6.204384799871929701e+00,1.855733227601102042e+00
2.773623078340962778e+00,1.365303346037732624e+00,2.628719051332829348e+00
-4.948050332040532240e-02,-2.442864799771017559e+00,-8.476981321590356444e+00
-2.929625674259589196e+00,-6.627360632969109488e+00,-2.283697401484140688e+00
1.569367690465316656e+00,3.775701735071860465e+00,-8.149070837530034694e+00
2.487472205491164878e+00,6.641535133656535805e+00,2.256529536724621643e+00
-3.091538580340329023e+00,-3.802608446719427882e+00,-8.850887624596230907e+00
2.267430166242198730e+00,3.098750716390858528e+00,-6.249094811660920179e+00
-9.492301435116664576e-01,5.779300495503124635e-01,-1.109946494869730671e+01
1.387538744169799942e+00,4.055859492448654624e-01,-7.313455193335578031e+00
3.104398904933501235e+00,2.460058995989010455e+00,6.157508896610096372e+00
5.062457292400325548e-02,1.462518068897555867e+00,-1.091622769129215698e+01
2.091849798713335762e+00,1.487971920421902849e+00,1.084041022418822386e+01
-1.125874977385725950e+00,4.496143061761480042e-01,7.131073306625761887e+00
-3.479110937785454993e+00,-4.456929793330191458e+00,-1.439410569935481998e+00
-3.112763705390387603e+00,-5.560804434654948558e+00,1.699529173190670539e+00
3.554773532964476068e+00,4.885356730334516229e+00,5.787118943887462841e+00
1.767598531430843556e+00,1.185507206802850932e+00,-6.843339763008813748e+00
-2.395536798325041961e+00,-5.081283073697628438e+00,5.125847237062819417e+00
-2.430565802073130666e+00,-4.295602689328683610e+00,-1.039837550491365192e+01
1.924603592718318601e-02,3.827364166293340642e+00,-5.589287837617458621e+00
-1.370604545035453814e+00,-2.593990978053849705e+00,-1.143251479233103396e+01
2.612548291977539461e-01,-3.781047976370855990e-01,-1.039486258672762098e+01
-1.881147334508959768e+00,-6.096314824389821752e+00,1.817844360997807662e+00
6.502285642664787924e-01,-8.138312614907684539e-01,-8.739843919465993594e+00
-1.806620562011014064e+00,-2.167297118792742339e+00,7.434918000903456559e+00
1.881067525355005765e+00,-7.136432796545679746e-01,5.050440709225530789e+00
2.310294070572686209e+00,6.302105747902862376e+00,4.579803190229264409e+00
4.816444149135024055e-01,-1.708041185166048415e+00,1.019127099518606805e+01
-9.951561778304582884e-01,1.476821419718371331e+00,5.372279894764210972e+00
2.692428219737333261e+00,6.515852244648622893e+00,-1.854913963998068224e-02
3.318240302295680788e+00,4.504396619645967270e+00,-6.947741557692822534e-01
1.085985366425375798e+00,-1.397144169216253617e+00,-5.000526228471801282e+00
-1.905555321537269142e+00,7.430207770520003141e-01,-1.947365835534415224e+00
-7.612217631261732897e-01,-4.816970511552237433e+00,5.036605909946711535e+00
