-8.242093695986096868e-01,-3.052177218312600804e+00,-2.224601930688923090e+00
-3.177333519647215443e+00,1.059989810619854866e+00,-3.366735519092529660e+00
-1.498458048541904342e+00,-2.749661679479172616e+00,2.120875647325709767e+00
-7.222805450888117207e+00,1.472651687568758971e+00,4.163592862065993994e-01
-6.050937673452660981e+00,1.553996889428135575e-01,-7.140773411791420111e-01
2.198912225918632668e+00,3.710353008703146216e+00,5.491670593663065425e+00
5.097736384089128769e+00,1.208903884759590319e+00,-5.936283474091983425e-01
-1.012698826482753445e+00,-2.419192631337267585e+00,2.292988869087428938e+00
3.048590672473868057e+00,6.146036049325994455e+00,3.088818941324439127e+00
-4.477682618697368611e+00,-4.153975027885645765e+00,-1.210652492792062135e-01
2.736359805057830386e+00,3.229809113032227064e+00,-3.685883130880970526e+00
-3.420207257063231143e+00,1.803587152570598651e+00,5.887057099618264289e+00
3.557970311212520498e-01,3.471924002023999201e+00,4.060914198176709178e+00
-1.224511902340341907e+00,6.229624293243849920e+00,1.901815531032189588e+00
-5.327562985172909826e+00,-1.353244882485434619e+00,3.704918012851646236e-01
4.898613307646963122e+00,-1.550115844756896122e+00,5.876830624833880634e+00
5.567336855476673341e-01,-4.131117293450034644e+00,1.056505426353851362e+00
-5.857827171687587153e+00,1.819260328586500997e+00,9.077519793082484689e-01
5.672154152369719426e+00,-2.027930555384857669e+00,-4.184962348783242803e+00
5.070895155308337898e+00,2.280917821392083766e+00,1.417854352821478203e+00
4.368421463533835869e+00,-2.308270110094117644e+00,-2.709034660912514880e-01
-1.537203328649304535e+00,7.031604213426041916e+00,2.290904914836921158e+00
2.554578778934338601e+00,3.173665873428237028e+00,-5.137894080575295064e+00
-2.353643009278404641e+00,3.821543173364492674e+00,3.026572466078249146e+00
-5.737380932904795339e-01,-2.620146516961623373e+00,7.416559313213041627e+00
-6.092496209668633256e+00,-1.109544487802619633e-01,3.284434681438429315e+00
-3.441322221647160479e-02,3.847804391296122173e+00,4.816885010240407716e+00
5.209786259833616429e-01,6.811892379107659323e+00,-2.644029452686468940e+00
-1.814957690750470309e+00,4.373668882194459151e+00,2.147638157440694862e+00
4.029550228696409775e+00,-1.168011040359674402e+00,6.734912046405161057e+00
-3.076326403048894598e-01,-4.808230753836761018e+00,-1.251765338354641433e+00
1.382290068142316919e+00,5.933426830155000831e-01,6.341394309450617328e+00
3.134482797701696466e+00,-3.469495252118537931e-01,1.941327202865368751e+00
5.250324116246460893e-01,2.866159603717895799e+00,-1.606020454442071532e+00
3.114799726627491605e+00,6.301827890512277541e+00,-4.721973426110184224e-01
5.109283631284180505e-01,4.793708639687563888e+00,-3.024798204264048884e+00
-2.796624380848353741e-01,-4.217448083305807560e-01,-6.753013051656687749e-01
-6.305823230214071984e+00,4.071017457757762914e-01,-4.763572397064662844e+00
3.127178124270647563e-01,7.523349526837034285e-01,5.051893305705418058e+00
-2.271175382627099282e+00,2.476821702111071222e+00,-5.930832069962725939e-01
9.141517143076877128e-01,-5.109106718773615441e+00,5.737305771565377910e+00
1.253337304990220114e+00,-1.039358739004429877e+00,-2.704483687062966268e+00
-1.514800339202533763e+00,5.024804204040231870e-01,-1.019949253426338354e+00
-4.250304032735340520e+00,-3.713680577431099916e+00,-3.297508427709265000e+00
1.235724752502223911e+00,-5.200163578932536446e+00,1.722381186668585640e+00
-3.110257529157439027e+00,-6.685658276961961910e+00,2.365167297321201012e+00
-4.200659771380167662e+00,3.569143440808193457e+00,-3.957580706830400530e+00
2.105482646557418125e+00,3.804836844828237030e+00,5.037498208467961369e+00
-5.779006788489761348e+00,-4.486756666110174763e+00,2.892717973026431633e+00
-1.033924568851674941e+00,2.945889830619540656e-02,5.373760774804801521e+00
-3.279278230170786124e+00,-2.613096067545580770e+00,6.140594690639894715e+00
1.852230475676987176e+00,5.869578504789737750e+00,-6.848026958262297681e-01
-1.996964159896172708e+00,-6.570905150397302386e+00,7.269726937919585019e-01
-1.520326945917288120e+00,-1.446822363479323137e+00,-6.372173488261664964e+00
3.373058719143411377e+00,-4.160551661187031236e+00,-3.111626472617409878e+00
-2.894537106701462470e+00,1.874435761525941935e+00,-4.292434462299127063e+00
-4.341041050488974484e+00,1.880816162024489202e+00,5.330270234212142633e+00
-6.699288644750978072e+00,2.490818889666819747e+00,-2.202231487871600280e+00
2.931561139319855513e+00,-1.927346028944475931e+00,6.444285159858881507e+00
-1.437485742652445886e+00,5.679764970810587066e+00,1.846937473610227531e+00
-1.696154422988689348e+00,5.394461791407118234e+00,2.328165928758653691e-01
1.828416864860526792e+00,-8.167297954881537203e-01,-2.229451975702277267e+00
-9.268735657393305516e-01,-3.301569116648082058e+00,-3.745927165964280992e+00
-2.361583727984009951e+00,-1.360155639142239137e+00,2.222159704673600356e+00
1.294097755968407704e+00,-8.302489528130814478e-02,3.077149425722244480e+00
4.533481946825316911e+00,3.296801927623075557e+00,5.858505046667365074e-02
-6.454061652737663746e-02,-3.615622531403871687e+00,4.989834371102127797e+00
3.108357262246623787e+00,-3.254031306298998505e+00,5.334157004048624806e+00
1.428561612507599499e+00,4.068289987943658481e+00,-3.345639344843954754e-01
2.471613240688676161e+00,2.008460847346352107e+00,-3.239502264398506970e+00
-2.725670222905693038e-02,-1.181872384675159537e+00,5.229460833915706708e+00
1.343110651660290866e+00,-9.750855657488227690e-01,-3.926265751155157968e+00
-2.948464082790199989e-02,3.688008402506827821e+00,1.523552356039837408e+00
2.288057570510961536e-01,-5.195683963183417298e+00,4.098909294533984671e+00
-2.763274271968742646e+00,1.391718569929656368e+00,2.431377293131038897e+00
8.979373714445580690e-02,4.189773814487280035e+00,4.683290165057020893e+00
1.611759997688237522e+00,-1.872951167017136376e+00,5.340708960900947488e+00
3.422960335547676980e+00,2.864063425880899239e+00,3.402806039013861028e+00
3.936920450711785424e+00,2.574859613183094531e+00,-6.468629834591769878e+00
7.557529347677999221e-01,-2.299279769078891533e+00,-5.086505190352546002e-01
-3.189741578270631095e+00,-5.116888295671311759e+00,-4.919637282646284859e+00
3.244023251239726680e+00,3.112646628931209580e+00,-4.170659391055079546e+00
-1.989473164257252513e+00,3.541256887217968163e+00,-3.445221225618694483e+00
4.690657364068850477e+00,5.412798154436878839e+00,-1.782663602456331597e+00
-6.799457161549674389e+00,-8.370080954573867471e-01,-9.452324340918991652e-01
3.497924420540948098e+00,-1.050656465732366707e+00,-4.296689373268917755e+00
1.964618111951365487e+00,4.143908314862920328e+00,5.372701588065682543e+00
-6.847450945298919400e+00,-4.771227497097854653e-01,5.275473683275622161e-01
-3.628110930019459723e-01,-1.854343494939902026e+00,-3.420013556832519175e+00
8.602842068896138228e-01,8.146107631767053325e-01,2.068297810356005684e+00
-7.564310445807850058e+00,-1.667628577813031754e+00,5.933186595873389813e-01
-2.172171741748332163e+00,-1.643406661278670411e+00,5.407124137378120921e+00
9.511824411485311215e-01,1.932509067173176387e+00,-3.159974938938776567e+00
6.730053344164323548e+00,-4.737744851360984888e-01,1.633717151428070835e+00
3.296367539815636238e+00,-2.840576530150981327e+00,-4.383744815898199754e+00
-4.415905428095643792e+00,2.022306518189668889e+00,1.818575553084515573e+00
2.553076452574185140e+00,5.269662437089063012e+00,3.980069568001225466e-01
2.844118599415377702e+00,8.524463822724505091e-01,-4.441451018221446390e+00
-1.218130338120711365e+00,-9.472034749513489338e-01,-3.479842302401198406e+00
5.560446006474567326e+00,4.368665064211400662e+00,-2.177632104971361837e+00
2.046600194277164997e-01,-3.658257608097514435e+00,-1.846457116763718043e+00
-1.365482985747300093e+00,5.730070078860753036e+00,5.399124894627563620e+00
-8.923049172104600135e-01,7.866229916644791320e-01,-6.518589711566859179e+00
-2.305143433694429866e+00,7.856338085805161242e-01,-1.428188108297104186e+00
6.442304223865165547e+00,-5.280743427320911954e-01,-1.955990420528392892e+00
5.848168448867122393e+00,1.432143277169451334e+00,-2.839635279062995732e+00
-1.320264151963670418e+00,5.943066994680765269e+00,3.978895501349047681e+00
7.481850115822151537e+00,4.024746396773327961e-02,-1.535199862693281680e+00
-3.898868951401985417e+00,5.233461197865461934e+00,-2.285514744346257565e+00
-1.686522491907109567e+00,2.714817845473200375e+00,-6.933013222242076168e+00
-5.985054563084282186e-01,1.327466961808869472e+00,6.558471069136643905e+00
2.993667399360443238e+00,8.355947835449604177e-01,-3.303475582259556287e-01
-3.085774190766145342e+00,-1.700511446657221981e+00,2.884411664518695684e+00
2.586665311037851911e+00,-5.412239371962907164e+00,1.569842220596181726e+00
-7.778088890571491221e-02,2.575526164894477610e+00,-3.782400514601532038e+00
-1.512297371385504130e+00,8.296849549038729510e-01,-9.100293052707145725e-01
2.336624495649272104e-01,-1.159299795027902036e+00,9.143608280111312769e-01
3.879748276673824492e-01,-3.865250691148609530e+00,4.882242497533607839e+00
-4.022372553237384629e+00,2.099734194828713374e+00,2.625080112115901976e+00
-3.401967036914828935e+00,-2.966009273690562331e+00,-4.358735550668254355e+00
-1.031267093526854861e+00,-4.189497011344350597e+00,3.512515649567685916e+00
3.045526876454269338e+00,-5.779900985388948698e+00,5.680761465886149386e-01
2.384169779225940200e+00,4.174760684760756568e+00,-1.738765769559499214e-02
6.391443060858537528e+00,-2.615277481061047293e+00,2.998640101771430366e+00
2.832459186681397068e+00,6.638463283199131926e-01,-3.176799103226627174e+00
-5.885885433107055142e+00,1.755018939694742430e+00,-4.786544939787210851e+00
-1.860261271683940842e+00,-6.934084110471350648e+00,-3.257989022796736744e+00
-1.194529091986306080e+00,-8.742474442967436421e-02,-2.888132907075758649e+00
-4.121472826986891214e+00,4.178930461193724466e-01,2.452965077601352573e-01
1.088485144599143917e+00,9.623994111780268534e-01,-6.093159573073039681e+00
4.016936705606967695e-01,3.703753004704656515e+00,-4.482864012245940444e+00
-1.854974828722090630e+00,-3.133013010011359345e+00,-7.013118731447235632e+00
-3.402484948860832858e+00,-5.413425793263965780e+00,-3.125953647316751738e+00
-2.276186052122296744e+00,6.293166081441350368e-01,-3.341618410381522963e+00
7.529032165623590345e-01,3.934068535804640998e+00,-5.057636950738751302e+00
1.384860092311274826e+00,4.031273411602963819e+00,-1.245553605567466082e+00
-6.132324309175757548e+00,3.557109378546729150e+00,3.519783870647228419e+00
3.413669458302394766e+00,-4.004800856300826939e-01,5.680507666430274050e+00
-2.189229313670214339e+00,-8.821545754837669673e-01,-8.260997251071809933e-01
1.896578610724654501e+00,-1.416952226181903862e+00,5.107640645496072551e+00
4.246096241059808207e+00,-9.106620469113010374e-01,4.445581244241907370e+00
-2.922057529728623315e+00,7.284428129225096749e-01,4.524418354819309762e+00
-1.699609959057360120e+00,-1.363264176516401527e+00,-7.083875742902790762e+00
5.544761100902802831e+00,2.522194725160197937e+00,2.004206285863371573e+00
3.250231347895237821e+00,1.243450424446987723e+00,2.897964199983588340e+00
-6.817828580964298002e-01,-2.762344136944625550e+00,7.407959201037356500e+00
-6.230802591636750876e+00,1.146572216295232982e+00,2.565766847377697779e+00
1.730886641745499333e+00,-1.934292435424059375e+00,6.570645563395857813e+00
9.767802793024925601e-01,-6.284652032787046316e+00,2.473957498509876007e+00
-5.807427959076636448e+00,8.642993063062476278e-01,-4.139548194873867160e-01
5.983597558395432614e+00,-4.030711293977716991e+00,1.309603185503540601e+00
2.309483419608106658e+00,1.490224706706924529e+00,-1.112049174873368740e+00
-1.936533278509622091e+00,5.221837551372392916e+00,-4.285258224708490715e+00
-4.738435711444553888e+00,-1.990540131280576386e+00,-6.018196497216924179e+00
4.547418071952947116e+00,-1.839484284273955161e+00,-1.565343360173226506e+00
1.485364395640186963e+00,-5.455730117434580695e-01,-6.585249937682058352e-01
-8.981820985528250478e-01,-2.701826236793383629e+00,4.719953095849160007e+00
-5.609520474779295718e+00,2.831398788272059819e-01,5.585988624341043263e+00
-1.932587083632414660e-01,-9.330596761591948285e-01,-7.951782431245298710e+00
2.910756849745515407e+00,2.029781673183517210e+00,6.081425065216471637e+00
-2.903044976183207115e+00,4.433742455218481759e-01,1.812015691120268945e+00
-3.772335506814714634e+00,2.806890419836737927e+00,3.009521699456115584e+00
7.914687006851879758e+00,8.786600867093503631e-01,-4.502283795025977531e-01
-2.014499335632201404e+00,7.518370395926656791e+00,-6.339971115393033818e-01
2.558936144381465105e+00,-1.444846728286377502e+00,-6.180410572883785925e+00
2.205775367308895785e+00,2.031549278545335124e-01,6.980640154791990959e+00
-3.490983837747666296e+00,2.911734885882994117e+00,-1.184232685631120052e+00
6.328821959176834433e+00,-2.732349093670822793e+00,3.116017488721219753e+00
-7.658625578907946041e-01,3.095982928899479791e+00,-2.284941285947486023e+00
-2.964297946404264583e-01,-7.627142676862696646e+00,9.324055287278294468e-01
8.707627268891338090e-02,1.825359405991032524e+00,-5.936509729118325751e+00
1.181373749277608409e+00,3.644120854886787053e-01,3.903815873138889003e+00
-4.500232553555854942e+00,-5.299570862935464532e+00,-2.020582569109232285e+00
-8.644147727710631557e-01,-5.662397693765592877e-01,6.570521347073442264e+00
-4.676559224005013782e+00,8.600618520157969904e-01,-5.423393178845850038e+00
-1.520938739385282235e+00,4.721540564148529739e+00,3.777062613558227255e+00
-4.230388647700158877e+00,5.823086835382325077e+00,-2.168618222910823068e+00
4.687105119352678706e+00,6.765798592626817154e-01,-2.290230062713309866e+00
4.136858100689944528e+00,-4.032661305487484249e+00,-3.718649493587000254e+00
3.870712414848754168e+00,6.205561175076463876e+00,-3.097406444068874443e+00
-5.251432544151737325e-01,2.872990974667361641e+00,6.079134423731895609e+00
-4.710161235179068928e-01,-4.734015168445458777e+00,4.589897242265140065e+00
-4.962614093133606019e+00,-6.179637579580703033e+00,-3.814154079541632880e-01
-4.123166484005960086e+00,1.241782108376665583e+00,6.271785660627371861e+00
-1.571581373938244708e+00,9.079503396495148815e-01,7.397388290911618425e-01
-4.933482099134141485e+00,-8.633014929519543523e-01,2.852209379185057792e+00
-1.836863088700024127e+00,1.717211669757126469e+00,-1.016949651442301095e+00
-3.763535958797173731e+00,6.891153154829765537e-01,-6.088047533340827933e+00
3.407270273112005476e+00,1.285835078941405918e+00,1.406428716511499921e+00
3.966949584109680682e+00,-3.865307746563551583e-01,-6.184372156423195932e+00
-3.152193379286796659e+00,6.146979244784318119e+00,6.429323496823834416e-01
5.391058363595185199e+00,1.292198229151456657e+00,-9.721246916989187969e-01
-4.830181231447143730e+00,-4.228602054645734798e-01,-3.125834798081737365e+00
1.089973962655673478e+00,-3.728345921748123182e+00,1.860077611765947880e+00
-4.875704261214599100e+00,2.784747063928609379e+00,-2.074047121741592559e+00
5.518183158110039344e+00,-2.009673648861020068e-01,-7.994608813134322922e-01
-6.352751505950446465e+00,-2.847424465612617084e+00,3.049634574610748938e+00
-1.869827213162564838e+00,-6.693403620793877407e-01,2.085240807190896106e+00
7.057031647684022246e+00,1.537211104413870766e+00,3.649068906267510792e-01
2.281176496056748437e+00,3.822402012348567357e+00,3.155395336541971241e-01
6.941724383024166833e+00,-3.317980416589719095e+00,1.567186479687231682e+00
-1.639627369360696640e+00,5.902124515585176034e+00,-1.507382623581250636e+00
1.602257348714430929e+00,-5.952855893879547722e+00,-1.802752807588791528e+00
3.215282655190973227e+00,3.280135424893758422e+00,-3.721758258141789621e+00
-4.704179305175190784e+00,3.537728307610126688e+00,-5.662452752377800103e-01
5.243334692183262424e-01,-2.859761204904846643e+00,-4.308662343691059604e+00
7.017844277421333210e+00,-2.054409255394963107e+00,1.460495110473450486e+00
1.784579548480108580e+00,4.642119268502042040e+00,6.205775637515731802e+00
-4.590780290228005711e+00,-2.786999143459944150e+00,-1.143255066099450712e+00
-6.903337138578221621e-01,3.316558713680513026e+00,-3.397277729510018496e+00
7.072945589378777598e+00,-1.899071020634653051e+00,-7.301024430418112665e-01
9.008584164984696496e-01,1.137870179158212203e+00,1.397140842180082387e-01
-4.244552883392789688e+00,7.487944121738018266e-01,-6.246780606836571437e+00
5.340757587353370806e-01,1.059622895282846533e-01,-6.249094879511424061e+00
1.756994177218219377e+00,-2.829840656165429458e+00,6.046620117361841018e+00
-4.581148106312554980e+00,-5.684313533180939793e+00,1.683731395507191753e+00
-4.809945044020619953e+00,2.233507629398646888e+00,2.353185808427781467e+00
5.064097956702926062e+00,5.394700556381708534e-01,-1.328457504925843802e+00
1.100984241796601371e+00,-5.093036921809100726e+00,5.345812364986317622e-01
-2.814338415602522847e+00,9.242146438399806430e-01,3.097079370692109812e+00
-1.351021721422293043e+00,-3.448818612880705459e+00,1.286884331683612048e+00
-9.115974084160474167e-01,-7.627075443063602300e+00,-1.803825095116218913e+00
2.313587722513972544e-01,-2.191282198562953365e+00,5.418449888364385458e+00
-3.087674044517647043e-01,-7.277631451188401712e+00,3.355569553677614447e+00
-4.223866156266875116e+00,-4.020959863604655737e+00,-1.170722181154912223e+00
1.534045150779335343e+00,-4.439922935284350558e+00,-2.881391461828581857e+00
4.613323847297302827e+00,2.573842973980852822e+00,9.503697032433351399e-01
-6.004534069902757842e+00,-2.813279246713433768e-01,4.151300864191222573e+00
-5.848063775992717872e+00,5.883119551690172561e-02,9.553146171970496869e-01
7.100188568971103287e+00,1.005120922250588800e+00,-9.572296873248687943e-01
-4.170605412407925594e-01,-1.686628467779616836e+00,-5.088584998101800316e+00
6.042179779559845448e-02,-1.735132503101177504e+00,7.714598261829265446e+00
1.582321364763746185e+00,-1.639727960026377662e+00,-6.527836760498010094e+00
7.184650581915718703e+00,2.029215664162539845e+00,1.228443484259800433e+00
-6.803892959128333473e+00,2.271780936996714129e+00,1.128388469379673076e+00
-3.603898698286300384e+00,1.332347760905513878e+00,5.727386375086704007e+00
-1.922987479966555391e+00,1.438506466452279753e+00,-4.727957771900680228e+00
-3.373167060438819753e+00,-6.539540301183832227e+00,-1.680879652960260318e+00
-1.735151734434153381e+00,-3.878085089379526895e+00,5.739612441828328748e+00
1.926806525063302411e+00,4.735904258163039060e+00,3.577183850376013108e-02
5.821472320153675994e+00,3.204151303515399007e+00,-2.796154973723235404e+00
-6.939192993034994039e+00,-1.381961514821523185e+00,-3.262119909553983454e+00
2.677666126793434742e+00,-1.760375988242328660e+00,-3.166424872043561045e+00
-3.774804020614895173e+00,3.110448810196007496e+00,-5.837898612733448012e+00
-5.953401887237442895e-03,6.700674412689446413e+00,-1.057077320859125535e+00
-5.455379211744446621e+00,-2.185833644015530375e+00,4.440831835900209690e+00
-5.071677069800712978e+00,-2.464038339159990154e-01,2.721693094110355204e+00
-4.094089205628256956e+00,-5.935943039103641183e+00,2.751883924836973083e+00
-5.923917821910747783e+00,4.661020465419176695e+00,-2.507881709260310732e+00
-1.868624060446983259e+00,2.527056656635794152e+00,-1.818395843151317637e+00
-3.317874349197641681e+00,-2.020610969073298957e+00,3.288197249811984246e+00
1.725992539441903117e+00,7.254978624267621079e+00,-6.556364055658977508e-01
-4.519838351116936437e+00,-1.182881650954926700e+00,2.085913832999267470e+00
-4.423507942346482480e+00,3.394089027961094018e+00,2.214509283736090683e+00
-3.813638982535946464e+00,-5.714884581488858473e+00,3.421183820572818668e+00
6.252210841971653776e-01,-8.913521522044622891e-01,1.681404865657410763e+00
-5.220134512879247568e-01,6.471122111561523838e+00,1.924461073328530114e+00
-1.147875115632693843e+00,3.054538641503651064e+00,-3.778276302275532128e+00
6.028818684702912378e+00,-3.775306128727663246e+00,1.354743500655610555e+00
1.839558410529270605e-01,-6.213295798000868508e+00,-4.837462180740766726e+00
-5.043040599462629281e+00,-2.446795131630576381e-01,-3.965748720780068570e+00
5.132747820216863488e+00,2.054841192030745667e+00,4.080232705669461168e+00
-3.518402663638293681e+00,-3.178183753389362209e+00,6.325923402732968270e+00
5.120360171496430857e-01,2.240142815607482518e+00,-6.462020796669351697e+00
4.013000066268728183e+00,-9.755638269727354706e-01,1.880283327953230277e+00
5.068804501098121307e+00,-3.395724817149388119e+00,4.487122151786453017e+00
1.129589226762307330e+00,4.565247205854010559e+00,-2.606311881595991586e+00
-3.596258895995279037e+00,5.743964891144969220e-01,-3.672894702383981413e-01
-4.468372767447211125e+00,-5.195501178843724865e+00,-1.694389923441531831e+00
-5.993477746336537848e+00,-2.576223925282721705e+00,2.423120785038046510e+00
3.307940412649769346e+00,4.159199924016463573e-02,-6.626002451540029980e+00
5.293517321076240734e+00,-3.249845742080368804e+00,-1.099452281929373720e+00
1.697453287293343660e+00,-3.082130227166135938e+00,4.092108138740504941e+00
4.225009008662222065e+00,-8.951747725390569732e-01,6.177886749362607510e+00
-1.657972878458773058e+00,2.800921499221963318e-01,6.291618644055031240e+00
-3.833773336654048070e+00,2.520066046528373516e+00,1.798737156620978883e+00
1.247574597540435537e+00,1.826119237532007888e+00,-4.123633092366796760e+00
2.375626966118030925e+00,6.175996225821855035e+00,1.687137173187094996e+00
8.190583845949312991e-01,-5.312231514873127836e+00,-1.691014866101807179e+00
-6.231237230747583844e-01,7.861955169670496346e+00,-4.284715542829168888e-01
4.739215420637750142e+00,-2.007296479448480664e+00,1.017853786670385841e+00
-6.808805969492288668e+00,-2.632854571882983663e+00,-2.252705361577386878e+00
5.001664393437728506e+00,1.009208290884467285e+00,-5.318791949839084765e+00
-5.465984794103444955e+00,3.719225784877875363e-01,5.207335870972384928e-01
-2.404527779943606891e+00,-7.289097365154798780e+00,-2.729551816731834446e-01
-3.134224574322115320e+00,6.041013615957913530e+00,-1.590808184479853171e+00
2.048551183356935645e+00,2.021540823507239071e-01,-4.648732008398229532e+00
3.521596727617029909e+00,4.377981430626371129e+00,-5.640523926302686952e+00
-3.502783712460152188e+00,-1.089484033444198641e+00,-3.323897531124530680e+00
-3.933417539180161349e+00,6.119565797296373511e-01,2.751431517003107619e+00
3.479257517331695748e+00,-3.313692287160785899e+00,3.930268094512562982e+00
3.253355539125379892e-01,-6.651255292787865869e+00,-4.652523837905818138e-01
1.983672266348575075e+00,-6.609130287121268488e+00,3.427755856448292171e+00
-1.570297788088158564e+00,-5.383851500762687259e+00,-4.901540785937275935e+00
-6.978998374326857990e-01,5.733459005665936026e+00,4.435944272193149907e+00
-1.568819144004839905e-01,1.075471696122297649e+00,-3.347486888693136819e+00
9.189602341910817207e-02,-1.576889292147155008e-01,-2.601575679940661523e+00
-4.029927648534118667e+00,1.627552979817707079e+00,2.393615383123715468e+00
2.164112749581258988e-01,-6.287488937980620918e+00,1.901229787461935355e-02
2.288673664808610120e+00,4.959755093419602190e+00,1.112374920175010384e+00
-1.505160033474769676e+00,-4.654447693643552597e+00,-6.093665514116592519e+00
-7.106173888274702755e+00,2.129485341353075933e-01,-3.537387375918471299e+00
2.394056577120147189e+00,-7.016397954150457306e-01,7.306256331387324110e+00
-4.098114587220929583e-01,4.028909047473058891e+00,3.029202594665356241e+00
-2.842693168040468343e+00,5.714275187536580702e+00,2.165647153283308590e+00
-4.011775697110341099e+00,4.330382261159133606e+00,-9.900804456565727163e-01
4.026656635721255206e+00,2.835320484567466215e-01,-3.807156300790895287e+00
-3.853168746937293498e+00,-1.659900629480397516e+00,2.043227202177678947e+00
-4.149134212607199501e-01,9.556535269646921904e-01,3.901945216350334977e+00
2.271842765016192089e+00,-1.191304272964902600e+00,-5.633567401868927682e+00
2.413201037646908631e+00,5.386210907778200330e+00,5.202741705788935939e-02
-2.780061324520934907e+00,5.793963587960627493e+00,-2.513574438568226821e+00
-1.424796790765342269e+00,-5.936779520439499969e+00,2.662746270138778293e+00
3.753392693704001637e+00,4.837840056248953857e+00,-1.256829777688305505e+00
3.564030713871455092e+00,-5.014103730602352371e+00,-3.419332490082089837e+00
4.023702661616888498e+00,-1.126482190488358182e+00,6.358525042205046773e+00
5.532427982256906240e+00,-5.235424935278182978e+00,-1.634977134615681171e+00
-1.908140506987254348e+00,-4.269599245779388319e+00,6.293356234994310405e+00
7.448534492106462679e+00,-3.858212224757171516e-01,1.969273426749917455e+00
3.485700238395154638e-01,-3.488758546989047638e+00,-4.310728232523429959e+00
1.688566295804390105e-01,3.418026671903069857e+00,7.188844892557319177e+00
-2.804072266734933372e+00,6.390598818137119608e+00,-2.574783022257193466e+00
3.558683992060959866e+00,-6.325839676292782876e+00,-5.848893199457816383e-01
2.786604631381401020e+00,2.705327286641215689e+00,1.124983421506117631e+00
-9.583131473944482837e-01,5.128743803033235515e+00,-5.112925748361588418e+00
-1.510211166743484323e+00,2.567716868531378704e+00,-1.104509672337951720e+00
-3.984832525811270898e+00,-3.067277894540085814e-01,-8.138774156277172045e-01
1.625479539533679851e+00,-7.608827149100482190e-01,6.347338036596036126e+00
3.392685985727283526e+00,-3.581127663167474662e+00,-5.181271610245539172e+00
1.645549298294866514e+00,-2.818981294125313397e+00,-1.034394112123650400e+00
7.365026898908605402e-01,4.651108198710234731e+00,2.336244791654222386e+00
4.428048058988696134e+00,-2.963931890155773186e+00,3.070842393710557339e+00
5.343147196108199992e+00,-5.132385498277029612e+00,1.631240573105607328e-01
3.489530525249427306e+00,4.109383498359892251e+00,3.657558712554448199e+00
2.779502169675120538e+00,-3.753933005342919849e+00,5.042510191829288502e+00
2.580788226502514604e+00,-3.706735791086905873e+00,5.468723135826444093e+00
-3.758887560923047655e+00,3.325791465309413386e+00,-4.367804261067325111e-01
2.361441242268316643e+00,6.212747037327417843e+00,-2.237082975882250135e+00
-6.612766091038207783e+00,-2.263774960273572834e+00,1.786798214858705380e+00
-1.065125293857859035e+00,-3.380947147849264756e+00,-4.953190244578238755e+00
-3.145576394142076904e+00,6.621628627817823798e+00,2.712114477262999479e+00
-6.756025164464134480e-01,6.545903525712676974e+00,-1.699766619893576136e+00
5.398003064124934802e+00,-1.976924190096549294e+00,2.992263072244693678e+00
9.520251332246884024e-01,1.739687073798143357e+00,2.767846554753226052e+00
6.027692545494484300e+00,-1.998850643016042872e+00,2.226429818955791617e+00
8.230787727312275370e-01,-5.075073033178900239e+00,-6.141003983781883946e+00
-6.873895033114798103e+00,-1.385664945148974009e-02,8.345071912249353296e-01
-3.998960238890141294e+00,9.278594045597198248e-01,3.459881599799312646e+00
5.171230355748030583e+00,8.511130250147156406e-01,-3.584408154364248755e+00
2.994533656334624983e+00,-6.602078038824497064e+00,-1.450243384668481905e+00
6.604575137702264342e-01,1.661447261952472054e+00,3.210457285189907140e-01
-5.870731789503166320e-01,3.275668424766176923e+00,3.474460721623932269e+00
-3.667541581889710134e+00,-2.497496855553832606e+00,3.459729720220312998e+00
-6.195348673687480101e+00,-7.849210618543044360e-01,-2.977675932535334358e+00
1.110090292119877198e+00,4.888919876067209791e-01,4.170715272357626624e+00
-2.964945508798086493e+00,1.077359534194242796e+00,6.528473998319578975e+00
5.263378347349704889e+00,-3.918113259804267834e+00,3.130012451714680566e+00
5.538131666556618704e+00,7.945393986954756294e-01,2.247743884182393792e+00
4.042486606559003270e+00,3.609689355259374562e-03,-2.177675313490426312e+00
7.032564614270898851e+00,-1.702721438646163099e+00,-2.585228509278231446e+00
1.076242776646849864e+00,-4.032087885735340826e+00,-2.328520576011461785e+00
3.052842970245610132e+00,6.060099300547965306e+00,-3.730770235011191982e+00
-5.287457145667127101e-01,1.800000471168220928e+00,-2.388019040478732702e+00
-1.407843439720573242e+00,6.656250773879373028e+00,3.598051832752180879e+00
3.118428637467982045e-01,2.176744681939407400e+00,5.506648209245059711e+00
6.916111266147122461e-01,5.822794997390772664e+00,-5.153738785628955377e+00
-4.059352988501407467e+00,5.905986815631964149e+00,2.375894128494696143e-03
3.052398536981445698e+00,2.315010507504206227e+00,5.741876621539383940e+00
4.015041840004133000e+00,-7.563935063184591412e-01,4.044044779187173866e+00
5.643924519542937723e-01,-3.906804638188311252e+00,-5.654341742341924437e+00
2.426782855766828728e+00,1.587295414700290452e-01,-4.130517656437895369e+00
-2.819967206781416991e+00,-2.364566313994883817e+00,-6.842417457893269273e+00
-5.628025511502438016e-01,1.247735602931188792e+00,-7.598731506102271105e+00
6.070795428610529676e+00,2.161109553627190927e+00,-3.845723310338268863e+00
-6.994332368979323533e-01,2.231806724090457994e+00,-3.111208975435826751e+00
6.027033079119866521e+00,-2.348466564823265212e+00,3.228172180964512972e+00
1.330788369450419006e+00,-6.809349594139225914e+00,1.793602877234580451e+00
-5.742041746988864048e-01,-4.000749256928894937e+00,2.689809881039355144e+00
-5.691289573628274256e-01,-1.978236154431765925e+00,2.847968572389006248e+00
1.474594384932222391e-01,1.726275343426639353e+00,-2.920087721137805570e+00
5.034957932475512266e+00,4.494412080829373601e-01,-6.073522080395822087e+00
-3.103163291668731283e+00,3.633506773912833360e-02,-2.065753441433280990e+00
3.639410123861445356e+00,2.130743238847904397e+00,1.468512077555252260e+00
2.139167261170030532e+00,4.114396200509663259e+00,3.354099735187552778e+00
-2.296762981580356300e+00,6.530215105212217708e+00,3.784360872074082893e-01
-4.664239074730010870e+00,3.010763177841845106e+00,-8.766863168548085783e-01
4.111952004110239756e+00,-4.276732905018923780e+00,1.933064143013927927e+00
1.075802152129115230e+00,4.653734658599615770e+00,2.978285087347816606e+00
2.497490827283125991e+00,5.641731447462163374e+00,2.376302580112772400e+00
-4.741800659833868892e+00,1.887201248929587960e+00,5.312353770376888606e-01
6.364595342594912830e-02,-1.241711950558912925e+00,1.947610709468741819e+00
2.489141237772502624e+00,-1.615731285777114667e+00,1.836117279249722678e+00
-5.803042254310286197e+00,-2.459243502175382456e+00,-4.818083369396763960e-01
-3.538277656034984453e+00,5.847817053221702643e+00,-5.456733699292056761e-01
-7.093506133811868786e+00,1.133355941389481369e+00,2.786318622358903707e-01
-7.847408786053756913e+00,-7.960653212110796462e-01,5.609409234912159370e-01
-3.772637432834559768e+00,1.293056673463612194e+00,-3.345839122937045662e+00
1.069714077072444702e+00,7.489740505570677165e+00,1.437043298451388118e+00
-4.077445695057470232e+00,-4.820219257198275820e+00,4.747861919143907983e+00
2.396317903390046578e+00,-1.425752510788268479e+00,4.635157260147486191e+00
5.281452175786640169e+00,4.815277688440039228e+00,2.133769977440311383e+00
-3.755833278558135202e+00,4.022906116301256385e-01,-1.193086553882750200e+00
5.237909409566342767e+00,2.430191491942784499e+00,-2.759502249842221477e+00
2.281389520769079748e+00,-4.564176082803877321e+00,-6.787765306311512870e-01
-3.065737371450564019e+00,1.826461571040266518e+00,2.509566002818388153e+00
-3.565936548651553739e+00,-4.292362862979932636e+00,-1.569326731787726636e+00
-3.679163321506522255e+00,-6.320069878564787302e+00,9.386435140492087603e-01
-5.068228791628237140e+00,4.366772891180953131e+00,-1.689730561765552252e+00
4.718441808762395162e+00,-4.417057221271321055e+00,4.148987548240312129e-01
5.757047169814266674e+00,-4.002401902292764824e+00,2.969357325459440311e+00
-2.132419853929511611e+00,4.365378198044728819e+00,-5.011987358480124444e-01
1.242576852224008377e+00,-5.116429419841822757e+00,3.189792332529721719e+00
-4.658019630120157073e-01,7.389238574468381948e-01,2.047240317131779341e-01
-4.609505916118326496e+00,3.881804850518855154e+00,1.461081049640033491e+00
-7.186787624804077623e+00,-2.688561423503963876e+00,1.705469483253453822e+00
3.676977122224649897e+00,1.240712892103091214e+00,5.799418521913676017e+00
-3.663069796628226071e-01,6.867230273740544177e+00,-8.884955375627903162e-01
2.869521247050876855e+00,-3.090030656779719997e+00,2.504775549480449115e+00
-1.653259552477514660e+00,4.390853698659094917e+00,4.105118096650955728e+00
-5.381248020996406645e+00,-1.854841024766147761e+00,-2.587837946829198987e-01
5.254606861241698290e+00,-1.169726154559805664e+00,-2.856198466151715021e+00
5.287800388879346336e+00,-2.834063796053208684e+00,-3.506084807926150848e+00
-2.899436341921319271e-01,8.921846040764335184e-01,4.630340262376940963e+00
-3.318330976343433769e-01,7.238998749679573130e+00,2.375569709689822950e+00
1.957412980761005894e+00,-4.252940696014651856e+00,-4.703820997117066582e+00
-2.113694905137734614e-01,-1.083604071792185541e+00,7.751138894387037404e+00
-2.886006504782362203e+00,-3.809500775300857178e+00,-2.824903750495431076e+00
-2.476702475708513873e+00,4.706873571306550375e+00,5.151937426755902827e+00
-2.447117107068938591e+00,5.580283851744648693e+00,-2.351098788460488365e+00
-2.401979986504369169e+00,1.591007085472545768e+00,-6.706117390452075888e+00
-1.688664828959588249e+00,-3.773478011381764752e+00,-8.540088062815478498e-01
-7.629978315666630984e+00,-7.947285231074471268e-01,1.703473925257644073e+00
3.227396435092456883e+00,2.058135644249255325e+00,2.220790556480750855e+00
-9.606598469376594895e-01,3.958717596386990945e+00,-6.703636734176351197e+00
4.604300463501586727e+00,-5.606471181327549402e+00,2.269654987024788628e+00
-2.802317012172022892e+00,1.825713274266181241e+00,-2.206259403280408815e+00
5.553831480162380707e+00,-3.209325016035751599e+00,-1.388359479785382655e+00
-6.309705223883159408e-02,-2.043431954461258027e+00,-7.239412253763560123e+00
-2.021713066776255285e+00,-1.892500521233133892e-01,-1.146576455179693754e+00
-3.903228392832170934e-01,3.102745301841611347e+00,-2.007708919707519968e+00
2.488694992052668642e+00,-5.036794040736812583e+00,-4.672838849808836348e-01
4.915663686934153453e+00,-3.850183117178415659e-01,5.772632699418783098e+00
-5.076780944636732684e+00,-3.664169834392163594e+00,2.433627220885088427e+00
-2.157419265945044629e+00,1.746172859924652654e+00,4.763710591697893015e+00
3.414867797251937009e+00,-6.379167416729104367e+00,3.162711600544095170e+00
3.495217743776608099e+00,6.284340530175992257e+00,-2.923562326030552772e+00
-3.081130361596192913e+00,2.444981917762607981e+00,1.920470533165181015e+00
-6.513950635627176133e+00,1.047416924632440793e-01,4.442464314581771490e+00
3.867996077377221731e+00,-1.523185493228016663e+00,8.841539857349927090e-01
-4.665306557511906149e+00,1.372196023748219196e-01,-1.838073645318187843e+00
4.096412669160276465e+00,3.859318723192221690e+00,4.140390780134684867e+00
4.149368680854283120e+00,-4.232553371151968058e+00,-4.014974465268846271e-01
-3.493934242319685080e+00,3.467257084184571791e+00,-1.707630824734887032e+00
1.579786911091192625e+00,-2.310305123374031933e+00,3.082406846161830583e+00
1.884650995885378766e+00,5.080957554317970803e-01,-7.230812733964504524e+00
1.184966773681475960e+00,-1.504796154294157251e+00,5.402590416006639806e+00
-1.017563461121351320e+00,-1.193440849191054642e+00,-6.729682184210699525e+00
4.831784552873273242e+00,2.678812227347223907e+00,5.608545221589705143e+00
3.192978830741039609e+00,-6.000814398065309696e+00,-2.691520840778989787e-01
4.481838837232380968e+00,1.054111351747627934e+00,-4.452911954297960051e+00
1.073062421338041750e+00,3.181290449833015010e+00,1.157724157307806090e+00
2.317174790473372159e+00,3.352991938239183511e+00,5.064863773501266486e+00
3.681514855673365894e+00,-3.290942328951337537e+00,3.940132845924595895e+00
9.872210269244761083e-01,4.820726326882006418e+00,-5.771115364458378139e+00
-2.705894414076438714e+00,1.399517846949837052e+00,-2.031325255856669121e-01
3.375004000323781561e+00,6.297396988177570876e+00,2.835525788225515598e+00
1.632022242478275320e+00,2.839634082925272640e+00,6.958073446513198590e+00
-6.965026456241564468e+00,2.853511825384461797e+00,-1.579637203112274069e+00
-5.094126787560869118e+00,4.514555463424800852e-01,4.893145532564968647e+00
2.551671018092494414e+00,2.326510492631068128e-01,4.753851289875109742e+00
-4.730343101291217600e+00,-1.609738742368505005e-01,5.994591602785343198e+00
5.247038962040035948e+00,-2.295144274186274647e+00,4.463943004936485437e+00
7.263420690809587299e+00,-2.227606305009675491e+00,-2.216680498723534676e+00
-7.503536348764459074e-01,-3.284377382117452004e+00,5.901005365564865102e+00
3.328333829336437510e+00,3.117531634829110665e+00,1.115213034898082878e+00
-2.004916141675216146e+00,-4.803270943151674466e+00,-4.066061846200030416e+00
-2.964241449209374935e+00,-8.468797510572270149e-01,1.115137027612200349e+00
-4.978579595436082528e+00,-2.827772956939686111e+00,-5.540655929616403519e+00
-3.335552457886813649e+00,-7.302821630648479445e-01,-4.058413470078902741e+00
2.641818940880684696e+00,4.294758546182943504e-01,-8.736291240356650611e-01
5.011971774828513304e+00,-4.688949395825147803e+00,8.790994761358006393e-01
1.187055428669548940e+00,-2.109813496224933749e-01,6.770858821748412915e+00
2.800447895106783047e+00,1.335441116404338047e+00,9.921563493716117899e-02
3.139721985693026962e-01,-2.274673082670851734e-02,-9.102939197867800925e-01
-3.008406266606207691e+00,4.747466894288425721e-01,-4.032324575160949109e+00
-1.618578135264532980e+00,4.092783649065014906e+00,-2.934409609887312254e+00
-5.133201786920062126e+00,-1.576528630690902322e+00,-5.713376602735447563e+00
5.134203361960639533e+00,1.090679676329884273e+00,1.441362180028396001e+00
-4.103213952847513113e+00,5.181478899803125593e+00,-5.463824873725884324e-01
2.492558515840163302e+00,6.724504751992507856e+00,-2.710111080767399372e+00
6.090787476591123628e+00,2.403584914858644339e+00,5.036062542257446761e-01
-5.619560380987702608e+00,3.880660990166054369e-01,-4.035158121539831555e+00
3.306940375049834957e-01,9.407442664232378293e-01,-7.514485400468105425e+00
1.613796033388215978e+00,1.389562514359127476e+00,6.733097161327453506e+00
5.100119414733617518e+00,-1.909743957747312981e+00,-6.865493358384927580e-01
3.901144311943552712e+00,-8.152333102255331088e-02,5.415199309349789658e+00
2.202486925157241870e+00,-3.445037511083241188e+00,6.436465719221480697e+00
-2.823965202953872655e+00,4.949650834451910786e-01,5.161780664829350052e+00
1.051285989315821484e-01,3.512975532931668976e+00,-4.808413635616914483e+00
-2.874821926499499192e+00,2.367704136807377679e+00,3.769545659737775445e+00
