-4.698832942947365865e+00,5.395512437838674735e+00,9.061879598602523345e+00
-3.528641431483610091e+00,-1.547804468607240747e+00,-1.416302663769742409e+01
3.914032087244269764e+00,-2.860863273965735143e+00,9.129616827891688047e+00
-2.046268027942394152e+00,-1.729128161898434213e+00,-8.023578045245919554e+00
-4.821711423168326682e+00,5.775864045478642517e-01,-9.962399287798384684e-01
-1.220739336577998158e+00,3.579160815416446706e+00,-9.961154152376291648e+00
1.232130885713877788e+01,-4.306905284590993865e+00,-6.363874119634681747e+00
-5.014816779296325855e+00,1.055539241147699236e+01,-2.003409734790612795e+00
-8.111109505734377834e+00,-4.645394814475361511e-01,7.582826274110353815e+00
-9.113202880545287599e+00,-9.459259393579973363e+00,2.795140852144517227e-02
-8.878424110573414296e+00,-1.686706117870248267e+00,-2.923220200771406763e+00
2.774626186040081599e+00,1.481754665232648982e+00,1.085058619728636486e+01
-2.887484800956023445e+00,-2.182416612969764191e+00,-3.258304390096444791e+00
1.324450732575132017e+00,5.667360756899193497e-01,8.258070825034863560e+00
-7.498549550129268937e+00,3.069343896748777833e+00,5.993960009552943724e+00
-9.130699532203950142e+00,-9.496813741833458167e+00,-1.845754956346273179e+00
1.041171191743855085e+00,7.038006812865932105e+00,7.333287715409374741e+00
-1.040052845139446802e+01,3.804472160948477732e+00,-4.576603797132268170e-01
9.253860369062953950e-01,6.724500499581941959e+00,8.748682911058201839e+00
-8.894975402554564425e+00,8.057211640327585300e+00,-3.418170759753287768e+00
-9.150745284558048809e+00,-1.079793746360310003e+00,4.734508520051825542e+00
8.908120649162369897e-01,-1.140043422460739464e+01,7.450197553606354717e-01
-8.687032072366131175e+00,-4.525887576103547083e+00,5.919769280650869492e-01
-5.819369902460526767e+00,-7.818152392886819513e+00,-8.595605175463932213e+00
3.514780337325697612e+00,-3.088832444896859819e+00,1.101144949565121678e+01
-4.869380790621641530e+00,1.631605633968868707e+00,-2.509862314085248985e-02
3.659686690539825982e+00,8.147132729157737785e+00,-2.460834248264943902e+00
1.437548872904298891e+00,-1.286965262259842113e+01,4.743622185439157590e+00
-1.261131660674263744e+00,-2.094409505228248758e+00,-8.700722621746541208e+00
7.778443717070945063e+00,2.174010372691189685e-01,4.769864995489550452e+00
-7.941225108732825611e+00,1.013100665023973690e+01,-4.980514110197101552e+00
-5.649359959395686914e+00,-7.784571873476426873e+00,-1.746142837153203731e+00
-1.172588534760142132e+01,5.311643954381634752e-02,2.707264922459152068e+00
-5.242869889591903920e+00,-6.554231991516720868e+00,-1.403323281183020077e+00
4.312855426896588185e+00,7.644871646437134682e-01,2.600830642809709214e+00
9.037487904667925065e+00,7.150719234123058321e+00,1.489879139039114397e+00
9.076947689413822573e+00,2.866002746511764787e+00,-2.576889745216130123e+00
3.544889636009595169e+00,-4.343109342471078271e+00,-1.019760095629212060e+01
3.639001397561536955e+00,-4.222599898898048848e-02,1.166664344773232465e+01
-2.876674242761090738e+00,-6.117287149149855274e+00,3.854290694774079373e+00
-3.366751461320649952e+00,5.442189419579896104e+00,-8.896451381710535955e+00
1.093601920899736624e-01,-7.702162978675874960e+00,7.186090592357612827e+00
2.738446698937267776e+00,-1.037339538523731264e+01,7.062098150926457985e-01
-4.405335413404569245e+00,6.202991286255387093e-01,8.325437127502535617e+00
-3.538069034754034448e+00,9.202885733366649390e+00,-1.550256465605239775e+00
2.998898610623247141e+00,8.024751785935652748e+00,6.942012071489661373e+00
6.291696973315856312e+00,-3.858392251738855361e+00,-1.880312124849592648e+00
-3.823214407327174769e+00,2.199791964321716975e+00,-2.637821775349125986e+00
4.983332588038554611e+00,5.629712282838468251e-01,4.587770530695942206e+00
-1.869902236621586167e-01,-6.457610640702521110e+00,-4.372910911164696657e+00
1.693347200933942309e+00,9.704304517364096938e+00,1.575047784532881134e-01
-5.859420942434839574e+00,7.265831985298088824e+00,-1.037916226421753230e+01
-6.540831517908492820e+00,3.704038794779129784e+00,-4.040855641114496244e+00
1.056279499958097468e+01,2.549382529629594885e+00,-3.432206926423862825e+00
1.782645405992026477e+00,-7.596214392512435687e+00,-1.350088726081160928e+00
1.127206471600726267e+01,7.852890011510920587e+00,-6.948865992658337376e-01
-3.601529582736169299e+00,5.677203614783993935e+00,1.297736906570188253e+00
-5.352904681385775021e+00,-7.753036634220843659e+00,-1.075972808213991216e+00
4.531925240313575465e+00,-9.847781160341895657e+00,4.153615505539701047e+00
-1.245228824799254497e+01,4.249882196886498598e+00,8.142554701307936682e+00
-3.565567095889655702e-01,-8.973321770021931432e-01,2.358684316371336465e+00
6.162700565563532962e+00,-2.917316389374315921e+00,2.484003702262715496e+00
7.380331511781955456e+00,-8.184019363125513147e-01,3.684384890566864135e-01
-6.326042699750400899e+00,-1.970664647022732918e+00,1.653388802096758647e+00
1.273895703055002393e+01,-3.026312708992650702e+00,-7.868503674376938761e+00
5.157983736675645581e+00,6.519064251490104489e+00,2.001892116985986902e+00
5.002251714503216817e+00,-3.813511412795279387e+00,-3.715390986126958506e+00
3.353915817491251783e+00,-1.693300650951025554e+00,4.814898968982663341e+00
5.601557078888956376e+00,1.620933229564360145e+00,9.244752835232738164e+00
1.068287458038822191e+00,6.974000004365108474e+00,7.466924830812888381e+00
-7.359208585905553157e+00,1.166988054399832997e+01,-5.603200130465846307e+00
-1.303292737430298276e+00,-3.980874551865475758e-02,-7.129779285603063954e+00
5.120548860165441418e+00,4.657985182071355368e+00,-6.345868104913131802e+00
-6.474725462561994327e+00,-1.678869030741581447e+00,1.402884630040245995e+00
5.619460356659177869e+00,3.381627754207295666e+00,-6.180704917717646296e+00
-2.407368653303575190e+00,-1.984670710664053539e+00,6.637541282039875590e+00
4.475197763947099894e+00,9.826737055436650436e+00,-2.011242249179346242e+00
-7.270814633159243812e-01,7.582138597293373472e+00,-3.852798844078679341e+00
1.014437240808818835e-01,-1.930615843264879228e+00,-8.204310943570497727e+00
1.538518156566533568e+00,4.824543306305688617e+00,-5.314375570967952989e+00
-3.260776514650661095e+00,8.394349894619808072e-01,-3.505843011111776431e+00
-8.189914534006540459e-01,-4.293911367919735489e-01,-4.888762417083835743e+00
-4.361363332461063891e+00,1.950741895874863019e+00,9.392548066635676207e+00
2.579614526446730949e+00,7.358502324387205640e+00,-5.816063127557095314e+00
-1.131798506347910482e+01,2.914212951338650548e+00,2.840241310119379747e+00
-2.737705322165810973e+00,6.680997528383926465e+00,-4.965482868588296128e+00
6.637456307382145759e-01,2.197011246082470226e+00,9.824410157056316706e+00
3.510742629175042762e+00,-9.035442987298175410e+00,-6.035814479819875400e-01
1.172733581554081139e+00,5.142859126383937607e+00,-3.313907793145067782e+00
-3.419708260086114837e+00,5.461237572162754184e+00,-6.664803015680590192e+00
-1.175833413403579053e+00,2.404348021439306926e+00,9.451177449301727762e+00
3.423797177356104449e+00,-7.143551073095384396e+00,-5.500429366517666230e-01
3.487844700500486006e+00,5.359779650840627241e+00,1.102530269259532147e+01
8.334500449426975877e+00,-5.823412663425782121e+00,3.312112486543768775e+00
7.246335249666818745e-01,-3.835296269948847758e+00,-6.259378155581512893e+00
-1.080566250315315280e+00,-7.501530061329662047e+00,7.235128029008706996e+00
7.823319546940783908e+00,8.259186077815474647e+00,4.841773643663825233e+00
-2.951824148991205599e-01,3.520837126066322487e+00,1.121313126365669532e+01
-4.335849105445372054e+00,-1.112875104648174585e+01,1.450806068128289938e+00
-6.931713680030463287e+00,2.982353171403109293e+00,-3.663728040897694660e-01
4.832569478771954863e+00,2.666226559797720275e-01,9.259377253375747685e+00
-2.576771935599347252e+00,-2.413900468039005709e+00,-4.223911113201440415e+00
5.866412451962830232e+00,5.713991943328705636e-01,-1.109406888202843167e+00
2.255766950377668056e+00,-2.227736737029258896e-01,-4.090018889823719306e+00
6.092440342492223548e-01,5.577690734155416052e+00,-5.323251935010655522e+00
8.914076388137921469e+00,-7.704178192150233251e+00,2.477147743143250480e+00
6.023696426636909074e+00,-2.988756523910397256e+00,6.838532050779352112e+00
-1.700404577983843257e+00,-2.208645907706530132e+00,8.255205928184834452e-01
-1.747020751347436507e+00,1.135825939686938746e+01,-6.058498208737625568e+00
4.740351234881292619e+00,3.271095802341729808e+00,1.335314319570648944e+00
8.424859293215972045e+00,3.568265636120329098e+00,2.168739689348307298e+00
-4.287552098864773065e+00,-3.444687614865262759e+00,7.048393107383064127e+00
-6.778613398815174662e+00,5.363510625535664822e+00,7.604649796323102784e+00
-6.339077494543938762e+00,-8.063851426211085638e+00,1.432569669318613625e+00
-1.033267658757366092e-01,-6.368011204800150260e+00,4.116472524805174338e+00
-1.356409876960544381e+00,-4.416454291194039428e+00,1.988414649462925121e+00
-9.159529718899571904e+00,3.359876234657319660e+00,1.139630965705723087e+00
4.971779132429067438e+00,-4.412061996950177978e+00,-9.174482810608331818e+00
-7.555132224031954280e+00,2.828758045939866683e+00,3.589206958826176574e+00
-3.925804082945492102e+00,-1.897465215325114363e+00,2.325364782479872439e+00
-7.509175667289615497e+00,2.365662085442590268e+00,8.970159865685037204e+00
1.005095038942378727e+00,2.235811259773068382e+00,-4.566491242514924664e+00
2.782436256596842572e+00,-1.387835669346662915e+00,6.263569173612629548e+00
-5.342143126679133935e+00,-1.340768064770835100e+00,-1.030500897805427662e+01
2.093331927235723366e+00,-1.066735675446989795e+01,4.919417545613395504e+00
8.737788918247582970e+00,8.326197682845331016e+00,-2.822103553960131794e+00
-3.225359913678991219e+00,3.147249024167636300e+00,4.690993463702559235e-02
-1.732381818388417427e+00,3.494772126662818668e+00,1.168585370796047052e+01
1.051097440016323681e+01,3.855353314264463371e+00,1.355154546632341139e-01
-3.349103441352825339e+00,-3.110064908739243350e+00,-9.479965305274468790e+00
-5.537893556351609625e+00,-5.644975234594229008e+00,3.936438449498574688e+00
1.311045909237254570e+01,-7.655820237621118185e-01,-5.168900532931671066e+00
4.416222994349960906e+00,-6.945431226329670693e+00,4.879226013139517093e+00
-4.957018954375209674e+00,-4.437169267401688266e+00,-5.301301878728768457e+00
-4.939522165224688344e+00,6.307419555216473128e+00,-8.491311697890806087e+00
-2.744010403970621459e-01,-9.499562947657011591e+00,3.541239410644970054e+00
-3.318780052198692321e+00,-2.496349041454100082e+00,-1.326745641166209921e+01
-7.603346401421295475e+00,2.460342065986360183e+00,7.026719953603901558e-01
6.785279143929447088e+00,2.768307873719979550e+00,-5.831157736148279147e-01
8.919686715870897009e-01,5.898511306117572017e-01,-2.375798364992006917e+00
1.140510571109772542e+01,-3.719556379646233424e+00,-3.919662528182210171e+00
-8.048478046258104257e+00,-1.012993799102802628e+00,2.111976709256481399e+00
-5.064764463652868365e+00,1.044196104323920871e+01,-8.892611227847402322e-01
1.028611082934980159e+00,6.894701544174262509e+00,7.507760019775080451e+00
-4.624062771161864482e+00,8.681137197693168162e+00,-5.202745215965477454e-01
2.807144250171976108e+00,2.834380197558700409e+00,-9.247901782868908072e+00
5.006785168176858036e+00,6.472023636383695155e+00,-4.269713015774160958e+00
4.456548584062627327e+00,3.277606014691718084e+00,-7.704255587905312730e+00
6.178115653326718082e+00,9.562576150734285463e+00,-2.710990068019608845e+00
-5.941396551072965160e+00,-7.660399316892890553e+00,3.985819012130729977e+00
9.041538776544349787e+00,-2.767373756177020194e+00,-3.627764831778840016e+00
2.074983216414469922e+00,4.059188813862366629e+00,1.008603374595300473e+01
-4.718809764261369111e+00,-1.444788459275367032e+00,1.647171191730204265e-01
-1.123361783625813892e+01,1.378575382281632677e+00,4.534374506626659418e+00
2.686854159704358480e+00,4.863433950342249679e-01,2.619896172003105761e+00
4.291326770975748772e+00,4.873253592577057702e+00,1.148924390492658709e+01
-4.213651262827033506e+00,-6.857739375336606713e+00,-2.372010703081888217e+00
8.992241426914281632e+00,3.026116809750115433e+00,-4.921179778980048769e-01
-7.425664723209085771e+00,-1.014789612920718476e+01,1.445853948334460570e+00
-5.745904726806069007e+00,1.342452519964108415e+00,-6.295478104693417620e+00
-6.027448795451003427e+00,6.229873910865494580e+00,-2.716749659617399892e+00
-2.130712592168416464e+00,-5.148897619630311562e-01,-1.206381276913864653e+01
9.293557478813562867e+00,-9.184326043875765677e+00,4.961681884665737341e-01
-1.779713759858880140e+00,8.396153274117651222e+00,3.364080800596058296e+00
2.092764882961454909e+00,1.992588151921360184e+00,-3.761261908516283725e+00
9.760042074221152220e+00,6.271612603501948158e-01,-4.694873580097100429e+00
7.999223509341373273e+00,-2.530734063099374875e+00,-4.623722696804406951e+00
-2.423998141394903549e-02,1.854230081507956429e+00,1.877116109354272311e+00
-2.850960712299603905e+00,-1.803371871233458157e-01,-1.214153000847632491e+01
-2.737332556612602552e+00,6.088684034789703325e+00,-9.728439845150687049e+00
-4.137051565983094648e+00,-8.968551269778957113e-02,-1.089471764901869394e-01
-4.332122614539049898e+00,-1.015407168802151539e+01,2.551475272747755429e+00
-9.704485291596482099e+00,-9.753785800050012611e+00,6.381496746421880806e-01
1.421066792481174401e+00,-1.119092881593856781e+01,1.761689575658593965e+00
1.423415014768006914e+00,-1.394522920669596155e+00,8.485112427988180883e+00
-2.799539551015439720e+00,-4.466353277535166200e+00,-6.004418949421008733e+00
-6.392989320415479959e+00,-4.830190990417998265e+00,-5.100584211383283773e+00
4.941526996588161857e+00,-7.067817771305620944e+00,-1.348821701863435418e+00
-2.377487597419021714e+00,-9.475930669043943766e+00,-1.521209258412438148e+00
6.679270465117481681e-01,-1.012441263366109112e+01,-7.040394780505829786e-01
4.171735910478202136e+00,6.171356142368924047e+00,-2.184464037867861919e+00
-7.425865840677468022e+00,-3.172869581724713228e+00,-7.194048639687534497e+00
8.776739548392184176e+00,1.091755243119258145e-01,-2.803844733449845084e+00
-5.232857141103969489e+00,1.078768859920302781e+01,-7.677254251305351218e+00
8.204946855467337485e+00,-5.544477111679181114e+00,2.193850474460023126e+00
9.265688556018350397e+00,4.265248179792600070e+00,1.487227306091682966e+00
-6.661623054841145475e+00,1.125513593149742642e+00,-1.989134488521350663e+00
2.147212487044303231e+00,6.406821794113753965e-01,4.820211766455099744e-01
1.249741205181391734e+01,-5.590847347151011171e-01,-6.171911984181598143e+00
5.999255378344010570e-01,6.091806798789836996e+00,1.360068793229361361e+00
6.419652308937842555e+00,1.100042923961123797e+00,3.109927744314173292e+00
-5.408972140978350218e+00,4.478347633876923695e+00,5.372176149202070761e+00
-1.233923134308377412e+00,1.698962737059840356e+00,8.314631207265934520e+00
2.759412926007301259e+00,2.084389976663240773e+00,-4.430246213945842726e+00
3.560112060980602955e+00,-3.764321222787061050e+00,2.957110415525392444e+00
-1.293152594146605772e+00,-7.175045572840909047e-01,1.927469408529320694e+00
1.373092635461757638e+00,5.198785760154655655e+00,1.008915308467067673e+00
5.201909675228875152e+00,-5.342031298869313716e+00,-3.087562055476204215e+00
2.889123559866763724e+00,5.059678501542721030e+00,-6.932863556227368385e+00
-4.299728739161035485e+00,5.182178487977000536e+00,1.328820904986919071e+00
-5.412234769515508859e+00,9.566844461331070804e+00,-5.508150394860496846e+00
5.650039322245203444e+00,1.145511894329626745e+00,-5.599137059839511821e+00
-3.208637732548798027e+00,2.258947436855187174e+00,1.185830874692282144e+01
1.162970659969628784e+01,-5.900230049110220421e+00,-4.013145071003610731e+00
-1.000864146345741723e+00,-5.004105968350636147e+00,-1.066372168896073447e+01
6.148508466435980147e+00,-2.605507863027869409e+00,6.881876208500705694e+00
-5.078072438526790577e+00,4.692383407564479469e+00,5.395849378895925419e+00
1.978265108239133374e+00,9.069963838381569499e-01,1.119980092571912111e+00
-7.707853170074641547e+00,-6.405502900830732038e+00,-1.156506661812889414e+00
2.321070047895094746e+00,7.977250575530818288e+00,3.561655980069683203e+00
-3.685837355878652244e-01,-9.119927110674817428e+00,-2.931973516695473569e-01
-5.413163767583250019e-01,6.551107296004690106e+00,-4.234019149536257132e+00
9.074660517378593028e+00,-1.464577540431596658e-01,1.767585710918311737e+00
-2.495606661890542866e-01,-2.711251167813853780e+00,-1.131396789775879164e+01
4.570341327807118659e-01,-4.488511737818034142e+00,-2.050750641538391150e+00
1.894085438220433071e+00,2.955781681985462761e+00,3.206927967113909705e+00
4.710499827779512927e+00,3.076435426486756608e+00,3.826963681088172642e+00
-5.607734836819536106e+00,2.973201149879511007e+00,-2.632896367957343386e+00
3.189485765981535881e+00,4.525221251372614439e+00,6.607039776185735569e+00
-8.783163438635384068e+00,-9.261651649893847704e+00,-1.801675817734935237e+00
7.739831571240241459e+00,2.494367755671891285e+00,2.698221042897424038e+00
-2.779239698928642088e+00,-4.199345653798662426e+00,-9.461268814769596247e+00
7.768775152845884158e+00,4.721679274901407375e+00,7.380286719895831071e-01
2.402721382540575767e+00,5.311844552785179197e+00,4.349357654324916389e+00
-7.136865290694681008e+00,1.031472517164701941e+01,-5.781835510927432864e+00
-6.999535122806079812e+00,-3.689980611012263267e+00,4.921920672193217605e+00
9.980771088179722028e+00,8.323641680803788745e+00,-9.854279946458335271e-01
-5.241057691942986096e+00,3.685268703121472811e+00,6.870081895852705456e-01
-6.179345724228352488e+00,-8.271956121591351518e+00,-7.550186729911795069e+00
6.635561063397460435e-01,-8.426380521580867367e+00,5.861158991259022066e+00
-2.402082323879766168e+00,-2.396578603980218936e-01,-1.104395469091948101e+01
-3.547607389374401787e+00,3.759178298359176384e+00,7.445747541833673822e+00
1.162960799067850459e+01,-1.915024280804225043e+00,-6.394952289978009574e+00
5.244025006540995015e+00,7.265323113486019224e+00,-6.091799840343394834e-01
4.604692241848296952e+00,2.823790073570442427e+00,1.215912135452299658e+01
3.908425183537754588e+00,-4.763970567513705845e+00,-1.742651125465796591e+00
6.241642579244047084e+00,8.103137085907462733e+00,-2.434627044545814023e-01
-4.551773549089687343e+00,2.901399254551257911e+00,-1.020851996609669143e+01
1.140081811331595851e+01,5.541394275270729253e+00,-9.341790902697810761e-01
2.626060484194391087e+00,-3.732969207501638742e+00,2.332332315980976567e+00
-2.488229385636041346e+00,1.083579056592185452e+01,-6.075069482609082527e+00
-2.591093703401842419e+00,-2.651454199693623170e+00,-4.914816239413265286e+00
1.341999825190451823e+01,-2.337482983919414004e+00,-6.190222976086758422e+00
5.176039334556549854e+00,-1.798872713393773193e+00,5.461452206994702463e-01
9.552552133770683129e-01,-3.671413781831076140e+00,-2.152008705724175019e+00
5.327670225214902189e-01,6.573756368704365194e+00,-2.764260036506114293e+00
-2.690226171035879688e+00,4.407245262430116384e+00,2.419380818747875139e+00
-2.637246857651176057e+00,-1.583420368068704231e+00,-1.004570461901770706e+01
4.685595590045788406e+00,-6.032237479566017413e+00,6.869985460453816195e+00
-1.653747461250752115e+00,-7.533344778793098939e+00,-1.145025906890143386e+00
4.230446899132666694e+00,-5.219901242920607087e-01,-9.362308297272530666e+00
1.792974983625374996e-01,-1.133410972387531679e+01,4.124545122235754313e+00
-1.156227638981141581e+01,-1.559478856902096089e+00,2.134875801353812275e+00
-1.507453825780101231e-01,-4.268711610973625170e+00,-1.199677842866058697e+01
2.602152741391884572e+00,2.080904437314275324e+00,-9.105973156709003646e+00
-6.081232324479159956e-01,2.683630275588864578e+00,-1.623463396103372869e+00
1.971339306397497104e+00,6.348501602848158676e+00,-2.298386306487671948e+00
2.494795309401466099e+00,3.920140610966274863e+00,1.734405173421540436e+00
-2.545477088056089965e+00,8.267663918042799764e+00,-4.646031164967528326e+00
-4.356719111519102405e+00,2.489449795034041735e+00,7.307390805181833926e+00
-4.961580366821654486e+00,-1.785788846320477852e+00,-7.265938807065418281e+00
5.316777807018871371e+00,-5.409709299425398576e+00,-3.885450573598811630e+00
9.293261709560582062e+00,9.994970939265488852e+00,-1.737399982498351481e+00
1.051708295223027356e+01,-2.364838327788180816e+00,-5.784170274083356489e+00
-7.230047506620462805e+00,-1.455113682298141864e+00,-1.738419370769453964e+00
-1.896231433836100377e+00,-3.878794272084314709e+00,-1.316555314234303076e+01
-3.020982805170634222e+00,-4.944913893433872332e+00,7.959114656422767276e+00
1.025740046844637599e+00,-3.800156655180699783e-01,5.446373318577927058e+00
-4.346861176363517210e+00,-1.092087323939544774e+00,-3.397093926309780798e+00
-4.669785056650065158e+00,5.287089378342033630e-01,7.727984756890431406e+00
1.970789280096013618e-01,-1.380065394318918282e+00,7.424626143967363312e+00
-4.558032420550000019e+00,3.603105520053000888e+00,-1.161869201929809314e+01
6.718030205188115112e+00,5.400923831583678947e+00,5.027311208233015805e+00
-4.841954771368104815e+00,8.072601874183204629e+00,-1.829987146365354977e+00
-4.919155656429294865e-01,4.006484664338906931e+00,2.440821463284050807e+00
-1.591392874623003717e+00,-8.321612052099859325e-01,6.738839396244945767e+00
5.988433954330113274e+00,6.560690633185290110e+00,8.476934408973962221e+00
1.318175021352798293e+00,2.647415800370757008e-02,-9.911022083101519442e+00
7.996212857783633332e+00,2.166479373887174376e+00,2.129926962364512733e+00
5.351630471792516275e+00,3.174057441350971231e+00,2.493063754197150761e+00
-4.743193593472538439e+00,-2.849756488758002693e+00,-9.955754945383688437e+00
-5.894494313580739941e+00,9.501188124224528408e+00,-3.841444571637670169e+00
6.631756377786187429e+00,3.486757882759390803e+00,5.635888306265005809e+00
3.126261063744891988e+00,-9.106175856706299143e+00,3.658293314666926088e-01
-7.443481238678137935e+00,-5.728252174447685974e+00,-1.633102367870233218e+00
7.579729749590092602e+00,-6.606046046074506073e+00,1.404070318456931865e+00
-4.386102541762857854e+00,-2.208356787000752330e+00,-1.271269252575464570e+01
-3.627139918297014543e+00,-2.563670140228424099e+00,9.069280526424208233e+00
1.019154343989025335e+01,-2.132339898540240419e+00,-2.004791080277578352e+00
5.318845359446541465e+00,8.791225334907895927e+00,1.444627139745706224e+00
-1.428697345808636276e+00,-9.552374249120726191e+00,-2.034931618903436767e+00
-9.335120039127538405e+00,5.740880014742336890e+00,-5.692673893736386326e-01
-7.345945142890145441e+00,1.876368321393195426e+00,1.262278469151083327e+00
-1.617848120501653053e+00,-6.141725514715835388e+00,-3.541756742872377739e+00
-2.828297704820751601e+00,1.804153752922679765e-01,-4.115004092818493220e+00
3.675968048774495844e-02,-2.667753303075968141e+00,5.628440143190499789e+00
-7.973722321081853970e+00,-4.454677788019807849e+00,-5.095424417155516750e+00
-3.281330954784886345e+00,1.169814974964493359e+01,-6.268609232980998591e+00
1.530114652693206567e+00,-4.256223019701668164e+00,-1.201053397644028742e+01
7.231519367044455748e+00,-8.268969944021309360e+00,2.956640153692164485e+00
1.308027417025113381e+00,7.352515972067341643e+00,6.350997941971405325e+00
5.436516840798353734e+00,-1.032519206612556850e+01,2.452696426173692767e+00
5.328525857578589431e+00,-8.044053187528302118e+00,3.205014633367206489e+00
7.652949876367358684e+00,2.078983061851910341e-01,-2.406800748081542096e+00
-3.048024787788852219e+00,5.040944747208892629e+00,6.567152464174954574e+00
9.125855596001381187e+00,3.314137125391585226e+00,-4.692844380243895941e+00
1.321916513536562698e+00,9.821138174845090996e-01,-1.223421975496876701e+00
3.335625944406000798e+00,-1.183066540954939150e+01,5.219754191210493666e+00
2.416024552921086865e+00,-7.367986987156233347e+00,-1.779170184274375455e+00
4.542320204291836916e+00,6.512751624314742749e+00,-2.223248099549365531e+00
-9.565163913312405342e+00,-6.548658249208996196e+00,-2.519134984184332460e+00
3.772718371244479507e-01,-8.177103226657324697e+00,-5.132070796490459053e+00
7.237962292764358097e+00,6.285316465955294696e+00,8.738228888938424088e-01
5.496559523822186932e+00,7.063720123681120455e+00,9.833671493510369288e+00
2.554957599334263918e+00,-3.510879577096575055e+00,1.100030405430894120e+01
6.257629283416270560e+00,-3.094386476250209572e+00,4.891545029750165696e+00
-1.559188339101746368e-01,1.074738872687417190e+00,8.119160408509161542e+00
-3.559191636964328609e+00,-5.086869835326756295e+00,7.363307136769326355e+00
5.151315046603803793e+00,1.856128362057535064e+00,-6.174575085536402774e+00
5.600487666246561247e+00,1.002484837126201178e+00,-3.590892936987720940e+00
-3.283989047645835324e+00,-3.984385558470207478e+00,-5.538971465323212939e+00
9.832807261329058690e+00,3.113972831243259076e+00,2.192307114240717336e+00
9.957541271035806218e+00,6.331586130181105609e+00,-1.128706582098986777e+00
-9.996654809429980304e+00,-4.434129580097145862e+00,4.251263536570284884e+00
2.386924516872889479e-01,-2.160650404020711124e-01,1.140568274257919512e+01
4.077756569047426893e+00,4.000694558640370602e+00,-6.666737267932146160e+00
-1.453659864966778903e+00,9.364531510981177753e-01,-9.872686367374807759e+00
7.444262206963163209e+00,5.711345952261930314e+00,6.181608502016023188e+00
-2.793815219238413583e+00,6.414918096937572756e+00,-6.110576380373679006e-01
-3.225521676406598814e+00,-3.180524192628793045e+00,-4.504856757151150859e+00
-1.071788409020072841e+01,4.742105661879987721e+00,6.983867012118240680e+00
5.732662831655909841e+00,2.732835361341651170e-01,2.454031337922781386e+00
5.448990363048940022e-01,-7.659079854027553758e+00,-7.153187312390342223e-01
-4.329643904021802214e+00,6.990637236384916520e+00,-3.834514538149903728e+00
-6.969008546184551456e+00,2.708270154268306751e+00,4.031514514240250868e+00
7.789202335140530842e+00,1.329145436987927198e+00,-2.621811152889606422e+00
-3.124473145779403271e+00,4.129497139108307735e+00,1.237760162583628443e+01
-3.078524278422107852e-01,6.366663488607375854e+00,6.915892222323041238e+00
6.304747550396124112e+00,9.768914301168774017e+00,2.421076532359033862e-01
-8.163903582525179559e+00,7.618162924333972796e+00,-2.088750842184080359e+00
-7.541175545462523999e+00,6.508146932888622116e-01,2.102454380785147681e+00
-5.613372721642973850e+00,-7.589304233894436535e+00,-7.150378480251109892e+00
4.200820165575393617e+00,-8.014258285710646135e+00,5.064424776461260436e+00
-4.038019822051826857e+00,2.930705349409651883e-01,-4.531958091274169931e+00
8.316189071724176429e+00,-4.128094935780014296e+00,3.418045248591744745e+00
4.398786766848997054e+00,-5.622298355525141567e+00,1.013781623091066031e+01
2.796343013223569485e-01,-6.867036550021397900e+00,-3.851202707881657528e+00
9.763549691912109196e+00,1.043099213811835568e+01,1.531804424528021791e+00
-5.869150632805332890e+00,-3.930455560536763482e+00,2.644056746003015768e+00
3.731514555429062074e+00,-4.155086605059193694e+00,4.162968316198574770e-01
-2.608029551280081737e+00,5.871905792474914954e+00,-1.365408075504809471e+00
-5.600433385751919957e+00,3.130609839274252071e+00,-8.649023056324510961e+00
1.007364750199710457e+01,1.032179131155693597e+01,-7.543030458554215167e-01
1.009596021887675166e+00,2.808933765005508398e+00,1.132629529657297240e+01
-3.552729957783837378e+00,3.370061656873757805e+00,-1.318617608531438945e+00
8.960346919014252620e+00,6.783534476677950842e+00,3.913867484346645664e+00
-6.848714554421468037e+00,-1.089218855311191625e+01,-3.017488891992037292e-01
-8.898733097480683307e-01,-8.902029316879092491e+00,2.970190324535582960e+00
1.019237020693571694e+01,1.148612050614529778e+01,-5.404670447842753189e-01
-7.085831871156611506e+00,6.936069883778452905e+00,-5.883904830529147034e+00
-2.520867521900890029e+00,1.074823096840540337e+01,-7.579128764498268556e-01
-3.426849374576875551e+00,9.267948327496364769e+00,-8.093544208619967151e+00
-4.803242470271178871e-02,-6.940967926721698378e-01,-8.354840153003543435e+00
3.938241889549385366e+00,-1.223591724284808002e+01,5.221922172211799662e+00
-2.636743640292459556e+00,3.534231346416562225e+00,-8.063011920491193862e+00
1.856004167264784899e+00,1.935112862166775693e-01,-2.198858458417939588e+00
6.069381483100634078e+00,-4.208878407058841198e+00,-1.016826678531516848e+01
1.447025870882456600e+00,-5.834519723748925912e+00,2.984308304807513412e+00
-3.818895016985903279e+00,-1.118347728930682727e+01,3.603526733485539424e+00
7.618629985273477345e+00,1.100719101001425670e+00,5.677849035120851262e+00
-2.894373641506794659e+00,7.122518874873787098e+00,-1.747395386141951112e+00
-2.727921851792965979e-01,-4.429257048287515985e+00,6.565221040278843567e+00
1.003076804883626849e+01,-5.483479356482884981e+00,-2.611119562695915608e+00
6.697457455693721862e+00,1.153075377085892050e+01,1.387724697483629921e+00
-1.566005605291191705e+00,-2.841139930472446284e+00,-1.625650724974044836e+00
-2.453227606207641076e-01,-1.191533904448137271e+01,1.333167685593207308e+00
-1.675736392240729788e+00,-7.259516183494845620e+00,-2.348249554343179391e+00
9.623495591595436771e-01,4.949617505908739723e+00,1.988942973171034523e-02
9.279719665374726034e+00,9.657382541278584753e+00,-1.008770954453074298e+00
5.817497074148477054e+00,-1.246711028655781206e+00,9.775120821303286078e+00
4.488989018737173708e+00,3.815454499533186272e+00,-5.844982953519697322e-01
-4.616682524428329160e+00,-2.603915895715873674e-01,-2.799425935346055550e+00
-6.988813543012502294e-02,-2.334961856617441267e+00,-4.113933521691498507e-01
-6.087311439242105715e-01,2.538319166935013804e+00,-2.144149804323958186e+00
-1.497625446557294460e+00,-7.555087594986606980e+00,-4.865569110464416092e+00
-2.622498787491156502e-01,-6.498003159069817514e+00,6.586557278882870570e+00
7.864641880987593980e-01,1.117115409036339102e+01,-9.912592798048908138e-01
7.213247632207873572e+00,8.198515738065534908e-01,-4.228936036095609197e+00
5.385888012669745706e+00,-4.032662356206421883e+00,1.086139699712680162e+01
2.949271810455654119e+00,6.220328617437414387e+00,5.786886911340920925e+00
-3.767130387991251439e+00,1.003936107679917988e+01,3.183691011666016091e-01
-9.250010256131192321e+00,4.255894287163830114e+00,-1.121220530812761629e+00
5.566677756904406138e+00,-4.690807157502476787e-01,-7.824345412774846409e+00
-4.390660302250592117e+00,-4.259952706168348868e+00,-1.146267074356376803e+01
1.877130748782478653e+00,6.424464986170116410e-01,-4.680767777849080602e+00
-1.180762547270033380e+01,6.583647034273043985e+00,3.548231493419105487e+00
6.439149335371399552e+00,-3.610760749939244452e+00,8.749608881936664417e+00
-6.634080732268247127e-01,-4.405944022769710422e+00,7.058703083238403231e+00
-1.319374478519249116e+01,2.909416506384751688e+00,7.026280167596664405e+00
4.957301581578663630e+00,-9.074687822004930737e+00,5.241720348761713666e+00
-1.049333372842401602e+01,6.615317555658575266e+00,2.835441098019672701e+00
1.047834818793407452e+00,-2.184601799598474337e+00,-2.231175669723136412e+00
-1.770475626123840518e-01,5.455934991480440033e+00,1.140378639165298802e+00
1.015067016670659239e+00,3.382921561682941114e-01,-1.128987589384738932e+01
3.364707610147954497e+00,2.822079739465748638e+00,1.448137318856210598e+01
2.011652198508235401e+00,5.065935961626875539e+00,-4.119146905952432824e+00
9.825535507239190336e-01,-6.588835457149492258e-01,-7.809319525908628101e+00
4.743148671173782027e+00,-1.094911581494635300e+01,5.369616244687058781e+00
1.901850205717579234e+00,3.525885657454754352e+00,2.983425103741262685e+00
2.908559211601214667e+00,2.821715743877257765e+00,-1.212041722816119993e+00
-3.459223209338817107e+00,-2.492933570514336838e-01,-9.593903108803640833e+00
2.103170668788496567e+00,-8.420543154670889763e+00,3.593397072975812012e+00
-5.083932894032522576e+00,-3.425183830188325285e+00,-6.810394645650380774e+00
-6.092075181589020616e+00,4.802369487357943889e+00,4.182379250942898530e+00
9.339789119319590327e+00,7.659003555216870929e+00,1.372190144162408476e+00
-5.828985352502083828e+00,4.845858454225609457e-01,6.201781476066952514e+00
-7.675192035349289732e+00,3.343615429571639819e+00,-6.610373129371446943e+00
-9.329791362768668606e+00,6.035819352265469284e+00,-1.286786931744389406e+00
-1.435827016060214678e+00,3.092700476262181919e+00,-6.838506652914633221e+00
5.026658698442364681e+00,-8.282097175366009978e+00,-1.956761631112630406e-01
9.308325404563777994e+00,-6.267275026740400712e+00,-3.493836313445738195e+00
1.621276577729273916e+00,8.320161433828493713e+00,3.901187282832488279e+00
5.718011418513476940e+00,-7.551091098405585456e+00,4.582697718783739660e+00
-2.469593906414695894e+00,4.235772579974048213e+00,-2.641527102878094446e+00
1.926392832161714086e+00,-6.856341714162077494e+00,3.099567979358989422e+00
-3.167855722862231271e+00,5.813412947222199811e+00,-7.312955121118703161e+00
-2.523104353618752071e+00,-8.959124420920737464e+00,-7.735994953507683292e-01
8.127491986293680526e+00,7.180732993296808253e+00,3.691992570814631058e+00
6.659203712686474930e+00,3.583617126364170957e+00,4.608821941040814885e+00
4.428032443831384946e+00,8.581223495866959539e+00,-6.894368055044537424e-01
-9.107953614985071056e+00,-8.537198152370217841e+00,-7.787616291173926619e-01
-3.947505700956790431e+00,1.446180520978249118e-01,-1.127097285611070365e+00
1.389294765530235121e-01,-2.065409620605056951e+00,9.702767075866765012e+00
-1.864608954686227005e+00,-1.976510849684023130e+00,-4.522932187296324180e+00
-1.738429281914730895e+00,-1.871947451859617972e+00,4.403731381874860240e-01
-3.027685967585919791e+00,6.948829688334268617e+00,-4.224078074450509312e+00
-1.538454992716561831e+00,3.885675700722743375e+00,-1.418506717410654927e+00
1.152679565307091991e+01,1.250741691921053889e+00,-2.365913789673569578e+00
9.592066008220257345e+00,-3.076948112455593520e+00,-2.627046406205997719e+00
4.701674094404042492e+00,3.925881328747653942e+00,3.558948517917663423e+00
1.319496910999340855e+00,-4.406498730746454484e+00,-1.166276402609095442e+01
-2.003291551661909864e+00,-6.114743322805283654e+00,2.645487883634959125e+00
-1.048689347656324422e+01,-1.210100414719615713e+01,-6.164493316324463068e-01
3.508509497893887552e+00,-5.993004908247049123e+00,6.628396144114383048e+00
6.221817154845499687e+00,5.608428703903277857e+00,1.741408477117366127e+00
2.141463619359361470e+00,4.840707061385601584e+00,5.951344313608047720e+00
6.571384263091724520e+00,2.207086820393712845e+00,-3.315753489023959499e+00
-4.890728289488376568e+00,-7.962985894294646094e+00,4.383085515307263869e+00
4.194501711328458171e+00,-2.245712058151293267e+00,-8.740094930051974131e+00
2.832255628607990516e+00,1.076913271021529700e-01,-9.493412535129934327e+00
9.499700727395220312e+00,-2.753401514213262846e+00,8.108534446589752420e-01
-4.143867330651727521e+00,-7.208604851525203472e+00,-6.221644754620861306e+00
-3.803188514735121206e+00,-4.230414624322977879e+00,-8.530296568239739585e+00
6.988699986209093495e+00,1.865341422396999960e+00,6.224462614354498768e+00
-1.116431257985442294e+01,-7.383462776935661331e+00,3.351714084363307533e-01
-1.039922320737206007e+01,3.952514839394015933e+00,9.565680406734642816e+00
4.649044522446983407e+00,-8.015741523483963960e+00,5.596287559036073667e+00
1.062247661686982880e+01,4.728963284404765766e+00,-7.613716450890379850e-01
2.745974853961763093e-02,1.422093436288026425e+00,5.678627219221644040e+00
-2.311263371135954703e+00,2.785906842150155160e+00,7.680230817966676504e+00
7.001397380189471775e+00,-4.814526660295888050e+00,-2.328913070979985012e+00
1.263024844660425217e+01,1.927608881821264442e-01,-5.131465265582508373e+00
4.777090617434398112e+00,5.362775454041787349e+00,8.167256089200762403e+00
4.704283759802433629e+00,9.871972233954720011e+00,-2.600565624962840050e-01
-9.107026336095403352e+00,4.938134917696998194e+00,4.296843526019211268e+00
-4.273365138364087379e+00,-2.956989899116094112e+00,-5.527670226775958540e+00
-8.699609484714573071e+00,-2.292079366964512754e+00,3.199892983855356920e+00
-3.117649014003655239e+00,-1.129065166445009183e+01,1.798493851293720969e+00
1.238263909944904739e+01,4.775930227491805291e-01,-3.769224736052771974e+00
5.102925666370566660e+00,-1.949326184298213027e+00,4.046243402229527497e+00
-5.668402032956094239e+00,5.817414814794552136e+00,-9.147220157273055818e+00
1.115943449232913309e+01,-4.487861429163793936e+00,-1.985249875325306723e+00
-9.282316160487230405e+00,1.266200457029040383e+00,-1.575691176244972125e+00
-3.792134670968309251e+00,7.249818646237382147e+00,5.745339908540167961e+00
1.422353899621222384e+00,2.945166118093831997e+00,1.034720293202625818e+01
-6.852479554382421512e+00,-6.972385668473240372e+00,6.864936189079050566e-01
-3.101444345841044115e+00,-1.209142985822281524e+01,3.339495745942397509e+00
-4.980640115047652472e+00,9.209921133078941002e-01,3.568055823063427834e+00
-8.446245817129856448e+00,3.522268940893907629e+00,6.375528508100686942e+00
9.845226659077564335e+00,6.775062856934400024e+00,-3.259755735738948612e+00
-5.296367916737246162e+00,1.588409475138925275e+00,1.104870147268084829e-01
7.008493360002305828e+00,-3.915389353929951799e+00,-8.906124629442837559e+00
-7.869214070378667714e+00,-1.213225999130958499e+01,4.163107988101728552e-01
4.082488094446645732e+00,7.740545683292731738e+00,6.320194182591116316e+00
5.802916965122280502e+00,7.846760113927060409e-01,2.120624165372426262e+00
-4.096613783569770240e-01,-2.506681807178655408e+00,2.137723815404543259e+00
5.828489099147438957e+00,-9.244044400813042017e+00,4.298019325847601380e+00
2.872900516823739370e+00,4.601218854903363908e-01,-1.015613372351671728e+01
-1.429281763017107298e+00,-6.177068739298885447e+00,3.076099395981295004e+00
-7.396940936604555539e+00,-5.340317696807814762e-01,4.311963816815973516e+00
5.777586885778704051e+00,2.592209410287501292e+00,-7.870271577659222473e+00
-8.279922606467909674e+00,-7.814220772896096179e+00,-5.564221213723976600e-01
6.548029113459612915e+00,3.126690755418223056e+00,2.185535732514980900e+00
-5.463349209645358862e+00,-3.839476550110015651e+00,-1.185277414131698182e+00
2.885397799540609487e+00,-7.213515598983898380e-01,6.491084983506347328e+00
-1.058214336088807217e+00,-4.053059515304835436e+00,4.008367526976591044e+00
7.848845791580225217e+00,3.885190757393085226e-02,-2.116190711135601532e+00
-1.699408980837427530e+00,-8.308837998251419776e+00,-2.138927624220779311e+00
2.732315203464477982e+00,-3.313295823354723835e-01,-6.978113604457450769e+00
4.275360859179166972e+00,-3.935416112342306594e+00,-7.682412467685354684e+00
