4.882193971545641387e-01,2.146194568954295168e+00,2.205329217697708621e+00
1.725561743399295134e+00,-5.084816038496596802e-01,-7.946572364591063531e-01
1.556104738392327103e-01,-2.420250633468712831e+00,1.448744588384064613e+00
-2.514311201897987402e+00,-6.739722183063411309e-01,-1.714818333779228654e+00
-7.134273845550423987e-01,-1.786781962379861532e+00,5.708686192291163586e-01
1.300388438219670650e+00,-1.285930514412571002e+00,-7.430273565768927835e-01
-1.676659809839075255e+00,-3.093557703688294414e-01,1.310211418673875139e+00
1.828001017500009651e+00,-7.944135802759607623e-01,-2.319431520572093230e+00
-1.695530965255864109e+00,2.101271464180139770e+00,1.299589864599819844e+00
8.758373557716120361e-01,2.519507746004141957e+00,1.343174354691102801e+00
5.055168558848303073e-01,-2.969814792056144626e+00,-1.015991619460408391e+00
2.851518512051098408e+00,-6.217091701537363901e-01,-4.483031400778467734e-01
-2.732043468386423424e+00,-1.245803592685965078e-01,-1.444177972683981181e+00
1.436091966461081393e+00,-6.232179652364365774e-01,-2.239381446016287303e+00
1.865648022448076260e+00,-6.768976388836360769e-01,5.320872547870073577e-01
1.611049638095456205e+00,6.986300891242008815e-02,-2.838527083450069544e+00
1.594371216434435912e+00,2.517385229178793704e+00,8.322626348494425175e-01
2.699994441982988658e+00,-1.305630659075235123e+00,-8.416442097447632276e-02
-2.948435406295253358e-01,-1.209513276951253991e+00,-2.615176680315919100e+00
-2.695590990669919140e+00,-4.769816287059733262e-01,-4.594170651607448752e-01
1.344530013366453502e+00,-2.473288537967675449e+00,4.397341070451899481e-01
3.650850281369402150e-01,2.527407814042180068e+00,-1.647339129335868346e+00
-2.411241191842954379e+00,-5.916910859182187427e-02,-1.644969113698348251e-01
-1.236363729171049641e+00,5.911363442326167394e-01,2.963747872795759797e+00
2.015503029091433862e-01,-2.590406768788500180e+00,-1.139727840433789829e+00
-7.555714154141690564e-02,-1.442194707988693869e+00,-5.789270064734951537e-01
7.713827342223656958e-01,3.106564136828908307e+00,-5.510946044841620317e-01
8.644102010296091931e-01,-1.765495703626260626e+00,1.014754312672480063e+00
2.287793673247000115e+00,9.685179939481098899e-01,-8.473115007834822188e-02
-2.978900387858558041e+00,2.891643124405299248e-01,-4.397311360836481664e-01
-1.057689989054359181e+00,-1.771230841884777085e+00,-1.411103231714499362e+00
1.821409841825415876e+00,1.519925108438845207e+00,2.140679227425886788e-01
-1.511269131343111249e+00,1.920882989111661887e+00,5.624172633200101856e-01
1.283005106558433583e+00,5.867093798767408774e-01,2.983759237906536965e-01
-2.378866570439971628e+00,-7.465293181702564729e-01,-1.232539285600487755e+00
2.110656605506268768e+00,-6.633712127077117104e-01,-1.849360961652337099e-01
-2.976592271293102332e+00,-3.489203794959241933e-01,-9.645472209374081896e-01
1.329989385369688693e+00,-1.722312121759472348e+00,1.195701228973168995e+00
7.713765246466132153e-01,-7.077470201168713226e-02,-1.831116427567035743e+00
3.116188909643045624e-01,2.585742554440060736e+00,-8.733009994933795817e-01
-1.874468216481476102e+00,2.034578013222903436e+00,-1.114818055065072283e-01
-1.199520653724991427e-02,-2.468004732406165580e+00,1.579442420878905740e+00
3.526113931093997622e-01,1.835646166209266017e+00,-5.810428497598587594e-01
2.757790405866133998e-01,-6.036455646126127617e-01,-1.465674194627864635e+00
-2.809647804507372726e+00,1.271053377702992648e+00,-5.911115700564053554e-01
1.515333624924642075e+00,-2.077875411147506846e+00,1.469210724104971666e+00
-2.884814548781619407e-03,1.413547187123874727e+00,5.789555253121014822e-01
-1.365834427438511023e+00,-1.260297267427025192e-01,2.091867273485011225e+00
3.096036921162280464e+00,-4.264393925940222485e-01,8.891116412501925970e-01
2.738094532943290194e+00,7.450364609103088398e-01,-1.143907037208312216e+00
-1.331305306412019496e+00,1.006330444387199652e+00,-4.820712065701675542e-01
-2.404552343913010315e+00,-1.234597820457570050e+00,-1.064039896298601962e+00
-2.018731769919501762e+00,-1.543784392872748823e+00,-1.925954789698120839e+00
1.658046449432140357e-01,-1.135063683752668418e+00,-1.646388426841330466e+00
1.156223907959779362e+00,-1.113640384521270343e+00,2.784151546696728818e+00
8.049988467555351246e-01,5.046351717819578253e-01,2.909953113998774210e+00
-2.131919900521607403e+00,4.120531051330978550e-02,-1.047054113298061528e+00
-2.348289884231495428e+00,6.546145273970355172e-01,1.237423397128917912e+00
8.028733360004960407e-01,2.554825689888424289e+00,6.957312557639053763e-01
-6.394478686540220336e-01,-1.039929389880508648e+00,-2.131536423660542745e+00
2.351954586622257704e-01,-1.992417776995801137e+00,8.187157175978232448e-02
5.388132817681966225e-02,1.631479144732110864e+00,1.586841842506419020e+00
1.758447463972012015e+00,8.911991386262296810e-01,1.152251073888526101e+00
-4.853660946555281019e-01,7.574710923823094189e-02,-2.028381122571599970e+00
2.359574472147509816e-01,-1.954647281206299825e+00,1.740357182913589318e+00
2.146143107481903733e+00,2.070153824743178106e+00,-5.268633204705828188e-01
1.199086352080835916e+00,-2.126632950675848011e-01,-6.503292909786764220e-01
-6.613204301704392885e-01,4.387255576216303465e-01,-1.476812287252138978e+00
-1.473545415258687319e+00,1.378208946654168710e+00,-1.244656256173584552e+00
1.593920676019081828e+00,1.540232288171599073e+00,6.507173892755945266e-01
-1.635762448199359065e-01,-4.896468515877451799e-01,-3.213174898786624212e+00
-6.536850805070961723e-01,3.658903197392212037e-01,1.589829555668550221e+00
-6.324883498668888437e-01,-3.083292208166569903e+00,-4.779885311283512683e-01
1.294852863691317468e+00,1.001608664294969531e+00,-2.213069622550622118e+00
-8.567754256793026491e-01,5.279318996641335637e-01,-2.574221040824343554e+00
-1.611137106993848267e+00,-1.118785402638208026e+00,-6.737016849167740684e-01
-2.724745463995816408e+00,-8.977296112357203983e-02,-1.266289472305819563e+00
-2.737551815921315246e+00,6.583244735967295203e-01,4.086685466248878851e-01
-1.408188267679605143e+00,-1.661650010984168313e+00,-5.088853399665187877e-02
4.583155795801645560e-01,2.287306243255711635e+00,7.066804130401354023e-01
-2.126344267148197797e+00,6.516949737932535847e-01,4.103774567787891181e-01
-1.146483176869967480e+00,-1.431288555304640608e+00,8.537432676587623781e-02
5.266797570805498152e-01,1.968586885554481247e+00,-1.306827767136161667e-01
1.104814353296543761e+00,1.309658383705889217e-01,1.794074541895415376e+00
-1.082778270476128846e+00,2.793421490195184820e+00,1.116723587035511889e+00
1.013706911741258931e+00,2.077436730367216100e+00,1.672009288674265237e+00
1.377031275566590329e+00,1.895718543314970583e+00,1.011567952539476657e-02
1.412363581590042827e+00,7.260330257445336555e-01,1.477989431557026112e+00
8.750560051140724438e-01,-1.145894771211107832e+00,-7.467401892507130601e-02
-6.114691808131410555e-01,-7.883681025525534070e-01,-1.562347545636951773e-01
-3.197806380501003742e-01,1.257106363236111024e+00,7.310247066549592221e-01
8.685374126759071167e-01,1.845697799074582646e+00,-1.739127786397113296e+00
-8.326381871455005301e-01,-2.377654632872929330e+00,-1.654982284864139785e+00
1.825694850325916274e+00,1.402525346911360216e-01,-8.702578800705019768e-01
1.330951399375513322e+00,-1.109280800670588152e-01,8.531263153642063557e-01
6.435115226888594719e-01,-2.556632824417288230e+00,-1.487647589268985104e+00
-1.753014249031299210e+00,-7.269929812845787875e-01,-6.983132112387299140e-01
8.930556286778252861e-01,-2.677778712239228032e+00,3.707021902472638630e-01
-7.367682449265773315e-01,-2.811202192990563731e+00,1.435556664478384592e+00
1.334425854017872615e+00,2.442437002012347591e+00,3.516054130240274245e-01
-3.749417279510694478e-01,1.159753579304163784e+00,6.142507544357207472e-01
-4.433778865642699074e-01,-2.223455440070743805e+00,7.850350707495767910e-01
-1.547706077221523424e+00,1.728572311203241174e+00,-9.395947711877332409e-02
5.911476854375599110e-01,1.503489288906462829e+00,6.524157806292600892e-01
1.217633945842149013e+00,2.590359244282472773e+00,-1.011067916520028698e+00
1.689652563051762535e-01,1.638005764045681323e+00,-6.281850988770700805e-01
-2.817872281667041623e+00,4.984770390151709307e-01,-6.355947422422778548e-01
-7.561876275243177847e-01,1.152051173423600972e+00,1.064874344135111173e+00
-1.990865469698119838e+00,-1.188589266268234690e+00,-2.019500524831610910e+00
1.111392235365584291e+00,1.818038026809435659e-01,-2.819600990970688059e+00
-1.767618548546761037e+00,2.024190136598935652e+00,-3.648432792782094758e-01
8.230639826936595460e-01,2.112780979806538451e+00,-1.256860026683954246e+00
1.609362011333948184e+00,-1.010669380689303232e+00,2.524790756503467737e-01
-1.080070427929094912e+00,-1.926912295595479385e+00,-1.737139793147843614e+00
3.533206746906162321e-01,-1.285784560177357649e+00,-1.118933827573984185e+00
7.487523240653880530e-01,-1.290501235104753341e+00,1.063866092880756176e+00
9.783088678025346763e-01,-2.772737288086481566e+00,-8.342305114455562665e-01
1.449338501590318851e+00,-1.024477455957803373e+00,-4.108217739523601919e-01
2.552662451739178717e+00,-5.579120416426667228e-01,-1.783253457453644275e+00
-4.069916940785276993e-01,-4.129777604677731251e-01,-1.274298269291767705e+00
-1.249240067578620605e+00,1.010654245222324388e+00,-9.632346713111062941e-01
2.144387145531416738e+00,-1.878304950307348120e+00,2.896430787521542261e-01
-2.606377906280071599e+00,3.342420254957852166e-02,-3.383650390850824197e-01
-2.142499330382142020e+00,1.008789319615017860e-01,-7.162522767047120320e-01
-1.673969556835750883e+00,-4.637042230793999020e-01,-2.243325594075629148e+00
1.964585859714288230e+00,1.029676840177763619e+00,1.716891068863890535e-01
1.467391070877945181e+00,1.735371663545438814e+00,-2.626883919269495382e-01
-2.176275247790349365e-01,-1.585380450764058313e+00,2.349573193111393898e+00
2.539563542800123308e+00,-1.391479677545823801e+00,3.261533508746031762e-01
-2.392822569622419238e+00,-8.085500079350530500e-01,9.123702775640741836e-01
-4.380520677969207965e-01,1.563221445667892784e+00,-7.373772471986945742e-01
1.840233638642529701e-01,-7.122673418202530859e-01,9.931397745168442093e-01
1.467630123342835269e+00,1.973065242310721334e+00,3.468368232605842372e-01
2.412019963159013347e+00,1.312601666123043964e+00,-9.758481332586257384e-01
-3.387382069520967764e-01,9.327502122545722196e-01,2.285017356332691207e+00
2.301067221537949514e+00,4.929263847352094441e-01,-1.054869959156434112e+00
-2.100006285714377974e+00,1.188769130696830212e+00,-9.330134940997333315e-01
-1.572555884950581184e+00,-9.210663877244498199e-01,-3.394353668414740177e-01
-1.629447450044581247e+00,7.303822529348640291e-01,2.050155908994106824e+00
9.248768134899842952e-01,-9.272214071808863034e-01,-2.256051820349108450e+00
5.823735360561685948e-01,-4.944940587386025821e-01,2.691707714422144626e+00
-7.138747773053443213e-01,-1.954269489021685180e+00,2.117156934175451699e+00
-1.923991947187309259e+00,-1.804788489650670791e-01,-2.794423214592162141e-01
-1.469191871529861526e+00,-1.725575418230829383e+00,1.143889354572757089e+00
1.817688610811075245e+00,1.028696034796784842e+00,1.959543010191586720e+00
-1.804645896187936360e+00,1.514263240551586565e+00,1.147329756157750236e+00
1.396785499199620362e-01,-7.151363520825030351e-01,-2.723226658952130119e+00
-2.995709282632056158e+00,5.248851901442090906e-01,-4.127499682868082109e-01
-3.682780505918902270e-01,-2.580960604879613207e+00,1.422262846290432980e+00
1.851825157727143845e+00,3.392512253878230966e-01,-3.146579125746541694e-02
5.930897296891520787e-01,-3.129539319078085580e+00,1.394520436555421461e-01
9.375920719788929381e-01,2.007869060188840482e+00,2.156223976266196551e+00
3.831197131283484159e-01,2.507458056042930483e+00,-1.317429112503223365e+00
-5.144457002988390704e-01,-2.445960058192125253e+00,7.532003716511607994e-02
-1.251064487836264449e+00,2.477107177962784235e+00,6.870280987211569990e-01
5.304314639442033741e-01,-8.589341905977899705e-01,2.344598761425563005e+00
-2.753633162556897940e+00,7.622256445232252764e-01,4.457865288233873180e-01
-2.817198858835851527e-01,-1.804937025790604554e+00,-6.508605042799233686e-01
-4.802113134486725166e-01,6.714344240583236534e-01,-3.043005997874922652e+00
5.802243428076272469e-01,6.221626044686064949e-01,-1.468147505135861675e+00
-1.152364386482944036e+00,1.094632780038757164e-01,5.535075539452364302e-01
1.551046443455981860e+00,-1.122512386556519193e+00,2.465934450189681826e+00
1.117523756443453031e+00,1.339114181069676945e+00,2.759383757410661442e+00
1.888483893592220797e+00,-6.214366997401432613e-01,1.298933452575304237e+00
2.419983192889250567e+00,2.774033696206675836e-01,-3.105852692105244284e-01
1.124268834209856571e+00,8.406866270654334006e-01,-5.406056647748327393e-01
-2.043194557610886974e+00,7.723428308629415318e-01,1.423596012586317849e+00
-1.096233255660587158e+00,-1.918528915035382587e+00,1.193840177380592671e+00
-4.595848547598669342e-01,2.404932938586855418e+00,-1.326489461930616232e+00
1.760757826780627033e-01,-1.828020813381663334e-01,2.025165815195652641e+00
-1.350731991000828636e+00,-2.254663865771096898e+00,3.159985953557610250e-01
-1.766291040016425784e+00,2.082163155237818142e+00,3.428067148724314728e-02
2.806302694992972580e+00,8.087783181872580940e-01,-1.580249274906960488e-01
1.781189801855405319e+00,-1.803874355277840902e+00,-4.122099183948914614e-01
2.262661791664966060e+00,-1.669527703660054208e+00,-1.779859951340382329e-01
5.679821233597253105e-01,2.709756054612191711e+00,5.128630095392225918e-01
6.165886502885348230e-01,-2.146395138207474851e+00,1.333646468806998220e+00
7.227973282070746519e-01,1.184528714641661873e+00,1.887307829396831949e+00
2.977353536723318594e+00,-7.847894997796924788e-01,2.159658351123284747e-01
-1.449863294010987014e+00,1.719523678328457761e+00,8.266359529537996575e-01
1.226174511789612787e+00,2.405205055827738470e+00,-7.122641937340142837e-01
1.360209694508134781e+00,3.508720333281380999e-01,-2.808686699113859486e+00
2.680037646955583774e+00,4.707599482530747115e-01,1.117431929083485320e+00
-7.031252315970925038e-01,-2.901649066795033871e+00,-2.921611808945847599e-01
-4.896049734629954325e-02,1.644946689430083930e+00,1.423413278136010929e+00
-6.841870102440975598e-01,2.313856593921063270e-02,-2.046082699079352363e+00
2.873938942731566026e+00,3.296507145963723517e-01,-4.841688357069490189e-01
-1.713546310330617883e+00,-3.171477807962214124e-01,2.332573762757371494e+00
-9.537408755123105708e-01,1.848166965221783808e+00,-2.132712875009076470e+00
2.353025874125443728e+00,-2.402871325928447321e-01,-6.904491054447381079e-03
1.415842837384523323e+00,1.943299519033414802e+00,-1.465985042704444519e+00
-2.012740728677119062e+00,-2.543345200465796818e+00,4.079713593579099573e-01
1.401260176944896796e-01,-2.115232369887940056e+00,-2.367144429130372263e+00
-3.317952282821511889e-01,2.566338990780048679e+00,1.508786242016680434e+00
-9.686284191800845766e-01,2.124178152995253865e-01,1.453962172687372822e+00
3.002744135851131535e+00,9.095153716147593714e-01,5.058046666866337082e-01
1.796714069249137236e+00,1.357388772379909181e+00,1.602197067596823343e+00
1.847651280708756616e+00,2.299579543324408171e+00,-9.611064924938098608e-01
1.330824123726525254e+00,-1.834947176778308098e+00,1.948543079559605484e+00
-2.041143434887452202e+00,-4.628617804377942457e-01,-9.613650966541151810e-01
-3.894240349768450238e-01,-2.736648771113473266e+00,-1.603024668593396651e+00
4.284325806278043158e-01,-1.283519635653244340e+00,3.826498820063208850e-01
-5.380880432256076595e-01,-4.315866652357825961e-01,1.928939857071157116e+00
-2.555365545183889253e+00,-1.412777305295656594e-01,1.175881777430778513e-01
1.674214791502407484e+00,1.189763835378271128e+00,-9.012102623844815419e-01
1.168877239897927245e+00,1.428746192988441743e+00,-3.760148877439133952e-01
-8.563721509390103126e-01,-5.950626139795690550e-01,-1.852246087105538841e+00
1.024404491741196077e+00,1.602783463442617240e+00,2.613944460116284230e+00
-5.565987048143837823e-01,-8.727578646492779590e-01,6.578658383989800518e-01
8.105059591331877922e-01,1.023804836759965919e+00,1.063526699400026310e+00
-6.823225601863237844e-02,-3.165661131650486126e+00,3.552928620121647563e-01
1.928020754101272549e-01,-3.961255186715584298e-01,2.804205131724248012e+00
-1.253727842446060281e+00,-1.607501553289985230e+00,-9.595768640087664059e-01
-2.122306100133031670e+00,-5.879965931550786840e-01,1.683036896757475365e+00
7.301750754769235074e-01,2.483672360008021496e+00,-4.651305805839184293e-01
8.222203433192262212e-01,7.650107809783971424e-01,-9.900703353552101627e-01
-4.738617783875304634e-01,-6.467602938611120011e-01,-1.289315469314497031e+00
-1.142777492629537095e+00,-1.217491469779382163e+00,2.653207138950606669e+00
-1.933888504152632137e+00,-1.876968242741191339e+00,1.541720672648950963e+00
-1.413281513139586221e-01,1.257638479258134323e+00,1.651248882869400747e+00
3.644611520911025804e-01,-6.227119163321331863e-01,-5.292217867713154833e-01
2.044675708686729987e+00,-4.248853814345375790e-01,-1.568877907113868320e+00
-1.318155166084396201e+00,-7.999404019820901546e-01,1.773702613449508192e-01
-2.059356888042505052e+00,8.657889423360006775e-01,9.053514074686024315e-01
-2.048048351436155379e+00,9.988674645790926454e-02,4.231756801317459460e-01
4.278241242058968274e-01,2.738533726835674198e+00,-1.124778488231923834e+00
-2.575419901115046262e+00,-9.786490760444346293e-01,-9.322256964561482784e-01
7.510852990793527306e-01,1.174722103544428714e-01,-1.300376869131924851e+00
-1.089277574196916509e+00,-2.004051772057054315e+00,1.245574240770045638e+00
-2.201923301873597971e+00,-3.400842361070888307e-03,1.559095377863775722e+00
-7.353702417531026159e-01,-9.570163445691952653e-01,-2.667958144490767403e+00
2.200421192473156484e-01,8.369044206376851092e-01,-1.698264725873041558e-01
2.292609267866403400e+00,1.419148008108392922e+00,6.775405352896374245e-01
1.756412540996959537e+00,-2.234876422018274855e+00,1.048574383109052377e+00
2.023947485486968567e+00,6.146105401764144771e-01,-3.963145641105193517e-01
-5.138412586160086004e-01,-2.062321334973860498e+00,-1.387069344724071174e+00
-3.347211391823216586e-01,2.585612316934109423e-01,8.890791957896272413e-01
-8.906422374450688739e-01,1.692845620113152760e+00,2.277015266030276042e+00
1.782259585376387845e+00,-6.667079016304111594e-01,-1.282492303678467671e+00
-2.541791186843172845e+00,-1.083811983805728296e+00,-1.545175698544249521e+00
-2.405170576364022761e+00,-4.387390399692769893e-03,5.587379064320551203e-01
3.031261292626115655e-01,-7.152424493820254137e-01,-4.686670221072488096e-01
4.146467114326506387e-01,1.413288678119408281e+00,-1.344173432744159902e+00
-1.118181006021306684e-01,7.409550266096640581e-01,5.343375829557086565e-01
3.973506992066825894e-01,-2.738615256835452261e+00,-4.652216148659751860e-01
-5.032309212281169675e-01,-2.584869603481668721e-01,-1.620358099470415647e+00
-3.893447439269288601e-01,-1.355623001843519804e+00,1.368294686473178201e+00
6.356866595641608164e-01,-6.524322639296017412e-01,-1.560712456791540470e+00
-4.438269036517216715e-01,-3.187145344134168501e-01,7.618900488877731192e-01
6.536874350947644574e-01,-1.332037013855283059e+00,-1.707563350289073689e+00
-1.412762718660243721e-01,2.121989706809975562e+00,2.430346174894696620e+00
7.597447050404196878e-01,9.775852197169639934e-01,2.731619906509091145e+00
1.822515791209925462e+00,-9.613386803737269948e-02,-6.343032134680423040e-01
3.423227825288122639e-01,6.923073255336806842e-01,-2.776389839797980041e+00
-1.727945313227312596e+00,-1.850896597655131037e+00,-2.745401722462891270e-01
1.791792829684383026e+00,-1.199751966765727040e+00,4.498923112596217022e-01
2.111343721647767069e+00,7.558462565416527168e-01,-9.151997667985246609e-01
1.501638227872263975e+00,8.235017716280995659e-02,-3.836956526936520229e-01
6.997561061746482292e-01,5.129893488281697111e-01,-5.146373344990238241e-01
-2.914748582181055703e+00,-4.063146697833446841e-01,-2.610035651969109249e-01
1.110610969489899125e+00,1.953099350963090508e+00,2.139223766947057292e+00
-5.714402711463928419e-01,2.031772054240916781e+00,-1.519290724885507649e+00
-1.826905763418203543e+00,-1.664116933847189950e+00,4.695925965134083446e-01
-2.842228352569870609e+00,-6.650868294763305766e-01,1.196705976300076468e+00
1.124583000049850456e+00,1.924929665340132434e+00,-1.097666515798433107e+00
9.097819073353691222e-01,-9.473506954265877023e-02,1.649535493550478460e+00
2.801590549013483145e+00,-3.911809240362995044e-01,1.320854828301580186e+00
9.616770303362996986e-01,1.758348844693905066e+00,2.160942680051288090e+00
-6.085058553284761890e-02,-4.212553074641549045e-01,1.430334857869046905e+00
4.491160848095006597e-01,-2.490594582655726086e+00,-1.140815379232025917e+00
-2.431277628988518735e+00,3.077502286975459245e-01,1.427000202032658871e+00
-1.138344643285414293e+00,-1.588737990534402900e-02,-2.929364717293504228e+00
-3.074380794771893743e-01,7.764408864850767811e-02,1.614194053338671608e+00
-2.328303665047895432e+00,1.800251562782565484e+00,-4.618896898263826212e-01
1.919092463902018486e-01,9.475987761633509684e-03,-2.700192679629053849e+00
1.491399084499432481e+00,-2.614160433451453880e+00,-8.082742563357409038e-01
-5.552318527284006988e-01,1.641215676071429153e+00,-2.046365547846303201e+00
2.966447046135822774e-01,1.219176884043726483e+00,2.489327666747214174e+00
-2.278278870657592492e+00,1.292242501713336544e+00,-1.593449931334353309e+00
-5.527686336336388173e-01,6.231843193889331084e-02,1.390127879719259774e+00
-1.274603182850212235e+00,1.622910515918033703e+00,9.394554470275433555e-01
-6.275155459100014710e-01,2.191855244976204375e-01,-7.729676077501181908e-01
-2.664075567385858490e-01,-2.870422026031586249e+00,-4.954825134231450878e-01
1.716028045045013828e+00,-1.324213755122532143e+00,1.711583828661420670e+00
-5.340679930238758644e-01,1.774469608470869320e+00,-4.558750318173989680e-01
-1.025158953731768019e+00,9.588242797059038924e-01,1.976082144263282325e+00
-9.368838465365958434e-01,-1.131547939278634951e+00,5.877541194235756661e-02
-2.069601976958514167e-01,1.713496133437936830e+00,2.700369196274293060e+00
6.946110524948708731e-01,2.319526762413412213e-01,2.540233552767587444e+00
1.286852342959345030e+00,1.150298753995899981e+00,-1.019511617352542254e+00
2.367269259361233669e+00,-1.077950159643654149e-01,2.058516907688797026e+00
1.907579688406962681e+00,5.235326493666859760e-01,1.179757666487580181e+00
-2.401886785543704272e-01,-8.557574067266048301e-01,1.888180034927657180e+00
1.827303902588790274e+00,1.986763198445214762e+00,-1.298150277824955623e+00
-6.014669513997495942e-01,1.301172071340347847e+00,1.048841456671840699e+00
-2.857170009210773465e+00,-8.992925109821607865e-01,1.094355588673635804e+00
7.353137411992942407e-02,2.369467117816128621e+00,-2.090445380496841032e+00
-1.291333550069856617e+00,1.465180270991251588e+00,-2.509235339316361557e+00
-7.845490170960099929e-01,6.898343618191514759e-01,9.437275305750171261e-01
4.950915546163082714e-01,-1.956449820770956638e+00,-1.985814885548800590e-01
-1.391059509407970074e+00,2.971658821475405277e-01,-2.621575020882648932e+00
-1.326133483200340746e-01,-6.632086723000687467e-01,1.992436713729573095e+00
9.057717428074703037e-01,6.395045737689672438e-02,2.762919597383044046e+00
-1.482299752830590567e+00,-1.986745394636162843e+00,6.835045632340174260e-01
-5.911618638694126071e-01,-3.307292651512607762e-01,-1.923004640679608412e+00
-2.487479581660799077e+00,2.782379541718320026e-01,1.743698537967024453e+00
-4.967178677772851048e-01,2.021595655845195072e+00,1.099078975027405036e+00
5.889212522614514222e-01,-1.154713527134953566e+00,2.998516534943098666e+00
-1.118081951253946604e+00,-1.535857628897643989e+00,-1.245169258932691925e+00
1.431636520233342980e+00,2.233880006841766283e-02,6.519537190200626053e-01
9.744342507150441368e-02,-1.743717766414924375e+00,-2.589984460176869341e+00
2.635312181501919149e+00,3.712390765873567755e-01,1.798697800551108061e+00
-4.663375636057519036e-01,-1.848260785048316146e+00,1.755355362675945718e+00
8.741038316815319398e-01,8.100141899645982857e-01,-1.192707098630735318e+00
2.089982304876129682e+00,-7.587495619982466133e-01,-1.730421481811791784e+00
4.143326636632359561e-01,-8.240228800550803978e-01,-5.698322120448183134e-03
1.446544179465379054e+00,-1.839436931233640604e-01,4.634175326550283303e-01
-2.297258098202874965e+00,1.075139519742698280e+00,-1.572617764090257886e+00
7.572576669485602263e-01,6.925981939646841390e-01,1.148168545988715428e+00
-2.397874506001318462e+00,8.748673331806248177e-01,5.802249467320224063e-01
-1.563868055811833413e+00,4.384280676038614932e-01,7.246411808114210373e-01
2.755703407076512956e+00,6.926939805015943641e-01,-1.381786249649006093e+00
-2.186720387823429590e+00,4.175713842222466554e-01,2.001564905345801559e+00
1.488466163073866921e+00,-1.743724095565156285e+00,-1.304564434505840254e+00
-1.457321799054732026e+00,-1.252762286833547734e+00,1.145911082322326191e+00
-2.839219088604757246e+00,4.739000794332803301e-01,-1.487642908282862109e-01
5.875659226983455108e-01,-1.486154299935459777e+00,-4.145449766817991266e-01
-1.406397289514040194e+00,4.705580747158155663e-01,6.473449947839964302e-01
1.130260320993933254e+00,-1.730491079238868579e+00,-2.335471919911893846e+00
2.579233740125842278e+00,-5.081505614915631242e-01,-9.121852746586279759e-01
-1.598369180582529303e+00,-9.188074755715683883e-01,1.844859002591143993e+00
1.678753215780100394e+00,1.737055296694969497e+00,1.834700983735739310e+00
5.365616801896864185e-01,-2.872258707941178546e+00,1.070579443154884514e+00
-1.702867647860862588e-01,-1.821599154089123540e-01,-1.584047461520937450e+00
-2.378407469753283099e+00,-1.322496109548151333e+00,-1.000825143227495051e+00
-1.044781450213610796e+00,-1.768241240741198039e+00,8.388682903808334368e-01
5.259244863400359682e-01,1.681002921048424970e+00,7.920232044427855111e-01
-1.723761229412693607e+00,2.318470323296393243e+00,-5.306048859872776191e-01
2.808867298453200601e+00,-1.122689258949120417e+00,7.123533826808121916e-02
2.259646596474512048e+00,2.935096766807811508e-01,-2.124408631499974387e+00
1.478239484861025632e+00,1.041901644124471504e+00,-3.854175814143923628e-01
1.156834817786194902e+00,-1.088398281301236281e+00,2.301333622539619483e+00
1.906382832560035157e-01,1.185870466851988825e+00,7.421417586573998415e-01
1.449105719982573648e+00,-4.912876439502483206e-01,-2.234095434208922981e+00
2.446302310106207578e+00,1.408601245224772258e+00,6.012539644862707755e-01
-2.474674271264122538e+00,3.042429198164594562e-01,-3.108722806872600275e-01
-5.227497160663401310e-01,1.235556741226703892e+00,-1.997285189162476771e+00
7.283777446798512800e-01,1.778348174903575662e+00,4.739136737694131796e-01
2.258415492757347209e+00,-2.094337366425389924e+00,7.512409039704901481e-01
2.967961298062735676e+00,1.060183676942356712e+00,6.668405292406420770e-01
1.700123758498090609e+00,-2.137702265173366367e+00,2.533253111681543768e-01
-9.648177052235301643e-02,2.213877272983248545e+00,7.591997427706280721e-01
1.211973714217660980e+00,7.988291815259820350e-01,1.228714895441690880e+00
6.579717606456654266e-01,2.366719757537162128e+00,-8.544801943899184293e-02
2.125559859975053811e+00,-8.878664726552832898e-01,3.464787992155071161e-01
1.340525488475695193e+00,1.639124820977537755e+00,1.215470217338564085e+00
1.395521832973843246e+00,-1.673991527353773767e+00,-1.185081161592588250e+00
2.120455726549262288e+00,-1.585254703369957330e+00,-3.847829372372696399e-01
2.497366713264683735e+00,-1.433747158994125304e+00,1.519305313599841778e+00
-2.007927430521876833e+00,1.599044323585932181e+00,-1.292987568590394876e+00
1.507351039850747254e-01,1.751435715231063117e+00,2.494473344821786398e+00
-7.434460318383105948e-01,-2.311779877808519679e+00,-2.146473531570700644e+00
1.058443112376667772e+00,-4.047206152002279511e-01,4.305522196337180918e-01
-2.470883431525182417e+00,-1.633265077127216136e+00,-1.221517883018695017e+00
-3.934609975772673240e-01,9.262694794691012090e-01,-1.886740880695146449e+00
1.606392058900745434e+00,-2.027451849728222621e-01,-6.439871136747374880e-01
-1.476382791417684137e+00,8.993553989404367011e-01,1.826070115730328514e+00
-1.875453084636485412e+00,2.123247197800485875e+00,8.969274607306206848e-01
1.648570554554224854e+00,1.464435208039723824e+00,-7.497204389023973681e-01
-2.094460896988922460e+00,-6.053999060971451129e-01,-2.072796956924207290e+00
-8.778663070653041078e-01,1.882392449536773427e+00,-1.675073307270595224e+00
1.845130109300454624e+00,-5.520280129687556991e-01,-2.158607678666701890e+00
-9.696662119002989744e-02,2.245079575229844693e+00,2.261005374865691753e+00
1.976581166202465434e-01,-8.618235272593901541e-01,1.249770144383808734e+00
1.828888219422909467e+00,1.199419973532382944e+00,-3.326420893585919636e-01
2.123451430626412506e+00,1.144169115405601733e+00,2.073837668197989093e+00
1.914703581626136408e+00,1.832338708647744951e+00,-8.397523416636105686e-01
-1.168236761358565579e+00,-5.815830161837555190e-01,-3.373770507453480727e-01
-1.905703339321473511e+00,1.635675483621333581e-01,2.409961974737017787e+00
1.544971704824610548e+00,2.699754256167307798e+00,-7.581177194534339803e-01
6.270388386489235411e-02,-1.649733646171121615e+00,1.393904051302408131e+00
-8.543915009312975650e-01,-2.479359959825711446e+00,1.034671928726933060e-01
4.632249859241540646e-01,-2.391926466129538742e+00,-5.231579797308252289e-01
-2.847710269775076131e-01,8.461523135988983091e-01,-1.868006469628926025e+00
9.133066146710664412e-01,-3.578027390408203279e-01,1.274553234013020217e-02
-1.005382570165565648e+00,1.288254407751481478e+00,-1.848427870875813117e-01
-2.637180185274551558e+00,1.541104378987417645e-01,-7.810690038635859089e-01
1.422044347788312013e+00,1.756333122783178657e+00,9.521601136224198125e-01
-1.456474712602828125e+00,9.208001553983332643e-01,-1.514626763359303019e-01
-9.923998261250979724e-02,1.127409815255718595e+00,-8.670839350685680680e-01
-2.239747658274637399e+00,-1.437378506409983547e+00,3.511670996614174589e-01
1.314665506322902466e+00,9.242862563850459123e-01,-2.603262132062493350e+00
-4.916806009412654221e-01,-3.034982222826254183e+00,-8.160689059387569166e-01
-9.598321529828416354e-01,2.886864648206632911e-01,6.012496672533365616e-02
2.169781349960528960e+00,-9.695973419070980093e-01,-1.264312389714407292e+00
5.329947108430399538e-01,-1.582349466114538084e+00,2.080065490022050767e+00
-1.965011119339910683e+00,4.331039587728793272e-01,-2.153472490461088462e+00
1.762310920834218697e+00,-8.636759776890740037e-01,7.133529013829521537e-01
-2.184699098019502905e+00,-2.036156623166021085e-01,-8.159720705866647661e-01
-1.597848362193540483e-01,-3.369249052902238972e-01,1.435441014957610228e+00
-4.714349919129257604e-01,-1.092040095729598148e+00,1.624776789929422760e+00
-2.642736772626886221e+00,-5.594197612212031823e-01,9.852236610801151651e-01
1.409747351334962540e+00,4.973399255600184921e-01,2.117594116595054921e+00
-3.948124334848487349e-01,-2.079716455743277681e+00,-6.367860724279258422e-01
1.204340667043150154e-01,9.782703997677677510e-02,-1.880199522742088680e+00
5.449929811106108968e-01,-8.486537480887587082e-01,1.032897611959179063e+00
7.322140723310418542e-01,-1.318215594434831051e+00,7.533026974612303528e-01
1.664859098085828659e+00,-1.314742392233647639e-01,2.782615458399130937e+00
-1.035811774076104974e-01,2.294190673500652533e+00,-7.768159746542175892e-01
1.011231626756571078e+00,-1.943015234438874250e+00,-1.993449340847913975e-01
1.697255659003336525e+00,1.312117226569498474e+00,1.833165664139713602e+00
-6.946356304070051557e-01,1.930440860931109004e+00,2.335625203024207508e+00
-8.913312472721850455e-01,2.431285125725475837e-01,1.309648840406824277e+00
-1.654614566843387813e+00,-1.797407218922993932e-01,-6.176920938150555207e-01
1.100253109508171123e+00,2.599162058538633246e+00,-2.577228955113116671e-01
-1.149570295206161941e+00,-1.240085423806719378e+00,-1.978979961226200457e+00
-1.742676931839076460e+00,-1.890095822106969137e-01,1.549491086995946398e+00
-2.159958453687587543e+00,-2.944202262725803543e-01,2.194819305324522407e+00
2.063600718711127158e-01,1.644239011239435611e+00,-3.011611978428191047e-02
1.049458377444717261e+00,7.491608432897789438e-01,1.698866180533315839e+00
2.677511653095295152e+00,-2.186039078400185132e-01,-1.265331981276802686e+00
-2.431667633571251042e+00,7.862328646638468491e-03,-4.915317532820831503e-01
-1.803768557129440619e+00,2.203649465265435481e+00,9.018886451958049166e-01
-1.782662278575285475e+00,2.229627856373249895e+00,8.050862936248991408e-01
1.640051108328369978e+00,1.342955689312953504e-01,2.078014003875089166e+00
3.469638946903536025e-01,1.404013220467797973e+00,-1.377251471965021956e+00
2.017390235914387819e+00,-4.811169816400641674e-01,2.175594677825606560e+00
2.024994228820276465e+00,3.700573809459763996e-01,4.312531333208263207e-01
-2.110593951785766365e+00,-3.401086997298239933e-01,5.320790358834843747e-01
2.883500170495559289e-01,5.496672738172393435e-01,-1.670766213848996040e+00
2.276303568121357257e-01,-7.707848963434077438e-01,1.569894655817410500e+00
-1.229786136309149791e+00,6.027015376840378913e-01,-7.238123078189561133e-01
-1.435860217920218673e+00,8.038734384854040460e-01,2.717211030317870923e-01
1.235826424250228373e+00,2.206102602980677396e+00,-4.017663346191571727e-01
-1.516675228369459560e+00,-4.626769374639733146e-01,1.575357885032032446e+00
1.532393193356516026e+00,-2.428964918920998306e-01,1.896006539410825420e+00
-2.218907402966273423e+00,1.451220370466249410e+00,1.496560686851663879e+00
8.764739698393265721e-01,7.173772345552067442e-01,6.580440098252537950e-01
8.974855380737918331e-01,-2.647493017733594911e+00,-3.963871930897757134e-01
2.426206065545367885e+00,1.211877249546783997e+00,-9.601565988118465622e-01
-2.215087735265740765e+00,-2.316200771042677964e-01,8.156031189010044535e-01
-9.355648766424097262e-01,4.641860757755595368e-01,-1.669901140035929155e+00
8.266423593310864293e-01,1.220757487819373432e+00,-1.266244820798545723e+00
1.029311225427812726e+00,-1.803927027779947956e+00,-1.047070917083432195e-01
4.102545705351875460e-01,4.918208114644322809e-02,-2.564050903628461331e+00
-1.620626662084501568e+00,-1.108363993318354668e+00,1.812887940777943463e+00
6.049169861654005720e-01,1.573181476828613867e+00,1.887938254076577227e+00
1.301282535788363670e-01,2.603843669672468053e+00,1.714638106186786803e+00
-1.287765782534166625e+00,-1.475505819382719519e+00,-1.440933170735747337e+00
3.585419716155949232e-01,-1.903786757833351162e+00,1.083179580510245654e-01
1.350141863381872032e+00,-1.141226901152882611e+00,8.755939076645057051e-02
-6.932965159192021332e-02,-7.258595297941597968e-01,2.899273371217451878e+00
-2.432827164163024580e+00,2.403747492850092093e-01,4.042715324895213014e-01
2.721863343384184120e+00,8.737487767749776979e-02,-1.740683392775156380e+00
-9.681597905004425408e-01,-5.309732644448869054e-01,-5.321691921098259392e-01
-1.550043201887144839e+00,8.422840024810271942e-01,1.260459186124791131e+00
4.831340923051747893e-01,2.749590646487723777e+00,-2.329480918052089788e-01
-1.884145902833634256e+00,4.417287362871740730e-01,-9.357722282172764583e-01
-3.415832271520955477e-01,1.215852343054515616e+00,2.723148629997420134e+00
8.717273965691278992e-01,-2.871170752577661300e+00,1.282335442391412395e+00
5.549337481917577808e-01,1.268404588005724198e+00,1.059378871256202226e+00
1.847110744641067059e+00,2.051002410179990409e+00,-8.807581357226228480e-01
1.803046688140838905e+00,1.919358638535739514e+00,1.890213726685119333e+00
-2.319012528285239849e+00,-1.469141767720085312e+00,-6.692951995288273226e-01
-2.127647286104602298e+00,-8.848300042509615881e-01,1.661568688817306683e+00
6.995806636619996688e-01,1.248488304461272236e+00,-1.892229485410470868e+00
1.250730740452886236e+00,-8.348666911689981429e-01,2.806863584418481050e+00
-8.387744253067692668e-01,1.940488995967158958e+00,9.677184379432526296e-01
-6.620514789507001563e-01,7.146982857176176207e-01,2.197807941319494418e+00
-2.816468373191720609e+00,-9.239058490306547577e-01,2.768559916127786846e-01
-1.304218574513121176e+00,1.615181398027806026e+00,1.227779414932339996e+00
-1.460073753269765406e+00,4.535146954779350481e-01,2.761418435361591595e+00
-1.707426232935188359e+00,2.534044339088866171e-01,8.704553557984918699e-01
7.964235092081203282e-01,1.427634305685635097e+00,1.052753519684123340e+00
1.805042531103719927e-01,1.329487348909000666e+00,-8.151612281069726684e-01
-1.169081345198162147e-01,-2.739363458790120553e-01,2.348147682855695972e+00
9.882817228338783844e-01,-1.868931315406809901e+00,-2.028539657784903305e+00
-2.417548180338502828e+00,-1.717689112741790147e+00,2.625289228707426981e-01
5.939824452789724818e-01,1.037745200960686009e+00,-1.392125338774448662e-01
-1.140803815239651992e-01,-3.181486121532522304e+00,-6.884866524355056638e-01
-2.047342260476529563e-01,-1.832692734357119324e+00,1.775378316648613605e-02
8.425423714635537076e-01,1.009357896892795203e-01,-3.415261502360987800e-01
1.004571614927112222e+00,-2.785561706292472905e+00,6.858602101691033681e-01
1.099599991046106284e+00,-8.857977444673884593e-01,1.460093693755107003e+00
2.292289602699291606e+00,1.286577213278083942e+00,-1.387549904225264141e+00
-9.572587491857157405e-01,1.119260978834820675e+00,-2.450508364066000144e+00
-1.943176255391064311e+00,-2.332878956258640724e+00,-9.533665365750513265e-01
1.038092120973283627e+00,-7.395540823950960685e-02,3.161407757562793575e-01
1.113521364450205553e+00,6.723495570850847036e-01,-2.236170258341161343e+00
-2.921177084487360354e+00,1.249015622277119153e+00,-3.010179496369045360e-01
2.368117741199265769e+00,7.807717078564160862e-02,1.522714060726233720e+00
2.565361802343485431e-01,-6.488080562174523003e-01,-7.772155816261060446e-01
1.835988618278261653e+00,-1.459669795765715872e+00,-1.859533618106978814e+00
-8.853566431645730761e-01,-1.195262419232518747e+00,3.410411293415022138e-01
-1.244528515113050959e+00,1.431367366077298309e+00,2.128642021410742657e+00
1.241801842277793666e+00,2.232092027229008124e+00,1.472856381003272430e+00
-1.055198755079114203e+00,1.219357630209979781e+00,-1.506524990761402005e+00
3.830088286346034487e-01,1.856159671740544637e+00,2.332683351861556620e+00
5.602319046190702423e-01,-2.535422088117416983e+00,-7.438469560923269830e-01
-1.587005224722038310e+00,-8.764973477810624955e-03,7.341557266164316919e-01
