2.138611902556825761e+00,3.252453130299064910e+00,4.233621095734668494e+00
3.613486356761149487e+00,-8.544795123160628947e+00,-1.672749770136920722e+00
3.047063389677492129e+00,-4.600315367733678329e+00,-6.006126723888658425e+00
4.057247791812009119e+00,-8.704099464143530085e+00,8.145280307779495521e-02
-7.172178053471676584e+00,3.874166843488581424e+00,1.529473945273143842e+00
-5.092129451235881454e+00,-1.715188477943969891e+00,1.123698873961972211e+00
-8.723263148139437373e-01,1.252451314126249216e+00,1.832906763820896456e+00
7.769776949734936267e+00,-1.102548853213158653e+00,-4.859469807532369678e+00
5.621708599898750158e+00,-4.863045862558823984e+00,5.665919441411104707e+00
4.529344538170906986e+00,-8.736135400822218067e-01,-7.594924761947547509e+00
-4.104310956289958234e+00,-2.349486615023531622e-01,-4.098034214583420543e+00
-1.393207978822307291e+00,-1.505594716390043608e+00,-5.346200370803112278e+00
-7.921374937985448561e+00,-3.066569187851910350e+00,3.541998298682263790e+00
7.304217416221176151e+00,3.874754264921155267e-01,-6.049972615669945153e-01
-1.793511949113143711e+00,1.432618087018872943e+00,-7.837248998685377721e+00
-3.639660760780630167e+00,2.349258100535196903e+00,1.164554220467440393e+00
3.048499744430453795e+00,-5.473021099597706218e+00,4.224041095452064631e-01
-1.684820781686064084e+00,-7.815816083339131914e+00,1.429378133969712694e+00
8.035337994021777286e-01,-5.817476663915969404e+00,6.225039427683936921e+00
2.664370951373639329e+00,-5.650814051394378090e+00,-4.591170355723600771e+00
3.131769808045173242e+00,8.662034365937394398e+00,1.773982313947150002e+00
3.038916715467773866e+00,7.482928234250413091e+00,-2.455399373150991771e+00
1.500808366580654862e+00,7.121170148986053938e+00,4.789449572273522193e+00
1.258217581733786172e+00,1.819275701661685840e+00,-4.655780961150083108e+00
-1.600111414792886544e+00,7.974830378178219270e+00,-3.736910424776595629e+00
-3.486381770689240156e+00,-6.877924665572280105e+00,5.385260724618212258e+00
3.173653201859302886e+00,2.958286210265581931e-02,3.257483391152550478e+00
5.411888517880154126e+00,6.923640610207238311e+00,-1.806477376850941896e+00
-6.733657148636730483e+00,-4.356952623078987230e+00,4.242128881815832031e+00
-4.624898786153198493e+00,8.144765160368548251e+00,-1.509040124871370514e+00
6.902502293427746904e-01,-7.902616801312148942e-01,7.547807093720618199e-02
-8.587293173218586873e+00,-4.188578442868245988e-01,2.896766951171746651e+00
1.338624875238096035e+00,-1.933640065907816119e+00,-1.578372101735116662e+00
7.008804329418874879e+00,-8.563821711551127258e-01,2.107930757022003387e+00
-3.897911234439546679e-01,-2.426728484895758431e+00,6.916904879593575861e-02
-4.231311074600616756e-02,4.012450475145116435e+00,3.479924946220922521e+00
4.883593645086076407e+00,2.849336011985756922e+00,-8.655353066793924910e-01
8.478129244479255533e+00,4.449308431939029695e+00,-1.548163375670726372e-01
5.044139559543092233e+00,4.132081200869269111e+00,6.226455450026975313e+00
2.271754386245500523e+00,5.187929512775355523e-01,-6.807205543841799766e+00
-1.501366085980343712e+00,2.537556011253191635e+00,2.971983917019390464e+00
6.620437393842064644e+00,6.111895943003295528e+00,-3.339459703727809980e+00
1.007791467350632519e+00,4.413846405732628320e+00,4.416198365230022738e+00
-9.824094460130629036e-01,-2.368091172159564328e-01,8.069336400293344980e+00
2.748511754188931011e+00,1.969146855352144732e+00,-7.651754897727083282e+00
6.737003230050738090e+00,-3.498649896391420100e+00,4.463562570932981366e+00
-7.762161061797669959e+00,3.389004331769974065e+00,4.357841606952851166e+00
-6.316836415534431204e+00,-2.852564666144712824e+00,5.976349895349617469e+00
1.888307172317349236e+00,-3.836298092127238935e+00,-7.249113594320236054e+00
3.603388824898719367e+00,-3.345649074335213413e+00,-3.456051801038958260e+00
-8.965912575181883559e-01,9.209296555514468352e+00,2.553364847611268473e+00
3.347408150411371519e+00,5.041670972925921923e+00,4.353917368815515943e+00
-5.787834822368663090e+00,-3.476956639600055965e+00,3.780941859917462455e+00
-4.964683605683417156e+00,-2.977253036836360778e+00,-3.054720211993260826e+00
-8.924132448599110035e+00,2.048285076615329103e+00,-2.258374500165128307e+00
1.200742556252302196e+00,-5.812858110541609058e+00,-2.163587968243895876e+00
7.979830276230728714e+00,-1.921624450873475443e+00,2.466450104399699139e+00
-1.474452203586016141e+00,6.677341508858996910e+00,-4.498160535674199600e+00
-3.719936396558409797e+00,-3.368322209354933428e+00,5.725288757680281115e+00
-5.838789983576113674e-01,-2.397632521539193817e+00,3.001853672360012659e+00
-4.015276987440500100e+00,-3.461298489882767893e+00,3.229273054109639052e+00
-9.346747608027182741e-01,1.327934677723372037e+00,7.410070284517597194e+00
-2.266582476627344800e+00,7.992495783849504321e+00,1.884259550792898752e+00
-4.730149210985936215e+00,7.331945304843740630e+00,-2.113993010877751377e+00
-5.264301187156096518e+00,-5.190744174571768621e-01,-3.192568166650710193e+00
4.408645193580767452e-01,-7.594238107667454329e+00,4.535527197881809691e+00
1.455783442886610657e-01,-6.964313350154933246e+00,-1.922800033306626966e-01
1.738833838438541557e+00,1.271710655510241317e+00,5.238209165366682463e+00
3.350852439190144416e+00,-2.315031786431794192e+00,3.574119059368118911e+00
-1.584504471062230024e+00,5.598240714195494849e-01,-7.531323956053725510e+00
2.181886481183574311e+00,8.013886219481323181e+00,-4.369024775487670098e+00
2.627774688905191613e+00,-4.554336936473925235e+00,5.258137598024227088e+00
2.142151960833220681e+00,6.435997117499447029e+00,-5.074498239963100232e+00
5.884260477307194925e+00,-3.690099035435330244e+00,1.212469234404492058e+00
6.159634359650036473e+00,-1.622192317079503843e+00,-4.129779621397926093e+00
-4.312552255961396241e+00,-6.346216255311429855e-01,-9.585868091682038239e-01
6.276871660513957174e+00,-3.965159145748192504e+00,-2.137737364160093190e+00
3.929375043690201963e+00,2.158239860709424036e-03,-2.590990012500791639e+00
-4.619332792863895421e+00,-5.943206112823821385e+00,-5.570972534906558415e+00
-6.570818272361063528e+00,-8.478021390904314503e-01,1.677534692050175469e+00
1.537016926429458419e+00,9.052787363468137727e+00,1.063555739309459902e+00
7.547190378830914703e+00,2.638152266778921895e+00,1.896857061882327722e+00
2.205374810471887326e+00,5.657796459631835084e+00,2.859718361510678264e+00
-3.800565507556375788e+00,-3.229803929630115533e+00,1.450527728603355548e+00
3.834201404845290817e+00,-6.307465345375696586e+00,1.385936188921905954e+00
1.847873067886563803e+00,6.062455366303328042e+00,-8.538931903606939988e-01
1.098075528518655863e+00,1.742875313962679806e+00,-9.217584103720504629e+00
-7.579240690829314175e+00,3.053202193279941579e+00,3.430826172550562325e-01
-4.346401857101333199e+00,2.085429527815751083e+00,3.196893478419224444e+00
-2.417617696376356484e+00,2.888358316880368815e+00,-6.004150378121678955e+00
-8.651082262649631982e-01,-1.858419359385545588e+00,4.615352787548126834e+00
-8.069909023027991068e+00,2.995641282112389003e+00,-2.500425923345546586e+00
-8.862035272152663623e+00,-9.933080234559730215e-01,-2.722457016729294299e+00
3.407160659561106364e+00,-2.140089271051049735e+00,3.294712631339298703e+00
-6.284478567555651374e+00,-3.680228901255381269e-01,-6.506834007179088664e-01
-1.202769099230491356e+00,-9.430146453581075505e+00,-1.489336147123533793e+00
-2.575086071239935936e+00,-1.946657087195375224e+00,-2.049506215730548142e+00
-2.369247924665381255e+00,-3.600903757092465796e+00,-3.211774167935003366e+00
-7.481426431720922920e+00,2.250552637392881028e+00,-8.898435571303133784e-01
1.914619239587253829e-01,4.143559396156973662e+00,5.072470453235727206e+00
-6.050674238211566802e+00,-3.003983464416768445e+00,-7.701753338860316545e-01
1.724679677780333875e-01,5.961323634810647754e+00,5.161367724280351510e+00
3.646695308031667526e+00,1.244196409440915696e+00,5.022282645787225164e+00
-5.482100639508701967e+00,8.882644582906784603e-01,1.592351033905353708e+00
-6.441225996615060012e+00,-5.387081024503687310e+00,2.042002529978980796e+00
-1.470914975445038131e+00,-3.953437564471100174e+00,-4.289182693420110937e+00
4.131819538772191436e+00,1.105591599179655216e+00,-7.880542196484095818e+00
-6.716746665060289168e+00,6.812760455245536750e-01,-2.510680010238897530e+00
7.045094872337432257e+00,-4.952743863548268344e+00,2.202333272845461654e+00
3.971637772115424458e-01,-2.984398429767889827e+00,2.725446807179109143e+00
-6.159822977792834386e+00,5.269384086033900516e+00,-1.886218402004336270e-01
6.803770391756691183e+00,4.909636740991709658e+00,1.327601461240697445e+00
-5.521125838586420365e+00,-5.574377421876844929e-01,-7.798882339547374976e+00
9.595007739726236773e-01,-6.122012850220659441e-01,-5.069607038614897476e+00
1.389854521955905531e-01,3.857454435007337867e+00,-7.044572479800700116e+00
6.390842836229055024e+00,-3.533830084839374663e+00,4.754968745720711709e+00
1.841800911564768439e+00,5.786449826873558244e+00,-1.218608575559910534e+00
-2.962250519712156915e+00,-2.587996061607483966e+00,3.870954195361267391e+00
-6.604385056037856749e+00,-3.493693837114753009e+00,-5.799982713593556660e+00
5.010281559530313622e+00,-5.116716646228906207e+00,-7.370522000761533521e-01
3.980506313947308694e+00,-1.607866358185108924e+00,-1.099000051103733666e+00
7.593124582151342672e+00,-2.034866102935269261e+00,-1.697440229033624792e+00
2.806928925979511380e+00,-3.337565709588445451e+00,-5.021556533573973802e+00
4.104334506495961321e+00,-1.253320307075192375e+00,-3.023998703624131146e+00
8.033222524674949128e+00,4.836689520157314570e-01,-4.915865055790677118e+00
1.034624215958207749e+00,6.533862914676530131e+00,-6.960796928432333885e+00
6.834318350068400605e+00,-3.422342782544187667e+00,5.668637583796191315e+00
1.298960120139983410e+00,7.238163850793525533e+00,-3.072351794017303739e+00
-4.683301850879913353e+00,-1.603455013732121737e+00,-4.908975363563487515e-01
2.711216571720191038e+00,1.888948625533955816e+00,-7.062339653915810089e+00
-4.284794535281744920e+00,-7.880325612439505356e+00,-6.084856159896627759e-01
8.584451076234959288e+00,2.956366349793986270e+00,-2.013997032889501604e+00
-4.131274135032893646e+00,7.147306486282789528e+00,2.056261363814868570e+00
1.193719218113292957e+00,-7.030200905526488242e+00,6.320792812503712277e+00
3.231100310477300841e+00,5.474433563885173548e+00,6.425958618992710036e+00
-1.795802541513213724e+00,3.677354799209482383e+00,6.521238108968010927e+00
5.171006286529271634e+00,-1.998787857606699969e+00,6.674408350054363837e+00
2.539245633561338922e-01,2.682948661982512029e+00,-1.287493735632549763e+00
3.676510586710137307e+00,3.618935210266798208e+00,3.647324942527233826e+00
-7.151103783799640290e+00,2.900539259756482746e+00,-4.958762818095721947e+00
1.681659325103806557e+00,-1.157737899132789794e+00,-1.924585313607418025e+00
3.530671062065057875e+00,-8.233781339717697989e+00,-6.388456949075315139e-01
4.146079271338621197e+00,-3.900593307258360287e+00,-6.297222470683293771e+00
7.059791354624865178e+00,-6.635538379293616229e-01,4.646305606012183231e-01
3.690956663832485329e+00,1.353634717134247323e+00,-7.102385315792163922e+00
-2.425223489563164581e+00,5.645880993774293088e+00,6.797426804960400304e+00
-4.473076060998237402e+00,4.916457402447004021e+00,-4.697607387801759904e-01
-7.190292400432023001e+00,2.590253726023646674e+00,1.319811160387627469e+00
9.043997848453313892e+00,8.291781546072617415e-01,-2.448287643241756406e+00
4.488055449707628597e+00,7.724990584877642341e+00,-2.639670691729088858e+00
-6.562338046155682392e-01,8.542900443464432891e-01,-9.184692138921147775e-01
-6.028735807397214153e+00,7.258610712391234676e-01,-4.171305393380822402e+00
-3.208309509421114480e+00,3.993760438455602468e+00,1.857989487214971147e+00
-5.287647693948732019e+00,8.306812624594668293e-01,-2.302529906990605113e+00
-1.208631859341837700e+00,-8.568628007960310100e+00,1.357015141986779083e+00
3.757608097133656511e+00,-7.266717336786398640e+00,-4.079947563421057133e+00
-4.091336977146379006e+00,-2.692931289657333749e-01,-5.690259771293756152e+00
-9.388369168415993116e-01,1.419649974838677720e+00,1.341558238797102787e+00
-5.986396552896410483e+00,1.307448930123877417e+00,-5.180269049094345490e+00
-5.414902734941460238e+00,-5.537601084479838676e+00,-5.673594966069927636e+00
4.518747900946930685e+00,-1.775025311793537286e+00,8.265086776950647973e+00
-1.025175905392221143e+00,-1.565064368434472497e+00,3.359081676866285893e+00
7.891415753625341090e+00,-2.251360435043459951e+00,3.824079101472832587e+00
5.062830785851121229e-01,-1.962948567905859809e+00,-2.719861910511266245e+00
-6.343293430064366412e+00,-2.901053481254162403e+00,4.910579509222140260e+00
-1.873961950441425994e+00,-1.272140396602362777e+00,-3.967339646563427191e+00
1.659089609898989348e+00,-7.336046963451149594e+00,-3.348947992133217255e+00
-4.757757610267984383e+00,2.604712589564472380e-01,6.104383314516392822e+00
2.206449496402994370e+00,-5.591252225726675462e+00,-6.642136360986594212e+00
-1.893582606919453903e+00,-7.027705567423351063e+00,2.256077511982142347e+00
5.187253764290256974e+00,6.042740447026559103e+00,2.736277578763533391e+00
2.565942683635486499e-01,-4.535294217632471536e+00,7.097645967902088238e+00
-5.366414874185023720e+00,3.414982620723572282e+00,-3.690199214168317088e+00
-5.449955957213915347e+00,1.109176231685538916e+00,-5.874418297461473593e+00
2.124939029310962901e+00,3.792456488305814499e+00,1.049118995266619558e+00
-2.333159903155250792e+00,2.084888599020399358e+00,5.965522473097726319e+00
-5.270082237206115572e+00,4.834882588681492344e+00,-1.873403456374164167e+00
-1.489116461990253937e+00,-9.686523962528050813e-01,3.164676607582563861e+00
5.818874939770900312e+00,5.078664362266477106e+00,-5.129363596511839596e+00
-4.291567632294232659e+00,1.438897237302316778e+00,6.456377604065736797e+00
-3.954356966197077217e+00,-8.714726357707984761e-01,-5.662333609690370473e+00
1.221025826755264831e-01,7.661235964414077060e+00,5.346474071023729735e+00
-2.446232926420668363e+00,-6.735569472052175044e+00,2.912741395554983015e+00
4.721398916189411210e+00,6.923582757436225199e-01,-4.608635432686516431e+00
-5.396128841092759032e+00,-3.427413480472697671e+00,-6.529662677133647009e+00
1.331765807705822535e-01,-6.106176572249157886e+00,4.040912853017609940e+00
8.773029060485811881e-01,-9.238034031748503239e-01,-3.874033722852976425e+00
-2.501469300927138484e+00,-5.763303254114135576e+00,4.037410152799254526e+00
4.577117500421122864e-01,6.218530790085591953e+00,3.640836858563045730e+00
-4.655340527022367780e+00,-3.792620075415804592e+00,-3.646480360609038573e+00
2.988824418885482004e+00,8.336303014589766747e+00,2.843646218402716030e+00
-3.698326094873338299e+00,1.701053650978382459e+00,2.345034476025937398e+00
6.071794676740229768e+00,-5.767022725191968568e+00,5.165673405621590275e-01
-8.678910289133828782e-01,-6.262861440904431420e-01,8.017965930348682768e-01
4.261877897690474981e+00,-6.147025194842979268e+00,-5.085552400079385471e+00
2.751694601396851070e+00,-1.338658089484199065e+00,-2.105753801531316416e+00
3.030254920920035566e+00,-1.445978292379321184e+00,2.033751326669355652e+00
-2.518978452565038939e+00,-5.594138152342258863e+00,6.161056808652023875e+00
1.317397823562316828e-01,-3.637928492273138303e+00,-2.312787079441427363e+00
1.770289251157992405e+00,-4.314538511908498464e+00,2.978645255554710047e+00
4.493147163894808394e+00,5.257347995528312445e+00,-4.617205386440491388e+00
1.495605457990149434e+00,2.024573033848581227e-01,-7.696749696882687175e+00
5.292782600755757016e+00,1.302592240340008756e+00,8.239158912060422502e-01
-3.575188403160882267e+00,7.596244847195515071e+00,-4.747715788850356056e+00
-3.237410367735532812e+00,-7.594781287268808079e+00,3.328526035743399891e+00
-7.775316146155590857e-01,8.515723072359664414e+00,-3.700328507740977546e+00
-2.757792283664045829e+00,-7.369499633350248047e+00,-2.535443557334524645e+00
-6.685755869854566491e+00,2.188041708942221053e+00,-6.158135044009173775e+00
2.509723096432302236e-02,-1.094937074102131591e+00,8.418183869106149686e+00
-5.104317143179464722e+00,-2.315949985677199230e+00,3.564029700131818856e+00
6.104569685764386300e+00,-4.197105113830489564e+00,6.002319875173604657e+00
-7.989993444192241556e-01,-1.717214239073831861e+00,-2.080569317144965957e+00
-3.465117095742308972e+00,2.792293215787889249e+00,1.757499993306960384e+00
2.711154595507281773e+00,7.582547495068950205e+00,6.483784912798381539e-01
-3.773466637273483304e+00,-8.621833666690369435e-01,4.417156203688233918e-01
8.829464884610835895e+00,-3.241241526822029595e-01,3.498443991251191321e+00
-5.627215492256194551e+00,5.117229243369168401e+00,-3.918044898194557035e+00
-1.326037853475902528e+00,9.185247361028570978e+00,-1.234905463184559737e+00
4.270468912516544258e+00,-6.354360481803812410e-01,5.014000085865186307e+00
-8.268997143983257914e+00,-7.742088340846060568e-01,-3.697689612533655405e-03
-7.268075909790497890e-01,-2.273094677786447360e+00,7.841690972880890342e+00
-5.755255483944281991e+00,-5.973829060888231623e+00,3.934619200458156385e+00
5.307879030334814452e+00,6.692283120527257267e+00,3.173314124962664629e+00
-3.356413276780894073e+00,6.222704497999342194e-02,3.691746505402803358e+00
3.337936047927659189e+00,-8.117567896533129712e+00,-3.930947084547959491e+00
-2.035739217290662317e+00,9.348176141008398554e-01,-4.438016580242096776e-01
-9.037240621463865642e-01,2.788086875239196516e+00,4.577813276963418887e-01
-3.136014054109085070e+00,-5.643156591854208592e+00,-4.893063448244770797e+00
-2.282685938750891097e+00,6.025082686774223539e+00,-1.748390003807431148e+00
-7.372133064337712760e+00,9.363328493065300462e-01,5.160799855931577085e+00
8.783034288475462859e+00,-3.175723006713859320e+00,1.471566986372753627e+00
5.994481471226031033e+00,-2.351659830096100468e+00,-1.338929080294408047e+00
5.147285314834979530e+00,-4.914617010641697981e+00,6.520972421313777190e+00
-7.233274655619470472e+00,1.808218918526872443e+00,-4.813805974334067095e+00
3.682146343139185873e+00,7.555478764615538800e+00,3.396985794854936458e+00
-9.230956014835381418e-02,-7.863087285464178677e+00,3.014588584392281057e+00
-2.144415707648881231e+00,8.361416726161484902e+00,-3.992290338739540978e+00
-6.148210194565079334e+00,6.537592637356196557e-01,1.402677839810063443e+00
-1.747695146401279542e+00,8.054365181905422943e+00,2.795493754439906109e+00
3.338538512436863837e+00,1.323616640422540680e+00,-6.985721021139950970e+00
5.810521682689556711e-01,-2.179603374718671382e+00,-6.987588416959279236e+00
-1.393762442032067561e+00,3.599781435514235461e+00,3.557012623368581483e+00
-2.271919266284782024e-01,-2.354249137414249349e-01,1.104143899104404358e+00
-5.053309412609904960e+00,-5.926504390552846502e+00,3.813174840142159461e-01
9.176740735154801598e+00,-7.082803990925100601e-01,-2.406110050634105768e+00
1.953496098054118280e+00,-6.070961156610304776e+00,-1.423190136126083249e+00
5.824623374692002642e+00,-5.700937726494385016e-01,4.854158258934415215e+00
3.461174376408390430e+00,4.609247547213795038e+00,-5.000991231414499083e+00
4.476900379435504007e+00,3.763779705363323180e-01,8.325838480207593761e+00
1.543863586124651688e+00,-4.679452202194370081e+00,-2.567397016112768604e+00
-4.864256139920629884e+00,-2.800973455193880746e+00,-6.804349383918080640e+00
1.226627624747751666e+00,-4.028819293857613282e+00,-5.097526588640871381e+00
1.455695910117753789e+00,4.771515868288587647e+00,-5.592143066858136891e+00
-7.521232050060839391e+00,4.777359496776406589e-03,-2.674299555603354417e+00
-5.142029649654438650e+00,1.524629782661774513e+00,-1.103984025696015614e+00
-4.400100791594914185e+00,-1.629480318046276244e+00,-6.690856590382720626e+00
7.515058020430873675e+00,-4.032977466388810051e+00,1.394111879600895554e-01
-1.791880337747036256e+00,1.690035581222220085e+00,8.453878774718500466e+00
-3.025159086025975164e+00,-9.146559984674112798e+00,5.767175232986840872e-01
-1.717176218922860320e+00,-2.604552315194943901e+00,-1.416854467820772179e+00
3.092339183342127207e+00,-7.030996295421269693e+00,4.592761063073869998e+00
2.755584461145621944e+00,5.619499644277535788e-01,-6.864252426500057069e+00
2.017336653800501090e+00,6.584055029122587221e+00,-4.557124424317944844e-01
-3.203057659402909874e+00,-4.426979355565261898e+00,-2.745410902458820690e+00
4.552583199594725905e+00,2.668354055230666155e+00,-7.308451099299479559e+00
-4.477168498874187996e+00,7.396128908150834569e+00,-2.238796661674899102e+00
-6.707743910907110418e+00,-1.636418856078335204e-01,4.923739230274334910e-01
-3.897828097672036973e-01,-4.887195296554619262e+00,2.879973598730728668e+00
-6.491480827424528144e+00,-4.898313914214592835e+00,-3.522579252251570869e-01
3.795335110349333352e+00,6.641124547217492236e+00,1.607250978572341227e+00
4.151973815191691841e+00,3.521372942346486123e+00,5.444950656760840779e+00
-1.138750594101508140e+00,-2.404575542849777481e+00,3.496328525182523350e+00
-6.194614823261993308e+00,6.115543434062828965e+00,2.386467539363560597e+00
4.796146023821991733e+00,7.764821776263069353e+00,2.646160732776474678e+00
5.822699693852514180e+00,5.006179886571546334e+00,-2.462754513497478648e+00
-5.367938178668062221e+00,6.195183369337329271e-01,-1.720151292391437492e+00
3.717408162141652817e+00,-6.855150152830500332e+00,1.703570604990637172e+00
-3.802335125336423705e+00,-4.501975882770683057e+00,7.210703443846846028e+00
-2.330143452759721345e+00,3.022899599155108863e+00,8.719102658831323183e+00
8.488367707295310538e+00,-3.112035548062041190e+00,-2.091547190801890110e+00
-3.390620203992198434e-01,6.916450911476603736e+00,-1.623757165257164181e-01
1.695304470604290126e+00,-6.045468339791529644e+00,-5.267595019147589319e+00
2.941385944571871747e+00,4.145604311139017284e-01,-4.586783258765982474e+00
-4.579317478982852796e-01,-5.367283345500847958e+00,-2.832610019733360573e+00
-2.264082201038613018e+00,5.252025789512338783e+00,9.460635717895956587e-01
-7.530702208100422013e+00,-1.752069180610315247e+00,-9.718824215773322894e-01
-1.608229483658601522e+00,2.058756645567732413e+00,2.465745938217372757e+00
2.084001353449411731e+00,2.859017381504877164e+00,-1.276684863341444320e-01
5.767105100669537521e+00,-6.836159535386971520e+00,1.955650953274826742e+00
-4.482221025672828318e+00,4.833877321804801674e+00,-3.307495522102778640e+00
-7.292289643342134697e-01,9.203170838797447573e+00,8.491152525478085078e-01
-3.505678869796926417e-02,7.656498307716086416e+00,-1.416703282367646644e+00
8.005340283901681175e+00,2.925531350886942050e+00,-8.674285804674247702e-01
-8.733868916538467531e+00,2.605714086298970944e+00,1.897539695022006034e+00
-7.944694460674115888e+00,-1.422687829889134337e-01,3.933662968926526560e+00
-3.514377178402393831e+00,4.424571056569910787e+00,1.805747546756709898e+00
4.139820895641314280e+00,-2.278779006844931398e+00,-1.473391549892713481e+00
-2.184281114009003932e+00,-6.721398922320704017e+00,-1.522346786703279831e+00
3.061911835332277398e+00,1.890472090557640428e+00,7.125079437841375096e+00
-4.171864943187046038e+00,6.765415973017970153e+00,4.877226246097459139e+00
4.640867273815380223e+00,7.161705327872998517e+00,3.168144318185674546e+00
5.862300609196013035e+00,7.625800898964573804e+00,-7.310684341105554429e-01
3.499146720104654662e+00,-4.331575160269032665e+00,3.097263661961761727e+00
2.888658566458301991e+00,7.328864578500896565e-01,4.762311047528021923e+00
4.645405236115442982e+00,-4.780658997096033147e+00,-5.479020900656298210e+00
-1.784122298868766679e-02,-2.823436322319468617e-01,-6.946217587417732098e+00
-5.120992780271196310e+00,-4.659234154019038954e+00,-1.635048289625046447e+00
5.040775622892866181e+00,6.111693018390576881e+00,3.807226187611087997e+00
1.237385293319248403e+00,5.233141732458175710e+00,2.895942007528426121e+00
8.382433757537521402e+00,-3.018292782894943738e+00,3.184551977811556522e+00
4.458881022064044686e+00,3.280120942141697249e+00,-4.529165594128049754e+00
4.714694415524745885e+00,3.722094746069682270e+00,-6.614263057223659814e+00
9.620643912099984263e-01,4.007982507625455493e-01,2.974516793467168352e+00
7.257616316430853587e+00,-2.989267338372875393e+00,-4.771406379652906038e-01
4.903839837312397698e+00,-2.838501188118624174e+00,-5.035885284729780587e+00
7.828139723845128906e+00,8.584661731517533312e-01,-4.106333543725396495e+00
2.624513592339609680e+00,-6.201627428967202427e+00,5.477803121913835227e+00
6.400796710662818967e+00,-1.323918132244825463e+00,6.307591679736483492e+00
1.062585947953328835e+00,-1.643171596442340787e+00,-5.861745273610128315e+00
1.478862394904872035e+00,-6.703750166640285890e+00,-1.577614759443012549e+00
-2.225415708357484146e+00,6.958350000545602931e+00,1.821270554432312005e+00
5.827511196755681411e+00,8.829420851940267267e-02,1.361344525891449442e-01
-8.360919834008830875e+00,-4.086885526527638923e+00,1.427901204944695933e-02
-4.029829109710510338e+00,-5.790493404120208965e+00,1.885714071895878918e+00
-7.265381948749110030e+00,-6.074339982305237307e+00,-1.124164042898259996e+00
3.508036952547708864e+00,-3.152860105168864724e+00,-4.823055757566128143e+00
-3.332014771285103816e+00,-8.470570383079460086e+00,1.882233735149929643e+00
4.681849097699823936e+00,-2.881423218952775755e+00,-5.641968459354022691e+00
-1.725519266853056344e+00,-2.405832665202344067e+00,-2.713356971845290122e+00
-2.193116133308651849e-01,1.939140863973511264e+00,8.155507685429343567e+00
-6.055330905510781792e-01,-6.103459606163847972e-01,-3.703511909592449580e-01
-3.749322509447437390e+00,4.053521292446215618e+00,1.074819957652277669e+00
2.209886063401445000e+00,3.306013381025800335e+00,-3.637050771276681527e+00
3.944179561955629243e+00,-4.354654418185953668e-01,-2.060265931495891767e+00
2.669085119214279711e+00,3.488622074211231716e-01,7.557003349254067803e-01
3.197454800514756279e+00,2.058159453930605398e+00,-1.769904649664236329e+00
-6.610566535952457912e-01,6.897124369081024220e+00,-8.604047883064860347e-01
-5.080508315270635400e+00,2.840363345114616411e+00,-5.261105378451447212e-01
-4.465564453120272059e-01,9.033797823436151120e+00,1.482801114722209768e+00
5.442619312155144051e+00,9.321736524282988601e-01,2.156760724915924854e+00
-2.204627139175988404e+00,-9.316440362335079328e+00,-2.787048931963185261e-01
1.484074704740719897e+00,4.598830772600617678e+00,3.102094205502107460e+00
-5.034538559290588466e+00,4.434560842258782110e+00,2.930108078265718063e+00
-7.265876726568095023e+00,4.293614640169235663e+00,1.342193879870940298e+00
-5.335770041417810639e+00,-7.183817030832532202e-01,-1.598253632300031812e+00
-3.074608950348379999e+00,4.274053309710726722e+00,-2.276697626313394007e+00
-6.255610945288728963e+00,-2.415224802599425402e+00,5.852525943241986273e-01
-3.210513572295594198e+00,-4.969270496398070058e+00,-2.461625888204433732e+00
-2.911427598532105865e-01,-5.373087046995831173e+00,-2.425552461195588094e+00
-7.777537676796011823e+00,-1.074258581400806101e+00,-1.120217244033841153e+00
-4.038472058169014112e+00,-4.445419887135525272e+00,5.058948583414834665e+00
-3.833625150034892126e+00,8.129707295605406170e-01,2.455812841119918488e+00
2.663901801514826140e+00,-3.083468125702296891e+00,-8.685359878395434663e+00
1.840886991913874615e+00,-7.375611060044805489e-01,-5.015151682367198660e+00
-1.872835174287361015e+00,4.253275388003924462e+00,4.298400600964036755e+00
4.547443869142313133e+00,-1.289878671786199860e+00,6.361757493507446348e+00
-1.561829942525049669e-02,-6.191267485200159237e-01,-5.129854243146579229e+00
-9.916191337124424798e-02,-2.274333309442820195e+00,-8.540788396073505373e-01
1.162702952367339337e+00,-5.942124280227972122e+00,5.129020502776374002e+00
4.626885554660398192e+00,-2.812622064072068273e+00,1.191344646567936483e+00
4.231227462027325470e-01,2.992379380815991752e+00,5.741395832560351131e+00
-7.322166748456352403e-01,8.010534916285960705e+00,-2.925286652386550612e-01
-7.189417706612553083e+00,-4.023202827766494849e+00,4.047669824168367292e+00
-5.103627383419584440e-01,-3.900981550320971269e+00,2.787270461416705203e+00
4.584721814359384418e+00,-9.084875972816108813e-01,-5.235509428224271566e+00
3.169645525643644213e+00,1.942054392224350057e+00,-5.071321274551192637e+00
-3.496552833822320405e+00,1.813602080193409849e+00,5.480096713331061409e+00
1.810919495297669046e+00,-4.825738027071142078e+00,-1.995105317040150872e-01
-1.658924796145683667e+00,5.990925895769761311e+00,3.748876585367202807e+00
-6.398848512288684454e+00,-5.907714173246720435e+00,3.778653837273417082e+00
-5.298410981800842912e+00,-1.574374634897618419e-01,-2.542775045617833740e+00
-8.063877679935565368e+00,-4.535533582749814663e+00,8.884050321230904101e-01
2.316845642892908952e+00,-3.003052640752980618e-01,-9.242656007218135628e+00
-3.786550352509513995e-01,-6.082844207270349024e+00,3.255345461383215788e+00
3.101573745274674998e-01,-1.066290666397851306e+00,-7.527214744509153732e+00
7.838467993251187593e+00,2.036064504037051304e+00,3.991196865956014306e-01
-4.714181913097515775e+00,-4.225458479255205013e+00,-2.996085689456041035e+00
-3.101298160012399663e+00,-7.037085186529346892e+00,-1.792206628499547927e+00
5.864419514284404528e-02,-2.036706921511734603e+00,8.269140971758639935e+00
2.289886253422643403e+00,-4.629120826319609527e+00,-4.722868481365287252e+00
-5.301446299370986104e+00,2.652356784383901100e+00,6.961844165304987619e+00
-5.873078836101242928e+00,-5.908674969498953544e+00,-5.735392399073037106e-01
5.575828077658595561e+00,-6.798976283960401545e+00,-3.398232749201318459e+00
1.060657518581905823e+00,4.822513805417848465e-01,6.649567599270802987e+00
5.441582209241420998e+00,-7.825673234260904998e+00,-3.350068203424600433e-01
7.565670801902269815e+00,4.874890589563998233e+00,7.195186732624583303e-01
-2.617999026273744256e+00,4.586364548780792028e+00,6.972804583237687481e+00
2.145038217118066193e+00,-5.641751683212834934e+00,3.589198228764158838e+00
-3.468213554621208061e+00,-4.985585700862467107e+00,4.497294935989895492e+00
-7.449460187502111808e+00,1.753414721580957569e-01,-4.224736147775939088e+00
-5.048412631846107779e+00,2.632467148189475026e+00,3.505495411621219581e+00
-1.044573121446870312e+00,2.254067421311951591e+00,7.543140330787178049e-01
-1.915744519465336637e+00,-6.452054462741895868e+00,6.788632874884781288e+00
2.154450884881745409e+00,5.830596686558083164e+00,-1.386524702821020139e+00
1.521656256353042469e+00,4.944556027951471644e-01,-9.106079771340720441e+00
-2.141455589493498124e+00,-1.669907636052996081e+00,-9.147855084573231821e+00
-2.037635994789510629e+00,-4.561202917197928475e-01,3.496520905373944110e+00
-3.761781409950593069e+00,1.357222565582970608e+00,-7.739146572079328656e+00
8.495982690480920196e-02,-4.923294988430773955e+00,5.302362250594267579e+00
3.724042232161477006e+00,3.623204376330408927e+00,6.655910988457400812e+00
5.738194188085361525e-01,-6.157459330128605579e+00,9.713469799898084567e-01
-5.218011739714553343e+00,-2.116594894695150941e+00,2.515476248981913798e+00
-3.012198271265613750e-02,4.143366832732534810e+00,-4.471925570742075529e+00
-2.399120814828609394e+00,8.895215379057246352e+00,-2.204739267931589364e+00
3.563365970340279798e+00,-1.280968510957651851e+00,8.055628799591685762e+00
4.248129466273292465e+00,-1.550486355258104743e+00,-3.508117195409615086e+00
7.608074650560899599e+00,-1.526365974359036592e-01,-5.762216719856192881e+00
-4.018853285223783267e+00,7.851767595521698118e-01,-7.381661132166144057e+00
1.225885542595406275e+00,3.368735587826600764e+00,-9.921995935432240676e-01
-6.334671532138694161e+00,2.464162315751634580e+00,6.078796915093093389e+00
-4.131603332629876668e+00,4.169240539696196457e+00,-2.654251505800122146e+00
6.615727759456189183e-01,-3.318752140097583236e+00,7.227584683538880839e+00
-8.557694112076343895e-01,3.625710777017790321e+00,2.000066398838815651e+00
2.971515094023934989e+00,-5.473234566499573184e+00,-2.110202212509014519e+00
1.644438538540197614e+00,6.517941889750744622e+00,3.584911687046221096e-01
4.470674771836598005e+00,-5.118702685156675258e+00,1.230316135265158373e+00
6.730115176912931929e+00,-5.340787088154955953e+00,2.486704895351815825e+00
-6.181686475665134850e+00,7.382402551172162930e+00,6.347434435291742227e-01
3.185892827518135295e+00,1.070070617107545391e-01,-5.476679597484925388e+00
4.472974165091194720e+00,-4.244894640318638834e-01,-3.387457655508672172e+00
2.536243184431443698e+00,5.717587073699744060e+00,4.125582967838562709e+00
-6.799350972933051462e-01,-6.935458761483446644e+00,2.040771723036364893e+00
6.844718222788076289e+00,-4.492627732293068554e+00,-1.375361929632478997e-01
-6.361968969229883974e+00,4.205291360531923317e+00,1.850647266693110859e+00
5.766559000800291379e+00,-9.124730253103212618e-01,-1.389193206397272562e-01
-4.396344578325120267e+00,5.144541343229560582e-01,-3.594913186174302666e+00
-2.202181805496037370e+00,5.233200583705356124e+00,3.754049304240105744e+00
-4.895924825421061222e+00,-7.732626030086461100e+00,1.335522640657943683e+00
-2.547136980132603590e+00,-7.290371037153988709e+00,-5.252040529878211572e+00
-1.771225925439733118e+00,5.742625864605916952e+00,5.552648510372521606e+00
1.449315075004043996e+00,-3.553133141261674677e+00,-1.915689032739337438e+00
5.122202866147699041e+00,-8.093727751746210286e-02,7.446447273969335257e+00
-4.464665756894006243e+00,2.946426114579779210e+00,7.817129643978755205e+00
-5.634506554106871734e-01,8.588539310667741233e+00,2.621225185719678219e+00
-4.486911107124785580e+00,2.891868433987009879e-01,1.274959312017621249e+00
-1.175930443935040648e+00,-7.722666850692254670e+00,8.412108777371760659e-01
3.961304723785671111e+00,7.962487777228744790e+00,-1.265106123036267682e+00
-8.087586825967646442e-01,6.172380672198324314e-01,-3.859108306206062711e+00
2.647200795199825318e+00,4.309310282587402341e+00,-9.620003209986393022e-01
3.172334817025718401e+00,3.342477915418626377e+00,5.101945162342602202e+00
7.131340054657648864e-01,-5.017483923878589991e+00,2.799036611796184904e+00
3.041766898928933704e-01,-9.180399350295969096e-01,-2.636433893821798602e+00
2.948847540127694344e+00,2.025920737196017285e+00,-3.477434700823762714e-01
-5.293980314902972495e+00,2.755867402007156741e+00,5.345291517550533555e+00
5.658685627833711429e+00,-5.887157597753515326e+00,5.577432160986024456e-01
4.818000098124131658e-01,-8.035656601069765870e+00,4.281430025411427920e+00
-4.472810943946599060e+00,-2.776777272964073617e+00,-4.217304322202393152e+00
-2.104509517097465476e+00,8.822926143837920288e-01,4.234251842904196650e+00
-7.687204772988703638e+00,-5.139172899527952865e+00,8.583064500139040431e-01
-2.348588175813377976e+00,6.125540463974530336e-01,-3.658336273322047166e-02
-4.299982901407322977e+00,-3.537736878466612112e+00,-1.509934163411566388e+00
-3.854418471594770246e+00,2.643485654818234831e+00,-3.067730240047008561e+00
-6.205997888862620826e+00,2.789553104674678874e+00,-1.883985699297669791e+00
-2.751779858564515457e+00,6.582075205435155008e-01,-5.295859729997371090e+00
3.248269679951041877e-01,3.057842606910297523e+00,-1.582384018712651441e+00
-7.390264097739787097e+00,-1.779910624045257350e+00,5.087625451877069160e+00
2.740616139139213647e+00,-7.881845124381105627e+00,3.499144140403913639e+00
6.758851542325196249e+00,6.103697928723105903e+00,-2.225735982954764935e+00
-2.866304215177594372e+00,8.084463862717683469e+00,-3.035675774969819329e+00
6.710761455165695999e+00,4.159801828811241498e-01,5.494693328461435655e+00
2.525709021527408726e+00,1.298408321999716231e+00,-3.032262553553890960e+00
1.728404594377997761e+00,3.516819404598826360e+00,-6.289449529426425656e+00
-3.995798489273564513e+00,-6.283151426592823441e+00,-2.612104232535823023e+00
-9.558687548940838496e+00,-9.478072474553042581e-02,3.202011903944222693e-02
-3.013796035824141129e+00,6.032776589758016783e+00,9.062916087255280528e-01
-3.920138668127828296e+00,-1.853396338052556644e-02,-6.318934754334496695e+00
-3.905371266141721254e+00,-4.307383188924595707e+00,-2.228468612598096588e+00
-6.512820340264040553e-01,-1.099303282150973837e+00,-2.967292130456398169e+00
1.671285950227252570e+00,5.574779235741468497e+00,4.421609539221959650e+00
-6.387820421088373557e+00,-6.419113244423535924e+00,2.136053071125262548e+00
1.314558944343873437e+00,-3.128644726910593921e+00,6.581623886909174104e+00
-5.408458610474355943e+00,4.541250945328327848e-01,4.260545667066702458e-01
-4.759871042886969050e+00,-3.782819621479400318e+00,5.638425658051801292e+00
-3.121601933476822577e+00,7.481954476672759036e+00,2.666484036267219526e+00
-3.920816589627275750e+00,3.790447747987625071e+00,-8.783713043400848131e-01
4.445339213180544924e+00,-1.147647730900337670e+00,-5.505896363313352637e+00
-6.905775974400891748e+00,3.658715544373107420e+00,2.083216501027054246e+00
2.505318351858917936e+00,5.287915634406859411e+00,-3.172877110886829222e+00
5.345697383466387009e+00,-4.434826230290492610e+00,-8.494671317340741767e-01
8.309040526991491760e+00,-4.627717156917167785e+00,-8.533599001854853539e-01
1.252831602415351409e+00,4.728718926435954706e-01,4.117666737061802529e+00
-4.205779520850223996e+00,3.954002240840122084e+00,-1.768008621056082141e+00
-2.126352098261441448e+00,-5.977010025946031396e-02,-4.922388422246878115e+00
-4.734208071593718259e+00,5.860956915913247300e+00,2.158816588880022813e+00
-7.620561525484538024e+00,-3.813532589946978746e+00,3.134983406670639461e+00
4.050202384585135817e+00,-6.342408018633812761e-01,-3.662663928559576565e+00
5.763259100271699964e+00,4.995346438404184575e+00,-3.563332552920463137e+00
1.785286731728126464e+00,2.579041854064274109e+00,-1.496753571063268229e+00
-1.992983471507300042e+00,5.934511669339806339e+00,6.390709710106413866e+00
2.996126007413567605e-01,-3.698640767242170391e+00,-2.979176186008430260e+00
5.210454076666391821e+00,7.369077363173144324e-01,-4.826465067761589012e+00
-5.639105607109226592e-02,-2.781510629594172279e+00,-6.494139703381193840e+00
1.706686125223273898e+00,-5.007896551132613894e+00,-3.890439231045891511e+00
-1.975138933255432327e+00,-1.122669731814468053e+00,4.840920645803051592e+00
-5.201555522124824416e-01,1.994993302700633075e-01,6.498351735644663840e+00
3.204638600047393648e+00,-2.174226030014889677e+00,8.248032275146210068e+00
-1.828481075576704251e+00,-3.942384924946989333e+00,3.424488885779245484e-01
6.584828961969230399e+00,-4.114226262290185510e+00,-1.528007269160634340e+00
3.922267708584550761e+00,-3.334940083750701501e+00,-6.273882444729544261e+00
-7.624087336783035296e-01,8.522801340907600220e+00,-9.806574396975172858e-01
