-6.780803769915920043e+00,6.516920678055170058e+00,1.111278810066040346e-01
7.504466375521326782e+00,1.613853468387989265e+00,-9.798818036738495829e-01
9.921552439525043177e-01,-7.146137366190173923e-01,-2.321587920915454628e+00
5.791462234330677639e-01,2.050493992306684721e+00,2.321883806965086894e+00
-2.117746221643401761e+00,-2.354198404858181437e+00,4.926651011205960273e+00
1.657876809009529717e+00,-1.979328132631026138e+00,-2.710956836699495831e+00
-7.114246175732024113e+00,6.832818355107674435e+00,1.843133633741090432e-02
-3.841166649334846639e+00,6.358932744905088974e+00,8.507492970592980264e-01
1.727259707264219957e+00,6.305392376578016211e+00,2.384726022915231614e+00
-2.222786940336236583e+00,-1.820952459137290314e+00,2.059780327015821477e+00
-2.419247388272428800e+00,6.005246946186798773e+00,3.059741964817562998e+00
5.749603056549149827e+00,-7.239273651830323564e-01,-1.528191770229890167e+00
4.684901651539917777e-01,-2.324620072428350781e+00,1.250988962465230170e+00
-2.360791402509380799e+00,-2.008436886218193163e+00,6.415601140859108042e+00
2.013462665229345472e+00,4.461542329225817838e+00,4.180910046881460396e+00
2.129907030239675425e+00,-1.867618702828125032e+00,-4.227733059972347718e+00
-3.672884881279883551e+00,-3.269572526734526585e-01,5.949520094006113702e+00
-2.274299902395485962e+00,1.329948321343139117e+00,1.498401915670019013e+00
6.651370664377401098e+00,-3.732962959934349456e-01,-3.953385027558397602e-01
4.324805026916738626e+00,3.557893442496084191e+00,1.714423827500566766e+00
-2.585772516923439124e+00,2.617316470743054069e-01,-7.951221417179861639e+00
-2.205204390056569874e+00,2.147157898739902926e+00,4.500494667427997975e+00
7.708516846941382283e+00,2.648229096753184741e+00,-1.500533189009493285e+00
-1.438151953622698542e+00,2.824594435854618890e+00,-4.641038513920240582e+00
4.614436387704990913e-03,-3.753545070460679867e+00,7.365110306187187206e+00
-2.216752479668413489e+00,5.276331421532211685e+00,3.911405456207045273e+00
3.847220589183764528e+00,-2.106892132307255139e+00,3.325462743575024138e+00
-2.044225429300308594e+00,5.020359394763258543e+00,-5.482219684782942082e+00
-3.031441342218796908e+00,7.993488643193950027e-01,2.079251828793596601e+00
1.069832139258346804e-01,-3.104071820123017300e+00,4.677413380710563118e+00
-7.998949935651441301e+00,-1.590974260572414201e+00,1.955578750445711389e+00
-5.338263345958892181e+00,-2.953047211964596297e+00,-3.053776992009225033e+00
-3.738852892539893169e+00,5.807656507931579171e+00,-1.008381984416717891e+00
-3.631125459726687321e-01,-7.099138476657921970e+00,-3.930646723905804940e+00
-5.490501294599889448e+00,3.529612897307948138e+00,2.752888027568447082e+00
1.388558915956241480e+00,2.434162328373105755e+00,1.679343057841526488e+00
-1.096529599406188271e-01,4.247447655939552646e+00,-5.605781811838697948e+00
1.675098585215182956e+00,4.257907688735132368e+00,3.727032600170072651e+00
-2.210538463246278784e+00,1.845079518929086726e+00,3.608662356027922069e+00
-4.900672752186800984e+00,-1.890699234111358873e+00,-2.382247227587275251e+00
5.707050932572549584e+00,6.087457737629553556e+00,2.211727803782255641e+00
-4.379166895650156710e-01,1.481028005559387184e+00,3.205257077087539930e-01
-2.159306744649926724e-01,1.917252418968709682e+00,-1.590648319185092419e+00
-2.926879861741710442e+00,-2.785306415766987786e+00,4.310413759934049516e+00
-1.339116653310281402e+00,5.742844265473248555e+00,-7.919597335698668195e-01
6.178625515999176532e-01,-7.175718861667353288e+00,-2.419461378317227851e+00
2.449685247708312197e+00,-5.400580014878032742e+00,3.287120750515849288e+00
6.824090713166464539e+00,3.636209778879710530e+00,-2.220691338245782465e+00
1.761510173005263802e+00,9.815907526577584141e-01,-4.689380318711148909e+00
3.694534450786403301e+00,-2.159672348627100558e+00,-2.807939000526232132e+00
-4.293263464910284988e+00,6.315225125409567930e+00,-3.058041148503514606e+00
-2.045784411512823642e+00,2.487468935765201117e+00,2.903525717833816522e+00
-3.410606808792174149e+00,-1.000454235424842020e+00,-3.102775241562087949e+00
-2.359184346874265259e+00,-1.691479841050546273e+00,-8.164278717835586008e+00
5.373087520491309554e+00,1.884008364006656944e+00,2.346981197249786710e+00
-1.604083855669723446e+00,4.068156724121280376e+00,5.199270461413586730e+00
-4.573438310373355797e+00,-4.948352427073290372e+00,2.499033399930311816e+00
-2.211596948635595528e+00,-4.207249297116927522e+00,-8.091819168903849890e-01
2.423760809070260258e+00,4.389984153583643689e-01,-3.680574271223189697e+00
7.094599787612249076e-01,5.416065641221602611e+00,-7.684147659031186350e-01
8.472474119939809034e-01,4.590847910415620348e+00,1.528349443864937207e+00
5.876868990993663111e+00,5.877496045303451488e+00,8.688279731550903051e-01
-2.435161127497192268e+00,-6.226182641753197800e+00,-1.370798233366371077e+00
-2.645374180474721282e+00,2.316890859037569861e+00,1.189170682214545582e+00
-2.986838419703892633e+00,-4.622417806492203241e+00,-6.641247195170683071e+00
-3.948671379092831835e+00,6.818399598239337500e+00,1.293026639036663594e+00
-3.222975079384305719e+00,1.275682043581186087e-01,-4.567679355348243320e+00
-1.852828754464614036e+00,-3.388720187670791972e+00,-5.415419032093151230e+00
3.305621349436799417e+00,1.359017019652947411e+00,3.705298868395811684e+00
6.385940081231765042e+00,-2.291696513108748209e-02,-1.494028454681186169e+00
-3.733964316115333304e+00,3.426914890763968380e+00,2.139110629384806561e+00
1.122000254748696024e+00,7.290704856853559512e+00,2.938436811222972622e+00
-7.213519244392434970e+00,-4.425995327270509705e+00,3.952023148184733881e+00
-4.580641558306469463e+00,2.467203265602242013e+00,-7.182983439002492421e-02
-3.138056751482520834e+00,6.737094788917045995e-02,3.206252603804854218e+00
7.164930897719226977e+00,2.894880858115820299e+00,-2.797384065845826218e+00
1.130025352358178026e+00,2.349516357082065188e+00,-1.689227398646248712e+00
5.301819908411448345e+00,3.332388424833296892e+00,-5.103923549511929281e+00
-3.652134694278495797e+00,-3.881282693058362376e+00,6.605179526600893913e-01
-1.271511381816477826e+00,-4.111838491638711623e+00,1.026596958326751574e+00
-2.073381163024455631e+00,-8.679910631984563141e-01,5.957979881581434434e+00
5.039211378694400389e-01,9.037462345046958223e-01,7.387104033340248677e+00
-4.243953818854697246e+00,-8.829588958144946043e-01,-7.293213412667771678e-01
2.584745889174548505e+00,-2.498587657025387987e+00,-5.136230597315985413e+00
-1.150355610742167967e+00,4.710449361931589252e+00,4.310667315487320295e+00
1.396692876739309863e+00,-3.005525913107048197e+00,3.573962441791965761e-01
-2.554117395934890844e+00,1.019723570928298351e+00,-8.831045222722908150e+00
-1.398957565752986687e+00,1.923601710985486157e+00,-4.705951797411994875e+00
5.289098352175257034e+00,-4.533825066847734675e+00,8.952653456737660331e-01
1.639565461956017600e+00,8.182741378341039651e-01,-3.497173853732417736e+00
-7.356600577086467752e+00,3.629048086309812238e+00,1.427598275589257781e+00
1.295767112736565085e+00,-3.613764309379428497e+00,-2.348529463000293305e+00
8.331775123878445655e+00,2.389321425121142983e+00,-2.272536035295510626e+00
-4.979815422075205333e+00,-1.760710938305608764e+00,-4.683823954524971717e-02
4.976298167757978064e+00,-4.059214311193285241e+00,1.247682963287374047e+00
-5.780900788051800632e+00,1.374219060055058117e+00,-1.620628288138113104e+00
7.557762256105504672e-01,-5.037186564773920239e+00,-1.504253504890968429e+00
1.132041570299250122e+00,-6.090994425276857527e+00,-2.476166749336546236e+00
5.954827570645213619e+00,1.999607662520140217e+00,-5.418790527913919242e+00
-9.048920656249402616e-02,-6.685880078036471552e+00,-1.236410769978361524e+00
-9.937659299023242632e-01,-2.047493746038376194e+00,-6.184255084884843434e+00
4.417278293263144917e-01,-1.875563058566391827e+00,8.059981444486448154e+00
1.340814683471261093e+00,-4.273008113677406072e+00,1.939442612214040906e+00
-2.139273515233329981e+00,-5.262764631246434455e+00,2.543959967450417636e+00
-5.019929145320899400e-01,1.514684611035216566e+00,1.395800840044328472e+00
-4.244149397300068793e-01,-3.471799826654934584e+00,-4.865970879428616058e+00
-1.820336048225292824e-01,6.137237042415479849e+00,7.823964195406998279e-01
-3.719053096069039110e+00,-2.863327205782991047e+00,-5.798840308971248803e+00
2.992932889989433409e+00,6.410710643728418034e+00,2.380523072009430141e+00
-3.568616677695632400e-01,7.224803680621492141e+00,3.149906595069319692e+00
-8.407013707082883869e+00,-3.145755031239749755e-01,3.337567624831691671e+00
1.065336640957867509e+00,3.264269652026227764e+00,6.734451238342901824e+00
1.236148171241728377e+00,4.924876731947757769e+00,6.151431788640903342e+00
-4.949158827307282849e+00,3.950934041361485960e+00,-5.733757327734645415e-01
-2.853481554607972814e+00,-8.843125801919269335e-01,-8.749079365267078412e-01
3.085657974285123117e+00,-4.846797362004915399e+00,2.819195712445411672e+00
-2.169306749938527457e+00,-4.335139207085310531e+00,4.153489010319237451e+00
-3.749543173028246024e+00,-1.477298138919258541e+00,-3.110698484397245611e+00
2.738639598382147877e+00,-2.061428165076555352e+00,6.565638338301569732e+00
1.129438461264868687e+00,-4.589864587832275689e+00,-3.126461181642521958e-01
-3.891107098802232489e+00,-2.783697780835539426e+00,-5.290895289931532020e+00
-3.068922917790997129e+00,4.885378257163454307e+00,-5.807746119240492888e+00
-1.953334241534439908e+00,3.901059903850969540e-02,-1.316819885791897127e+00
-2.783112833738484504e+00,3.795336980909148394e+00,-1.994620669083273790e-01
-8.118892881169531561e-01,-5.939594097991138799e-01,7.393497632093287919e+00
-5.120399817037810664e+00,3.104946196325676144e+00,-3.464795852846963564e-01
9.626153333170558435e-01,-6.095585035049692735e+00,-4.491335897303593505e+00
-6.224176099014166574e+00,-3.942308031888326791e+00,1.006177723464678708e+00
1.143022111880838354e+00,-5.421880876360836155e+00,2.916701384587532253e-01
-4.981187823143383042e+00,5.268450179454808868e+00,2.671787933466446940e+00
4.355827657974444378e+00,-9.544954478660362396e-01,1.174927927374673553e+00
2.028848759239069821e+00,1.832457427440018716e+00,8.930364281963630857e-01
4.770386648245197869e-01,-3.334303348006611767e+00,-5.272050427012370477e+00
-7.441751368955766388e+00,-4.164546407301625841e+00,1.464890330697458332e+00
-5.958944765409805555e+00,3.582488569072795670e+00,1.945637216376061129e+00
-4.855275772570678328e+00,2.047421704210700799e+00,3.752637790545643615e+00
4.249708726701160622e+00,2.532461008060542529e+00,-3.672082546521854507e+00
-2.672606628241479321e+00,-4.770227007529406649e+00,4.525289696747740287e+00
-2.524980110658135768e+00,2.704453733465027376e+00,-6.601302564222055302e+00
4.418899507570763774e+00,-5.753571433778838617e+00,-1.382728612419371172e+00
-6.575224617858599352e+00,-1.788417803277726925e+00,3.569153762496426019e+00
2.280166602620901983e+00,4.259900580181802177e+00,1.736880177730439234e+00
-2.405854417970965997e+00,-5.281559394361224236e+00,-1.019161138484577345e+00
5.771047716339255729e+00,8.608061641154362009e-01,-2.230915229677282952e+00
-6.230084887133185312e+00,-2.645424177639671970e-01,4.421903392082317197e+00
5.376125225422168086e-01,2.281600334880268477e+00,7.392131037295393003e-01
4.886627568999326598e+00,-6.526591484725839942e-01,-4.498039389946235644e+00
1.140380842178287280e+00,7.800121149999946546e+00,4.008570833468536598e+00
3.626655955270682519e+00,-2.934765392009852647e+00,-3.018040612616920804e+00
-2.873569997528644837e+00,7.264130188236143759e+00,-1.943894051411989565e-01
-2.475936024484933551e+00,2.003515765074941779e+00,-4.939447956913761928e+00
5.457445930690220770e+00,-2.662308521314926679e+00,3.447079373585820949e+00
-4.046991545898428910e+00,3.250690523440725954e+00,3.198883660247006322e+00
-2.392278971490189754e+00,1.075183974085338168e+00,-8.118531330815926594e+00
1.099389105163750324e+00,-4.555007664015102264e+00,-5.170758714991325888e-01
-4.577905570477752484e+00,-6.267619494653360768e+00,-4.075176336866100257e+00
4.269681151894785032e+00,1.552160641323113266e+00,-3.005061251869871608e+00
-1.404937682345704375e-01,-6.011753129524464612e+00,-2.476517706846825817e+00
3.152830951077244759e+00,-8.458727071668104003e-01,3.804195719750523619e+00
7.020367673743483916e-01,-5.779994559974961810e+00,-3.755458509454186800e+00
2.144642249295062586e-01,-6.340726771837059683e-01,-3.024671960725836772e+00
-4.843991202050496270e+00,-1.968163943579101405e+00,-3.522933972951176607e+00
-1.795073631948641113e+00,3.792605230727538745e-01,3.004912737187148686e+00
-4.019584025294700602e+00,-6.842190485677174472e+00,-3.201048322344118180e+00
-1.848459463462814645e+00,-3.465856857196217167e+00,6.155399284466741783e+00
1.390760250856105662e+00,5.267727922400021079e+00,4.947194430907789098e+00
-1.484300214153992714e+00,2.010512291379180194e+00,-4.477116528191579903e+00
-1.629311553697344150e+00,3.819937799887866525e+00,-8.549037711512507798e+00
-1.112376710989433498e-01,4.172932945209913314e+00,3.382384018740601572e+00
-1.829026948811539155e+00,5.321803611430479641e+00,-4.859063991113023451e-01
7.109850626372765880e+00,1.225901602823245007e-01,-1.406582344454622602e+00
-4.592895110952774473e+00,-1.822577846319464845e+00,1.570455217868570896e+00
2.916661506985759988e+00,-4.939228456759144348e-01,-1.855459080970829566e+00
-1.628564030118638595e+00,3.486857797546636384e+00,2.753506661840533720e+00
-4.658932910004686789e+00,-2.332767566169234641e+00,-2.671062088464778217e+00
-4.757048981932339160e+00,1.612230710298261371e-01,-1.198784914346488345e-01
-2.690627589813143761e-01,2.412807154981420954e+00,-4.122930849140177934e+00
2.096933780026691618e+00,-1.260068189484913614e-01,-3.184606986866533873e-01
1.557704510322968749e+00,1.784977170435220639e+00,1.510253873782202438e+00
-5.803353134381707967e-01,-7.819625988390304094e-01,1.542178915778053661e+00
-5.640790655075643478e+00,5.757503710761522342e+00,-1.048449824648710171e+00
-8.364749379818507691e-03,8.641379284715970943e-01,-6.064678522807248839e+00
1.231436144223980067e+00,-1.058286065591771186e+00,6.639840871427264979e+00
-3.461937259709049641e+00,-2.034747270393509222e+00,-7.084342119661203308e-01
4.362520853646873142e+00,1.631820040916021064e-01,-5.525756543723969294e+00
-3.041212022974455920e+00,-9.905990097510373182e-01,-6.530669701214193879e+00
4.810891207651719070e-01,-3.955195143153556359e+00,-4.653860999354234029e-01
5.166756488365527922e+00,-2.417873891402193998e+00,3.047667956434572667e-01
-2.671870050405428465e+00,-1.857228648108657731e+00,-2.266007247881660192e+00
4.562596664284172654e+00,4.519414430466250909e-02,-2.106671710510988227e+00
-6.654673075883889011e-01,-9.641105001390245510e-01,3.457260380778778064e+00
-2.286896924460078695e-01,-2.666229426661640645e+00,-1.211625829464076931e+00
8.793440262531744545e-02,6.046608844045861630e+00,-2.032552611072253601e+00
-6.456505048296643956e+00,4.268031907394793101e-01,1.902267595876923734e+00
-2.230366809130603478e+00,-3.981428894703888055e+00,-7.592231865089380527e-01
-1.339420075920912501e+00,8.156613427248576853e-01,4.555259890183054772e+00
-4.398108109847681746e+00,-1.055691591138780749e+00,-4.825586479835829223e+00
5.168263812067272589e+00,3.648404179398151204e+00,-4.297687791055465389e+00
-4.398316236896365972e+00,-2.250770184205055369e-01,4.443433197981548233e+00
-5.917636545786100655e+00,-5.642486273347770087e+00,1.994977990456238692e-01
-3.598683384345920389e-01,4.335711502131327499e+00,1.287245243705310793e+00
-5.198343046627706965e-01,-3.435292387174123441e+00,2.014789894661983993e+00
5.439585157357249123e+00,1.346674362360722021e+00,-4.988929381756546988e+00
8.877628660214802458e-01,-3.591062767204424411e+00,5.896276250077288950e+00
2.874415612924280161e+00,-5.756978475989058985e+00,4.321270904074719255e+00
-3.211799367396257487e+00,-5.161203029807681641e-01,-3.975222895073377227e+00
7.451404237998695557e-01,-6.039321120649161934e+00,1.577044490235262719e+00
2.937782620491507846e+00,-5.934126237438918317e+00,3.716011728019487759e+00
-5.948965954606575401e+00,7.086275083608805758e+00,-1.897093050419107252e+00
4.013360800562498554e+00,-1.244721415058447578e+00,-4.783280634118304953e+00
5.411834910887606043e+00,-5.668112640092294541e+00,-2.443399202081923516e+00
1.998429083979672338e+00,2.619527945307748684e+00,4.732899094140666563e+00
3.198303559578454358e+00,6.739413434824389704e+00,5.895900059067706422e+00
9.570488672463954849e-01,-2.919582581713564995e+00,-4.920807445006420977e+00
-2.664598498456022257e-01,3.902176177669052670e+00,-6.409065451780563194e+00
3.248938522011262542e+00,6.473908715210351383e-01,4.612607868295263813e+00
3.702583017762766104e+00,3.462717268688465744e+00,-2.594858404653256900e-01
1.026066160045973952e+00,-4.967530061673005370e+00,3.304638607640753012e+00
-1.192863671217529120e+00,-3.311604969650959962e+00,5.814065031550727625e+00
1.388668576952069689e+00,-2.468485642005283420e+00,6.624826382623854037e+00
8.088344304723369405e+00,-1.509895321990820216e+00,-2.112779013093948333e+00
-5.958951005091099873e+00,-4.411964268484072527e+00,4.015156347734918363e+00
6.463603354845762206e-02,-4.982942634480750144e+00,3.694806946865673236e+00
-8.331185424114341487e+00,6.106106104777578869e-01,2.437825948610476523e+00
-1.094793366341344942e+00,-2.896240465605997905e+00,-6.878498909878490331e+00
4.691380328408724765e+00,5.956966834747928985e+00,3.114158149628025729e-01
1.711757291002380610e+00,-3.233810221976094912e+00,-3.296434818863761551e-01
1.228999511264168287e+00,-1.144561380979790766e+00,-2.233503628930890716e+00
4.718557206014269423e-01,3.456887226431306193e+00,2.063774347005801424e+00
-7.114141090506821419e-01,7.074078905563258246e+00,3.701984102805099930e+00
3.687095371454734760e+00,5.351585700654116984e+00,5.247989508292234540e+00
1.517742873584117413e+00,-9.631389783868304910e-01,-2.049567867755768713e+00
-1.075843401497628138e+00,-4.409060418346199661e+00,-4.919452102607350774e+00
3.087018319589569071e+00,-3.548945941771652457e+00,1.835870038437425800e+00
1.125753756400623001e-01,2.188552327639062156e+00,4.174804428106360987e+00
1.482385034363279952e-01,5.059481215280598576e+00,5.555054871998960309e+00
1.262231153611280909e+00,3.700593430399959693e+00,-4.232126927169076680e+00
-1.271576751750112200e+00,5.677074459888361346e+00,-4.669236998353069601e-01
2.746129341433130922e+00,-4.885073615986227580e+00,2.846628315519729391e+00
1.695981477394012282e+00,7.067359910931807487e-01,-6.553835025314991292e+00
1.730141986619576189e+00,5.806102713421241290e+00,4.778737521393621179e+00
5.386719278884244844e+00,1.727317813089006115e+00,-7.797052807492779181e-01
-2.051779292556811518e-01,7.147318859962204840e+00,1.322771434768148069e+00
-3.171362531259679596e+00,-3.513279476913738208e-01,-2.868168456633777841e-01
2.507540508382383848e+00,-6.424818661333309838e-03,3.780472772746112931e+00
-3.981321756011586110e+00,-2.373424477195963944e-01,3.083768855112619889e+00
6.855593226692421105e+00,-6.963681078878471098e+00,2.564401050115568403e-01
6.261748180631769856e+00,-4.781525099071742169e+00,-4.698555513781059734e-01
-6.595122187930754443e+00,-9.273051737723982946e-01,3.440606649633075165e+00
4.783904674103019339e+00,-2.495512924814778710e+00,2.000123043366337949e+00
3.102383613135509144e+00,-3.959276874283562453e+00,-3.048458436695771212e+00
-3.889915745393263125e-01,-3.131352292339440790e+00,4.226456400830421956e+00
-1.244630645727287516e-01,-4.610157160044836111e+00,6.061788960449022490e+00
4.078983343233075765e+00,-6.364384531728605410e+00,-9.644398422840078089e-02
4.127202712201920143e+00,-5.347292034932151772e+00,-1.441976666886630065e+00
-6.748613750845553483e-01,2.594071371615263466e+00,-2.424425992125026852e+00
-1.049302714169915607e+00,-2.143965039584232901e+00,-2.139879297236869871e+00
-3.422331768740106028e+00,-2.919442584680214114e+00,4.157414142624858977e-01
3.781220819908417408e+00,3.248229569342609313e+00,3.125714875090483069e+00
-5.879143254328647039e+00,4.154929855475521627e+00,3.046858206914544898e+00
5.787000133275601144e+00,4.182977452397583562e+00,2.696616832787002593e+00
8.563621365871261215e-01,4.873128421230004115e+00,-2.207116809028496718e+00
-3.518148786410771223e+00,-8.339765519868700405e-01,3.003464813550409396e+00
-8.454086907528673978e-01,7.365890336514641090e-01,-6.326933425373061581e+00
-6.701463205718691807e-01,-5.205965961214730875e+00,-1.355870722507477311e+00
-1.021643026656908315e+00,5.038069817375784076e+00,4.693349998434494630e+00
2.039812739957476584e+00,-2.264230249979241716e+00,3.647450077647785172e+00
1.851001453848942768e+00,-1.911465324260109400e+00,-3.821627338973883958e+00
2.597370324150120258e+00,-3.840816763976566239e+00,5.275400858493257239e+00
3.889205849185228825e-01,1.471279249092307007e+00,-3.878238672982124324e+00
-3.481219790867081887e+00,5.540233181208079616e-01,1.302903860041835893e+00
1.345277790520481354e+00,2.898854903728523613e+00,-7.305482245138384734e+00
-4.179748599228116035e+00,-3.045132717809472034e+00,4.232406119495267238e-01
3.139594436754837403e+00,-7.428081841109139383e+00,-2.994903875162805207e+00
4.999862039836907357e+00,-3.070819934205038404e+00,-9.351521932898518852e-01
4.470009042901478047e+00,1.181495144440439793e+00,9.484718699106466921e-01
-5.002866935938654613e+00,-3.709976480547205746e+00,4.478302206086753889e-02
-5.165063997727438183e-01,-1.386850213822993005e+00,-3.861508758583787060e-01
-5.934146979131527111e-01,2.637329204019740470e+00,6.027003521291471877e+00
4.400389463256522582e+00,-5.361141062743364216e+00,2.041936350073278561e+00
-4.905918563508602226e+00,2.230062325839619941e+00,3.697297859319292002e+00
-2.107061269278929505e-01,-4.511657813008233653e+00,3.909200853148628862e+00
8.742542402235157439e+00,2.128311397947537209e+00,-3.850534281534791603e+00
3.280226945455189114e+00,2.672804272538523929e+00,-8.131893456861433167e-01
4.145128337431701337e-02,-8.556888603221219913e-01,-4.599999357360216479e+00
2.908467828465804983e-01,2.419738235211720045e+00,-2.020077100195881048e+00
-2.551155130246285818e+00,7.263519555038708830e+00,2.946101446606768093e+00
-1.226428285773769389e+00,-1.814914462584449772e+00,-5.537259072469360000e+00
-4.624467887522103915e+00,2.048022396815906421e-01,-3.732977825329155674e+00
1.136528827389167606e+00,1.792327129616037906e+00,-5.039612988452803144e+00
-4.484200372318670524e+00,5.795709895731221195e+00,9.623505513936088107e-01
-3.540733539480280356e+00,1.570328172516574305e+00,-2.701242693323165689e+00
3.313048295878270100e+00,-4.347458818440415595e-01,-5.201290449266888771e+00
-1.328261688133179241e+00,-4.316086667378049024e-01,-6.386866139491495176e+00
5.710019321841507178e+00,2.551577360487591761e+00,6.262782967393247524e-02
-3.618084581234474850e+00,6.590136076985142921e+00,2.027229158177405566e+00
-4.103574075614218941e+00,-4.383059298203211718e+00,-5.163209688632238503e+00
-1.137939255283368922e+00,-6.512964293607569566e+00,-3.992163939307817877e+00
2.612906504734243462e+00,6.593251189386388766e-01,2.690992399711957361e+00
-7.832514767390811317e-01,-5.309334407035438907e+00,-1.251100047118148595e+00
-6.347330539961254736e+00,1.440638700601364786e+00,3.331347917014367610e+00
-2.726494083386395317e+00,-9.371198365357793492e-01,-1.665981028280126619e+00
-4.549153536357501082e+00,-1.663195265558088665e-01,-5.471769967753682407e-01
-1.567456179744372902e+00,-6.195968001515499424e-01,2.667739399808208400e+00
-3.075467227744801413e+00,-2.639557329488550597e+00,-3.876961168092992516e+00
4.265486521287995103e+00,1.075428750773570918e+00,3.769332659850120226e+00
3.773153420261990743e+00,8.118102793893851032e-01,-2.890038866758981584e+00
3.951388892563904243e+00,-3.353438122070267813e+00,1.757525332420586950e-02
3.849071813577819690e+00,6.758388113071858716e-02,5.135496264027540114e+00
-2.675799690865324987e+00,-4.607552408480987793e+00,-1.214011455468466449e+00
-7.667948745091253127e-01,-2.213472484352018710e-01,6.952934530537910440e+00
3.185149915505441687e+00,-5.519660755295937804e+00,2.788995620905699191e+00
5.127950914833599327e+00,-6.893437836248205386e+00,-1.615096900980623529e+00
5.587245025692374689e+00,4.298956674642703923e+00,7.169606305713600580e-01
1.104604512657696436e+00,7.464058848892423548e+00,5.111577831896827462e+00
2.712680611027611446e-02,3.825690096253078210e+00,1.045988171995966942e+00
4.636460534509548204e+00,1.719115131520496220e+00,4.263099717234084096e+00
1.353177711857316945e+00,1.822388523560144247e+00,3.534021016771458523e+00
-5.930685131896511919e+00,7.207862124174079455e+00,-1.270080836921460288e-01
-2.465815921582042769e+00,3.555130496089234260e+00,-9.232400380142497198e+00
6.844222904984725853e-01,5.328524426904845512e+00,2.716047896972434650e+00
-4.382566279048133673e+00,5.418487336177790326e+00,1.586591382013512463e+00
-4.923036770755210512e+00,-1.506937000280018202e+00,-1.952218167363628964e+00
-6.212537104664971999e+00,3.685800944245576805e+00,2.839274886430398936e+00
-3.011335668980655633e+00,-6.159601792326444780e+00,-6.531322133409930508e+00
9.311116303179883147e+00,3.896350898353628356e+00,-4.129768444994675214e+00
-1.526462701714417891e+00,3.489975912693897175e+00,1.886411966113755723e+00
-1.674824406649482178e+00,3.360596595728666092e+00,4.945166320874244015e+00
2.945492922942778424e-01,4.604071911389730154e+00,-1.401717805509830495e+00
7.688957662955593353e-01,-1.722479260292913983e+00,-3.789350103963403438e+00
-5.023082752818081254e+00,3.349736367772088830e+00,1.799494020104304148e+00
3.752863916089194785e+00,4.413855874190420359e+00,1.192543160283208170e+00
-1.343398251293367540e+00,5.687135453646813943e+00,-2.187813671319280839e+00
3.797271564066994287e+00,3.508516356848192075e+00,5.014036736439414499e-01
1.315812797657309519e+00,2.536681503147173888e+00,-5.558196254294688110e+00
7.746294910449058158e+00,-5.965172315902974809e+00,-1.101560808132299396e+00
6.675808250032956082e+00,-2.644038074250357084e+00,7.005624536358951993e-01
-2.058636907730209131e+00,2.626011075935472672e+00,-7.594922752886119177e+00
-3.566121138233666610e+00,-5.572085345461669448e+00,-1.573272656624418397e+00
-5.644929493994967906e+00,-2.605876672968134855e+00,1.370624503671368899e+00
6.849114313086690053e+00,-4.703029508911556356e+00,-1.875797366631472229e+00
6.809222647111490723e+00,2.918222584248187701e+00,-6.545986990154539775e-01
5.726027717780855397e+00,1.612128034753374184e+00,2.609119436108749746e+00
3.449158897123131950e+00,2.856548131954636638e+00,6.765978549677246434e+00
2.331391392203170376e+00,-7.781998317488403316e-01,7.295648073316903570e+00
3.144706930183269300e+00,-3.624791166177368851e+00,-3.516853080878828308e+00
4.895982518241584813e+00,-3.530976209329159676e+00,-2.720963473878971861e+00
6.202039284484844650e+00,3.328108306932862526e+00,-2.402651045667987706e+00
-6.034270748964667419e+00,-5.229997918747629981e+00,1.957367669084092432e+00
1.759400880168315029e-01,-8.634780663863683703e-02,3.847024738578039837e+00
5.672401521071499531e-01,-5.517893324318881909e+00,-3.990406324538644522e+00
9.164493542205494059e-01,-5.410872831764834245e+00,-3.695457276301395311e+00
2.797719380568274072e+00,1.867044940448591372e+00,5.126076513230184872e+00
2.397018647473723618e+00,1.365714316075204993e+00,-5.567822533156581599e+00
4.965826030776774758e+00,3.347328262269265498e+00,2.230638397534919104e+00
-2.267603234302312920e+00,-3.910286898595791150e-01,4.811746109505162239e-01
7.436291476856226046e-01,-1.527767435350250835e+00,6.783923049643816761e+00
-5.532746733626562552e+00,-3.247674257348102111e-01,-8.325529482805477111e-01
2.076461182805738659e+00,-1.228394424800275386e+00,8.638985312812533790e-01
-3.858216124729157315e+00,3.072924078961265959e+00,-3.769238516103108783e+00
4.425036607586133597e-01,8.234567775295292824e-01,1.514348985624761168e+00
5.958223752147298491e+00,-3.964876891163930939e+00,-2.478500365636988612e+00
5.047405967941029914e+00,-2.302385186359600766e+00,-1.747090932988152989e+00
-3.609172925283366418e+00,-8.160278343460141137e-01,1.229867413381869001e+00
1.718166555509953008e+00,-9.939348213819029221e-01,4.839031037130914648e+00
-6.228330334807169244e+00,5.822499681168546992e+00,-8.398302741142347205e-01
7.580778843124155175e-01,-4.155069081117991558e+00,8.582936202311095997e+00
6.326252054724470497e+00,-2.519150244651252812e+00,2.037062966758913518e-01
2.201225141118031914e+00,2.038816630593105916e+00,-3.898149663560947609e+00
7.196460266283422946e+00,-2.099225047111224374e+00,-2.910153905926043283e+00
1.825341334099672475e+00,-2.589686529814782534e-01,-1.398871471025261659e+00
6.994968328534926449e+00,-6.517537842361331712e+00,-1.007185047000564992e+00
9.800978649080656080e-01,-4.355866925572966508e+00,-3.711154476946650682e+00
-1.907904247094612593e+00,1.063803192342741122e+00,-2.135700375428278175e+00
-7.358976910525950821e+00,4.833653450908161453e+00,2.051558188296164431e+00
-3.079135761795838810e+00,3.346395365417245138e-01,-7.916951522777771366e+00
-9.600071840984947258e-01,-2.247052254757193168e+00,3.219928596390259301e+00
3.779420964626158508e+00,7.543422062712182630e+00,4.417091978770690375e+00
6.926497765545025054e+00,1.433689735985385738e+00,-2.902458960420653433e+00
-4.644186794429379539e+00,8.353344799578446001e-01,-5.715212819090118579e-01
-8.413109424145195803e+00,-2.731463808070322408e+00,4.404022280617375884e+00
-3.466305550682588166e+00,7.667599982425911342e+00,1.936443240298399537e+00
3.361355273103408869e+00,-4.298727540458830099e+00,-3.430621962943084746e+00
7.843479173480754074e-01,-2.173209604303579123e+00,-4.294846588140807775e+00
-2.744197744448572784e+00,-5.506225569041756529e+00,-2.346261693637594181e+00
3.219508261822444428e+00,6.476523127498460042e+00,2.307295238291654726e+00
1.995998742065808518e+00,-1.245410741326510529e+00,8.609464706118743482e-01
2.712131678341295427e+00,-1.291017902295852560e+00,-4.125341488872676265e+00
-3.929421496956190918e+00,4.003020283145373170e+00,-2.918043426361948800e+00
3.543138264465798049e+00,-1.319540951978551702e-01,5.952703034898423340e+00
-1.337072683756111546e+00,1.715324540550829668e-01,-5.102698146480791230e+00
-2.884936179168899439e+00,-1.850844517962034474e-01,2.385686467243428588e-01
-1.671807150214828175e+00,-4.472621425714688459e-01,-6.351759167406815898e+00
-1.953858272509127803e+00,6.010222101249342863e+00,-3.020825534401101020e+00
4.675840084014381226e+00,3.310649454222313715e+00,2.887454052956268669e+00
8.728678338914482859e-01,-7.766007125168814529e-01,8.053368469575728383e+00
-2.965058518108661278e+00,1.057481155791011540e+00,5.305619168888739523e+00
-4.389664576845079047e+00,-1.240507737883818740e+00,5.470791413341516751e+00
3.734554872107676005e+00,-1.173961355629711489e+00,-4.907725737891649231e+00
-4.924835676038254562e+00,4.176511542324356618e+00,-3.390549588925016788e+00
1.512327805687731175e+00,-3.406291565789669740e+00,2.439284411322803159e+00
-2.005392807574878145e+00,-6.324326666088288640e+00,-3.171091663684281414e+00
-6.113546684460682279e+00,-3.817647373477598194e+00,-1.417478497655044301e+00
4.020060288434225804e+00,-5.422905829025661539e-01,6.312677460923017847e+00
-5.350092060181609099e+00,-5.210098584653271026e+00,1.431221140479186360e+00
5.830100080907216764e+00,-4.055851674187861633e+00,1.527392942393820396e+00
-3.923563876729359023e+00,-1.043482444724470604e+00,-8.367648927712948437e-01
4.990069126207410832e+00,-6.519308519208489194e+00,1.194222141692849348e+00
3.765747170193693094e+00,-2.776612316962982163e+00,4.184454907889283426e+00
5.766418380231795204e+00,-2.087331284061634484e+00,1.613830104483970240e+00
3.704637484648471979e+00,5.554720301755592393e-01,5.397087836733939881e+00
2.669727717314007709e+00,-5.738804034951821009e+00,-3.720740646209213853e+00
-1.248109661387508451e+00,2.593579410838452670e+00,-2.891300253199872827e+00
4.048704458704118103e+00,4.469449636190473640e+00,-1.798287548964743410e+00
-6.864320942983028750e+00,1.113181973717862538e+00,2.342790245406664029e-01
-2.845759114919443444e+00,6.567080378434265064e+00,1.044683102937173480e+00
-3.456518669816030620e+00,1.421440140304977895e+00,-7.315369503126106565e+00
-3.624264716680079434e+00,-3.993014944160189650e+00,5.771843757809323350e+00
1.607406384973982805e+00,2.955201625030941415e+00,-6.354874980701721299e-01
-3.258866847896175756e+00,-4.092159028139698229e+00,1.669799876046959286e-01
7.050827870975799883e+00,-2.845665612435181568e+00,6.026055816099417511e-02
-2.698189071142629292e+00,-1.210697425762673030e+00,6.784398090950593208e+00
-2.772443196367586626e+00,-3.691299733629549440e+00,-1.196177755848446544e+00
3.497758791801124090e-02,-4.039695315811896670e+00,-3.657227956238444211e+00
7.799918352093938800e+00,-8.704847513418775273e-01,-2.107237741419486277e+00
-2.356507031315370426e+00,-1.381620138669902964e+00,-5.355553865694750115e+00
-3.076457874854000352e+00,-5.604183306017359811e+00,-4.978332221222443010e+00
-3.265063577550137541e+00,-2.684937642892388343e+00,-5.497766828250972182e+00
4.073732560801582636e+00,3.384744370791144263e-02,1.919684712977906438e+00
7.783481500388308660e+00,-2.274873050073784597e+00,-2.486112144110357747e+00
2.591780371119956072e+00,-3.004646528610305456e+00,6.716599403956478476e+00
-2.455758752350393426e+00,-1.803927894383952513e+00,9.371579848068941621e-01
-2.429918021840666409e+00,1.424445692185629886e+00,-5.261696170386710669e+00
-3.454696439637318761e+00,-7.455189629972832632e-01,1.774332946182270776e+00
1.407890495591937130e+00,5.716466466542196478e+00,6.412789089289155919e-02
2.919771870113671675e+00,-6.189453830661879152e+00,1.433076672206238911e+00
-5.130386236158536839e+00,-5.936029804859372927e-01,2.278944849490855074e+00
-5.960693059812037786e-01,-1.544890625169119014e+00,9.568382289333862145e-01
1.731765134517049054e+00,2.438219128587482132e+00,-4.619778124434255950e+00
4.344135246711921639e+00,-4.578996622385012039e+00,3.353456969225378170e+00
4.867465203417432384e+00,6.214371555290640892e+00,4.336970017238149566e+00
5.011783668295406002e+00,-5.805760516657930914e+00,-8.429566017038628845e-01
-5.343659037563233127e+00,-1.953446772927247777e+00,-7.208840509185397982e-01
4.416262658409026987e-01,2.729860388075598276e+00,-4.778888883275174138e+00
-3.381717706054162331e+00,2.342022502148155993e+00,8.218778784189638420e-02
-3.864431247493222976e+00,-3.085846982766855984e+00,6.918352604301014175e+00
6.524088021618472233e+00,-7.439614952024208527e+00,-1.369422249787478618e+00
-5.404091330505205626e+00,1.482983378734407776e+00,-1.292024293473438279e+00
5.445114336646089015e+00,-2.582254252902391300e+00,-2.972162570562841388e+00
2.487532145712604059e+00,-2.654727133494126257e+00,6.293202102640950812e+00
-1.327792704932066581e+00,-3.565370245282445616e+00,9.923847659703511903e-01
-3.523083198888307788e+00,-3.528299888601124312e+00,-2.243378188596135470e+00
-4.595299525189347478e-01,2.379885544891346127e-01,9.741564548908732135e-01
-1.082628379848130928e-01,-2.787212113627092869e+00,7.351478008124272101e+00
-2.666516751062512292e+00,2.549534558691316732e+00,3.613926523076607999e+00
-3.379715540034120114e+00,3.807152933935725514e+00,-7.631437260353420626e+00
-1.267866133219825164e-01,-5.887903597994140981e+00,-4.419029096147534474e+00
2.651297920757412996e+00,3.837137873226327933e+00,-7.655225938813146946e+00
7.985463609043173427e+00,1.321592759969472786e+00,-2.259339634878040570e+00
5.144133100309332685e-01,3.073427662361556401e+00,-5.267103620225563887e+00
3.320878791988444600e+00,-5.542680465758358821e+00,-3.500919031114989366e+00
9.977476849169456541e-01,-2.706690782424888475e+00,3.497730209943051172e+00
-5.056891306740476821e+00,6.192455170400364750e+00,1.154204743719320775e-01
2.292034477088260580e+00,1.453995655597204673e+00,-1.542979057957657218e+00
3.788008865808969450e+00,-5.142085527895370767e+00,-1.319161031781772575e+00
4.819318485987246881e+00,4.399445850607595965e+00,1.096072398191293706e-01
3.452550859055341981e+00,-5.751389217509612628e+00,-3.575930024568999333e+00
6.789866465205191659e+00,2.257257578915359275e+00,-1.678841532994796992e+00
-5.754630925880042547e+00,4.557473824271186302e+00,-2.501004095011582606e+00
-2.183621779585942502e+00,-3.088114731820343017e+00,6.860835171683171474e+00
-7.272947247289752504e+00,3.694716811044676419e+00,1.869853227713290877e+00
4.486467920806856746e+00,-2.284970755080197424e+00,-1.369135726909628925e+00
-1.676077229605201113e+00,4.500552890993508193e+00,-2.330254956427303403e-01
4.547524277306679075e+00,2.563073682501596284e+00,-3.614448867102767332e-02
7.396167889470982582e-01,2.223803653898952071e+00,5.836918853363034287e+00
4.091535703014532288e+00,-6.804208571523746585e+00,1.469962898104394622e+00
1.191777778272121724e+00,-3.074587458812726215e+00,-4.283320316881820133e+00
5.783136924886907337e+00,-7.649398171117524292e+00,-1.487216917520916670e+00
-5.905752677478584012e+00,-6.082207908078588687e+00,-2.264042490740052926e+00
-3.714293414617568789e+00,-3.710836610023056537e+00,-5.351319426162168824e+00
-5.737618680203375732e+00,4.715943009989410406e+00,-2.876051307249499533e+00
-3.504710189988561320e-01,-1.763609120183000423e+00,-1.878002753450139783e-01
4.655937866622472221e+00,2.196307216727612921e-01,-1.992893201454517316e+00
4.686714219594144026e+00,1.117629675559653757e+00,-3.819358995340055074e+00
7.560389708936602338e-01,4.441174647570780287e+00,-6.790598610113720568e+00
1.221002217408251544e+00,-4.081827135821424757e-01,-9.394780605958735764e-01
-3.186407975558148142e-01,5.947237312378286234e+00,4.667088818870933409e+00
4.958480235369753686e+00,4.249636938023009236e+00,-2.188476026049461787e+00
6.165817129970692534e+00,3.444936275079332422e+00,-5.753533389244679164e+00
-2.575418024147277496e+00,-2.193665101790369221e+00,4.060967337553348599e+00
2.615514598577449057e+00,7.195813987819488222e-01,4.604198373639754038e+00
2.453104145677470704e+00,-7.980224801777126009e-01,9.365915614611071138e-01
7.522005617730864735e+00,2.826021041459884753e+00,-1.372131875726203099e+00
3.455108222376645166e+00,-5.097418743969873489e+00,-3.634505186901238361e+00
-1.417396650082092480e+00,-4.986568684270523910e+00,-6.892005794333444513e-01
3.607467797953340050e+00,2.643631624191358220e+00,2.564676001023654894e+00
-3.200123056478702543e-01,-4.779748338483493786e-01,-5.079234510905429545e+00
-4.544554798357004266e+00,-2.612546665371899390e+00,-4.648445915901870507e+00
-1.075577596226970689e+00,5.527158225196123098e+00,2.823347921686552464e+00
-3.217392554411771854e+00,-3.903542563393061826e+00,2.980608068954630596e+00
