-4.603884371036648382e+00,-9.285801936999323658e+00,2.860298083779351241e+00
9.468428359827813168e+00,-4.390747936847492205e+00,-1.088318286833428061e+01
-8.548808224554086621e+00,2.348943710834371146e+00,-1.925026500627980086e+00
-2.173861381560738160e+00,-4.473446332469311670e+00,2.022485821253520388e+00
-3.431243645227499695e+00,6.000305446843451129e+00,-1.153142984141824590e+00
-1.317433629072930934e+00,-2.721643748943897823e+00,-9.385726657307487120e-01
-3.335428896296235152e-02,3.967260609357739387e+00,-4.663991702013915663e+00
-5.425897403454146506e+00,5.530379187614811620e+00,3.258252069310426102e-01
-2.607196129974543197e+00,-5.402953600583925153e-01,-7.064137753665845842e+00
-3.511831977305737595e+00,6.695125885483968808e+00,-4.904222372768815674e+00
-2.278512152077246888e+00,5.834386071301608245e-01,-7.507758128706997880e+00
-6.032175660606482026e+00,3.860428573978472500e+00,4.439271519598195326e+00
4.873583669177094180e+00,7.499771404882654480e+00,-2.991458030482990749e-01
4.969149752869295611e+00,1.307504377087960812e+01,-6.146950639616977519e+00
1.032820938415289369e+01,-2.523050450821112456e+00,-1.143307528932523098e+01
-6.320840270837231323e+00,4.175403832026587381e+00,1.072466826788610739e+01
-4.484694697584024503e+00,4.666588465048786993e+00,8.534829646816668003e+00
-9.185305318700363486e+00,2.477559344362747495e+00,3.565553815277097360e+00
-3.622857926713584753e+00,-1.197991388924991574e+00,-6.667760026431770015e+00
-3.507965269506372330e+00,9.962655312502450844e-01,-7.513139546678906378e+00
4.712139397312974154e+00,3.888823036974874636e+00,8.524732357300493391e+00
1.673004571229079085e+00,8.204027063001195330e+00,-7.286214747604703668e+00
1.714179573893679365e+00,4.594750508904055231e+00,9.438877195955400978e+00
6.595252592945880288e+00,-2.323373142303257310e+00,-4.047810075736553159e+00
9.348402188059351303e+00,-1.316996124358458031e+00,5.377824797035936299e+00
7.038735671757261336e+00,-1.127297210291745122e+00,6.741728299387049761e-01
4.317911631490751745e+00,8.557874965372089804e+00,-6.498550905462002092e+00
5.288104814094234385e+00,9.248521886264295944e+00,8.137019503252821195e+00
-4.657259542487317994e+00,6.161339241454122373e+00,8.542622447984907552e+00
-2.859245221572478179e+00,3.082166936399082680e+00,-6.815428401532649616e+00
8.795336806721037348e+00,-6.506357774693411145e+00,-5.021203926920096983e+00
-4.363622012535730121e+00,-1.231184202820289997e+01,2.953486970807726930e+00
-1.131679820267279091e+00,-5.974513155032127543e+00,-3.598805119557635823e+00
-1.354607500640999662e-01,-4.556314525370849466e+00,-8.027613800041949688e+00
-4.814640713621138879e+00,-3.971486654527573545e+00,5.541271308217464941e+00
2.080995906113699334e+00,-2.675921822220713175e-01,1.814930273454629539e+00
-4.512658387632516366e+00,5.229805141919183775e+00,1.430622337398885113e+00
-1.131199882145600411e+00,-3.699328386598466634e-01,3.704704814619244946e+00
1.124654748260010528e+01,-6.697273664872748888e+00,-1.681285537769240834e+00
4.701585709803452140e+00,7.032331908341842741e+00,4.098219112582540902e+00
-7.435811697960617472e+00,-3.228147189353607782e+00,-5.909148457717910752e+00
3.490696751613300286e+00,-3.259918990033280117e+00,-9.933659717627968400e-01
5.431273040646527051e+00,-3.772615502140861388e+00,-3.081991752272829288e+00
8.359349874979866257e+00,3.720855061124411112e+00,-4.718853969694444928e+00
-4.575481643559710321e+00,4.263650943639354374e+00,-7.929948422949344433e+00
-6.402831580112345655e+00,-5.396698000264504635e+00,-2.655666631519100207e+00
8.183940375195852823e-01,1.002561579315611695e+01,-7.764891545701729569e+00
-8.055477628833151993e-01,9.887665469252903350e+00,-7.804061700682958680e+00
2.043066307595398090e+00,6.019008831761340161e+00,9.178361332754204627e-01
9.008813703277676055e+00,-3.633249334626445393e+00,-6.520877269703951207e+00
4.455978676227254631e+00,2.902975874942193446e+00,-1.092325375903411722e+00
8.986768398043826878e+00,1.695866901833648299e+00,-1.951564522058550244e+00
-4.735232953902898778e+00,6.423402084448853522e+00,1.189421278822424988e+00
4.996995738237087759e-01,-2.078211356557185585e+00,-7.196367903865788840e+00
-1.056312456255818866e+01,6.951473740903058030e+00,8.444334122509230545e-01
4.645216083185863098e+00,8.547442284998982842e+00,5.961773202128238580e+00
9.149668341918685499e+00,-4.263038517608043421e+00,-1.169748640371774862e+01
-6.084999220636528428e+00,-1.137749641045718008e+01,1.938547085715515816e+00
5.315596850036220289e+00,-5.681754587943855128e+00,-1.122781064531047157e+01
8.873058143785286234e+00,-6.636297621611586539e-01,8.629536033057899624e-01
-1.571118774731766532e+00,-9.702354578300795396e+00,-2.439334718532933266e+00
9.629708384070021499e-01,-4.315997929379397746e+00,5.551814151729132618e+00
-7.748915325149240196e+00,-6.402095464289131677e+00,-5.758283214610520950e+00
3.053870074088417041e+00,9.654127148396824509e+00,-3.251924520111497241e+00
6.822268860973194071e-01,4.471289941894497133e+00,2.733055714893935839e+00
-4.340300661577178865e+00,-6.675766698876262062e+00,2.209913076386218922e+00
-6.812607470570283041e+00,-8.068514089412124335e+00,-1.162292827477843815e+01
-4.097439393565323051e+00,-7.844110497131816295e+00,-3.304868484802223616e+00
5.871789680770409525e+00,4.344201533809104454e+00,-6.401522228238384571e+00
5.112479364310551944e+00,-2.204062322630785609e+00,2.504924326897127962e+00
-6.427046786329393413e+00,4.884401426653961487e+00,-6.756992104639506280e+00
1.200825814214591114e+00,8.896593397848672424e+00,-1.431152737490964721e+00
-3.654916252883337879e+00,5.409001356253122061e+00,1.119503481313277504e+01
-1.264264451996273575e+00,-6.473043690678408346e+00,-1.173471175204631933e+01
-7.224339071780767618e+00,2.723613499944775640e+00,-5.536065862929155479e+00
1.116138338586299206e+01,-6.177436443181617776e+00,-4.921273925317419362e+00
-5.175348854208517757e+00,4.652791351723789326e+00,-2.619013839940049770e+00
5.809881489126836662e+00,9.214447022869263648e+00,-4.154631769047105294e+00
1.900697060410688755e+00,-5.509942433851949595e+00,-8.033829150832815458e+00
7.419084214158147006e+00,3.077482189851930006e+00,5.047846609340633783e+00
7.775313532235184066e-01,6.480504714462449023e+00,-8.483969436790395946e+00
-6.004537758835383210e-01,2.431543280170129773e+00,8.955353253350324394e+00
5.644599883540614371e+00,6.374600444425893464e+00,-4.532896051600789455e+00
8.349259036109600629e+00,4.017929920631765350e-01,-2.455949955061033751e+00
-9.195908153988066047e+00,3.941245976121161010e-01,-2.676014147568417378e+00
-5.743732128467107678e+00,-1.290787196387863212e+00,2.154459684839234335e+00
6.553554739024042952e+00,7.482471828283046023e+00,-4.959735412004830479e+00
9.787739794569132457e+00,5.736384295332875860e-01,-7.451348865327410920e+00
-6.567455876649788138e+00,6.644868519743277524e+00,-1.235454631289899297e+00
5.826171121425378630e+00,-3.215241385580134281e+00,7.268423984561013462e+00
1.246656979968696843e+00,3.326306323599546033e+00,5.063923116509534417e+00
-1.113751179750636133e+01,4.502534891614828894e+00,7.474273330885502276e+00
-2.640897060648826677e+00,-5.467454866179398465e+00,3.356580671031620611e+00
2.231751605800603055e+00,-1.061126067674596385e+01,4.340228122014754497e+00
3.869277342617477355e+00,5.622951416635440403e+00,-7.220361664843606420e+00
1.134773415062097085e-01,-9.262506339962184754e+00,-4.297085027964055115e+00
-5.070462564744248724e+00,9.502818839389899352e-01,9.106167109122862868e+00
-9.693755445761172151e-02,8.065316191963184167e+00,6.838962579914448447e+00
-9.214498117535928401e+00,2.671937433121635008e-01,-2.749574745958441868e-01
-4.703083789405731352e+00,6.120780036278561376e+00,1.895045901895070495e+00
-5.547973702997198941e+00,7.055288951515866103e+00,3.934572432045804202e+00
-7.673647234762200675e+00,-1.003949662015265076e+01,-1.839023233880439534e+00
1.865112461490376836e-02,-8.996715425545634304e+00,6.914078363171828556e+00
4.761091337607311402e+00,1.101065811328046173e+01,1.746524271459110711e+00
-2.190196211517106750e+00,4.916696148478633788e+00,4.317085698602415533e+00
-3.298765565419937928e+00,6.501359813974756818e+00,-5.625996110423820085e+00
-7.381832307736468479e+00,-1.082548931104970573e-02,2.185228633838263157e+00
5.271377574587843284e+00,-5.177436175057952283e+00,-4.568871041680284129e-01
-3.592456984990243019e+00,2.565589547885799959e+00,-1.895493993870426552e-01
9.210809648894697332e+00,3.668573500809698906e+00,-5.717327452899152007e+00
-1.288363323966421836e+00,-1.144523879170022695e+01,6.694480539340556646e+00
-3.240625445168514585e+00,-4.252880339456688752e+00,-8.044535571958149944e+00
-6.524271459091718128e+00,1.753042241520030409e+00,8.399170036858413013e+00
8.918945536243866101e+00,-1.052938936985366780e+00,-9.569550748378773619e+00
-1.005849796928317907e+01,6.771886248871871850e+00,-4.762383262693899333e+00
2.859951301314785255e+00,1.036366737426993190e+01,3.293417023406416400e-01
-4.260818687492797352e+00,4.072996240497724685e+00,-1.490242911022886751e+00
9.804243648028798219e+00,-1.910918381064277582e+00,6.900092257349778713e+00
7.287138564288189180e+00,-9.252817886368406297e-01,-4.424084141442293117e+00
3.064699820688951526e+00,-7.027151416583600430e+00,7.439495100501147817e+00
7.178283728958641419e+00,-6.404071382211888874e+00,-5.192205927374534014e+00
-7.922593046376346315e+00,-7.678795556380266341e+00,-6.554019791386114235e+00
3.087500537316622218e+00,-5.088580047993239930e+00,-1.037276819833409469e+01
-6.166912313416466951e+00,1.455078911797846652e+00,-4.566692788586104168e-01
-6.224248089085897551e-01,-6.338495082093917432e+00,-2.080838228544578339e+00
-2.264010600807495610e+00,1.483881856235964802e+00,4.689570926371610327e+00
7.407099095870739447e+00,-4.261126762226027154e+00,-1.319948284750664669e-01
2.775483260275460662e+00,3.391232320295832103e+00,-7.283413637489093873e+00
-8.614884339040180805e+00,6.223056433446776392e-01,8.766618439923732353e+00
7.128833399693608186e-01,-2.287535482686603672e+00,-2.128537184890902267e+00
-3.283641254885687477e+00,8.173447119289596330e+00,3.655730970993900653e-01
1.924148737620107408e+00,5.759973250777743026e+00,5.199039268581876705e+00
3.159276428235483269e+00,-4.130506659237616063e+00,-1.072533400294086370e+01
-8.846390852937832117e-01,-1.205732038081497537e+00,-6.712248653622759242e+00
-6.977499000358197812e+00,-9.958011146558909843e+00,3.618956965390064173e+00
-7.845748772419576689e+00,-7.638386935935463917e+00,-4.978208707746060391e+00
-6.970548172569408507e+00,-5.383665553434349604e+00,-5.467334424382080726e+00
-8.590676806725527470e+00,4.964582531623124240e+00,-6.293745792453917076e+00
4.362816145747727248e+00,5.307119619344058847e+00,-1.098749394564867199e+00
-9.157969202084490945e+00,4.311615382995322987e-01,-2.974124095626581088e+00
-1.047483101045166443e+01,2.106381006268447376e+00,-5.100273093449803063e+00
5.268632778602762912e+00,8.608288336282341469e-01,2.498327263966453771e+00
-6.513589473334648439e+00,-7.043018017846945256e+00,4.723547659822952660e+00
-2.797560231736742509e+00,-1.029684917037284642e+01,6.802560119911958969e-01
1.046101237615990520e+01,-2.414452790061482279e+00,5.324758349123370316e+00
-1.015249007935142700e+01,2.257932148270281880e-01,-3.612442474408362525e+00
7.109871948777053419e+00,-3.012601907322351114e+00,-3.749163874258851781e+00
-8.851140352763376740e+00,1.526858039369692888e+00,1.048594186495123637e+01
-3.471528922622027835e+00,4.715552143984454325e+00,-7.577263918444047341e+00
-7.845688768196944274e+00,-3.739240909808075664e+00,2.615836273208288265e+00
-4.250528165306879380e-01,-5.919452781058547330e+00,-6.635444181224809945e+00
7.392271279224712721e+00,7.333908308609808024e+00,-5.345804805902404588e+00
-2.518475224958258707e+00,3.436114285806448621e+00,3.184658458109478119e+00
-9.288991068367508319e+00,6.190977085870930985e+00,2.265286312252847267e+00
-3.751788105430067799e-01,5.806745139509739140e+00,2.991016541767986592e+00
1.129764015236776019e-02,7.486881248872617745e-01,6.760106036147375264e+00
-7.784100002118889527e+00,-3.719370239721706550e+00,8.843588660008339986e+00
6.749286902577553704e+00,-8.420532008535813517e+00,8.159139430906473534e-01
-9.653668844083762579e+00,-9.294192366689902132e-03,-7.920234427640215458e+00
1.041702823140320788e+01,-1.694580724467163790e+00,5.433995017564122954e+00
5.010458603188203242e+00,4.727582456197861660e+00,8.605851117887983293e+00
1.101712156082743022e+01,-3.725482835583977081e+00,-2.050015801009195116e+00
5.584173077734638113e+00,4.277251211744560244e+00,-2.792230967947033626e+00
2.451350857310622189e+00,-4.074856019646619032e+00,7.129722946416809926e+00
2.451550646492550722e+00,9.294886546194769394e+00,5.212212514488755666e+00
-2.574038889747440439e+00,5.195114059432879294e+00,1.857624970514735629e+00
-5.235850927708540326e+00,-1.745803218747529195e+00,-4.794678983078437540e+00
8.374528498112836061e+00,-5.297688885379872037e-01,3.667009213938667855e+00
4.814733815537755923e+00,-4.897026328660325944e+00,1.277287112663109792e+00
-6.349861655706884100e+00,-2.238151882240527968e+00,-1.136411559973554419e-01
-2.729774350793303661e+00,2.614264847438520611e+00,-3.583444165056769215e+00
-5.655011223285233868e+00,4.290445115219164052e+00,1.913249768521349425e+00
-4.910695225668241015e+00,2.879340054766351908e+00,-7.770628702155454981e+00
4.398597575653557357e+00,7.770439239951517862e+00,6.155304097260662743e+00
-2.710432347476228188e+00,3.943769226515261295e+00,5.965370655317882020e-01
-1.786201591594893889e+00,-8.929691243311834725e+00,-7.387789176035798100e+00
-8.440950677991564177e+00,-7.395317093259778929e+00,-7.926237466607411797e+00
-8.737602784266950806e+00,2.938607294132496328e+00,-6.507359941885071386e+00
2.108146150834224741e+00,-7.692952788326229197e+00,9.848068463423567120e-01
1.977992552983272700e+00,-2.228436035061751141e+00,8.764939219587251529e+00
-5.557198748572815816e+00,-6.119118347986383100e+00,5.220897127378377967e+00
1.245295318952312158e+00,4.031257063507715621e+00,1.005483125186083626e+01
2.197492018400682756e+00,-6.230886815938074363e+00,-7.872132587409198301e+00
7.405104046574615850e+00,7.865305735336451498e+00,6.664112029471910503e+00
-7.048599294850991015e+00,3.214994975743811767e-01,7.960878868945782116e+00
2.659519212788714615e+00,-4.891874459993914570e+00,2.487090713399026320e+00
4.415661397051775516e+00,5.223822810803304684e+00,1.896464781964777080e+00
8.163958351908602751e+00,-1.181590401676798630e+00,-1.697764075658578120e+00
5.877182112491201593e+00,6.130636949128689395e+00,1.002154779428203746e+01
2.062192648819664686e+00,8.003009442377580385e+00,-7.710533410787522968e+00
1.008371042294016817e+01,-2.224597120381670567e+00,3.400129931980810483e+00
4.905901313402642572e+00,-6.429681034102412873e+00,-6.388024785098073366e+00
1.070639047571174984e+01,-3.744318058688569817e+00,-5.265405914537916843e+00
8.238550010701743531e+00,1.093336907772054500e+00,-9.714710478804624572e+00
4.405341412517886468e+00,-3.046241410501870361e-01,6.574075733677702260e+00
3.049856442876367701e+00,6.187221692767757020e+00,4.169244425437998558e+00
5.901648836079535165e+00,-7.648677014406876751e+00,-1.129644305020014006e+00
-3.495434185168245556e+00,-2.413448553431680743e+00,4.453401954926554218e+00
-2.242983728125087950e+00,7.845904540049228437e+00,-5.924824077196631400e+00
6.470867907768793614e+00,5.212492358026387329e+00,-2.656036958396676417e-01
1.114318034311288924e-01,-2.266166283600898446e+00,7.331119845757904763e+00
-8.673792996872172978e+00,-2.972270503848048584e+00,-3.403829325064992251e+00
-5.520906492673129939e+00,-2.451008834918911639e+00,9.175629634548265745e-02
-5.377028861308931873e+00,7.584901076837715195e+00,-7.150633047171291778e+00
-1.462968038550428451e+00,-6.669301292650978041e+00,-6.510202812584690690e+00
5.624879487522610688e+00,8.967455705326210946e+00,2.319443653651729331e+00
5.795721612303001535e+00,-7.282306866716250049e+00,7.193813986337690203e+00
2.106577335118934968e+00,9.360680986675770754e+00,1.380050039340867229e+00
3.864546167529627763e+00,9.359030401104838859e+00,-3.338191011251623763e+00
-9.770356758185931412e+00,3.816298550422230207e-01,-3.014252399069476396e-01
1.283115136680293089e+00,9.343020825918483041e+00,1.591929409406048990e+00
-7.921244059947138538e+00,4.579992254245755845e+00,1.095004689502104966e+01
-4.025383726416385421e+00,2.303902992761889035e+00,-6.059015730094144736e+00
2.916342447139292915e-01,-2.068649505880221229e-01,2.590712321255108641e+00
1.900706873460532131e+00,-7.948783125486212242e+00,-4.536439650475520224e+00
-7.632731975991601026e+00,-3.017843165257865667e+00,5.279329346776972187e+00
5.483649081740327169e+00,-1.387435889591999372e+00,-2.259378206529774058e+00
-6.178124881511445565e+00,3.524422953676872527e+00,1.911803726331486653e+00
8.037905230692153680e+00,-5.424714747786392621e+00,-4.943624578024508942e+00
-5.553223999869481453e+00,7.933704362922929576e+00,-2.445796290185116018e+00
9.711343032664316866e+00,-1.354658505184943795e+00,1.190549669344136863e+00
-4.776829231824589073e+00,-1.141098499783460696e+01,9.501343905739779716e-01
7.462962641797968644e+00,-7.951267897009759444e+00,3.795501693742262539e+00
6.516683054489619487e+00,-5.996093891993232283e+00,4.127195937110381685e+00
2.179130041062838696e+00,9.542468946263625185e+00,1.337464896538387737e+00
-1.150369549724968010e+01,7.357948014135357262e+00,-2.628658470604987585e+00
9.995742218768224774e+00,-1.639640887286483995e-01,-2.735893512958289531e+00
-9.585831156922857588e+00,6.016174181004260824e+00,5.963239905389944973e+00
-4.918997037848675369e+00,-6.512908247557163577e+00,3.153968644768470497e+00
-3.018708953827484720e+00,-9.727601940697022442e+00,3.489579316140545284e+00
-2.893377572852024571e+00,-9.174214887331524793e+00,-2.064457243186035296e+00
6.232381740415757321e+00,7.853899950868457047e+00,5.212664725227451612e-01
2.378132845442148202e+00,-1.237246186540351234e+00,5.223840876870680994e+00
-4.642489563362086180e+00,-4.485392468690777013e-01,-3.982170931902429878e+00
-3.698226933590836207e+00,7.770892122195079743e+00,-2.317301124999637363e+00
6.045098819173924554e+00,-6.160475913952226712e+00,-2.346389947068309834e+00
-9.671085601746238325e+00,4.512182718542465665e+00,8.690993323239490920e+00
-7.934257784758066201e+00,-4.548925562849093218e+00,-3.829698741301835518e+00
6.385008014329836001e+00,-2.260241505979863952e+00,-3.634675105077209256e+00
-2.718161945887819009e+00,2.267708930993420413e+00,4.587505128180739966e+00
4.415903417697312427e+00,7.095288253813465396e+00,2.003733126842239365e+00
-1.048198499573964604e+01,8.432943248621318943e+00,-5.842878841487301855e+00
-3.317717671702482995e+00,3.878001893927690347e+00,-6.353524015754891785e+00
3.228492672735612246e+00,1.899524488371628239e+00,-8.548163600531207829e-01
-7.338598875412351674e+00,7.690571654642180732e+00,3.742041929038314230e+00
-2.299625609132381898e-01,-1.706413630778287560e+00,2.461807799908394268e-01
-5.039886622463781940e+00,-1.058811229271471177e+01,3.171137187454070361e+00
-6.076947898019827932e+00,-4.031773122901309847e+00,-1.046040031184837460e+01
4.713548371184141494e+00,8.721507013220747284e-01,-3.849031285022064708e+00
6.343164598138677057e+00,9.542934010747007534e+00,1.969755972969399194e+00
4.637742192468320646e+00,5.969241685329248481e-01,-6.476567348938004898e+00
-8.363930425577397187e+00,1.358518698598912611e+00,1.905511810486778312e+00
7.753598784492746532e+00,-5.123017177228206265e+00,5.291579658030319600e+00
3.056586930343803576e+00,4.861675108441014359e+00,9.182460435939344023e+00
-8.338097087969900123e-01,4.330636064697669374e-01,1.405759625078669472e+00
4.951742574091992033e+00,4.218370509676123703e+00,-1.452706066534320550e-01
-7.050877334863724144e+00,5.615275297694657830e+00,1.080390966406826303e+00
5.393565642346249689e+00,-3.839112683301957318e+00,-5.964481419247372962e+00
-2.859808663033138743e+00,-5.746050391081594988e+00,4.702958834754208617e+00
4.586155141667796364e+00,4.888177087116114095e+00,-2.138965176283796232e+00
4.993140209054377721e+00,3.652511339872108742e+00,5.656888055649469393e+00
3.589657986788997945e+00,1.878841284842485582e+00,8.094125770314860802e+00
9.434698287237335279e+00,9.094376054197489401e-01,-3.285727893505771213e+00
2.547617738405098198e+00,6.012252164363018458e+00,1.195404319019031325e+00
-4.003251448419525182e+00,-7.991410971813488473e+00,-1.166213366901541448e+01
1.008919133393316292e+00,2.453984701589403961e-02,-9.477854530685007051e-01
5.860473751867560921e+00,-4.856684494215405046e+00,5.514698630441409399e+00
4.441702197126097929e+00,3.010639615868029306e+00,-9.504602443018320912e+00
-7.339644277394671512e+00,-3.988612441811291820e+00,-1.572960803793915230e-01
7.789718722861711520e+00,1.269712364567973317e+00,-6.137738257905867023e+00
-2.022251199509386588e+00,-5.185298896128744950e+00,-2.287078901216241356e+00
3.847089891932575334e+00,1.073451019884405255e+01,1.095269363110707772e+00
-8.119877023883688594e+00,4.033600183977292808e+00,-5.120013836579488498e+00
-4.648664817499235546e+00,-1.112610185783742267e+01,-4.754550715362220736e-01
1.437711366693620318e+00,-5.306241155457964709e+00,1.779614301318492853e+00
9.599272132620217945e-01,8.936586610679487563e+00,6.888934741904879644e+00
6.051301700812095063e+00,1.289648609289637093e+01,-3.727759596862319835e+00
2.312515133889051278e+00,5.332614645836214251e+00,-7.168657034317100774e+00
-4.290223679828669034e+00,-8.942145385534329804e+00,-7.824394491149584852e+00
-2.210254953795625532e+00,-2.063072999067720570e+00,-4.225800123260194940e-01
6.522693732921937659e+00,-4.035446065304594043e+00,-9.024942531291904046e+00
-2.019639003957094392e+00,-6.911543206974595677e+00,-3.914989066144991980e+00
-3.298759428042829178e+00,5.105039979782274528e+00,-2.300002698610451590e-01
7.660290471771533660e-01,-7.930605317496537410e+00,-5.504100177441226371e+00
1.029718156503410392e-01,-1.174898820049669723e+01,6.622435304585883031e+00
4.377360524277706944e+00,1.615143835759255408e-01,-2.621465925412028941e+00
1.000818180606265262e+00,4.310457605067716358e+00,2.745565983202232996e+00
-4.219830023807483954e+00,9.732536737994278653e+00,-3.831463682666202519e+00
-1.987768798929503644e+00,3.783571742420199335e+00,4.645810515543397301e+00
3.228291784583968149e-01,-6.398627427085116892e+00,3.849991178303241668e+00
7.174737204642245292e-01,-4.849826284565468271e+00,-5.995803122709695288e+00
-8.443295383117578323e-01,4.736705615448219220e+00,9.625833256019516782e+00
-1.088930237741462470e+01,3.286810864562403456e+00,8.061741763483193379e-01
4.090589375587513565e+00,7.491876831016011984e+00,-7.161943237280276264e+00
-7.720355256688038459e+00,-5.462592998554730350e+00,5.130397597887903061e+00
-5.825393643445250014e+00,8.930563932482143974e-01,4.321174941350096610e+00
9.067983263918895531e+00,3.468660077634327266e+00,-7.903752200295209640e+00
8.039844772213433188e+00,2.818189301528685853e+00,8.284833349202367359e+00
6.557459891986334277e+00,6.648693879946566909e+00,3.077913781157083917e-01
-5.657353310855495643e+00,-3.447895363509279054e+00,-1.013841700498027620e+01
3.454820002965484971e+00,6.589751894158067280e+00,7.486976924614047846e+00
-2.503340489944115177e+00,-8.663328564430521794e+00,6.511872055377634361e+00
3.926158706669335530e+00,9.490652951094357803e+00,2.725385094827169397e+00
-6.351253348014525457e+00,-4.429049968287233519e+00,4.536507826444240443e+00
7.017291240604661695e+00,2.946705582288719594e+00,7.032031222961887096e+00
9.856931486307244583e+00,-1.128679848311674672e+00,-2.120768083110034397e+00
-1.076960914663829882e+01,5.235486763303452307e+00,2.290947628131466463e+00
-7.071976623681633711e+00,-5.306313198048920876e-01,-5.519975766828204122e+00
-6.935419134365834459e+00,-1.151305849946159654e+01,7.680361078933628072e+00
-7.225874774292424529e-01,-5.986182004315162786e+00,-3.091814315518930378e+00
-4.048755739529846132e+00,3.809222205119882076e+00,3.567176841565453227e+00
-7.375100323563976268e+00,5.623446956776454897e+00,-7.648907856788444981e-01
-2.444685085741109098e+00,7.268374561263766243e-01,-8.705332080821747143e-01
5.226111219187894008e+00,2.034560831227878452e+00,-9.958571770187006678e+00
4.005547847477638257e+00,-1.458166760184046451e+00,-2.191021101148995717e-02
-8.484409699891484635e+00,3.058690425794363232e+00,9.452600563801562217e+00
8.001311442035978772e+00,5.039476442952828261e-01,-9.258599084699191906e+00
5.544869749540138892e-01,4.206907229752510524e+00,4.062305333802663121e+00
-4.393303995786015825e+00,-8.695968286486799315e+00,-8.335966234260411056e+00
-1.927752475439797886e-01,-2.174724168032655669e+00,3.969237842333342758e+00
-8.564446022454907492e+00,-1.107456964038250113e+00,-9.469408489584026256e+00
9.553657034671651616e+00,-4.623829892045050904e+00,3.915544820216217303e+00
2.069156908935688488e+00,-4.405567750117324266e+00,7.132444489513984465e+00
6.591659462703570505e+00,1.252627525655780838e+00,8.673694929859747660e+00
3.678504703850572266e+00,-2.741915384543428758e+00,8.122459794544131029e+00
5.527580908412315530e+00,-7.807208952880265507e+00,7.330486723796577841e+00
2.698423422525006554e+00,2.106498019774555530e+00,1.162510007460134664e+00
-2.434561721410262614e+00,9.213629917156252347e+00,1.719884270530535941e+00
-3.980151674727688604e+00,4.084572245323951911e+00,9.247114625697758328e+00
9.152691433076075356e+00,-8.216016316087898730e+00,6.941050602125097946e+00
-3.366283629109824815e+00,5.565547986145003456e+00,-8.120483783052215188e+00
-9.618808885448601131e+00,2.891099749255102935e+00,9.873793071964854562e+00
5.870127294394364981e+00,8.556223211757371772e+00,8.183119071892454244e+00
3.749449930878969273e+00,-2.560005779521963731e+00,-8.608511369374841848e+00
-8.137712444607931417e+00,-6.036772126146668249e+00,3.689157499825805431e+00
-2.965119308203322923e+00,-4.134044769711885614e+00,-1.671917661138959232e+00
-3.395642426324338548e+00,-1.354113210657759137e+00,-7.046779447778150463e+00
-9.915721125802347657e+00,-1.951604914100367461e-02,-7.080896741308246867e+00
-4.041598505983935219e+00,-7.667092532475094480e+00,-1.033478483854712238e+01
-1.122540763410770692e+00,5.225354469850881145e+00,-4.978822830769270347e+00
3.157507177358348294e+00,8.799049260565070085e+00,-2.259187868250648101e+00
-7.618133995790741686e+00,-8.760823302099023380e+00,4.261078666043629504e+00
9.051480286817341181e+00,-1.227702355295871683e+00,-1.471437769783258132e+00
9.355842065028561194e+00,2.243863223056749234e+00,1.104484725407032020e+00
-7.781643730374145917e+00,-6.865135826459792812e-01,-6.556028269781919438e-01
1.810679257739111980e+00,8.485519887348847989e-01,-7.976347701786080435e+00
-7.496206197904931479e+00,-9.973347365796662700e+00,5.530937401272879583e+00
4.304443232568476496e+00,-3.186983824384064246e+00,-6.274635009420830023e-02
2.399687491349660640e+00,-7.931509319136244685e+00,-7.296267241330192554e+00
-8.978625171998816157e+00,5.004375672069196312e+00,1.170725711521745005e+01
6.839456876487273185e+00,4.676914726410945633e+00,-4.827298704472489099e+00
-2.169868198147998084e-01,-8.100532004609295456e+00,-7.912218586437737677e+00
-3.984171539320282562e-01,-7.321885989810120066e+00,-7.182865142247305101e+00
3.640098528414207335e-01,-9.388346050090806472e+00,-2.007878368229561783e+00
-5.903785010417801793e+00,4.904374360894794727e+00,4.861037587113315794e+00
-3.841122220322600089e+00,2.227872270299305679e+00,-7.776334216283206757e+00
3.260972459993876527e+00,-5.838782465773300956e+00,-7.098667130490375676e+00
6.455500049513452687e+00,-1.830978474714727522e+00,-2.455462903631068450e+00
-6.905339141725904462e+00,-4.041493915769173384e+00,5.657606255400464690e+00
-2.977285793404099046e+00,-9.950631319280219600e+00,-4.029392223626563130e+00
7.260185806141863374e-01,-1.433092785833877114e+00,1.215240440761091945e+00
-6.147569409231133264e+00,-8.212149755698945341e+00,-1.070702000601186299e+01
-1.274690136266442231e+00,-9.170160800148689617e+00,3.478341501868295715e+00
-2.512752968372505613e+00,5.802453108058489128e+00,-8.447494664931330277e+00
-4.848426273852891377e+00,-9.487132881060220124e-02,2.902283038345205401e+00
-1.585471690244817600e+00,8.242772832897228952e+00,1.576687156060621264e+00
-8.098031069700743600e+00,5.109513189727112881e+00,-2.102336104499325786e-01
1.179590235349257732e+01,-5.712433186186324008e+00,6.567063343255673757e+00
-3.853122888271431901e+00,7.340087492111352141e+00,-5.820355680866378556e+00
-6.484278993057419171e+00,-2.463418983109324056e+00,4.271284588650613223e+00
-8.725084349868348355e+00,1.028812093339215972e+00,-7.148157637079281201e+00
2.154424952645546121e+00,2.968081000012273485e+00,4.903024736773078374e+00
-9.275352263333344283e+00,1.340855226684608104e+00,-1.074221339631986405e+00
3.514913809380699750e+00,1.032820330149933463e+00,-1.019948567909320047e+01
8.333916954425948376e+00,-2.073054729670797958e+00,7.436069180085273622e+00
2.138427076283333506e-02,-6.270490349643053740e+00,-8.943341211790842848e+00
1.759577570591582374e+00,-5.445840594242679522e+00,-6.063693635639165969e+00
1.262552169625572374e+00,-5.259175540238562263e+00,-1.006945205493379447e+01
5.186105298602155855e+00,7.023228027552004704e+00,-8.380614668318202121e+00
3.934378681526118915e-01,-6.774758811657288327e+00,3.437371057149456871e-02
1.159432921016214868e+00,-8.403425667943577038e-01,-7.195011278090107432e+00
-3.207578191724862471e+00,-7.607015383296528377e+00,6.393626092960501772e+00
1.515883849792050153e-01,9.282037750551348054e+00,-1.689611986399192523e+00
6.506310248993087963e-01,4.197127416964032243e+00,5.069715672107615312e+00
5.032519213854119933e+00,2.997385455129280007e+00,-7.847330891872998926e+00
-6.937625252794647146e+00,-8.377536169002850031e+00,-2.504099797532962413e+00
-2.983932345573923950e+00,9.414504391138512895e-01,-2.268549214985107199e-01
-5.559196966622004688e+00,-1.046688126508791283e+00,6.171279594575151073e+00
-5.171324373230571148e+00,-8.036209359085810799e-01,7.170406850136934906e+00
6.913556398326389463e+00,6.311300171340516130e+00,9.387215768322382914e+00
1.010946458091883216e+01,-2.381819988566119317e+00,8.354627604759114590e+00
9.521049119859624099e+00,-5.378623343487572761e+00,-2.276019579939020598e+00
-4.760322305793193820e+00,3.427903526577254834e+00,-1.062704022436368190e+00
-7.103197309608028753e+00,4.895719985237295013e+00,7.042941623367741322e+00
6.801643574584329777e+00,-1.713624079171258141e-01,-6.413351128619713570e+00
-9.776301223135101637e+00,6.727291497563433254e+00,-7.418892463185675190e+00
-7.302194996707211949e+00,4.257126849875752406e+00,8.742724065064901851e+00
9.844142033902576472e+00,-3.669891940057759427e+00,-7.038590867841706955e-02
3.274243499744482921e+00,-5.166075933452750846e+00,-1.096775740216748574e+01
-7.321453378251794319e+00,-1.268342528922367096e+00,-1.815095058896984304e+00
-1.066228349140914489e+01,1.246936116756665269e+00,-3.724241460772916401e+00
-8.305337995791868266e+00,-4.401946624466145153e+00,-1.060921683673884353e+01
-1.351131552927676838e+00,-8.121303905415135915e+00,6.938257694391706920e+00
3.283351439093044721e+00,3.462128349105531910e+00,-6.889371957234067700e+00
-4.025907393911088983e-01,-7.568268520323035098e+00,3.152232737587985056e+00
-6.544849982582446879e-01,-4.136881338682106168e+00,5.612345920153469225e-02
6.371414499746994586e+00,8.131615269761381271e+00,-5.692119890706243801e+00
-2.266812304291236035e+00,8.059562284079522243e+00,-3.415053719649105091e+00
-5.871915008317325935e+00,-3.155312789412012098e+00,-1.687485382895957953e+00
2.184229490865534196e+00,3.365103073698729741e+00,-2.671146327025250011e-01
7.305922141109416401e+00,-9.697704722562065172e+00,5.797535255665406950e+00
4.910923071023464814e+00,-1.274373390957200591e+00,1.527747059040303945e+00
-8.055494294437224312e+00,5.714735722257045403e+00,8.694324599407327270e+00
-1.711623499831103901e-01,-1.240382361206999962e+00,9.829306102068610329e+00
1.055854804835512084e+01,-7.933117819256903402e+00,3.789334880495637048e+00
1.344543372839986706e+00,7.081860699125157588e+00,-3.338382592888116118e+00
3.627288824601265116e+00,-8.714599867439744685e+00,-1.850877445868646776e+00
5.807290617271894995e+00,1.289694026193229526e+01,-6.970945584846773180e+00
4.152143868947600680e+00,6.853310520720161669e+00,-8.160530767053794321e+00
2.089728154473033950e+00,-3.824845034397488241e+00,-3.511683999844003590e-01
8.214142071270520873e+00,4.121597865448637599e+00,-8.998400181727387093e+00
5.293718828847749691e+00,-1.898778890648848694e-01,3.776094900878487426e+00
1.326264812263598269e+00,8.918966876287427736e-02,2.151075123866913685e+00
-3.784720439168872685e-01,-1.894736685417265809e+00,8.793957268151931572e+00
-8.344434968039106337e+00,8.715887558800763379e-01,-5.925714615916952255e+00
7.069119288057880368e+00,-7.126979121035120990e+00,-2.851511178961267934e+00
-9.451679756842015223e+00,-1.283152776614644663e+00,-9.042040589815513840e+00
3.274256860562331894e+00,-6.923637655247939726e+00,-2.502904387002946152e+00
-6.265069992808290245e+00,-1.191288966885913325e+01,3.050498290308543137e+00
8.791539454709221602e+00,4.780856640745271058e+00,1.686796521159029227e+00
1.105495098117024000e+01,-4.546372563632411712e+00,5.747913638813433757e+00
2.651830757044232545e+00,3.287513030567761341e+00,1.876669721912561650e+00
7.587551262183687584e+00,6.678552870156254428e+00,-5.963005992186822368e+00
2.695468640382661651e-01,-9.534547899306224039e+00,5.031987146647857401e+00
-1.118026940948327130e+01,5.462916122673956210e+00,-3.776359236272233577e+00
5.694541520293088688e+00,6.681142899524049383e+00,-5.715026984653523101e+00
3.367044581350204790e+00,1.195365669675318010e+01,-2.939710969789414374e+00
-7.501965019579239780e+00,-6.188224130999988581e+00,-2.266294730533035207e+00
-5.525066000036417790e+00,-2.288476491277561475e+00,-1.038140670062895676e+00
-7.845433911694999374e+00,5.993639609960500492e-01,-2.552951149789642216e+00
-1.366479195209575392e+00,-7.092370394744143880e+00,-8.524936134404303090e+00
4.053270724026115879e+00,-8.824466454568330676e+00,7.329835810281103647e+00
2.688429683434160472e-02,1.285422717284059102e+00,8.536687364992823213e-01
-1.892684303323427519e+00,9.600984255960892000e+00,1.020929642476937627e+00
-4.884268425000770186e+00,6.917742571953607644e+00,-3.529405545100732233e+00
-8.090521145651095480e+00,-4.145222131039727032e+00,9.451100471760424782e+00
1.740862778648965437e+00,5.451907609132084609e+00,7.303549153589862897e+00
7.160410858266360812e+00,-6.807336191580465545e+00,-3.530029747561658771e-01
-5.199199618781826793e+00,-3.079840807000572056e+00,-4.082155887169195196e+00
7.653371247929737997e+00,7.120809922474157005e+00,1.559419604102581791e-01
-3.967273502072236724e+00,-4.708425462895178271e+00,-1.891157320513759732e+00
3.060195726424257856e+00,-6.272401664271741728e-01,-8.830813261671934811e+00
8.782458888521166074e+00,-2.035359630219022442e+00,-1.972651953178897466e-01
3.324886960069987296e+00,-7.919129291778022051e+00,-2.202134393566313353e+00
-1.383536454258145199e-01,1.674395231862904065e+00,-7.396988353527130577e+00
4.646387515073300278e+00,5.373133808786144883e+00,-3.985428125368453145e+00
-5.477049948687134240e+00,-9.757203322029278425e+00,6.368272760041318925e+00
1.422391443365448094e+00,9.931572230439220661e+00,-4.697683185207379708e+00
-3.674165165986790882e+00,-3.007220707082272071e+00,-8.972669061574453098e-01
8.474180452244399753e-01,-7.231395570054964139e+00,4.054909824623561754e+00
-7.666509066548645279e+00,6.397615512154682271e+00,4.499921475038273222e+00
5.458555680848507841e+00,-6.242226722859304466e+00,-5.770555342696664702e+00
-3.825852380141544273e+00,-7.844451674366141880e-01,8.696579479562728920e+00
7.770308129369266403e+00,-3.476069873194934878e+00,1.404305266823248299e+00
7.020932364926379066e+00,5.580294843733060617e+00,-5.387204624075050408e-01
5.648981473862541236e+00,-2.670156425150679969e+00,-8.953006315318331687e+00
-4.568679030573064459e+00,-2.369276327170045882e+00,2.609054948161686038e+00
5.701258834730328573e+00,9.446783205289349894e+00,-5.398540358346434753e-02
6.457420383294707023e+00,3.763885464729801011e+00,4.488887503482570374e+00
-2.636620934013461093e-01,-2.055060902152288982e+00,-6.065114169991276505e+00
-5.642717729487570111e+00,3.759764180806088874e+00,3.545502279535589718e+00
4.640831278215012290e+00,4.588456215857094733e+00,-3.415216151548727819e+00
-4.001250975783966268e+00,2.676518403136223689e+00,-1.109078446563428022e+00
1.876359779988327370e+00,-8.006075957065522886e+00,-7.754120006318293568e-01
5.797927495398089270e+00,-1.326797538862588555e+00,2.187608927277313597e+00
2.966514151513269582e+00,2.719863068311786147e+00,1.915802381551538369e+00
-8.581117138569002378e+00,2.374808489857298088e+00,4.415888631154640365e+00
-1.552432127617559221e+00,-4.634362220216729500e-01,-7.517809032290182714e+00
9.839801394472955209e+00,3.913867716129133534e-01,-4.512407453800739709e+00
3.241307766346336883e-01,-1.893899336829665714e+00,6.668058943945451844e+00
1.652873589104060237e+00,-1.749810754003862101e+00,-1.136999929651934416e+00
2.200988549330404886e+00,7.013171282901708103e+00,1.081138854569205554e+00
3.928146252587267462e+00,7.005373574231343881e+00,-5.760046666517975034e+00
-4.767820875576414430e+00,7.392001352483382526e+00,6.699728987914376432e+00
-6.388268067475371126e-01,-9.796248552429178247e+00,7.458776363902327233e+00
4.880970837973528931e-01,-3.988191580010996162e+00,-1.538061284215227698e+00
-1.339328162119910237e+00,-8.686269675536324897e+00,-4.957030823848906920e+00
-1.025907676059393303e+01,2.566542456883285972e+00,-8.037408030549512361e+00
8.327493208554926696e+00,7.926142360730277225e+00,9.771710765180332103e+00
9.691799811155481947e+00,5.701798753182761859e-01,3.394986185369869069e+00
6.233059009128440131e+00,7.718788898591119718e+00,9.614170699925663754e+00
3.966115526975369399e+00,-7.642457671089953664e+00,-5.203687773468708144e+00
-4.779982094208470755e+00,-8.029152532837766643e+00,8.478824479860119112e+00
-9.359133782305340432e+00,5.346694850042172931e+00,3.433803172590297326e+00
-8.538966638960103772e-01,-1.314157103430354523e+00,-1.046529121662479334e+01
4.405643235005612723e+00,8.427094853721808221e+00,-5.495277245559884172e+00
3.590036207597934403e+00,4.231901249146251764e+00,-1.201231952242289625e+00
-5.655696049238249756e+00,-2.870088976794514135e+00,-6.618560156165751440e-01
-3.342891683347268827e-01,6.473523409525573591e+00,7.752533042154042597e+00
2.914447607287389719e+00,7.814101992812849673e+00,2.556581199023774342e+00
