-1.531308869300636921e+00,-2.623030010334227224e+00,3.009179277132242980e+00
-6.182539838271413624e-01,3.205090440348882797e-01,5.979138498243719707e-02
1.160121242402810227e+00,4.691930282723774326e+00,-2.669994914632617622e+00
7.117361614794138980e+00,-1.072378725918370579e+00,9.921268263541155319e-01
-3.375953166262589455e+00,5.954681139603217765e+00,1.441838537037380685e-01
3.720838657260216453e-01,-5.565373848493700981e-01,1.471408347547113138e+00
2.143759413767082567e+00,-4.441196915811358004e+00,4.486287260841268637e-02
5.792293590697014105e-01,-2.033611282819479948e-01,-4.302370054799597554e+00
5.983365895821100011e+00,7.435699556089536699e-01,2.822982441472759785e+00
2.779464745408972981e-02,-5.652643543556050254e+00,4.575511832398219347e+00
-5.298788141414026320e+00,-4.681250317201446354e-01,3.015158340144296290e+00
2.400008581257706830e-01,2.396719990777383291e+00,-4.859849430259523650e+00
-5.467352098671576677e+00,-1.788293425029263028e+00,3.155373516483374718e+00
-4.169697389951061872e+00,-3.386573771341979455e+00,1.958228816136922568e+00
5.065137169278044027e+00,1.429521251444382468e+00,-3.003217507756728910e+00
2.955054392967849441e+00,8.433850362241919196e-01,-5.874399974477169550e+00
2.583338066177547798e+00,9.824100480429300841e-01,-5.528630799098920079e+00
-1.356555499117330976e+00,7.236879826284780215e+00,7.955852442454287576e-01
5.422563050251873129e+00,-3.568319705491477034e+00,1.215656670637022874e+00
1.076602144688744711e-01,5.108385294924320696e+00,4.412424550203317253e+00
-1.547547248391397012e+00,-1.502228029418916533e+00,-3.171125751787488234e+00
-1.699710971894641487e+00,6.777972470413207162e+00,2.571585497148140553e-01
3.400063725961606664e+00,-4.440283275677072261e+00,-1.803676751577937276e-01
2.353153029826199116e+00,3.962748651203212180e+00,-1.043271182141467301e+00
-2.561294072803399491e+00,1.735477422651776180e+00,-3.029103752108897485e+00
-3.370116730086165080e-01,6.211084615989950208e+00,3.895743331397092835e+00
-9.935046594241934148e-01,1.587035595150366074e+00,3.403120296272553080e+00
-5.004549078148815333e+00,-1.909290731779312855e+00,-2.321635037694706138e+00
-3.809718253570764546e+00,3.498720129781265786e+00,-1.634554659978704416e+00
-7.375889080980054802e-01,-2.841213628006568070e-01,-4.235357388495435416e+00
9.074997604438983512e-01,1.729871786116563559e+00,-6.948806234306197815e+00
-4.634495020791226771e+00,-4.885040311188322271e+00,2.746375874056438349e+00
1.078636339324377413e+00,7.332498994814231619e-01,5.252144457093429253e+00
-2.393333442685330770e+00,5.716826748569044270e+00,-8.660523427358881587e-01
9.611296988131083907e-01,6.859031145091738502e+00,-1.449249680035562760e+00
5.001301006657400627e+00,-1.645026593514272051e+00,-5.115309576381751100e+00
-1.732921835868562674e-02,7.843073944180880552e-01,4.620610658471140830e+00
-3.861790778827399517e+00,-3.641818600143342799e+00,-2.626713135919620079e+00
-6.076912720600564644e-01,-3.785459909522348454e+00,-2.852684510629152737e+00
1.898428489168378475e+00,-5.766253989705874439e+00,-4.149495167930616901e+00
3.730654580118908381e+00,-1.678581714954142434e+00,3.846969105454236093e+00
-3.291134552676251435e+00,-3.215587336532334195e+00,3.422283466582881406e+00
-2.814783724226526562e+00,2.365303823971392827e+00,-3.111993645503744688e+00
-7.721994479938428801e-01,-5.551291870069514189e+00,-3.545299402964140700e+00
2.215096639729186911e+00,5.887335146939348896e+00,-1.185928117824705197e+00
5.085523456611313442e+00,5.323160792068859504e-01,5.370151731643271198e+00
2.017305510382594314e+00,-2.841035611665929217e+00,3.802323263352608063e+00
1.026840765707360381e+00,-1.910985997098717970e+00,4.202678702391703602e+00
-4.811932241270344690e+00,5.293711605944584342e+00,-5.977058646734858538e-01
1.987646042374242805e+00,9.208476945837933414e-01,1.640827629091052398e+00
1.337664591847639750e+00,-4.332054253965531010e-02,-2.082829420877216453e+00
5.110764656005242657e+00,-2.238988822384163857e+00,4.847748601182592765e+00
1.482509691268858010e+00,2.947246189475848155e+00,-2.110406259988020672e+00
-7.487452066633885905e-02,-1.220836512913953120e+00,-6.017279412570383457e+00
3.612189230063228340e+00,2.228930410594098355e+00,-3.327564940435481233e+00
5.752521590222931636e+00,-5.494973351603215095e-01,-2.452525570910714769e+00
-5.085193691029338936e+00,-1.767882301730996586e+00,-2.522781166069813175e+00
1.248174340814882211e+00,-3.936658381089114478e+00,-2.397837885768397292e+00
-2.648083573491134768e+00,-3.782681932738166886e+00,1.633060776486465526e+00
-4.207258850300771513e+00,3.070137117021614626e-01,3.348121165530638876e+00
7.661430665172478394e-01,6.547673697939877968e+00,3.052195987366133068e-01
-1.584846603839230150e+00,-1.709106120365294412e+00,-7.039842854701683805e+00
3.291794556866506349e-02,-2.568462678333426563e+00,3.812488070826993702e+00
-3.083419454971075613e+00,6.144215589003669820e-01,-2.598636270228412926e+00
4.634899204131425421e+00,5.144810171804053311e+00,1.680784458048118601e+00
1.358115304115093736e+00,-5.725303498652237977e+00,1.631320981887256494e+00
5.045045638663566478e+00,3.589655846279304341e-01,-4.779340869461811692e-01
-2.326225399112924475e+00,1.646867079870243611e+00,5.085393539864663026e+00
6.150998027418614456e+00,1.904077884324059777e+00,-3.472383031057675762e+00
4.865122255578032906e+00,1.472411844073616138e-01,-4.723641552482900074e+00
4.492227646703841337e+00,4.443925392034827837e+00,2.784641910160089218e+00
-2.061413020323519252e+00,-3.721938502038991903e+00,4.173959014603340734e+00
-5.833368195882703056e+00,1.663588252763937403e+00,-3.594778670720201408e+00
-4.035859732288367141e+00,-3.383467364549939127e+00,4.109584226489571890e+00
-1.547842326622478559e+00,-4.548696058518469365e-01,-5.241059669247212227e+00
-3.275920855647238561e-01,4.229671202125363294e+00,-3.906276485811122634e-01
-1.978630487980342689e+00,-3.745352067375675720e+00,5.123022701306506832e+00
-3.584057125920910636e+00,3.197974952773968926e+00,3.863573085391239115e+00
4.561048324547151367e+00,-3.595975456747102061e+00,-2.475695498151085250e+00
-1.050262370268899126e+00,1.650994310993755043e+00,-4.651861379383321449e+00
3.113730919328396407e+00,-9.509383237262312161e-01,6.003088789497856403e+00
-4.822864826286985540e+00,3.048093140537360579e+00,-1.470065616840017686e+00
5.995099017349308390e+00,4.010153699992152987e+00,1.882915749918659676e-01
7.123710807294739156e-02,3.827711861966318185e+00,-2.274907439188404989e+00
-3.009284237635991843e+00,6.186417951889645828e+00,-7.740517447956414276e-01
-4.385209694407105729e+00,7.287270891332791045e-01,-4.000736215536715434e+00
-4.579389550051337743e+00,-1.025447754344231743e+00,-5.139632216912723983e+00
6.079065190670418506e-01,6.321860965562636991e+00,1.467539862161350683e+00
-6.205346161026355389e+00,2.556513932718028403e+00,-2.344620989321617888e+00
3.318111770285506523e+00,-3.137054412513311075e+00,4.702057348505752188e+00
3.526413213810963398e+00,-4.474470697666725449e+00,-4.299200667496386963e+00
-3.111042061777431922e+00,1.146819125596905131e+00,6.561752683949842790e+00
2.850643216302451988e-01,4.464625106549064970e-01,-1.979674434582101794e+00
-4.865099086254553451e-01,-5.626740965638354908e+00,-2.790802296560190854e+00
2.409590876175771168e-02,6.992730507057006939e+00,-1.835894259060155020e+00
-4.109172446776193866e+00,1.559511450170999680e+00,-4.846522875355513627e+00
6.557596080159875385e-01,-2.182192122546195101e+00,-6.009991133956279263e+00
-2.901918569542718096e+00,4.228335322606711522e+00,5.622850296573405071e-01
-1.045704856227174462e+00,-5.502862482942639799e-01,-1.417401025207980947e+00
1.094621106989598802e+00,-6.389027276423192347e+00,4.871558381277454330e-01
-5.435782616327085037e+00,-3.732529932413568119e+00,-3.311550373757057741e+00
-1.053359336389706469e+00,7.557001162880230272e-01,-1.223421461417215639e-01
-8.715007316413221350e-01,5.393442978018760492e+00,-4.142576371817982661e+00
1.957112051233957706e+00,-3.122304887517716399e+00,3.444525237362077608e+00
1.246514047856138285e+00,-4.825744417549967302e+00,-5.009202413357877859e+00
-2.386558896097872751e+00,5.269180339032646820e+00,-9.681644460252603057e-01
2.054194790881973542e+00,-6.020015569805166500e+00,-3.686603271253277581e-01
1.015922058730267974e+00,-1.388342987497141356e+00,6.337064102137226485e+00
6.304644635075025150e+00,3.442328910109592410e+00,-3.012286594948836438e-01
3.324164834789600231e+00,2.440320265717361159e-01,4.199722536954904939e+00
-3.627118771188957425e+00,-2.135816511112353933e+00,-3.156157454814239482e+00
3.836598250880747241e+00,6.362444786924437157e-01,-6.142950238372105964e+00
-4.195409249365503968e+00,-5.526436208768601421e-01,-5.739612066412330904e+00
-1.789027543562522471e+00,-4.483231777198143364e-02,4.490680279011793452e+00
-3.102446939432601969e+00,-6.384748912295594714e+00,4.238681536865877841e-02
5.312927633959807494e+00,3.342856395422897364e+00,-2.741588206014448303e+00
4.108406377220460648e+00,-3.105739193414635557e-01,-3.226045513956754540e+00
-4.670851332919271570e+00,2.608486835328999831e+00,4.207087372260024161e+00
-2.917747489227404234e+00,-3.462014209816416610e+00,1.908079123177226055e+00
1.265849209339630743e+00,8.535808671017067750e-01,5.604550987081048596e+00
-5.156572609574404664e-01,2.957904764924119245e+00,6.204019521962339745e+00
-4.733578063774238842e+00,4.173711663006058004e+00,-1.714700340839510950e+00
1.068929098068283512e+00,-4.111132197337180827e+00,4.125128313215927989e+00
2.129290772135214116e+00,-2.234820331082351785e+00,3.903641394769191031e+00
3.211286658711634878e+00,-1.127433498492523833e+00,2.954176732004352712e-01
3.694226950855069358e+00,-2.349168036599394327e+00,3.389667846471791091e+00
-5.533866648780106923e-01,1.820405224360109209e+00,-5.901564320895175797e+00
8.236823624308271530e-01,-3.241984095487993045e+00,1.296828712367261716e+00
-1.971888845597342954e-01,4.910298503037719420e-01,1.282317327970011300e+00
4.910684183561816241e+00,2.610512380215234352e+00,-1.976063294525478131e+00
-4.575567681495222416e+00,-3.598689310106833350e+00,-4.046286550937979953e+00
-2.977285938790601882e+00,2.245539172403273387e+00,-1.909710718058502676e+00
1.012996201042767552e+00,-4.199910050878822076e+00,-5.372685888484530992e+00
-3.293505971553804534e-01,-4.282363178570978590e+00,-3.897543903863238679e+00
-1.642729481600385011e+00,-1.432678295313772443e+00,-2.455613631461865065e+00
2.505525208948936378e+00,-1.649319358302722138e+00,1.343232480251127958e+00
-4.925269128763044790e+00,5.635953364495104312e-01,1.506002764134257432e-01
1.489899774898320928e+00,6.467726621040155166e+00,2.031656154692029315e+00
-2.919995735468502662e+00,2.719994288815466899e+00,5.668152994751937790e+00
1.294216692079636521e+00,4.564344578926022855e+00,-3.798870134506918905e+00
2.721840304232507002e+00,1.161119428488158967e+00,3.804168359713720804e+00
1.457344776054015023e+00,3.041413225342501470e+00,-2.732092296225341332e+00
-3.325307732568885122e+00,-6.019885434695226856e+00,2.261945107643096586e-01
-8.057944508493528613e-01,-4.979593087271028673e-01,5.524552346139388170e+00
-3.097702476198958887e+00,-5.463122906444516147e+00,-3.613496715974542806e+00
7.947654804772414927e-01,-5.539973980827608280e+00,3.566017116702234979e+00
-4.278805102371014080e+00,3.687951663482576414e+00,-1.062063353980130076e+00
-1.898136891579338403e+00,3.459229166499217190e+00,-6.139453363272788344e+00
-4.787053549744453740e+00,3.247594251302213131e+00,3.477331277192816650e+00
-2.835333865310073698e+00,-4.054233857040850708e+00,-3.250536894051251569e+00
2.412458903812735311e+00,-6.317739104245754689e+00,2.806613306828880994e+00
-8.017311745320824246e-01,5.941935115472728235e+00,-1.195948270616857156e+00
1.076321466816814176e+00,-1.706358376730532145e+00,-5.105499294787477993e+00
2.572713816971293532e+00,-4.674745828678769755e+00,1.702684411167169731e+00
-4.028137409545481162e+00,-5.025089632055755651e+00,2.022073385235297227e+00
2.414300044617890550e-01,-3.437986196544446926e+00,-2.055864895317445651e+00
1.925657947875760279e+00,1.143159282083745509e+00,1.064408019976810331e-02
-4.587466306625961110e+00,1.139397118906004369e+00,-3.462543293084378693e+00
4.416696337550428453e+00,-1.689183219380172352e+00,-5.221116914452680335e-01
1.899948244350266435e+00,2.491565525833391970e+00,-4.897703955664509223e+00
-5.362882936653107002e+00,1.274485742007018529e-02,-1.730256776745292990e+00
-3.903759169741675805e+00,3.586444762023838884e+00,1.842158280543947591e+00
-3.597319000125208666e-01,3.887376247221254744e+00,-1.743033426997039337e+00
-3.814386812212753330e+00,2.295079784951788326e+00,-1.297684414817543264e+00
2.219625694287446382e+00,-6.614400614700914005e+00,2.524544469217780307e+00
-5.032636234940808251e+00,3.872916339345712888e+00,-3.140916636992051814e+00
5.245639462750904869e+00,-3.921074166197425992e+00,-2.323310987681659334e+00
-3.983896408103125175e+00,-5.182136854051638153e+00,-1.754140687534021747e+00
-1.431164541640170595e+00,-2.095816278154746914e+00,-1.428261481312435910e+00
-2.448058314589906526e-01,1.198268170445641934e+00,2.521284646858501066e+00
6.481958978072167810e+00,-2.370250089354618783e+00,-1.772381613614805840e+00
1.126724249014825707e+00,3.323264832544167380e+00,4.007699092115254658e+00
-3.988032601889173190e+00,-2.099347053201333857e+00,3.898962061590282691e+00
9.898023594783132983e-01,7.734737658875134869e-01,6.648577688980696898e+00
-4.725753155665775473e+00,-5.485683559441802970e+00,-1.409044169600917495e+00
-4.114912679392991990e+00,3.907683192261881544e+00,-3.880974092234737327e+00
-7.233834720285774456e-01,6.440008990335439165e+00,-3.472239915914060226e+00
1.954815690009336304e+00,-4.718883282632834408e+00,-1.074795606952526850e+00
-6.302565164920316931e+00,-1.564041800272708005e-01,1.867970963016007735e+00
2.262400433812012057e+00,-4.947830089435905521e+00,-4.761806209921935817e+00
1.016728179320970510e-01,-1.506046173584664194e+00,-5.428289373346522950e+00
2.356064301238924408e+00,-1.341895062277126627e+00,5.395346124871923443e+00
2.976927350043830689e+00,-5.107583354882663240e-01,2.514501371100390514e+00
-1.245032857455653064e+00,-6.794214080579592974e+00,-2.509463466772578588e+00
3.572964995123427911e+00,-1.763409891238330918e+00,1.179641127489856833e+00
1.368786387404556049e+00,-1.566550653770535151e+00,-1.450283094740941081e+00
6.299024650921361435e+00,-3.897787613515750316e+00,1.028237419529559743e-01
8.766218894435169329e-01,3.248025940122952093e+00,-5.513412539989944072e+00
-7.905819102809812371e-01,-5.949757197161783751e+00,-1.901416111065779457e+00
-4.317447863344202830e+00,-2.486505979008343914e+00,-4.286096326729737171e+00
6.311590533509317424e+00,3.707337040405302986e+00,9.478836070719586226e-01
1.870439485864313856e+00,4.676931184690940491e+00,-3.856672016830467342e+00
4.585554920525424905e+00,-9.053396692943195267e-01,-9.923942875381859263e-01
3.736213969087969766e-01,-7.074653390010477993e-01,5.210886407679256926e+00
-8.113242968806056998e-01,-7.558474664896542849e-01,-5.510183203098974580e+00
2.897454342935194660e+00,-1.795587735177592403e+00,-5.414984336944163701e+00
-1.203548491990686503e-01,-4.845069916316537828e+00,5.143119945768935608e+00
-1.658378162070017536e+00,2.204394953463191698e+00,-3.217834114218517616e+00
-3.791921580124318680e+00,3.802937534967642641e+00,1.970465568456445660e-01
-3.680736156129467140e+00,1.028221909363107756e+00,-6.282459330318809876e+00
-2.969733925306586642e+00,-2.187480898858166434e+00,4.365126768014459202e+00
8.778181397535301800e-01,1.643193428260524280e+00,-2.151990990298890072e+00
5.431501223521943977e+00,-2.622025612654329318e+00,3.571155416947184413e+00
6.010111256742743713e+00,3.894528923778471263e+00,3.907080547596177011e-02
-4.435922333766932013e+00,1.018564674524900848e+00,-2.659306854096143091e+00
3.120516789142989467e+00,1.111273048223864190e-01,2.826907633725810776e+00
-2.676402905470047777e-01,4.607740996714110082e+00,4.132579581571349969e+00
-5.373855709551080828e-01,8.037606400665177064e-01,-3.330845071761467491e+00
2.045243051585175831e+00,5.231111675795204974e+00,3.938327653840131504e+00
-1.833823845122552143e+00,2.992846818111265517e+00,-7.834323915812489991e-01
4.852148472702351722e-01,8.346147628280149444e-01,2.428463742237183531e+00
4.907313661369451907e+00,3.285736851670499892e+00,2.183511997288246631e-01
4.567305030434091861e+00,-2.069590116580263039e+00,-5.336991891098668006e+00
1.665125693176539912e+00,-3.542321011827236354e+00,-2.059899546020635963e-01
4.187159427553501345e+00,-3.097067136320410086e+00,4.174689417728946417e+00
1.062821474442488423e+00,4.931032180479870242e+00,1.727984524796859711e+00
-6.669430750430045685e-02,1.726098275094801737e+00,3.402589207343878375e+00
7.965257642913805558e-01,-1.258179526738736786e+00,-4.032954758542627083e+00
-4.880715305922331382e+00,-5.015450414154981829e+00,2.120812614220138670e+00
2.111174786130393333e+00,-5.268783796061053959e-01,-2.364753281822996822e+00
-3.169118501282620404e+00,6.262638381466300030e-01,-2.400649399776546289e-01
-9.623122859720115718e-01,-1.171618118301845701e+00,-1.937265234454657259e+00
-1.309294741790154371e+00,9.437052539514442229e-01,-3.636059440156460543e+00
4.418754397931301092e+00,-2.018152342808397393e+00,-5.393892094696961514e+00
-3.030543449388340971e+00,1.288036566692493112e+00,-5.895932172924823966e+00
-5.010580523302778921e-01,1.860788212987172230e-01,-5.721623308551025744e+00
2.950965968613353141e+00,-5.066043398492070970e+00,-1.126403177553808366e+00
7.128131711076856059e-01,6.650650152817584981e+00,1.119750692009601645e+00
2.963187998832722325e+00,-4.516147934761993277e+00,3.397571680407211581e+00
-8.586347019438215211e-01,6.261207999889526477e+00,3.488746895878790166e+00
-2.301129108274009738e+00,2.782805267130693760e+00,2.880514510062859745e+00
-1.413882282637772603e+00,-3.898581545664109083e+00,2.564634287661888834e+00
-4.640698962403128291e+00,3.627187669767547806e+00,2.616855108563690635e+00
1.786719638349715256e+00,7.388922541857884108e-01,-9.954321323405163069e-01
2.097651984645719558e+00,1.112433094504323261e+00,5.490961194450661331e+00
1.097454912901425939e+00,5.486533919407455606e+00,-3.513278890411423383e+00
5.809630047182475998e+00,5.699805757305258513e-01,-4.025294501443328343e+00
2.738013140481516672e+00,4.931272811848040227e+00,3.445804263375439991e+00
-1.030368310047486968e+00,-1.009590424406204834e+00,3.735088565706770503e+00
2.562494226084774951e+00,-4.962288937453549487e+00,2.965597391804878136e+00
-5.652523359238434963e+00,-1.438900763519539661e+00,2.585402942319063868e+00
1.448842056800947908e+00,-3.321427498489816443e+00,3.406786086060054064e+00
1.209361249556697437e+00,2.832432053433620589e-01,4.173667599839141040e+00
-5.032392607489677872e+00,-1.367179348752317336e-01,-3.333492956786823225e+00
3.038382456844803237e+00,-1.635930439949387027e+00,1.211482339610425507e+00
1.878704717143088621e+00,-5.017728068534518471e+00,-3.721531814071835420e+00
2.054055401739133035e+00,1.498444339962457850e+00,4.389340131878652684e+00
5.178043394856387316e+00,5.988326991600891880e-01,-4.078971288495205627e+00
-3.538668322725008419e+00,-1.111581515175454671e+00,-3.381861369695388753e+00
1.626307478269015228e+00,-4.408582702651727026e+00,1.254130217580055273e+00
3.072624677277381089e+00,-2.202793352564242024e+00,-5.972115425025733337e+00
1.492487865736900288e+00,-7.841721345310663782e-01,-5.234158859728697877e+00
-3.156316285612093875e+00,5.833440334515247017e+00,3.318087369350229299e+00
-2.730544695417536083e-01,-3.174596032945086188e-01,3.356548410995539466e+00
-6.534346210157611523e+00,6.215588056424647262e-02,-2.809390754039146287e+00
1.232743967589496059e-01,-5.238361415042690261e+00,-6.348931476805198537e-01
2.911627990851334058e+00,-1.533871996282971883e+00,4.493075860224942097e+00
4.387620526756596639e+00,-7.339065074649439024e-01,-2.661212152216442028e+00
4.162705094393110983e+00,-5.638899878804893184e+00,1.485246043973839969e+00
2.342998755145573764e+00,2.541440250204999307e-01,1.436293463799297010e+00
9.153474589084686919e-01,-1.313530562098773391e+00,2.293010499500149901e+00
1.557023075617572694e+00,-2.623482373043146132e-01,-5.857588287476485078e+00
1.762265945142189150e+00,-6.332329087627804574e-03,-2.299874124642533602e-01
2.708018755504798536e-01,4.135584812587789649e+00,3.950754624783112678e+00
-2.166556608304370801e+00,-2.668881642806760102e+00,3.607566028295054128e+00
-1.290151346992011616e+00,4.381885083777179446e+00,-2.270550660182488745e+00
-2.265464127258765448e+00,-2.622114846892746431e+00,-3.495118907411842279e+00
-1.770685753352158942e+00,-1.951149407536380664e+00,4.394817376716125601e+00
3.121457141703527505e-01,-1.920260046393127196e+00,-6.346185418536815170e+00
-1.501741432995847392e+00,3.747319814044077990e+00,-3.136702897295860382e+00
-4.190199569622591547e+00,2.678859519491897156e+00,1.934567027436957964e+00
-4.880339327160012175e+00,-2.264771957535254732e+00,4.257295738808907437e+00
5.208055225303175328e-01,-4.542549142975698118e+00,-5.585157763146198384e+00
-2.297693228687499811e+00,-2.610216296040934747e+00,8.770187387111341160e-01
3.309951381685221961e+00,-3.310885044892786677e+00,4.209556263135733722e+00
2.318566238558791959e+00,6.899573753106819085e-01,6.991742358914089905e+00
4.552612844916633650e-01,-1.888208810516381619e-01,-1.885993046953013064e+00
-7.704579830548343722e-01,-2.575714777823784329e-01,8.965132010061823697e-01
2.197977437123947109e+00,3.690371584368087099e+00,-2.139601980550214222e+00
-1.924510304454630560e+00,-1.425396136683946935e+00,6.430788210276407568e+00
-9.531802980458518038e-01,-1.447161531833409898e+00,-2.008004464855700721e+00
6.524477157864862598e+00,-1.888696512393697402e+00,2.878863854033436809e+00
6.548538974884041686e-01,-6.571110734528282094e-02,-2.631845231450303801e-01
9.158971827085586881e-01,-6.088280038813690398e-01,-6.286450579344561307e-01
-2.173475066998239724e-01,4.244137588755570789e+00,-5.851524556248800302e+00
1.486273791810074796e+00,-3.254863521181916575e+00,6.474399143467688411e+00
-3.967139830507688369e+00,7.801402583577625727e-01,4.616558116920672639e+00
-1.064077074447343119e+00,1.273315980162469108e-01,4.559705444647861761e+00
4.539594882363146233e+00,1.394554852663456357e+00,4.222873795504080263e+00
1.658579869778654459e+00,-3.291301851975108939e+00,-6.132105130030219620e+00
6.278525895921740485e+00,8.959382097634299713e-01,9.924531786005748035e-01
-2.650823046579481979e+00,-5.519275344768110436e+00,3.683033544289233685e-01
2.437202033624064512e+00,5.347760701131576866e+00,1.389959945231045824e+00
-2.973357902474169201e+00,2.668067416189486174e+00,6.108579376113041803e+00
-5.315821507619063802e+00,-7.157251191179161420e-01,-2.092055261155313595e+00
4.398430000929327566e-01,7.211182721731061562e+00,-1.361734783284821448e+00
-2.735883427337189033e+00,2.131000550188871578e+00,-4.047081988636169747e+00
4.619563083333245501e+00,-8.862251786049636648e-02,-5.182454836954198285e+00
2.133160338618409035e+00,5.070415907124881549e+00,2.603377185699479845e+00
-3.220028012154363850e+00,-1.376911186734933734e+00,-3.166335852290337538e+00
4.092922550256109737e+00,-3.423220277114814358e+00,3.523139377016712537e+00
3.002113189525391856e+00,-2.254916857893782378e+00,-2.357408212306916440e+00
-1.603454973314934584e+00,2.097433146760286249e+00,-6.670588252086362857e+00
-3.518759586782114201e+00,-3.594362448489922368e+00,-8.896298112264289237e-01
-5.422056941204506098e-01,-1.707960679653198532e+00,4.926441775332086159e+00
1.888102640038638924e+00,2.472372277736959223e+00,3.665613377852880106e+00
2.681485609309607554e+00,-5.161795248271599412e+00,-5.137681538193120678e-01
3.186064475780315153e+00,4.438983572214517004e+00,-1.980874675629291426e+00
-4.426556599323157926e+00,-2.576160236396023429e+00,2.019676397528229472e-01
2.256916405690698291e+00,-3.857593076465664961e+00,-2.191814505439431571e+00
-3.012913258690940843e+00,4.513968804226883291e-01,5.244577485373230985e+00
-2.995063629204765654e+00,2.262545457564406615e+00,-2.144019975272173362e+00
5.187119845567525367e+00,-4.779602015828139372e+00,-5.236097695245712780e-01
2.681594141002832554e+00,-1.805101697475395561e-01,-6.910984978023245739e-01
4.617681665236156086e+00,-1.340463611245316100e+00,2.747697104512119015e+00
-5.768008574754851736e+00,1.636007959519199639e+00,1.385265994824075531e+00
7.745608270061551393e-01,4.797646175626905318e+00,-3.074305081569513320e-01
2.456675843432473361e+00,-4.350208523628551482e+00,-3.988362093194709690e+00
-2.361570922716627940e+00,1.130799898663366276e+00,-6.412037130314170774e+00
-6.015145306944191361e+00,-2.422730551020474188e+00,-1.248120284377893352e+00
-1.108267317833944832e+00,2.295089635191164823e-01,-8.552544249608520222e-01
5.871966321886868734e+00,-2.075980335497602969e+00,4.838297020663155368e-01
-2.959377565056679149e+00,-1.124238136107496011e+00,-5.054094918562666905e+00
2.541359625122650012e+00,-5.319981564086776471e-01,6.679531238656734260e+00
6.236680471709965978e+00,-8.934915734997159742e-01,-1.511474160681300472e+00
4.746918696265799653e+00,3.974334007044935557e+00,3.064530991265601578e+00
-2.302544625890191821e+00,-4.580694847378451229e+00,5.114977835284238994e-01
-2.468145751763656914e+00,4.160097849454712282e+00,4.964102293655463072e+00
3.349652406325344778e+00,1.710391825899456458e-02,5.627936737152882785e+00
-4.611472294452577114e-01,-2.282714159310544222e+00,3.910000799506204050e+00
4.280516498712464646e+00,3.184981002378806991e+00,-1.912279744344629107e+00
2.137282836927632435e+00,3.492295685030121000e+00,-3.625827424929621401e+00
-5.104520179382729950e+00,1.818530127998997159e+00,5.026619460710550769e+00
4.021164870447585749e+00,-4.072160437215686990e+00,1.290256185012563339e+00
-2.656617874005293700e+00,6.002568259313508792e-01,-4.628833173809217882e+00
-4.318825716274043103e+00,1.321309981550333745e+00,2.912405584264814440e+00
-1.851295446465308359e-01,1.820024509280946390e+00,2.313908725924854082e+00
5.612852007276151411e+00,-2.427246192674378911e+00,8.439916987497027012e-01
3.942029084631084146e+00,-2.679699119731169255e+00,5.539923096504980604e-01
7.683448381587123510e-01,2.640070546242660132e+00,-3.719812295335177765e+00
8.533378122482604411e-01,-6.841906342232267235e+00,-2.119866249698239974e-02
-1.785983285239925111e+00,-2.587874815187234390e+00,-7.948479992235613079e-01
-6.074060693020356005e+00,3.543165610346755923e+00,1.079808386164624601e+00
2.492864830484954108e+00,-2.447201138800000120e+00,1.604649929719395240e+00
-1.930898530193387863e+00,3.418502742943533512e+00,4.112657408744417431e+00
1.668796699988310150e+00,1.291858957319850454e+00,1.704891103875421532e+00
-2.323876611907509826e+00,4.997674640628802400e+00,-3.790290220294652901e+00
-4.164865244694964552e+00,4.446126647239999841e+00,-4.000022307896864859e+00
2.020847309859568508e+00,3.008088713340688614e+00,4.510624175994349727e+00
-3.349433457984869023e+00,-2.106168855521029393e+00,-5.871591201404137150e-01
2.898335290558844424e+00,-1.482983223933699080e+00,3.501342527843141816e+00
-2.348959212095667493e+00,5.431999730102289980e+00,-3.031087643308742585e+00
-2.406577867668867832e+00,4.698483005767463361e+00,2.229244608865142752e+00
6.685771688739320373e-01,5.961941339005922380e+00,4.072951939548239864e+00
-1.047230925880728636e+00,4.034110119708955722e+00,-5.334152768631692965e+00
-1.216849782992427187e+00,-7.908320913169923916e-01,-2.524026721178660893e+00
3.992877298101602079e+00,5.329908724170566714e+00,-2.224113652591293455e+00
8.225528963096641055e-01,-7.189908093242111109e-01,-5.264428051805652764e+00
9.793854038343946522e-01,4.115007544883584778e+00,-1.694591781146523646e+00
-1.361839374032780547e+00,6.648236101097833917e+00,-2.302400260346887162e+00
6.949079616252042513e+00,-2.826693775270087694e-01,1.586563571897988245e+00
-2.164100030023180743e+00,-4.516937649432356316e+00,-5.454930927085215764e+00
-8.644034504091755444e-01,-1.793023270554617854e+00,-2.636273110133020126e+00
6.523907772458453103e+00,-2.618415392464670255e+00,5.543959444031868466e-01
-4.640763916500492137e+00,4.343481472704933677e-01,1.395145447939547534e+00
4.283441661959426661e+00,3.951222153775791668e+00,3.972675866379262732e+00
-1.530759064942343484e+00,-6.715178234323903039e-01,-2.343446271220497590e-01
-2.929345007876686058e+00,-1.525965327770363755e+00,9.747166624740691843e-01
1.166384568424642110e+00,-3.364934154735922167e+00,-4.049276063242348123e+00
1.429159120300019792e+00,8.119987220448026122e-01,-2.106347591580812306e+00
2.020159288996470792e+00,-2.623941095298627069e+00,-5.383287152419860888e+00
-1.742891418484675770e+00,-2.342437653335863956e+00,-1.563818308072502772e+00
-1.696020612992486187e+00,-6.199326987733602579e+00,-1.354386361494099543e-02
-2.956910902760539361e+00,-4.130472981172278457e-01,5.155817276110807867e+00
-4.353326301594140357e-01,1.876978594562484393e+00,3.998272674888335931e+00
2.312973121853798109e+00,4.493551108780781789e+00,-3.470275312502586473e+00
-1.228236990787648919e+00,2.862224868317880144e+00,1.029762400383035931e-01
-2.093436155912988372e+00,3.962567172804311699e+00,2.782202761071423947e+00
-4.224825339162502580e+00,-3.838640670984670322e+00,-4.275766968106026411e+00
1.814861004699693581e+00,1.965454277755988022e-01,-6.402323435419694064e+00
-2.581686263169300499e-01,-4.907688669217765032e+00,-2.529630472332043301e+00
-3.067049010189014879e+00,2.684140781793163733e+00,3.439055570262896655e+00
-6.078855540315320383e+00,1.560685108485391659e+00,3.586348434412843122e+00
-6.112505650757888986e+00,-2.832122527215304775e+00,2.287164747592483061e-01
-1.619550234827353608e+00,2.499560105229349460e+00,-5.291900068077048935e+00
9.049730707938514751e-01,6.375323121896749434e+00,-2.238634683591377961e+00
2.811403719977691562e+00,4.246389923843278069e+00,-5.229655169904446899e-01
1.408572961095089005e+00,-3.790036130218259469e+00,5.038062998639693646e+00
3.162976101825684339e+00,1.038213684318885610e+00,-1.587650949991668448e+00
-2.197979614988422981e+00,-3.477573516524295805e+00,-2.310952954395173009e+00
-2.694175135019460932e+00,-1.950064564850817028e+00,5.666668296105794589e+00
-1.430012830385014588e+00,-1.268293330003768649e+00,3.751401572744763602e+00
-3.754405914386276688e+00,-3.198775659313712438e+00,-1.859517691595708788e+00
4.662692903755111473e+00,-3.501488588084961773e+00,-1.077280741580627144e+00
-5.065642580681169349e+00,-3.215179520302371863e+00,-4.059106696312683837e+00
-3.916418152242504114e+00,-3.578874852937773188e+00,-2.113418801900247779e+00
-5.437596573598059813e+00,-3.893033753554218102e+00,5.604764250729314945e-01
4.891547097476716566e+00,-2.350216507469321758e+00,-3.851853088740771813e+00
5.483631957303868987e+00,1.334231666836968699e+00,8.919799524365911170e-01
2.873447669798926407e-01,3.659698669136143279e-01,-4.407394406651755858e+00
-1.501716597473090165e+00,-1.574624233768155745e+00,6.298732977641017250e+00
1.742656308162119805e+00,5.058745346574177182e-01,-3.574739102562652260e+00
-1.596511863982378321e+00,-4.024408266245879773e+00,1.321054227564774974e+00
8.905022213783120311e-01,-4.328432658010071599e+00,-3.929746783574171509e+00
6.017012971424568590e+00,-2.535640804644012647e+00,2.304039356576100817e-01
-1.429998093267929482e+00,-3.224178635136460080e+00,4.399612500260072778e+00
-3.687021094285291678e+00,-4.264561889728883060e+00,6.271934054088291743e-01
-1.591366372352720049e+00,-4.258465426009054866e+00,3.470162928475449604e+00
6.148154483138737803e+00,-1.380468263823239505e+00,8.834712178751780165e-01
-2.265679517369061813e+00,1.484217426293344300e+00,8.356543146551125290e-01
-1.299884138336632855e+00,1.817544002675127279e+00,-7.277221434340929163e-01
-5.463855644616195661e+00,-1.956829642649628553e+00,-3.810717922238334499e+00
4.936359852193804798e+00,-3.395606640220118155e+00,-4.133606775584616422e+00
4.166311678579451616e+00,-5.296073823278613091e+00,-4.146209990147973756e-01
5.515075763286640509e+00,-5.704022153701290287e-01,2.899137467973273541e+00
-2.765643608180828661e+00,-3.029560804355270864e+00,3.136810477131446451e+00
-3.118240659089703382e+00,2.988307455834759541e+00,-3.768212640615669518e+00
-2.176572306137926349e-01,1.214968777328687466e+00,-5.090303838315611173e+00
-5.917073070212031993e+00,-2.625071281556517810e+00,-3.210702624728403620e+00
1.445332908737511080e+00,6.936534753427790356e+00,-1.177242798954955427e+00
2.547758804977873659e+00,1.026110687207852257e+00,-6.186806971098088859e+00
6.031614655424104576e+00,2.940621559911661631e+00,5.099994317013576903e-03
8.301052597155239576e-01,-3.608525599488518143e+00,7.351727120916238256e-01
2.259380993049568520e+00,1.222684575197289236e+00,-1.279429774493380911e+00
-1.985618740078608946e+00,1.981170388920143743e+00,-6.395285657533368529e+00
-2.006024294297643618e-01,1.580447222174604427e+00,7.230633153539689495e+00
3.147602663741009277e+00,2.612716189428485603e+00,4.020936361952060167e+00
-1.515240515501599772e+00,-1.563096716865945091e+00,-2.851288101736590974e-01
-2.220146469108856269e-01,3.980300614392586311e+00,-4.113118049760603689e+00
7.801149599763100850e-01,-7.122782403027290155e-01,6.335073823425508621e+00
1.049194764651482314e+00,-1.726109777022568181e+00,-6.984539561292034904e+00
2.894452972481583064e+00,9.829262828997634704e-01,-1.270967474199964364e-01
-3.931924623289436926e+00,2.534820935900910843e+00,-2.319229511937291655e+00
1.740917327440419937e+00,6.067120238614351457e+00,-3.251578704232065853e+00
-2.266197860517381812e+00,5.566203110189356096e-01,-3.929651753018494453e+00
1.313480747665857207e+00,4.084820065651752152e+00,2.618278980271486756e+00
3.500471648338079333e+00,-2.987717617286125282e+00,4.050007493335765929e+00
-2.429205120811301466e+00,9.540322608219692357e-01,-3.914493913262675484e+00
-2.482494828014315119e-02,-4.700064809492108253e+00,1.743229830775941513e+00
-4.925549894491912717e+00,-4.577890973653919282e+00,-8.282998735367286258e-01
-3.587263291164874079e+00,-2.696696303374089165e+00,-5.030338774240637356e+00
-6.703354889696612195e-01,-1.131690507286332803e+00,4.461643413038710593e-01
-1.466945803302799334e+00,1.524633680941792191e+00,5.263686616291781029e+00
4.275580556755646633e+00,2.895744103128045754e+00,-5.307969320204187547e+00
-5.143058490762128621e+00,-2.334133862360339151e+00,3.277311646153270086e+00
-3.145534743624561091e+00,8.604525701990267672e-01,-1.835438000085002838e-02
1.681923546450672102e+00,3.291221878709483573e+00,5.023327758741594984e+00
3.905588642922443565e+00,5.357328657963024376e+00,9.258397478823661153e-01
-3.055679165415256637e+00,2.164200969444716183e+00,3.073766255276474180e+00
-1.799593789187201809e+00,-1.092113973204945632e+00,-4.013370226561685961e+00
2.325777305852294141e+00,3.447041914061945711e+00,-1.895252263191103070e+00
-3.145835392840649725e+00,-2.110403753381579151e+00,-4.097906926769633529e+00
-2.793158073155545651e+00,-3.724985476727552314e+00,5.775278445508108760e+00
5.921493722251875980e+00,2.648257051954348018e-01,1.005311489467889396e+00
-2.734931855381073973e+00,-2.490039332584465193e+00,-6.275261644067401612e+00
1.486558630861871677e+00,-6.372458171752636957e+00,1.324907376530391589e+00
-5.151527644048648824e+00,-4.848587472474160442e+00,-1.575831926155760510e+00
-2.460679327183848686e-01,3.093388287696979599e+00,-1.496829766406442552e-01
1.887805295668093963e+00,-4.494101629371744622e+00,2.090723698736736968e-01
-4.517547297966372000e+00,7.163457047422069346e-01,-1.440920381479681600e+00
-2.901886795755313830e+00,-5.313987898743902427e+00,-3.924025263730819280e+00
4.606293541899063371e+00,-2.607249371071988620e+00,3.117527734743361201e+00
-1.257949144535697172e+00,-1.480196569305920917e+00,-6.134576362231618063e+00
-5.840801879574045730e-01,4.982643276742084737e-01,2.724375552614015650e+00
4.074675009406237614e+00,-2.369783282539943858e+00,2.292593667520318235e+00
5.219581606717856204e+00,5.177313592892845762e+00,6.267633566912915455e-02
1.819448624719644858e+00,-5.235920113487414485e-01,-6.569914135349550044e+00
1.196974519072790066e+00,-2.097417541940912677e+00,3.001708203036471012e+00
-2.008295833031715549e+00,-2.951695400288666171e+00,-4.969143036208329534e+00
-5.642756896378161358e+00,-2.690599368170939254e+00,1.015251917608823717e+00
-1.604337319534112627e+00,-5.474611157324213551e+00,-3.829699897545845722e-01
5.970665499473224891e+00,4.251441863039324254e+00,-2.188832826012840349e-01
-8.248992255066384116e-01,-5.886194697343835713e+00,2.610371207292355500e+00
-5.292071272705147766e-01,-4.920285736167743451e+00,-6.466430983237591024e-01
5.392702751013040974e+00,-4.093579827787944048e+00,-2.356694848891989214e+00
-8.474005406470440649e-01,-4.665252286437451268e+00,-1.611709042514315016e+00
-2.107538694960908288e+00,-1.396319861265225004e+00,-1.065375854349935647e+00
-6.806227851347433910e-01,1.578691700491493100e+00,-3.090889128814081843e+00
5.546876905167206218e+00,-6.318301131740516885e-01,-1.190588647052907456e+00
1.101489023012752755e+00,2.841439652901817770e+00,-1.464415482337220187e+00
-2.795797740633521045e+00,2.618214661565710255e+00,5.652872234596904022e+00
-1.142495923851990280e+00,4.894246217412379529e+00,3.316048425036262515e+00
2.371313630086084867e+00,-4.594428425100736124e-01,-3.281033275284167772e+00
-1.182921189260261130e+00,4.637250774356536986e+00,2.524258289186835480e+00
1.124392971417881748e+00,-9.256636953483231567e-01,3.039235362847925614e+00
-6.610226836794620420e-01,-5.466736842203479441e+00,2.851295930138824986e+00
9.567441331548963701e-01,-2.172406476052019642e+00,-5.097659198022058469e+00
-8.468689776341579156e-01,-4.834758974301904821e+00,4.696355332912187208e+00
3.745968732276420798e+00,-3.326297015585203631e+00,-4.073541522341458387e-01
-3.869582505062933997e+00,1.307880151908388244e-01,-1.895807087883720765e+00
-4.053228495025775757e+00,-4.189142236128643226e+00,3.955955190429440105e+00
-9.456844850121792767e-02,1.251110489458783670e+00,-7.289831060494986303e+00
-2.374369731826652341e+00,-3.484270470343188819e+00,2.911051988968798465e+00
-1.810287893015400718e+00,4.453607587993666073e+00,4.708668668785690237e+00
4.297347845506128472e+00,-3.299721488449641971e+00,-1.509257188675339645e+00
1.877576030248962358e+00,1.953962340278667442e+00,4.300409791333794196e+00
-2.466335333318456779e+00,-1.486804968958941542e+00,-1.376252866267837049e+00
-5.389723859505086700e-01,1.928427997947627315e+00,3.488664954919171723e+00
-3.159902696084238460e+00,-3.177398953235246459e-01,-1.384875972422646484e+00
-1.170543484649029908e+00,-4.180346364173218809e+00,4.754648406888840384e+00
