2.207292657150030202e+00,-3.145195807763180973e+00,4.778349977290682893e-02
3.849104947898069007e+00,1.175893257610647336e+00,-1.174628544458575119e+00
2.002903320897821970e+00,1.363250783492063745e+00,-7.835848176031275925e-01
3.967678191724595682e-01,2.551526002892473333e+00,-4.089427030421136422e+00
-1.440362084220835337e+00,1.961313212353552382e+00,-1.804564730888964963e+00
-1.947057764284787940e+00,-3.712618762140676765e+00,1.774657158212771701e+00
-2.847820899394483130e-01,2.221359853500509407e-01,1.506705544819475717e+00
-2.819092974889072956e+00,-3.015871963018310620e+00,9.812718951058579941e-01
-3.964923084594973446e+00,1.627946443407146004e+00,-1.216140358074035088e+00
-1.549350365409377428e+00,-1.242540414020310013e+00,-1.273123828651430367e+00
-1.673162986728857105e+00,3.966258059995757534e+00,-3.317692980102008971e+00
-4.774825681574452751e+00,-1.162626123856497634e-01,-1.544221238090585924e-01
-1.006845922401134574e+00,-6.267075669628813239e-01,3.562629380565140558e+00
-5.315429597802910910e-01,5.019866719049631776e+00,-2.803850409166542823e-01
5.684653802452361404e+00,2.364844842750835063e+00,-3.973288222215211274e+00
-4.781364034268399621e+00,-2.535265281970340290e-01,-1.613904189701729441e+00
2.768290266452360093e+00,6.844176700814096348e-01,-4.265795879095356291e+00
-9.259899448997372939e-01,2.159818493696500141e+00,-6.100940209957761429e-01
1.613804122986394418e+00,-6.322118408187765048e+00,1.840953577995923851e+00
-2.126082522723761747e-01,2.366990397408057500e+00,3.199235407566024758e+00
2.071387285851009619e+00,-2.413050487714788694e+00,3.048198612561879295e-01
1.282450166893166488e+00,-6.435018601361169877e-02,4.442858612034749299e+00
-5.361452005479246274e+00,-4.829406396375893751e-01,-3.046972978851155478e+00
-1.276889768820050675e+00,5.460651235762959743e+00,3.313948030367228625e+00
-5.348371159295452593e+00,-2.638332669443289036e-01,1.356924401637785493e+00
8.402581264863261401e-01,4.374896385330925841e-01,-1.707902630697516466e+00
-3.562356756340120612e+00,9.656743841252048155e-02,2.657958648004737690e+00
-8.855026328536705904e-01,-2.758546325916495512e+00,2.469134505935699497e+00
-9.502667886934355046e-01,6.671489296964147719e+00,-1.240503978168050248e+00
-3.812846848024503466e+00,1.162174790671795854e+00,1.444470028564080799e+00
9.145850371541273116e-01,2.521856382838813193e+00,-9.618671851616475976e-01
3.476590020400235903e-01,-5.466515524094554657e+00,1.997887016938669769e+00
3.512369615765460917e+00,-3.283156716268287756e+00,3.143343536100059316e-02
-8.709238837728524585e-01,4.533126026823185661e+00,3.754809852581331153e+00
1.437192035890095143e+00,-6.365453808169778682e-01,9.184943778774848355e-02
-9.834794397087051054e-01,1.363466105033120712e+00,5.234906151094087079e+00
3.362186554283289830e+00,-3.194991631058464732e-01,4.282390104436519351e+00
3.829447594391519605e+00,-4.873547539208115675e-01,2.900292007373659331e+00
-4.304440784079870852e+00,-1.799337456536116209e+00,-2.925349369395365273e-01
1.389974870765118053e+00,1.776830156240376768e+00,1.083840503729521787e+00
9.800556819146838405e-01,2.055510747856014397e+00,-4.279162647908134609e+00
-5.532690806583849152e+00,-1.937030006804239868e+00,2.396084286995619372e+00
-2.157898560222409223e+00,-3.616001697143680804e+00,1.370397691612369240e+00
-3.313970893719836663e+00,2.111868956260705588e+00,2.239563164410804053e+00
1.289636208962348984e+00,2.526703080207198138e+00,1.339498150380816544e+00
4.642737777217217143e+00,2.472131465374759474e-01,-1.824319291203059468e+00
-2.083453061835610853e+00,1.093477088774439387e-01,-6.411054741729277362e-01
3.069046468771480241e-01,-4.284771257141927414e+00,3.456600746185267248e+00
3.041684734370746934e+00,-2.869714765889933794e+00,3.402415955256705704e+00
3.358365583155441314e+00,-6.870222780229631176e-01,2.348223903586307060e+00
1.267597180369511412e+00,-3.740155560291892112e+00,-2.107007145545797933e+00
5.684821586346368250e+00,9.925783133134058467e-01,-1.811354216427648156e+00
6.884306350089193227e-01,1.692773084643279136e+00,-9.043376999603950361e-01
1.739361232874959695e+00,-4.933257768366179796e+00,-3.475152390748026843e+00
-2.920336491920500599e+00,5.614514351379335189e+00,-2.869480104213496308e+00
5.256174311620189776e+00,1.395841277615884612e+00,-3.232211840092901856e+00
9.183759396838824252e-01,3.716061735489524676e+00,4.731956286648869359e+00
-1.746551814368952238e+00,-4.217041458137257059e+00,3.218519245084150882e+00
7.650466234637256502e-01,-5.241606996750908465e+00,-1.968180136699631433e+00
-7.329595307232470436e-01,2.105309306704920280e-01,-3.035993824875439007e+00
3.865670504929115125e+00,4.071895200357455447e-01,-1.219797012458377239e+00
2.954130161639237251e+00,1.911362386212275943e+00,3.208495483206890153e+00
2.612215132786642191e-01,2.983815646232023333e+00,-7.601044976026637423e-01
9.949272506208814981e-01,6.216029589393414767e-01,2.502168437416969038e+00
-9.386182341557210984e-01,-1.081829745589250935e+00,1.591785042809001460e+00
-3.539787186878863956e+00,-1.386778281464952522e+00,-2.927687002137270511e+00
7.618536102097149820e-01,3.322375912507776974e+00,1.025855672971091925e+00
-4.123751850862143797e+00,-3.023935699869604865e-01,-1.427076843961366581e+00
-9.160195730624856036e-01,-3.093143461922339021e+00,-4.218887450358799640e+00
1.764099743588745106e+00,-3.131118831977710570e+00,-5.473584360241795288e+00
5.442282100047732829e-01,-4.569243019572856390e+00,-5.351421087393624987e+00
-3.670824819864020760e+00,-9.229922175300256937e-01,2.101755928355087288e+00
2.202402805480861758e+00,-2.246405977951871247e+00,-2.884343506079578567e+00
2.893361654071163969e+00,2.561708134470431997e+00,-1.710819935090578614e+00
-6.582924897467316017e-01,3.747306669768182275e+00,7.902015094025038877e-02
3.719461718896945879e+00,-1.673476059380984982e+00,3.675577662721163819e+00
3.416060508733066658e+00,-5.052145526171911705e-01,-4.098795805285228688e+00
-2.163993714365296750e+00,2.443626358701272983e-01,-3.615419319501259388e+00
4.273015468153549407e-02,2.643170057123489514e+00,2.244728060698949257e+00
2.555450135738686623e-01,-1.458273364829378860e-01,-4.006863609060221876e+00
-6.714791498749194121e-01,2.288960831972171928e+00,-2.985130578252560341e+00
4.323627935616587870e+00,4.710144716646021412e-01,-1.087872419547365688e+00
1.938506769310889943e+00,1.245067557947007630e+00,-4.404597029460217250e+00
-1.645657680033456582e+00,5.643209906729373060e+00,-1.402799702340118637e+00
3.565099151167230862e-01,-3.572489363114563332e+00,-5.810339559187390535e+00
5.152800757462545622e-01,-3.858207142000469769e+00,-1.384727744253803516e+00
1.436893892204388345e+00,4.636212476932536575e+00,-2.079417766764203090e+00
-1.844272150378096109e+00,-4.482410500757208816e+00,2.092068093630022663e+00
-3.928013736820715529e+00,-1.114749326434799181e+00,4.286022513555654889e+00
-2.626012419246382734e+00,-2.522878711662138951e+00,-2.452883436117729410e+00
-8.999355477178547780e-01,-3.540487880394058262e+00,-1.210734503862574307e+00
-7.321229730883856979e-01,7.816388386257805410e-01,3.841243345588735369e+00
4.050514552449087091e+00,1.172757550588990005e+00,-2.017960385656500488e+00
4.586052757596370988e+00,-7.909722410604660414e-01,-2.297682032840109301e-01
-2.418562173238075541e+00,3.745795731995571032e+00,2.226444573345202738e+00
3.224736703377686808e+00,-2.596787898645773307e+00,-3.115170318119670156e+00
-1.689671627697523659e+00,-1.754543976739965538e+00,-5.595003831778784242e-01
-5.310971266226328424e+00,-2.297641444843302683e+00,1.437101768495717691e-01
2.005163719753241813e-01,-4.810920650236593765e+00,1.882766521516011871e+00
-3.510943958895379247e+00,2.558488580154148817e+00,4.805930732445823361e-01
7.508700553337218642e-01,-4.586826961992446883e+00,-1.477979895357955042e+00
-4.540354427013244099e+00,-1.628451699252434270e+00,3.685105939681911025e+00
4.158891108006689485e+00,1.136609131050616561e+00,2.453544828284393020e-01
-6.692220525804885023e-01,1.612682671659837252e+00,-4.275700339821474905e-01
-3.248757425511575314e-01,6.384594721163581177e+00,-1.739826371128381677e+00
-6.290211850924847248e-01,-2.103191377756331804e+00,-3.971162331941692880e+00
1.917094226416274250e+00,4.330444365014425867e-01,-2.280811451330013284e+00
2.305698838599052447e+00,-3.014704005541752441e+00,4.014680368477631101e-01
1.554531908670820251e+00,1.561725336193315217e+00,4.518491971881076097e+00
1.349803275364470367e-01,-3.061155919277469550e+00,9.055805694836110975e-01
3.967993524045905218e+00,-8.019754646171518564e-01,-3.915546267293095184e+00
4.654090294359828128e+00,2.670453600975824404e+00,-3.182653384519989359e+00
-4.089770465879143835e+00,1.396666155556572919e+00,1.198494175446976451e+00
-1.417178027501525994e+00,5.493930161274808377e+00,3.599065997272096196e-01
3.043058515925078478e+00,-3.171763521063251989e+00,3.579887869238137732e+00
2.468193576587615290e+00,-1.337425063382563062e+00,3.903057945236702242e+00
-4.124925456264460166e+00,1.036082823610469994e+00,-3.420634700006272677e+00
1.711845647035271867e+00,-9.205746748163904369e-01,1.585219409727270712e+00
3.527994287955766861e-01,2.353506195200508522e+00,2.219044099748232579e+00
-4.410977242258023345e+00,-5.035013325904341697e-01,-1.615096155698539038e+00
1.578775057286552874e+00,-4.770319250280662615e+00,-2.779875960187268014e+00
-2.265129503749882645e+00,-4.475950922424268619e+00,2.877729509436297572e+00
-1.227173655786243156e+00,7.251477241987688283e-01,-2.231762685226962528e+00
2.887315298229683469e-01,4.014125242097327906e+00,-2.883953035758851424e+00
-3.516431427170470858e+00,-1.517078383180400891e+00,-2.190827935022958250e+00
-3.866949847611377833e-01,-3.200241192267115231e+00,-3.003607762723087493e+00
2.922933703194218857e+00,1.180877459327275947e+00,-2.703452024460668568e+00
8.975920330437712202e-01,-6.015758370463177407e+00,7.794746902418777657e-01
-1.351460927829350733e-01,-4.894558334945093847e+00,-1.921258617330228624e+00
-2.073872551732878211e+00,-3.644662616022193991e+00,-1.701951863829888945e+00
-1.943223243679943479e+00,-1.984616686245730177e+00,-3.229197796963078293e+00
4.481201257887852840e+00,-8.572069063909086850e-01,5.243895528178135201e-01
-2.165933967332025034e+00,5.049465399083126194e+00,-2.432107746042490692e+00
-1.004255021842044959e+00,7.968261999652175298e-01,2.986827079877607094e+00
-5.578555832851739282e+00,4.329546081322981910e-01,-2.361976114904045243e+00
1.591628567075219713e+00,3.568640886316622129e+00,-3.766183983107447286e+00
-2.896435484591939336e-01,-5.024766676323586090e+00,-2.122121657324142208e-01
-1.059930154928205637e+00,-4.399067952444574381e+00,7.329901293043006305e-01
-3.834800795247969685e+00,1.596217185173712805e+00,-4.000004408858533367e+00
-4.366741705076543911e-01,3.014865541712001829e+00,1.956809273801118243e+00
2.589759015667676967e-01,-3.245864838475279956e+00,3.572062214136413782e+00
2.830046078627451944e+00,9.524666698472432635e-01,3.620145684040165790e+00
6.565474180495683987e-01,1.976995451434191864e+00,1.638687841356801234e-01
8.036391946640010220e-01,7.974304823947552245e-01,6.579280120838129076e-01
3.464488529785481052e+00,2.549260769452962538e+00,-4.040269139945654508e+00
2.384312644362724054e+00,-4.010623445192526004e-01,-4.840031454361599650e+00
1.980945224574068575e-01,-7.075761204157294815e-01,2.895209631665725869e+00
-5.557669379445322466e-01,8.832220234874740283e-01,6.732255327296682301e-01
-2.500653049007432571e+00,-3.118475396871647209e+00,3.681666055701962481e+00
-1.157180635892478548e+00,3.949541739666201146e+00,6.300633788926842449e+00
-1.945745872136067645e+00,1.382699798756229947e+00,-2.667470753347149226e-01
-1.801769368893571421e+00,-2.764575468194275132e+00,-5.572061336130532005e+00
-9.956395487964541102e-01,-7.780865689806983898e-01,-2.415258965986432305e+00
2.343193910445907857e+00,2.297998606978531200e+00,3.714310166895669063e+00
2.191965414932617318e+00,3.886878035776606399e+00,4.510780111924589941e-01
-1.472589216188801009e+00,4.573439136750673484e+00,-3.034445611226047834e+00
2.699684063575456539e-01,-1.238109915236515368e+00,2.340820700055838088e+00
3.678127378000905168e+00,1.324068491852872675e+00,-2.778175147578517912e+00
2.393415737139320765e+00,1.261390770488951318e+00,-4.735478901814841102e+00
5.150676079023649656e+00,2.145806515501105682e+00,-1.622620000832483589e+00
-5.619124062577665057e+00,1.484503410859189798e-01,-4.434661947131129267e+00
-4.821538522265741422e-01,-9.890936303865494050e-01,-2.063551596309830316e+00
-1.543159522505501924e+00,5.250216655809287758e-01,4.985213992274722727e+00
-2.233170884329039207e+00,4.557504784459914582e+00,-1.993381206343097789e+00
3.538967505221707111e+00,3.212474776004417887e+00,-3.878735631410930029e+00
3.443776964097172932e+00,1.686344826567391708e+00,-3.277145617704935621e+00
3.074291964326327342e+00,-1.057563552236036319e-01,-3.457293966956158648e+00
-3.048188781040647166e-01,2.341295937567702712e+00,-2.226795282568418521e+00
-8.963203616312823696e-01,-1.550227304494161906e+00,-1.166775568846606825e+00
1.893962674236435717e+00,-3.801550457440891484e-01,-5.079334300408385738e-01
-1.968098073551930893e+00,1.387083765040150407e+00,1.143352827919323689e+00
5.007086941064908814e+00,2.512192604685969499e+00,-3.649055471287515062e-01
1.418617402622253332e+00,-4.983807156280795958e+00,-3.859774482248907734e-01
8.271364900656358321e-01,-3.815263253570564839e+00,-4.180942057411191293e+00
3.668490395428590567e+00,-1.199647705648393847e+00,-4.255752483348619997e+00
-1.211458645279073876e+00,-2.801169736529887100e-01,4.390852322341122438e+00
3.975092165632943542e-01,3.092810859779111077e+00,4.645893575269213760e-02
9.647997189563887188e-01,-1.746604608556445948e+00,2.726190074631814841e+00
2.482259832011607603e+00,-3.915644842218202193e-02,-2.306639093035764976e+00
-4.607219548561764633e+00,-9.977361551592777156e-01,-2.680789541134136478e-01
-3.453819839530841040e+00,2.258339226909476860e+00,8.421337472069508889e-01
-3.841284454772353474e+00,1.950801397620508526e-01,2.558451366643372804e+00
1.265451581199927622e+00,-2.922368039915732130e+00,4.979162270267105672e-01
-2.794255576982678679e+00,4.508272245048043914e+00,-2.814779322541742790e+00
-1.181758183917018812e+00,-1.309259220714126259e+00,-4.202533763134477240e+00
-1.023348214691637059e+00,-7.320729483862723486e-01,4.240459757126761708e+00
-1.041539469402602780e+00,-3.568102766676688464e+00,1.481590928625380998e+00
2.069404078133138647e+00,3.546195778523633102e+00,-1.680978335304177174e+00
1.949287149223310367e+00,1.555083491142085439e+00,-3.359462070765698360e+00
-2.005159309810405632e-01,3.009918577133930961e-01,2.271928108651853684e+00
-1.253310745910692914e+00,-4.127954613094919623e+00,-6.147286835492313806e-01
2.709066566316542968e+00,-1.178871681173636388e+00,-1.889134087528527406e+00
-2.956388333850147543e+00,1.046934392427998128e+00,-1.720308071945817752e-01
1.175154090890665248e+00,-2.971294458895493484e+00,1.598539042048332970e+00
3.565056537692714134e+00,-2.704721105575276674e+00,3.537963873609698329e+00
1.338986725627368646e+00,-5.149971560086312294e+00,1.980593895819261707e+00
-4.871647026299478433e+00,-3.309679082808681283e+00,4.216199274194014635e+00
-3.124197649630384710e+00,-1.380507299849834446e+00,3.125498563913755579e+00
1.949998573930424639e+00,-1.625005234437936652e+00,2.266656277345944659e+00
3.323443577341201660e+00,-2.357910364380008339e+00,1.154398141440520220e+00
5.438409916781237641e+00,1.795204676225757412e+00,-4.321157390991707814e+00
-2.125697474417156396e-01,1.980792496129680558e+00,3.957831450714447974e-01
1.217144623443709106e+00,1.834435234805758874e+00,-6.043343589120588888e-01
-1.577109232376351367e-01,-1.357529580028662197e+00,1.081552587741678950e+00
3.231139064823277396e-01,-3.199840471893122817e+00,3.434630427781976136e-01
-2.707410895574938969e+00,3.668964178192601455e+00,1.063440262091058131e+00
-2.979059239822718474e+00,1.163307903319668046e+00,3.054838288883240938e-01
-3.583426341833288564e+00,5.277919627369203059e-01,-5.855829071304697875e-01
-2.296248160988374920e+00,-3.117372287336066528e-01,-2.905514373188039734e+00
3.478000881604747185e+00,-1.904218002450598080e-01,2.807823274663819646e+00
4.110597662840555166e+00,1.341890451586788213e+00,2.419436223416630227e+00
-1.663000110566968281e+00,-3.615653020444318688e+00,-2.558494512713146651e+00
-9.407571611122513000e-02,-2.736346154520817864e-01,9.805510121794414058e-02
6.693309930693258636e-02,-2.295043716328750705e+00,-4.808313391794135860e+00
1.316754581996770312e+00,-6.398551980031810804e-02,3.946476590727232114e+00
-2.991192000109892835e+00,4.044333349614821493e+00,9.337917007403060410e-01
4.663147277246140199e+00,-7.142512672481894642e-02,2.764065893517078543e+00
3.193197139963940501e+00,1.959238395947918931e+00,-1.775360129612533200e+00
-5.893848563136473429e-01,-3.079760906260724962e+00,-2.479294183014675745e+00
-7.756589936229195681e-01,-1.412293803220790567e+00,-1.190377972975640297e+00
5.414325756343931317e+00,9.832441867896029031e-01,1.045061249165527784e+00
4.837616304056736816e+00,1.463073817682100763e+00,1.121638217589857822e+00
-2.543456197907985938e+00,-7.536957976563650741e-01,3.843744826853190966e-01
1.574669361621578112e+00,3.729536396931029785e+00,2.207993278289500580e-02
1.096813995056885815e+00,7.668667014815704064e-02,-4.123331722565310109e+00
4.281353937259193998e+00,1.731860649691312481e+00,1.435684212426074469e+00
1.947633801551853283e+00,9.077380757898740882e-01,4.215844444556979376e+00
1.330590339663217714e+00,1.645562036289264007e+00,2.353631802692279784e+00
3.844118756775586121e+00,3.510909747881949983e+00,-2.604854549926578056e+00
3.653225110062855996e-01,3.831087461954068463e+00,-7.725212386992605929e-01
4.251327248015834392e+00,-1.276385671034609093e+00,2.288335882102129570e+00
7.818963390905681043e-01,-4.278352802233658991e+00,-3.838040179597318691e+00
8.502726237609301574e-01,1.868087282565525475e+00,6.099879462378022810e-01
-2.711139869496128174e+00,-4.234127483465004005e+00,2.165128856982652561e+00
1.121523697448400386e-01,-3.235520115614093584e+00,-5.972573453228274154e+00
-3.913515251329880318e+00,3.508265887366672331e+00,-3.059763294474907358e+00
-2.519601789909603706e+00,-1.946626190786115151e-01,-2.413011740029677998e+00
-3.874812566203623687e-01,3.235704651848154256e+00,-9.761569356397578612e-02
1.193880295917503664e+00,1.336914067343918155e+00,-5.264800763505272929e-01
-1.931299958533581052e+00,-1.111741808022407296e+00,-1.519262614254995425e+00
-3.065873689929368595e+00,-3.508744925657636848e+00,-1.414900329544805102e-01
-5.072082751477704349e-02,-1.929797677050486826e-01,1.777849629468609249e+00
5.047747940532898436e-01,-3.621921294281542192e+00,7.233351948812990484e-01
-3.003370208714838618e+00,2.140324312857182054e+00,-2.907949063813922930e+00
4.273332738127706421e+00,1.547565047936363403e+00,4.004479283852321103e+00
-2.932308578815056688e+00,-3.351433073633264925e+00,-1.447550763030805765e+00
3.193980999190906278e+00,1.014163410481437877e+00,4.312028802299232022e-01
-2.538404708999609127e+00,9.540169829675911872e-01,-2.677754250081627152e+00
-2.634608339714164416e+00,1.465119034233457462e-01,-1.559399541053205773e+00
1.603311297639969046e+00,-2.110633797343150153e+00,-5.358543052984061639e+00
5.766892620348411214e+00,-1.418889093801838606e-02,3.632291768856362513e+00
2.002147967855125443e-01,4.240004309624355039e-01,4.664609032168958613e+00
-4.383383366976333129e+00,-2.975081669992430289e+00,4.258113601573880302e+00
-6.461019969965368093e-01,-4.675716799257640055e+00,3.009294523084329320e-01
1.913544991792892336e-01,-7.126544192547712431e-01,-7.032954023344355488e-01
1.579697482762323801e+00,-1.417809322488337687e+00,3.001393610532912870e+00
2.233599086941448597e+00,-2.519108810390132902e+00,-3.301709734897491644e-01
2.533777834423873720e-01,1.383321925955922405e+00,3.350068968297243099e+00
-1.461388436632005128e+00,-2.519546678214161783e+00,2.088968705266083248e+00
-2.092301268560249616e-01,-4.621090134028859708e+00,-2.227135117410525833e+00
1.035823948142529982e+00,1.061203871377027763e+00,4.419303609870865124e+00
-3.599244388135775186e+00,6.756921955223059717e-01,1.734714894084100401e+00
-1.558354937073777258e+00,-1.227024108428262039e+00,-1.063622189086330438e+00
-2.291699023262918633e-01,-3.126919609258968613e+00,-1.086515044976412270e+00
4.397493712782917008e+00,1.039399468589395498e-01,2.384364217507249917e-01
-1.909420781361324648e+00,-1.927442079615182546e+00,1.083156936965859796e+00
-3.401093835340533111e+00,5.731953826802707042e-01,3.654047126640100895e+00
-5.851667671917621938e-01,-3.600233476566696122e+00,1.439789088262145800e+00
3.491190861251554645e-01,-2.729049109390786931e+00,3.755162101508048522e+00
-5.080191922296933837e-01,2.267434363017201360e+00,-2.795367098088497038e+00
-3.491940013763982886e+00,1.923723050311673344e+00,2.701784136006822656e+00
-2.582450226447348118e+00,3.084403543279810034e+00,3.440338794434256275e+00
2.742777493529559241e+00,-4.658265955698322358e+00,-5.678970508156707675e-01
-7.432637711261808056e-01,1.176195837341749373e+00,-1.348747376661364017e+00
5.799593320228572324e+00,2.871429463304738139e+00,-4.563960974878297883e+00
4.305073323352989867e+00,9.225488020861776217e-01,-2.650953608843075848e+00
-1.256920554827840597e+00,-4.260899204427645692e+00,2.570492967266094109e+00
4.271110858802212640e+00,3.389343109282397792e-01,6.610665762862576456e-01
-1.639798150840887203e+00,-4.540262385578029414e-01,-4.347419986568779926e+00
-2.120088686305011461e+00,2.035362346146571522e+00,-7.599632674980849600e-01
2.733779349464025454e+00,-1.793164812341272674e+00,2.497696672068237422e+00
3.810616647304239657e-01,2.671303270189617218e-01,3.520530497184526375e-01
2.926751941873063867e+00,-3.661167231713780001e+00,2.048243278865707229e+00
1.656146801917459221e+00,-8.287422367178669536e-01,8.685184746351600760e-01
-2.437752718197885304e+00,4.509584678244422662e+00,1.054049030054112990e+00
-1.694467107911449499e+00,1.518933757507926252e+00,1.818529880416916766e+00
1.663471652626311803e+00,-1.285574584183468705e+00,-2.220495034721444050e+00
-9.817761326400847866e-01,5.174784226718615265e+00,1.265566770504733540e+00
7.934102231568006536e-01,-3.932184839952419519e+00,-4.019422005493148653e+00
1.614933415472579625e+00,6.057999145488957016e-01,1.711638515810286254e+00
2.601516594125707904e+00,-6.157653708296664696e+00,2.625505326646769166e+00
-2.405289872382544158e-01,2.217183373218282738e-01,-3.486535376114030971e+00
-2.825963144807663419e+00,1.209329262537890137e-01,4.104182444697595855e+00
-5.652348744903531452e-01,-1.993548694890850514e+00,1.262139424131124343e+00
-3.192934855956509832e+00,4.517385351039205355e-01,-2.233231334663541290e+00
-6.276331187349264873e+00,-1.008119437404822349e+00,-7.070295338251435524e-01
3.894385922587387583e+00,-1.633697736823320756e+00,3.077652620991320642e+00
-3.167236513825373301e+00,-1.251929846024785409e+00,4.384701471061970501e+00
-1.087851575246704172e+00,4.199601755910563838e+00,5.094997743820478320e+00
5.911441543726647652e-01,3.923912707723297810e+00,-4.418874278765796415e-01
3.841756071936001327e+00,1.515432357640364325e+00,8.325373032846771215e-01
-2.213968268567633846e+00,3.564422465520099337e+00,-4.629412677562433354e-01
-3.039270564599891866e+00,-2.869820360246449820e+00,4.094266617030034361e+00
3.125290048056309278e+00,-3.698412111186011320e+00,2.640808317719287146e+00
3.858748629004095321e+00,3.793603609737583038e-01,-4.059329636412869036e+00
-2.623498180404341351e+00,7.677030581301712286e-02,3.216434628254115857e+00
3.890244937955205096e+00,1.429784982755075984e-01,3.890314426682298876e+00
2.582406238759816564e+00,1.236720987871718025e+00,1.220902231896162093e-01
2.019103455341426656e+00,3.527936691861538243e+00,-9.299590231333275669e-01
1.748514573904405456e+00,3.353622792138785336e+00,-1.324320050208960931e+00
-4.186146420594106243e-01,4.461242130451868348e+00,-3.236618830638988253e+00
-2.368898048288808234e+00,-1.993550648116980240e+00,8.279260749926568019e-01
1.789454252101077225e+00,-1.753560553323479265e+00,-5.104335228230359789e+00
-2.554251008915701782e+00,-2.666329253122124321e+00,6.699511284610274453e-01
2.325281515167478830e+00,3.250433245076196354e+00,-7.702031047145352360e-01
-2.062650861595480389e+00,-3.428526798769755413e+00,1.229497109288834045e-01
2.924067053132685112e-01,1.590861775023897584e+00,1.164689288849265703e+00
1.173183533301393355e+00,1.969652783705850174e+00,-3.522507322748234859e+00
1.507944945141468152e+00,8.686346774867954867e-02,-3.924079194475292631e+00
-3.308547779652444842e-01,-3.721195957280133637e+00,8.631741112019309936e-01
3.443459472578161762e+00,-2.666242094001290752e+00,4.634297877793711051e-01
1.173497641112425605e+00,6.333353514701872689e-02,1.074758466435967064e+00
2.628722800789348835e+00,2.555811306455180176e+00,-5.408493929838390502e-01
3.503966627017588209e+00,-8.050494491227951077e-02,-3.103159980733591006e+00
8.988628902136655552e-02,-2.626246547740406445e+00,-2.605501323073448283e+00
1.366598874611522296e+00,-7.034067885886809535e+00,1.406280307898719384e+00
3.359689221430767869e+00,2.003740487752201815e+00,-9.101764352027831295e-01
2.088612072089963967e-01,5.282988964883862160e+00,4.328538097165038345e-02
-2.247780428954800680e+00,-9.840503777284574927e-01,-2.448935375978457674e-01
1.709556330038219940e+00,-4.884717685975755508e+00,-2.455627108177639517e+00
-6.573424702252985696e-01,5.288932159830284974e+00,1.178183313989924041e+00
-3.104544144244541837e+00,3.498597423744674195e+00,-7.578303215338072496e-01
-2.149682764940250568e+00,3.248215970185813983e+00,1.041448544281933897e+00
4.092835983906605080e+00,-2.818208391942538249e+00,1.366431163913723212e+00
-4.574965173151320563e+00,-1.645515343600180369e+00,-2.444385969281187787e+00
1.242511793732065772e+00,2.922368548554609813e+00,1.106653874128221915e+00
-5.449735755215238259e-02,-1.831529663138902420e+00,1.578007491537861684e+00
5.218427226738327818e+00,1.417934697413972156e+00,-2.215248001176279846e+00
1.791316262048851193e+00,-2.470603235349614568e+00,3.847737518862704764e+00
-1.873636601308854122e+00,-2.543342496440436307e+00,-2.210538104876630661e-01
-1.223959832133034720e+00,-5.023447499452469156e-01,-4.974226531052373446e+00
4.755063693082883236e-01,-1.122938005187481325e+00,1.902167455346654101e+00
-5.759045667665342094e+00,-3.100508671481772005e+00,4.231815910474710840e+00
2.482948537935996569e+00,-6.992875090239143443e-01,-4.029760350041875050e+00
3.442389232903537266e+00,1.056267320270643656e-01,3.277124436258228357e+00
-2.549617814591463638e+00,4.722050526723381991e-01,-4.406604945380179217e+00
-3.102983463120150276e+00,2.394083798795094253e+00,-7.649407495949301916e-01
1.292159980394127494e+00,4.431155196245517125e+00,-3.149093590301322187e+00
-3.190204939853077182e+00,-1.808742843513483911e-01,-2.996281828250844992e+00
-3.843064761344356373e-01,2.573655928998587417e+00,4.011594617595832801e+00
2.131555754855425366e+00,2.946195304124775483e+00,4.201147516634205381e+00
3.348861704416671525e+00,3.980633114922602189e+00,-2.443677086582087377e+00
2.186174320586912412e+00,4.194021658338200065e-01,-1.142956686030331070e+00
-5.799140107232681807e+00,-1.826124182046978683e+00,7.427418285228229791e-03
-4.057156610929174789e+00,1.813184383950307232e+00,1.612196822155112397e+00
-4.545256677477595431e-01,-1.042551377056816664e+00,-1.344383987514679912e+00
-5.507554307328520693e+00,-1.745845262834617162e-01,-1.413809836091815209e+00
1.913823827012551160e+00,2.221603500577190360e+00,1.856849228337431254e-02
-3.905758909302904591e+00,2.878081223936608257e+00,-3.581302805379717125e+00
8.035737660772238611e-01,-4.371671856720518612e+00,-3.765884246128066604e+00
-1.117786263052208184e+00,2.667922907490043460e+00,-2.510970408812742249e+00
1.243567674172507465e+00,-2.395285441895238510e+00,2.742647045362834657e+00
3.097124100343043640e+00,3.638116912454100405e+00,-1.513897422217074462e+00
3.562897484939331338e+00,-2.875003274036105338e+00,3.145319983051310775e+00
-2.939360899983576747e+00,-5.603464965517035434e-01,1.486572403834068301e-01
-5.328248701599291870e+00,-8.076357293696579953e-01,2.398905205129920615e-01
2.835789687225382494e+00,1.562516893421675546e+00,3.993937685451735220e+00
1.146089617931218996e+00,-4.308915210451983668e+00,-4.812743271386035637e+00
1.579323194942159114e+00,3.651074712780126297e-01,-4.463654605963935929e+00
-2.429151932622199972e+00,3.396173335420533235e+00,1.171447173716576140e+00
-2.902437918029686426e+00,2.791055184489319885e+00,-2.315501659953526747e+00
1.026705265055613658e+00,4.443833324215471059e+00,-1.921599733617144867e+00
-1.430370123059881760e+00,3.938977022919457838e+00,2.165628564037571646e+00
-1.643579718102372800e+00,4.727067817029763752e+00,-1.802857046796527252e+00
3.578574482934018808e-01,3.437325788918658143e-01,-2.829251456175625012e+00
1.059837314767051453e+00,-1.468396975292338702e+00,-8.211931128351024345e-02
-1.564448723273357045e+00,5.387710829157232872e+00,-3.962769711712737369e-02
-1.829340539737320137e+00,1.897117947051236930e+00,-2.308626446730914328e+00
-2.196825744188852791e+00,-5.030496642385663408e-01,-3.968505515849638510e+00
-2.116089027860257321e+00,-2.836425337292602489e+00,-4.617392177526257413e+00
-1.625277207686678160e+00,-5.049217176685382391e+00,1.400002654163087445e+00
9.646735711617311360e-01,-1.699494029363365577e+00,-3.231008091167750784e+00
3.089337136704538800e+00,-1.146053164821398962e+00,3.028660800546157938e-01
-2.675599385722936763e+00,5.039708130625985660e+00,-1.666923390075751188e+00
1.095524687690670573e+00,2.165595465096378458e+00,3.523827595393158152e+00
-4.018859095619214727e+00,9.188709963079647602e-01,5.535789268276833930e-01
9.478483921919298449e-01,-1.354240579662556065e+00,3.809110783446535642e+00
-4.430173175451430190e+00,-1.222162977691713781e+00,-4.480777869411810777e+00
-2.972566027351919438e+00,3.976821326018197489e+00,-2.431251415043263364e+00
6.966451552586708784e-01,-3.553583238877148442e+00,-5.476588384960139777e+00
-2.257534822773839878e+00,-2.610706199193300492e+00,-7.302795323718509479e-01
2.065228091430539870e+00,1.649405968393246047e+00,-3.951945703228598283e+00
2.374172316934672011e+00,6.344373310577724467e-01,-1.659061614376094784e+00
-3.203995018711991882e+00,1.721258310763765342e+00,1.438974710541548685e+00
2.567815909033723365e+00,-2.745378744007652139e-01,-2.191956140782105766e+00
9.890281145278003727e-01,3.531187402870759495e+00,4.497056795647549343e+00
4.392677046175075262e-01,2.142057179602975925e+00,-3.731010066532737923e+00
-4.953850971041006801e+00,-1.344367897450631510e-01,-4.567535704562717846e+00
-1.568969037306458814e-01,-2.418633603819967171e+00,-7.048536216990441972e-01
6.026777160330931693e-01,-4.683847791556079443e+00,-6.348620886609993574e-01
7.181362437802978338e-01,-4.807065328483580480e+00,-3.698642027959424095e+00
1.971771346894538368e+00,4.129649469551743834e+00,7.760535050785408728e-01
-9.735405153454650407e-01,2.289628411139204012e+00,3.465205854004155483e+00
-4.098879378530337902e+00,-2.233808265986857222e+00,-2.480143678428121223e+00
3.462533741117477692e+00,1.743233992329616955e+00,-1.614703347756555551e+00
-4.556762303255612045e-01,-3.966505172284167990e+00,-1.835345945233435971e+00
5.411987055269761315e-01,-4.714555101988611163e+00,1.560989604228204986e+00
-4.945551727195779179e+00,-1.262269319599897299e+00,3.307817262959846349e+00
-1.099126025880315716e+00,-2.443071144708615527e+00,-5.146012511739431083e+00
-1.546394908799385126e+00,4.823154951676959179e+00,3.872653047703411566e+00
4.357590417634173541e+00,3.310237911419539270e+00,-3.629890520316986446e+00
2.187316001264441034e+00,8.766817539813804849e-01,-4.889496255938059477e+00
2.514290216533158429e+00,9.184421477654932664e-01,4.890219269079636888e+00
5.534729350326167641e+00,3.568302171670932887e-01,1.366709109276070588e+00
-1.001482132670414416e+00,4.690093933958158878e+00,-1.516138044615290559e+00
1.796144120193164495e+00,2.196030670415023867e+00,1.302169696836150026e+00
1.897779929974557689e+00,6.137665771500814271e-01,2.507210229250976141e+00
6.328701199118659249e-01,-3.711910605587730227e+00,1.413927371899652341e+00
-1.482627196762836608e+00,-2.912045165106037281e+00,1.691089140440336758e+00
3.742043629458330578e+00,-1.097699786301746583e+00,3.561430291315613950e+00
-2.880713989613390424e+00,1.194012274627404002e+00,-3.825205262805082995e+00
-2.839393425458457187e+00,1.999701218391351842e+00,5.069216378942627443e+00
4.121580894815942919e+00,2.153909695045836958e+00,2.810635723262638663e+00
2.010786966170681200e+00,3.147466284948774007e+00,3.342519040252250884e-01
-2.453928904366024177e+00,-6.004999771356908100e-01,7.407794890018500888e-01
2.171458199857029037e+00,-4.753712187265268341e+00,-2.036805559196529281e+00
8.893904895222326523e-01,4.343140743894756461e+00,-2.320357417385956911e+00
1.229190313222025877e+00,1.484579531209930137e+00,-1.923408096903017877e-03
-4.880528176661322881e+00,-2.575027537910416608e+00,3.499945564814336496e+00
-2.424243904818931039e+00,3.761191596582454277e+00,2.666623013942275300e+00
-1.239735070965560348e+00,5.450735599070766213e+00,3.375101290235886786e+00
-2.382773778248916674e+00,3.245006927637721805e+00,1.569651157571599898e+00
-1.532357775513324860e+00,-4.286162743812045317e-01,-1.224566193709372586e+00
4.165821076563890751e-02,-4.037483105954279838e-01,7.235760633506471695e-01
1.309351489870590690e+00,-1.162278907344854867e-01,1.774512800502357157e+00
-5.958361696049529144e+00,-5.345015321892598870e-01,3.365291083629962793e-02
5.532091511370955672e+00,1.081886686453526369e+00,2.781639679933576303e+00
1.216206261126081323e+00,-6.017696294726015083e+00,-3.131334232652245309e-01
-1.893013559879641594e-02,-5.341494694512357810e+00,1.030967792088651303e+00
-2.594082870197485846e+00,-8.071192827015262194e-01,9.445152846937399094e-01
5.368755431562949321e-01,-3.238515352398795510e+00,-3.939707655838054490e-01
-6.020867542178117565e-03,-4.540489842207806603e-01,-6.665535998854973387e-01
-3.153872867719293538e+00,-2.018550759556194230e+00,-6.300983841952996212e-01
-8.440376712793691560e-03,-1.444266347337710421e+00,5.009198507603871420e-01
-9.837384842881515823e-01,-3.248203807014585998e+00,-1.241602059259786506e+00
3.798553686997918621e+00,-4.215559578674213381e-01,-1.942907155025985322e+00
-2.926253315567144964e-01,-1.823672122712337584e+00,-2.425560619135367357e+00
-3.668549444653579794e+00,-7.186316487409193376e-01,-3.311778350216104005e+00
4.208820515761304115e+00,-1.592124617603944747e+00,-4.506669667756811881e-01
-4.334901978859597271e+00,-2.241937255829128617e+00,2.662853417308390647e+00
-2.254520629534084275e+00,5.691472502642074716e+00,-2.409294614196677120e+00
1.417006253862946874e+00,-3.970339554120162262e+00,2.505456816595754255e+00
-1.439076592126608212e+00,2.809455986021651253e+00,6.001300858668387583e+00
1.170254228927936957e+00,2.898210323629275997e+00,-9.151734029960979511e-01
5.933529704927038573e-01,-5.981154991674177523e+00,-8.899431434652298467e-01
2.980524710263325328e-01,1.281259808941311640e+00,1.303057612765947004e+00
1.518192103536120552e+00,-1.244566135578084820e+00,-5.319757214632970799e-01
2.424735214952275231e-01,2.925301305645382488e+00,3.459111176616233685e+00
1.595245270440898366e+00,2.579613705031635340e-01,-9.370454029099766213e-01
1.245518650349103362e+00,2.838772573257565490e+00,1.147870646090523694e+00
2.138651225798799682e-01,4.244224580142494041e+00,2.185367744137990176e+00
3.981229291670912218e+00,6.540223525748938282e-01,1.613790210373341694e+00
-2.807514486334551584e+00,5.221717870366749281e+00,-2.859426499118878251e+00
3.006499903106726101e+00,1.357962529468110802e+00,-4.625372496560968827e+00
3.542336748237000510e+00,-5.182640123177931768e-01,-4.078063922540041908e+00
-1.372716112395290233e+00,-3.498694758880570799e+00,1.675634370381503091e+00
-3.599874461225318623e+00,-2.229050352637269583e+00,-8.282163771354685844e-01
-6.472066414099818532e-01,4.970946482116715970e+00,1.762192425679141472e+00
1.281506929492390423e+00,-4.549563129893970270e+00,-1.802598079269201348e+00
-6.084798779501733312e-01,-4.617915165516123466e+00,-1.681153655805159630e+00
5.187818648316080861e+00,7.192102080968296729e-01,7.153108151526986758e-01
-6.339573651325297377e+00,5.184105562355186825e-01,-4.065352484419709533e+00
-2.689424784021560821e+00,1.332908570893734490e+00,9.411674027919687546e-01
-5.665279075662623676e+00,-2.640912549924541164e+00,3.388540887575169247e+00
3.371450127331273805e+00,-3.313737974756446825e+00,2.467484527840188235e+00
-6.060911155342652457e+00,-9.919174584746508483e-01,-7.224769437419424900e-01
-2.103179846286009347e-01,2.492907910541393601e+00,3.003382176474662213e+00
-1.566725340041647874e+00,4.887981215032511706e+00,9.592640599097308762e-02
-3.589673388929641162e-01,-4.017577225130305685e+00,2.738769360394518237e+00
-1.614183123755781546e+00,5.665075671175596739e+00,4.740783322582865500e-01
-1.730999860774527832e+00,-2.315697822175498022e+00,3.521351628887012808e+00
-7.348696269774868117e-01,-1.147614113474653363e+00,6.532017163631349543e-01
-7.169386140172335775e-01,2.168272508848458457e+00,4.528713926968901404e+00
-1.000117303063154939e+00,-1.924374168613276259e+00,-4.462594100341321202e+00
2.150630602582739304e+00,-2.981500911683701016e+00,5.647816076056918488e-01
-4.393042383520010752e+00,1.456938489667673808e+00,-3.853972365127864119e+00
6.636028790479668871e-01,-1.605315306405614040e+00,3.690394463517207679e+00
1.485580274760315289e+00,3.769141431029959133e+00,1.711330243759273950e-01
1.167525874506250227e+00,3.744466904302551136e+00,2.673881394457555238e+00
3.740503811039882498e-01,-4.591752523838020572e+00,-4.569369985833607650e+00
-4.125989775799949744e-01,-1.359485578008680307e+00,-3.863090837686193879e+00
-1.760190048576077526e+00,2.495595668673340040e+00,4.736707319145240014e+00
4.110799161510019228e-01,-5.695436287396730357e+00,-1.125175753542800583e-01
1.026275584813183574e-02,5.581041302444509355e+00,-2.194954288497852346e+00
-3.726727351649895770e+00,4.347333132158737179e+00,-3.144268085539349666e+00
2.146473664441693519e+00,4.072035485719755599e+00,-2.473012550452914571e+00
5.292114749642256477e+00,6.576981632542878708e-01,3.742372226804385082e+00
7.451424043660575050e-03,-3.358051979699513412e-01,-3.184635459665881907e+00
3.322632645890055691e-01,2.367545089140365100e+00,2.778952813316534876e+00
4.274002007800212333e+00,-1.155566744474098462e+00,-2.252315135072207486e+00
