-2.251719872086328955e+00,-3.457311040963023441e+00,1.303707847877222381e+00
-6.373847637670861932e-01,-2.929104248697207868e+00,1.068710001653828234e+00
2.530337649526694488e+00,-2.550025487513121636e+00,1.008000198552855053e+00
2.018855685443259773e+00,1.386893027940408807e+00,-3.458292532057043012e+00
1.005411439015043928e+00,-2.617335214136914612e+00,8.519567447166911389e-01
-2.517840492321337109e+00,2.329241530376313651e+00,-5.431509669826176667e-01
-6.086765348849899615e-01,4.042035606773058731e+00,-1.184175744202766944e+00
1.792371548941630532e+00,-3.746600031641468043e+00,6.891729787379643479e-01
1.486408302483728017e+00,1.966681653102955396e+00,-1.728826512658011350e+00
-1.176447687298652678e+00,3.297006975012348295e+00,-5.508919629437839527e-01
-2.062190549169619302e+00,1.730807099377516867e+00,-2.354134391896166800e+00
3.429456963866177155e+00,6.555575613993863682e-01,-2.974168313928010843e+00
1.318006689325717851e+00,-4.293386151450333976e+00,5.704832207490848628e-01
1.773495704581298016e+00,-1.446089628776676239e+00,1.558252258927016465e+00
9.786538030870521876e-01,1.253590067261076024e+00,-3.560841563426990319e+00
-1.634166518048632666e+00,6.916398697310570665e-01,5.709371357645608436e-01
-1.712754565377287541e+00,-4.466388178459275715e-01,-1.794761109330607063e+00
3.203187122420487309e+00,-5.168025100558429896e-01,-2.366893115961944183e+00
4.576570140896192851e-01,1.315761807346792267e+00,-3.660942979741408365e-01
-2.093763415742087020e+00,2.538340044126528472e+00,-3.268173004857833241e+00
3.039877066929122865e-02,1.953846628225346160e+00,3.738430315346919830e+00
1.849311934460734941e+00,-2.524390697421162955e+00,-3.960289763208637015e-01
-1.470488343746659154e+00,9.251268720368093224e-01,1.259973071345150908e+00
3.534157408897169894e+00,2.731839457292522422e+00,-2.285511279481730329e-01
-1.578681557002253655e+00,2.388602453193262143e+00,-1.465323754119576494e+00
1.939725703151671699e+00,8.280168000432521769e-01,5.318920973052745360e-01
-1.803229631444243530e+00,3.394425874539834798e+00,-9.275190649973624746e-02
-3.846519694387732891e+00,-1.595732253454037686e+00,2.014192878488631155e+00
1.765617949616508531e+00,-1.486757010618989572e+00,-3.717379953342472731e+00
-3.783585435301636490e+00,8.979314790463045481e-01,4.525565473984162479e-02
-2.888169578544583782e+00,1.511445842088438019e+00,8.660668236566239075e-01
-2.746292664243608517e+00,-6.316854848005166723e-01,2.755708727654498258e+00
-7.352499090189837938e-01,-5.046694415353124574e-01,-2.869551512893310896e+00
1.160924913569469030e+00,-3.437258795385269433e-02,3.499081027424392865e+00
-3.264850977444303748e+00,1.099686376424586109e+00,-2.927949490125905996e+00
-1.554924281169589140e+00,-3.701247298812904596e+00,-8.367339524745097679e-01
1.589540841733826371e-01,-2.330038149643511858e+00,2.498711548520078374e+00
2.938108957395204168e+00,2.653026459721677277e+00,-4.007444638513930624e-01
1.229399069804253397e-01,1.607765925620293190e+00,-1.378520450291263355e+00
-2.188033963807469284e+00,1.533460053093812503e+00,-2.921772143132800537e+00
-3.111766494738660960e+00,-2.101816332143172872e+00,8.807273792696933556e-01
2.767682686298748450e-04,-2.319257446720795687e-02,-3.145677055178181192e+00
-2.360368286909069635e+00,4.494999334684429693e-01,2.266497086683195050e+00
2.243454596937613399e+00,-2.211881048132863903e+00,2.024317079471130487e+00
1.626638126200584122e-01,2.913384268851701098e+00,6.125151302854522223e-02
-1.067486983632100067e-01,-3.296573187481467215e+00,9.921354747079829117e-01
-5.114547382239558182e-01,1.198833769408041094e+00,1.027663819328505479e+00
-8.934702629045671030e-01,2.593012936494591081e+00,-3.641712998078563857e+00
-1.469921396593945495e+00,7.311185845211666257e-01,-1.688773754968752261e+00
-3.452393196534964126e+00,6.115321553727250947e-01,1.828507293810371248e+00
-6.579896758883297947e-01,2.763964078310522599e+00,1.977937878816713901e+00
8.282998463425251812e-01,3.609558896058274957e+00,-8.118708077139239476e-01
7.623824714537383862e-01,4.084899251693783206e+00,-1.441695388285360035e+00
3.237602260620181749e+00,-1.146471030222537824e+00,7.666832607563650592e-01
-2.343179860081077592e+00,8.228971699949874097e-01,2.659948765347119437e+00
2.569718705871781417e+00,-1.554464020040416394e-01,1.456984228847621354e+00
-2.646036797055975498e+00,2.943331027423557789e+00,2.072289660543227274e+00
4.728867073365707885e-01,-1.156622563487929023e+00,-4.310675707839222603e+00
4.005712895482787528e-01,-1.994986314449112674e+00,2.300260205341468467e+00
2.293526849486109409e+00,3.585247632367846382e+00,-6.346179734821367768e-01
2.720684810946846000e+00,-1.321197385364348387e+00,2.009538304969738398e+00
1.451140069248022080e+00,1.096831788325578039e+00,1.609082724200233461e+00
7.228631659201424364e-01,-4.013597926607006094e+00,1.236143570082802956e+00
2.820834204038408899e+00,-2.220504827258933833e+00,-1.741172449055125249e+00
4.138349965124274443e-02,-4.547771045804990919e+00,-3.412874412239636501e-01
1.234317211072322618e+00,2.466913487071212607e+00,-8.601397904588312660e-01
-8.692189121646568539e-01,1.881663080825091816e+00,2.971062984274952079e+00
4.405159630314152253e+00,7.771973562207793451e-01,1.242841702938659809e+00
8.813443007040280275e-01,-4.000634298215189233e+00,-2.194541593928635237e+00
-8.372180555879388253e-01,1.382180312977157932e+00,-2.500559640979675979e+00
4.489544384508434294e-02,3.452685057499196741e+00,-3.096450319798032425e+00
-2.245630255136871423e+00,9.705177142953498315e-01,-1.829313420536510026e+00
-3.077307495843441210e+00,4.062605326749872403e-01,-2.474354236858808509e+00
-1.763869700326865964e+00,-7.481712280561103601e-01,-5.869515484173556397e-01
2.139939053874950758e+00,3.283626993040883679e+00,-8.272049035956767771e-01
-2.292835405189237896e+00,-2.706357585357995532e+00,1.460575572500922403e+00
2.048113519867846843e+00,1.507791460209483292e+00,-2.007856731278440332e+00
3.026282385941911013e+00,-1.050636956539412692e+00,3.343832458448541267e+00
-1.942969800115648127e+00,-3.974255190424749173e+00,7.355302495464767221e-01
-2.315985830961380554e+00,-9.309397334657523171e-01,3.900780491236524594e-01
2.723997284671671348e+00,3.616408556020515697e+00,-1.749685571125854655e-01
7.444038979380601662e-01,9.461847720139855422e-01,-3.907631955167735427e+00
-3.248461928243220775e+00,7.412564632719164104e-01,1.655583747661508731e-01
-2.984203184172352863e+00,-1.727379457784224082e+00,3.130128953606443609e+00
4.993496171591224053e-01,-3.669036223531915719e-01,4.059658483087845937e+00
6.866933287883926207e-01,8.896534788131275073e-01,-4.060628313145838497e+00
1.745699392550893014e+00,1.341806042463365101e+00,3.038279350608096507e+00
3.516004689340046507e+00,-9.592263633205946327e-01,1.450692043877092496e+00
-3.318508649829914892e-01,-2.774506472950167169e+00,3.529053041817857839e+00
2.262083663713893689e+00,1.942039093925015114e-01,-7.873925688440579496e-01
6.773499371024778171e-01,-1.111241948100860459e-02,-1.856157283389918256e+00
1.898882134947460942e+00,-9.039632760947617918e-01,-3.761239669784895767e+00
-1.009795913595546400e-02,1.479174545038792310e+00,6.670434451275665533e-02
8.309819587861551060e-01,1.566895645990342978e-01,-4.036116451093199942e+00
6.357971274004937667e-01,-3.748530959718414102e-01,-2.727803311682477361e+00
1.460911667422785998e+00,-1.724719659746573930e+00,-3.943300653353789986e+00
1.876676881072076419e+00,-3.641561270639368519e-01,3.753962387727139749e+00
-2.071984038482415358e-01,2.117961789461898781e-01,2.927686282122825112e+00
-5.552446971796144437e-01,9.157504092021366837e-01,4.385575601462017303e+00
-2.550192765558428332e-01,2.784889160455990886e+00,-1.764526402756898982e+00
-5.992943259277793144e-01,-1.648999113159647534e+00,-3.068299870856832534e+00
-3.946198254155667495e+00,-1.764256691106550035e+00,-1.389112665392318036e+00
-3.379773632186423571e-01,-1.126563848692229142e+00,-3.531901654916028921e+00
-1.711394899426687266e-01,-1.584736212275066114e+00,7.925004502636996406e-01
1.372358854379805981e+00,-2.500384160275708201e+00,1.174287389651989200e+00
-2.406692291002993755e+00,-9.484631168451922167e-02,-1.734208116231197083e+00
3.964953680254153401e+00,1.382874264372468742e+00,-1.534699436320652310e+00
1.375850679336850790e+00,2.682323253540291663e+00,-1.622166789660058006e+00
2.522002272720071048e+00,-1.693422704643318788e+00,-3.032771089601237424e+00
-2.466866910978678717e+00,-2.146424449878385765e+00,-7.655369704136613107e-01
3.117228544564396575e+00,-1.997663254757482854e+00,3.742511276861092973e-01
-1.279275973526641241e-01,2.470840141323757067e+00,2.886957480350070604e+00
-8.290199500856826331e-02,-2.384235889245289730e+00,-1.669413771698434079e+00
1.482504763978468754e+00,-2.100241276894520226e+00,2.718663254678981012e-02
-1.073052388427794712e+00,9.448852862416215470e-03,3.140486278859514258e+00
-2.640669839462700619e+00,-1.138200608172099226e+00,-1.042976789885251998e+00
2.280102116988867333e+00,3.223788178554283235e+00,2.363034786401216891e+00
-1.907454237321807300e+00,-2.947473179662628340e+00,8.555885197824399935e-01
7.230805779204021455e-01,4.302482819200573738e-01,4.345638157061045281e-01
2.655390259470924885e+00,3.406940092989369173e+00,1.612077823439052926e+00
-1.335484582145854970e+00,1.730249352371203697e+00,2.928320252387252243e+00
-1.184180748607952971e+00,3.939225416898543664e+00,1.503826379636740818e+00
5.516007824543397442e-01,-1.795504992199505656e+00,2.155149890960262660e+00
2.827728972561786236e+00,7.378554192229863640e-02,-2.258530878272808184e+00
7.369363565925920456e-01,1.901149061372187310e+00,2.216195514936294408e+00
4.228571409704456330e-01,-3.486915563884328551e-01,3.798196450705976002e+00
-4.487930002689567988e-01,-6.575931205071887664e-01,2.959159155528638951e-01
-1.383518177356891865e+00,2.854657938504289394e+00,-2.365011753237538983e+00
-3.810970396523909454e+00,1.181316301326998108e-01,2.247318560033918722e+00
-1.618862052229067761e+00,-7.692809692238944397e-01,3.276667658496073887e+00
-1.167081095700363225e+00,2.218065656925145124e+00,-1.073848983299538151e+00
2.838061192434882418e+00,2.406235682736697967e+00,1.034014292877784236e+00
2.723109271543858956e+00,-3.103030365885750541e-01,-3.007939959283198128e+00
1.743533418208001728e-01,3.040135241491890294e-01,-1.806130146578237783e+00
-5.722499045715756516e-01,1.330982879373633798e+00,-2.714495632276559878e+00
2.202299944351738148e+00,2.601452966931838695e-01,2.223457069266997710e+00
-3.324749757806144235e+00,1.248530453835040577e-01,-3.263557498522051681e+00
9.086361495760110207e-01,-1.165144577495896172e+00,3.155486412656006934e+00
-2.489798049680287839e+00,-2.288805227007288057e+00,1.164781182140772309e+00
2.682361841940188008e+00,-2.052017210555425297e+00,-3.202330988800589306e+00
3.890650800090881045e+00,7.195704644202569611e-01,-6.389050032725566153e-01
-5.924495135438487825e-01,3.346046113681854228e-01,2.141023594936252383e+00
1.745281728382609421e+00,-6.769896437005747947e-01,2.668099095416961664e+00
-3.401512794037159004e+00,-4.700165542067065438e-02,2.703501573846650352e+00
2.263828921025548002e+00,-8.888205442567244097e-01,-6.102513216295676335e-01
4.498164392445174187e+00,-9.795498048595372431e-01,2.889163355030057723e-01
4.013010415224178118e+00,-1.623874435728507593e-01,2.088948223047649488e+00
3.064662242847973506e+00,-1.526111935067664405e+00,3.088721759379300824e+00
-1.788147413889627835e+00,2.553417444534108238e+00,2.953055181259992779e+00
7.907207512668685823e-01,2.337541546203048437e+00,-2.594502190425725718e+00
-3.116639892554833757e+00,-1.976863480326118472e+00,-2.738109678017471182e+00
-4.306876833891959411e-01,1.490543196033623286e+00,3.208193740492121915e+00
1.547366197037736146e+00,-1.422470539470995332e+00,3.415001218546708461e+00
2.407472375408562515e-01,-1.740116654702370091e+00,-9.753543269554489914e-01
6.147123836962148369e-01,3.527839455654389500e+00,1.289033887693626035e+00
-3.680833472822646169e+00,-1.543000798416840902e-02,1.302090389833833850e+00
-1.732194933726665775e+00,2.095257777770456187e+00,9.014396421925426894e-01
-2.430708199374715051e+00,1.836443927259549636e+00,2.128946905200418183e+00
-1.248638231877687577e-01,8.544077765256973267e-01,4.549153841590341862e+00
-1.676905896806980101e+00,-2.087553721155271713e+00,1.956035047549515404e+00
-1.004168513803441964e+00,2.083339713861060982e+00,-8.639067786452466757e-01
3.767868352630286743e+00,1.435778547824716034e+00,2.328882188245460227e+00
2.285062507937349885e+00,-6.936942953414885205e-01,1.006537196070753426e+00
-3.780338055322831181e+00,1.125740999279095877e+00,-1.146675510363218825e-01
3.756167700728123560e-01,-2.755615793242941702e+00,2.808130102836092323e+00
2.202228273172790907e+00,2.412583369092724528e+00,-2.167435695535741669e+00
-2.876263153410164364e+00,-1.394218975075351086e+00,1.451847106595959724e+00
-1.582175237961895298e-01,-5.409563395467946734e-01,3.063618876085250520e+00
-1.638369192703011512e+00,-7.559624939398912336e-01,-2.880148623403804287e+00
-3.087425347999921854e+00,-2.319631243860921899e+00,1.663026670258890061e+00
-5.670243209558518682e-01,-4.393871688373281792e+00,1.288707782199157936e+00
-1.227217549003012609e+00,2.670877457584647452e+00,1.526713361439532290e+00
-2.449243425129273621e+00,-1.463777040207828950e+00,1.976375697448392310e-01
-1.810332242447701301e+00,1.976850216024755191e+00,3.873530863846442185e-01
-2.159472469752674595e+00,-3.431523565340707460e+00,1.112666497105497143e+00
-4.459742308856483817e+00,-4.989987370932946753e-01,9.048296465032115155e-01
1.453445127132797943e+00,1.336371998407620727e-02,-3.769619556167752350e+00
2.244404910078995119e+00,-2.516673103480101537e-01,1.326621235421433509e+00
3.228559245488505702e+00,-8.527819856246855457e-01,-8.225742258198215362e-01
1.977865182851187287e+00,-1.005319442378495021e+00,-3.462006315042711613e+00
-3.474906920402917043e-01,1.067344433567331663e+00,2.700386444546706954e+00
4.047760713204620941e+00,-1.044200632102844500e-01,1.845664511907912475e+00
5.402635099651525996e-01,1.564564751862135283e+00,-3.593895989355843645e-01
1.390892643870828671e+00,-3.206230170806452229e-01,-3.932383380529157257e+00
1.222682706360149973e+00,2.282756182939458700e+00,9.498790463431879827e-01
5.221016736862591490e-01,1.265108351186848168e+00,8.156652714355097089e-01
-1.859184062732480935e+00,5.607268941965821707e-01,-1.871340480143520280e+00
5.334955228052808973e-01,-1.448830174271909632e+00,3.111289780766109736e+00
-5.489609438638632516e-02,-9.511083939399456177e-01,-3.798094665753300347e+00
-2.043001199058860795e+00,-4.987949151254344460e-01,2.375293210348088380e+00
-8.976524462443578045e-01,2.298939711367409711e+00,-3.625283470220406201e+00
-2.196172950555227654e+00,-1.431701763324616739e+00,-1.799043991627657935e+00
2.226241032990499136e+00,8.029937118446438538e-01,-5.516037067877785915e-01
1.584428060733297672e+00,3.059279052822936884e-01,1.062043140622262044e-01
-1.907960583879947103e-01,-2.593039318324178222e+00,-7.067474733210672433e-01
8.855310862592398191e-01,-1.797173452629272195e+00,-2.713083365525597923e+00
2.153864056747760714e+00,8.347387759310472832e-01,2.070593537073929902e+00
-1.376716470545773507e+00,-1.172405879266496864e+00,-4.230149276573555106e+00
3.008652776042825550e-01,1.523673510497427275e+00,-1.098830173138499511e+00
-1.669634657277191847e+00,1.294872377499242333e+00,-3.569978730620083640e-01
-2.039950557310870050e+00,1.318429737692223824e+00,-2.309048533487501054e+00
-8.457818416499843783e-01,4.023451064919908227e+00,2.832835066570172367e-01
-3.319342684965274071e+00,1.702894224797630640e+00,-2.098170207658398123e+00
1.342213244296505570e+00,-1.146814520757854394e+00,-3.090702515630864067e+00
-1.338684587439226581e+00,-1.782425051481914213e+00,3.404358303720576906e+00
3.383797208591723393e+00,2.530800482255399331e+00,5.927537350656433834e-02
3.700344685445895898e+00,-5.287874506318246404e-01,1.276485004615458774e+00
3.812434841753098436e+00,-8.216632142475690515e-01,1.700130650443230973e+00
3.505137188484175770e+00,2.560669922018354860e-01,9.326383110995133396e-01
1.400257814637505094e+00,-3.322909091232858492e-01,3.499621637084132431e+00
-2.707526788085891312e+00,-8.075473115254572232e-01,3.248425762097621128e+00
2.619963861713643372e+00,-1.858295743224358310e+00,9.404035474336669420e-02
2.033129904822807976e+00,2.511577626285368403e+00,-2.388896746084100631e+00
-9.875005803251879488e-01,-1.755954919126807345e+00,2.986893123407005302e+00
1.560730862705254296e+00,-6.555763205648473813e-01,1.876130171335725905e+00
-7.069775687912267514e-01,-2.339370578198927575e+00,1.925726882987221833e+00
-1.095117253558751447e+00,-2.365510535381686541e+00,3.482113534418701306e+00
-2.257809851269911849e+00,2.791851136296823466e+00,-1.627859826201707216e+00
-1.437959375048268040e-01,-2.476696497995932500e+00,-3.677309049161634924e+00
6.826904703299144783e-01,-1.193993404323514085e+00,2.714588877387785093e+00
-2.201125383372265709e+00,-5.585297003618329148e-01,-2.812925360584287215e+00
-1.607024711239680714e+00,1.596614769118378740e+00,3.752655450632891299e+00
1.214276768236659088e+00,-8.555404533437123149e-01,-2.658707115074393501e-01
2.199750453276207995e+00,7.413602761653411699e-01,-3.734543885472350944e+00
-2.660332313247614877e+00,-1.918527905531328459e+00,-2.774882011557638695e+00
-2.798032769561396460e+00,7.221357093459548349e-01,-2.224986561806820085e+00
2.732932931085696460e-01,2.809608181512914360e+00,2.528499144780071983e+00
1.135859719726352690e+00,-2.526545940515749766e+00,-9.420202772581430795e-01
-1.758017668319681759e+00,8.483074563460775153e-01,3.038204409649325921e+00
-3.702314962882989668e+00,-1.800873568251186718e+00,3.967278536857691829e-01
-4.696371166375875039e-01,4.042490543407592618e+00,-2.064841875984922748e+00
2.299622337949923878e+00,-2.367198459295370427e-01,3.854997729622682723e+00
1.021271854712281879e+00,-9.848959195595163862e-01,8.838866349168247316e-01
-8.957595380994111123e-01,2.006802639124138032e+00,-1.050527273368617953e+00
-1.469691082689544404e+00,8.923776021169458339e-01,-1.752230850611487423e+00
-3.344999836587714270e+00,-4.450006349643931824e-01,6.794167706690644737e-01
-2.889393913544684001e+00,1.486624891884497979e+00,2.705643410257819514e+00
2.407913619618741841e+00,5.998448202411915675e-01,-2.036430323786639629e-01
1.753667163273716911e-01,3.061367384374886758e+00,-4.380883011757382567e-02
-2.579244935605224942e+00,-6.845473057527960981e-01,-1.627231001473841809e+00
-5.308438498002312489e-01,1.544140892205731586e+00,1.028068441451634119e+00
-1.874841374033374697e+00,-1.001226742401057024e+00,5.346863565648963812e-01
-4.369391270879840583e+00,-6.717194608672835132e-01,1.161141189495140225e+00
1.113963760783312384e+00,-1.645794650337227161e+00,3.447801004763201060e+00
-1.830548790275124293e+00,2.468967438271234105e+00,-3.468153782772974036e+00
3.155169676062652417e+00,6.036413554191434327e-01,-2.258944531238030518e+00
-1.099860727255913107e+00,-3.266128450077584233e+00,-2.232798169952741940e+00
-2.360027208189743320e+00,3.066909184088984830e+00,-4.668368404581163533e-01
-1.752478939500137667e+00,-1.331467879938115439e+00,2.675176751293046440e+00
-3.253535785997945684e+00,1.576010002241866159e+00,9.598344809337195915e-01
-1.861407345573456107e+00,4.025870785339042968e+00,-1.186844507075884625e+00
-2.132537735473934326e+00,-3.036832442326288795e-01,3.505940776784385093e+00
-2.495135557070649490e+00,-9.879630543103493090e-02,2.112755360591912268e+00
1.330818563192944781e+00,-9.039913795457793499e-01,2.217750689421740695e+00
2.740169909820596494e+00,1.123367070151807479e+00,5.779499624950923398e-01
-4.507546602567341409e+00,5.088110244473837973e-01,-1.052924112191847783e+00
2.207500217446538571e-01,-1.618293341350466097e+00,1.442836495688681220e+00
-6.261918061012248238e-01,4.379196967177499289e+00,-1.304061203851113238e+00
-1.409833904948491756e-01,7.717740676425930424e-01,4.871948470077704790e-02
1.494928930262700684e+00,4.700408588574801483e-01,3.300169306069768993e+00
2.673225203416631501e+00,-2.958207950527649732e+00,-5.890030892268514062e-01
-5.178283853404850312e-01,1.586640938798351108e+00,-1.618146869733806836e+00
-1.237997215330246537e-01,8.472171842742466374e-01,3.439350094525018164e+00
2.599546641025305971e-01,-3.157242549807673715e+00,8.986320117149736442e-01
-3.993252516032854249e+00,-8.893209604080442032e-01,2.288003936536481542e-01
-1.284723997734834311e-01,-1.298318178436472348e+00,5.513674159779158312e-01
-2.471101857558607673e+00,-7.446565931554062212e-01,3.010610637847904503e+00
-3.990453831969000276e-01,4.479742683653007873e+00,4.208557740536750247e-01
1.373821130626140530e+00,-1.515527319503824577e+00,3.110757509671262522e+00
8.423707131929154546e-01,-1.707516046743609905e+00,3.353943668416977886e+00
2.229476976755729645e+00,-4.032156815059919075e-01,-2.035623776766168902e+00
1.975837485951651207e+00,-3.517539197154382347e-01,5.700104936389802646e-01
-2.468212598367995891e+00,-1.868473539644373294e-01,5.834812847356786181e-01
-3.499698722761615866e+00,-7.875347341044618421e-01,-3.793670260072654621e-01
2.046330119048287877e+00,-2.230381449337894395e+00,2.770749950481815826e+00
-1.004799533445160931e+00,-1.707110637469114511e+00,1.722122581550274090e+00
-3.394977032382723969e+00,1.473553309152378699e+00,1.741882615586596073e+00
7.627048235112048324e-01,8.157876611494155883e-01,-4.317420675556432386e+00
9.408646971755167954e-01,-2.991264748035412868e+00,-1.249419962771860071e+00
1.428766980426693145e+00,-4.259282788003411646e+00,7.056143451257894661e-01
-3.240961087867913815e+00,1.223522140129692515e+00,-3.113328023317538107e-01
9.571299452410139130e-01,-1.019153950623534310e+00,3.919857909850004596e+00
1.004424678473297305e+00,-3.303805186776095137e+00,-1.257182663232450759e+00
8.613586407819056046e-01,-1.050440556530869651e+00,-2.008211063466692092e+00
-1.273470930639613030e+00,2.246119915526141764e+00,-1.005998678239720556e+00
-3.508792117833438251e+00,1.338704009342381873e+00,-5.403355592054333023e-01
1.933687828972251666e+00,-1.913302362198291195e+00,-2.262877806963283778e+00
1.231289635512711200e+00,-2.831117144005512731e+00,2.495139895815327691e+00
-5.524018912258387148e-01,-2.419630061345757976e+00,7.505942088394788048e-01
-7.961087532295664237e-01,-3.191303006154459165e+00,-1.924670162322764000e+00
5.710582322691225565e-01,1.257245183513058029e+00,2.319142210576217167e+00
-3.325492545209963513e+00,-1.268419846365458126e+00,-3.713582676254963966e-01
1.052425074204742739e+00,-4.088222340639500185e-01,1.903941682031437432e+00
-1.408536352586609031e+00,-3.862395834128264482e+00,-6.044840009845382500e-01
3.159039799639248303e-01,-9.872430713014789250e-01,-3.372483226045119409e+00
1.543301472232989413e+00,1.016481930487457941e+00,1.167835704508039529e-01
1.390371615146820172e+00,2.685579938644209186e+00,1.456237237051482891e+00
1.499417273559458419e+00,-3.185866115858659420e+00,1.700546734274640981e+00
1.742257143280713461e+00,2.839513496477915844e+00,2.661773354577047002e+00
-1.410582962857887868e+00,-1.306641074075092002e+00,-1.586201058214062209e+00
-6.389010732008224558e-01,-3.474315699461529294e-01,3.296307247741040225e+00
8.446684876847895262e-01,-2.005413011149713043e+00,-3.740735453936697041e+00
7.941186915969863369e-01,-7.621522587793484460e-01,2.890473074172764001e+00
-1.938944385777792989e-01,4.931505778593328615e-01,-1.329364409507576505e+00
-2.753779235601129249e-01,-2.589762818534254052e+00,2.923182520421844011e+00
1.862232201110981089e+00,-3.865416837290214236e+00,-3.210685356842729044e-01
1.497525057484495603e+00,2.685977795351893960e+00,-2.347556165137485440e+00
5.062465900274814024e-01,-1.242215429430049145e+00,2.617517753215181209e+00
-8.866883556072383543e-01,-4.397238250685149730e+00,-9.963985890302327064e-01
3.690105289492737306e+00,-2.543441021917367983e+00,8.707121556362709125e-01
7.904408194277127153e-01,3.232414195751484587e-01,-2.443014235240945631e-01
-1.307190740479270419e+00,-3.431722763297914813e+00,-1.035746145404396884e-01
-1.192498419381249120e+00,-2.271341640887272195e+00,-3.308890499225599413e+00
7.884785390897266488e-01,-7.533392842474890827e-01,-2.852272655240167598e+00
4.015967092376913961e+00,-8.032372638092991624e-01,-2.118688589746041462e+00
5.474086360077854430e-01,-3.665621556434202510e+00,1.376110838435724126e+00
9.261047386725089758e-01,-5.340347970022326640e-01,-3.289142915606981799e+00
3.982795397757695532e+00,1.945188714777233763e+00,6.059041853573400305e-01
2.686916872677289625e+00,3.095249921031435036e+00,1.224987214457614382e+00
1.961711555293012443e+00,-2.739990035918988820e+00,-3.071921322158760681e+00
-6.859373887594540087e-02,5.707009421810624872e-01,3.856144342322325169e+00
-2.498964450690977390e+00,-2.006777297938424354e-01,3.288860661825348863e+00
-2.956126622796299494e-02,-1.142785139474315370e+00,-1.447321533551510830e+00
6.020694640817948473e-01,3.573671955953740209e+00,-2.123608908723726874e+00
2.596917378662734865e+00,2.092333838791224032e+00,2.847281696448983102e+00
8.703912632698606044e-01,1.823568706386442528e-01,-2.856373976396707981e+00
-7.803458285218842772e-01,-1.928095785225640568e-02,-1.026404908884212402e-01
4.513868182634876547e+00,1.264969306904386581e-01,1.790331770826462943e-01
3.040701690101154764e+00,-8.972484304539989353e-01,-2.187248840201387878e+00
4.292621865231327050e+00,2.808654215481506174e-03,-8.267038171371429156e-01
2.008529389510321561e+00,2.066038357109720280e+00,-2.770537046711573748e+00
3.078449874204882142e-01,4.065909725842737465e+00,1.971048503986549516e+00
-6.983443528111920040e-01,1.598245635987615598e+00,8.478762862434715553e-01
-3.247551015536356278e+00,-1.933124674526134124e+00,-1.236955814746077742e+00
-1.796529790621999023e+00,-2.249471766394963712e+00,5.018874565506886709e-01
-3.220985785093931852e+00,-1.345220008909212339e+00,5.308088895598167545e-01
-8.297737488005485496e-01,-1.491175678223483347e-01,-4.582232451013060981e+00
-2.798946880273862181e+00,9.567333443676098725e-02,-1.313932968208299634e+00
6.144936424792623031e-01,-2.457651747609329806e+00,-1.218906145157419019e+00
2.321453976838151245e+00,2.219396530988490657e+00,-1.281098382061251373e+00
-2.737130891286371881e+00,-1.093817498727813309e+00,-7.528403166711018502e-01
3.413187306936954268e+00,7.717036182927746735e-01,2.668643178795752746e+00
1.657811926811397774e+00,2.887722327735048555e+00,-1.414916360424268937e+00
-3.514535975622447239e+00,7.744459983633993350e-01,-6.825806846097270952e-02
8.282545933485626621e-01,-2.110000020664819509e+00,-2.661196383184806891e+00
-6.288634065953094821e-01,-4.364047490904900961e+00,-1.210787446729351569e+00
-2.071282786582882895e+00,7.790092883491189779e-01,-1.411122988739967221e+00
-1.507585170377918615e+00,1.824595380750943185e+00,2.283758096648686564e+00
2.059708485375285836e+00,7.164061123097996697e-01,1.186322427081679454e+00
-2.168783065436419744e+00,-1.587560012546937571e+00,1.272326180280057617e+00
6.421451733561981401e-01,3.253739587012868251e-01,4.065540806461267032e+00
5.605545158589790855e-01,-1.847201290929384232e+00,3.120135952606744478e+00
-1.593678969059589612e+00,2.487132452690575146e+00,-2.189112726232587569e+00
-3.919050188895785602e+00,-2.945504873572565296e-01,-6.550162578127294299e-01
-1.376286706086680134e+00,1.142955679343505615e+00,-1.387150356414690977e+00
-2.968923430495701510e+00,5.934865224461214339e-01,1.604437526442054729e+00
-2.116033116065559216e+00,3.217239716037608943e+00,-1.052890488196479346e+00
-3.823017223782532725e-01,2.749450735329815321e-01,-3.611579443703258452e+00
-2.992479262938251949e+00,2.883951573550391223e-01,-2.161853089571726283e+00
1.511279592372283542e-01,-3.277065032612640039e+00,-4.247458397060469709e-02
-4.040209486566203267e+00,-1.285509256352760588e+00,7.771069700786625845e-01
-2.055579256303410318e-01,-3.894529420872266390e-01,-1.313977653277872415e+00
-5.407696147089222638e-01,5.546212992512790096e-01,3.939829742372717991e-01
-8.402727950073847207e-01,-3.891274114785999050e+00,-1.369808643174539986e+00
-2.775419064787479684e+00,8.785318351453331731e-01,-2.704837932984399007e+00
1.788047564025520009e+00,1.017054358200585984e+00,3.810088517722076684e+00
1.863897752249384920e+00,-9.579539861343792095e-01,-5.367790252016753083e-01
3.317953268100284792e+00,-3.285360601067959241e-01,-3.198625974033327601e+00
-2.776846175783748816e+00,1.318452575419355455e+00,2.329388100516178173e-01
-5.628093453300455629e-01,-7.736390561854055159e-01,1.464096824585610968e+00
-6.729247530796054200e-01,1.099984585170016432e-01,-2.158412803258173529e+00
-2.619151734404456811e+00,-2.943661593276087896e+00,-1.238292483654364950e+00
-2.261170306194889790e+00,-5.181154832985391812e-01,3.419520130807545133e+00
8.357433562097683552e-03,-8.098723430035262849e-01,-7.176989260259863945e-01
-9.001592938566863600e-01,-1.128297611428811797e-01,2.049673961272540978e+00
-1.124219039677991194e+00,-3.146267660984249925e+00,7.000831531850313372e-01
1.163185000596630214e+00,7.416005700704341175e-01,7.835624645204840588e-01
1.426324726420644229e+00,3.995055852241883088e+00,4.127771345676319314e-01
2.612125257739713380e+00,-5.311149876193967945e-01,-2.755077465240201917e+00
-2.045823516445474777e+00,-3.340917464731797626e+00,2.148482348022849653e+00
7.163363487344359681e-01,-3.905146985008464799e+00,5.150445898602968864e-01
-3.319889213907140757e+00,1.127290334595115517e+00,-2.181412246152883760e+00
3.968164209926277497e+00,4.533135394198058443e-01,-1.791396747740738427e+00
-1.123716376718076060e-01,1.826956980386971852e+00,-2.738710262264031137e+00
5.016016341380953314e-01,5.510775643876028029e-01,-2.954223243148679234e+00
1.604283282038690084e+00,-1.813915707226239626e-01,-1.990205288497819414e+00
7.226646624514341255e-01,1.079291865014029961e+00,-4.335557591799989119e+00
-1.658692744998729207e+00,-2.816525153600753395e+00,-1.011059714482486910e-01
2.054741533382938634e+00,2.866014271054027951e+00,7.561481939447453060e-01
-1.930600830383190913e-01,5.508123018944163229e-01,4.370937598601162044e+00
-1.119650387422845839e+00,-1.138201481862312736e+00,-3.746627923479479705e+00
1.472277817853954618e+00,-2.680099181976522971e+00,6.580457094618014091e-01
-1.746152023440368461e+00,2.115930632142583256e+00,-5.459725075395940319e-01
-2.848203246326757476e+00,-2.238552300628450453e+00,-1.747412708088589006e-01
-1.176709839568621518e-01,-1.188699142114057361e+00,-3.947277218954659439e+00
3.564545612590874324e+00,5.234773996301034238e-01,1.922976345231989015e+00
1.589393294699462222e+00,1.912613020526813257e+00,1.521655213633572146e+00
1.605476307869014851e+00,-2.127454553272843718e+00,4.517449949551143873e-01
5.774232432515395974e-01,-3.591463495495470504e+00,-1.337176433130366160e+00
-7.609565579208646957e-01,-2.675513112547954542e+00,1.390675921066323539e+00
1.792353031002060781e+00,-2.955119067630487706e+00,-2.967314621593568624e+00
-6.151391848052283340e-01,-3.223107472197995982e+00,-2.406686782791628954e+00
-3.433719173454732765e+00,-1.201863320486197706e+00,1.799632497387732899e+00
8.960883212766679318e-01,-4.548781062469545167e-01,4.167490263462703126e+00
-3.654938146836190338e+00,1.207415459314163719e+00,-1.290604011518662331e+00
-1.639565875584040988e+00,1.074699730728126967e+00,2.474540666271114020e+00
1.793807000370866378e+00,2.635616149517189033e+00,7.267696353150497890e-01
-3.028792183728465037e+00,-1.175422793923843967e+00,-3.256802126417084775e+00
-1.300466627741691195e+00,-1.541919845531889210e+00,1.399317519356100048e+00
-3.589882986299857581e+00,1.944049685823899809e+00,-6.936382012106108164e-01
2.398287254226946441e+00,2.039738759011505032e+00,-7.935550770205788140e-01
-1.179184144990566008e+00,-2.340325860863241125e+00,2.728550839618179680e+00
-3.223045559179907649e+00,-1.162892137907511225e+00,-1.038758934497440389e+00
-3.371286892739621677e-01,2.855477840415499458e+00,6.906655661541247770e-01
2.152478670614592637e+00,-2.259035787455068167e+00,-2.210089428899826292e+00
9.876406110082116552e-01,7.859293420391467722e-01,1.972824486505903030e+00
1.794450629702667666e+00,1.273007451579280636e+00,2.416739149553706056e+00
1.797889941411187298e+00,5.873774321194209502e-01,-1.402753625611868671e+00
3.871739139884773362e+00,-7.466820041546157194e-01,-1.539997966556724940e+00
-1.036851213312093956e+00,3.893193224187194268e+00,-2.966036550803530791e-01
-1.178705951978647581e+00,-4.214699159839519815e+00,-6.540067173296590930e-01
-3.413351683931577618e+00,-8.961370340797932821e-01,-1.594533998701083144e+00
-1.700245113321221246e-01,1.807318417281769563e+00,-4.184973636863731805e+00
-8.506014051700242495e-01,-2.306207539181025723e+00,3.667503303676046045e+00
1.785823667283445548e+00,1.527632831543885406e+00,2.278108696687971779e+00
3.171632376744968340e-01,4.182489587410487708e+00,-9.306560715410877593e-02
-3.674689372965506129e-01,2.925967184730427384e+00,-5.040208023577872343e-01
2.686561523762053039e+00,-1.299687015836422876e+00,7.772918922463276092e-02
2.786948459604508432e+00,1.825810859484190418e+00,6.567073076264352549e-01
3.624008867049613780e+00,-9.794589496434403797e-01,8.760866362082995185e-01
1.677881900799507831e+00,-1.233173182054063954e-01,1.051494859638696822e+00
-1.078655432523043835e-02,3.143630630144670146e+00,2.340664575918479429e+00
4.986702997651831226e-01,-3.803002734104560911e+00,8.770857599874801735e-01
-1.694803793899967381e+00,-3.702771982106291215e+00,-1.619661698957235663e+00
-5.986905268206754727e-01,1.030032876031061972e+00,2.003253781572453818e+00
-1.952429224674648189e+00,-1.638511393595264876e+00,9.229981934328371773e-01
-1.109769480379619866e+00,2.179252307313422676e+00,1.356770902171846593e-01
-2.133091285723603292e+00,-4.097226840148320282e-01,-7.662862502816870647e-01
-2.957005803604131788e+00,-1.521841365577981664e+00,-1.214242256774910711e+00
1.904988808727559324e-01,2.131763745659192910e+00,-8.296988407479001237e-01
-1.458077028667278396e+00,1.740279255748507392e+00,3.939964078424136318e+00
-3.811993986346811969e+00,1.272636025264328286e+00,1.400450950016708385e+00
4.409155814603774592e-01,5.139430216919154137e-01,-4.465627074232847882e+00
-1.450009969314420610e+00,2.634087392530973126e+00,-2.944177852417067420e+00
-2.781302511453330073e+00,-2.360996380287416763e+00,-1.076640576305515129e+00
-2.507908027366282155e+00,-1.436674657358524509e+00,1.646265727294356829e+00
2.609087086239112008e+00,-1.790541980440108816e+00,2.105077582641652789e+00
-3.221535185797649969e+00,1.656545763445893105e+00,-3.901041799891643014e-01
-3.709270006211327964e+00,-1.067683307977726620e-01,-2.519925752681576370e+00
5.633934539372889017e-01,-3.278387550532894101e-01,-2.952743392578358606e+00
1.063344544914146761e+00,-7.019400255230225927e-01,-2.522709541412450740e+00
-1.704291929845453080e+00,5.324570461626563223e-01,8.940117350750252934e-01
3.874606536734502837e-01,8.674339206830375959e-01,-8.364278839454244441e-01
5.197189401823638644e-01,-2.929951732376327111e+00,1.806861611480454988e+00
-3.622385506730190663e+00,1.074934110119397657e+00,6.387517688551401507e-02
-1.880597546998102443e+00,3.598933155763566205e+00,2.255115806434310421e+00
2.038233692060356539e+00,1.916251289568096094e-01,-1.375784991859354545e+00
1.190140470548366247e+00,-5.545947015709473682e-01,8.422206707565849104e-01
-1.698514486844222127e+00,1.616575701037475665e-01,-1.087161446854511659e+00
-2.027110019311917921e-01,-3.480703082961646100e+00,1.620929556032871810e+00
-3.148199470167595049e+00,-1.646352245134787839e+00,-3.379518896750902113e-01
-2.385077390730647728e+00,-1.299634054836082964e-01,3.766022399032466605e+00
6.532952330317999268e-01,-8.462312962824066753e-01,2.990378119566652781e+00
-2.578826287004496454e+00,4.866841288127613518e-01,-3.181222533509475259e+00
1.746649651551671900e-01,1.465440402599607728e+00,4.064901752722355432e+00
2.452936383572215995e+00,-3.632924043765403344e+00,1.155367950034849267e+00
-6.817221782616756931e-01,-1.533807151342690744e+00,-3.008540802744821274e+00
-4.126931276438434715e+00,1.184434338919495122e+00,-8.782566568784128114e-01
2.249933568760059011e+00,3.171625132729599894e+00,2.092714165450308972e+00
2.022210705836771538e+00,-3.197401904287784369e+00,-2.053541133775239835e+00
2.579222450348614082e+00,8.835909261779079094e-01,-2.392678409745969681e+00
-1.439253626841829614e-01,3.813217101875906234e+00,-4.532206729433402304e-01
3.513155698861610610e+00,-2.251629023157836862e+00,1.153393273707199906e+00
1.796790941341542158e+00,-3.350454259307471538e+00,-2.183892177780941246e+00
3.638545288576559678e+00,2.182899537989833327e-01,9.322739186700055303e-01
-3.462313216523514647e+00,-4.815834815792389145e-01,-1.744843214587520785e+00
-1.055493969947635335e+00,5.334105881194710630e-01,-8.286343742610542407e-01
2.452430287327796776e+00,-6.545420871421498976e-01,1.986170011994730311e+00
1.820690609180259489e+00,-8.599572650471023483e-01,-5.959082579747027042e-01
-2.040308886187767623e+00,-1.633346934596702216e+00,1.787283977944247315e+00
-2.846678802612555792e+00,-1.400587627815091718e+00,-2.544277288429570572e+00
-2.064980733718225547e+00,2.729997180626561271e+00,-5.511702276411699630e-01
-7.913417351930529531e-01,-3.653528946404232869e+00,-1.673151199634853592e+00
-3.817002264761520713e+00,-5.494974220149184685e-02,2.591061884992355235e+00
2.401483081986127477e+00,-5.860961930709460838e-02,-2.005325940681201846e+00
-2.963703989230781044e+00,2.739933252489089810e+00,-2.333619321351575238e+00
7.241780362180080255e-01,5.815860559074962355e-01,2.822372353427136105e+00
-6.362806545648030943e-01,-9.556775051058064019e-02,-3.359159665650658155e+00
-2.987382378756056056e+00,3.097657727371746272e+00,1.471301407174669507e+00
-5.943181877040902839e-01,-1.940418270842908743e+00,-1.199504694288115347e+00
-7.800290523903459228e-01,-2.385016405428051378e+00,1.122263734059536722e+00
-2.676419138816670262e+00,1.523528273835859315e+00,8.165217406991713833e-01
4.446208845891251871e-01,-1.243909352873509455e+00,-6.472903652193608970e-01
-1.117032845576975797e+00,2.885974273011461921e+00,1.947975598249961138e+00
-3.137107564437322083e+00,5.365345994324887124e-01,-1.552644540960818054e+00
2.429253590398904095e+00,1.137665474040465918e+00,5.295742662019059521e-01
3.837785997531427684e-01,2.135435050741400609e+00,-2.085423455885129229e+00
2.263005094786120441e+00,2.756432176327638928e+00,2.426583200370284299e+00
-3.198931838026684904e+00,9.352981325609215357e-01,-2.469743954456793844e+00
3.327601748996881437e+00,1.684427635634629050e+00,-1.718689921292364753e+00
