2.185794726738176763e+00,-1.729805466694791294e+00,2.254743673920536207e+00
1.400571416616970488e+00,1.635037381066878126e+00,9.793633840594372364e-01
2.101674685684964405e+00,-2.327144962530306671e+00,6.706289072177750166e-01
-1.150405988807340352e+00,-2.329534781247500241e+00,-1.762927770466423016e+00
-1.442409169914248279e+00,-2.544819648274200485e+00,-2.379657746612516611e+00
-3.723917951632625400e-01,3.563392917868617449e+00,-1.041577834490480248e+00
-7.871759826407078720e-01,9.144950739279004148e-01,-2.629922316133844085e+00
-1.562478194726670822e+00,-2.135316522528904137e+00,2.180993204497476690e+00
-1.503630360180723269e+00,-2.235131316887172481e+00,7.311148015702877145e-02
-1.619177622151036333e+00,-9.897856203398599506e-01,1.099512519051795145e+00
1.630777503914712101e+00,-5.015842025435349738e-01,2.277678047725971044e+00
-2.594862158277221553e+00,1.102292060564410647e+00,1.816941483258553758e+00
-1.695284055972493320e+00,-6.342339781878132410e-01,9.334560661954325322e-01
-2.781380435993562883e-01,1.025225860244538545e+00,-1.238439907843521981e+00
-1.463928915522288543e+00,-4.036291814249900467e-01,3.150920628036705029e+00
2.377623375780880455e+00,-1.002720072828949371e+00,2.314072191319577421e+00
1.658132546786805328e+00,-1.009435557488431723e+00,1.915214882544470587e+00
-2.087526419325265614e+00,-1.876613008508436264e+00,2.288918215240218323e+00
6.022135983941947490e-01,4.870323936392448316e-01,1.042019472490116838e+00
1.287462738680670848e-01,1.414466780177903615e+00,-3.162112648519367131e+00
3.613454774267438996e+00,-2.051986457849971357e-01,-8.767778781387834952e-01
-1.069111899910034413e+00,-3.075256390347653301e+00,-1.430178981510708214e+00
3.541106907052477659e+00,-1.242822114487039387e-01,-9.539679752066815288e-01
9.848702908992034155e-01,1.042340679027741607e-01,2.378070394880480887e+00
2.230332196485349527e+00,2.899743043190190050e+00,6.353278703011925321e-01
-1.545216504440116934e+00,1.138922126708044269e+00,-8.653602304551935576e-02
8.855309491983401893e-01,-2.472113468627889610e+00,2.064349250456197549e+00
1.125203772076884379e+00,1.548340479146207205e+00,1.810268579588207638e+00
8.983800471641694152e-01,9.780106472311692611e-01,2.815750932806012852e+00
-1.820172827849324770e+00,-2.050023900998251936e+00,9.183278795044773624e-01
9.012091912699000673e-01,1.580798772985232192e+00,6.159634887442231449e-02
-1.919998069632948001e-01,2.689564140339598008e+00,-1.271598227838265815e+00
3.639009270672970864e+00,5.778224272959028296e-01,-8.451493759804123984e-01
-1.267629649846620410e+00,2.852509578518381606e+00,-1.171361168007536424e+00
3.992770489435065739e-01,-1.203562824912455032e+00,-2.372991807221823901e+00
-2.432733443625173297e+00,-2.345278711635076174e+00,6.381408984210438229e-01
-1.010937585276742823e+00,-5.334321610690465620e-01,-2.693015485927580333e+00
-7.144414111968222514e-01,-7.681720334435492292e-01,1.722720580918554178e+00
-1.383145638563955560e+00,3.317837486195133412e+00,-1.971466889526811428e-01
1.477811712084758478e+00,-7.841573274196468324e-01,-5.638066859607296921e-01
-6.837455984619826843e-01,3.696951026201238832e+00,-4.343242651945224964e-01
8.531812913123530961e-01,1.577200022886363850e+00,-1.816945713787820438e+00
1.042034897883604039e+00,-1.144508147198640469e+00,1.671095552593717226e+00
2.327773217020888463e+00,-6.651653877942420579e-01,2.613808605844260002e-01
-3.463912137005249470e-01,2.625446169095190019e+00,9.710461909863971064e-01
2.778557973647586721e+00,7.908474009990367204e-01,2.041880995840088087e+00
-1.233850386083312989e+00,2.354526877057698808e-01,-3.462139153361142974e+00
-1.988601329956079855e+00,2.781437892334982287e+00,-6.670912604222196673e-01
-2.665631768061834883e+00,-2.625798589186789211e+00,-2.947633087077385777e-02
1.026896998641014802e+00,-4.266355131220539443e-01,-5.439829581958999238e-01
-1.356659088933128698e+00,8.391274990895812858e-01,2.234139709885994751e+00
-9.026436546555991480e-01,1.436512539196881377e+00,-1.238174389135693471e-01
-8.889201112183631182e-01,-2.633612195006343359e+00,-2.368510128972877993e-01
3.391562656508189111e+00,-1.305997917695872479e+00,7.524160307206005927e-01
1.261450446799686542e+00,-1.773806429564839471e+00,2.435658246228710855e+00
4.148081561222414226e-01,-3.091332640190526782e+00,9.722812446334472281e-02
3.043724376057776126e+00,-9.106175202099372479e-01,-1.205493125633895657e+00
-2.407194632766564091e+00,-1.407269387264016958e+00,1.662654002073344239e+00
2.186854749614360660e+00,-3.038403528384889252e-01,-9.255407380498269498e-01
3.447282133331712295e+00,-2.554050389933419929e-01,-7.513884500087819607e-01
6.145418784208731555e-01,-7.533957803009645460e-01,-1.216288557534975778e+00
-1.361292591418621800e+00,-2.569176419590698313e+00,2.300439741522496195e+00
1.948434449410850089e+00,2.714129000991572394e+00,1.513506426863674204e+00
1.511989246558606448e+00,1.472058452462758238e+00,7.381188600024665147e-01
2.602493005688359951e+00,5.726457642819688942e-01,-5.414671059140619969e-01
-3.705137046576845172e-02,-9.675175364741266382e-01,3.128001312905166476e-01
2.454745250518918898e+00,-1.713367223411903728e+00,1.807710868939996107e+00
1.908347082405199346e+00,2.299490627945540933e+00,-1.710573980651164172e+00
1.720484275236745519e+00,-9.637845697708157244e-01,9.085704242775290984e-01
2.719119133863970306e-01,-3.771754043726946448e-01,-4.609890468315958056e-01
1.047955368138715260e+00,1.104385228963038257e+00,-1.478580950228421953e+00
-3.588292883312665715e+00,-5.758306819710166113e-01,2.423064011397692563e-01
-2.054358157876166491e+00,4.623056699450185381e-01,1.805657189392847695e+00
3.175679746807813064e+00,-1.144004815414718879e+00,-1.290747190766606378e+00
8.047480491227417335e-03,-2.734581484166793697e+00,-1.266114562573444680e+00
9.932231658417371989e-01,-2.190974867079674038e+00,-1.486227756794418209e+00
-6.295009478634514544e-01,-1.788781230788812418e-02,1.049511206840257893e+00
2.058854970762376446e+00,1.694474689781490406e+00,2.074763928655903200e+00
7.455700704803853718e-01,-2.446986621756638947e+00,-1.496162318159699467e+00
1.474662484527187623e+00,2.121953455732132454e+00,1.833834580049247487e+00
-9.140432007731549291e-01,-1.228779172098221739e+00,-3.798832595991298855e-01
2.984621566287027683e+00,-1.331644675907230235e+00,1.140715400766704413e+00
-6.338595034844797249e-01,-8.373364033246158966e-01,-2.695816375626134409e+00
-1.042276834871915359e+00,1.575322814697271090e+00,-6.349377328543894805e-01
-8.209105224410220281e-01,-3.271106786019877255e-01,5.416779520881157550e-01
2.209918505380052522e+00,-2.629756650084135838e+00,5.128307129070481807e-01
8.616698178567275823e-01,1.487068516111620831e+00,1.708826267109535557e+00
-1.809308421561787394e+00,-3.248966285355668338e-01,2.949394973066440162e+00
-1.095715623942196570e+00,-2.028751291402399737e+00,2.683252080311452126e+00
-1.772664247976991625e-01,2.309282022130855871e+00,-2.843875328020450954e+00
-2.237346472259651164e-01,-3.300718286070594587e+00,1.358324357088737111e-01
1.238316275565384483e+00,9.348258563967155599e-01,-1.353504968190448965e+00
2.765538102182070634e+00,-2.154077556976831787e+00,-7.020124321699088288e-01
-1.942988747543422656e+00,2.185698457977650333e-01,-1.208995260216261691e+00
-3.009128088974237336e+00,-2.021754710565928370e+00,-5.377638980369192634e-01
-8.209054957293396848e-01,3.022949052705294903e+00,9.130282281597906779e-01
-1.568772883257334438e+00,-8.950172664281653701e-01,2.435356336934619392e+00
2.913137823059742892e+00,8.939411554432777907e-01,-2.140458858860592173e+00
4.093162629743864467e-01,-5.944812049575342455e-02,1.099352955365348432e-02
2.817634234720682862e-01,-6.099594137478487887e-01,-3.461990447627924627e+00
-7.768088220044353509e-01,-3.642746816704497625e+00,-2.998133716288063910e-01
1.704246718039542863e+00,-2.115724207550960134e+00,2.464742623771671415e+00
-7.812120689660999595e-01,1.901797305651025116e+00,-9.713623141555477458e-01
-6.558473635768183874e-01,1.463953204376715389e+00,2.670663221840495538e+00
6.649753144454414455e-01,5.873898690354805163e-01,-3.369686793452649098e+00
-2.551853083073660322e+00,2.439850248475976091e+00,-2.989443019170239229e-03
-1.725104395597412354e+00,1.337635105582212658e+00,-3.013014394426775152e-03
-6.873424023318548681e-02,-2.913833946957846699e-01,-1.642346854432006120e+00
1.783477374454527586e+00,-9.852551388831312651e-02,1.523805340554294230e-01
1.809815626493536334e+00,-5.036910770636567891e-01,2.768560294561034585e+00
-6.188110393145933481e-03,8.828016187350362642e-01,-3.182865674808694756e-01
-1.769798495438536623e+00,3.179419801192873152e+00,-5.237868029326783192e-01
-1.182611598328041635e+00,-3.174125787747207550e+00,5.064110091772530131e-01
4.880206828363014004e-01,2.171472055982035076e+00,2.768759627381863542e+00
6.262326054541200726e-01,-3.810851536489856528e-01,-8.458806740599410234e-02
6.627611068075736078e-01,2.528923303189360983e+00,8.847827105127803460e-01
2.284248362826613032e+00,3.730416332272001173e-02,-9.006519543500992597e-01
6.595472166212260623e-01,2.986792806977658365e+00,8.735808965134018722e-01
1.736038267971239168e+00,2.085474280137304515e+00,9.088351264598424351e-01
-3.089272014987900938e+00,-1.791001914000394990e+00,3.943707677365661524e-01
1.278125480038547090e+00,-7.339392643475884936e-01,2.216589867834259930e+00
1.297272700727539751e-01,2.788845358426411902e+00,1.220370137532732713e+00
1.676899771916422477e+00,1.493269354206397725e+00,2.498084919196241760e+00
-1.495256879739403466e+00,3.398948957493629575e+00,-2.096478150015901598e-01
-1.393168931947851741e+00,-1.733244658950979789e+00,-2.833967135461885167e+00
-2.882070386647171412e-01,1.581595595403376242e+00,-1.486207601497830266e+00
6.011431558056029578e-01,1.535150342512904942e+00,3.290904690519364628e+00
2.478779044466431714e+00,-7.874036199163132466e-01,-1.463303649363874914e+00
1.443637265219663846e+00,1.531639588027938093e+00,8.086309845999352097e-01
7.776209286133303200e-01,-1.543996705458265950e+00,7.639677477230122360e-01
1.955998443887217331e+00,-2.429342819399169962e+00,1.529481586812144259e-02
-5.155428648815065795e-01,1.704415231363091143e+00,2.231195362509377222e+00
3.849833771305617436e-01,7.266568851701914189e-02,-2.301827128674731604e+00
1.489201146390681574e+00,-1.162812972916648681e-02,-8.336447935508651819e-01
-9.343652930244081833e-01,-3.353122652381777424e+00,-1.377126120634032169e+00
1.150626846873678444e+00,9.446000252968406175e-01,-2.712613191438786764e+00
-4.022690385291760595e-01,3.016892216017566408e+00,-1.392825106240455524e+00
-2.843500249835530236e-02,-3.403498780403515500e+00,-9.064236147670614585e-01
4.774727722387475115e-01,-2.211965930465916941e+00,-1.319343008664649319e-01
1.133841269087070502e+00,1.995949629477658416e+00,1.451823635112277078e+00
-1.001862586014375056e+00,-2.291489555044918802e+00,-4.780452761276354767e-01
-2.513750100864644565e+00,1.359687386507424600e+00,4.326584720173929921e-01
3.515568303215758916e-02,-1.580484576906046601e-01,-1.649720278786004010e-02
9.495706744886602824e-01,-1.640410380461572393e+00,-2.507634295158568616e+00
-2.123302907260386618e+00,-2.946166003633312602e+00,-9.122939052528586945e-01
-2.838086083108193769e+00,3.346196321675232732e-01,5.582389470681441423e-01
-3.921676875082670544e-02,-2.811594251379539333e+00,1.818545139628665597e+00
1.176016763633136897e+00,1.152852020311718739e+00,-2.454268329460046250e+00
2.893384572070463623e+00,-1.757138527860411692e+00,5.077650632786332441e-01
-7.100158866643484501e-01,1.056075172976214338e+00,-3.831973598246283808e-01
-2.463809823680379041e-01,-1.980513867687026641e+00,2.572772377424911383e+00
-1.443612875694330278e+00,4.876563811030136253e-01,2.060865654393034596e+00
1.526289923715570707e+00,-1.584672674953807814e+00,-2.916712250897555592e+00
-1.740784504984513648e+00,2.741989278386254281e+00,-1.030908162321916732e+00
1.500595843671636676e+00,-2.252699546482396009e+00,-1.477157952642804473e+00
-1.479195485635548257e+00,-7.547625954459382669e-01,1.461850326930176802e+00
-7.219603996965351378e-01,1.693485498213662455e+00,7.053414560887284468e-01
-1.142931146340208759e+00,2.859526267191166982e-01,-2.147950310941885377e+00
-1.479457680138199560e+00,-1.803284566843901260e+00,1.194151934731335407e+00
3.464612610672559878e+00,1.077156978949423971e+00,-6.956533644631455182e-01
-3.598705052032090901e+00,-2.857951847279855406e-01,8.601677354128056674e-01
1.892173953743952364e+00,2.081576733211463637e+00,2.122183545397562821e+00
3.211074753302203266e+00,-8.401964379342170552e-01,-9.897339249558136931e-01
-2.556974443593518664e+00,-1.719634937743588887e+00,-1.310557850976783012e+00
8.405662890369554052e-01,-8.265656709946979097e-01,2.703247473722293570e+00
-2.620527011518815064e-01,2.474937570714883961e+00,2.460701858005504672e+00
-2.088240825219774610e+00,2.511087698329527829e+00,2.290280755668157586e-01
-2.468631488372605265e+00,6.261685256610182160e-01,2.065369861876567015e+00
-2.113033415852798136e+00,-1.249670219021143946e+00,2.324916848144479076e+00
-5.321596267785223544e-01,-2.068702262253263036e-01,-2.708779795886788300e+00
-2.524582011920225577e-01,-3.287238389176844411e+00,9.623497406767334006e-01
2.844943805508544976e+00,5.144832003245822932e-02,1.839386825025516314e+00
-7.277365403923560239e-01,-1.863600868543469069e+00,-4.033369934233416720e-01
-8.386764071533234777e-01,3.067294490699882026e+00,7.280463122672573562e-01
2.086207637675268955e+00,-1.508673844843389844e+00,2.268381695823289412e+00
-9.225028532200908460e-01,-2.896970576967063948e+00,9.533798001505165987e-01
2.573188591442879147e+00,-1.396465525172295497e+00,-2.361519816064943100e+00
1.951829975422629815e+00,7.882401448599332117e-01,2.870403533470436752e+00
6.798493808537664496e-01,3.530702743309510616e-01,1.943723020808346469e+00
-2.945699523588361846e+00,-1.715753204644140162e+00,-9.250843167683149293e-01
-1.555376444181769013e+00,2.291363302809423352e+00,-2.436663121544075050e+00
3.389020683073999507e+00,1.261669593614722640e+00,-2.801791867685856086e-01
-1.979590209096819819e+00,-1.058997832524114724e+00,1.083482987441763301e+00
-1.368866330678383536e-01,5.734546600885295220e-01,2.528567037502804205e+00
1.424687639710830789e+00,1.649321881455952654e-01,1.900094047077772963e+00
-3.076004331110530621e-01,-1.950309857523482737e+00,1.427850163104891656e+00
1.718438388517773863e+00,1.647468060912622212e+00,-1.868906144500039668e+00
-1.466682638618971302e+00,-1.073307322612173431e+00,-1.601886736385079169e-01
1.584698059800801362e+00,-9.871691362823763471e-01,-2.755981632168686080e+00
-4.230110485836808820e-01,6.589526085680785794e-01,-3.553011232415912879e+00
-1.253551142114122385e-01,-3.242113195704988016e+00,-1.763390143196359450e+00
1.099311593566441703e+00,2.413025939909398399e-01,1.376047152836928023e+00
7.124352701472016491e-01,1.752020341857870311e-01,-2.959204248812910443e+00
-2.370620716068236433e+00,1.007714505820542783e+00,-1.618817377731347706e+00
3.448139979780947328e+00,-8.188260020899706948e-01,3.614163219271652183e-01
3.273668379221936764e-01,4.911236265233094866e-01,-7.046940650761305269e-01
-1.702517910659813394e+00,3.041450566302055680e+00,7.957821758774913379e-01
2.237043166156567064e+00,9.502196896268803039e-01,-2.365358614896532874e+00
-1.790406647073124802e+00,-3.486770721435042963e-01,1.264992104248974458e+00
-2.082927670919780816e+00,2.782586826898081789e+00,-1.213930789543952171e+00
1.177234808454760695e-01,6.155979173395432769e-01,2.576238047097058725e+00
2.245972258788357045e+00,2.165654904688015803e-01,-1.978416103649587088e+00
1.062401948896041448e+00,-1.458194881750795036e+00,9.468963063675425174e-01
-1.773331397638705786e-01,2.742549537471479226e+00,-7.376173067439834030e-01
2.741072558771487921e-01,-2.560798091767046092e+00,1.978581655261985039e-01
-4.364061460149586957e-01,-2.221591402905300328e+00,1.430091958510566696e+00
-9.182354553964655608e-01,1.520122636227170698e+00,3.051614952103852474e+00
1.397106475922722080e+00,-9.023054137858559365e-01,1.196857278220931242e+00
1.407351639700572310e+00,-7.963883842587086148e-01,1.914779521083793679e+00
4.002347527476529665e-01,1.867342439207757776e+00,7.183514466907027218e-01
7.005995841745071839e-01,2.936387185025534641e-01,-1.518573054399870559e+00
-9.042267930000749132e-01,-2.109878941631719851e+00,9.325937055477084847e-01
-1.685553817348033778e+00,2.067731090460792842e+00,-1.938516262037929039e+00
-1.364256762824027858e+00,-2.513418205951009288e+00,5.235413411667843020e-01
-1.189792895265206818e+00,2.960585630694166692e+00,-1.133525990865765332e+00
6.778753494891819331e-01,-1.149035929137121048e+00,-1.066179437427303700e+00
-1.037538506258442572e+00,1.587111183599148490e+00,-1.847796830670606294e+00
-1.477418423814449433e+00,-1.533525037003228730e+00,1.009391855476055033e+00
-3.063934524016619365e-01,2.178799838282235779e+00,-2.891489271768504121e+00
-5.272443760483683795e-01,-2.386977437923107015e+00,-2.548817519236743934e+00
-5.511290760067155681e-01,7.713321721636788864e-01,1.188909935663688522e+00
2.644482094585576704e+00,3.030799879914614636e-01,1.809159348961316915e+00
1.900516126327109312e+00,8.455978397005528002e-01,-1.308328180029131760e+00
-3.652414988041752242e-01,5.419945212645924659e-01,-1.936318364803517156e+00
-1.659808877826363993e+00,2.338189703701590294e-02,-1.877462041143869387e+00
-2.394879494530133268e+00,8.159665536474483005e-01,2.375984459515346092e+00
2.179851366283315439e+00,2.522318652220020052e+00,-9.328531528071932755e-01
-1.386276006478990075e+00,2.359510243626745218e+00,-8.039442253310208342e-01
2.103573269609334773e+00,-3.501471625334121041e-02,-1.967380256945309824e+00
7.522548576719221280e-01,2.432967357244676165e+00,2.671979701374921579e+00
3.307577626026333983e-01,3.421343471083672316e+00,3.384020979662560880e-01
1.079607792036288760e+00,-7.609929982656110647e-01,3.235143429649100622e+00
1.278365329938844663e+00,-3.226827082928550028e-01,2.024387972036954420e+00
-5.565920543476918780e-01,2.135763284523859440e+00,2.934345994872687324e+00
-2.153348605385562997e-01,2.080104888452495526e+00,-1.673354097727988821e+00
8.062594432093814767e-01,-3.377428904775912510e+00,-1.013026611778062414e+00
-8.562958086192823393e-01,-8.569566761072601180e-01,2.432894632221993980e+00
1.383922210023184718e+00,-3.096573736232157703e+00,-3.295159028344399887e-01
-2.229715084212240406e+00,-2.036191980485507480e-01,-1.447376419171547413e-01
1.787444692215473863e+00,4.230697509670024448e-01,1.505282979985067104e+00
1.177640283410529565e-01,1.647322911156516412e+00,-2.531335844369881016e+00
3.528293244626630742e-01,-7.652603265760632434e-02,6.436586937460518909e-01
2.783148284525055249e+00,1.037972278897192346e-02,-1.596915776092742711e-01
1.017179851107628208e+00,7.107340474935044394e-01,1.448813723988529700e+00
-1.884018586505778581e+00,-2.685166755626551272e+00,-3.038482576688781300e-01
1.669625065602248770e-01,-1.873190610113177446e+00,2.544873754207070404e-01
1.850557511557021861e+00,9.514477890203247856e-01,-2.434971012953928982e-01
-3.228044426689399948e+00,-1.642557843784944391e-02,-1.255930547422119847e+00
1.995684171882490476e+00,-1.707740541884276597e+00,1.179913411749851981e+00
7.332614046063901103e-01,1.954853801963845061e+00,1.848290757496363401e+00
3.056212627674973703e+00,-1.105325029223827027e+00,6.480140060776531374e-01
1.394847667926757406e+00,2.863579427832811497e+00,1.286123379077291684e+00
-1.668453588666794163e+00,2.222121664502269556e-01,2.887339258875356585e+00
-2.633227192941071770e+00,-2.403580110144796222e+00,6.525638551759334050e-01
9.460176283377650375e-01,-2.753814249669849890e+00,-8.932369823736961978e-01
-2.209186971837859392e+00,-7.814411595923643761e-01,-4.110519107765818747e-01
1.912741836721465472e+00,2.233492996434044642e+00,-1.271476789079303504e+00
2.255892047495717367e+00,2.816612743692691101e+00,9.004647793679201317e-01
-2.853166486460492202e+00,2.110155969761730310e-01,-5.055159566318715436e-01
8.019159181463290931e-02,2.866320933591261166e+00,1.745532377097578136e+00
1.544239542932522635e+00,-2.686227784674641406e+00,9.651410750497833035e-01
-2.183919653672846906e+00,-2.217059454736427959e+00,1.464560599097114446e+00
-4.546826218694765553e-01,7.508587583884797079e-01,-6.514368332978917597e-02
1.878754594540963607e+00,-1.951651777677954280e+00,1.471462904077506462e+00
-8.633996503073991802e-01,7.034981977634628958e-01,-7.762649365920450129e-02
-7.410358746566683141e-01,3.253654946467119391e+00,-1.176091803815470627e+00
-2.194450169638850756e+00,8.385254156650369106e-01,1.797716745659182713e+00
8.040448047748508520e-01,2.141602909813252076e+00,-2.921282884117121004e+00
-2.086473442000599476e+00,-2.097700653115455616e+00,-1.538279730244422883e+00
7.618330989419257460e-01,-1.328399742653177062e+00,-1.371079698256920887e+00
1.717257612093028296e-01,2.181736287295819032e+00,3.947049995110714637e-01
7.002986517673056577e-01,6.477656094603080339e-01,2.072928941901826860e+00
-7.588075132749784180e-01,-2.270209902423200976e+00,-7.913306561524289240e-01
-7.214651874997252134e-01,-2.577326794486728634e+00,-1.337659392478590670e+00
-1.321273644302894734e+00,1.481104918681699800e+00,-1.382458822373248797e+00
3.003841519567730600e+00,1.041231534493153976e+00,6.796907762908696027e-01
4.215661329852756767e-01,3.059022425353640884e+00,6.733992616289282696e-01
1.056642289880331154e+00,-1.269945102927793945e+00,-4.431647979974552565e-02
-1.014817621771079592e+00,2.849935992745802338e+00,-1.018480706276494008e+00
-6.160303894067921116e-01,1.570153110016656584e+00,-2.935371780153553711e+00
-1.647434776935724265e+00,-1.947321845588573463e+00,2.703348694776415595e+00
5.224187025126428852e-01,-6.719725855784569601e-02,-1.185612836367226697e+00
-2.208906452677027676e+00,2.848896849225928118e+00,1.161220791185025636e+00
-1.138012210969190363e+00,-4.851292934790122358e-01,-5.180908867820637198e-01
-1.864582456895691909e+00,4.063357008807397253e-01,-1.009422051146422750e-01
-1.926039827644149272e-01,-3.271133139841689186e+00,3.937936136886260319e-01
9.038872047250555708e-01,-2.755036632093136983e+00,1.717358703661549191e+00
2.499435873402179542e+00,1.615860663764864535e-01,2.386760235507583872e+00
6.883289055513972521e-01,-1.579344139542550041e+00,4.804986658662356303e-01
-9.358013664262716524e-01,-5.118655526339063178e-01,1.063515788582365840e+00
-3.060390378857498206e+00,-1.918958200161351713e-01,1.894577734394451429e+00
-5.636566848134815233e-01,2.417018244388569492e+00,2.119803084757132083e+00
1.144541415369361603e+00,1.100029555765530187e+00,-6.231008998530012111e-01
-9.772832893387561892e-01,-1.435763530722965697e+00,-1.759222269982553266e+00
-4.531579053717268435e-01,-2.784801576686061875e+00,-6.882899740659924603e-01
1.701089742068590649e+00,-5.231639987207367115e-01,-2.229409980148913561e+00
2.815382042154190412e+00,-8.746929526221895734e-02,3.140566718891622533e-01
1.353029232772767321e+00,2.096613498621941574e+00,-1.942785455119234062e+00
-4.396581479896595757e-01,-2.390896869621620624e+00,-6.495828667236388521e-01
-5.967125279080212064e-01,8.123365242003768305e-01,-2.498402001960833840e-01
-1.970706463891320537e+00,2.413687142235124039e+00,-5.163904794799276665e-01
2.063992143539842949e+00,2.852528255961487957e+00,1.184319737644033976e+00
-1.510778359340198218e+00,2.250814004351257669e+00,-1.704151624351646577e+00
9.451274845466240970e-01,-2.936661260253073724e+00,8.148843657217583192e-02
1.630962445173834485e+00,-2.285066541573428811e+00,2.021361629605202825e+00
-1.362612531436794505e+00,1.561867835472256771e-01,-4.018026461421753681e-01
-8.363459514387477922e-02,2.564660015510168201e+00,5.505355189413740913e-01
-1.067347265736034556e+00,-9.174998072255868831e-01,-9.359213360390352676e-01
1.815434303237865921e+00,6.489173024170323822e-01,-1.881389858617085409e+00
-1.650699226184147550e+00,2.462571218006283313e+00,1.289742569742450939e+00
2.162734816607417176e+00,-1.121756291131175143e+00,2.073000457890647130e+00
1.382924808021809282e+00,3.342826953202541196e-01,-3.699731521056207062e-01
-2.236576004792163008e+00,8.064621360050455712e-01,7.334487476940791950e-01
-8.082987640526342332e-01,-2.264433816886235018e+00,-5.116606778753974849e-01
-2.765043022047511734e+00,-6.027311781141424518e-01,5.352756252777175483e-01
2.033071265683071172e+00,1.961662087663094134e+00,2.002580359178633973e+00
-1.410049720745269353e+00,1.409166725136812293e+00,3.099069750748631780e+00
3.682220786623123576e+00,8.841072805453511485e-01,-9.718619309738418810e-02
-6.865978425636318772e-01,1.797385480050516682e+00,-2.341521035757503366e+00
8.618545217127177027e-01,1.460581636893379276e+00,6.042461006945335500e-01
3.515284342353006686e+00,7.119153647666960349e-01,-1.010310204673849632e-01
-2.407644874143287428e+00,1.868019981220538084e-01,-1.730294625466713310e+00
3.465595489066099155e+00,3.213313247922138793e-01,3.942298529256558354e-02
4.933246631280649441e-01,1.958673158958512461e+00,1.511959585796532002e+00
6.971219798368415432e-01,-6.500456542959185402e-01,3.085728436797458674e+00
-1.767866256468545449e+00,8.212285605671593158e-02,1.190054815488615497e-01
2.331664622480209559e+00,8.772012858089565102e-01,-4.014421155885378872e-02
-6.507947815490440213e-01,-4.325826330513221629e-02,-3.547745490672894242e+00
1.647284117735370090e+00,-1.882655384158983702e+00,-2.533461597616705863e+00
1.150555318735099197e+00,1.277352805708575012e+00,3.248093701756490148e+00
-1.356215774270885133e+00,-5.863994399643164268e-01,-3.027004512346792353e+00
2.241152210896830255e+00,9.898693707938369113e-02,7.919833718232084374e-01
3.342044423556431720e+00,6.451398559102404784e-01,-8.521800575848443859e-01
1.175526501682000680e+00,-1.473395670889489750e+00,2.609775471946792269e+00
-2.802600137419640980e+00,-5.513031867892735916e-01,1.039241007490885105e+00
2.486425465412335889e+00,-1.087534239136624281e+00,2.130096233936075834e+00
1.520704709325561677e+00,9.175058456288609499e-01,-1.233308924532823925e+00
-5.867941967484587851e-01,-3.043895083522674128e+00,-1.107538250172867222e+00
-2.414738065270233935e+00,8.536237600287991389e-01,1.360204048003870847e+00
-1.127859337485956681e+00,-9.580435799086201021e-01,1.085608802683249330e+00
-2.397719171020122442e+00,1.078215657934245453e+00,1.806925804318233186e-01
-2.941462784060772773e+00,9.820006934258902476e-01,-1.833333043893615177e-01
-2.108519049121142519e+00,1.682131841625836621e+00,-6.338944574250331421e-01
1.879758392860481631e-01,-3.211882442165387541e+00,-1.144802598491522883e+00
2.881430625204861595e+00,3.713512780336279961e-01,1.628418419326844058e+00
3.108883857036868203e+00,2.211023866431723328e-01,9.165884892715967514e-01
-1.306970678307585454e-01,-3.416429187452125760e+00,1.022921975898192448e+00
2.134104435782399278e+00,-2.508187279663082858e+00,1.019199795760734384e+00
1.001323927969405503e+00,4.134053301054853580e-01,-3.283497325976763026e+00
1.594340699626108027e+00,2.087422588989356342e-01,8.939194677060757765e-01
3.198973980048342547e+00,-1.662148167041573865e+00,6.297255606830646224e-01
2.106825814046342948e+00,-1.557268104966833544e+00,-1.142272302397272066e+00
3.433596435784572520e+00,-1.452031942666939801e-01,-5.283804056337645938e-02
-3.589590700356273256e-01,5.623905185337675361e-01,8.929257856816426031e-01
1.505818325895514898e+00,-1.237608403149336178e+00,1.057148931689549487e+00
3.253897563245899266e-02,7.948940219542640628e-01,2.556215538962439915e+00
1.517501448530288011e+00,-1.397396897721752684e-01,-9.120215728582738990e-01
-2.077545038640515873e+00,-1.752870854985896232e+00,3.019310555415908315e-01
-2.718812157066705204e+00,-1.364514845370416563e+00,-9.344166182413159438e-01
1.646016748391771811e+00,2.267934315268589351e+00,1.517338025047591632e+00
8.421070596534362407e-01,2.315423892007979489e+00,2.551677554215841859e+00
1.975865518201360027e+00,-2.025348431079721401e+00,-8.111142983092463066e-01
4.033721241689981474e-01,3.466164186210126674e-01,5.263045510024547680e-01
1.144851243600722546e+00,8.670220718245014169e-01,2.781542221706645446e+00
-1.827325425851762386e+00,1.365554708072295176e+00,2.189442735426193054e-01
-1.971586709225316092e+00,9.992181446406812606e-01,-2.567794762383681206e+00
9.181153638720217502e-01,3.068786789465790310e+00,-7.258398885927807020e-01
-4.580316168353549267e-01,5.671075224648765012e-01,-2.308936845815654504e+00
-1.733091108542538006e+00,2.314473387305673757e+00,9.134440736006943506e-01
1.096027883396694547e+00,-6.843411988902178278e-01,1.472737696346422265e+00
8.310279717004188937e-02,-2.367139090609232444e+00,-8.255955529681545668e-01
-2.204268133136627839e+00,-2.632225364453852912e-01,-1.117930808741009585e+00
-1.660291849707049572e+00,5.613795080392795095e-02,1.413744132483519156e+00
-1.578772510391016848e+00,-6.065459976742687553e-01,1.121334965448164356e+00
-3.051187400284220974e+00,-1.459975979819010172e+00,1.196432291089163380e+00
-2.283297439571095655e+00,2.404596582830920592e+00,-1.494586368498402651e+00
-1.361355390768714368e+00,3.001484893069657822e+00,-1.733303640891821207e+00
1.419840336564488048e+00,2.653714627592817621e+00,-8.763389877643148473e-01
6.774857999095187377e-01,9.047002903538805541e-01,2.497754423841841209e+00
2.091846842080642865e+00,2.353428216991783728e+00,3.153764947427869364e-02
1.773488411735732129e+00,3.101087919102052393e-01,-1.865552873706765868e-01
1.150843073188609900e+00,2.720323625922294930e+00,1.710215917314303891e+00
9.816010669354227614e-02,-3.508658055744611648e+00,1.405907019503362942e+00
-1.002629882439590725e+00,-4.120285814895782162e-01,2.856811953382460079e+00
-8.663417281754994814e-01,-1.331047330297991382e-01,3.311846446051970982e+00
2.861895587207178515e+00,1.333487370121632098e-01,-1.495032568522381089e+00
-3.853314362212080790e-01,1.419450065559316743e+00,1.584851822249387032e+00
1.634475050108357808e+00,-2.548087321129642313e-01,2.163833587951462079e+00
-1.434922902119438515e+00,-4.786264690384542941e-01,3.767784799942842655e-01
-9.737998750684334626e-01,-8.570004544298135407e-01,8.296028353852332726e-01
-1.130611947012936769e+00,-2.707429754313454007e-01,3.213682090896163857e+00
2.206882033670209076e+00,-2.445122924327411962e-01,-1.503821260846043950e+00
-6.188840233660114487e-01,1.255102447706181457e-01,6.890715448088617912e-01
-1.723117376133459944e+00,1.161621938588318637e-01,2.874186734474497018e-01
-2.009962760826459471e-01,5.863597588899006618e-01,1.683249730337532002e+00
1.617128261869327677e+00,1.717136348141952373e+00,2.291819022329371958e+00
-2.024631887938400432e+00,-5.820139229835445960e-01,-1.877618586151255542e+00
2.089339339077972646e+00,2.343725082901009227e+00,1.625927849359437349e+00
2.211242742473815692e+00,1.681067145199604207e+00,2.619017651699137583e-01
-1.963222957687563719e+00,3.198215563103596004e+00,1.888684715758916499e-01
2.066707222922359311e+00,1.837810805767799982e+00,-5.211397158262451867e-01
1.470110030746563767e+00,2.698034209098361114e+00,1.736885335931728003e+00
-2.690165889611274785e+00,-1.353325152436956280e+00,-3.225550859878923045e-03
-7.688636252221561218e-01,2.493979333980848520e-03,9.322494067556681419e-01
-8.668964803374631378e-01,-1.061251638005291653e+00,5.361402324879859238e-01
-3.218678257659841890e-02,6.172143625166737202e-01,-1.435453155955993987e+00
1.230113002954054346e+00,3.205491263222518539e-01,-2.063397712877684143e+00
-1.242586181537708390e+00,6.567099448111440863e-01,-3.076183937590581952e-01
-6.501416002559214924e-01,1.866425810771788818e+00,-3.245614753362009719e-02
-3.164862849545837520e-01,-3.409842593657074428e+00,-6.464019660304527459e-01
-7.013591843267577008e-01,1.619219537104200413e+00,1.216785606163020228e+00
2.905964265429144877e+00,-1.614250589873270081e-01,-2.370805172164262842e-02
-3.600974621057648317e+00,-1.104092066559809071e+00,4.231733558166151932e-01
1.974583607530208340e+00,3.692046680593881747e-01,-2.546214019278759899e+00
-3.912642532593175182e-01,2.065698925051425938e+00,-1.798529411509224518e+00
1.248811478766646665e+00,-1.164648137662406935e+00,2.775760609215843111e+00
-3.239742990387507460e-01,-1.862968868480123330e+00,-7.366371465213135128e-01
-1.437480024305060722e+00,7.185475600536905816e-01,2.040508460620213960e+00
-1.531468062577821199e+00,2.168628590125651456e+00,-7.001259311594695278e-01
-2.338770632612622080e+00,-5.584249131044842773e-01,1.255012511179497137e-01
1.330229709828941953e+00,-8.910568510114785790e-02,-1.074225410624269683e+00
-7.392132228671649541e-01,2.640317758228063916e+00,1.077734190434062711e+00
1.804411000325486736e+00,-4.101877166175381118e-01,-1.014632103071593683e+00
-4.137842319854643791e-01,1.719896697287195853e+00,8.081172063595459809e-03
8.471661451143916999e-01,2.855330859047865211e+00,1.452373239819959361e+00
2.171399294120873513e+00,7.019366460087091975e-01,3.010684271291022895e+00
7.477986530677113164e-01,1.447501203800486635e+00,-2.707375736743379502e+00
-1.560140418512922622e+00,2.873064162388677012e+00,-6.634401291530166445e-01
1.016931751959487151e+00,1.339961519160627557e+00,-2.755029240175172145e+00
4.584778335941174787e-01,2.593845415605584126e+00,-1.048188096839284045e+00
9.516373927409917943e-01,1.390465791014134256e+00,2.334117490042185494e+00
-1.668476556040538794e+00,-3.475531193294597032e-01,-2.301907511000838014e+00
7.155117395339322117e-01,1.760292929161852316e+00,-9.710614722267677523e-01
-1.560707999438345928e+00,1.054051608946040552e+00,2.866451884830777175e+00
3.084202998327645329e+00,5.787776187497829100e-02,7.818614429831307611e-01
-1.797310325854741375e+00,2.558027192898690849e+00,-1.226563128003935521e+00
6.429251828147086734e-01,-2.262024522498031764e+00,-5.305367742602151715e-02
-1.970867704604321868e-01,-4.605625010816032927e-01,6.252370725463484158e-01
7.186354661392243548e-01,1.059484087229578542e+00,9.723113516723963512e-01
-9.943165260249239301e-01,2.113860361889926320e+00,1.232221776464186153e-01
-2.219355456957086137e+00,-6.074630441008467274e-01,-2.449642575269753042e+00
5.034782781542845864e-01,1.162993688380602686e+00,2.365177498511210175e+00
1.991999493458024517e+00,-2.979277735977003516e+00,-1.214795944824489382e+00
8.923754934895589130e-01,6.189607462431769846e-01,-7.438478712657210501e-01
2.752187937486327396e+00,-1.013358510488730824e+00,1.042330840238571588e+00
2.956737814937720810e+00,-1.819938452409266993e+00,8.187199131620791492e-01
-2.011223962605011462e+00,9.988296311398446869e-01,-5.691696582592953302e-01
-2.733909539075713102e+00,6.829351781119025189e-01,-1.472385159335487748e+00
1.827395717136649278e+00,-1.347989648642331506e+00,-1.290821722115385928e+00
3.909706801591429914e-01,1.216975232750629354e+00,5.738750419504086153e-01
2.345675718625900297e-01,1.045205554505241663e+00,5.188484302049496677e-02
-2.787859668743123187e+00,-1.205971534648871302e+00,-5.906797763661009171e-01
1.366435440394801581e+00,2.386534657261089709e+00,3.311692566199919696e-01
-1.327516288927878652e+00,-2.339308394167820548e+00,2.408714100162286265e+00
-1.442413823025387121e+00,-5.274745329128446292e-01,-1.282896257234419135e+00
1.410828469372702232e+00,-2.223733253887542283e+00,-7.251087417918934408e-01
7.767556617082350678e-01,-1.454848659082055295e+00,2.348257523990464612e+00
-1.032976499886582689e+00,-2.014501884467746695e+00,2.520742063806860500e+00
1.951400571348342328e-01,-4.992749232576146889e-01,3.730785627133236471e+00
-2.246116625402950540e+00,-1.818049056369834382e+00,-6.687643472603036487e-01
1.066220080462049413e+00,3.009879382825487504e+00,-3.305113878801452798e-01
2.368098472596980031e+00,2.386904576049368121e+00,-9.407028649196894632e-01
1.111525352657716237e+00,3.255875529896539167e+00,1.311368106901280806e+00
3.454566469292068565e-01,-4.955544680978035132e-01,-2.519482850413273134e+00
-1.714345550091380399e-01,3.721976709154634300e+00,5.201198199268759481e-01
-2.302136734477575608e+00,1.622337013977421361e+00,-3.242805641600353672e-01
-2.938136916815431210e+00,1.746432200026966530e+00,-1.271977672912782742e+00
-5.145779855904556582e-02,-2.327816118064452766e+00,-2.640716532473303069e+00
9.718894004931952768e-01,1.406325202860505108e+00,4.904436072934610924e-01
-9.645878072388639479e-01,1.885214307391601674e+00,2.202906658653484673e+00
1.117051740503878232e+00,2.399328519334820609e+00,1.670853845141590632e+00
-1.846584723015139762e+00,4.648550348644736041e-01,2.698425590381010597e+00
-8.826194904404913721e-01,-6.139186141761306947e-01,-1.477163017387410904e-01
1.578775844880434542e+00,-2.302555853115691331e+00,-3.991241790797226408e-01
-1.042063483835045545e+00,6.193223308373791980e-01,1.252780205574747230e+00
9.698171150728427392e-01,-1.628845053656799990e+00,-2.431234955297603584e+00
5.518556379806296430e-01,-1.202237885894225311e+00,-2.888440263041856859e+00
-2.270709967441714827e+00,-4.090815084340674868e-01,1.917528878247827695e+00
1.071607621364293328e+00,8.284225776368407956e-01,-1.746802669909591543e+00
2.322889258480862917e+00,8.147699005612789591e-01,-2.238878968669656688e-01
-3.528569504274557400e-01,-2.498681734696070578e+00,2.414612708777196470e+00
8.006722920075242111e-01,3.410870082630370614e+00,-9.307282984791496183e-01
-2.201607119344528574e+00,-1.015002640869883566e+00,-2.624229345649050860e+00
2.486798249623821899e+00,2.455120909534965534e+00,8.717641156539654990e-01
-1.283734521863900691e+00,-2.440031730190596715e+00,-1.296595962832744142e+00
5.375343429106328036e-02,-2.924038702440751258e+00,8.096798997472108850e-01
1.241493294583879026e+00,-7.063308971722000174e-02,-1.720147491810584350e+00
8.026196399147258465e-01,1.574772699359075823e+00,4.153605005094501146e-01
1.094699039275365049e+00,-1.612217175810863656e+00,-2.081941411922510365e+00
-1.045405238183680502e-01,3.611935098228516328e+00,1.734220155117427442e-01
-1.494431837203901603e+00,1.558791088420639070e+00,-1.171723000201934539e+00
1.711624948518311942e-02,2.566772912331737877e-01,-3.046553923086266824e+00
3.433888310914180231e+00,-8.662969844389332152e-01,2.272752492245483369e-01
-3.184441097264794962e+00,-7.430443362500950277e-01,-1.368332062916211456e+00
-3.243544598991371375e-01,-9.835948625956052460e-01,-2.876433285465684886e-02
2.367457857388992171e+00,-1.142026332418371037e+00,1.559999104488624111e+00
-1.077901607549058394e+00,-1.026906831901837902e-01,2.647762393089689414e+00
-1.595859020887471003e+00,2.939228235962068503e+00,-7.992682035174578647e-01
1.444211886656752375e+00,2.883775339871588628e+00,-1.592647456623741853e+00
5.940990894977574849e-02,3.098442465496899167e+00,9.630824429660052033e-01
