3.191024152650478563e+00,-2.191918908208127625e+00,-4.370973989883666810e+00
5.935161400293656797e+00,-1.747832717792001000e+00,-7.402816849838799840e+00
-1.192334136323037086e+00,6.527209247266478442e+00,6.142485456196474125e+00
-2.364021295980695658e+00,4.847224043484843037e+00,-9.206265153016207847e+00
-3.724885218612451254e+00,4.546549328212546648e+00,-6.496531438712638273e-01
-1.032962230950870897e+01,-4.330539506079641221e+00,-5.034012535827667278e+00
9.732399074956703089e+00,6.201859769398700983e-01,-3.324644259584723205e+00
-3.483791837463737773e-01,-3.202650043984755168e+00,4.935950172654439250e+00
1.337027526708296499e+00,-3.657777862122374657e+00,-1.986322144273064749e+00
6.572212172474954706e+00,-5.636792983478653429e-01,-6.138359221000721178e+00
1.013976551004547089e+00,-6.914983819516581143e+00,-4.306013147924834250e+00
-5.275893175526432444e+00,-2.370649853958234576e+00,-2.670583218976611661e+00
-1.697261490583566124e+00,-6.544286130004735025e-01,-1.405328449793904433e+01
1.672453755747054793e-01,6.783818917249704761e+00,-6.667265565303841512e+00
4.169411174228046413e+00,-4.116705577739586452e+00,-4.135885931327128340e+00
5.556647782534958502e+00,-1.263932742568423251e+00,1.380435818762059119e+00
-1.084572918386202289e+01,-7.571642646188097459e+00,-1.265793581043049620e+00
-4.783142205103929623e-01,-9.269183730964391188e+00,4.811981373034670995e+00
1.209258962378367919e+01,-1.040468846412768267e+00,-7.715459923758190008e-01
-7.099186328460569406e+00,8.655114407677730881e-01,-4.458885264860953157e+00
-8.288275045188782997e+00,4.847496086874547139e+00,-1.591578413146603754e+00
8.651625321112593747e-01,1.327230642936706007e+00,-8.864419459449550232e+00
-3.326574355415436113e+00,5.305430105645423389e-01,5.115680031807330330e+00
5.626862237296933467e-01,-3.518458800522686225e+00,1.344711239265869018e+01
-1.351629219764425294e+00,-9.422718111323669987e+00,-1.865553090488492494e+00
1.168621569563199003e+01,2.740951196508658594e+00,1.483054635361828799e+00
9.635958801504918014e+00,-2.609488139040311072e+00,-1.835984232215359224e+00
-5.106511363595234165e-01,7.844382295334215272e+00,-8.496993791534260154e+00
5.638162535137533737e+00,3.185560827671107820e+00,-2.456905797259229640e+00
-6.448914601086321419e+00,3.184948953223777579e+00,5.668369194889592677e+00
3.596999301866555587e+00,1.068247711462489313e+00,2.027779644149382943e+00
-3.299598880123902234e+00,6.220110547398613576e+00,7.506143118314092533e+00
-2.007679894762972317e-01,-1.042693793391996060e+01,6.814301877895038828e+00
2.119634480915826291e+00,3.692046449821734910e+00,5.951617928771021582e+00
3.501504591001081135e+00,-6.710931705544210146e+00,-8.003707105862041260e+00
7.439470099671189551e+00,-1.170401963278946944e+01,-4.007993258954615889e+00
-9.462480902836480467e+00,5.161134508005773114e+00,5.963541829046739018e+00
-9.185394899793543289e+00,-8.826629982089790882e-01,4.069675175228890218e+00
-5.640911004315849464e-01,-1.001662260332433796e+01,8.066002605231735956e+00
-5.380821864972034518e+00,1.047924875557273872e+00,7.308908501673451852e+00
3.742518107176586284e+00,3.834167342535717893e+00,-2.426208066576249323e+00
-7.349796093478025760e+00,6.169183493897220316e+00,7.767527476875702774e+00
5.914652965344191493e-01,2.054015511830869389e+00,-1.333579546248322956e+01
6.773139928645769636e+00,1.839520064290683932e+00,5.102631067300684720e+00
5.092017165863141237e+00,2.034859120784465958e+00,1.097416981249463497e+01
4.345573620080008803e-01,6.533072656964131752e+00,-8.827129625189472861e+00
-3.712020320601177925e+00,3.349711524586460154e+00,4.400621366926842803e+00
2.231413903008395039e+00,-2.137130073557850007e+00,-9.354093437262788413e+00
-4.828731526416590647e+00,2.911648296374561795e+00,5.790810652688714200e+00
4.405414557960057875e-01,-2.459520991800420830e+00,4.046751345927726895e+00
3.961616687238664891e-01,2.772136744541223163e-01,-6.564166697870751577e+00
-5.103567418888253826e+00,-2.983708720839883810e+00,-1.252277927166673521e+00
-7.319521833609363703e+00,-1.672623152722471751e+00,3.368108644011670982e+00
3.737777902507791739e-01,-2.599706239894478799e+00,-1.710012984652080847e+00
-3.031152561991506289e+00,2.339541383825019860e+00,-3.820050011894708497e+00
2.519976583126598335e+00,-3.056227818707113464e+00,4.003242859034414458e+00
-7.887329182841866348e+00,2.629116308063821794e+00,4.994848762857163393e+00
-1.185201822585482923e+01,-1.286344181434556921e-01,-4.687204086772442935e+00
-9.951157826635158798e+00,9.891186796876221266e+00,5.184176178827957671e+00
-1.088464089242696353e+01,8.058556164090596496e+00,4.084536385580078033e+00
2.167740485982567300e+00,6.614350317942643276e-01,3.451627715532015639e+00
-1.195837268720826713e-01,-8.403529130617034326e+00,6.641231254571783538e+00
-4.667394565625567537e+00,2.512903552295115084e+00,7.860516976474682949e+00
7.978219837285130289e+00,9.153089703612720118e-01,6.775655838996073932e+00
3.204568396252855944e+00,-3.263279550385201233e+00,-8.455740879748866234e+00
-9.491703826015530920e-02,-1.460268156965915054e+00,5.813822925883666670e+00
6.189731098226824102e+00,-5.650598615361561272e+00,8.426907713060570737e-01
-1.403769680291182098e+00,6.127892882754655268e+00,-5.134010304810068703e+00
1.452213805611501263e+00,-3.718893360801591275e+00,-2.309166485876781305e+00
-4.863246048198115901e+00,-2.201687163776750999e+00,-5.332213776362825008e+00
4.810120414725154170e+00,2.251617483671923381e+00,8.942814233242470934e+00
-5.102702685726461240e+00,1.031039910070225574e+01,1.288777311509240242e+00
-3.357113931032982723e+00,7.088068094210459691e+00,1.209828145978045555e+00
-4.855125348666229357e+00,5.241619427944950171e-01,7.303729157158293184e+00
-1.322253529332311883e+00,-6.497209863654830997e+00,6.761792342693383695e+00
-8.815846347812447803e+00,2.653519679542141407e+00,-4.102562507958565918e-01
-1.488942783385664326e+00,8.714588401086786895e-02,-5.274403811822831578e+00
8.466713674119796806e+00,-1.474406778607739721e-01,6.478407902412691932e+00
2.289774730252311485e+00,-5.619480915046797698e+00,-4.508198021529662647e+00
1.744273682616036547e+00,-7.479038739391614676e-01,1.157940342841332715e+01
2.509029420290138646e+00,-2.109929533560422676e+00,-6.624915028875942191e+00
-2.877421115265464291e+00,-2.080000327524570147e-01,8.157664185254976275e+00
-8.867919767892807670e+00,7.327752984701061401e+00,5.782797121088854908e+00
6.240479571500329392e+00,-1.868218711728344195e+00,-5.763399582898549589e+00
8.471207350757320453e-01,7.303124694324824029e-01,3.512469984430677705e+00
-1.778592928610932544e-01,-1.050519059554761991e+00,-8.345100406730747267e+00
3.253952129147866135e+00,-6.188319462550724737e+00,3.377826922923981900e+00
-5.111851216134161824e+00,1.852419143100122734e-01,-8.029579884356110142e+00
-2.647652755837446747e+00,1.126994613761544350e+01,2.501053215275586439e+00
1.433208725925973814e+00,-1.147892222178083266e+01,-1.815634731998962303e+00
1.962760319534124109e+00,-1.114829109637409132e+01,2.031963214745569513e+00
5.997658202120318416e-01,1.553596049477969476e+00,-2.654133478708871063e+00
4.065523696695590772e+00,8.756111982605244037e+00,-5.843028237111190570e+00
-3.256067563107027052e+00,-7.264398898726822651e+00,4.813205846749665007e+00
-1.597447974177700902e-01,-6.755661798576038102e+00,8.060369168830675335e+00
-3.232244353882995913e+00,2.069379653556253196e+00,1.208945582187846091e+00
-4.882960159479841522e+00,3.765231317403927025e-01,3.394068765324354864e+00
6.978528977392151944e+00,-6.904141794141730237e+00,-1.830425374073905154e+00
-8.748049178470621356e+00,-7.554986096225805303e-01,-1.666797837041666730e+00
3.219123277641364300e+00,1.386282952306141736e+00,2.205658483850279517e+00
1.022548579196071472e+01,2.315952853875084205e+00,4.251166330114912739e+00
-2.625732960482611844e+00,-5.894409817287571407e-01,-8.004723775944947439e-01
5.544604790489507273e+00,9.572311314719685882e+00,1.291853953368970576e+00
-1.332172095912557364e+00,1.809869828732944663e+00,-1.178926050891116439e+01
5.508624908493775507e+00,7.695558263146354605e+00,-5.715309551588331871e+00
6.762093425268724367e+00,-4.892559536528756858e+00,-3.804999060592752169e+00
-1.327619728725557779e+00,4.104603181005203716e+00,-1.207710267643212632e+01
4.452309652043967780e+00,7.004517741550606580e-01,3.880258945577866214e+00
-6.042382398145716316e+00,-3.993359279582454069e-01,-3.663843772583077474e+00
6.849370772885804648e+00,8.053387395544682192e+00,-1.863542518421763994e+00
-8.624708737682274418e+00,-8.947489155949170936e+00,1.142641387754180643e-01
-6.609472804994885209e+00,5.503015275195017431e+00,3.874690631056463275e+00
4.206763223789671713e+00,-1.087514923989773763e+01,1.422024748865134747e+00
5.345803603044969599e+00,2.921522791533207597e-01,-3.919716010640824866e+00
-1.091256965565341464e+00,4.863418900943371703e+00,5.589963683512058523e+00
-1.975105160004975602e+00,9.660375277500758973e-01,-1.481138431494964003e+01
-3.435539890485712178e+00,5.413731302262458911e+00,-1.826188478096604451e+00
-3.631972333254072982e+00,-1.062701511942813148e+01,1.572499251011511889e+00
1.348901719377733510e+00,-1.112934496843924492e+01,1.654779537597679928e+00
4.580466116243686159e+00,3.928540188842644554e+00,1.241428181590581881e+00
-1.634382457624958596e+00,2.635276356736998782e+00,-9.205426185400961359e+00
4.222051168812252619e+00,-8.559496424797803371e+00,-1.205068869193425263e+00
-6.495981885359476848e+00,2.458602502602289075e+00,6.317309958492532296e+00
-8.498009775641220287e+00,-2.837365574121283984e+00,2.268324113182720314e+00
-2.714198595994450347e+00,2.301719097787910506e+00,-4.438041622493951177e-01
2.103750592169033595e+00,-2.572926487829874542e+00,1.667666516558062861e+00
-3.132682914864130197e+00,7.414993263810143453e+00,6.947277555195196186e+00
-5.929221049051029979e-01,5.281486241316636132e+00,5.094501713030385126e+00
3.235115178408258352e+00,9.830981368024820810e+00,-7.420260343982093332e+00
4.585738547068315185e+00,-2.376346361827415432e+00,-7.154753934174884478e+00
3.209936391245197473e+00,2.663928651282861715e+00,-7.659651195986083572e+00
1.001096050694750872e+01,5.568091494997146285e+00,1.205161432536547839e+00
7.781991252522264091e+00,-2.201332549803963534e+00,-6.979052225050917713e+00
5.372183668746565388e+00,-7.432852190425897065e-01,6.036173698351076311e+00
-1.238934266506737103e+00,4.784291934037623761e+00,-3.242069707365598852e+00
7.063675867858661972e-01,-1.248493221942803544e+00,-5.881653769115072761e-01
1.067822769915231085e+01,4.597535107357556328e+00,4.121302773607274261e+00
1.108268011754518767e+01,2.084616001743684333e+00,4.252049359056379707e+00
9.702582316226433079e+00,-1.196929983687699428e+00,3.036958592515706101e+00
4.303670208373808315e+00,3.383864191651787312e+00,-4.279940229892293502e+00
1.463576702227381343e+00,1.548651291917970685e+00,2.805035979981398420e+00
-1.176684066729050571e+01,-5.058927818507290980e-02,-2.264736423685616895e+00
-1.202421195488828420e+00,8.300399876909693830e+00,-4.847809308007531293e+00
1.933795607931628524e+00,8.450755926603644719e-01,-1.599872270227797877e+00
-5.982992368797478200e+00,-5.203743401838567095e+00,4.792325116129816820e+00
7.793957826682647472e+00,-7.960066229715305752e+00,-2.420389767085745270e+00
-1.746220954968872752e+00,-5.787992301417872021e+00,4.404061184514340255e+00
-9.866475175421558497e-01,-4.716194641462830184e+00,-2.700272258828839256e+00
5.699387799683118816e-01,-1.125818669767503621e+01,5.350682991948446876e+00
-9.740415408454778046e+00,4.288720932129347574e+00,8.720376320920745217e-01
-3.600693067261289126e+00,1.175395729032798986e+00,4.656727172412354676e+00
8.235775313888819227e+00,4.774853035422457204e+00,-2.211191502364641348e+00
1.040557473653834641e+01,6.425877084791329352e+00,3.563770714682042318e+00
-5.891262790549230743e+00,1.636667270870229229e+00,5.496229204414280645e+00
-1.193251382312330522e+00,-8.926104652172327292e+00,3.457229901281157591e+00
-3.190087081633302901e+00,7.128094203022516950e+00,5.264767331382603111e+00
-8.881730268687167751e+00,-5.850059259622030439e+00,-1.187696870276748307e+00
-2.422871470284746476e+00,-1.232019095963747013e+01,4.187620480984064031e+00
7.766577953374081744e+00,-7.513897100613594837e+00,-8.469972843359110826e+00
4.610058222540833306e+00,-1.871478969471665144e+00,2.087028630864428358e+00
-3.623968630310943517e+00,2.798790654617656082e-01,-7.405587936636655044e+00
7.145165259194137697e+00,1.920402357542887239e+00,-9.342932617385827365e-01
-6.251372767548153409e-01,-3.979708969160082432e+00,1.703471865668855223e+00
-3.367861043265574228e+00,-5.344602981253441243e+00,-2.173075652076261743e+00
1.645676490843371642e+00,5.012218901584527542e-01,-1.002819288450990598e+01
6.598632974220558722e+00,-4.656106000520363053e-01,-7.682250168699003012e+00
3.471539485358654087e+00,-3.845861893265628773e+00,2.359211957087608891e+00
-6.080400812264722177e+00,-3.139626295901348563e+00,-2.888199302057229190e+00
-4.012740556458814778e-01,-1.477733765506797026e+00,7.112655529262115195e+00
-7.698437540780946886e-01,-8.595812835480487024e+00,-4.722043083544223308e+00
1.058855207347054161e+01,-1.108077394533610205e+00,3.908913996266325963e+00
-6.941618726865836919e+00,6.705003000502623989e-02,3.827795877417373926e+00
5.485463237472791576e-02,8.132688982039432801e+00,-4.176423991126440249e+00
-4.406841428643807568e+00,-1.010321809206204735e+00,5.996028239283628380e+00
7.947367987701015934e+00,9.827434255784858408e+00,-6.774621772682338783e-01
-7.507197124462154925e+00,-1.277314623814115979e+00,4.638898075043950797e+00
1.248167999629486768e+00,-4.272898007796194442e+00,5.336936351420448865e+00
6.092043113799505250e+00,3.001457098872895024e+00,-2.611154193395984535e+00
1.739530403372214540e+00,1.117403648909875358e+01,-4.260866790983851793e+00
-1.931122824819041073e+00,-7.833831891893587418e+00,-2.458843895788482836e+00
3.853354018392570524e+00,3.107986420986435405e+00,-1.548514899943554068e+00
1.740029443993044078e-03,-3.553724770141009626e-01,-5.328405440491105871e+00
2.664796818529365563e+00,-2.963707757937383391e+00,-8.221618627356340525e+00
-3.598338754452682919e-01,-6.034573344157671215e+00,1.227609883718167616e+01
2.464421558101483445e+00,4.076306084754925507e+00,-1.790211480697569080e+00
9.713377114866588613e+00,1.890377722527307069e+00,6.798710951963780502e+00
6.958315461301571858e-01,-3.692696096860372368e+00,-6.797405322859621180e+00
-2.403310438830847939e+00,-3.828472385634178909e+00,-8.472797198355124237e+00
-7.067514843186800455e+00,5.551804032936911604e+00,3.102269637491902529e-02
6.354670658641063063e+00,3.219486111465280853e+00,2.939499163521918756e+00
-8.519827900574517443e+00,7.811483993356901578e+00,1.667928241816367452e+00
-1.098654312146423728e-01,-4.115052470745917290e+00,-3.326708340091585558e+00
-6.287866484732780314e+00,-6.660958278084319062e-01,6.696132473910430427e+00
-5.598812955945875913e+00,8.401277600757680375e+00,4.874037838189583027e+00
1.015850518641417999e+01,-1.628328240818531780e+00,-2.233768737665610793e+00
-4.312441946182150154e+00,-7.254600244533642162e+00,3.634134325697686130e+00
-2.686173635387313352e-01,-1.730842005997117905e+00,-1.124203636342301316e+01
-8.637819798420700579e+00,4.184826406508781460e+00,-9.217435723546455462e-01
1.702438294827761212e+00,-1.871736907405203931e+00,6.949283859064799174e+00
6.125789860874865767e+00,-4.826460094642144760e+00,-8.766067091833026126e+00
1.219153706655999514e+01,2.125783259851804274e+00,5.491038667627979208e+00
2.859527254121495776e+00,9.141061020747043742e+00,-8.312131572162904547e+00
6.196375734560992221e+00,8.476876644985285481e+00,-4.916697221899321235e+00
3.774618379377507438e+00,4.646722031992703172e+00,4.890014898441507718e+00
-4.334907554909853467e+00,-2.232934394289469271e+00,8.732333953572467777e+00
8.029783828252165634e+00,2.896287222383189697e+00,8.158523475838219241e+00
2.113863305135198711e+00,2.435973718142613986e+00,-3.785664781671909562e+00
7.845555967470163594e+00,-8.970878886332892321e+00,-3.848807903964257981e+00
-4.867573645487729195e+00,1.665877764641966741e-02,7.525587844536694604e+00
1.118839720614808897e+01,2.408267272371165557e+00,6.683951967317474541e+00
-1.195423509855391409e+01,-1.346604177176394579e+00,-3.347873019897948055e+00
-8.994161751571200014e+00,8.866244965944803269e+00,6.802825066179078561e+00
-3.472608360187832144e-01,-1.359770824907353237e+01,2.663690736468570019e+00
3.835391353832963812e+00,-1.319390947963879235e+00,-4.893191281433562523e+00
6.187097388775226747e+00,-1.181167155742796959e+00,1.144584634141934121e+00
-4.986380283222174192e+00,-3.902521924443827839e+00,-2.163239186167746908e+00
-3.630847174451315773e+00,1.794989355339732806e-01,3.866479959963233792e-01
2.568123468654327723e+00,-2.515077557833688138e-01,1.131638138726985687e+01
-1.141870519359023672e-01,8.057846693603577748e+00,-1.581693904655768201e-01
4.607818964233103110e+00,3.613749129500679391e+00,1.080205428245087695e+00
9.963552206391639743e+00,3.558449311889440914e+00,-2.957632534799520263e-01
5.871828484905270429e-01,-9.246658728838369479e-01,2.893183891603228752e-01
-3.581388179689981133e+00,4.781615191283175470e+00,-9.027656523285932266e+00
-8.725276644064298148e-01,-3.707716078170465224e+00,5.680166687059316821e+00
4.414412101327259030e+00,4.375539337445136567e+00,-6.560280134763232240e+00
-3.576124070664616461e+00,-3.906169586459381726e+00,-7.623060497962791615e+00
-1.060782173225082614e+00,6.192596129799689209e+00,-9.466376380317333972e-01
1.302612117064073205e+00,-2.033989300422459845e+00,-1.187310146754038520e+01
-5.984142263458704925e+00,-1.750480722273640932e+00,-7.649907651343117898e+00
-6.297568450419935182e+00,3.440272907457769591e+00,1.272180413167193658e+00
-4.118366598977997839e+00,7.230269274036750460e+00,3.942617304671995004e+00
4.885247135686295650e+00,-6.891000383386851169e+00,2.468111640226669401e+00
-7.117223797378036565e+00,2.437036472464822356e+00,-7.112724035352600893e+00
1.120586344416440738e+01,2.281466335526218803e+00,6.742696558981998933e+00
1.027656857329133144e+00,8.270138022888453122e+00,-2.830445301634491706e+00
-5.591894429569455482e+00,-3.321840501590627603e+00,-7.802695319236044647e+00
-1.796638342729807158e+00,-7.048314312752448352e-01,1.639189600238746047e+00
-2.100075534937668742e+00,-3.966690279422652843e+00,2.589576459109260487e+00
-6.729244835439551764e+00,3.827152961676052456e+00,6.302029946019693796e+00
6.446332932908012125e+00,-2.028492634153399088e+00,-7.182306578030668298e+00
-8.719704689214186288e+00,8.378438905036501794e+00,7.738257149948048585e+00
7.149282944445380039e+00,-7.785097083135044116e+00,-9.098554328415845660e+00
-4.926559451134943757e+00,-2.769120118665098218e+00,-6.215799070607387344e-01
1.000206526046774158e+01,1.881352929653325123e+00,3.275793850717147127e+00
1.103947522979824569e+01,2.891832231734988046e+00,3.594808912065565298e+00
1.008948586424237526e+01,-7.156784557254581847e-01,5.066943536529236347e+00
1.058719079019244980e+01,-2.567214892445996544e+00,-3.566326386388467995e+00
3.518403188709510410e+00,1.212268257833337337e+01,-6.646839756650966713e+00
-6.886143419781853403e+00,-4.311097217790679892e+00,-1.027860466069583811e+00
7.523520328188025630e+00,7.651004162799591057e+00,-3.137312828668380460e-01
4.813403482775174602e+00,5.955431092990838060e+00,4.160585061191063971e+00
1.639974072426947815e+00,-1.017351757258921019e+00,-1.132901764867669314e+01
-4.804422280332842909e+00,2.878167127649328361e+00,-1.295098890999794916e+00
-1.385613140801015053e+00,-3.281092941582569367e+00,1.209012369301477641e+01
-7.771585129880925757e-01,-7.023797424014297519e+00,8.250156386640812300e+00
9.609716838852794041e+00,2.691160050007556315e+00,3.276263150769707533e+00
4.861113381352832441e+00,-5.096452003042011292e+00,7.793358622593435925e-01
5.464543378343876157e+00,-9.612831870883379315e-01,7.234575482726193663e+00
1.150621653177999981e+01,-5.530018243752263807e-01,1.400229162013706175e+00
3.058110967233351740e-01,-7.016196476565653706e-01,6.071029621352764138e+00
5.548495025484977639e+00,1.101341732242583049e+01,-1.707632098734437331e+00
8.541640522096940913e+00,4.586853752930209360e+00,3.537809272146385631e+00
-7.832036345726070437e+00,2.132460483234593251e+00,-4.518006541022911549e+00
-1.111786625111105264e+00,5.802117803423618270e+00,1.059889171917852702e+00
-2.979243444871268132e+00,4.133534481070016753e+00,-5.980833245542882537e+00
3.612242019564936957e+00,-1.188586046070496005e+00,8.324148171932503004e+00
3.056981341304288335e+00,-7.779441754226838590e+00,-6.830651655604135231e-01
6.043936252848928881e+00,-3.370354566716910139e+00,-8.374840483773726696e-01
2.545745267688746427e+00,-5.368843229363243985e+00,-3.387709034582353063e+00
-2.015168410000061083e+00,9.573147416140564303e+00,4.686243003486127101e+00
1.442704445100427613e+00,2.935349009760193972e+00,-3.254101098944638948e-01
-5.408418696458118902e+00,1.056785008934184811e+00,-5.783915259268973763e+00
-7.489231881972162164e+00,7.295491256570053373e+00,5.654052912367013128e+00
-1.272329331245543038e+00,4.204500315214752426e+00,-5.386536852029213840e+00
-8.904347633672333728e+00,5.086063887488979418e+00,5.654824258986145935e+00
2.095862117617115938e+00,1.070364159815814808e+01,-1.594384381687136143e+00
9.448183057094102111e+00,8.447027930226461478e+00,1.239775624457781777e+00
-4.197068299871899555e+00,-1.211578254024151313e+00,-1.010164499401064475e+01
7.291792440873904324e-01,-2.180623375167984879e+00,-1.058327306955449298e+00
-6.493040872022756815e+00,-9.019494441968086917e+00,1.140120733830277233e+00
7.308423936568851920e-01,-3.652818652793978771e+00,-3.778288677398585538e+00
-1.194395152140376393e+00,-5.943916683622897601e+00,-8.042552449470642628e+00
2.636619562056690569e+00,9.104781753528611077e+00,-1.384496876753024686e-01
2.916571820102889401e+00,-2.933643499729173154e+00,6.363221437397916347e+00
2.661935130989830700e+00,5.093304538594608744e+00,7.013870743945352260e+00
8.120200740045738996e+00,3.351753274702836904e+00,-2.962195888901221430e+00
-5.756761758421485631e+00,1.693139853286202090e+00,7.711373103892082526e+00
9.088961842579566408e+00,-9.067526483715342422e-01,5.263475890552227199e+00
1.483097753534449170e+00,-2.631816061663119211e+00,6.253316049211940175e+00
-4.689401532799917227e+00,-8.330734408495937160e+00,-3.048786795239731617e+00
8.220266178154984615e+00,6.303706677744266074e+00,3.235777691324261518e+00
-5.903836573114501718e+00,9.841650518271911618e-01,7.747623169185591685e+00
-6.112553743871522727e+00,1.138176765080041619e+00,-9.204239627514352762e+00
-1.146895918340429965e+01,5.764613531877347263e+00,3.011536194756396334e+00
-4.603579049634771714e+00,-6.249584667438439212e-01,-4.050397010877831327e+00
8.227827924613679400e+00,6.512536458718571453e+00,-2.060185214265298104e+00
4.555947931337873236e+00,-6.726891752012153169e+00,-5.193519243163664534e+00
6.862705764617313520e+00,-4.128001570628931916e+00,-1.102484878095757459e+00
1.467121909649672151e+00,-4.265734913570605080e+00,-7.563471316760006502e+00
5.852653070986464812e+00,9.211300801432622976e+00,-6.144784158574092547e-01
1.040053211134262945e+01,-3.303076637558431727e+00,-2.982345234037402815e+00
9.166531345167994616e+00,9.113831274601004395e+00,-1.110137606582000336e+00
-3.631138744974482968e+00,3.939616835567743558e-01,-3.230604881335643164e+00
-4.383090825244304045e-01,-5.688308446633701720e+00,8.361773415739225612e+00
-1.061220033821532072e+00,5.776402019813079214e+00,-2.802009203703820894e+00
-2.479858914061161101e+00,-5.327602923104263200e-01,4.178244481302086305e-04
3.727871895651829526e+00,1.134102764896736382e+01,-3.460923619644388882e+00
-5.241953313832754091e+00,-1.008330387050439114e+01,4.838292173745798230e+00
-3.723274088068029286e+00,-5.431195298900253654e+00,-7.636083334984042459e+00
-3.622660481523201970e+00,-7.307067297378162074e+00,5.580186102910507095e+00
-8.130541358844235234e+00,-2.038576325234863429e+00,-3.252216038376268159e+00
-6.708229672671293109e+00,7.600117384856325486e+00,1.090317462602697074e-01
7.713038044532227744e-01,-8.102034443605395708e+00,-4.618406209568592047e+00
-1.206901138030081455e+01,-6.785802367339877073e+00,-1.530310351641772870e+00
2.341586336128805623e+00,3.015423369748044813e+00,-1.107207357835922679e+01
1.261315646874410890e+00,9.889363817240431231e+00,-8.594843624766003387e+00
3.678381407663711578e+00,5.960893028204142796e-01,-5.646414898406770355e+00
8.365693350152708874e+00,8.901703489476757269e+00,1.561522766731255063e-01
3.139038550805815397e+00,-3.675536938597740999e+00,9.435378260259795979e+00
5.878595461376122377e-02,2.584033787669428150e+00,-6.606678265782691684e-01
7.807287917703090052e+00,-1.564852076633921563e+00,-4.789079289679709639e+00
6.711099921989608141e+00,-5.756992655276076398e-01,1.563111573953952282e+00
-7.230973683191015411e+00,6.118308085742139468e+00,4.866822676372406509e-02
5.702087027213006643e+00,-1.224488771698032608e+00,8.459801120431915678e+00
-4.783154217528598373e+00,7.891379768914797310e+00,-3.349161675508721014e+00
-1.062416753858273744e+01,-2.145626754808165337e+00,-7.386490979596090689e+00
-2.174379691391900238e+00,-9.878659413520255228e+00,-1.025816435407438387e+00
2.737672364931169167e+00,-8.001736271683904667e-01,1.329051847656473662e+01
5.792343860131445865e+00,-7.364237208596912332e+00,-2.580588301919952254e+00
7.435937358821441023e+00,-9.187609212967144501e+00,-1.944454989816728263e+00
-1.111814532343400153e+01,-4.511115781932069524e+00,-3.035255350971355348e+00
5.413214892521114763e+00,2.109645449036166465e+00,-6.454683394563587306e+00
3.564667514142627169e+00,-1.013398398000144240e+01,2.103567269514951654e+00
-3.390454400372662658e+00,-4.820828198997257452e+00,-1.438296281675944366e+00
-1.568704742429014143e+00,-6.182443453028860780e+00,4.259508601657502780e+00
5.849781095557203159e+00,-1.106924815394140449e+00,3.055457160673970662e+00
-2.435699139433169513e+00,-3.343078360684369255e+00,-8.181574373622858332e+00
-9.975899280295265070e-01,-1.022892451078043585e+01,4.516950433356667349e-01
-1.342962594871716098e+00,-3.495359894380600796e+00,1.171970597776693879e+00
1.484472770283583841e-02,1.148591579606782709e+01,1.041604909095205311e+00
-8.767288771570587613e+00,-4.802049864291884518e+00,-3.622206219513197656e+00
3.102239546323503294e+00,5.067569337367787696e+00,8.402475889157040356e+00
-8.615056561054343476e+00,6.669858344576516274e+00,5.091296263983465131e+00
7.186822769855440995e-01,4.151900707597135920e+00,-1.044910639638757743e+00
8.895952036393268259e+00,-1.145531197446680194e+00,-3.508579476085928128e+00
7.119202714376846153e+00,1.036537196866909039e+00,3.081731388243241554e+00
-4.296914159641740838e+00,-9.052363420155758178e-02,5.994455073950964774e+00
-4.470610972683945583e+00,-4.486036417924674918e-02,-8.709351974978797983e+00
-8.604557985536224862e+00,8.200901998299343632e+00,2.706175953406221524e+00
8.915747263164965020e+00,-2.268105860016201014e-01,6.067242833455068762e+00
6.483104762286194145e+00,1.243434447810995547e+00,-3.691490799070100692e+00
4.286771586686876745e+00,-2.023650035720799600e+00,-1.062458118803735641e+00
1.923909240450834002e-01,4.497972039926582788e+00,-1.129595525054174487e+00
5.527258332861944012e+00,-5.593028349396854004e+00,2.032271052895361141e+00
1.693381522531307137e+00,1.288562605582384180e+01,-1.813166667085884143e+00
5.555892667608742563e+00,-7.368927957188178723e+00,-2.578150658728324274e+00
-6.186849475591913894e+00,5.429009840640444118e+00,-4.388755749098780967e+00
-9.047236535536371527e-01,-5.645524845667272196e+00,7.791514645993717458e+00
5.182719144035258019e+00,5.150369308047054950e+00,-7.236112028046012945e+00
-3.361392000827913673e+00,-1.084370283857912565e+00,-1.035853042272415081e+01
6.687883766628639037e+00,2.822822764998841993e+00,5.943127850061957318e+00
2.807813063913046747e+00,-6.620241779149974803e+00,5.903482097898320013e+00
7.601390850932727261e+00,-2.518221535893362173e+00,-3.861524024913693953e+00
8.825688536794957795e-01,1.395436244612459076e+00,8.861597142855259790e+00
7.500927433969780012e+00,-5.489777010470827001e+00,3.390299124352782467e+00
-3.135353245591895988e+00,-9.705113590236289056e+00,7.189802878325255442e+00
6.847972060003165495e+00,-8.141371417838731972e+00,-5.794489086482077056e+00
-2.176239360185022065e+00,2.034128447320991295e+00,7.017154023818139130e+00
1.069778290297737655e+01,2.534689348944350940e+00,1.274386116816960124e+00
-9.787828538681353052e+00,7.473822415434877797e+00,3.006764896752888383e+00
2.705206716083009777e+00,3.979130121792504027e-01,1.148915544793078780e+01
-5.265881119460973370e-01,-2.005191523758482752e+00,-1.114172077958652274e+01
4.244256964456919690e+00,-6.547482687464699636e-01,-9.553247062345882057e-01
4.029690071308699828e+00,2.868691287673407198e-01,1.155643374530603573e+01
6.471757881394526457e+00,3.309635628774338922e+00,-5.603504086978074561e+00
-4.727677831706504463e+00,4.705583223597072262e+00,4.003385618173955329e+00
-1.023803333818166017e+01,6.070566465866948036e+00,2.746168480471018913e+00
-1.205195774037660428e+01,3.791533788254863424e+00,1.565316270483363414e+00
-7.424290184386466152e+00,-3.309667500502721182e+00,-8.554447584057426113e+00
-1.045557824611575315e+00,9.157710557627842363e+00,-5.897478960461315367e+00
3.537226948819012673e+00,1.018666284145215428e+01,-6.925670858861920465e+00
-7.245730581197495468e+00,9.568987967788270765e+00,7.932875620826229657e-01
9.129419051885895087e+00,1.172018648461545576e+00,1.052235816568517501e+00
-5.208894342589714732e+00,-4.865570520142620481e+00,1.807839202896211361e+00
5.619444179177987664e+00,-1.735967151451850654e+00,6.663057842916806806e+00
-2.391642348165251342e+00,4.383524967849868226e+00,-1.919263538663580126e+00
-1.100615647530374552e+01,-8.129326760188034129e+00,-1.079726679400506928e+00
-2.741685413898947932e+00,-6.522253330886178535e-01,9.108985133900424636e-01
-5.355228819981313393e+00,8.310028270738170519e+00,1.857850232231007315e+00
-2.556018607095106532e+00,3.611522422644036778e-01,3.757539897148530983e+00
-6.801183802477282825e+00,4.228261087941351803e+00,-1.397778651954884266e+00
-1.464342679041543249e+00,-3.624118260322416685e+00,1.236857606860753656e+01
-2.765000371460389905e-01,1.839394385563273060e+00,8.992387042319634816e+00
1.869374179799683899e+00,-1.114934193624941727e+01,-1.403533877413378095e+00
5.089951395011784729e-01,-6.527098774527337000e+00,-7.341805529667258412e+00
-1.286174275830126312e+01,-1.281426144701172998e+00,-1.985791329540502970e+00
-3.076329286036818100e+00,-1.778292261277890418e+00,-3.758798997828590172e-01
-9.172315967267312686e+00,2.677798774621729994e+00,4.578497564345940241e-01
-1.254308023118941184e+00,-6.169650160943927375e+00,1.061557164605876480e+01
4.407402877549315257e+00,4.672336143660603014e+00,1.112612945948776355e+00
-6.777776361602287025e+00,-9.431242444238194800e-01,-8.331928795524044418e+00
1.997491833620172352e+00,-3.627875878280110822e+00,-2.763704512464520757e+00
-4.332378378917641548e+00,7.076643088319127806e-01,-4.824083785317938577e+00
8.981795697861096883e+00,-4.792339155897349379e+00,-6.495828762286320668e+00
-5.937858482590727682e+00,-2.059320526363774384e+00,-5.025283359279195672e+00
-8.491000311344855334e+00,-5.333875743254966828e+00,-1.277570234151517159e+00
5.273807930392155896e+00,-2.707681651287011104e-01,1.088562315080486798e+01
7.566569555208570996e-01,-2.976057361494285569e+00,-4.386964015000774708e+00
-3.157786597158187103e+00,2.614725021350796652e+00,-5.478515479290052781e+00
7.663783008794341711e+00,-7.555960569007910799e+00,3.673217655798101111e-01
2.362351862990478557e-01,-2.425242178503582480e+00,-2.470913867434893607e+00
2.115928651759869883e+00,-6.714425242977107855e-01,-2.214342139306657575e+00
-1.967679707072601980e+00,2.023524221082209085e+00,-2.921500836642028975e+00
4.004911657195367347e+00,-1.919913426075268603e+00,-1.052516513271347520e+01
3.631062976492320349e+00,6.257736970591261105e+00,-4.502008000871955851e+00
-3.612885295739380442e+00,6.563883383447650210e+00,-2.751496386551814499e+00
2.031119911453464599e+00,3.738509021205909666e-01,-7.525809364217617592e+00
4.719265357264770699e+00,4.382503389691521534e+00,8.885087555021149441e+00
2.224912069746444399e+00,-9.499622206350508691e+00,3.464574491283679780e+00
7.012595935765405519e-01,4.118658371758433745e+00,-7.797548652613380149e+00
-5.780389986501930366e+00,9.896455837260142996e-01,-1.139113346780868952e+00
-6.708025956729262163e+00,-5.585699090845483994e+00,1.071224629040054444e+00
7.627245285387706630e+00,-4.322773615252450519e+00,2.073406679242455919e+00
-3.182767586937014670e+00,1.193769405510434112e+01,-5.787732153424253179e-01
1.078628977251745802e+01,-3.944617690322047121e+00,-6.388881650131797985e-01
-8.374293671065514033e+00,3.730039627465767005e+00,-1.189094578147171510e-01
-7.514910323427663741e+00,-5.741313893337455232e-01,-4.866562893542376145e+00
-1.788405334327299867e+00,-1.336619589606387137e+01,3.198938926153775508e+00
-1.576338775918929569e+00,-1.254977995966669368e+00,-4.683450094922061879e+00
-4.773261787359428965e+00,-7.153929128676532745e-01,-1.018788712662474971e+01
-1.224270320193528860e+01,-6.048458473894849696e+00,-2.852368908172322470e+00
-2.586518882421368737e+00,5.855975873710408397e-01,-1.129758289925215919e+01
4.751329942404279194e+00,4.581141929426483017e+00,3.549938242841609526e+00
3.313685361341339508e+00,9.020727409645871830e+00,7.589110391973582503e-01
5.346984229117170973e-01,-8.674351682642297945e+00,8.168580747363799688e+00
9.445370528315208958e+00,5.790875561441933606e+00,-1.122617429981795478e+00
-9.432834853212482829e-01,-4.274863345670600445e+00,8.558004383640875901e+00
3.146690669004735597e+00,1.166749315324840808e+01,-4.774398071840197488e+00
-1.004777435272624508e+01,2.812724965188979187e+00,3.512304177336926791e-01
-7.772615766934195314e+00,3.302316049552493471e+00,2.442551695459434402e+00
5.699680320533349054e+00,3.923563250286890902e+00,-2.974883994630710848e+00
-9.639747676554934586e+00,4.521372186637646173e+00,3.795927640483064192e+00
-4.311186717586672934e+00,2.274887187169848168e+00,-8.049801540927106203e+00
5.118765255866122743e+00,-5.023368683469285223e+00,-5.328100611000752274e+00
-4.200935001313597539e+00,1.019077281623159159e+01,-1.731029503806319925e+00
-6.243191341593128385e+00,-7.537589081279295833e+00,-3.489730124337718120e+00
-1.049055813556959293e+01,1.741015617989794428e+00,-2.602343124451611978e+00
-1.396953547888568847e+00,5.987128564802244313e+00,5.098775326733533397e+00
8.834578767555358425e+00,2.941488242544571641e+00,6.193841003301715276e+00
-2.603564838517073099e+00,-1.694798058285287290e+00,-9.266017651069594407e+00
6.958731379741349699e+00,-1.580241409659958185e+00,1.445172502352458366e-01
3.301613318068457037e+00,-4.089566580581302624e+00,-8.796260621948399638e-01
-1.173806935193937129e+01,-2.025984401390972689e+00,4.270670967384932459e-01
-2.907616244165913244e+00,-2.189635004151959219e+00,-5.453185559450395736e+00
1.171651129863491825e+01,-4.670761254972277676e+00,-1.678311856657514367e+00
1.940552536200064848e+00,-1.955941994312305310e+00,2.105010035738198670e+00
-2.745677599861372276e+00,-4.852219943327483187e-01,2.292974385845739427e+00
2.979590382001688020e+00,-7.029282723851486558e+00,1.699916427581422917e+00
-4.878971299968982711e-01,-7.323270569949015041e+00,4.071489669137749345e+00
-6.913779423759515375e+00,-1.127149999077157538e+01,1.783552424218245225e+00
-2.720278006141860772e+00,-4.154545441339813294e+00,1.061380255199830369e+00
3.487219542932609162e+00,-6.794969073758557521e+00,-8.833206284599480540e+00
8.194903132752555663e+00,4.241599212253090515e-03,-4.142010980963427791e+00
2.057189406119404040e+00,-8.217061371324772878e+00,-6.031736937941424515e+00
6.077853936736326013e+00,-5.002692164675860198e+00,-1.245978582365705467e+00
2.161103550175777488e-01,3.358207364204178536e+00,7.493708613372918492e+00
-4.491543707236351324e+00,6.734915611528252910e+00,4.164808636768124295e+00
2.910715753448828824e+00,-5.818054794887967063e+00,6.682666452279392821e+00
-5.306333807822342763e+00,6.624467517434478481e+00,4.767349647386487810e+00
6.593706340505582020e+00,-3.263274993254314360e+00,1.464170839804738833e+00
1.878928804913303940e+00,1.094057984993176191e+01,-4.203853845237779829e+00
1.133429283170993562e+00,5.599674833480086100e+00,-8.435622492890736623e+00
2.313609414110052998e-01,-1.204380663855810241e+01,3.381000568701198805e+00
-1.171180245095664318e+01,-2.613219789386736824e+00,-4.611500689059233160e+00
1.245754591498352770e+00,-6.881133148182532189e+00,6.675427458135644088e+00
-1.053506666682888504e+00,6.186591106472323354e+00,-9.256437228745740597e+00
-3.845236169366427426e+00,-2.691155367722992242e+00,2.531121545138181439e+00
8.596845359559029953e-02,3.625898011617057826e+00,-3.188453489281929176e+00
-1.185822411776159546e+00,5.543120455259283652e+00,-1.407886723165642673e+00
-2.511809826337386031e+00,5.629593927874375403e+00,5.332114492547987972e+00
7.664029174557871471e-01,-5.818899097535037868e+00,3.735456060344670259e+00
-5.048279031062354427e+00,-2.104867533799303914e+00,-7.231084101312816870e+00
1.630579925243453410e+00,8.374548214987976635e+00,-3.752404165491774801e+00
9.691323354813780044e-01,5.610465074349480830e+00,-2.803265356837770117e+00
-4.510294703974311759e+00,6.892987805257611456e+00,-3.613801108142522978e+00
2.921147052381106946e+00,-1.156447706601930081e+00,-7.494201384795564636e+00
-5.290169296014951783e+00,-7.603332418246095514e+00,-1.318158836488790842e+00
-6.625792842971865992e-01,-7.049441918301567078e+00,8.880561028036307647e+00
-8.046854301533454823e-01,-4.543100290168101907e+00,4.081341094739237008e+00
3.113812146026416761e-01,1.027168713255859522e+01,-2.574364255908032639e+00
-7.490565606039094604e-01,-2.341511018009698741e+00,5.881844487112847908e+00
-8.145483954850627484e+00,-7.992858459310633990e+00,1.057473059650479996e+00
3.566898307807559565e+00,-3.286327330470857344e+00,-4.126556451089102850e+00
4.770344322891339139e+00,5.581807248121152476e+00,-1.049818964113436559e+00
3.687892048576361104e-01,-1.217914665293943699e+01,3.078897680862818120e+00
1.660749426129548123e+00,-3.862819922214836499e+00,-1.013424314612060506e+01
-9.787778515821557335e+00,3.817282605427043229e+00,1.828967321317833128e-01
-8.039722543778042407e+00,1.619663202268160518e+00,1.031835196981060854e+00
2.528773985790529810e+00,-4.747569133667321140e+00,1.028280135914461724e+01
-1.032494594570581903e+00,3.933793001076943963e+00,-1.008608641365740510e+01
