-2.091569661463404284e+00,1.010483942818957814e+00,8.140451569521983899e+00
4.680579405393470616e+00,-5.905435676050268867e+00,4.233807604918927936e+00
-6.024352980094548116e+00,5.711176285544406817e+00,1.749670778825858641e-01
-1.781846269026197804e+00,-3.380499727418898814e+00,-1.993076577460081156e+00
7.496330931444936674e+00,-4.781397607684733764e+00,7.109974382903330614e+00
-6.428072990114896967e+00,5.438584026629572854e+00,1.733640276914082179e+00
-2.112092840129679683e+00,-1.652135319712138672e+00,2.069717747416321529e+00
-6.784874379359423280e+00,-5.652681165020970511e+00,9.425667436602226390e-01
2.159224815041834500e+00,7.493986000358440869e+00,-1.849111347150494966e+00
7.982293336453067933e-01,-5.351583256042617975e+00,2.767834125310020266e+00
-6.071974936297763747e+00,-7.837857197285029720e+00,-1.720291478538933827e+00
-3.823412857607020765e+00,-3.439814303626672842e+00,-7.049841015826487478e+00
-2.040384887339647957e+00,-7.371831045134979554e+00,3.751526680301451755e+00
2.346466992552443287e+00,-6.146375678228469752e+00,-5.539850901411350392e+00
5.966708249441880163e+00,-6.705048622213388931e+00,2.052500231750963966e+00
-6.098231121467121874e+00,-4.986617918110262337e+00,-4.202567750655310519e+00
3.756960626586313801e+00,1.505068834844155656e+00,1.920583852196557029e+00
6.742905401644464725e+00,-1.025303894387483705e+00,-8.061461506875696514e+00
-6.868193440162245089e+00,-2.446147589702142522e+00,2.220310158697954284e-01
1.867199369017182420e+00,5.414725054574867080e+00,-8.138308499323196332e-02
-1.717618219978364946e+00,-1.525690394412306250e-01,-4.681539938131813017e+00
7.643441918984828831e+00,1.189380050863021898e+00,4.290443045095087005e-01
3.669000553964646194e+00,-1.784570330943378691e+00,-8.046024900044678185e-01
1.833628433684901582e+00,3.684921925955387145e+00,-5.429972213405982018e+00
-1.503472983549122732e+00,-5.913376051880280038e+00,1.210028026783934063e+00
-3.825428190863296329e+00,4.439909727449883547e+00,-5.020204825908391122e+00
-6.361669131875735683e-01,1.863908485621800670e+00,-7.005204021158442984e+00
-7.522917103706013020e-02,-1.124271747856321779e+00,-4.035729836570493667e+00
8.393232841051182502e-01,-2.452500777543107802e+00,4.969350044735494798e+00
4.407515476928549170e+00,-3.348208813491633684e+00,-4.706906096867959022e+00
2.592839245727654340e+00,6.039606559130604069e+00,-2.028047169300774222e+00
1.241934609053807259e+00,-2.272366062759597072e-01,2.831090890639401003e+00
-7.852475215180215962e+00,7.069770315599669175e+00,-3.464689225051333921e+00
-2.581798032552604649e+00,1.311419010257138806e+00,-4.474412499391165809e+00
3.721665844420710134e-01,7.760925776951305366e+00,8.387782717220607087e-02
-7.299417983164375734e+00,-3.399392488627170472e+00,4.479067522129512646e+00
6.685072910781430622e+00,-4.379320347507381861e+00,-7.234592501510539897e+00
-6.367398553991631793e+00,1.777812643985359431e+00,4.522393946788965113e-01
1.387825420394739773e+00,3.219010067467942715e+00,7.475548603166920714e+00
-3.758214594933694475e+00,-7.912173739147474905e+00,6.657843172686276345e-01
3.426405518809953588e+00,-8.077593776337602449e+00,3.123962926439749932e+00
1.167201751956149502e+00,5.538673276963262282e+00,2.797149614407410834e+00
-4.120777243864510275e+00,1.891005961281082559e+00,7.858275055886066340e+00
3.704422184910064697e+00,-2.411504028992469628e+00,-8.166403350914022141e+00
7.574306661241513083e+00,4.198585957682276160e+00,1.543666698873155996e+00
-4.392368145517873579e+00,3.220190923830446916e+00,6.135979926354101721e+00
-7.414871166277810843e+00,1.973538275649828755e+00,-5.205865635694859606e+00
3.935669324830462390e+00,-6.975861794231065005e+00,2.374809823583712842e-01
-4.477816314885052940e+00,2.502381061429836961e+00,-3.632258064220422078e+00
3.952794702371916769e-01,3.944989609461485802e+00,-6.142002392890141493e+00
1.495466819178465689e+00,-5.926695311306929170e+00,-2.650426923727640993e+00
-6.246935454621561412e+00,-5.765564734358251897e+00,-8.328312739403926912e+00
-2.502609640535062407e+00,1.257568631655767266e+00,-3.398782444302800965e+00
3.422265310509313263e+00,-8.847452147357698360e-01,6.195407841013762074e+00
6.315847239886395181e-01,5.366308366272865449e+00,-2.143308915642931023e+00
-5.115729668438474320e+00,5.463001261604232717e+00,-1.076105928967005410e+00
-6.651477320765962986e+00,-6.309602774467068187e+00,1.346393722184143771e+00
7.473876541789649330e+00,6.719047235508794458e+00,7.106545968577770545e+00
-1.025943161851815777e+00,4.159406845979056300e+00,3.708391751360165411e+00
-9.926978348730844948e-01,5.074347088231719205e+00,3.897802736122973344e-01
-3.614629663163283713e+00,8.355708246135062911e-01,-1.214928053186740825e-01
1.669944004764814194e+00,-8.094115101244607757e+00,3.554565797334529265e+00
-4.154488999672987237e-01,-2.626681770385990600e+00,4.360226436367657499e+00
3.035054119725903554e+00,1.271110395479445154e+00,2.257500536908343403e+00
2.214716792248442978e+00,3.149042958420247729e+00,-5.959027773384609539e+00
-6.967112690817157450e+00,4.793954654739272847e+00,2.350897049979099318e+00
-2.909436926019484115e+00,5.121902445323555320e+00,4.600106448582972796e+00
4.298675988003807014e+00,7.398973898229636026e-01,4.970835821645167130e+00
1.694913195506342340e-01,-2.022083784588125877e+00,-1.115756526815340877e+00
-4.823005171851838746e+00,3.791220379861899303e+00,-2.098916149284808963e+00
7.594483598970545479e+00,8.869375420556750989e-01,-5.046164365497777027e+00
-4.402818519695689048e+00,3.130059585750788465e+00,-2.100272848750479593e+00
6.136479110579492691e+00,-4.611980092200311354e+00,-7.935186619098291594e+00
-4.035628198876612949e-01,-8.043633252420494983e+00,6.343805220600756023e+00
2.424152791977699284e+00,4.308880566708447546e+00,4.709668550876878967e+00
2.708349475828504715e+00,3.541621613709804439e+00,-6.689243406062096220e+00
7.935872214331300967e+00,-5.028514792098427222e+00,-3.420012913421036416e+00
6.265151623228523370e+00,-4.903435250534053935e+00,-2.952774513871387452e+00
4.124299598180892978e+00,-6.656108221180556228e+00,5.880214848745501932e+00
3.147997014641233271e+00,-5.922786663616835590e+00,3.736675332299656649e+00
3.712282772296927380e+00,6.163158245709160710e+00,-3.729430589384984174e+00
1.340996563631486893e-01,-1.559364865013762369e+00,-5.590832168812584158e+00
-6.055626893801195010e+00,-2.413825806298533827e+00,-5.723831904573531304e+00
7.718596293762953753e-01,-7.504340076188674047e+00,-1.648344021346384025e+00
-2.737454494982266784e+00,-2.886197676803762935e+00,5.852388609630889249e+00
-8.246734667179062006e-01,8.639453699744692017e+00,-6.981827442107737092e+00
4.505537960897676442e+00,-2.182966550004519668e+00,7.478019479010656667e+00
-5.581625465908910400e+00,6.973073101264418483e+00,-4.529316702493005664e+00
-4.957642820804800898e+00,-5.434437375138255533e+00,-3.909028985484387597e+00
-1.450945409783231665e-01,-1.548406868371674294e+00,2.338566123607261016e+00
-6.755156468861412300e+00,5.034447032211346595e-01,-3.195664857565684080e+00
-7.014213561340699066e+00,-1.632258801219537814e+00,3.719763494048270669e+00
-9.822292567948404107e-01,-6.064912378355990619e+00,7.511655004859364437e-01
3.178104286429393355e+00,5.293137098415191311e+00,-2.832872709284476098e+00
-4.663999159843799980e+00,2.119426311702932719e-01,6.757326267475785464e+00
1.821786841971421378e+00,4.368633960746771905e+00,2.363172132656401470e+00
-5.941269395692971855e+00,5.756867817052172320e+00,-4.031647748690113886e+00
-3.629702841803366553e+00,-6.126930683492092911e+00,-7.938127868831574840e-01
-7.480888175475850943e+00,-2.373393380902639294e+00,-1.251710300300501455e+00
2.482571235033622425e+00,-2.727892592568163632e+00,-4.011816175025641584e+00
5.226551163079286688e+00,-1.702562981592355973e-01,1.204323478677586490e+00
7.281159693635252061e+00,3.598447993045698290e+00,2.701779161813625763e+00
3.694797041773432156e-01,-5.091407885221086893e+00,-4.508567685033893824e+00
3.818243862426141000e+00,2.777529048600784201e-01,5.006435776023018036e+00
-1.898735239906655714e+00,-3.060042161510850178e+00,3.133841606580294314e+00
1.776302054789214990e+00,-1.945296840279847173e+00,7.625786482372109099e+00
-5.922778805891005582e+00,-8.608011183487167983e+00,6.197375352784548319e+00
-3.373658342079766559e+00,6.132860361036003738e+00,-6.083860665336286999e+00
-4.959617426762477632e-01,-2.755867501856587687e+00,6.249974757044934881e-01
-2.142657973691862172e-01,-6.454550215762881571e+00,-1.366122444659230162e+00
7.750213939118484330e-01,-5.153240731713922829e-01,-8.001853989509809750e+00
-3.565843359847983063e+00,1.530271597015456120e+00,-3.538843934007378511e+00
2.694733276072507344e-01,-8.447346630818188373e+00,5.096417859480152579e+00
-4.695985277711851147e+00,7.251634788395028286e-01,-4.072599465702882782e+00
1.331160937045376969e-01,2.487448810048278336e+00,-8.166877866675440467e-01
5.317994013637486361e+00,-1.963589627377565039e+00,6.052960280354435341e+00
-3.475964144752877960e+00,3.654333264799443537e+00,1.699909348545532162e-01
9.524194483502336217e-01,2.251548530525667502e+00,7.618620331084219544e+00
6.649229985379430108e-01,6.718941020371206996e+00,5.233358027325806461e+00
3.261649418369302111e+00,-5.688799636870431442e+00,-3.586541855406463419e+00
7.484103409654068173e-01,4.500473271645578643e-01,-7.171308915434003062e+00
-9.687595061024492082e-01,-4.061299968035780417e+00,-5.754468177885118330e+00
3.222844862945967837e+00,5.980807264799711254e-01,-7.561150044534313608e+00
-6.190123684682274252e+00,6.703454838210150868e+00,3.941425350213631495e-01
4.062966680663584462e+00,-4.748023350377656993e-01,-6.861257940661176669e+00
-6.534583701889514096e+00,5.517534092511156452e+00,6.853505876922675100e+00
-3.543437203032539617e+00,9.542649615623299830e-01,3.893849984177029988e+00
5.652365027585666279e-01,2.390868405836529931e+00,4.545214862815235790e+00
6.980948031538323661e+00,-5.779431434971660231e-01,-5.874632030771936186e+00
5.359174634494825007e+00,-4.435755036659779771e-01,3.911164932088168289e+00
-5.902034801930100549e+00,-2.577321421232058873e-01,-1.270282189879285317e+00
5.159336208469492924e+00,-6.145874206368491244e+00,4.795412389841473555e+00
5.158507232898238648e+00,-5.466194551522855605e+00,3.983196758578309016e+00
-2.698194552899833010e+00,-2.989024278282375491e+00,2.885745722747233177e+00
7.403736824632193070e+00,-1.989475415463734187e+00,-4.366034980412963229e+00
-5.263712130459232696e+00,-1.311079340609349941e+00,-3.476313573982369842e+00
-4.348303982496879883e+00,-3.799104558849493163e-01,6.736984293577654714e-01
5.006685150381675165e+00,4.451652724141501594e+00,4.471379633870800063e+00
-4.070594153270561399e+00,3.474311206959186826e+00,-2.684279624562878830e+00
-5.098308269914370028e-01,-1.971662423224193494e+00,-6.972119829270139180e-01
4.242860260971760056e+00,6.610385613667298266e+00,5.178109924349858950e+00
-8.458188391747164303e+00,5.902953636758567768e+00,-4.451228414681430046e+00
-5.336221905029836066e+00,-8.349592436014098951e+00,-1.157440789855986418e+00
7.151322908238158860e+00,-1.735657387107314875e+00,-8.333106089799711569e+00
-5.499489470819408865e+00,-6.748462131080056103e+00,6.555663146794839413e+00
2.332109428271037288e+00,-1.358374663751179545e+00,7.237817838402012427e+00
4.399392685050119489e+00,5.259934753431589449e+00,2.675682524699732223e+00
6.705705524023088060e+00,-6.255773253986244065e+00,-2.866740718327783100e+00
-4.617647494662135976e+00,6.807936675662367598e+00,-4.337039572406355958e+00
5.352974556166349984e+00,-4.370489252344844644e+00,2.876883995407514050e+00
-6.216243053221078618e+00,2.483030185231608122e+00,4.424873936102897254e+00
3.675884020787786088e+00,7.085331189396286256e+00,7.975042612226547867e+00
6.794069108140815771e+00,3.121423872872076122e-01,3.843020665236165367e+00
4.446551153002939571e+00,3.237715227335258739e+00,1.823311785818919395e+00
1.211102669149874744e+00,-5.658958258912846873e+00,-3.907126340518934926e-01
2.643305983106431611e+00,5.308308254790111036e+00,-4.540222344499201590e+00
4.708341684347120193e+00,2.640687098450053671e+00,6.609243587772528628e+00
-4.475420838496565468e-01,-6.427491526060949312e+00,2.567625789528319213e+00
-3.033462656773947774e+00,3.052157872230129243e+00,-5.857774110020603331e+00
4.722457731461467745e+00,-3.239780606598231749e+00,1.783907259412754076e+00
1.597895802124972064e+00,2.294578525946399772e+00,3.659029309541296904e+00
-3.409092633437886821e+00,-1.655419240533705594e+00,-6.734310399242199097e+00
4.300171834832005935e+00,-2.119101959586719985e+00,-4.486922409938861378e+00
3.022979634585702513e+00,7.418974877199544515e+00,3.391403865043363108e+00
8.096769969186402349e+00,-3.974308612603869584e+00,2.273590757700535647e+00
7.135698827149358436e+00,-9.971284449718887943e-01,6.591620476570716036e+00
4.922276980648755185e+00,2.228228075672701092e+00,-1.743002961421023178e+00
-4.920028565634095408e+00,2.631941106719228429e+00,-5.256431507984603790e+00
5.523635246071752825e+00,1.642932181152408688e+00,2.722773033766535011e+00
-5.854979936125854323e+00,-1.490673655038724732e+00,1.797006126891412592e+00
1.611723102750946213e+00,6.127668442749151012e+00,5.995754490183061058e+00
-1.505081538792275575e-01,-2.629970569875303421e-01,-7.026918823412428239e+00
-5.040651069281313568e+00,-1.962985721299562059e+00,-1.721350570929997881e+00
6.195585085740201059e+00,-1.717921130315774425e+00,-1.202668475566220252e+00
-1.328551645278766680e+00,-5.669785688544794588e+00,2.888973381054667833e+00
5.274586428704536978e+00,2.256948710967748628e+00,-7.343446472762266808e+00
-2.783425032691210887e+00,-7.154682290536681144e+00,2.039895129518058514e+00
-7.158685837049211242e-01,-1.877582129423556845e+00,6.261110369316907232e+00
-4.511170811246833168e+00,-5.703213666447587649e+00,-8.403024949932722976e+00
-7.529681943512504638e+00,5.497916278984240179e+00,5.698702641769712862e+00
7.600418184055866000e+00,3.184373701557102976e+00,-1.913864194006225761e+00
5.749296074577793014e+00,-2.926569218014471563e+00,7.983319851093184649e-01
7.521778203677675023e+00,-6.214976786473835890e-01,1.132500264422059200e+00
-3.168398120430525822e+00,-9.969452506430856453e-02,-1.083447411401189830e+00
5.921132597209855852e+00,4.908694263036579741e+00,4.718467176590488421e-01
1.094811674123375766e+00,8.751263718350879572e-02,-3.305028773313696266e+00
-1.493629706391695899e+00,7.778552589286201524e+00,-4.056567743126105796e+00
-3.438176634373609625e-02,3.476405175024004812e+00,-2.095316604266912464e+00
7.238056340801484190e+00,-4.747577492315039116e+00,6.880402689330803456e-01
-6.273311502719867150e-01,-2.329700985835492233e+00,-1.053315844217596942e+00
9.973851552033258239e-01,5.860772727378622982e+00,4.707943672892856313e+00
-6.288641586888353840e-01,6.553590533169271204e+00,6.202316746320336804e+00
-7.718248875358748151e+00,2.948415768644663704e+00,1.252779010351729339e+00
6.564320375164903965e+00,-6.851389848750754297e+00,2.648894741923593976e+00
-1.345130623694280603e+00,-3.142541583785235293e+00,-2.460933087702649458e-01
-5.430887044173307920e+00,-4.970116326513083216e+00,1.093898462408574357e+00
-3.816201252939861455e+00,5.875189167459607731e+00,-4.759119066536865894e+00
-7.176461085813921059e+00,2.954401396832866400e+00,-2.795999383907710190e+00
8.436090602437491981e+00,-5.741397351208268773e+00,-4.658366487241444309e-01
-3.171109759189219446e+00,7.130982326209097444e+00,4.044896996637213249e+00
1.158142460771412585e+00,-4.198694375961636638e+00,9.010245745703283626e-01
-4.065092807382350237e+00,-2.527416418194166958e+00,-4.877711305815232157e-01
-3.717921884943743649e+00,5.985343303407057114e+00,2.559665762773650766e+00
-2.209015669025862216e+00,2.645854581414927242e+00,-2.245437256883688448e+00
8.197984138108455054e-01,4.922558768715326494e+00,-1.054793419989624503e+00
-6.449477276083912969e+00,2.791674660287969623e+00,1.078623590163998225e+00
3.969482612090998064e+00,-5.638401074387231482e+00,6.783572441464273517e+00
-5.519400589221718612e+00,6.904711408978804421e+00,5.375903743725808148e+00
5.033287774053199826e+00,1.573425646649200926e+00,-5.356712625391040206e+00
-2.543495594003490456e+00,4.906798733099024368e+00,-3.987576406494563463e-01
1.733471484216674963e+00,-4.136561082812671764e+00,4.396375921618777660e+00
3.855487916058932818e+00,4.198478313476647017e+00,1.943412930344686540e+00
5.062498460711895909e+00,2.239471894814196062e+00,1.985778384715998657e+00
-4.509454974235755031e+00,-2.017008510048130976e+00,6.584025827286719590e+00
-7.172658389888749042e+00,9.117602158583338889e-01,6.563737908375859575e+00
1.837360241814111506e+00,-4.782720816485527493e+00,-4.458131156546462748e+00
5.246665257327125964e+00,-1.426459479665559194e+00,6.275675705331588361e+00
-2.426654109497142553e+00,-2.469759965763056453e+00,-4.355635692138559278e+00
2.252177722212231448e+00,-1.942634556521644629e-01,-2.783815538307718107e+00
-5.579138318622280046e+00,-2.079937095191242591e+00,4.844727472451974215e+00
7.684662006003898149e+00,2.050539535662332380e+00,2.808060841785136041e+00
-4.081204024805576758e+00,6.114811162571257341e+00,7.334374371429776218e+00
-6.770322487928431165e+00,2.969931243073191229e+00,-6.854946791659105365e+00
-4.349519940082323899e+00,5.285269999783306361e+00,1.323023349589850461e+00
-6.425093289520866335e+00,-2.360804632657612867e+00,-4.217577548121265174e+00
-2.852700365771133062e-01,3.220517895776113360e+00,-2.998447532485128963e+00
-3.374703165477654032e+00,9.686872368715781015e-04,-1.969099886411615152e+00
4.397847876291361757e+00,4.955006726537164674e+00,7.818435097028828551e+00
-6.600061769816972124e+00,-2.408307572134515073e+00,5.377504899602707056e+00
-4.583887625357028206e+00,3.477268332462178702e+00,1.486772425593199110e+00
6.784248741772147540e+00,-5.365040185538049400e+00,-4.922549074343835152e+00
-4.578086816791863356e+00,-7.544321580639114622e+00,-6.435153657500571001e+00
-5.919577101471962699e+00,-9.513814329674666892e-01,-4.909986486320780052e+00
4.507441903159470353e-01,-2.700817794213667078e+00,-1.568587043414606530e+00
6.696167716096504963e-01,2.026964995873135944e+00,-2.381277959634594321e+00
7.529229588291483033e+00,1.430525905732442649e-01,-2.333065902478492770e+00
8.198206078574398203e-01,5.372936574239638219e+00,3.297630232514248139e+00
1.693773630433924815e+00,-4.888784485121865586e+00,7.326360320790882952e+00
-3.852010399625587667e+00,-3.154107555587007283e+00,6.643057291700595890e+00
1.613260594353126631e+00,-3.462862384270255056e+00,-6.278316256718763810e+00
4.180533378300897773e+00,-4.448309863700175448e+00,3.632412051334632519e+00
-4.702426051958865649e-01,-6.302893813520851651e+00,-3.634558939233252239e+00
-5.685313440004080565e-01,7.222619370924149962e+00,2.757127236585645402e+00
-4.740585624550187838e+00,-7.266671336091142130e+00,-5.147895123239823789e+00
-2.820346122187709526e+00,5.847655935106043756e+00,7.574789638157207960e+00
5.750234926358454679e+00,1.524083614054373426e-01,-6.070872996807072930e+00
6.291070863797325607e+00,-4.037227613394541170e-01,-7.506267587832212484e+00
6.917769476856551414e+00,2.656222671500265697e+00,1.023233681192555089e+00
-4.086537648037234405e+00,4.506801611638209693e+00,-8.160743698811754321e-01
3.956465781963938610e+00,8.557716005469902854e+00,-5.927818488888460635e+00
1.773932886366121675e+00,-7.483707561600875025e+00,-3.085506156777314324e+00
4.737847417187881938e+00,7.501502157524798875e+00,-5.641731298507857595e+00
5.105274679231147417e+00,5.111868778392158141e+00,4.595091696580851703e+00
2.304609809498435080e+00,-3.223476032852933937e+00,5.651554788894374015e-01
4.645445216512085196e+00,1.713587387274369433e+00,-2.397087178713150468e+00
5.188883248176220597e+00,6.058242937663817607e+00,-6.682931687434312096e+00
-3.059486523896730592e+00,-8.079319289661485826e+00,-1.444058273489805755e+00
2.099501141457624342e+00,6.680568620095551857e+00,6.471850789189757869e+00
-5.642664548915550249e+00,2.845816419907551076e+00,4.023567514898473085e+00
-4.941910124171351448e+00,2.901413750045158224e+00,-2.310064950681037121e+00
-5.133037158639923270e+00,-6.508888397491596756e+00,7.055506339774967550e+00
1.534378152759666714e-01,-2.148867445147077060e+00,-3.557499676888771778e-01
3.881805805898793871e+00,-2.751092644095508799e+00,3.805600197391533435e+00
-5.347793833911187455e+00,-4.274071007773848407e+00,3.195648509889971400e+00
5.430666024286804117e+00,-7.016763292928449580e-01,5.780238577664622568e+00
1.205709561156778298e+00,3.956232541084443000e+00,6.708810202262306177e+00
-1.209835730046138869e+00,7.514807014652604700e+00,-5.044013482955004513e+00
5.934158421873782174e+00,-2.872287269327467918e+00,-4.677498781257262150e-01
2.403735011821485301e+00,-5.060348120965461050e-01,-1.455651419902690646e+00
3.289873267503027332e+00,-7.605148989867785758e+00,1.222113740594831466e+00
-6.377337500973097484e+00,2.310853054181708898e-03,-4.892340371575489399e+00
5.054038656809197727e-01,-6.577519482423870301e+00,-6.278979288217652055e-01
7.348286863687646608e+00,-4.827969378218213592e+00,4.105583310562425758e+00
4.745130215534443252e+00,4.138144206796384950e+00,4.080730085874553659e+00
8.774392345841364182e-01,6.202390827035967336e-01,3.872808591125783906e+00
-6.022681985122813941e+00,-7.517755462340202754e+00,-1.709989522151278640e+00
6.270358446109117523e+00,-6.716024484336553080e+00,5.402385545824310853e+00
7.244240744296543966e+00,5.065317479834359204e-01,1.284870751609025863e+00
8.094846046483207047e+00,1.010342484146963121e-01,5.416556597553119801e+00
-1.067138346163409635e+00,-6.090875268405772758e+00,5.406695969446555949e+00
6.470602207610932410e+00,6.687188631960142793e+00,5.612193711549738673e+00
1.541113425687867355e+00,1.322139664872532760e+00,7.880479810450323086e+00
-1.780624455040004106e-01,7.375727215612638554e-01,-4.670372357076116643e+00
6.623506257532325137e+00,5.125392779258268305e+00,2.519175513066902461e+00
-1.805330879273703060e+00,-7.006079034284337759e+00,-6.370962023671812302e-01
1.784247259030518284e+00,7.344554048418618031e+00,-6.062587944645663640e+00
6.830128943718604795e+00,2.559095697143180637e+00,-5.283358332912288624e+00
2.955766090688164205e+00,-6.108515602859596605e+00,-3.361073014784945023e+00
-1.097251005557545289e+00,7.339061911990858000e+00,-4.392249625013803893e+00
8.313810593103681867e+00,-5.194341262051019648e+00,5.573379911097277706e+00
-6.000505918791065874e+00,2.494898802398068050e+00,4.513957861756911494e-01
-7.327530859267477048e-01,5.910276914105031310e+00,-2.300938274116938118e-02
2.121212381693507343e+00,-4.515694598634054202e+00,-6.254543665864964019e+00
1.531141059999600262e+00,3.349360201030833206e+00,-4.425878819830884936e+00
1.391794886399401410e+00,-2.527506505194271558e+00,-2.524711231008901713e+00
-3.733373681399572153e+00,-6.958827883476108589e+00,-8.743021042378869012e+00
2.605165430521610315e+00,-1.855299630476173300e+00,4.665984979937142008e+00
-2.310874959193838230e-01,-5.762837056172768868e+00,-4.764619915790775373e+00
-5.563119965452871796e+00,-3.016687363600132343e+00,6.055449058220657932e+00
6.185444572267526198e+00,-5.571830386500598031e+00,-7.187896410253220125e+00
3.730645595904417355e+00,-5.324262463969634318e+00,-3.690108717970215224e+00
-9.294847114731729087e-01,-4.649333348406011979e+00,-7.228137057186052594e+00
1.958501341994367095e+00,3.750468032450668399e-02,5.410381663086278436e+00
1.664363921424832027e+00,-6.350929872056727987e+00,-6.650610412436904539e+00
4.359766443194770975e-03,-1.209434023500801203e+00,-1.288896059402514060e+00
7.733632703127989672e+00,-5.807299299486427202e+00,4.315948833847419230e+00
7.779098014061018418e+00,-3.594068246674242850e+00,-1.320515516168916603e+00
3.191157532508229089e+00,7.476716105529221501e+00,-1.938586310063376283e-01
-4.962411041101970066e-01,-5.473930098545010559e+00,-1.924737276083098747e+00
-3.001069991781377233e+00,-3.099334741098972668e+00,5.437847366968361351e-01
2.040251937337000943e+00,5.112032161779306527e+00,-9.635188435875665647e-01
1.714363280219698193e+00,1.289777983893233060e+00,-2.400271567067557843e-01
3.882042956565364467e+00,-1.937485888256392785e+00,1.095367783873024914e+00
-1.173684390275894662e+00,-1.330683717980880365e+00,4.496583351006213647e+00
-6.271367385267379468e+00,-8.638761219609061848e-02,4.205312348994355576e-01
4.686432440216565354e+00,-6.493625001517952633e+00,6.889909228700602739e+00
9.807135493211901478e-01,4.778196335022977692e+00,-6.221703450318949002e+00
2.663495776849122088e+00,-5.198645761224883088e+00,-3.187140502633531547e+00
5.096799311896607447e-03,-1.384056598814574990e+00,6.165843829476814086e+00
3.606256040695682508e+00,-4.925897139673439007e+00,2.516665782900258552e+00
-3.696293598529690083e+00,-5.517782173724793404e-01,3.984434760744336668e+00
2.159735568080000334e+00,3.791283407997438015e+00,-3.793515055099082822e+00
7.091149888227166187e+00,-3.319199822082161244e+00,2.515538468666560057e+00
-6.809044731195694311e+00,-5.905120552439409032e-01,-1.531304484038055636e+00
6.832423870253809817e+00,-5.625714588531888438e+00,-8.789719026242421407e+00
-1.468143275603527087e+00,4.723472019666584920e+00,4.203449310892146684e+00
-1.768914747145010180e+00,6.256036635078199737e+00,9.627993129131269534e-02
-6.412968964657868476e+00,4.414392744952286979e-02,1.651468613512323769e+00
2.834334674787659214e+00,-5.920972546572895318e-02,-3.459154733868519127e+00
-5.244456995445577974e+00,2.884512053456631975e+00,-2.478407395964252746e+00
-1.823177072448757485e+00,5.056767795347505867e+00,4.040077181704678999e+00
4.674450569703172853e+00,7.082144060136364772e+00,5.959343588522801660e+00
-1.412675876249701368e+00,-6.640022544282981443e+00,-8.609462020895621848e-01
-1.193449664796723653e+00,-6.557742387706087861e+00,-4.759592077942819799e+00
-5.466035290383087775e-01,3.156139386154261040e+00,9.578897382557866047e-01
-4.195033711809162291e+00,6.353844581275649439e+00,-8.680165089158903280e-01
-3.292119030894717024e+00,3.605709806802325446e+00,-1.801760186721553358e+00
-2.445415651788620970e+00,7.846194154801509946e+00,-3.772491395412966853e+00
5.645638102241059997e+00,-1.495171898738543836e+00,-5.469131069473119611e-02
-4.593440152722197745e+00,6.582163425958134972e+00,1.042875738787040873e+00
-6.607000041174513782e+00,-2.227121047390626440e+00,-5.498879921907907864e+00
4.637413363271315703e+00,7.045121209922460714e+00,3.233879434043394951e+00
-6.335263176077186031e+00,6.983502997235305543e+00,-5.464517834462075285e+00
-4.751465178207269213e-01,2.247980173659057890e+00,-5.867306081921221050e+00
4.715384765231436792e-01,-8.432257752047314980e+00,3.681069888914488164e+00
-2.928893542124236138e+00,-3.638624864443892881e-02,2.089018189317481955e+00
-4.710063986895519916e-02,-3.591623146468760019e+00,-6.228486687770605101e+00
-7.053522481986126635e+00,4.027277758269281804e+00,-2.312919322762085450e+00
7.943013292148719540e-01,4.250208917509155526e+00,-2.577644443076913205e+00
-1.100449919272867616e+00,-3.815681789088338771e-01,-5.148102757765961712e+00
-6.871321708896802605e+00,-1.235701388292949732e+00,1.093463188567375788e+00
-2.769047863310039048e+00,6.153934982161149314e+00,-5.986468337143215912e+00
-3.577601878106498212e+00,-3.638228291105301437e+00,1.834525773346651345e-01
7.534798106835510545e+00,1.203974825350315969e+00,-4.130203816639680170e+00
2.780874419380499507e+00,3.634078698521378659e+00,6.058338673162839971e-02
-6.795035581139327263e+00,2.684179506782727209e+00,1.474072450996641637e+00
-2.998508987923398927e-01,2.868228892210807679e+00,-6.015671334086388100e+00
4.108627790348223563e+00,1.494247906370754497e-01,1.676399471256717399e+00
-5.533738139816650303e+00,-1.460642642289154303e+00,-5.535205379124077396e-01
-1.452964979869582729e+00,6.606492190422724065e+00,-3.054510324656106945e+00
2.955563861452104923e+00,-3.165283605645274445e+00,-5.171351857058901658e+00
-7.657181551229634842e+00,1.178557687684493205e+00,6.268206053044401038e+00
1.851434505989233203e+00,4.230026674991139934e+00,2.518191030147987064e+00
2.159925506835787434e+00,6.157319095297689060e+00,-3.519784466238056631e+00
-3.799915620143342609e-01,5.286904060483429646e+00,-7.273652457526544879e+00
-5.107561688049639947e+00,-1.369243495543475575e+00,-6.290942221659575395e+00
-3.374868462941885916e+00,-8.010919222783694948e+00,2.316390896227453755e+00
2.471394581033053761e+00,5.733348299454877228e+00,6.673854802428734523e+00
-3.433372399489106330e-01,5.345493144571122901e-01,1.224642755006574713e-01
-1.976169346745991318e+00,-3.693246623411476914e+00,-5.838260360771960755e-01
-6.455704174639428139e+00,-6.333347799147151846e+00,3.618476860307283438e+00
-5.405052205275604038e+00,-2.147050162229124926e+00,1.682024343885619722e+00
-3.472952890107173118e+00,4.244343209466549638e+00,6.593518913828620320e+00
-6.785512207354239322e+00,-1.958238031607717033e+00,5.833894406455367054e+00
-6.520457425476021918e+00,2.300605892162009170e+00,-1.886620064251612661e+00
-6.951236500912573391e+00,-3.229846416663565978e-01,-7.243783969044421234e+00
2.534165688066456035e+00,7.548998522239278586e+00,-5.857212806273736305e+00
6.120668230902777118e+00,-4.004334463571016300e+00,-6.990929906892048074e+00
-5.820450993603137668e+00,-5.447049689298947506e+00,-8.286875398950508398e+00
-8.278278081682467260e+00,3.718463300293537888e+00,-4.781799923181548451e+00
-5.971116031030625493e+00,-3.330977005934581126e+00,5.521805019560368955e+00
-3.417423220740151368e+00,5.141681477613789575e+00,7.571237770599268835e+00
3.604840896610931100e+00,-5.371685173328287988e+00,-6.296926018407097203e+00
-3.904480616258137804e+00,-3.200096968861871005e+00,-1.723022475717827184e+00
-2.064291671376710102e+00,-1.721667554065742456e+00,-3.145715688360028572e+00
-5.238213490931462601e+00,3.708742557689572727e+00,6.069015872308079373e+00
-6.087908736127379150e+00,-2.095731083260191419e+00,-5.665572275981308747e-01
1.610615132949007877e-01,3.894423229962254762e+00,3.603085346551569312e+00
6.454824701481987503e+00,8.415412843441366419e+00,-3.914434971519422657e+00
-1.550163510276244105e+00,-3.723090434531148407e+00,-2.918158586925885700e+00
-7.166841808923994250e+00,2.604678484859558107e+00,4.165561293887061201e-01
-7.626419440821465834e+00,5.367932019773251184e+00,-3.516518450148474528e+00
-2.898790989918320626e+00,2.862791452805416026e-01,6.127879956528699879e+00
-1.604901772117190539e+00,5.761553478948159501e+00,8.374664146678149734e+00
4.233344981132794338e+00,-2.907578534856732677e+00,-4.036456602068149380e+00
-5.534493408908587320e+00,-1.104182140669791368e+00,-4.221515063373183274e+00
-4.912700722065982184e+00,-2.365168428611819973e+00,8.385546796966029115e-01
-8.432350647346019912e+00,7.396266248630310791e+00,-4.773352788783499223e-01
2.595492545802412288e+00,8.009236795605223946e+00,-6.442662132069558290e+00
-5.558090584894996411e+00,-8.454052343244066847e+00,4.833180758067903149e+00
-4.156779167235030492e+00,-3.973478522686431647e-01,7.587988079924524065e+00
-1.105571268739689250e+00,3.717202570151461494e+00,-1.124945545693925908e+00
-7.778489069691336688e+00,3.657899087988141673e+00,-4.993320729611419040e+00
-3.525298074591336928e+00,-4.215938438542666589e+00,5.795109344069330426e+00
-7.515889578133100990e+00,-3.375039759507162618e+00,6.907558946099217501e+00
-2.921705301802586252e+00,2.324188033625987360e-01,2.600372346399718371e+00
-7.734358741175879626e-01,8.073743580223224914e-01,2.730936657784210908e-02
1.113920235880010656e+00,3.001256950122816125e+00,-4.718128658799602526e+00
-1.359273682686896079e+00,7.324410078741080632e+00,1.851276967467949897e+00
-6.346157984730155910e+00,-8.309126581125818589e+00,4.218110044220105159e+00
4.427865938094045717e+00,5.587935192830347120e+00,-5.380274144182788376e+00
1.640566156534659370e-01,-8.440682609527218327e-02,-4.047631627266496501e+00
7.775892342370818611e+00,-2.509862991800201559e+00,4.278051772724314361e+00
-8.701666931783538672e+00,6.920542800169485531e+00,-4.665151964322633127e+00
5.509964499376084568e+00,6.198810041307893037e+00,-1.186057055135725680e+00
-2.902812739025087296e+00,1.378393942004770834e+00,1.516962488667313869e+00
2.118578901706063000e+00,1.478621286975312143e+00,-4.073445965228369658e+00
3.392298312219199641e+00,-1.740486334169196070e+00,2.774000716140640588e+00
-4.831090216114048985e+00,-7.470146641589918701e+00,6.440332683861361929e+00
-3.060697628628254452e-01,-5.611813813979648735e+00,6.246854829713890389e-01
-6.291161038856240673e+00,-5.505871439341019524e+00,1.847376259437721435e+00
-1.628803053690448976e+00,7.175470403172341527e-01,3.178769999085351294e+00
-3.052406544400704469e+00,-1.286428494156308000e+00,7.181692345423008383e+00
-2.289267774090111729e+00,-2.365370547558820036e+00,-6.962708223937249530e-01
-8.173755563766832211e+00,4.704765443858877738e+00,1.224791005174565406e+00
5.442042759791915429e+00,1.576270051016848361e+00,3.943914152645177307e+00
4.295187030178893473e+00,9.864343257795123998e-01,-5.536247737560588078e+00
3.339864696824557111e-02,-5.066285863284435642e+00,-1.950155626351483429e+00
2.852465361035861235e+00,3.360160999677204163e+00,7.339195482645631818e-01
3.390003137697690683e+00,4.271220307766412816e+00,6.168798726897550821e+00
7.054224572138693139e-01,9.105992014993918859e-01,7.967952200515273198e+00
1.014875501642185762e+00,4.398943074514407137e+00,6.083550365827866679e-01
3.551387914689252412e+00,7.116351018740466827e+00,-5.912751440636061950e+00
2.991205307916383394e+00,5.463481645634355566e+00,5.069154686727525672e+00
7.107863074916526358e+00,4.106392946176229408e+00,-7.748789931122196384e-01
1.881891788181653258e+00,4.612709426539417734e+00,4.073539777401657958e+00
-2.848651893609166486e+00,-8.323098605247633230e+00,4.239335026435220311e-01
-5.710231686095196046e+00,-1.202680757222183594e+00,-1.373303966007964672e+00
-7.090038745592790015e+00,-5.052055109718948112e-01,-1.706640874650138251e+00
1.286787856257081586e+00,7.351789521375675207e+00,4.209376883955298077e+00
7.283848477184725390e+00,-2.533747048545326397e+00,-7.966255349272594266e+00
6.083241441926547033e+00,-2.709055375504182184e+00,-7.799191223295732556e+00
-6.871787225894757434e+00,-4.537473668814461014e+00,-5.326323823865743989e+00
-7.945786426753710607e+00,5.620153203051339474e+00,-6.706761941055427556e+00
2.948550960104834306e+00,6.228392659728744229e-01,-7.675283320278814436e+00
-2.151973227988914328e+00,5.223558276437695325e-01,-3.685691958387972700e-01
-6.921886922100406458e+00,4.705712685402251516e+00,5.534482438291083106e+00
2.346154928313203047e+00,5.305292609925246872e+00,-6.728151106905598589e+00
-6.717230471797132729e+00,1.055081814355158354e+00,7.257003828578551641e+00
-7.358143394554103267e+00,-2.931505826343749010e+00,-5.705823887138932626e+00
-8.159438785724258736e+00,3.878540583036833134e+00,5.447779157589952348e+00
-5.017936801194717411e+00,-7.000841381826694132e+00,-5.516091263357962404e+00
5.743638866596105785e+00,-5.568856975445492630e+00,-1.984523443037914836e+00
3.455627272789666637e+00,-5.193913617272939653e+00,3.632344392783102283e+00
-2.972099216011554468e+00,1.766611982902913658e+00,1.348830357854298612e+00
2.345565427492700916e+00,3.094092201774375717e+00,3.118319669772771086e+00
-7.609208569731727323e+00,-4.681120355145327872e-01,7.537124109933409422e+00
-2.268851154640336709e+00,-3.301495938870969704e-01,-4.468566365500481474e+00
-1.718941044664048068e+00,-6.252247832057583610e-02,-8.476329193073592894e-01
2.755563486505904880e+00,-3.282146729704114918e+00,3.763696816294980430e+00
2.642085435898678281e+00,3.333475148549892797e+00,2.781066023418214517e+00
-5.170379215402111761e+00,1.993115735094860730e+00,-5.767793113694567708e+00
-5.781316772377698143e-01,4.973215073361747507e+00,8.115149783998141686e+00
1.361747996289663032e+00,-2.258760439656367858e+00,7.240064107730066034e+00
7.438548553934052343e+00,5.178903337455166067e+00,4.086697945200923776e+00
-6.102482175840544976e+00,-8.347694609248957676e+00,-3.230324686024123593e-01
-3.515869921309259016e+00,3.711858477369178733e+00,-5.814775645896377299e+00
1.946038191161374886e+00,1.019643107043312763e-01,-3.167333230962084745e+00
2.514391461726976029e+00,-6.848559382661356665e+00,6.347904533516611492e-02
7.525965214614509513e+00,-2.377407962536257191e+00,-3.899922259449052575e+00
7.898374491433647338e-01,3.987929818153885364e+00,2.478758985982914886e+00
-2.591623892491855763e+00,-2.889031523715900052e-02,4.209399403306660403e+00
6.490431318981313424e+00,4.700540826437045183e-01,4.636978040543408675e+00
2.440536552826043426e+00,4.769510175455071721e-01,-6.083998708134459754e+00
-5.150316778908129223e+00,-4.006542095947736470e+00,-7.199466940455216957e+00
-2.629808536923782913e+00,4.334395680612120216e+00,-1.322185600807647798e+00
-3.144323751553664614e+00,-8.926675581794204506e-01,4.424631144773059077e+00
-5.141610245778946986e-01,-4.016548379570698657e+00,-5.468096030456697676e+00
4.334736906464434908e-02,4.166867377572939901e+00,-1.100542140863766255e-01
3.431943835343937099e+00,-1.573630575837143164e+00,5.777791398211043372e+00
-6.374864395345193557e+00,-6.591083652099353429e+00,-2.682497548880879989e+00
-2.290303486299769542e+00,-3.230630582842585863e+00,5.976137886613531736e-01
2.195503262969263236e+00,7.062571730913044021e+00,-5.710190149777070179e-01
-3.368574081437374801e+00,-6.328936453985498645e+00,4.041957504642131660e+00
-3.724930032089102117e+00,-5.184079211911607032e+00,9.686940771251620896e-01
-4.967471590158252681e+00,4.794723604428119401e+00,-7.248383568583410153e+00
-2.697995657923724533e+00,-2.159436064682597856e+00,-5.830660812775771973e+00
-5.290541678153316552e-01,-6.664685001879179005e+00,-8.151526110416996929e+00
-2.835969752746902994e+00,-1.879518387257371970e+00,-6.232049876008999512e+00
-5.705906639930770297e+00,-7.422303867971892011e+00,4.732674760689281612e+00
-7.088960169852753346e+00,-3.893384004489916617e+00,-5.407848523193712786e+00
3.522330246288828182e+00,-3.049260685926295622e+00,-4.569533651553197018e+00
3.584877144118801873e+00,3.163824244574446887e-01,-6.501143243735523214e+00
-3.871865355299574318e+00,-6.824499200797439435e+00,-2.878349494819073318e+00
-5.731958364203518563e+00,-3.556835985293838487e+00,3.394745744790462538e+00
7.808651726771411727e-01,7.377919873208830026e+00,-3.550381797592093047e+00
-5.527975812785729248e-01,6.889858484672793715e+00,-6.244992874318175069e+00
1.400937812664716786e-01,5.191068957550535323e+00,6.955664988088560818e+00
6.698465911984010646e+00,8.700299089771942107e+00,-5.170869600594152793e+00
-1.181197774184203020e+00,2.349347230658635155e+00,-5.042758832326331486e+00
