-1.689000552352065698e-01,3.195191777212030626e+00,1.294102606427419921e+00
-1.757535278269766632e+00,-3.154967955956140990e+00,2.916846528573757702e+00
-3.190628734928943722e+00,-1.759739360010399656e+00,1.958879367509954061e+00
2.012453682866450766e+00,-3.215553543244355605e+00,1.993828360113638620e+00
1.047014189392092787e+00,4.040450300070259182e+00,1.244129654275267338e+00
4.228045816871249585e+00,-3.976281293738619382e+00,1.707693574900301381e-01
-1.311140223992595111e+00,-3.392780226156129952e+00,-1.333356954374940138e-03
-4.665588885516385176e+00,-1.948290554376749695e+00,-9.386066844655964747e-01
2.480211269822444997e+00,-5.497367070472126693e-01,-1.647324073229896380e+00
-3.723560391726891794e+00,4.872051477169800915e-01,-4.258937454974388359e+00
1.155288873744716671e+00,2.714138680458691333e+00,-2.681634858111244135e+00
-6.415113726873415967e-01,-1.815173649917172893e+00,1.378119103889943742e-02
2.896324022639505724e+00,-2.301844765310329333e+00,4.407589990911324307e+00
-1.920082374549020754e+00,-8.099096452461179707e-02,1.957023158452700251e+00
-3.408601376750953538e+00,-2.302535111477342245e+00,9.740820498055650090e-01
2.004533685446761027e+00,-6.639343577916212435e-01,-1.650000795704069878e+00
1.760604897008817282e+00,3.299617424998048776e+00,2.337390357734336899e+00
2.891466074639053474e+00,-7.371451495268815934e-01,-2.458851164426988145e+00
-3.428571185225240292e+00,-3.268039232680965966e+00,-2.970479982905546823e+00
1.284486350796121501e+00,3.510422474771635937e+00,7.853678602566532829e-02
2.665476017095730121e+00,2.238310762146502597e+00,7.590416094751432086e-01
-6.599965930225155930e-02,-2.127933601104026184e+00,2.287210017178085586e+00
-3.076797507392295739e+00,-2.935221179248252543e+00,1.203367319678940062e+00
2.106518638315306280e+00,1.960109480823275518e+00,-4.953525673083812642e+00
4.606251282014897974e+00,1.206183648029594546e-01,-3.708829361700205496e-01
1.748990511229333800e+00,3.505042903602213045e+00,-1.509142479953586857e+00
-4.005472169417305217e+00,-2.037133727007571782e+00,3.329652813593919181e+00
-5.464523023823763398e-02,4.777127912785401609e-01,-2.378877490043272314e+00
-8.324772550735658472e-01,-3.795645508452976102e+00,-4.863884585372997282e-01
-3.763560530445251850e-01,-3.637286982567196514e+00,-1.545517490634024327e+00
-7.859616933665672933e-01,-3.959320219872050739e+00,2.823532217379571829e+00
2.317150189545530203e+00,-3.568380335068983555e+00,3.868608688787873007e+00
4.235588761622892107e-01,7.292225471854913987e-01,4.183989223107165145e+00
-1.295987967554528053e+00,1.284719910464337422e+00,-3.941070203205264466e+00
2.821900440631144757e+00,4.697256966208566809e+00,2.002504558835159543e+00
9.265982558074480346e-01,3.157114023690833715e+00,2.548377059612692008e+00
-1.448078690649493794e+00,-2.830129677286600476e+00,1.014818902606793527e+00
1.773024806107861728e+00,-2.094048550657132690e+00,4.333493853094584125e+00
1.058350280900586249e+00,-2.201212159034632521e+00,2.622595368181084741e+00
4.172022056131124979e-01,4.370190296031110755e+00,-1.534307530017385623e+00
2.487910822591622440e-01,4.905533718335136406e+00,8.679706784674368070e-01
3.476790370708175981e+00,-3.998718303973355370e-01,-6.143480501166558305e-01
-3.142901308724471932e+00,1.476957476017033977e-01,-4.079095289951847114e+00
5.860258196213249393e-01,-1.380089111013353520e+00,-1.021230175140262375e+00
1.559217722137929307e+00,-4.164370495289726470e+00,1.781754986440972077e+00
1.749600657806323456e+00,3.732369494608702709e+00,-1.056851372758375707e+00
-3.647094075555197823e-01,-2.412615046618767689e+00,1.881633008159215859e+00
-1.821644602205107821e+00,-4.472408695926533895e+00,-1.400670700061852791e+00
-1.278760723274664279e+00,-1.772928716741946076e+00,8.146598400415541175e-01
1.632873184989002802e+00,1.902816800763767580e+00,3.788319170420960447e+00
3.511420805393766553e+00,-1.360323422056163967e+00,-1.004151959725944288e+00
-3.108752531314302181e-01,-5.006351806574635965e+00,-1.884607724460374056e+00
4.963829173795122784e+00,-2.186703801071976372e+00,6.914274824050709034e-01
-1.721710490266755933e+00,-1.392804314919323438e+00,-8.174098367207698335e-01
1.234960562284604713e+00,-3.756358265448994871e+00,-2.154038741164026494e+00
3.684330144257371487e+00,4.230730043600549273e+00,-1.589402753599840290e+00
-1.169672368384935934e+00,1.754179741935274706e+00,-4.931486319239812288e-01
-4.871871283711882938e+00,-2.810776917072413728e+00,-7.604667730997417552e-01
1.785645364429014226e+00,2.221492471527529489e+00,-8.617461517074687105e-01
3.545465429283891190e+00,-1.970302229170559194e+00,1.348083996113422778e+00
-3.849115620490420331e-01,3.415553635058064863e+00,2.627785059580634464e+00
-1.955171704589994564e+00,-1.108656388162014172e+00,4.661201485660067867e+00
-4.172507859109167327e+00,5.382801723203189254e-02,1.763397239341387035e+00
1.378144486065103536e+00,-4.261162965643819689e+00,1.650864567737617417e-01
-6.755369638723409675e-01,4.228870937982966538e+00,3.062791853017231780e+00
-4.878027362431050840e+00,-2.349444076539787929e+00,9.097593899364054826e-01
-1.920709330634382761e+00,1.924864059020673812e+00,-7.740691579019214341e-01
-8.642133401801571635e-01,-1.816050988789945642e+00,4.895758426324013257e+00
1.946639202605142449e+00,-4.693311166589778871e+00,-1.935017401829545458e-01
1.678193799896836147e+00,-4.325004123720771254e+00,1.914148130877859844e+00
1.487022993328219078e+00,-1.974100352814977200e+00,3.220596937376559499e+00
5.369347408312973302e-01,2.438368983680282209e+00,-1.004651845164717283e+00
5.621749297321878558e-01,3.669717964323516934e+00,1.248667968207702872e+00
-1.198700003095736877e+00,-3.086342718545901143e+00,-2.114407389464590281e+00
2.311481930251247374e-01,8.818513955002649229e-01,2.687726449876023604e+00
4.328593310227582869e+00,-1.106244587699588555e+00,-3.154677347045912184e-01
1.671512423394698743e-01,1.173240028036155014e+00,-2.173891711849911812e-01
1.256219563822709606e+00,2.651502820121715676e+00,2.900499366926355460e+00
8.228275714166362054e-01,-3.028593068044545533e-01,-1.114972763915496268e+00
-5.607385564893950791e-01,-4.344930456518619977e+00,-1.685732799304465734e+00
-3.671926459251653618e+00,1.681174363606971811e+00,1.327720325367074183e+00
5.729447374016770622e-01,-2.492799088038279542e+00,-6.851008818599776395e-01
3.884082323889492261e-01,-2.687300852825103448e+00,-4.811942358823534605e+00
3.750143431926709070e+00,-2.523342031101531546e+00,1.619271427521289608e+00
1.976308901609638013e+00,7.103688067155931041e-01,3.431788093367416081e+00
-1.976496334495061680e+00,3.042424454396317479e+00,-3.796752684734802097e-01
2.249739769206906548e-01,2.165917691414602331e+00,3.947490792539174009e+00
1.824032189180060826e+00,4.935019172835847456e+00,-1.952099886926693229e+00
-5.128930778104532351e-01,-5.649015812130063097e+00,-1.976426371734155141e-01
-1.117952774313360376e+00,-1.930717000406124928e+00,-4.540726974452867992e+00
8.079721416088266883e-01,-2.718808368035136258e+00,4.711490511420612926e+00
1.243831888917186879e+00,5.506200182679696908e+00,-1.514242816886637755e+00
2.863864060702871472e-01,-1.761462990124562644e-01,-6.756020788902915575e-01
-2.358949669489526002e+00,-1.164538465826261554e-01,1.098434246651374790e+00
-5.064819237503258798e+00,2.209760588303431916e+00,8.391940856966272344e-01
-4.355411584897542987e+00,-1.601106472968173655e+00,3.078613869952545379e+00
-1.267080896246082666e+00,-3.068203757079616789e+00,2.829427355900862917e+00
-1.718896566997849540e+00,-2.553798493944027026e+00,8.832784143517782294e-01
1.900213080405702026e+00,-1.002594225882653678e+00,4.878812625496898647e+00
-2.815483329751110375e+00,2.455665887024101934e+00,-2.606365242940003935e+00
-4.278839176823127644e-01,-1.958191841170623171e+00,-2.224126229865717175e+00
3.130922431119309568e+00,3.473104057658855215e+00,-1.363219025892664416e+00
-8.641390187761253117e-01,9.594749806559441652e-01,3.328828199450159619e+00
-6.832886479102761035e-01,3.061390568288810066e+00,-3.441939909497798933e+00
1.155713559349558439e+00,-1.535330410109160049e+00,3.235263410172736442e+00
-1.476094383864591686e+00,-2.179995935271416219e+00,-2.795117777031205453e+00
-4.599624468197848870e+00,2.159422909015508374e+00,2.357818105903884742e+00
8.829090805963251132e-01,4.453735592755201367e-01,-5.056070343019895219e+00
2.909343531604942967e+00,-3.600839380998158923e+00,2.832766485523773969e+00
2.986204703547646222e+00,2.261370678615350904e+00,3.087776539925116470e+00
-2.220849523922320046e+00,-1.801793662390790862e+00,-2.006248989345368189e-02
9.808169922475972191e-01,-3.418098275168055533e+00,-1.673891043697924630e+00
1.153159944669710502e+00,-7.205585278602317789e-01,5.302348187472391006e-01
2.275111134328315909e-01,9.392633707188335901e-01,-3.011670266646059524e+00
1.754020877510681364e+00,1.756095805024558754e+00,-8.810941557173599392e-01
8.052711767000225729e-01,4.138160425517451557e+00,3.642236363055496362e+00
4.359865022948930857e+00,4.145743360024690682e-01,-6.288554975848146267e-01
-1.863740869892870133e+00,4.521233371695884351e+00,9.502860517664004636e-01
-1.765022767899860678e+00,1.244278764357632294e+00,-5.113124515573432838e+00
2.658154126446793941e-01,3.433601071887925071e-01,1.972394468404916390e+00
-3.585188828407092743e+00,-1.576564595279739134e+00,-2.896384253963041888e-01
1.903740157366297314e+00,1.217708015883584682e+00,-4.537761870232242534e-01
-4.085393527978127715e+00,-7.699021036359343650e-02,1.448498461261979120e+00
5.090811156304879681e+00,1.881026495838854229e-01,3.245268262748959853e-01
5.313153346841366087e+00,-1.540557595298664095e+00,1.666592920619377249e+00
-4.058743050184002499e+00,2.689054996177716594e-01,-1.080103886357764997e+00
2.448336471756576760e+00,4.375001872398339486e+00,1.824852231238010658e+00
-3.216434221893206047e+00,3.617241744505497625e+00,7.738074486311855571e-01
1.879424303140754482e+00,4.136616976044264149e+00,-8.314722989904099748e-01
2.483012130789314043e+00,-2.630015409143747096e+00,-1.669298464640712965e+00
-3.229312689948663273e+00,2.933506770742912551e+00,-9.444205081499321697e-01
-4.561429833741964757e+00,-2.863931809163509090e+00,1.501062960364959009e+00
3.458316865515573824e+00,-1.995081087705848466e+00,1.054202726980155713e-01
1.872238749240502376e-01,4.137118348221342501e-01,-8.769243403564414008e-01
1.979804495427212485e+00,3.090015046906218199e+00,3.267335638120767438e+00
-4.461622685444392111e+00,1.026052223226273874e+00,1.504777517567316369e+00
-4.091045422588647007e+00,-4.440748470661662339e-01,1.310835039941472768e+00
4.242370851648759600e-01,8.408384132800701405e-01,-5.923133679884655667e-01
7.115573414486199288e-01,7.491466839231247787e-01,1.955708218896628603e+00
-1.267585366019075899e+00,-2.332550840349202570e+00,-3.991768441084536434e+00
-1.474388907963098294e+00,2.319413631968695100e+00,-1.277182455453237164e+00
-3.702429188763400325e-01,-2.822386477760855161e+00,8.510463747011441926e-01
-2.264432501197002345e+00,6.060395165217691282e-01,-3.747683897959849464e+00
3.403551626418851672e+00,-3.770766676172571330e+00,2.013275306591709946e+00
-4.296391153042333211e-01,1.754994725811148959e-01,-2.804682504739228754e+00
4.515828022854124768e+00,5.081362804469564676e-01,1.799922672728275774e+00
-1.258506010275739273e+00,-3.262251332850474750e+00,-4.534647058460060443e+00
-4.399838079653328293e+00,-1.009867909201873859e+00,-1.930724025652922782e+00
-2.377508835529193121e+00,-1.106685931005817247e+00,4.361995665870926686e+00
-2.018272709885463811e+00,4.439455199062255275e+00,-2.728347098796712444e+00
3.969876958672913680e+00,-1.924666179211008687e-01,-3.616827612753641397e+00
-3.373779214571695828e+00,3.875620086199198067e+00,2.075977141432798767e+00
3.797248540989097254e+00,3.503079018533129307e+00,-7.719257336181546414e-01
-4.913815483505877602e+00,1.452819466561136696e+00,3.709302506015184631e-01
-2.096395374038714454e+00,1.221336526702892389e+00,-2.617942920500949011e+00
2.054016753769959958e-01,1.696448527119822636e+00,-1.134394405688835539e+00
-3.409966882178091518e-01,-1.378738851586982506e-01,-1.573886353564547091e+00
2.224034413247664155e+00,9.569170011444588786e-01,-3.684720624744568962e+00
-6.164171585322149038e-01,1.248178325819642387e+00,1.832312373096703473e+00
-7.633976139198753730e-01,-5.726623542741597461e+00,5.933683340177315912e-01
2.530616555994982253e+00,-2.061171060282095180e+00,5.310472113079788281e-01
-1.727065305101283497e-03,-4.583600707192393209e+00,-1.424481793813186181e+00
-8.409804655104605731e-01,1.839859446628934636e+00,4.497461911352751862e+00
-5.196724476396463288e+00,2.174293474193378373e+00,9.982087489426795246e-01
-9.665443979480460301e-01,2.976032205754291393e+00,-2.569040379402704133e+00
-5.029415146021288807e-01,1.867461643076589128e+00,-1.531775454240705603e+00
-1.673198474009924552e-01,-6.187735521334498667e-01,1.530342843288643451e+00
-4.676830523906416737e+00,3.570426894786963429e-02,-1.951291426044041266e+00
3.149518028196663377e-01,-2.081507546935582376e+00,3.209486905828606296e-01
2.064524193675843833e+00,4.124750675156815483e+00,-1.310689690737816493e+00
-1.131172427471987652e+00,4.006162104735273566e-01,-4.783945342780582699e+00
-1.419297323255555854e-01,-8.054334941363148204e-01,-5.108059119372919676e-01
1.591580382122577131e+00,1.069069443947131326e+00,2.515014874042057480e-01
-2.453837640833945066e+00,-1.627663330982263457e+00,1.402191050719891585e+00
-1.714256440030661688e+00,-1.340768448379723310e+00,3.951509272267205830e+00
6.195239456958324259e-02,5.314184655223992415e+00,-1.676677094909364119e+00
1.767942671108314323e-01,-1.226120062926796095e+00,3.403011048349176892e+00
3.316116563022669439e+00,-3.227596982898634170e+00,4.609058806909520634e-01
1.847134379337546983e+00,6.728963940767797025e-01,2.512349730209785248e-01
3.609863424659484288e+00,2.633815879823239836e+00,-1.385614226260372783e+00
1.862005799186984500e+00,-3.136485165955025245e+00,-4.272908585992848174e+00
4.760384282632735164e+00,9.339866971051383748e-01,-2.606878490514167979e+00
-4.243109695496717571e+00,-2.593921347611459982e+00,-1.881726082228537322e+00
-3.735056924760151276e+00,-1.439097900162950694e+00,3.742034575605807767e+00
1.545828873899519840e+00,4.465663338564236362e+00,1.473672617931494289e+00
4.800436519657053758e+00,6.640800936089125139e-01,-1.906224041841139805e+00
-2.433070958750743973e+00,3.380773659900923267e+00,-2.973798626169596115e+00
1.305043992632628269e+00,2.492453583723317212e-01,-1.943986202570300026e-01
1.104575346005930658e+00,-1.457410127690857315e+00,-1.467421637458681039e+00
-1.074224975777483770e+00,3.725366756633763932e-01,2.522195250258469024e+00
-1.395645981906057376e+00,2.075600631128256879e+00,-4.434752591062340876e+00
1.893313658281929657e+00,5.176401130169126397e+00,-3.677519517049323422e-02
1.683308995340111247e+00,-5.043993729014064620e+00,-9.712833555257296414e-01
-6.714772774663744226e-01,3.723118903022858639e+00,-4.345765795166395051e+00
-1.179678028224528719e+00,-7.091395689920961809e-01,-1.480676212770087208e+00
-1.509197815660660469e+00,2.496624530883127857e+00,-4.947193494071279174e-01
1.566902859353807909e+00,-3.919439526818150554e+00,2.888458293989568659e+00
-1.159526430120747964e+00,2.970147557510077974e+00,-3.495330893568614261e+00
2.525656235129406291e+00,-4.861603524579355629e+00,1.462340209365766697e+00
-3.985073455503427287e+00,2.302461356955111949e-01,1.598331720972920200e+00
1.282219555861423999e+00,3.148269360070985901e+00,-3.434292891276796045e+00
1.859488016521478215e+00,-3.613528674904612714e+00,-2.651969697575050855e+00
2.938470193476759196e+00,4.972458307918791398e+00,3.345581994305223406e-01
-3.595415020915448956e+00,-4.531765410912025338e-01,-4.460284556945844692e+00
3.392541010080359687e+00,-3.152182603101240321e+00,-1.407205283701462140e+00
5.534671122684121869e+00,-4.252156957756632605e-01,-6.078243955966012857e-01
1.468994967345127689e+00,7.261128808557099079e-01,-1.271605165769591927e+00
-3.576223755932183557e-01,-1.376344248821727678e+00,3.512640110016239881e+00
1.628872273675611604e+00,-4.093677580103891600e+00,-2.395369075123865432e+00
-8.242314769468708224e-01,-3.178292181991553278e+00,-4.140191671529475315e+00
3.185179777030094250e+00,4.555503581681352721e+00,1.648250994271096337e+00
1.902759910227200146e+00,-4.338467002656693161e+00,1.084616038641583069e+00
-3.695640038169330843e+00,-2.347642130724855836e+00,-6.582623726978161782e-01
-3.368918888429524916e+00,-2.133238625315391879e+00,1.033976998887780274e+00
-1.935062865742899207e+00,2.904661072274122624e+00,4.363974893939975841e-01
5.268830968457359099e+00,2.126207745935969839e+00,1.328147388985153610e+00
2.830709768547137739e-01,6.999127114170557995e-01,2.253453349153099250e+00
-8.533275440201649742e-01,-3.451431394023317889e+00,4.405811387176388649e+00
-4.166199921396635197e+00,-1.115428120728020778e+00,3.258549989692939075e+00
5.120753890553021215e+00,1.080987075964497723e+00,1.952629323881692969e+00
2.530346024013125472e+00,-4.631583811346227542e+00,8.993028316692350810e-01
1.554646205412482995e+00,-3.403312824818168547e+00,-1.334952558267078926e+00
-4.575615359210823740e+00,-1.982544599398656349e+00,-2.510397789861267714e+00
1.337781276810767972e+00,2.283104797481466441e+00,5.146490309267157670e+00
8.565988876955680231e-01,1.337535204619159090e+00,-1.616897804432862351e+00
2.155466518984282320e+00,-4.431747243503993516e+00,3.112521790604795502e+00
1.783203858289082344e+00,7.945114975557880932e-01,1.639084139341844271e+00
1.787437392990841367e+00,4.258064071005600582e-01,4.046117258908799030e+00
-1.517104638608541611e+00,1.665006320135170581e+00,-3.159151643079023408e+00
1.989354375334015712e+00,-4.029951340265543358e+00,1.186982126726576103e+00
-3.655843351131037533e+00,2.087758228457371246e+00,1.430655363448593898e+00
-3.158803295064510408e+00,-2.139859234352040618e-01,1.443613292984313512e+00
3.385100754115627719e+00,-1.489540062526642838e+00,4.432115921762163957e+00
-1.302602276223674416e+00,-1.334522998650046866e+00,4.552822288610722801e+00
-2.214489203902528569e+00,2.385023293299532998e+00,-3.804447704659659202e+00
2.502359401332764133e+00,-2.152931900939015986e+00,1.678572100742788287e+00
-8.011278877783084562e-02,3.018971699505689443e+00,4.243286637470719214e+00
1.204841979417498044e+00,6.976121701432195232e-01,5.903617323572307729e-01
-3.243506830478711134e+00,3.962413528674548324e+00,-2.337733492368503363e+00
-3.385894690057574596e+00,2.879505781328580927e+00,-4.200195584845843877e-01
1.142082208504704877e+00,-1.671032529673071865e-01,9.548880618069517379e-01
1.255734320611070043e+00,-2.001205245921689357e+00,-3.491057469936285074e+00
1.151736953508790462e+00,1.686819939071624530e+00,3.621385945260154893e-01
3.528734479182832562e+00,-3.776883055620467555e+00,-1.072102219362959019e+00
2.017571249872391892e+00,-8.847657990012979257e-01,1.345086667941592706e+00
-8.381650071602645413e-01,4.335839144168089021e+00,3.647896654962395679e+00
-1.231332419227277181e-01,-5.099327614952969157e+00,-2.687694217939697428e+00
-2.192663242918985400e+00,-1.231498358312303587e+00,-4.449158566915714985e+00
-3.915104980928990064e-01,-1.547360559286554915e+00,1.131825134944095812e-01
1.322179150744922538e+00,4.782589496899216641e+00,-1.008187903957963316e+00
4.245129775253769111e+00,2.368626575239523024e+00,1.692307504863538981e+00
-1.912522726366735482e+00,4.584498327191555589e+00,2.971172054903181703e+00
-3.711410438038590942e-01,-4.195137249176873695e+00,1.553053181271156991e+00
-7.094169885027409306e-01,2.261284793566478601e+00,1.101634047807909189e+00
8.972704696130024971e-01,3.838384167245404210e+00,-2.332988812636091147e+00
5.379495666979339230e-01,-4.593874051170460326e+00,-1.724672779876702533e+00
2.174220358420590138e+00,-5.789529749889013033e-01,1.970973328269484959e-01
1.877905711834995994e+00,2.119762986063813859e+00,-1.102280215403082186e+00
1.070820658582895213e+00,-3.922776349373217619e-01,1.172749884697380951e+00
-4.498735740484208212e-01,3.420629618948573203e+00,2.362460871332108692e+00
-2.888169209652049041e+00,-1.581778411805041307e+00,-3.613295817281484634e+00
-4.325739985434159385e-01,1.588530108263494833e+00,-3.775948336517835902e+00
-1.295988243061754863e+00,-4.187160039783927590e-01,3.305051034835670531e+00
1.639676656812031341e+00,-3.709390333334871670e+00,2.131268240455536755e+00
-1.026151947903016365e-01,1.763927974569193147e+00,-2.935142167225292198e+00
3.062620184562320769e-01,3.051630110798963513e-01,2.524396017436393524e+00
-1.005683908024361362e+00,-7.192907275301247960e-01,-4.572868661603785689e+00
-8.815461503084043304e-01,1.860919155584915607e+00,3.825367012801720312e-01
1.397227525431283812e+00,2.284279130453116036e+00,-2.524268387321497720e+00
1.657217076694366964e-01,3.127900943657975219e+00,1.546773030009448435e+00
2.980592233699509652e+00,-2.598018294664074634e+00,2.338065983877450460e+00
-1.426073371411741508e+00,-3.440604729310819732e+00,2.938095648003425708e+00
-3.771175661967211656e+00,6.064936227525351553e-01,-4.047810755159454210e+00
2.983873957957608347e+00,4.101352415091872317e+00,-7.125870797051415684e-01
2.820991751840295159e+00,-1.250202902763650536e+00,2.939358818218836822e-01
-2.478769952194058490e+00,-2.677206332117715970e+00,-3.546518083726021509e+00
2.028668675328898274e+00,-1.309072764125877919e+00,-3.221474852224805563e+00
5.545285110970442632e-01,-9.227277368657079704e-01,-1.290517712116793003e+00
-2.333116056093744728e+00,-1.070383173977094593e+00,1.206049579265969562e+00
-1.954323749754308448e+00,-5.222842454135793844e+00,-1.000806466745950002e-01
-1.239556306859306511e+00,2.487823643309330812e+00,1.043904888509897155e+00
7.131310391094630718e-01,1.967495392900137641e-01,4.310888313389099058e-01
2.378163624523880415e+00,9.323630660975485984e-01,2.164497322645940081e+00
-1.923248489593606836e+00,-9.802752965644183636e-01,-3.352955356456416958e+00
3.962992687971491179e+00,2.571954791478334723e+00,2.752370544287943144e+00
2.364315383307150409e+00,2.117098890993929672e+00,-5.820180659054111638e-01
-6.642143885421282201e-01,-3.948636527989911049e-01,-2.686628006759548715e+00
9.418133849275232006e-01,-3.760210628213479289e+00,-5.513708218495236846e-01
4.626663942930978601e-01,1.513121168749200773e+00,1.178482611948675318e+00
-4.008022314329489966e+00,-1.700925458945807378e+00,-2.356924416840590730e+00
2.471773305416286259e+00,1.631590656390598415e+00,-4.953666341709817011e+00
-2.296754841661973412e+00,-4.130822594663581704e+00,1.006848525003827932e+00
-3.065480208386107019e+00,-3.170988827984201563e+00,-2.931591739001781161e+00
-4.561771191633362532e-01,6.576726683883833413e-01,-6.519619195274983792e-02
3.060317566257998445e-01,2.422375715403976670e+00,3.412126618463056538e+00
1.047140387570944409e+00,-3.591842196520150576e+00,-3.271123096328194091e+00
-4.490986417358405980e+00,1.329334196587682371e+00,-8.899645408018412862e-01
-5.051692291119152856e+00,2.362932593762068212e+00,9.561521085858920577e-01
-6.841944150824159632e-01,-2.269726031632942842e+00,-2.630717505262624378e+00
1.590299447091990392e-01,-1.820269304989098114e+00,-3.260462682026600278e-01
4.282820571346156235e+00,3.200493144914081434e+00,-2.326142371708715295e+00
3.786703920536774959e+00,4.672432346576486095e-01,4.270790694664535536e+00
-4.163717516568279819e+00,2.963181200919246194e+00,-8.707284710536784544e-01
3.263551723840050767e-01,1.589729328594599866e-01,-4.684520107781713349e+00
-2.477506762262519313e+00,2.758910817891656819e+00,2.455473751904175383e+00
-2.599558485036357780e+00,-1.623699335198454552e+00,-3.761284666867009907e+00
-2.117042644077123670e-01,-4.010580605555694511e+00,-4.227862399756496359e+00
1.894967609025712818e+00,1.178810446339405349e+00,4.784969607865710017e+00
-3.062460879747374243e+00,3.215398402589948024e+00,-2.340752630144095292e+00
-9.766129300588007878e-01,-1.580059815575563187e+00,-3.656565926710968473e+00
1.427120553704028127e+00,5.179413946247988676e+00,-1.758887240072461777e+00
2.488032912832377708e+00,1.222678800171127511e+00,-8.847872658804088741e-02
3.639403782756502448e+00,-4.089347763940933689e+00,3.116460046296303243e-01
3.694603580360718009e-01,-3.348345461406921686e+00,-6.870895373814085716e-02
-2.936753892935471288e+00,-3.551248208631383019e+00,-3.295496179717940066e+00
-3.491755276881020276e+00,1.113872829514708229e+00,2.772075367381420463e+00
-4.349233241452581389e+00,-2.431715562481592485e+00,-1.948323402467807330e+00
-1.843208256910159992e+00,-3.940071411125525280e+00,-3.003877465738959973e+00
-2.648822250369053499e+00,-3.073064915590049129e+00,1.234429059080637936e+00
-1.210461503397629146e+00,2.757137895873481348e+00,-2.229808150498869157e+00
-7.633224692542667222e-01,7.411425494767694966e-01,3.401674870363749825e+00
1.437156688919922543e+00,-4.172229008141428164e-01,5.212540390379547084e+00
5.889277332114122299e-01,-4.489301342984233223e+00,3.324512779620855341e+00
1.409122662305283935e+00,9.982228654876305063e-01,3.863460786173360528e-01
-1.875473332615201771e-01,2.218286791802420943e+00,3.011317241162645875e+00
-5.737607375911140117e-01,-3.288860306514440168e+00,-3.673816611912790187e+00
4.469349784569545569e+00,-1.451123923756453271e+00,-6.429579697538493344e-01
-2.398025259979442492e+00,2.346349031443238919e-01,-4.472518773591287911e+00
4.525161460266246216e+00,1.116815381899036730e+00,7.161325205440974839e-01
-1.122033361077636071e+00,-2.740728020351146377e+00,-1.370336309759698556e+00
-1.632338438402362479e+00,-1.485082956460647585e+00,-8.921846431890616547e-01
2.830787320302429411e+00,-2.239248751812788374e+00,-1.979593832531181485e+00
5.204102007255931861e-01,1.039602010388584796e+00,-5.563195822872351926e+00
-2.276125963932671414e+00,-2.752329192158423421e+00,1.283967678156796854e-01
-1.644919441014704553e+00,-3.421846908760607153e+00,-2.532092253416771133e+00
-2.588742095866936932e+00,3.754419229092494259e+00,-1.137519660448504943e+00
-2.603116751709605214e+00,-3.012718664112250977e+00,-1.477531328301668445e+00
2.581115836396608021e+00,2.456681228046289078e+00,-2.385278387603195327e+00
-4.263315168610631645e+00,8.272143838929053583e-01,1.041361295170949219e+00
2.775046944522142844e+00,-6.934981608354564564e-01,-2.819868814541329094e+00
1.436816426582489870e+00,-1.021500940867743484e-01,-1.565378046881936935e+00
-1.641933888819577581e+00,3.975473277148818596e+00,2.054692480480349026e+00
4.538961805461608989e+00,2.487199170852528951e+00,1.529709143955433337e+00
-2.639661829685031602e+00,-3.253553159506607617e+00,1.691237757396045316e+00
2.541912239067628310e+00,2.369170548103299190e+00,3.912493141611774305e+00
2.427373640490735784e+00,1.308960142259481652e+00,-2.451965126823441921e+00
-2.640379796760737641e+00,-2.002944808100622920e-01,1.129698291425866863e+00
4.553302794205370319e+00,1.399843439283115609e+00,3.294291092030805057e+00
1.398225964356496931e+00,1.226219856099526107e+00,4.960616317931818564e+00
4.358932767947464981e+00,-1.822814262798231333e+00,1.941521413797362206e+00
-9.365924525860019889e-01,-2.982122568253015249e+00,-3.066518218762493420e-01
-8.978250685288319266e-01,1.278495753269171420e+00,-6.476361966750650012e-01
3.359566789524477404e+00,1.975460600239656417e+00,-3.973392228094609013e+00
-4.477894410499457578e+00,-7.390443317405870349e-01,-2.403368861635385212e+00
9.784417644407222836e-01,-8.798677396910575821e-01,-2.571816038259068460e+00
-3.550702734305316022e-01,3.545218276781336275e+00,-2.377893268320614872e+00
-2.449436862857427677e+00,-1.229874477901860663e+00,-4.485076430853795482e-01
-3.816169697621218937e-01,4.480500133818516445e-02,-3.684212546091975682e+00
7.133604509957220952e-01,-3.752991921712669043e+00,1.465665019694015525e+00
2.309014308114796243e+00,-1.592521415092620352e-01,2.114399037789649605e-01
-4.232958744989415045e+00,-3.151824262045152203e+00,1.612571085864468179e+00
-3.099452074724963424e+00,2.159441256774869533e+00,-3.639363513797384125e-02
1.514205688877020839e-01,-1.973462624432633206e+00,1.187221564321186973e+00
-3.126635729837959343e-01,-4.485969829447463475e+00,-2.667920089918349280e+00
4.697530032740307782e+00,-1.527118147209014953e+00,2.702868742774642730e+00
9.093717656921112003e-01,-2.504589180786810143e+00,-4.059332840828033362e+00
-1.699632436748871989e+00,1.347190207654537231e-01,-4.331814252972445267e+00
1.518000895929902727e+00,-9.064039833817435499e-01,-4.180308645397298406e+00
4.323326993290260489e+00,-3.899142218708764318e-01,-1.556324021083951736e+00
-2.020163997690537894e+00,-9.339446984444488287e-02,2.305043107391862023e+00
1.638837710871587916e+00,2.957622819723397356e+00,-1.589652686369022128e+00
2.219042509515091854e+00,-2.116786130990060855e+00,2.971306479430333880e+00
1.358950199750662113e+00,2.499061913913617872e+00,-4.889398947712773946e+00
1.889193298407482402e+00,-1.615482276532136163e+00,1.882822564276487753e+00
4.350844466233250607e+00,1.830722822291230178e+00,-2.969306326106577298e+00
9.092940632276675927e-01,-3.964924564600340151e+00,-1.831123168831930936e+00
2.084647450279349112e-01,3.956069464726649443e+00,2.286230816705029145e+00
-2.228809296234123938e+00,-3.138096911143561485e+00,3.069187764683534603e+00
-1.851396578123648773e+00,-4.929361112590918914e+00,-1.529369222318526456e+00
-2.283617824480606018e+00,-7.531747172033803617e-01,3.370304288937080894e+00
1.121534528575212297e+00,3.234486582102454655e+00,-4.452117493648002799e+00
2.194752283777946733e+00,1.487007673883479431e+00,2.029240992720322545e+00
-4.224892655342195269e+00,-2.853224354518390182e+00,8.308306275431914800e-01
2.272291062821496510e+00,3.271104923887630189e+00,-4.084672470718098580e+00
-3.338907442575769657e+00,-4.728612913831208853e-01,-3.629029108190521047e+00
-2.136924858714108311e+00,2.755964770574127698e+00,-1.818909243122131425e+00
-1.446380281409713753e+00,-2.595316869203643684e+00,-4.990951487395371977e+00
-2.660696032387500409e+00,1.740623464799422981e+00,-1.160578475884244787e+00
2.420313755899178521e+00,2.082987525562932651e-01,-3.502378710046264221e+00
-1.272323196556167879e+00,6.885488582637597221e-02,1.101497336400173888e+00
8.531228061461008094e-01,-1.945734090153867779e-01,-4.541206337339785293e+00
-1.441741240428764170e+00,-4.538353250105100933e+00,-2.306953686010202453e+00
-2.208042253645616793e+00,-4.509800748755850019e-01,-1.095589510761329155e+00
3.444501733579781622e+00,-1.806813763389951255e+00,-3.113682196135888258e+00
-1.845284006335197180e+00,2.749390265249773146e-01,7.596122266830348524e-01
-1.957569105416710753e-01,-3.246257254609500098e+00,-4.295420350433406753e+00
2.629496734025693616e+00,-5.938643430721228175e-03,-3.491660114133319670e+00
-4.480208947877460268e+00,4.024712324303199584e-01,-3.486330917491594406e+00
-2.600426837570066763e+00,-4.377750730607906426e+00,-2.155464438988500930e+00
2.137939160392293925e+00,3.196365013923939014e+00,-1.003129230873277100e+00
-3.002433901452515208e+00,-3.836398270944986866e+00,-2.450749464035705927e+00
-2.114423274944552844e+00,1.394158878776537325e+00,-2.776496778013264777e+00
1.902379529805680258e+00,2.224352675656808831e+00,4.925737212121100050e+00
-1.324466455874201420e+00,-4.768151689185825326e+00,2.258221252165198756e+00
3.253729072705615177e+00,-4.193970316753221184e+00,-2.016315940323693656e+00
-1.830037852559379452e+00,-1.530203707357732146e+00,-1.570023431809107195e-01
2.674278284980726283e+00,-4.199736827519026328e+00,-6.123400740218408744e-01
-2.559501590484785538e+00,-7.640090647891177589e-02,1.448476323463760429e-01
-1.343961027471902936e+00,-1.269706102961345007e+00,-4.040550288497370524e+00
-1.847990089549174098e+00,-3.735449252689534649e+00,1.698611546499507741e+00
-4.304650096682719251e+00,3.212626364879369589e+00,-7.112421175080836377e-01
-1.091895579517267567e+00,2.443944712923125095e+00,3.690513757455109456e-01
2.249432220215808464e-01,3.630227841475550665e+00,-3.598654928976834366e-01
3.988430582614931552e+00,-7.311405029878498274e-01,2.505006561230216366e+00
5.754396501123035801e-01,4.579943653847968754e+00,1.706540388300115119e+00
1.996749724263907622e+00,4.467411627257019902e+00,-2.944728132057345071e+00
-1.178318081229373426e+00,3.593495640402654345e+00,-1.961307578993112255e+00
-1.551524277605702551e+00,2.502574018441163783e+00,-2.595512700476493073e+00
-4.052788525742474057e+00,-6.164618124282914557e-01,8.822618039658137734e-01
-3.000597149815917852e+00,4.136976884907408447e+00,2.679385642217276597e+00
-5.691393277305596854e+00,8.506555871835976834e-01,-2.844776154177445227e-01
-3.216868716742740997e+00,-4.232969643319848818e-01,2.772288893982221225e+00
6.341912650695338272e-01,2.569281748463264403e+00,3.034164904482043568e+00
-2.428799765654342302e+00,-1.645614556268847339e+00,-5.862720798918668041e-01
-4.278678169431798572e+00,-1.011991314671787157e+00,4.436709470313253412e-02
-1.247303999301195843e+00,-2.515632497892475339e+00,3.505752970362480792e+00
-5.507525480084609626e+00,1.312141662780817342e+00,-7.949178300831265531e-01
2.595108082808443406e+00,-1.038345995067861960e+00,3.849240695480816488e+00
1.924624847427465757e-01,3.289600636114273224e-01,2.693523144765154420e+00
-1.501554261814894486e+00,5.136091158691646008e+00,-2.143130107408569351e+00
8.029766528463614383e-01,5.178652506672560385e+00,1.435313129854458358e+00
-8.338729565785419906e-01,-1.116385805120113872e+00,3.618856465438535785e+00
-3.537351245918979092e+00,-2.881257927421102760e+00,1.199595893749509035e+00
-2.477056905054999980e+00,3.747866538714254153e-02,-2.590126077228356305e-01
1.690446582385998653e+00,-2.321406899752244346e+00,3.898253667642872067e+00
-2.816428599211810102e+00,1.337801361507284570e+00,-1.196337982715951043e+00
-2.689964267733729208e+00,2.321532746492508625e+00,-1.959591182049215119e+00
-5.070986467354970273e+00,1.602285656467104857e+00,7.189388132709526591e-01
4.730086991264166763e+00,1.335825401658110367e+00,8.290946072388257759e-01
2.511321802942097836e+00,4.805093096697808375e-01,-2.183266663892159620e+00
5.075459939655226016e+00,-1.091031421896136555e+00,1.014238107694608315e+00
2.686240305931376859e+00,4.519860088065974502e+00,2.922681499485755077e-02
3.749503130806338902e+00,3.193345630934630197e+00,5.406443625258342545e-01
3.701347358181795499e+00,3.828584348374708402e+00,6.403465223545150575e-01
3.541101229408878837e+00,3.477234851475180744e+00,3.296009636669595122e-01
3.358274091150132978e+00,-1.185306189959767220e+00,2.046849214967959796e+00
1.754347742907810481e+00,2.451940411616569726e+00,-1.068987506190072434e+00
-2.932768858907532028e+00,-1.317331424386010807e+00,3.244900870916004321e-01
3.927838825299884373e+00,1.669251215871079275e+00,2.117692775893459611e+00
5.154452622469237966e+00,3.953764273802193863e-01,-1.075805372969530467e-03
8.073999196635296416e-01,-2.694572187307675559e-01,2.849864307773879002e+00
-3.944057701953777695e+00,8.990384857041719968e-01,9.848223056303697653e-01
1.431467914490847440e-02,-1.360464092103119027e+00,2.955430514947035903e+00
-1.790650969314090180e+00,-2.084351408913327042e+00,2.652047463013278428e+00
-1.497334356357536977e+00,3.675437622316404696e+00,9.141850787277292500e-01
-2.928409939233734605e+00,2.640367197720017600e+00,1.929210305133933323e+00
3.817398701043630993e+00,3.527207275106848172e+00,1.364376573900411893e+00
2.624290582929911242e+00,-1.373074690351764993e+00,-2.208330566984733068e+00
2.486496908917762150e-01,-9.551062597205547400e-01,-2.584778743390134803e+00
1.970249371747084810e+00,4.451654239530734358e+00,2.753057506024619627e+00
1.421061035663414573e+00,1.820122343162653200e+00,-4.653868343298232624e+00
-1.532068558787500256e+00,4.066854213907891147e-01,-4.300684488815977424e+00
4.774859676323466307e-01,2.536659802839162925e+00,4.743528626590886255e+00
3.868174128027945802e+00,-3.008431052339888723e+00,2.719336429932319721e-01
-3.432674455929874746e+00,2.397518805226622085e+00,-6.471015237294062139e-01
-6.586546079112411967e-01,-8.830136235554384427e-01,-1.638776689351188143e+00
5.654851594626139066e-01,-1.686982251720425152e+00,1.486934753448412083e+00
3.801590903337277449e+00,1.957333083606269675e+00,-2.239606032156665982e+00
4.345888822197069956e+00,-2.153428922262807799e+00,-3.171758263257606014e+00
-4.989779204162862136e+00,2.189517118098794679e+00,-2.404172594951343445e-01
-4.502325606546766501e-01,-5.061132653739457865e+00,4.700611657808379529e-01
3.756342621371973500e+00,2.873214404077683248e+00,-1.357600222189502270e+00
-1.585340962014548216e+00,4.306175127801626701e+00,2.158421012450253418e+00
-1.654254265419239367e+00,-1.348791417825655037e+00,4.871196355814956469e+00
4.910820542644681375e+00,-1.445052069516585380e+00,1.084429303708014825e+00
-2.430969923899217733e+00,2.942894875292564105e+00,4.045025381996989466e+00
3.822707935056441020e+00,1.476818417268469741e+00,3.263929878533128104e+00
4.902577325318008938e+00,-2.149036921529317468e+00,-1.437057735884497367e+00
-2.997704045325094935e+00,-1.865114747743978452e+00,4.299973511191391928e+00
3.678927778030205431e+00,-5.679926614641022109e-01,6.380276715459568537e-01
-2.479835675156075059e+00,3.272970824493359299e+00,-2.292957548299117132e+00
3.248558827412229011e+00,-5.457141735834889484e-01,3.460707922597099362e+00
-1.819425482832111030e+00,3.577932090910027618e+00,-1.636285634403846778e+00
1.337313065293621372e+00,-3.452976820094063815e+00,2.007849042260869687e+00
-4.834335296843560670e+00,-5.391164288491022694e-01,-2.674895403473089850e+00
2.910710287017320042e+00,7.630385737388156731e-01,2.075351879194438975e+00
-6.191083245579904748e-01,-1.164889331093575287e+00,2.554809149764026288e-01
-9.583263200905852708e-01,1.476905463546447805e+00,-6.767803411022110804e-01
-4.977986857397018738e+00,5.947786034937538879e-01,-2.400286649477774592e+00
-4.317456012386167719e-01,-5.870214452503766944e-01,5.394278641466396351e+00
4.536433391054931263e+00,-1.543325627482520002e+00,-2.313221756398546436e+00
-3.635503714469497716e+00,-4.324247309410466755e+00,4.495723610424464112e-01
1.209359876900730102e+00,-3.436556280942222319e+00,3.848052705806430218e+00
1.604717558082034756e+00,1.671898084741885837e+00,-3.474914173187195754e+00
-8.133437476661407040e-01,4.576342452534889915e+00,2.133411319149700613e+00
1.057741612789100616e+00,-1.852665137630694847e+00,3.334852653939988087e+00
2.091403132934351206e+00,3.976891273496114820e+00,2.426705577390763757e+00
8.177561314418927418e-01,-2.409418714742732615e+00,5.219863327440753764e+00
2.559983013177904887e+00,-1.859972626488122671e+00,-3.631147653327084335e+00
-2.062420589538204840e+00,4.306916010048288612e+00,2.634995390784187652e+00
