5.876807013511198621e-03,3.165717210916183522e+00,5.207633550745311979e+00
-5.530397559098116922e-01,-4.363777975767586526e+00,4.817498957439267926e-01
-3.868035186481177945e+00,2.486769947723712626e+00,2.379238628175821546e+00
-1.461875263409687653e+00,-2.252712119372477950e+00,2.366842930850666660e-01
-1.704614222053656425e+00,4.440226294041597299e+00,3.608527086237296899e+00
-9.519037693703194525e-02,4.868426171047716799e+00,7.570105362176536845e-01
2.468167090728764779e-01,9.457172536217522962e-01,-2.307373205813335382e+00
4.060270765374111690e+00,-5.958695187855940212e-01,-5.858304729729338911e-01
1.434772089813469986e-01,-4.507887490595010455e-02,-4.898669963047709075e+00
3.176557303309224700e+00,-1.803766773805719481e+00,-2.033076453286946972e+00
-3.019532194433646399e+00,9.025200101922270512e-01,-3.093499176367878745e-01
1.145541795691165321e+00,-1.707928828636857965e-02,2.024699639126185780e+00
4.472932556207121380e+00,-6.765880440518192707e-01,-1.899364489358549291e+00
-1.492433466412126819e+00,-7.107393379463629035e-01,-9.758368674912449858e-01
-3.210419670579478968e+00,-4.895866996120462389e+00,2.436760613539207032e+00
2.168042511310269482e+00,-1.905156312597752200e-01,4.991485511098765482e-01
-6.294746350496751575e-01,1.617809097112358430e+00,6.637384906883206925e-01
1.310103311138684501e-01,-3.016791384531720688e+00,-1.555921549902701484e+00
3.297976957604083381e+00,-3.658749807921024999e+00,1.251689160634832154e+00
-1.719253908027522648e+00,1.242187161734493062e+00,2.708909613714386655e+00
-2.542303975357937507e+00,-2.883420628653509787e+00,1.763942333191793388e+00
2.519677334532004931e+00,-2.401006080762545736e+00,-3.591100930232889454e-01
-3.856028992625700758e-01,5.479198145225896432e-01,-6.286451227863945945e+00
-4.585946149967153052e-02,1.352212638164455916e+00,-5.298249064841471956e+00
-2.748978047247097933e+00,5.141475423929815491e-01,-2.554128386674753504e+00
-2.541686450727508539e+00,-2.139670577027242004e-01,2.392719427530992871e+00
-2.383982373632360652e+00,5.802060717706744697e+00,2.348337414239092535e-01
1.715262745421066493e+00,1.548428348108095376e+00,7.374215220372875024e+00
-3.808400275748476727e+00,-2.098675249478800797e+00,-1.533182654862273342e+00
3.679448633515782774e+00,1.993063960514597888e+00,-2.963045419097838806e+00
-5.179716928315689639e-01,3.163942217215164998e+00,1.633494506538976931e-01
1.174436201236822352e+00,-1.405821986184503380e+00,3.056950750719431564e+00
1.113223649954415140e-01,2.010530401724313521e+00,-3.110769438874888770e+00
-4.840036935750257285e+00,1.887601241656653717e-01,-3.193012077649554636e-01
1.734933566222129686e+00,1.132573009301610867e+00,-1.819433129785594572e+00
-4.084677951227413950e-01,-4.315182141841947150e+00,3.392225750502584347e+00
-2.162396982612843299e+00,3.911361315389289661e+00,4.732542349026013895e+00
2.504616832627347467e+00,1.876077781327600280e-01,-3.362476420999652493e+00
2.792804436393134804e+00,3.103045544554945412e+00,2.802770984539603383e+00
1.710858266417880857e+00,6.601845987590593268e-01,4.207915033266637295e+00
2.820851188165124590e+00,-5.884080442475939421e+00,-4.259353949648581050e-01
-7.275322025436810336e-02,2.398317980380901826e+00,1.561850975880825498e-01
1.568402897915040173e+00,-2.518333917478804640e+00,4.106191207690595313e+00
2.482258439789078786e+00,-4.225616431463940614e+00,-2.175741738422420024e+00
9.609382723996021669e-01,4.458007874494665512e-01,2.761963233998143141e-01
-4.320891367147142503e+00,-3.296679379929294385e+00,-1.315657667608705506e+00
-2.286875904455985431e+00,-1.645168803252386347e+00,4.338072826647708879e+00
1.909980633199096056e+00,-1.144461028670197500e+00,-4.053001141183900202e+00
7.624629412112497728e-02,2.664715551711583252e+00,-5.722117928089062389e+00
-5.077844477544287471e+00,-1.072275830813046671e+00,-1.370174096392821061e+00
-7.070615521803780723e+00,-1.424913356580340407e-01,-2.820132303846267230e-01
3.685829521153234367e+00,-4.681380243943016883e-01,8.264123620928585101e-01
-1.535904258784143994e-01,1.029426745965221351e-01,5.339111613882652208e+00
1.143310024560903582e+00,-5.441668974153403227e+00,1.531843410272166084e+00
-1.403164424897075158e+00,-7.546653198513699756e-01,3.534447631417613422e+00
-3.528774606102509370e+00,3.776167647720070519e+00,8.614573316522805557e-01
-3.627537348814117379e+00,-2.982068271282013683e+00,-2.434075812071408773e+00
4.858735198343566708e+00,4.152531928048305510e+00,-1.151052387618609174e+00
-7.415355722730997412e-01,-2.072310629927723191e+00,-1.158420002658520076e+00
-2.406059453135978909e+00,3.060385473577246440e+00,1.132281212011251093e+00
-1.154806268484503962e+00,3.111810254912658724e+00,-3.608548228162460347e+00
3.262292379920803120e-01,2.140738583585109378e+00,4.653483635543086194e+00
1.326346466186751893e+00,-5.017414713519642300e-01,4.559876135593756707e+00
1.809558925823511411e+00,-1.993665691579071586e+00,-3.184306296985692786e-01
2.237107857982660875e+00,-1.221233311028102619e+00,-1.882749662316344219e+00
3.513374740903746574e+00,-4.204282698238149152e+00,-7.452319449661817252e-01
-4.206353372648151456e+00,-3.266586414276277939e-01,1.806955739702543973e+00
-7.285309138796188799e-01,3.692506777304644938e+00,-4.874373828762483263e-01
-4.061922449820118075e+00,2.028164568050512706e+00,-1.601636852802776456e+00
2.491405210937062797e+00,-3.888301869285755163e+00,-1.954575668493241380e+00
6.117819998748188492e-01,-3.498598857701536335e+00,-5.399992107534727914e+00
-3.155260693923436666e+00,-1.090904090697395690e+00,-2.082995627437183472e+00
7.527097786270054228e-03,4.012711556337763774e+00,-9.927050490877988853e-01
1.196873592958778376e+00,-1.873245650439320897e+00,-3.880220264239110595e+00
2.176255692205918191e+00,-1.232662609431280920e-01,1.223834511685821580e+00
3.637771618378979888e+00,-3.005603854771131900e+00,1.637104314737075184e+00
1.667721859222296876e+00,3.911195465491862366e-01,4.369067102553654713e+00
-3.110049842911890572e+00,-3.661348388164052281e+00,-8.987120694261724330e-01
2.341180017504893129e+00,2.931699865243661218e+00,-1.163939983452131566e+00
-6.380812758632795623e-01,-2.243639714795011286e-01,-8.455375603415026253e-01
-2.484286225869659415e+00,-2.725440463869076790e+00,2.535414661890227350e+00
1.994664402770058853e+00,-1.645556211150120296e+00,-4.010193371801308082e+00
2.429309842516031437e-01,1.133722253442149830e+00,-1.724445561139258620e+00
-2.777051215587524879e+00,3.441450872699423513e+00,1.885284352987417034e+00
1.221997145498277870e+00,-2.356562826190531368e+00,4.862855951435984814e+00
9.160909140595203670e-01,4.327392243255861359e+00,-3.106799873472455786e+00
-3.784961134190760745e-01,1.310737089470446426e+00,4.886876666653039436e+00
-2.105893778294313012e+00,9.470796229310577408e-01,-5.058512892806604766e-01
5.519710537652095184e+00,1.161748772028822430e+00,1.602943901974981822e+00
1.148381916666498803e+00,4.586920612171696554e+00,-7.393204298006343933e-01
5.708288727235872884e+00,-1.084972532028429665e-01,-1.802909412272892253e-01
3.877532683100765265e+00,-2.069811090390389019e+00,1.745443619142351910e+00
1.139539151845929688e+00,1.330582304033684382e+00,2.139815212422492285e-01
-1.396771725757585125e+00,1.242238854805129966e+00,2.724077260316083660e+00
-1.903183996622941798e+00,1.434672801367656847e+00,-4.817312234370334068e+00
4.773711637689079801e-01,7.472602933718087703e-01,1.297549974273754625e+00
1.208471136620424380e+00,-8.593410941928991686e-01,-4.826398425000410164e+00
1.128503463279856289e+00,1.246096985827024328e-01,2.145512567596251863e+00
-4.812330695443498563e+00,-2.720900838567620994e+00,-6.420682553239392965e-01
-5.791659354798379233e+00,-2.712488057022704346e+00,8.661628419794173972e-01
1.980783570552097528e+00,-4.693366149073605165e+00,2.919864449285045072e-01
5.686725325514492724e+00,2.319564450378102105e+00,2.220981624932053311e+00
1.325388477561491474e+00,-2.978089122213188333e-01,6.156946321082297224e+00
1.767162165437783150e+00,5.205915114900967033e+00,-2.935778368229995827e+00
3.015570148126892391e+00,-4.751295541971024328e+00,-2.028619958872902362e+00
1.831041527004223513e+00,1.570979069430244346e+00,5.894648430056657062e-01
-1.906422634232095126e+00,-2.442183355956566437e+00,2.975449188896892375e-02
1.185718611777698550e-01,3.486422442619939499e+00,-3.981300340686129147e+00
3.461922025889222487e-01,-3.054674706326422129e+00,-5.051081842129281796e+00
6.041078915496126633e+00,9.071992829636953137e-02,6.111214601532657248e-02
-1.317798520476149093e+00,2.594860316830387426e-01,-2.749828371773129110e+00
2.460872777926466082e-01,1.013402840517206194e+00,2.069382979204961615e+00
4.963409227215883845e+00,1.317119486674194873e+00,3.077191764999706702e+00
-1.549773433676193912e+00,5.372013385560205023e+00,-7.650099914040823235e-01
-6.441566608933612104e-01,3.844818215811530049e+00,1.130791023446071186e+00
-5.240027903060441972e+00,1.491102479191231955e+00,2.967057918634435354e-01
9.272969101557190230e-01,-1.022336174057568048e+00,3.453091380313324965e+00
5.074314966359551704e+00,2.686055120458619161e+00,-9.764948162182817137e-01
-3.739597708555548294e+00,-5.219811901732868131e-01,-4.090025362918313867e+00
-3.961908750174498728e+00,9.206228360453917459e-01,8.696894475766516752e-01
-1.586231639245892167e+00,-2.626034909964479969e+00,3.262794211038957837e+00
2.777411364185889964e-01,3.150133134691126546e+00,-4.935556816227630428e+00
-8.189703508945879173e-01,3.817057812885318757e+00,-1.322279451212320378e+00
-5.931428494420125652e+00,-8.820642775584206507e-01,-1.870454589438378834e+00
-1.977193312310622009e+00,-5.200177389250471904e+00,4.070495584564383762e+00
-4.679355979654443054e+00,1.597004220091870375e+00,-4.306899456302457074e-01
-5.857482719319463627e+00,-2.817624078462102055e+00,-9.125947451718483538e-01
-1.882832016988383650e+00,4.715489985151871899e+00,1.123651299877519660e+00
-2.381519120748480489e+00,-2.073755063785102326e+00,-2.872929029242743848e+00
1.782930578489830387e+00,3.893711280547377473e+00,-2.996399006984540758e+00
3.907719225029378407e+00,7.287867483582023687e-02,-2.438399853130660766e+00
-5.147324501362170457e-01,2.738372173271609533e+00,1.342815267364430465e+00
7.796549356635367189e-01,3.435586353324955766e+00,-4.176143839848546868e+00
2.393048599227225903e+00,4.244377532585009993e-02,1.188421365604004576e+00
-3.503024711547650938e+00,2.615561090903192998e+00,-1.613767955102874074e+00
1.538629117014773451e+00,1.714258656115627666e+00,1.815953743036691215e+00
3.193453700681694873e-01,-1.058174447433778642e+00,2.803689021695447980e-01
-5.080443139947274922e+00,2.206794337828768438e+00,1.672542792131913370e+00
-3.327605334320427044e+00,-4.260373237732874685e+00,8.139300108462510508e-01
7.097072434687136777e+00,2.177355313128540804e+00,1.337645565478818410e+00
-7.353072138395548851e-01,-1.152375664482353235e-01,-6.442209414391149913e+00
-1.585418537237630821e+00,1.726187631518687038e+00,-4.473484719397677445e+00
-6.713141108710524385e+00,-2.146162647968930415e+00,-1.995884966289970919e+00
7.354193003714734056e-01,1.406242466415910997e+00,-5.426764206272630453e+00
-2.289933203932607686e+00,-3.177253438944339869e+00,-5.451012989573036371e-01
-2.355969795276661838e+00,6.273171396104311626e+00,-3.149886060985449543e-01
3.054258253823430636e+00,-6.889341774857701273e-01,-6.775444263375767218e-01
3.386236916063700253e+00,-3.360682964169505738e+00,1.703878446809357738e+00
2.766695011502989451e-02,-4.256568583195566191e+00,3.132763642849529795e+00
5.612214193601601231e-01,5.603097804365799739e+00,-3.117392129478443241e+00
-1.894015701000051066e-01,5.034802862350464814e+00,8.435160410127477693e-02
-6.418739275438536396e-01,3.140256572353894882e+00,9.767905690357234771e-01
2.257211339956149143e-01,2.237095286991213072e+00,3.510271433998706225e+00
-1.722965380870859153e+00,1.826913035624094350e+00,-2.543218780617792607e+00
-1.816584039036092557e+00,1.168172402168029755e+00,-2.339970803481844719e+00
-1.505479450574045863e+00,2.461361084280749179e+00,-4.158160689025143242e+00
-3.461371974429310328e+00,-1.172019339656903858e+00,1.051341336704085805e+00
2.835338812793018803e+00,-3.301315050461466338e+00,1.860836487888204216e+00
2.423224135387356259e+00,-4.965800430348883410e-01,2.261456610264919398e+00
1.247587822251380540e+00,6.789282601897075331e-01,6.552678531408896667e+00
-4.112612558029642429e+00,2.258293992276019235e+00,1.214525425092723987e+00
1.592632958785317854e+00,3.345269782641672851e+00,-1.459062156245266806e+00
-1.601104596499725474e+00,-1.468183020890141410e+00,-4.542080139809084649e+00
4.922897312531639535e+00,-2.760830661695784283e+00,-3.542076361417572095e-01
2.321675890355721972e+00,3.260118104328337374e+00,2.552684624773606359e+00
-2.270593811105439119e-01,3.663524375400522004e+00,-4.865878951887016690e+00
2.381166061649851728e-01,-6.073936889924530291e+00,2.189938959432319976e+00
1.673209329230177955e+00,7.000164560439632311e-01,3.442995901156202798e+00
2.577195981451458895e+00,-1.579346049540608199e+00,3.857412973923265431e-01
-2.357911274954624048e+00,-1.897814625315157544e+00,1.748579890906568624e+00
-2.062703332177575899e-01,5.713387964206776637e+00,-1.032450466197208261e+00
1.424693199634596175e+00,2.608276119895925227e+00,-2.286336431366871924e+00
4.427803827529757541e+00,2.648352739091916597e+00,-2.016842953993856380e+00
3.323623036654008267e+00,-4.413568380033270344e+00,-7.505772139614688143e-01
8.602717317564453348e-01,-3.742091139004517508e+00,1.570063784322987877e+00
5.871001422890253174e+00,-5.644793088282523685e-01,3.403584380356038386e-01
9.099543674371695090e-01,1.784640598012171342e+00,-2.870668455193057245e+00
6.197195312068249251e+00,-1.652480995011967879e-01,-6.586779257729258319e-01
-6.402809935227289362e-01,2.824085662782869210e+00,-4.875316226686422283e+00
-1.778219236480097942e+00,-5.575566933883535192e+00,4.068881300806982182e+00
5.539830700182998946e+00,2.016222212741752617e+00,-8.642531457187316857e-01
-1.231192350021930837e+00,-1.483302988942167555e-01,5.135683251790561066e+00
-3.354093018977262197e+00,-1.138943152745166554e+00,-3.667231417546158667e+00
3.435989637745866965e+00,-5.495264043774795937e+00,-1.398667783693479993e+00
-3.059855136845202939e+00,-8.742027358655530822e-01,-1.088563254039166761e+00
1.019297620156982997e+00,-3.451029888722547234e+00,8.355467768309893239e-01
-2.737041400429548244e+00,2.672859917514609496e+00,2.262376824123079611e-01
-2.667826239994329551e+00,2.863519643142629079e+00,2.884738824632121279e+00
-2.320176977111895855e+00,1.916909849329187510e-01,2.406433806503221362e+00
3.985971401318940011e+00,-5.712083465353853251e-01,-1.986989132100264621e+00
-3.137510746858228394e+00,-3.572491484170364995e+00,1.718226367760567197e-01
-2.626080914858586191e+00,2.839179309974028342e+00,3.104242701131137316e+00
-2.419279310780574566e+00,4.333512121328795708e+00,-1.594759660035244053e+00
-4.103286733214020821e+00,-2.627321328031595904e+00,8.672380342194376812e-01
5.201183497909220854e+00,3.215368431091609192e-01,-9.922068002954530508e-01
1.323490445076567656e+00,6.618535916214413062e-01,3.227231166963407283e+00
2.463673997383688530e+00,-4.444143518884421162e+00,-3.672800175648832433e+00
-3.738580055945213143e+00,1.125347941710112876e+00,-2.173806073335504685e+00
5.814130898098201605e+00,-1.155118401623611346e+00,-4.577150011946071739e-01
-3.555290378207450752e-01,3.038337077501198635e+00,-5.305403690171606179e+00
8.550716008539992474e-01,-2.386397044992118577e+00,3.460389847895223081e+00
3.425297041503887030e+00,-4.759855998790135878e+00,5.271605569597441754e-01
-7.566041029184426669e+00,-2.214227646882442890e+00,-1.113721801589154126e+00
-5.375800929491456159e+00,-1.316461654786241553e+00,-2.342631515089026895e+00
-8.403653487712618997e-01,-5.440999185924695780e+00,3.426589023557458091e+00
2.542614104172071343e+00,-7.991802171029528390e-01,-2.052781635121126769e+00
5.240916178989579066e+00,1.616148343618682315e+00,-2.765406662264625615e-01
-3.571956259272345502e+00,4.159939897958647492e+00,1.261347522519690179e+00
2.965946679318776091e+00,-1.702396776661314393e+00,-2.358127360406347961e+00
-1.397402268328724828e+00,-2.670212737567084105e+00,-2.845710677661768440e+00
3.134334433690573629e+00,-5.393480381480521224e+00,-8.091703883810568154e-01
-3.646881370085426899e-01,2.907092022976943024e+00,3.485715040633186046e+00
1.421909908186788751e+00,-1.377502213634805406e+00,-2.314809696465334188e+00
1.742513519786303311e+00,2.005648090042047915e+00,5.908269142734181578e+00
-5.307745798469239773e+00,1.928762489580396478e-01,-1.174500375419118114e+00
-9.883165903556312415e-02,-2.863194642706423654e+00,-2.194437005589585876e+00
-8.477499656380580451e-01,-1.418343584667968393e+00,1.157650736809312964e+00
-2.355118673589085887e+00,-1.403738002038805499e+00,1.851685011092589539e+00
-3.141638162934981882e+00,-6.246171041307410077e-01,-1.096592681508078426e+00
-2.200830060985267345e+00,-3.392175024631816083e+00,-2.582335823970930422e-01
-1.834957476932032705e+00,-2.842481615970001041e+00,-1.873732976405462214e+00
-3.958553535756577535e+00,5.197745028135701162e+00,1.534648790179350630e+00
4.706335767439797202e+00,-2.567235597410150838e+00,4.784661599535539739e-02
2.115796362835880906e+00,-2.685040371992115649e+00,-1.020920437748325638e+00
5.204471371477887409e+00,-8.047758652877253782e-01,8.591151602909121721e-01
-3.161487319065020785e+00,-7.243338976282681640e-01,2.981111875702827874e+00
-2.150724124003649429e+00,-2.438865429497344695e-01,3.159512913331970374e+00
3.611900331384649387e+00,-5.018780279306152003e+00,-8.323646548715334381e-01
3.635110896961157412e+00,5.582897689763280935e-01,2.114196838648045862e+00
-4.467088364368207110e+00,8.763324019861662428e-02,2.063734985331105776e+00
2.392361627452423978e+00,-5.269283084670259854e+00,3.501541070748307449e-01
1.353654784541952483e-01,-1.239362535897846618e+00,-1.244273004515120906e+00
-3.377903181864934101e-01,4.518500868864904874e+00,2.142823771779990005e-01
-1.162752482168074142e+00,-1.251271116199000888e-01,2.694108816651120453e+00
-2.739170897410044159e+00,-1.192873520453451519e+00,-5.166806923743156865e+00
-1.360730636383719327e-01,-3.925728225777145752e+00,3.435679942431859590e+00
-2.166558348439548087e+00,3.785783465535726755e+00,3.548532404478922153e+00
4.823673075964178381e+00,1.856612117323116928e+00,-9.282268023406964330e-01
1.687242428558382246e+00,-5.765990180837503587e+00,8.519524596407805905e-01
-7.848906965314514927e-01,-4.083725011013506823e+00,4.634299052686595033e+00
9.130584742524771036e-01,3.873156376827199932e+00,-4.558231801447722553e+00
-3.604679645166717794e+00,-4.565026041738184936e-01,3.069933569678743979e+00
3.776931933668888686e+00,1.931656310489247019e+00,2.182911285441678118e+00
-1.026304096049346581e+00,-2.451703940496935186e+00,-1.737686430865045262e+00
1.800268506506471411e+00,1.297618656869495291e-01,3.650563868399912870e+00
2.435143117190150086e+00,-2.258872963749998686e+00,-3.080545758588641991e+00
1.320595972807861729e-01,-1.775004372363934602e+00,4.449205541061731495e+00
-2.562293437613119007e+00,-1.120209722874809577e+00,-6.077055028350299148e-02
4.172438792170269473e+00,-1.167996603088768293e+00,7.196412762450452028e-02
2.996485586189939099e+00,3.407089225429213997e-01,8.163267524007051801e-01
-1.206145082528804036e+00,-4.436895082774144350e-01,4.537543600992821169e+00
3.352887978691085014e+00,-1.329546860058692825e+00,2.325266954066658620e+00
-2.391800913767217374e+00,-1.230138197539657030e+00,2.519985931197669338e+00
-3.322962666572992774e+00,-1.530879857952953005e+00,2.474618234542172335e+00
-1.901075594833256055e+00,4.240112043641545370e+00,-4.606996888829202330e-01
2.347496907396053878e+00,1.723021122413761708e+00,3.153214023578479797e+00
-4.180558291414576688e-01,-1.225048686811179177e+00,-6.995706526320949692e+00
1.805962560487984314e+00,5.175341120182936905e+00,-3.506602649334459088e+00
1.330874647925325505e+00,4.328050413274546315e+00,1.475300264034076422e-02
1.833143151411677163e+00,1.312109771685481041e+00,4.074889624726387716e+00
-2.192623176078124292e+00,1.421651177332451388e+00,-4.408390767059655602e+00
8.213322882555396109e-01,-7.209640392041525292e-01,5.033672923052638026e+00
2.552789610889552918e+00,2.206061156251323929e+00,2.632739681663835540e+00
-7.143307271506541545e-01,3.077194426109707948e+00,1.980967603104418551e+00
-1.663423035059760968e+00,-5.113841230594211584e-01,4.155986736460358877e+00
2.378487684844773575e+00,1.277515020976846438e+00,2.688211204192957560e+00
1.291006875056616821e+00,-3.672855240840884772e+00,-1.294956345871972614e+00
-1.568522637422024468e+00,7.813806179133828689e-01,9.139829482751300471e-01
-2.065493229072144388e+00,-1.394029524348855631e+00,3.125411508200386379e-01
2.253407413079736354e+00,3.765677009305533396e+00,-7.410674797132640323e-01
-3.026928242250964018e+00,-1.329739718154086869e+00,2.162454623100410700e+00
-3.305725806168553049e+00,-1.524349423792662195e-01,2.493255533189581818e+00
-2.942985021861883155e+00,3.465822740733034202e+00,-5.715664368107152837e-01
-5.813349127213471412e+00,4.684340247554316661e-01,5.647969846661207161e-01
-6.259658251712524324e-01,4.626242670693922476e-01,-6.078862529707779849e+00
-4.924533736313317256e+00,-3.432883015740978649e+00,1.531055645347299210e+00
8.033547494894978103e-01,-3.845776424040716179e+00,-2.380447475365089716e+00
2.751368364207647854e+00,-3.113584241656650153e+00,-1.993555386230402016e-01
-4.224440004182719477e+00,1.421176877485969658e+00,-9.233249736028205090e-01
-4.030008290841992746e+00,2.293253431472544790e+00,1.664130612157047162e+00
1.383189468608090111e+00,-2.757571994874953969e+00,6.694276112087335813e-03
-3.776719534552609669e+00,-7.413386437606283019e-01,2.392823184956030858e+00
3.866624313807836000e+00,3.379713290941617210e+00,-2.562611504068351920e+00
6.984680869099670897e-01,5.033068494722411912e-02,-5.779533088026354015e+00
-1.683344403181470605e+00,-1.429414327936762152e+00,-6.401790091018862983e-01
-1.129140073592995508e+00,-1.340557225257407614e+00,-5.506841597427457380e+00
2.175390039094012629e+00,-2.008359494716340787e-01,-4.336755195786745176e+00
2.628637504140691306e+00,8.407519649790945460e-01,2.774815438383885891e+00
-8.052670352154057964e-02,1.199355581226301704e+00,-9.958392339533992388e-01
4.473690837595188263e+00,-2.339359981565718005e+00,-2.267939211087994789e+00
-3.162323103693282622e+00,3.310505348997341279e+00,4.864920049580802042e-01
-3.799104619064845867e+00,1.245654046143159777e+00,1.320568392801790392e+00
4.218442183101444698e+00,1.424400615301425699e+00,1.919087065629155209e+00
1.934252468184949114e+00,-4.948143873032834428e+00,2.138191322207025902e+00
8.713571443114879189e-01,-5.591637173452281395e+00,1.000491197020831891e+00
2.489900197106400537e+00,4.224758404322967564e+00,8.211887707276541715e-01
2.920832057571966622e+00,2.498562989630015885e+00,-7.324678544742629915e-01
2.493705276504786017e+00,-3.105269180101423387e+00,2.717406035626550143e+00
2.056943917689777912e+00,-4.690845755192492916e+00,-1.756990933520542753e-02
-6.335824322926512098e-01,-5.594233474631381320e+00,4.460029192984755753e+00
1.461498601233182093e+00,-2.981168900179014258e+00,-2.635470171393457850e+00
-1.822540216921313849e+00,-1.329574505850276145e+00,-6.414146161000157775e+00
-1.277748069115528518e-01,4.702007323485413726e-01,7.929010324345597827e-01
4.922827735718398601e-01,1.504955291423679453e+00,2.400449933225218491e+00
4.220774635989458901e+00,2.651260171719080905e+00,-1.602833816490537577e+00
4.212811035932573667e+00,1.025449033711885172e-01,-6.136037933980071912e-01
-2.599034990994314676e+00,-3.567146902864815061e+00,3.442122929598625536e+00
-3.177105531595338928e+00,4.973174423087309393e+00,-2.297579043883221095e-01
-6.177575389102535341e-01,-1.152847168024129676e+00,-2.756205396155280152e+00
1.390130880610821684e+00,-1.133674169264996090e+00,2.658390735312587072e+00
-1.650807710714945475e-01,9.113060303922614347e-01,3.394646390566198768e+00
-1.050125087730013201e-01,2.455971016410417818e+00,1.638254558187173915e+00
3.273614025140403339e+00,4.119308122726411114e-01,-4.742272341086045118e-01
1.466052852717554478e+00,3.321335290155402298e+00,3.605593861379457366e+00
-2.612033173470051484e+00,4.072883357728616538e+00,8.963706817745306088e-01
-6.332011371532675348e-01,8.721681396431795186e-01,-2.102444826496628227e+00
6.119368010063374719e+00,7.097718975955794596e-01,-2.303355481215920431e-01
1.867662902906202183e+00,-1.466157652635545316e+00,-2.773831389680268877e+00
1.178371360322135963e+00,-4.024996829255896635e+00,1.047813349809677774e+00
2.756672176162200838e+00,-7.264127227139156595e-01,7.338679021752141374e-01
-5.382790788605844590e+00,-1.470649840462304070e+00,-1.693277102252142674e+00
-3.073765258896524188e-01,2.855564892032633750e+00,6.074013743914136176e-01
2.107663714768945429e+00,-4.067975682056326647e+00,-6.367643954562848263e-01
5.825665676889247635e+00,2.672336394134767978e+00,7.367285660617837184e-01
-2.056253004497889059e+00,2.954166349463728469e+00,-3.064033154665779524e+00
3.153703122549225579e+00,-1.988746144559293549e+00,-5.402183054172094989e-01
3.982237010777618935e-01,3.085616728537828202e+00,8.313121571139965305e-01
1.680248603293794593e-02,-2.377084875125537344e+00,-2.507655023941222971e+00
3.233185895990009939e+00,2.959603286469985051e+00,1.967854473129062809e+00
7.257774870536354284e-01,3.688153403272405484e+00,-4.764506951807783608e+00
6.621014879011591914e-01,-5.363654575700692817e+00,2.904891739709806409e+00
7.931417961868764133e-02,-4.902971360040370152e-01,-5.036662840060335267e-01
-5.250114673605122739e+00,-3.566944316785747304e+00,6.008036720333476133e-01
-1.881942322617822017e+00,2.167719361643991038e-01,-2.652600695521216689e+00
2.647465936078263193e-01,1.847810972295425236e+00,-4.111114554401884114e+00
-2.850105708211584599e+00,3.167571096368356542e+00,-1.095856517912130679e+00
-4.633690387867012150e-02,-3.065503213797120985e+00,2.069997071630532037e+00
2.762888236645686391e-01,1.409765823641174476e-01,-5.068106698776695396e-01
-1.636571208263385202e+00,3.828220583105748642e-01,-2.496973062760280193e+00
8.378172021652697810e-01,9.985293283245155749e-01,1.689451974327918382e+00
-3.586426784949122926e+00,-1.308408111931525786e-01,-7.149437197003866151e-01
-2.570862159750794795e+00,2.660850006523411082e+00,-1.760155625792769962e+00
3.240559419493338034e+00,-2.166325522863132846e+00,-1.314814593385064789e+00
-2.085378561877264225e+00,3.639512091222140366e+00,1.377177597823491029e+00
-1.252133720910647563e+00,1.611958848142242884e+00,-4.603776628643529989e+00
-6.463548811215453771e-01,1.590707105033727364e+00,6.105733419832921172e+00
-1.625566311793432694e+00,1.059850850544022727e+00,-1.975006149353724316e+00
-3.215568277675264319e+00,5.698067123176115523e+00,4.733441355318477317e-01
-2.228153804612580946e-01,3.984622219876875704e+00,6.239863286235886042e-01
1.063613808196680388e+00,-3.091413799904532578e+00,2.504575647265693039e+00
5.244666208009979291e-01,-1.831444039669880341e+00,3.698458486895498609e+00
-3.345724368115541747e+00,1.684332519919562676e+00,2.661844430806485029e+00
-3.767100923545833702e+00,2.626989453138907749e+00,1.636487435205869145e+00
-3.813461568648957023e+00,-4.212170520578294663e+00,8.528876605027676527e-01
8.356816104087562147e-01,3.055594465757025979e+00,-2.744627087514643904e+00
8.394747657197262347e-01,-4.037933491927856444e+00,-3.673090217514205502e+00
2.952608359717938669e+00,-6.548138617790540961e-01,2.086807216841383816e+00
-3.363223410148472148e+00,5.480058182581448278e+00,6.668031146158486244e-01
-1.248020888067114642e+00,-4.431244696038562303e+00,4.184329677355967725e+00
-3.662792244882119519e+00,-3.119351266606670503e+00,-6.950142044990154089e-01
-2.600631105612649208e+00,4.566450250802510880e+00,2.746126057846904889e+00
1.477519349132708326e+00,-8.173813620024190651e-01,-2.879430026241872609e-01
-4.535617313204431400e-01,-7.600424283204991749e-01,3.476152029362590046e+00
-5.315203437872145109e+00,1.024888906414957557e+00,6.319877040315794448e-01
-4.631450140671424798e-01,-4.861031480282539619e+00,-1.007789223529158118e+00
-2.120944430717620843e+00,3.800454580290712148e+00,4.751978489944386763e-01
1.695428836401787320e+00,3.046624954431018661e+00,-4.173517712361554111e+00
3.957946353124023875e-01,5.053383867376971317e+00,-3.722978090868790613e+00
4.612292647934942202e+00,-3.031204929467641751e+00,-2.267301253794371974e+00
-4.092892140929283440e-01,1.174639867458499243e+00,5.395834896850961293e+00
5.129818166510484723e-01,-1.215934357083820139e+00,3.757667607823953926e+00
4.798721036406362828e+00,-6.328699622484984522e-01,-2.029414368998001539e+00
1.229220873733873898e+00,3.529035168299937020e+00,1.460426960852206024e+00
-4.182795292336288995e+00,-5.593433802654097509e-01,1.077342822227204122e+00
-2.215385897788426650e+00,9.088557775012764406e-01,3.157071595418972976e+00
3.727044027219764466e+00,1.874567380192073918e+00,-9.270494692449728902e-01
7.386674478077164263e-01,5.197467121859075334e+00,-1.575698435927966656e+00
-1.671783685204572212e+00,-1.501468343002480443e+00,-1.477628282694484207e-01
-3.509350881077934581e+00,-2.396818764506187804e+00,4.222606639674072460e-01
7.975896815605637569e-02,-1.940344530365062381e+00,-4.735106896235570240e+00
2.511931297315873834e+00,1.874236029957174088e+00,3.371511801720472601e+00
-6.267288655159546806e+00,-1.603144074834184307e+00,-1.528689831980800218e+00
2.093153576119592407e-01,2.495784600085868554e+00,-4.159849326833492400e-01
-3.141446970139478267e+00,1.241966474432723899e+00,-1.410237800908441086e+00
5.349755999185374922e-01,1.863506362961726337e+00,4.947033030478949378e+00
8.015889512370991676e-01,5.988913810995800668e-01,4.230901415920683917e+00
4.557256240595916053e-01,4.346624945459224065e+00,1.520184790476357461e+00
-1.263051598659658659e+00,3.657414153808965729e+00,5.449655996755252474e+00
-5.392180867619390527e-01,4.223190797332522228e-01,5.913430152451740751e-01
-2.357766238146279836e+00,-3.807642619763122044e-02,3.049210172559958298e+00
-7.359071439035683504e+00,-1.437586277889133290e+00,-4.929586010413157804e-01
5.968309058284519075e+00,1.018917112767925431e-01,-1.441018694997147076e-01
-4.180015544890858692e+00,-2.835898797679718086e+00,2.455474348893337044e+00
-4.895061788385096868e+00,8.736517453431538183e-01,3.528099287914887028e-01
3.923210004156793551e-01,-6.366104317850143079e-01,2.960376244828372361e+00
-4.433095454896246457e-01,-1.432809239267616719e-01,4.353182095076726377e+00
-1.634096538797781273e+00,9.157982481073123626e-01,-4.346162606173716192e+00
5.517780826480486844e+00,-1.380468292898092031e+00,-5.388283510115685626e-01
-3.123798832754510202e-01,2.750148324864869931e+00,6.309026469285334393e+00
-7.884516242487031867e-01,3.349774946905508255e+00,4.997597944604257769e+00
-5.451419361103497785e-01,-5.879560697454162543e+00,2.016569504530190127e+00
-1.830252756745653686e+00,-5.485571302057572485e-01,1.682217061074348097e+00
-7.203397973334746851e+00,-2.148179473743294654e+00,-9.404794853108686681e-01
-1.944250408206423364e+00,3.440607046140623737e+00,4.455060429228053565e+00
1.090719654829886753e+00,-4.165039044618909614e+00,1.226304816356584837e+00
-6.324342371720883982e+00,-2.085194795346439811e+00,-2.269708195078000035e+00
-2.299526186163396879e+00,-3.220998458430732736e+00,-2.049202471587037444e-01
5.659687918415246877e+00,-8.497135131930969587e-01,-6.746873610128709675e-01
2.302624236621149123e-01,4.148504022633565214e+00,-1.586450993321482761e+00
1.041359903306641327e-01,2.476602347572003815e+00,-1.742693033405143144e+00
-4.822931204617358913e-01,-2.501247674713250380e+00,-6.824218430587333017e+00
-4.060661846411401044e+00,-8.058854468491571943e-01,-2.992057029492542153e+00
2.495572610947319525e+00,3.444115823055235115e+00,-3.907756251301017336e+00
1.053787988695617184e+00,-4.548889377995007366e-01,-2.883503935940972429e+00
3.315193561538617439e-01,-1.804058652370314597e+00,-5.444499213179640584e+00
1.940210178983809985e+00,1.305094652167850366e+00,-3.177646677408388687e+00
2.025197320228840248e+00,4.623867258734049579e-01,-4.708773540923203993e-01
-5.276031524756280566e-01,1.265515209665294183e+00,3.941775283856160605e+00
-1.650335082449801982e+00,4.879561142024681608e+00,3.629936742515332826e-01
4.142685134084811871e+00,-4.567208520381792702e+00,-1.608920624866191362e+00
2.145208095564672401e+00,1.667701265488243267e+00,3.928814813812700812e+00
-2.046682966967482642e+00,3.335660504281756200e+00,2.342176331304051562e+00
1.914659623961301460e-01,-5.256621303538541040e-02,-6.290359487036107033e+00
2.644395610295228849e+00,1.121687618019283850e+00,2.582741870256082817e-01
1.812441824512294186e+00,1.443873139819001450e+00,-1.783914200768936809e+00
2.259739627314168775e+00,-4.019037474438209578e+00,-3.554670974680388174e+00
3.230769593218275393e+00,-4.213684766377626900e+00,-3.407335001680762865e+00
1.635320651066509146e-01,-1.757696018483593914e+00,2.031656513822112764e+00
1.092269932462317295e+00,-4.915095692804436922e+00,4.002278526992168045e-02
-2.522334655230731748e+00,-3.142597902270549692e+00,3.788346647341052531e+00
-4.311592464351871712e+00,-1.298705901608388391e+00,-2.941854797188626414e+00
5.587554150268887465e-01,-2.631868925409349913e+00,-5.486441912031454038e+00
4.115507389007712291e+00,4.792521750888801280e-01,2.915563167094823438e+00
4.194741134694073281e+00,3.049874848334445776e+00,1.876956277760104985e+00
-2.408326506930993371e+00,-4.467662210070825424e+00,4.338397570933712477e-01
-3.681438465574409791e-01,-2.097572014737883794e+00,1.707101080728278042e+00
-3.537624793903737963e+00,2.676087805821081744e+00,-1.619570778987285131e-01
-1.990183712840052577e+00,-2.044381201203202991e+00,3.700452541606104706e+00
-4.123855374202962665e+00,3.440756340894879806e+00,-4.251117733617340057e-03
-4.334426308052180765e+00,7.319910351049037089e-01,-1.792856283325804934e-01
1.449357148337718115e+00,-6.396458073030765190e-01,2.325491019022333905e+00
1.640795022016292570e+00,2.687011153839056199e-01,5.802711056893532060e+00
2.051210241279823432e+00,-3.496532888376620907e+00,-4.349277785112282579e+00
3.334985622918231751e+00,-1.627048124789720385e+00,-1.389505949549971087e+00
-2.707580934871672174e+00,-6.733257332793787797e-02,3.713328778315057033e+00
-4.054281926516310364e+00,-2.411828410138997736e+00,-9.273729346953758501e-01
2.130801284027715514e+00,9.902064466522417785e-01,1.841079357572299458e+00
2.605096509198665977e+00,3.532187845775201396e+00,1.878066941186841365e+00
-2.096639958020390271e+00,-1.711713519756943969e+00,-5.289074915105534735e+00
-3.179354296773940991e+00,-1.569023684481023917e+00,2.197760019818021660e-01
6.518807668648854303e+00,1.218077234553340382e+00,1.015491421070146449e+00
4.076970922505444683e+00,-8.107458071286437473e-01,9.839066947647763239e-01
-1.549949862634298015e+00,2.308427177926479223e-01,-4.156511882750525189e+00
-5.554023306106845581e+00,1.792808601715087269e+00,1.236606907032038016e+00
1.526275497869350684e+00,-3.907331242855747178e+00,-1.548038011930847002e+00
4.207109741038291828e-01,-2.922739986915555033e+00,5.350101553494199358e+00
-2.410240132962297166e-01,2.572843695109031437e+00,-3.920820025433168432e+00
-3.274010947387472559e+00,3.391627981742061593e+00,2.915259016040835149e+00
-4.815675323871274394e+00,-2.069621750934242110e-01,-2.435305138042394457e+00
-1.271845583999418362e-02,-4.683210653922899702e+00,3.453305776370540148e+00
-3.843517169672310718e+00,2.392098796279790829e+00,1.070885653766960210e+00
-2.133666520700565061e-01,-4.125367577892407489e+00,3.729217774886949055e+00
1.938381580245008007e-01,5.227971389966410420e-01,5.208525732186199519e+00
3.867257785519457425e+00,-1.820573248136479361e+00,-1.208876894042044237e+00
-7.637906299822294631e-01,-9.653070844432973807e-01,5.215521442363616700e+00
-1.317199997720415627e+00,1.650697010186908731e+00,1.879635951189799981e+00
-3.900753857574863037e+00,3.844918283603116382e+00,2.985894791306880069e+00
-3.859109907712502618e+00,7.873504866995875151e-01,-2.203431939718738963e+00
-3.281062447036986018e+00,2.100668611324172819e+00,7.527991835151277566e-01
1.049140853829320763e+00,2.454619962815565604e+00,1.213007799698545774e+00
4.890832282441279766e+00,-2.688470420462999444e-01,-1.270878275531793999e+00
-3.393712669884844324e+00,-1.670963046226017212e+00,2.766665589059159380e+00
3.492692225890200675e+00,-2.940620774778241575e+00,-3.013740131950858547e+00
-2.926340209099216771e+00,1.078607092090671404e+00,3.519276184818390107e-01
-1.859949197612654315e+00,5.528838277476100932e-02,-1.470559905797174327e+00
3.364688828076602078e+00,-3.061323424520944858e+00,-1.629331369848133093e+00
-1.243814833337794301e+00,-4.468079388900607185e+00,3.390276676319463167e+00
5.039957441453448261e+00,-7.648385813373773101e-02,1.191322095077242293e+00
-1.016154696665658497e+00,-2.049601688297765900e+00,4.285675712253784297e+00
5.040927887458219736e+00,3.538315155990779282e+00,4.588107290364278890e-01
-2.954099538651679069e+00,-1.902191722269574337e+00,7.045435939329015573e-01
-2.249244601644471153e+00,-2.589602998838258952e+00,-4.816169429291037751e+00
-3.175262025056648785e+00,2.870366784365086854e+00,-1.392213793876018180e+00
-5.729183045490441550e+00,-2.864784261418559907e+00,4.498314250953190929e-01
3.364621589856013895e+00,1.109703081284293624e+00,1.518413873758745813e+00
-4.362248275641001705e+00,2.162346855466717732e-01,2.165746825604577985e+00
-3.061620005311167514e+00,6.173642540168313708e-01,-1.159690758320897963e+00
5.565479810026418228e+00,1.357980237807970170e+00,-7.500103180439957606e-01
2.024279997116746443e+00,-1.371696219116518956e+00,1.600447056643355292e+00
7.664642329332842507e-01,-1.435919858195890297e+00,-3.888752031756142813e+00
8.897904220658183760e-01,4.413582901396897462e+00,-4.621282052581271671e+00
-1.439695268626655311e+00,3.779188725771432278e+00,6.099051882797503765e-01
-1.277237505697792264e+00,-1.391361334705063291e+00,2.585510278470687151e+00
-1.463766234177957370e+00,2.339114969900489616e+00,-1.357072373861936576e+00
-3.987040681642324724e+00,7.695249578210695551e-01,1.786965647677153379e+00
-5.243021027249601396e+00,7.895658009369467267e-01,1.018798803665324826e+00
1.097000335956244577e+00,2.107578204031784086e+00,1.939616138498407416e+00
1.577457396665405742e+00,1.837564987457981580e+00,7.087138508278058247e+00
2.471438727294475335e+00,1.364836165108901822e+00,2.102373363587384691e+00
-3.827501195777450738e-01,-2.889968567926660015e+00,3.977309255013961486e+00
