1.831540283130842939e+00,-3.066641605512220981e+00,5.018940985011292877e-02
-2.475613697817609926e-01,2.748783213526110547e+00,-1.013266828392333618e+00
-7.251120671841649878e-01,1.831635332877848299e+00,3.896538830923457208e+00
-3.050780022165499705e+00,-6.363614088546181158e-01,2.376733215106565933e-01
-1.842107548264854788e+00,8.084206948729191211e-01,3.144864201138048987e+00
-1.110432332127505139e+00,-1.452393468973319113e+00,-2.715787713811448900e-01
-7.859420203216671563e-01,1.920030569328625480e+00,-3.515975020162120379e-01
2.925245544579952589e-02,5.429995789028885245e-01,9.731180864366217875e-01
2.881979829828432704e-01,-3.814141532011274816e+00,-2.477837320688816458e+00
-2.292809975331531636e+00,-3.577874208102977960e+00,5.746639731342244595e-01
-1.345181750918067687e+00,2.272399015246373555e-01,-1.387276705067139737e-01
-1.792700119608243936e+00,-8.013970596054161843e-01,4.112046977447243457e+00
-2.617373104645989823e+00,1.656343492407913010e+00,9.971796912806878410e-01
-1.529942899351288910e+00,-1.847005956317564923e+00,-3.819188204792682395e+00
-3.712650102266744856e+00,4.549276060406021727e-01,2.022721927196412750e+00
1.339362168546465170e+00,2.124954142296445969e+00,-2.507894203671120259e+00
3.224723790014971225e+00,7.219248228596957251e-01,2.370945314852527019e+00
1.075189561868269639e+00,-7.060076279805123090e-01,-3.118929936485341781e-01
2.052912964694661113e+00,3.053195392072159731e+00,-1.150330128265890428e+00
-2.513426419881600982e+00,3.423186452167440219e+00,-1.476736169478181648e-01
1.250666191318792475e-01,1.121996390551283751e+00,-2.787660001959523903e+00
4.183748390482436186e+00,3.857188364058257712e-01,-1.540603962708385899e-01
9.276247011677115628e-01,-1.177809284679931956e+00,-1.639656571963806320e+00
1.432313771432803584e+00,3.585440937226709757e+00,-2.094423800669914737e+00
-2.192187922761620111e+00,2.859970295318392086e+00,2.295817092281267513e+00
1.634334707463907410e+00,4.094065968503780795e+00,-4.818878873066885782e-01
2.642930838261741688e-01,-5.350515904164933056e-01,2.361331220680985776e+00
1.747857384947206771e+00,2.658203312222099157e+00,-4.589483724392260378e-01
-8.532431367729242933e-01,-2.849759904305162461e+00,1.318427155835886877e+00
1.944151715373834355e+00,1.672798638111468728e-01,2.636663568481492526e+00
-1.654606587506739501e+00,-1.842460170883829518e+00,-1.844119168648833629e+00
1.142839991947381284e+00,3.686486282975360851e-01,-3.788790159962771131e+00
-2.208400956202435150e+00,1.755756201088199131e-01,-2.326365374833563759e+00
-1.156373825986428683e+00,-3.229700250562544728e+00,2.307520687578225260e+00
4.159970326338075175e+00,1.790956916395807230e+00,-1.354378108536931358e-01
2.956139868498333545e+00,-2.588932616775505013e-01,-1.758549931891629559e+00
1.944596780479396880e+00,5.014909134504754729e-01,-3.841884638674339492e+00
-1.234849818034599922e+00,-6.238585002642647037e-01,3.995460356490350584e+00
1.076722741919816873e+00,2.737077779288622281e+00,-2.089701286259027846e+00
2.157259295556235745e+00,3.052846596406398660e+00,-2.580679026766750095e-01
3.035264031196247547e+00,-3.270594283061873941e+00,-1.445158873171850100e-01
-2.488697147444697499e+00,-2.772025374762661087e+00,8.299551726414577946e-01
-2.423104049769660762e+00,-1.192122713781316845e+00,-1.063291575336763328e+00
-1.002936973901031426e+00,-2.691065452200865682e+00,-3.018146704009507242e-01
-2.084504808670125442e+00,1.610510577219662176e+00,2.480391308372536407e+00
-1.032757260314633774e+00,6.769764583568296246e-01,4.302751508581558859e+00
-2.505458316401373953e+00,1.324201479449554464e+00,-3.473117072520204740e+00
-3.500099247597499019e+00,8.242460015529400053e-02,1.447517602648630275e+00
-3.962083266838159812e+00,-1.124622561569281087e+00,-7.122627700595695055e-01
-7.833966438699148105e-01,3.681892632105736141e+00,2.174778086879419980e+00
1.961893356970296098e+00,-1.776672707666374862e+00,-1.230873356785349391e-02
-1.905100553625202364e+00,2.645003177593492349e+00,1.441462158155305762e+00
2.839396061419510175e+00,2.651302197259627125e+00,5.693277518094488343e-01
2.017380662935389424e+00,-1.467606159202413663e+00,-2.810146416459510021e+00
3.941575218528292623e-01,1.657333043219903601e+00,-1.472020903243696499e-01
-3.198323878009352583e-01,-3.159919424295275281e+00,-3.238156798594888919e+00
9.051294085467364026e-01,-2.109047211096639618e-01,-1.940287865983513660e+00
-9.187188780515129771e-01,3.765402049947778718e+00,-1.315622182803356743e+00
8.240342609138026075e-01,7.071861602511518852e-01,4.633096600450947178e-01
-3.260543088813826706e+00,-1.255240396644033085e+00,-1.255381586597252186e+00
7.014872501923731241e-01,-1.132919361257776480e-01,-4.953106499330464096e-01
4.090156228822510176e-01,-2.380417822197569144e+00,-2.668331317718668938e+00
4.066791902436008854e+00,1.583095338551273601e+00,-5.123672747580949594e-01
-4.196865384272904009e+00,2.757912419570787144e-01,3.289271676518747411e-01
-1.398772918540147403e+00,-1.818614701849764703e+00,1.733597235523867131e+00
-4.523068550468293259e-01,-6.380198060925579284e-02,4.491968492579229810e+00
2.321998995076523631e+00,2.793184476795586679e+00,4.064960692127662090e-01
1.364970052617356044e+00,-1.134501458794958451e+00,-1.289093839879282832e-01
3.842114993954757196e+00,-1.821161213441811588e+00,8.491075844387854232e-01
-5.250454475366861384e-02,-6.844428047749733235e-01,-2.005284302270727848e-01
-1.239224440939894034e+00,2.943976261737094369e+00,-2.764501415508377136e+00
-2.119008062828776850e+00,-2.416138408627156231e+00,-3.421790108544633391e-01
-7.899395149642977065e-01,5.852873912437943638e-01,9.541414061618962161e-02
-3.890925751488927831e-01,2.015454768561389276e+00,2.642417613377905372e+00
-2.527087359015753432e+00,-3.231452798303975360e+00,1.121748542169530349e+00
-1.319849744840176642e-01,-6.697583308454538309e-02,2.695623919580205641e+00
-1.719079306232586868e+00,2.824920172373395211e+00,-2.877593271892807447e+00
-5.235863797721740376e-01,3.236421895675932525e+00,-7.902604892199335263e-01
-1.062181972619171022e+00,4.046325340654880698e+00,1.107319377017241369e+00
3.249973528282421142e+00,-1.553697535026100418e+00,2.918847304407546361e-01
1.491100122494394276e+00,2.243874302567949286e+00,1.456136868872091261e+00
-1.305913652378491330e+00,3.461310766875489997e-01,2.968757068950891753e+00
3.380395751431375384e+00,-1.419078819810363878e+00,-1.785778398626965968e+00
-1.082508996055464134e+00,-1.549610798824068159e+00,-4.978190354258700268e-01
3.382370903345659041e+00,3.110765356747481891e-01,-2.901386872244879900e+00
1.624605087228292444e-01,2.020476649770140298e+00,2.138924529299341515e+00
-3.036687825034526167e+00,-2.475551777742680315e+00,-3.027813934361428538e-01
-3.244130001097873972e+00,1.100415079787302908e+00,2.412513499107169945e+00
4.640913760085928208e-02,-1.307956345026486389e+00,7.759236253223771029e-02
-3.132897583788623930e+00,-5.601980410924636278e-01,3.014263633212663329e+00
-1.843566880657276696e+00,6.651145431745986158e-01,2.538109606482628622e-01
9.644462007620697719e-01,3.518865554847412813e+00,1.547058680788058416e+00
-1.912504954018893644e+00,-3.780525629877355076e+00,-9.141290257449293799e-01
-2.730846344760521127e+00,-9.953016844458244528e-01,-2.526581079411156949e+00
1.364414983162184625e-01,1.981523956462561298e+00,-6.775323709447247378e-01
1.570817075330664725e+00,-1.047470087582860421e+00,-2.821050366818566246e+00
-1.298501151778630902e+00,1.094025151072562929e+00,-4.238291718501415062e+00
-2.452544405533614025e-01,6.618580768760300437e-01,-3.620153912621402625e+00
-1.797599144844282959e+00,-1.389662528636092631e+00,3.546703829448378364e+00
-1.065248240274542901e+00,-3.419547983000242208e+00,4.680591827146561301e-01
2.286343777539630917e+00,-3.850197896009312615e+00,-8.600436256883107200e-01
2.978597372797987752e+00,8.065572001662916213e-01,2.267964097907775312e+00
-1.146668147706843888e+00,-1.522823589261404376e+00,2.518051924853103252e+00
3.823679380210005530e+00,1.527050288637998299e-01,-5.897254401674619784e-01
-1.218788260516368682e+00,3.905349260054849392e+00,1.995738238099849182e+00
-2.576640961868014834e+00,3.196048527399937278e+00,-1.489207911900546355e+00
-5.050666912296875033e-01,-2.361581228104186803e+00,9.037181735059159060e-02
-2.233103825534680897e+00,4.238542258534848117e-01,3.320067004118757215e+00
1.104512540993971559e-01,5.021539754774807518e-01,-1.724199967126234689e+00
-9.535238230760888500e-01,-3.833322350828916036e+00,3.306794763231114542e-01
-1.122934743645577660e+00,-1.471109840388759471e+00,-1.652610675403689333e+00
-8.183425352480493409e-01,-3.549225332347605288e+00,1.836058821400685215e+00
7.054011257625882880e-01,1.183435186914533643e+00,-1.726316092280393566e-01
-3.774669020004091102e-01,-4.558706508194876883e-01,7.742166068398902423e-01
-1.893254965401039713e-01,8.515879139341311910e-02,-1.700501353971213714e+00
-1.536392340779125565e+00,1.984969529833384261e+00,-3.146424224995190144e+00
-1.847787001157261022e+00,-6.395484239223110656e-02,-4.177432848292442991e+00
-5.067539172179241769e-01,-3.546072037761890616e+00,-2.503164023922519466e+00
-1.663345396516416885e+00,-1.124331608459439913e+00,-2.676177927792218636e+00
-2.279662627954659015e+00,-3.915461399797267594e-01,3.733402495434370749e+00
1.487905682654549366e+00,-3.357229649493540524e+00,2.421492093090999109e+00
6.353106168707600698e-01,2.915230148156611634e+00,9.783180043841493978e-01
1.807840474827190569e+00,3.984725714549655073e+00,9.963269687725541113e-01
2.182205454001688583e-01,-2.863053037759563768e+00,-7.462836526230119949e-01
-1.360248352035737573e+00,-6.506260966146378832e-01,2.253458669662562475e+00
-1.477284600952452287e+00,7.096881838271508203e-01,3.212257683899533145e+00
2.010514307547520974e-01,-2.375452817425284913e+00,-3.221333328415382891e+00
1.357478847817715994e+00,3.255501000798824762e+00,-1.571270785796216263e+00
-1.261832688590451834e+00,8.725252829078140593e-01,2.865164149380390324e+00
-3.997016984603675827e+00,-1.271181634745023992e+00,4.918724859975326935e-01
-4.891677214498859616e-01,3.973940334797447349e+00,1.044286250911648395e+00
-1.871622579969481004e+00,7.497766919457582446e-01,-3.370018977208603661e-01
7.371385167161969010e-01,-2.015404366266126512e+00,3.091327885314361978e+00
-3.485367211146752187e+00,4.159802269803659636e-01,-2.607897428313199040e+00
-2.240426005280214683e-01,-1.251533924361852623e+00,-1.602314086698951145e+00
-3.121245262406978416e+00,-7.619466238283462145e-01,-1.717533887031942985e+00
3.373049449701543967e+00,-1.498318464273770134e+00,-7.140735801546398420e-01
3.353278207496992458e+00,1.937668175096319001e-01,5.003011573538296286e-01
-6.414071097209436134e-01,3.534587547570192445e+00,1.389742038712565186e+00
-2.395729756733696370e+00,-1.921376727825567565e+00,1.056265871647648291e+00
-1.383787739620496726e+00,1.477806991383734170e+00,2.393238234349595039e-01
-1.578445868390998985e+00,-2.903563926215328994e-01,-2.450463135124300251e+00
-2.491786866562175184e+00,-1.950578927718780164e+00,2.277198812937899053e+00
-2.192144549585684388e+00,-7.949617924185455875e-01,3.601272427847199253e+00
2.240443719090961849e+00,-7.425083616966876576e-01,3.274497458501562708e+00
-2.720349944771707218e+00,-2.434715846298608211e-01,-3.245456450954569583e+00
-1.056596671322223235e+00,1.779378945468047313e+00,3.786270043414750486e+00
-2.490297985992976137e+00,6.117309446028570408e-01,1.169683136379127131e+00
7.915580251313444338e-01,3.713016747538647522e+00,6.343307918786422750e-01
1.229342065413286500e+00,-6.289152741909460609e-01,1.812622788924553197e+00
1.491770804250744265e+00,1.141069806058694125e+00,-2.571066174636177593e+00
2.812410954977312416e-01,3.578554024718171078e+00,2.253487926656049023e+00
-2.722073389695697010e+00,1.000600114489792913e+00,2.683708254096919710e+00
1.010517419417076956e+00,-3.621645758713500918e+00,-1.287635163528069837e+00
-4.185689022189478248e-01,-6.755633659896378429e-01,2.221745513638484937e+00
5.014516876818289060e-01,-2.593338984449316431e+00,2.102776031016853953e+00
-3.788819135844732067e+00,-1.161294686879883908e+00,-5.632395838644727037e-01
-2.118216142778234001e+00,-6.853225028757470305e-02,-6.502419790071302108e-01
-4.190892647699739904e+00,-5.785280354699493532e-01,1.812619104643662382e-01
1.992247752563650609e+00,2.255768123857889940e+00,2.561152032880082530e+00
-4.276239971384959482e+00,-1.559260193661859306e+00,2.888437384562235755e-01
-1.995406431363010213e+00,-2.631074012332292433e+00,1.783671750298587363e-02
4.033310411146122654e+00,2.279114025441037750e-01,-1.244886057860901257e-01
3.375454863536950345e+00,5.506046053976256793e-01,1.277641527326910165e+00
3.915074075107270790e+00,-1.679027287325957074e-01,2.288196774392136312e+00
2.779277768780978874e+00,-1.251239158064446411e+00,1.185104619975966944e+00
1.367969158311862721e+00,-6.000454804243512408e-01,-2.763174726720879271e+00
2.995387464771070540e+00,-3.752392713802027435e-01,2.504856230650841731e+00
-9.349984746080797215e-01,4.381462815754025186e+00,1.933966705899161365e-01
-4.063285471982672759e-01,1.593177257555192794e+00,1.285897869427170992e+00
1.325415473043739079e+00,8.122842922919029096e-01,-5.577489782502629279e-01
-1.905715464323937569e+00,-1.069531128193413894e-01,1.930479390155670494e+00
-3.612870154616872664e+00,-1.598452489169971180e+00,-1.568303941072017649e+00
-1.864576282488651815e+00,2.947891806321619068e+00,-4.565809383610126559e-01
3.339393056818688588e-01,3.549584988306652367e+00,2.500844086265360922e+00
8.326023080758017114e-01,1.141180706442040060e+00,1.349924419753734339e+00
-1.372844574370666537e+00,-6.544778048081647537e-01,-2.280429394425252110e-01
-3.462811533401018771e+00,4.568269457671612077e-01,-3.752408528097750384e-01
1.881506168934060197e+00,-1.773084779489527918e+00,2.571880594982857371e+00
3.667436387777305296e+00,3.570317696060956725e-01,-2.045420606790647522e+00
3.547242024732477628e-01,-8.119301716924843815e-01,-2.851806564346511141e+00
4.026362666238693322e+00,3.655156150319677222e-01,-7.236524788082504545e-01
-1.511140245757070844e+00,7.606243051772975106e-01,-6.144234152409349115e-01
4.403568180084504458e-01,3.710267991936046172e+00,-2.155529287862627541e+00
2.287922672715828387e+00,-3.518997777995963805e+00,-1.502739424134167612e+00
-8.531070106335594261e-01,-3.285301757872680195e+00,-2.746846897375484708e+00
3.176147183774586935e+00,-6.696544090973007846e-01,2.850267031540409945e+00
-1.605958142320560444e+00,3.617809648709358505e+00,-9.776481145831567021e-01
-3.596902327014553924e-01,-4.028343619631987060e+00,-1.043273827358331962e+00
1.527825759525066607e+00,-2.073721320500529597e+00,-3.719966537901702175e+00
-1.581847389976222207e+00,4.007056157745728875e+00,1.041191765171626260e+00
-3.405583464782618641e+00,2.715435703609786700e+00,1.096732662910320233e+00
-2.055118127982316967e+00,1.124034981425010793e+00,2.685642863841414041e+00
2.684967599758524837e-01,1.439720218167548804e+00,3.255604949031315476e-01
5.340564385191335361e-01,-3.479357389295103520e-01,2.659029376395821931e+00
-2.293385268199637839e+00,-2.583470468563167088e+00,-2.083952895451353649e-01
-1.534618892267171963e+00,-6.960163319982728414e-01,4.216267631452825349e+00
7.088652527879778509e-01,-3.560357135276572382e+00,1.539024671078531026e-01
-2.330126599335785809e+00,1.777717728803797970e+00,-1.030176775763681940e+00
-3.902854127156792918e-01,2.555352624121355554e+00,-4.066698509765530600e-01
-8.817869475075573726e-01,-3.608785447335552732e+00,3.607297205051439581e-01
-2.862388674894640772e+00,1.748117294428214175e+00,3.153889355111653137e-01
1.096890571638955425e+00,2.167095860975038590e+00,2.067346865149793711e+00
8.173698973174639559e-02,4.086237852249351654e+00,4.939004653556825497e-01
-1.388734154002039034e+00,1.006975832467076754e-01,-3.806005601612653111e-01
8.725122280076837988e-01,1.327541770306716939e+00,2.513331158908215457e+00
1.451784933668752720e-01,3.347779957444227072e+00,-1.376817546590179964e+00
1.525575224600957958e-01,3.788709013630268796e+00,-8.545143261356781261e-01
1.626438739892478225e+00,-2.714484091562517687e+00,-2.924516841794254862e+00
-3.829879684329205780e+00,1.046127919800663220e+00,1.399014514769722606e+00
-3.348798435560654596e+00,2.363576103978394016e+00,1.953202974792401125e+00
-1.226250950414085050e+00,6.410756297318912500e-01,-1.678421473335746983e+00
-2.554430218435309374e+00,6.068005193712663337e-01,7.251391531761840203e-02
-1.546342156802950285e+00,3.195721093191249196e+00,-9.741786659692251993e-01
-2.202127196739156467e+00,-2.178875396185367741e+00,-9.720493653891147945e-01
-3.543080654140950969e+00,5.186515721892890340e-01,-6.653089666130842517e-01
-4.065739568031617734e-01,3.520763309477028979e+00,2.032315861156444026e+00
-1.744235002779270571e+00,2.569612355204262233e+00,-1.382013591670418817e+00
1.951027966475451514e+00,-3.493096725218301390e+00,1.961658166975566997e-01
3.689366303641845868e-02,-2.813907017746267059e+00,-9.210086227579233897e-02
1.869350125718203692e+00,2.621561879824150676e+00,1.631539485077863505e+00
6.210763275265173133e-01,-1.006211655244067638e+00,2.157381783634785499e+00
1.210791488586866471e-01,-1.811076194240602177e+00,-2.421734783115110368e+00
3.295988090659499381e+00,8.184021820250260149e-01,5.814760965761758271e-01
-1.064611630221415250e+00,-2.447825867978078662e+00,-1.679508503045390011e+00
2.640047804924138042e+00,2.358946153378594257e+00,2.224116246092839422e+00
1.419823548174866223e+00,3.079903607830946299e+00,1.597688680882373147e+00
-1.157446024143424346e+00,1.312608487659723044e+00,2.394609034119393076e+00
-2.100938076154759138e+00,4.245012994036755360e-01,2.914828577792942799e+00
1.493659175233156056e+00,1.621338794450859933e+00,-3.915310623201396112e+00
2.124460257920913975e+00,-1.586278028616072699e+00,-2.363334648252656489e+00
3.174454154107299697e+00,3.195200172467340671e+00,-2.791162518798445125e-01
8.237193269506249971e-01,3.831649305017705842e-01,1.925948262001407341e-01
-2.466100884499057067e+00,-1.677090641221392620e+00,-3.370311384921075959e+00
-6.127586721031123840e-02,-3.901579745004388755e+00,1.448314758941748659e+00
-1.758377376110866308e+00,-9.379624659335196180e-01,-2.674308474851094353e+00
-7.522387476513187066e-01,-9.078475754224549776e-01,9.140849720840774628e-01
-5.343144833660397053e-01,-1.321017307692120557e-01,-2.118157141174735081e+00
1.261701088169327134e+00,2.656229134660417074e-02,-1.762619458981873777e+00
-3.473028323054093924e+00,1.201686244109658297e+00,2.651866689577792702e+00
-1.154732803747654524e+00,-3.296622199160543776e-01,-2.826782547500218956e-01
-2.018964477796750812e-01,-1.446146146379240216e+00,-7.410148769556086368e-01
-9.380627911935073282e-01,3.005410699356001469e+00,-2.774199837607746133e+00
2.578233247861693389e+00,5.684995512954657548e-02,1.583829473530041776e+00
2.004527250047583586e-01,-4.190700829716209053e-01,4.217450576108078275e-01
-3.550017348353557534e+00,1.473571224630271459e+00,1.236420367715457491e+00
1.455687930777240569e+00,-9.593645998109383566e-01,3.847918179966124175e+00
-1.894937089278577957e+00,1.282413040904142598e-01,-3.372859612706028631e+00
9.936004139489178488e-01,-2.700735626010525969e+00,-1.922504063834972410e+00
3.550296703184672165e+00,-6.510202215428380068e-01,1.034843160251471605e+00
-7.366501823797397819e-01,8.452606583446585775e-01,2.115103838171050299e+00
-7.962816846894122946e-01,-2.193030577170424600e+00,-3.131536427677270140e+00
9.292382637103970833e-01,2.780345968173404181e+00,-1.768209150257150419e+00
-7.949525253801802138e-02,5.046516955783721808e-02,1.162540678367162794e+00
2.170750687124868072e+00,2.841533638035574239e+00,4.201726462093043346e-01
1.955921591941013782e+00,1.770497715426886831e+00,8.740663470989190609e-01
2.956812622223003451e-01,-1.779011324930983795e+00,1.978263377182924776e+00
4.448441228912380474e+00,-3.820535168522899427e-01,-4.925703926241669084e-01
1.832724576965270247e+00,-2.367913536874855840e+00,-3.341996352099209311e+00
4.281401703515066437e+00,-6.277848651721557038e-01,6.717538013355691673e-01
-2.334881935020494126e+00,-2.041812481572093052e+00,3.111558106362970033e+00
1.426367675583211536e+00,1.969197078681407698e+00,3.186981872039702068e+00
-2.569933212650610255e+00,8.149165802753324805e-02,1.003954903204453020e+00
6.904284461650037064e-02,1.186606723024853149e+00,-5.389754591251878502e-01
9.001847766443638044e-01,2.823145063302917812e+00,1.105871562517352524e+00
4.379036815070342037e+00,-8.025970638229172893e-01,7.768700710038870527e-01
-2.167356953050497914e+00,3.655160818279001855e+00,-4.393826878392305124e-01
9.423870163512286791e-01,-2.054246283551703023e+00,-2.017748013216864589e+00
-3.613271165395795403e+00,-1.761973222058405453e+00,-4.696913380755396439e-01
-4.913945227670905025e-01,-3.240579213809708925e+00,-1.129485547616185109e-01
-9.496414532395180963e-01,-3.347827504519306885e+00,-1.117990028408888836e+00
-2.954679740095418783e+00,7.719817412833899217e-01,3.020076993418056688e+00
1.235324948516003607e+00,-3.233681553390924446e+00,2.678004050262461355e+00
2.268355729028639356e+00,-1.253799826740086276e+00,3.698918299750912908e+00
7.962050954567186922e-01,3.862231049032858632e+00,-2.114534992993086338e+00
2.335717845806973614e+00,1.532840120775531778e+00,-2.722060824127471523e+00
1.497991123187594864e+00,3.942394084323479930e+00,3.823665862930080706e-01
4.064603133108962929e+00,-1.778555267504116744e+00,1.014278494432151678e+00
9.052569650734446638e-01,-1.727812922212945468e+00,-1.691615528246566580e+00
-4.017930784529350485e-01,-2.225858853413553717e+00,1.786191343474816673e+00
6.003023710034114391e-01,-7.676697914311365611e-01,1.064202972809157044e-01
1.919053885678981386e+00,-2.345874352902621141e+00,-1.847546491302564320e+00
3.318420610686221739e+00,-2.102685659912209459e+00,2.307745970776942379e-01
2.780474508572710945e+00,-2.702022673191633029e+00,1.472432070451685782e+00
5.612082438778365212e-01,1.586554249185293308e+00,2.590411047025088731e+00
2.813886023158643557e+00,5.588083273895895209e-01,8.527422293963073940e-01
-2.049740170611880963e+00,-3.149402684338323599e+00,1.583326086552918399e+00
-2.618432605024148430e+00,3.025892882035965958e-01,-2.867865809284482648e+00
-2.283311035361958119e+00,1.908555800856368112e+00,8.661686827756885643e-02
-9.306222679909122997e-01,1.883594527601820223e+00,1.806976890267457891e+00
2.478785255058729931e+00,6.845408555418071306e-02,-1.553592554475168863e-01
-5.757634258538099070e-01,-2.802652731729695090e-01,-2.487560344294785342e+00
2.282800309120038840e+00,2.054633910532118524e+00,4.247465176671932352e-01
1.218945751954511603e-01,1.158432883774481281e+00,-1.215891143871762337e+00
-3.624620289308496002e+00,1.541019072189081296e+00,-1.086770729084292286e+00
7.416224582826168588e-01,-2.936564058956455447e+00,2.742179647435198375e-01
2.303809713481513644e+00,-2.897540378844116749e+00,-1.544122070678123348e+00
-6.003510817242200259e-01,-1.893803649438441150e+00,-1.501799338471454526e+00
6.853068928233766455e-01,-1.543635373463240479e-01,-1.291401723991150607e+00
2.898224814340452649e-01,3.164748221860930188e-01,2.572710355456450770e+00
-2.232219814419108772e+00,2.504688672666030680e+00,9.307043933531073954e-01
7.243768937397125907e-01,3.179697897946574425e+00,1.302807722539115032e+00
-2.625153271097443675e+00,-2.494444829046885470e+00,-1.483982325862574614e+00
-1.810651633971767982e+00,-2.245149376541669961e-01,4.053397349016207407e+00
-3.254308987189171720e+00,1.727207994120009360e+00,-6.087058845407652963e-02
-1.918219336452735124e+00,-2.667805130182926421e-01,-7.989853089899201510e-01
1.486205147720845110e+00,2.986419715392895746e+00,2.141080564745604153e+00
2.523182449462626487e+00,-9.244235843549770681e-01,-1.117221549803446790e+00
2.000175100964274311e+00,1.959113071416073160e+00,2.446802066122035976e-02
-4.042494123900184921e-01,3.767183707411694726e+00,2.042557809827180826e+00
1.062374764024944573e+00,-2.941218407270442370e+00,2.327826398737169011e+00
-1.721919685940784817e+00,-1.169847712417100283e+00,3.355043794048009898e-01
-1.891214900598068738e+00,-1.630927027013888475e+00,2.534159568983895827e+00
2.824008776086793238e-01,-1.018968079162357432e+00,3.386511052681722589e+00
5.319780933920740251e-01,9.302297191873786231e-01,-1.988466815998870985e+00
-9.786600695237614167e-02,1.138619386801824201e-01,-2.315684710780775146e-01
-1.739582951628819041e+00,-7.370713573292453358e-01,-1.889701028897817103e+00
-4.653502178653915466e-01,-8.857719220903941260e-01,-7.464538377590199669e-01
-2.079119171099293784e+00,1.591340082490801056e+00,1.068047817061375637e+00
2.927814409007016838e+00,6.643064127079565395e-01,-1.610437964619769957e+00
2.380176819470019911e+00,-2.107151297998755279e-01,-4.563882664630439789e-01
2.013026184845185362e+00,1.484294607905358276e+00,2.216794959502988771e+00
-2.490202647100490593e-02,-1.772552879604503140e-01,-2.086487602963566612e+00
2.082253612039333124e+00,-2.130762172221089212e+00,-1.943108233399033935e+00
2.849139299376949097e+00,1.535898048300761598e+00,1.827315383213270916e+00
2.416858634348248991e+00,-2.677738675741454077e+00,-1.725281026336479950e+00
-3.788395081497244909e+00,-3.273803071925122654e-01,-4.347166388290468197e-01
6.408498610541614182e-01,2.091681455966547087e+00,-1.904388065116396689e+00
8.012435685045461442e-01,1.278860662654972558e+00,3.955728406964156729e+00
2.385175881899607830e+00,-1.133670029383328615e+00,-3.131011173663197145e+00
8.521057798450222265e-01,1.757616205162244594e+00,2.978010205144240530e+00
-1.895225209275310352e+00,-1.098985053873462236e+00,3.734344330596433892e+00
7.824874901988380094e-01,3.629049503256672526e+00,-2.008128226460021981e+00
-2.528599233444582151e+00,3.626088342977361600e-01,2.175656864012978087e+00
2.580968167564843263e+00,3.457182491251102885e+00,2.020384650853923880e-01
-1.835319053292285840e-01,4.027978081554324241e+00,1.277274095287666222e+00
-1.805857009035544358e+00,3.663135370723290762e+00,2.834510145816661053e-01
-1.732955456733994648e+00,1.984109671697234234e-01,-6.374657591239560883e-01
-1.161931416227945268e+00,4.509136770309394304e-01,3.003545450533276373e+00
3.126721403219049344e-01,-2.201250036719235137e+00,2.305383739159726719e+00
3.158263495978130830e-01,-4.239115481821428943e+00,1.346176686364273012e+00
-2.249932887849334318e+00,2.553250001502909594e+00,1.772816245649991851e+00
-1.042849211139102561e+00,-1.827848168133899387e+00,-1.685279683408538842e+00
-5.156131639916777809e-01,2.194597015491773107e+00,-1.944724940712896588e+00
2.726771755669454844e+00,1.014039505953074682e+00,1.607826740491328454e+00
-1.735221062774714440e+00,2.271923349917019941e+00,1.369657214298580783e+00
1.673122387397550037e+00,-2.256515884576907105e+00,3.329750403716192686e+00
1.416529862805904649e+00,-2.325229730658181282e+00,-1.542341639740455239e+00
-4.074406882545720698e+00,-1.061831955902423186e+00,-1.371558983158492229e+00
-1.159291962379050550e-01,-1.830099770603970333e+00,3.545888547666359969e+00
-4.414654421180782551e-01,-1.424965875490006084e+00,2.920131725587968852e+00
3.969159514308951309e+00,-1.091360181192830181e+00,2.810926730003863727e-01
3.030369017508959928e+00,-1.078444091362324331e+00,-2.587183707230323648e+00
-3.575357292691671240e+00,2.387589867042782643e+00,3.725719747969161166e-02
2.381340929301383191e-01,3.399132209848351849e+00,2.645867583325500316e+00
-1.822550917656456493e+00,-2.297308034842276969e-01,-1.578923430672787509e+00
5.680671961532616221e-01,9.196866753912352754e-02,-6.168096053183899086e-01
3.629267299966605798e+00,1.117662565777519434e+00,3.851096097619179925e-01
4.139005994456133486e+00,2.878830629905054228e-01,-6.635397280690499278e-01
-1.449879205394063675e+00,3.983650403759663838e+00,1.600955756724209866e+00
-1.359925606247066154e+00,-2.555703897559147730e+00,-1.957035248179003428e+00
4.395373250130011900e-01,-9.932078423551776725e-01,-4.342697882350382343e+00
-3.387331838742607459e+00,-1.150118109622206397e+00,-4.890827159762820009e-01
-5.483922701791302812e-01,9.109113334682356067e-01,-3.180272270698099479e+00
8.930767377127012130e-02,1.484036469039032191e+00,1.133839535845729385e+00
2.508764626114794449e+00,-1.458691372314443901e+00,1.572374523408552882e+00
1.845048417082233216e+00,-1.760775950883867846e+00,-1.392489147247251147e+00
2.607911683039665710e-03,2.847709198700252853e-01,2.208315473748790225e+00
3.564703007627015197e+00,7.337833348027134051e-01,1.027892193797564246e+00
8.477852710095998834e-01,2.851916188510899453e+00,4.760783387990310533e-01
1.413349305810073897e+00,-2.429457713087490145e+00,-1.392885607780200985e+00
-1.183453249440587385e+00,-1.862854376958344327e+00,1.143345872366195337e+00
-1.316602968907250926e+00,4.304570811168496602e-01,-2.181548573688178172e-01
1.700544017425449805e+00,5.444137772213711868e-01,-1.917889323374194765e-01
-7.786456613651995262e-01,1.996796194615519049e+00,-3.821899020906107669e+00
2.792265760195010937e+00,-2.110624711496674077e+00,2.897511441411266819e+00
-3.633327704188823226e+00,-7.354353979607098912e-01,-4.746669744545728431e-01
1.116023539736902936e+00,-2.900904485263003707e+00,-1.875159764218154557e+00
-5.949154131428076309e-02,1.919408204848809474e+00,-1.481041402222388115e+00
-2.603427745512434388e-01,5.597677061638364204e-01,-2.197355253927076202e+00
-1.673199140996386003e+00,-2.562447301958250101e+00,2.737004384359177589e+00
6.145904142774656631e-02,-1.766855421832957296e+00,1.328230976646067596e+00
-2.850368080574731788e+00,-1.446764879058073605e+00,-3.062631671759548979e+00
2.881557041186607826e+00,-1.083421818981189083e-01,1.142856666893057760e+00
1.509038429123467084e+00,-1.175806511326279002e+00,3.854854463791345776e+00
1.260198462333334879e+00,-7.107296059919067099e-01,-1.850683960663563443e+00
-1.571831735148423892e+00,-2.579983545446955517e+00,-9.247672652875744692e-01
-1.485528963994792173e+00,6.887949578576174625e-02,-5.071640430727646087e-02
-5.364527405843160235e-01,2.516509346763966093e+00,-1.590050660564007678e+00
6.501974931278641234e-01,2.211809975164150899e+00,3.024032544907547249e-01
-2.947382930876029317e+00,3.381369118711797572e+00,-7.415929859155531156e-01
1.181519704364991208e+00,1.811665370520182172e+00,3.711312493351681674e+00
1.797134420275246613e+00,-3.368071883045916870e+00,-2.337481333285824192e+00
8.858314650878859053e-01,1.699888690709080885e+00,1.330045315133130401e+00
-1.475245507313560411e+00,-6.391113447214311072e-02,-3.984904697562399623e+00
2.944807203963947906e+00,-7.116996163122515928e-02,-2.411838180268351728e+00
1.348574876540830303e+00,-2.638379996350138423e+00,5.584976457308437059e-01
-3.192972144526647682e+00,-8.912611721419315680e-01,1.488089767089692428e+00
-5.520530440590651899e-01,1.605506807698619198e+00,3.742173377412801205e+00
4.310206656411597059e-01,3.383307773781671912e+00,-2.855273686799297828e+00
4.236131102573775786e-01,-3.327022600278174647e+00,-5.967486860103684565e-01
3.116540221900934604e+00,5.746986200290511437e-01,-1.001590581892507048e+00
-2.136179892235423039e-01,-2.962365855032257578e+00,1.289152619229741559e+00
1.217217840623036729e+00,4.170636052246276648e+00,-1.464276752795286851e-01
3.606400106251191673e+00,-2.042598721620526803e+00,-5.567448342750977996e-01
-1.493088886915825420e+00,-9.520095994418650287e-01,-2.248088861473238609e+00
-3.344655701554108074e+00,-1.038150231949805047e+00,-1.745773675911430622e+00
2.549569010598318197e+00,3.424793533898221387e+00,1.381730980141819387e+00
1.684613537681498574e+00,2.581482932470587244e+00,-1.967269888245534837e+00
-1.306397675717413387e+00,1.236112758374716902e+00,-3.413933507282458368e+00
-1.451163168891914435e+00,4.145127792972068903e+00,-1.087464247580476995e+00
-3.221459120072924343e+00,-1.800239752806621407e+00,-1.548799173201112156e+00
-3.900106812895370645e+00,-1.984447965921997126e-01,1.327136248376641792e+00
-9.195237499839572504e-01,1.036776808175164488e+00,9.406347119376592958e-02
-7.728874902037411454e-01,-1.623795550982344293e+00,-6.873244764643754445e-02
9.661226340542776736e-01,1.653516101798315985e+00,2.483281789076329016e+00
1.300046835185195426e-01,-9.298926283039447016e-01,1.590453454668888877e+00
4.305467338192119797e+00,-9.554905100036074905e-02,1.157214828370757731e+00
-9.380764261166729678e-01,-1.049560862604603129e+00,8.948438164713065079e-01
2.148786515580874745e+00,1.064539735875155380e+00,2.289304544884015247e+00
-7.268132835632988842e-01,-3.611438579375660929e-01,-3.631325182405343438e-02
-1.472071170291356257e+00,-3.787467435249022518e+00,-1.365123986945805945e-01
1.724885964181849252e+00,3.957236612113256502e+00,-1.434410509112336252e+00
3.274097859243759068e+00,9.977693631279066500e-02,-2.568316046143211739e+00
1.522680851760339349e-01,5.017707460051693547e-01,1.222264089118152874e+00
-7.858457451577669506e-01,9.898954477892222270e-01,-2.401918975561573077e+00
-2.777844621467971953e-01,-9.442907407598635228e-01,4.251024847844293575e-01
1.240186465144995864e+00,3.216173444862438391e+00,8.578129809775555392e-01
-1.409254087575819048e+00,-5.244828492638241579e-01,8.860387893819665628e-01
1.943686922736044487e+00,1.604911307055803427e+00,-2.310204151651709559e+00
-2.055933395701518840e-01,2.015489064893791760e+00,-6.217113983066286931e-01
-3.220151980798737323e+00,1.160768526022379898e+00,-1.108624398636601782e+00
5.115554095410181912e-01,2.427845848997992384e+00,-1.851174372656256617e+00
-3.217843611140572158e+00,2.517723062053199179e+00,3.634293654442364296e-01
2.156347061366719053e-01,9.387517917390553190e-01,-5.664754209270278507e-01
9.534727462508313378e-01,1.212978568430821191e+00,2.512670812027225420e+00
-3.291680867802182942e+00,-5.760194149655474272e-01,1.098200164608863494e+00
3.517184367569919368e-01,-3.020983906463427626e+00,-1.377745469165414072e+00
3.701533071627043925e-01,-2.716756382725562968e+00,7.184258219823941305e-01
-2.121651287457992918e+00,-2.255530054728399403e+00,2.177569924987483141e+00
2.951548551711325463e-01,1.436906545031545912e+00,-1.894223881243052965e+00
-2.549152507466464268e+00,2.602793698862936989e+00,-7.556661326292846148e-01
1.802316156637377764e+00,1.648373377050414756e+00,-2.333559452128333600e+00
2.634284595782309335e+00,-1.019597514159047424e-01,8.952564764955939225e-01
-1.027720329161667445e+00,4.572723460893196035e-01,-1.439281905580971133e+00
6.636595818791961587e-01,-6.278908524725638207e-01,1.619206955019936833e+00
-4.313548656429929906e+00,9.046519722301668009e-01,2.382771880644112827e-01
1.084839906559297296e+00,2.929561457890536236e+00,1.082940976644926279e+00
7.318193227426135206e-01,2.634197486406931521e+00,2.592397364682442529e+00
-1.239681935829404891e+00,1.970158300192970557e+00,1.731964359053987490e+00
7.899881262474858223e-01,-5.846854374970822388e-01,3.068927474551708556e+00
-5.966464773872033334e-01,-3.479633053991615821e+00,1.527362986314818372e+00
-4.748232991875450115e-01,-8.675113233509812449e-01,5.494066776860654505e-02
2.419377196915419859e+00,2.247362657694421451e+00,-6.910657643835034503e-02
1.548142040425830812e+00,-6.909935071754872427e-01,4.218900704745362162e+00
1.612360466033620598e+00,3.629446617005298026e-01,-3.687291241958057686e+00
-3.187274793009446383e-01,-1.036253782476011631e+00,4.736414702427867440e-01
-2.417089490741487712e+00,3.262267702667736913e+00,-1.286190693550306685e+00
3.668875081518973236e+00,-1.003129214472457953e+00,-3.975091958601192355e-01
2.730261985322636420e+00,-3.651008802809614373e+00,7.573033872451950810e-02
2.435540356602020839e+00,-1.775614456855789891e+00,1.713206128970905073e+00
3.813538553287969979e+00,-3.146092416682978038e-02,4.101070269930877643e-01
-4.190475716886505886e+00,-7.142824476585646343e-01,4.646690575864176886e-01
-6.056884371034092496e-01,-2.004750117776723073e+00,-3.400644024979620816e+00
-2.192408003309626707e+00,-1.102334709256612699e+00,-8.490999630771083745e-03
7.426188776000713920e-01,-1.160617532605862312e+00,-5.472542611985136141e-01
2.513080430274222898e+00,-1.558120798851135413e+00,-1.000426457732474406e+00
-4.045777159042505677e-01,4.132533984673799843e+00,8.065729686979248303e-01
4.185595793554977018e-01,-2.276336655398793596e+00,-2.965263668952822229e+00
-4.302748253484327989e+00,5.707026416628884213e-01,-1.183437321070479831e+00
-7.569676938648570719e-01,-1.244439705257331941e+00,-3.344361382874022848e+00
4.019643471984505889e-01,-1.517042596964378154e+00,-2.584421095865891527e+00
-2.517075895406104102e+00,-2.460115715989472651e+00,1.766942315388027041e+00
1.805403948366082645e+00,-1.941574646482961075e+00,1.465596965698501564e-01
-1.012615932907666272e+00,-6.302784182473420982e-01,-9.633953761720354114e-01
8.236391057466433407e-01,-2.867068157238179815e-02,-2.736854955906258269e-01
-3.537261730175158547e+00,-2.083324251087037837e-01,-1.797400784673488738e+00
-2.751189288538651301e+00,1.939732343552342364e+00,1.112235860124955122e+00
-1.614087203254277458e+00,-1.237686514232414936e+00,-1.968478117971012242e+00
-3.314084714480304505e+00,-2.758821610092011323e+00,1.227988022237560095e+00
2.903042791677704404e+00,2.332163477544847652e+00,2.203894266277806935e+00
-1.415073500181238009e+00,-2.650855142042848112e+00,2.348874140946075162e+00
2.423769672890034033e-01,1.174294187143568591e+00,1.034803483469287189e+00
-3.232248601462588855e+00,-7.219943953802795411e-01,1.797666229141304806e+00
-1.701993874902522352e-01,2.264036779583715298e+00,-2.540769759061952460e+00
-3.072973101901149917e+00,-1.180643600983950936e+00,2.077352046443558198e+00
-4.663992737509402575e-01,1.229838882137181955e+00,-3.867022893572614195e-01
-1.411338562700560351e+00,-7.599041068628256124e-01,-8.081036544497907093e-01
-5.789465706261229805e-01,3.742155705426053025e+00,-2.211632886099329287e+00
-3.158306966133159754e+00,-2.300937614790515617e+00,1.717722186422859343e+00
-3.043347170395871437e+00,1.228800836685683073e+00,8.045488627098957846e-01
8.236412844807364242e-02,-7.602607405353877246e-01,4.020581621146931184e+00
-1.547086324463334384e+00,3.579210516046968937e+00,2.028773666511368479e+00
-2.240670132507215584e+00,2.315838407140493160e+00,-2.669971151472770310e-01
-1.107171253124296983e+00,1.028789417729866762e-01,2.664549111342261245e+00
-8.765835535636992137e-01,-3.448997920950746643e+00,-6.345859263625585056e-01
1.703464685604410667e+00,-1.543368265217250679e+00,2.297506126597639309e+00
1.060930733976568119e+00,1.531040066308742009e+00,3.587895155961595250e+00
4.761764260562573181e-01,-3.913391718012463549e+00,-7.985389492417495072e-01
-3.042215119573279392e-01,1.512144560304265362e+00,1.960120409787771800e+00
