7.323143894393934206e-01,-4.628547321522600733e+00,2.248908364265443272e+00
2.888436798038615194e+00,4.761054730911243205e+00,4.627798344248948759e+00
-4.367910696877109977e+00,-2.527031064007780881e+00,-2.144393079199975460e+00
-4.537251278296255437e-05,5.522146603017486832e+00,-6.209906650685695917e-01
4.947560140470472767e+00,-4.970098729598919185e+00,3.663573604760948843e+00
-4.510294327581657825e+00,-3.744649671450980044e+00,3.419280139894039561e+00
8.180689595317167218e+00,-1.790777739336421481e+00,1.049654728918378632e+00
2.460557931251616370e+00,4.689674976492892000e+00,5.899442633269434744e+00
-6.904164941630198671e-01,-4.362221841506278786e+00,6.006609980704349816e+00
-3.193790244638420539e+00,5.735377331719552219e-01,-3.057304715326212285e+00
5.728693375288271827e-01,3.683398789731541889e+00,-2.399738392145850607e+00
6.002279852140812721e+00,5.379726882619970674e+00,-1.701726478528087894e+00
-5.250590081029284484e+00,-9.777850751424640441e-01,-3.091582968784607033e+00
-6.937065218381064380e-01,-6.689048342540487191e+00,-3.303183832581471524e+00
-5.865683595437485742e+00,2.557341333102872927e+00,-5.408089129276601348e+00
1.150105905503680637e+00,2.091740629769608950e-01,-5.990537589993900625e-01
2.039285409493154066e+00,-6.268829237561018175e+00,-4.754492600851643047e+00
-3.536194889362495264e+00,-5.457940858604231060e+00,1.691805939197966957e+00
-3.400265894817414924e+00,-3.609708225465010134e+00,1.782919249221289748e-01
4.495917251657894909e-01,-4.136822487986917984e+00,6.072326724824598898e+00
6.310920603489665659e+00,-1.364842515163807057e+00,-5.251553348770891638e+00
7.683280299115074818e+00,-4.387827840773000920e-01,-8.046259014146907029e-01
9.148550550790438551e-01,-2.359608945219734633e+00,-7.475104904662404515e+00
-6.182270892725634681e+00,4.731819088033939025e+00,3.622479339117694042e-01
-3.263432818388087409e+00,1.493283079359702725e+00,1.248202057033833912e+00
-3.136358500216341216e+00,-4.317676751505919341e+00,-6.623833088241336320e+00
5.166620650603764631e+00,-3.139085475909729972e+00,-3.134347389037129172e+00
6.412019271237327622e+00,-5.325614609568341429e+00,-1.266824437785528001e+00
-3.335998965998125954e+00,-3.204873331999392061e+00,1.157264039509215081e+00
-4.703040332611571728e+00,5.127958476274128152e+00,-2.863290179015054893e+00
5.841969354438249162e+00,7.392638587672772932e-01,-4.581823934102762230e+00
-7.776000677469653510e+00,-4.853953909429579161e-01,-5.056537159934272330e-01
3.903530347574345472e-01,2.052510802006520141e+00,6.498709602260431817e-01
-4.696312728357973754e+00,-1.407671656177275521e+00,6.610207047571496908e+00
6.844919401099929246e+00,1.217965849488106045e+00,3.247430394841645196e+00
-6.569726292871592710e-01,-1.129339116293664569e+00,4.943247151570465903e+00
5.161650611962407265e-01,-2.865818936553043539e+00,-1.076448955844215627e+00
5.362746693099327722e+00,1.677857548475406579e+00,-6.096693034000152167e+00
-6.910048796488201361e+00,3.225584182434269476e+00,3.027311959217251491e+00
1.002010773295005375e-01,-7.004457593164024054e+00,-3.176565030036502701e+00
-2.351833356994980750e+00,3.520650889842117381e-01,1.519413880924122884e+00
-3.240698915011700709e+00,2.632071139818624950e+00,2.010306823617127758e+00
-4.707129920484789842e+00,3.147294079886140405e+00,-3.130468061923362466e+00
3.822550255314472789e+00,-3.957126048653183847e+00,3.643121377865552457e-01
-2.561805336431246527e+00,-5.917828325238274623e+00,-3.985958385349150479e+00
1.852611116842624917e+00,3.787518612523900874e+00,6.072068619109133536e+00
-1.988113216869316968e+00,7.436426979348834010e+00,2.675405500354709254e+00
2.561202504864363405e+00,-1.454227587067025818e+00,-5.697396197283341124e+00
-1.542367881665442919e+00,-5.162459537960871536e+00,2.407475590106813890e+00
3.302469655893319977e+00,2.107738945544367581e+00,3.709664259080847515e+00
-2.911749756976471204e+00,-1.599334768679280483e+00,4.071414706453521326e+00
-1.008648156714158750e+00,-8.306506298675373046e+00,1.161267520766673833e+00
-1.603363394618755877e-01,-5.554342082951034598e+00,5.110328207864660577e+00
-6.188113540529904810e+00,-1.666751273927863097e-01,1.592797546683734078e+00
-4.903910482280470773e-01,-3.943730041653758178e+00,-3.151694755155189043e+00
4.399297554023255508e+00,1.055394083650399661e+00,6.198457667144214867e+00
1.794596162716546983e+00,6.405071872099931340e+00,4.883240575436706088e+00
-3.974427388927400884e+00,2.831935723972182628e-01,-3.722095220376724356e+00
1.184605403134436852e+00,3.614415155104794497e+00,2.672487888458311200e+00
-6.272702670069302266e-01,-6.930664125065859604e-01,-7.965000160752835789e+00
1.128013903909931726e+00,-1.416679264122241433e-01,-2.985042661572945288e+00
2.729974989608901392e+00,2.703929359460892190e+00,6.766878258310716099e+00
-2.796931448319470270e+00,-9.297543821048546153e-01,1.544076138883496263e+00
-8.002177758913336936e-01,-7.875676959855573145e+00,-6.418694320313775847e-01
-8.480513081376376272e-01,5.209496641885725587e+00,8.673653949831700016e-01
-2.115589744158003604e+00,-3.455838641027486058e-01,-7.550559387923986066e+00
-1.114220091720666383e+00,-1.201342716575871883e+00,-3.642192770806000457e+00
2.449120398758447781e+00,-2.018531575938815159e+00,-7.621702327357781748e+00
4.648086307175205434e-01,4.981365026244050753e+00,6.877649680943079602e+00
-9.214361871347493960e-01,6.672932205282922524e+00,1.293784427507248536e+00
2.966892440064543002e-01,7.558629153509228260e+00,-1.835182516755442972e+00
-4.843402007867188552e-01,7.997155988878380528e-01,5.680993787827807395e+00
4.541563716339470425e+00,-2.538636916562162504e+00,-2.827144112567676615e+00
-1.023309573317165294e-01,-8.696563517171700120e-02,-4.697473579010207345e+00
-4.803189503064525745e+00,6.711069625235965841e-01,8.800595602421240615e-01
2.128909251269816227e+00,-2.983673497415673559e+00,-2.290511507639980238e+00
1.407210223303942964e+00,3.035972244613147630e+00,5.190594385614986983e+00
2.976467428597133313e+00,7.459584181682497928e+00,-2.733567732610791445e+00
-7.373250883163559033e-01,1.354404371679432728e+00,5.426579982786213563e+00
-4.637603097468609548e+00,-5.286567816476448911e+00,-3.468362115460419837e+00
5.020998384453015717e+00,1.394415631582767601e+00,-5.035434054290853112e+00
-4.506337637710305266e+00,3.743854670906470616e+00,3.836205338085843852e+00
3.926110715458505318e+00,4.168125255863202483e+00,-1.855096431083591124e+00
4.059212883905354730e+00,-3.460764127995038741e+00,5.403630999924725842e+00
2.264079094110044377e+00,4.562826453535232751e+00,6.379400170379274648e-01
5.369113307102693966e+00,3.045221341756866096e+00,-1.152824786835820348e+00
5.527289893074020632e+00,3.286200597438225124e+00,-4.851482507603298799e+00
7.204883893255447980e+00,-3.909586573967454903e+00,-1.348171644896886345e+00
-5.300302954190433624e+00,5.340554040349144493e+00,-1.305667981301538827e+00
-3.582544334531857722e+00,5.646590138016348348e+00,-1.140427930076212570e+00
-3.758459220729396311e+00,-2.575529094228024896e+00,-2.917650623786923525e+00
1.545785235504778532e+00,-1.853956627480988439e+00,5.091740350484254662e+00
4.090261528083194875e+00,-6.642554380353969279e+00,-1.371909609113294515e+00
5.942178184869495450e-01,-2.497136749228476837e+00,-3.183192487876759458e+00
1.534954189833588556e+00,3.094239560326982996e+00,-4.418810915076123003e+00
4.181504682492394043e-01,-1.072983563105113669e+00,-5.104587682495602685e+00
-7.596078615770113451e+00,-3.004897058331236437e+00,2.348931818949818950e+00
-4.193248225055818068e+00,2.387367014246399854e+00,-5.822843180243536310e+00
5.924769178094354771e+00,3.192237215989070620e+00,-4.196123869148954633e+00
-4.646404882851463469e+00,5.640307120733222490e+00,3.326323815173454879e+00
-5.314411293833954275e+00,2.952689562684749358e+00,2.151387895372001591e+00
-2.497657667086051969e+00,-2.929128508876783776e+00,-1.590739972368047983e+00
-5.943726296502960693e+00,1.221037928221462510e+00,2.289386339131345594e+00
-5.576317174120760889e+00,-1.923799483857458581e+00,-1.783196686625671823e-01
3.734605347507182760e+00,-5.411365722465393269e+00,-4.465179588320228987e+00
3.360192210857035011e+00,-4.661065878553825925e+00,9.568975047346820473e-01
-6.292415358021766769e-01,3.556146412702106963e-01,1.347082890202206729e+00
7.166591524059579221e+00,3.237735031488657267e+00,9.944216952636877327e-01
7.924845230061027257e-01,3.023807866946900624e+00,-4.265763528777628544e+00
-2.052413154529591832e+00,-3.338291399685201721e+00,-3.813144433638707476e+00
1.529392659849685199e+00,1.773714119510152676e+00,-3.198889709389570957e+00
2.351057620112948499e+00,4.862440765857700242e+00,5.522905713295195085e+00
-4.260941308663077187e+00,-2.518777504220864660e+00,-4.690742881717102186e+00
4.472841620876528701e+00,2.188739518579322585e+00,-9.647389601888642363e-02
6.269973211758308906e+00,4.320092497841345747e+00,-1.536185931594364229e+00
-2.091630535924241752e+00,-7.201582300155726646e-01,3.983795992588477386e+00
-1.993915663716996578e+00,1.792641078661744825e+00,-1.604772441513159231e-01
-7.589977439570581907e+00,1.395411429588866659e+00,-1.535099995547305696e+00
-4.956612504318519408e-01,3.333274921064875773e+00,4.739203821976587072e+00
6.405717039968529036e+00,3.470975652003367440e+00,-2.522202464236486197e+00
-5.697271537900813421e+00,-4.655738099639961547e+00,2.682727506707515808e+00
-1.109105902920544118e+00,2.040491851733813533e+00,-2.053203008273201569e+00
1.901480090235343257e+00,6.439891695248771697e+00,-7.845898121704494299e-01
6.287036704984616087e+00,5.186484624362612372e+00,1.974916277031216527e+00
-2.273966604218236487e+00,6.676880877174764528e+00,-1.302394322808123173e+00
-5.746080337627715195e+00,-5.968596307071491580e+00,1.191320997318228825e+00
3.715889707674056464e+00,-6.498608568322213230e+00,3.150597467354107728e+00
-3.741474442873128137e+00,-1.659136681356993215e+00,-1.904676941263213630e+00
-4.883798132912481549e+00,-1.777699872641733680e+00,-2.852993462706199246e+00
1.156059897751039678e+00,5.878110705663673663e+00,-8.291737810583506008e-01
1.670224462773271190e+00,-5.588490793648724697e+00,2.684845670646586413e+00
-9.213299651191491080e-01,7.955596205372737373e+00,2.453463444771530610e-01
-4.373750788018138103e+00,5.156468090031977702e+00,2.422333124336516708e+00
-5.239460691749222576e+00,-3.089691004109333061e+00,1.310775202923032179e+00
-1.881986011091622557e-01,8.746451826769205962e-01,6.259254342562418749e+00
7.049936798037153451e+00,-3.216370088033644326e+00,-3.509497401883161061e+00
-6.352025157681143064e+00,1.986143309334466034e+00,3.053642482295563898e+00
-6.126686194122956231e+00,4.114219285288480243e+00,-4.174840867546868672e+00
8.653694766016744033e-01,-4.557005403451618974e+00,-2.158177278901217910e+00
4.933101061712132029e+00,-2.068307055052569510e+00,-1.891741372648660269e+00
4.151820528579698077e+00,-2.089084865409029934e+00,2.584207110425115417e+00
-5.023336268263227211e+00,4.352458403481257454e-01,3.422818623893717938e+00
-1.456304724024797714e+00,-3.028114564547213838e+00,-3.577171242855726324e-02
1.694105563551617566e+00,-5.423438831183429620e+00,1.998958171260143635e+00
6.049190588785565481e+00,-2.380634684207805218e+00,-3.537602487535915774e-01
1.437787770768982898e-01,3.694964729660314084e+00,-6.720344837177362862e+00
2.767817334167391063e+00,3.150642991530582249e-01,-1.429564735577415924e+00
3.777693526426945780e+00,5.863660816370037665e+00,1.410754747902287221e-01
2.813059408992729882e+00,-6.420684003260019423e+00,7.183852936818103663e-01
5.133175977098842324e+00,-4.985868329382269204e-01,-6.460117640857285792e-01
-4.139045605480896839e+00,1.900976447600297492e+00,2.980343444808589481e+00
6.713369613462380592e+00,-3.778118061434209363e+00,5.381149814940553583e-02
-1.340076924907127598e+00,-2.397023685641770374e+00,4.875367618117106616e+00
3.497042008502614596e+00,1.727125800613245721e+00,3.714404020368083703e+00
-1.997287866698391201e-01,-3.103840476651415284e-02,2.826844955699256534e+00
8.201087506982075448e-01,-4.735497599645947520e-01,5.980076144746036881e+00
3.956582707863778858e-01,-5.685829110351657611e+00,-3.634026591710239007e+00
-1.881965864609088879e+00,5.672176912516688319e+00,-2.433968054253012325e-01
-5.469305070538295510e+00,-5.285721622151542398e+00,1.601882146471147683e+00
-3.904600690076174718e+00,1.235603567988996287e+00,-2.874170406424987778e+00
-2.389273769160360494e+00,6.907965557088984188e-01,-5.324000971391702031e+00
5.365791138458575915e+00,1.492566755535708944e+00,1.935875117909260146e+00
7.061823593829608114e+00,-2.428938845580934647e+00,9.312316403463533065e-01
1.955562502990371154e+00,6.021169928489102041e+00,-5.678687736122364882e+00
3.178461812713632817e+00,5.021053288258084280e+00,3.020634493425510492e+00
4.362914821037270907e-01,4.861256896590424148e+00,-5.356260056468784114e+00
-1.428426701817459184e-02,-3.169491564341971324e-01,-4.608092966595086715e+00
1.743558661587157665e+00,7.398572456523406338e+00,-3.119614123784903104e+00
-3.266063435412000504e-01,3.321343428823102961e+00,-5.650203210395664755e+00
-4.997505689394348694e-01,2.049469369403664309e+00,7.132907013567636234e+00
-3.774357803476930062e+00,-5.597514882337290665e+00,2.008958898070248633e+00
4.670956791619072845e+00,-2.936486466427971287e+00,4.916073975271121554e+00
2.513706473620935355e+00,-7.963727183405754362e-01,-3.692409343162029955e+00
-4.077382697241103138e+00,-2.645769709185002760e+00,-5.256089453133910183e+00
1.323749658860162270e+00,-7.319712188923070961e+00,2.184235692201574874e+00
3.839877655096393116e+00,-5.341326584452390502e-01,-4.079231020195114077e+00
-4.995901586181595633e+00,-1.341676443027325805e+00,-5.512841983573349980e-01
4.950462421205565455e+00,-4.786377849015340580e+00,1.804718571542651029e+00
6.358020136844023007e+00,5.604591218789689577e+00,-3.103754536080934878e-01
-2.841895297148618216e+00,-5.701929815196363910e-02,-3.626966363530732984e+00
-5.646071684142386360e+00,-2.471827399232499334e-01,3.114902853408342942e+00
-2.758596343715463917e+00,5.325465619406014817e+00,4.846092843409428141e+00
5.035891651390740353e-01,1.476289596773739499e+00,2.426442885014042705e+00
1.335024364481182557e+00,6.964079772259765377e+00,4.513562929979258342e+00
-4.166269441828423514e-01,6.472492103909731398e+00,2.464261309303954484e+00
3.318850379703437437e-01,-6.217292649379849712e-01,-3.747538647526038602e+00
6.643679749846024052e+00,-3.005067349359411555e+00,3.565181433248100884e+00
4.343404342287575659e+00,6.886113872365856814e+00,-2.232561481698027706e+00
6.237133712690445364e+00,-5.620154376657817252e+00,1.054851325368496573e+00
-4.400639000129860534e+00,-5.152288314652196277e+00,3.981038788726620314e+00
-4.202446769877865584e+00,1.214688198588897150e-01,-1.458205107102390485e-01
-9.446208512616154351e-01,5.534282756085841942e-02,1.157612117359050785e+00
1.528988232463938779e+00,-5.731877536654041982e+00,-5.448389417960487258e+00
5.282506716828406113e+00,-1.328262412856802355e+00,-7.800678396627499511e-01
-5.423461502258417610e+00,-2.665383110547820511e+00,-5.243012554102804756e+00
6.383034885386957846e+00,-5.009648811306011140e+00,-4.943295960329725514e-01
-2.482419151601456875e+00,-4.389279683369750273e+00,-4.994921567760105680e-02
-6.169915607030741489e-01,-7.258539243930163920e+00,-8.753682595438125880e-01
3.518337389419612937e-01,-6.888449110073906478e-01,-8.133490167306558050e+00
-3.625326907022111911e+00,-1.372039527114008228e+00,-1.292215245967270887e+00
2.363748098534318220e+00,-7.490380705598955302e+00,2.678003550917934739e+00
-3.579647317245436611e+00,3.575082545493464270e+00,4.643742374211536905e-01
-4.161100052941148597e+00,6.659228783670212870e+00,-1.996419690776542577e+00
-3.780721379556945205e+00,4.450873485062433410e+00,1.788923967836299367e+00
4.145699277306447605e+00,7.456753734949856938e-01,7.078459433360440478e+00
-4.761295370886568512e-01,2.747563251087696390e+00,-3.382138438739599628e+00
6.726959976239831329e-01,-4.742623992503046004e+00,2.267997884265960273e+00
1.402397910982783991e+00,3.858970789563095583e+00,4.595424318534327313e+00
-1.486661465720010011e-01,-6.891982803049734319e-01,-4.536474071134951380e+00
5.441963981634274639e-01,3.214433933584046610e+00,5.920477268540707882e+00
1.544115471782463722e-01,4.103922810560243661e+00,-5.475005544163029647e+00
-7.545485945815530116e+00,1.017229832304121118e+00,-1.460107363027093319e+00
-1.623037790182409568e+00,7.648036240679354947e+00,-2.561565939992437979e+00
2.362931424490173349e+00,2.068379377086658533e+00,7.313357275905511656e+00
-3.005098950178343831e+00,-3.538396288254662458e+00,4.914661853216116538e-02
-6.057631010076041100e+00,-1.144825320434677440e+00,3.895058621619936101e+00
-1.152761546446346319e+00,-3.938168726140400810e+00,7.660540359346696970e-01
-1.605776597324565236e+00,-7.513947902145259761e+00,-2.306533465958295448e+00
-2.092660034739292740e+00,-6.690920112061494729e-01,3.823358433169506743e+00
-5.298006066763917943e+00,-5.521356676371574679e+00,-1.781091019261732633e+00
2.577591008887565316e+00,-1.504800158448539760e+00,-5.599177280724400241e+00
5.776472415989786668e+00,-5.680610641487841228e+00,2.282912198597828013e+00
4.110577907154898014e+00,-3.876255906988041566e+00,-4.070719177727911919e+00
-7.479272290907248433e+00,7.877665381155302127e-02,2.608585466551253340e+00
2.711025227595614595e+00,4.166866046631499287e+00,-2.661501776894616533e+00
-4.363429588993001040e+00,-4.572466302227859103e+00,-2.295718248096186631e+00
-1.190962445764435884e+00,6.283922031548840437e+00,4.336830053822083642e+00
-7.955521038442059378e+00,5.428981826106643593e-01,1.605427644720345493e+00
9.310794891776490445e-01,-3.252646713797414879e+00,-3.629265920789073618e+00
1.730785846519076410e+00,-3.914902338300972229e+00,5.912143113225162949e+00
6.604450346123033277e+00,-5.289548713503958721e-01,-1.782365644498159929e+00
1.022248574106825875e-01,-5.091352694301712667e+00,-2.230132900984262978e+00
1.451765637822876709e+00,3.935511449662353334e-01,-2.348182099163215408e+00
3.482309861765594317e+00,-7.611955770620674189e-01,2.220789393423549196e+00
-2.472628340973411110e+00,3.477435134365550740e-01,7.686654454269399750e+00
2.180113594871360583e+00,-5.103970535616193516e+00,1.942507653584593319e+00
3.018493734836856568e+00,-1.081500242507033721e-01,-7.179719137276872054e-01
5.949153852159096090e+00,1.633805443053655493e+00,-2.126312125352137539e+00
-4.015852020260896049e-01,-4.072235546735359257e+00,1.283030150773849076e+00
2.870454810186943817e+00,7.417183344415344770e+00,-9.554393978679728283e-01
-2.617249215254946471e+00,4.627973110235346965e+00,5.844237478067644265e-01
-1.988625744376539828e+00,-4.248006036407389274e+00,4.670108220029686841e+00
1.510381282276900716e+00,3.689014986764068138e-01,5.941023701461109141e+00
-9.556078955624054405e-01,-2.560375511973810525e+00,3.030012089560284450e-01
-6.972799539542540614e+00,-8.022042126602854095e-01,4.248204777741199756e+00
-3.677223453999194813e+00,1.987929337029466392e+00,-3.548659697089481480e+00
6.460705193627695131e+00,1.321780414115247604e+00,-5.206489771755946627e+00
2.453605821229867701e+00,-3.671785250241222265e+00,-3.962414090813949130e+00
-1.425318809838788559e+00,-1.659968695559117968e+00,3.159450331269242351e+00
4.056767664492886283e+00,7.263536944349437974e+00,1.978544042393997615e-01
-4.774446339703164455e+00,4.112834085639551773e+00,-2.979055824118832962e+00
-1.861738812601675119e-01,1.462133279836136390e+00,4.303774909644531577e-01
-3.567889116557787954e+00,2.583701118379905792e-01,7.348245207920387045e+00
3.478137557860158324e+00,-2.338523712469702254e+00,5.225849977668868718e+00
2.763941833986141572e-01,-2.693726720475726033e+00,4.876375417137615464e+00
-7.834954274235334637e+00,2.292364100883518274e-01,3.113622947368958727e+00
-4.029123923274593899e+00,2.236374141473551180e+00,1.194209045928209534e+00
-6.213001127284783820e+00,-1.157562084241180678e+00,-3.039440788291779327e+00
9.304141780851290511e-01,-1.560237326857276230e+00,6.487878137890169761e+00
5.816588300060129058e+00,-4.392272344696940500e+00,-2.191837907445832290e+00
4.283157011062048269e+00,5.591739049911305770e+00,-1.851068050789433039e+00
2.327892191045393577e+00,-5.050962098297649971e-01,-3.163301168075947967e+00
-4.830229237364239481e+00,3.156067324668396346e+00,6.521750410602020764e-01
5.809752000849346842e+00,-3.478699810156881345e+00,-2.592118745231298815e-01
6.405149664008248145e+00,-1.522482781398368568e+00,-3.367520128308915117e-01
1.381103687164225047e+00,5.063563227638097075e+00,-3.809392611348942470e+00
7.117662129814344985e-01,3.997234384715413924e+00,6.505648492381277848e+00
-1.542054276613488706e-01,1.752187371737168542e+00,-1.974580930921283395e+00
-3.062172270294110987e+00,5.334038583998116145e+00,4.558052141683997860e+00
7.568042651684717903e+00,2.084653021705453746e+00,-2.729105203041276351e+00
-4.645431983477797400e-01,7.221844826001770024e+00,1.525448438268747653e+00
1.587997238496720920e+00,8.214070457977766804e-01,-2.892639418486841141e+00
5.526734122560693407e+00,4.200401232153175846e-01,-2.009671733305431918e+00
-3.258349084960600717e+00,4.442061377235416941e+00,3.932336224628968147e+00
-3.542696325829742143e+00,-2.189866414386635096e+00,-4.079988352602257479e-02
3.320812176568876062e+00,-6.740123184952351743e+00,-1.869787697584794239e+00
-6.766933236988483813e-01,-4.303153238801276537e+00,2.527106205218271562e+00
-2.577293346987420630e+00,3.285403159750425406e+00,-4.023811773376980483e+00
8.241521583857756017e-01,3.280806506020424784e+00,-7.265608577971796045e+00
7.690593913068490828e+00,4.241964756552388804e-01,2.600133858264791265e+00
-2.521680316788908804e+00,-5.617568116651483479e+00,-1.785840951012970468e+00
3.775437522046236172e+00,-4.907751437829201535e+00,4.776351778076910470e+00
3.986402511117670966e-01,-2.913331261456129972e+00,-6.209693068262032156e+00
-1.645895514393346915e+00,-2.299049112689617314e+00,-5.981284909005627703e+00
3.084405813236667182e+00,7.004994778339865391e+00,-3.224265911335847168e+00
3.997532254741938740e+00,2.840314549927995369e+00,4.595827256150187279e-01
7.386094817034483562e+00,3.156627790908011488e-01,2.597297553121310720e+00
-2.702155047601695781e+00,1.179054146677949833e+00,-6.527568903290708491e+00
6.769189077756625483e-01,3.870752840339714673e+00,-5.495535701621836466e+00
2.855488961956735405e+00,2.114620928307147096e+00,1.312895158376045757e+00
6.521039945811734739e+00,-2.268451661893761795e+00,3.389826842587880251e-01
3.254191070153857446e+00,-2.374547542081898222e+00,5.351207689345457652e+00
2.986447099478796385e+00,-1.336057589981841431e+00,5.699946154723853908e-01
3.019047818574893238e+00,-4.034220904393794327e-01,-5.497833263295031969e+00
2.651352885067518095e+00,-2.938167284266650636e-01,-3.688151900384211590e+00
-1.404144509060153201e+00,6.414588758132909518e+00,-2.722208950595867538e+00
-3.128887208592608271e+00,-6.209266251037281137e+00,3.103271856111773364e+00
6.144621635474356580e+00,-1.875324745652431124e+00,5.051498368942136885e+00
2.443726505226903267e+00,7.753442901873297544e+00,-6.443627562808118547e-01
-9.690591155445336113e-01,-4.632497913554200153e+00,-6.681880520819523994e+00
1.519702741852061889e+00,1.054960040133124055e+00,6.399736615034470333e+00
-5.416037426309396885e+00,4.415032696014214442e-01,-1.181465392120549573e+00
7.691201463301258201e+00,2.187942335490211665e+00,2.683199442469281770e+00
5.005546056444206471e+00,-4.611826457684529146e+00,-3.583209253930046412e+00
5.249847548067538838e-01,1.160625123225299982e+00,8.347756700093789561e+00
-2.526565664715517467e+00,-4.683852537653638848e+00,3.651748186157939724e+00
-5.440016238671654847e+00,6.656430537772978218e-01,-6.409287304881099878e+00
-4.621815113688269250e+00,5.639446690665515405e+00,1.881274037878767569e+00
2.112314467498382697e+00,7.477504190212231450e+00,5.209196441163102542e-02
1.029191338023751623e+00,4.184890795073114234e+00,2.682221726077998802e+00
-2.067132373148467650e+00,-1.684343163105353813e+00,-2.150510676594258097e+00
1.470397418569853620e+00,6.709965651007916421e+00,-1.673742020735002611e-01
3.197358823918101223e+00,-2.894308006910873310e+00,1.532222149479640860e+00
2.751136762597142238e-01,-2.327198844573767023e+00,-1.139533134082133303e+00
5.214990767986403597e+00,-4.200469244045017980e+00,1.674537669456374944e+00
-4.174324464348768693e+00,5.675379275782685085e+00,7.063656827526586524e-01
-2.360698072799507052e+00,2.705145446250360575e+00,-5.461172361717770762e+00
-4.476253863264665789e+00,-2.942669445804616535e-01,-2.123535553806954024e+00
-4.044344057248697943e+00,2.746136001475874888e+00,5.997067381012167075e+00
-3.057355022955990709e+00,-2.208419551499704259e+00,-7.329989229663010697e+00
1.322448758980775141e-04,1.074305159261633863e-01,6.153140033293301947e+00
-5.344509072188036392e+00,6.915159788565481414e-01,-2.373948913379654524e+00
-3.252994373037055631e+00,-9.351191683870673232e-01,1.719068434647373467e+00
5.892290552323373731e+00,3.076693601197912353e-01,4.137853981577746865e+00
9.367806366977947663e-01,6.186581587745506816e+00,4.312930170676136044e+00
-2.279927690398113160e+00,5.801776034631772383e+00,2.073757047184163760e+00
4.060690099954604171e-01,-2.914424682591507665e+00,5.820518533183198784e+00
-2.643296225476825967e+00,2.414532685566002090e+00,4.365869322547069942e+00
-6.978797465426217705e+00,-4.713203005148201212e-04,-2.756183974880101584e+00
-2.082836237152943859e+00,-1.984758295914798021e-01,-3.595554178082888352e+00
-7.323980746219652893e+00,2.944841643574831913e+00,-2.690811610765975193e-01
-1.516273143043775695e+00,5.381865002222088634e+00,-5.095965432876754519e+00
-5.541661885455653191e+00,2.130689259937381230e+00,3.136146364018007393e+00
-1.537987985619484910e+00,6.158809278695016154e+00,5.501357822844748391e+00
-5.132439577012573473e+00,-4.053847964698514161e+00,-4.814278128729291062e+00
-4.742274363691313610e+00,-4.406774089863449539e+00,2.059791521581805007e+00
-3.177607950920219970e+00,2.316247238030676225e+00,5.725221530526647840e+00
-2.271187373356435391e+00,-2.959285720157744382e-01,2.423006266418445520e+00
1.208675490276378550e+00,4.959618115410828310e+00,-1.085951589215764734e+00
3.969037152464795604e+00,2.577278849199705846e+00,2.814871762221360374e+00
-1.700077307218260891e+00,4.993374474724470602e+00,3.452237010690048180e+00
-4.011589056656212016e+00,3.966773733786834177e-01,-2.378523424837815980e+00
3.017422175415882979e+00,2.548272041951779698e+00,7.009365020772790444e+00
-3.312939284809635954e+00,4.235753664312531974e+00,-1.725812195600782140e+00
-1.956568105732131801e+00,5.386110612721958013e+00,6.247112838150372660e+00
1.301076612087737061e+00,-2.921639392318358119e+00,-3.866161980341196180e+00
4.582628775907097163e-01,6.640997423682971856e+00,-2.622606407231705461e+00
5.628279926765984875e+00,-2.477959785732504194e+00,2.542674085964029551e+00
5.295076745840292531e+00,3.263348004080822928e+00,-2.155813775598939497e+00
3.561552905119564016e+00,-1.109342500011766708e+00,1.384857459180494299e+00
9.122499056047913557e-01,-2.149193343487815433e+00,4.651889438467886606e+00
1.155710455435839945e+00,6.089049148783107768e+00,-5.081090498925751320e-02
1.544735773097279941e+00,1.695260323292589133e+00,-3.239695138544802067e+00
6.518796724756658056e-01,-6.065334505455925118e+00,-3.296232832064502905e+00
5.506263643702540733e+00,-4.900319286516317874e+00,-2.310828826615626053e+00
-6.512142662951298178e+00,-2.173099899899553211e+00,-1.812564704634819890e+00
1.652710720062943839e+00,-1.629218993990313669e+00,-5.025807601096423660e+00
-3.661772387866493728e-01,-4.739337734172834438e+00,8.936797002265524092e-01
7.222643039675433307e+00,-1.765803896263670181e+00,-5.441343031439612732e-01
-6.035516541867864682e+00,4.703479447280860093e+00,-1.423418365518881901e+00
-3.355975044168930665e+00,4.079122379252704711e+00,-4.411624869850363950e+00
-2.731996246382972782e+00,-1.857561876955137414e+00,-5.072492002158377034e+00
5.137423814703396374e+00,5.612584861343743903e+00,-2.194677007933559576e+00
3.713387422945420568e-01,1.142598526115218505e+00,-1.765144648502333879e+00
-5.566972210685351641e+00,6.036066100632769826e-01,4.500898033888645067e+00
-1.755113090136468212e+00,5.709179055659532764e+00,-4.363327621860508820e+00
-2.346254613690636592e+00,4.042682340592653745e+00,2.707634021218042086e+00
3.048951028784086859e+00,2.670091758796381942e+00,-1.168275299708691373e+00
-3.342403874317825263e+00,4.442615253888518190e+00,-3.836190912135233333e+00
1.025715763057510221e+00,3.581606765948268656e+00,3.852899207715327012e+00
2.701929085482675852e+00,5.088534421683958975e+00,-1.889518709467529867e+00
1.218581354864094468e+00,-4.905063618650778778e+00,2.322362255124844399e+00
5.046462433916783397e+00,-2.042133503524812266e+00,-5.346680448817570763e+00
-9.292250854486711065e-01,3.928077615888663221e+00,-6.802380877471397191e+00
2.293183206289615139e+00,-2.640013416924997802e+00,1.697614151889912382e+00
1.975986331593579282e+00,-2.585443602722977463e+00,-9.749451846276222522e-01
-6.140289875790937657e+00,-4.700181342165092424e+00,-2.418273609291790471e+00
2.408695431636058704e+00,8.597684310793742846e-01,-1.961970262415272837e+00
-1.068032214794469192e+00,-3.903110348569398980e+00,-5.213437247356899285e+00
-1.847308168283031404e-01,8.012704284836795476e-02,-4.289197534107176857e+00
6.285479431721034516e+00,1.043195183099486334e+00,-5.000747509300746074e+00
-6.965735644650936642e+00,-4.321268259410001811e+00,1.794892702501041049e+00
-1.549693838416080105e+00,-7.872261677674802449e+00,1.326985472016456225e+00
-1.271527121471625277e+00,-2.899127270498226938e+00,3.983973506002253639e+00
-7.216338723532386368e+00,-1.001398685505531017e+00,-1.579470410486573995e+00
-7.730351364623367694e+00,-3.710090691144138364e-02,1.649326755002033185e+00
-5.052448300386091162e+00,-2.642127675532693676e+00,-3.342407944275910037e+00
5.458674366485450236e+00,-4.336150482176563514e+00,-4.175254476604029819e+00
-1.093609784987319200e+00,-5.657112905263920410e+00,4.214885897019176042e+00
-4.488894716594435508e+00,-2.002811335674394844e+00,-5.267940970628758102e+00
2.070646966832677682e-01,5.689252012594110397e+00,3.432295786040238550e+00
4.074070899677658453e+00,-5.561040327506379555e+00,-4.194386914642218578e+00
1.299022319131685421e+00,2.872338927511373541e+00,7.468948407212065987e+00
-5.127713646274666415e-01,-2.849217369106383568e+00,-5.902783868325828465e+00
6.824648355762806817e-01,-5.601467420025124433e+00,-6.821030944082207004e-01
-1.379373723637910443e+00,-3.954556601537481342e+00,-6.716619686112040633e+00
2.136761339585727448e+00,6.162056944729072505e+00,-2.899518995547011091e+00
3.515076461191211976e+00,-1.802272284062467644e+00,5.244629761785893685e+00
-1.870695203790724737e+00,2.607255702885575843e+00,6.653983019753145989e+00
-5.531445092818744413e+00,5.318993037249351907e+00,3.726748367161056841e-01
-9.114940461614656417e-03,5.032013098619577463e+00,-5.421765568809842506e+00
6.374367236116880164e+00,5.472189096410181364e+00,-1.022371354826372647e+00
5.471232312470548642e+00,2.156831974690635256e+00,6.710281750155056013e-01
4.259557832693441348e+00,-9.544753284812528271e-01,-1.570553408936044448e+00
2.995681125492087205e+00,-4.345746423520240320e+00,4.953566796268114025e+00
-7.009541581241697905e+00,-8.430238212186823565e-01,-2.380070105188158092e+00
-8.880485635960891910e-01,2.037793379278133532e+00,-3.952774424561883215e+00
-2.734778776691975111e+00,1.187863226918278031e-01,6.698033934074956619e+00
1.270359278122273894e+00,-3.419657146711204909e+00,-1.901080998470724426e+00
3.529079574744366177e+00,-1.463845467053309868e+00,-3.245249639029879063e+00
1.301023424844901966e+00,6.237336537138384429e+00,1.252575608607269464e+00
1.683890225699820498e+00,-4.551352848607130852e+00,1.928413617890198273e+00
-2.210699429971953567e+00,2.254681814285382835e+00,-4.527326777473462904e+00
-2.114495708439565025e+00,-3.726433888181861498e+00,-2.465037822312434290e+00
-1.814095568753926191e+00,-5.926753314545888385e-01,-1.695129567801620107e-01
-6.417736643115846462e+00,-4.252002865374999718e-01,1.248978938082460077e-01
-4.259478589528939985e+00,-4.418414395562576757e+00,-4.402028017438139429e+00
-3.541786610291862925e+00,-2.958032300035258633e+00,2.850040121224598488e-01
4.052459863428352627e+00,-4.047349104150032240e+00,-3.874777007941757612e-01
-7.180231298141738883e+00,2.244903333175864102e+00,-3.302575664201723438e+00
2.992777937545266997e+00,-5.707850754638148949e+00,-4.738288564130549219e+00
-5.443182115209001637e+00,5.665034917847018292e+00,1.633553828430602817e+00
-8.338645341809600708e-01,-4.634596894207668072e+00,7.026188439346082504e+00
-1.936039780217477801e+00,-1.111975283836820427e+00,-7.630836349516501471e+00
-4.555521622401733417e+00,-2.463496809473216587e+00,2.523024881401827013e+00
3.500918191216175201e-01,6.205351158793884991e+00,4.895225042132916871e-01
-4.999120578711092833e+00,-6.056101758443841021e+00,4.302082044334132327e-01
3.724182083530196419e+00,1.376804733269655356e-01,3.208657850570842296e+00
7.704032304686001531e+00,-3.258031888559872247e+00,1.596517251659989312e-01
7.726002072072121862e+00,-1.260346241551922875e+00,2.008187386541728792e+00
2.331162117469089079e+00,4.946938273290662380e+00,-2.707943612024549918e+00
3.296949600851694306e+00,5.889210714992413997e+00,-4.957298792431289236e+00
-4.310688292843988023e+00,-1.918680869868483629e+00,4.035413740858186493e+00
4.574871049443555826e+00,-6.755590076410149969e+00,6.159172391337112279e-02
-5.489582495218943592e+00,2.398394534327393579e+00,5.256306430036006283e+00
6.877274596014802677e-03,4.392143050393501724e+00,3.451719692271609130e+00
-4.907634215484746321e+00,4.694584589073045322e+00,-9.918526194101533189e-02
-4.077393999315232165e+00,1.548817276925140707e+00,-5.483792896227559055e+00
4.400780291929342170e+00,-2.100241474551507448e+00,-5.179130211264073580e+00
3.306751662138980752e+00,3.169313523730285187e+00,3.570942641807758555e+00
-2.823302282408407748e+00,4.531557068550322143e+00,-2.983613584385385487e+00
4.254031222634173659e+00,7.561559123082358669e-01,-5.530690471670760999e+00
5.114173224701922926e+00,-4.571564947063524897e+00,-2.230503069151685391e+00
6.929410177583673891e-02,4.740659462464200224e+00,1.627047085303910290e+00
2.975336949057836744e+00,-5.321837536549132608e+00,-2.967281860040035468e+00
-6.948473195762860932e+00,7.992543178377882196e-01,1.217931383049817740e+00
4.883669310362159344e+00,1.813854221723048443e+00,-3.204112701502072280e+00
-1.228993442460467378e+00,6.692111520351280429e-01,-6.620089475385049660e+00
8.191747155242312672e+00,-4.630117038602952206e-01,1.783794992279954306e+00
1.308491282836457437e+00,3.256466419922091404e+00,-5.158237206880518677e+00
3.409104168081952935e+00,1.090168729293197636e+00,3.303403675351100688e+00
3.337854090968042531e+00,2.671364810361604114e+00,-2.822353446707091429e+00
-5.600311715169130622e+00,5.411350676940127613e+00,-2.653839401548655719e+00
-6.571056800697464340e+00,1.077502134814397383e+00,-6.550587618270752310e-01
-1.233590835800126850e+00,7.245900232758234694e+00,3.733033714368304778e+00
-4.915850909567561544e+00,-1.579117195172363042e+00,-3.235503545481347665e+00
1.777697211527048404e+00,-1.106441417113746967e-01,5.685796542289646816e+00
8.659051842109297126e-02,-6.937760884097334824e+00,9.743198765404282868e-01
1.212849932672094289e+00,6.593805674751222590e+00,1.748213216104835821e+00
4.037489846276470784e-01,-6.052041446690660464e+00,4.655301486623182328e+00
2.080531836549630142e+00,-3.504751921341640486e+00,-7.270932501521906843e+00
6.839576310719161611e+00,3.085640293947649049e+00,3.357667866303247539e+00
-1.373099153115684978e-01,1.628396359006017979e+00,-2.728384492441115583e+00
-3.901446671032514413e+00,-6.724598302374149128e+00,7.520634278149191942e-01
3.613056786129125175e+00,-1.178889777776308323e+00,2.362158745880220678e+00
6.240670248387355734e+00,-1.807188480656015894e+00,3.178159650006990855e+00
-3.376954681093340849e+00,1.901246525135147580e+00,3.106379893069558751e+00
2.738643365568845134e+00,1.490996062390051724e-01,-4.943524696866292700e+00
3.580496317823353980e+00,-3.209386093330263812e+00,-3.294173298144885909e+00
-3.161602980165480137e+00,5.103987753745074407e+00,-6.547452345822760700e-01
3.808496608553295193e+00,1.337666046468715120e+00,1.291975772018070234e+00
-4.475175069459365496e+00,5.048406143329607687e+00,-4.899989690729060321e+00
-1.985016705767922218e+00,1.776209251150169921e+00,-7.693068621453283740e+00
-5.010235182143921051e+00,-1.205102103640202316e+00,5.933639453192760094e+00
-5.142514143929759918e+00,5.758789645696417381e+00,1.754602967934120183e+00
9.679191728159137753e-01,-3.511114819877755089e+00,2.083337335475275331e+00
-5.926378048450214209e+00,-4.833042980876053885e-01,2.227908430621879710e+00
2.050794682242780276e+00,6.184642974942469174e-01,-2.066539397836244518e+00
-7.683817432702477745e+00,-1.677114787720053624e+00,-2.889307886444451690e+00
-3.777396021799018566e+00,1.562159201913826845e+00,4.501025678626303872e+00
-2.507051721705401359e+00,-1.097198117500476799e+00,6.893870432800172310e+00
-3.496687250791416179e+00,-2.471791188156452213e-01,-5.594446775596171761e+00
2.567845368718704169e+00,-6.098661693973052023e-01,4.765107749316641161e+00
-3.687298747109806207e+00,1.157788036673805587e+00,3.895973221846082968e+00
-2.443790744889712929e+00,1.663571894464305645e+00,2.576493714028452064e+00
4.361707338309170900e+00,3.401219612945961757e+00,-5.852073324728642945e+00
-4.222462827774487337e+00,5.790936467607401106e+00,1.981703270214651980e-01
-5.572579742111492429e+00,3.480895119587232411e+00,-4.448858150017950486e+00
-7.960276749389825213e-01,-6.066135301545708458e+00,4.352393524492424781e+00
5.148414338017023972e+00,-5.610910717058986918e+00,1.726956839285521128e-01
5.730195021975307945e+00,-2.074723129026967150e-01,3.177719733767440768e+00
3.830355646794839641e-01,-9.503036992162955388e-02,-5.704680731753033029e+00
-6.934905959655711882e+00,-1.321465426664249820e+00,-3.788314064417968030e+00
-4.245550968743787124e+00,-2.235732384802624928e+00,2.787106142086581251e+00
-5.734443989997912716e+00,2.188558437782788246e+00,2.096429307308548484e+00
1.322863918163430519e+00,2.206996380042740569e+00,2.133863293711919074e+00
-2.228144842215169952e+00,2.721533492467630655e+00,3.467650051166345726e+00
-5.673270896741848368e+00,-1.464766598562830868e+00,1.430042940984805000e+00
-1.618003756767894680e-02,-5.873705408475664136e+00,-9.521452148411723160e-01
-1.821651393792600437e+00,-2.316769729607848660e+00,4.270166262868285045e+00
