-1.090739611637729478e+00,-2.177549681955400995e+00,-3.616201275782680469e+00
1.449832041516802894e+00,2.679619812764634457e+00,-2.762557081267489334e+00
-1.097864010962438019e+00,-1.374930811868533276e-01,-1.961542038527562148e+00
1.422491567727737771e-01,-2.085810521679152263e+00,-1.033114695783168946e+00
2.157185102001706323e+00,2.486083909456981988e+00,-1.762321587610274243e+00
1.338721464342815248e-01,2.816039205988598582e+00,1.878567543913892246e+00
3.579357970689679203e+00,-1.038982780091329827e-01,-1.277661197384481195e-01
-3.655304270036030534e+00,-1.066444673569299839e+00,1.687981734242342435e+00
-3.259370224716408693e+00,-1.323358921845546821e+00,9.897009456754293222e-01
2.383465086359693785e+00,-1.332556561832033415e+00,1.454600327352831401e+00
9.512636043481627057e-01,3.229521197283171663e+00,1.866852679354338518e+00
3.286089566093048919e-01,-2.251652018435382097e+00,7.564385051260162918e-01
2.355516302968505116e+00,8.162873030635154903e-01,2.438458456567285104e+00
-1.570319352598540164e+00,2.264441156367472008e+00,-5.479788657716806455e-01
-2.771093893931413366e+00,-6.242567683465483075e-01,3.167271821963905110e-01
-6.464055678134384975e-01,2.878846465860747550e+00,3.092293806021745528e+00
-2.988861106105271226e+00,1.025242637885347641e+00,-4.741442188466540864e-02
8.972600481302187569e-01,1.348743249398435040e+00,-6.151990725710339003e-01
-1.372365770532222529e+00,-2.187327825561847128e+00,-3.100386577066796878e+00
-2.502834035631455567e+00,5.047192576831363575e-02,4.491942097288947333e-01
1.975041752889449720e+00,2.531057679395166460e+00,1.167188690662298856e-01
5.685915633392542023e-01,2.108219066713391321e+00,-2.347001926363501578e+00
-2.948630228920468888e+00,3.675453998747159057e-01,-1.096910973779532394e+00
-1.347676935015702071e+00,-7.360215431249295115e-01,2.652177333470192022e-01
-2.346950441515266661e+00,2.196530985120200619e+00,-2.522309176021197419e-01
-1.766807216289250304e+00,1.723300621471593130e+00,-1.853550170717323808e-01
1.094348897202660487e+00,2.148923072520954491e+00,3.258081150134141346e+00
2.717622601804356108e+00,-2.627803243256772725e-01,-1.567113792504436942e+00
-3.785640004838020101e-01,-1.364199689685767991e+00,-1.980420764542477841e+00
-3.418149262470841609e+00,-1.278027028213654992e+00,-2.185737530458951472e+00
-8.036974803496061970e-01,-3.147499354148389550e+00,3.322748386179902980e+00
-3.246586846865885945e-01,1.467850864924268306e+00,-2.511066469138269142e+00
3.689951133737481848e-01,-2.569668625509244353e-01,-2.028155647116560711e+00
-9.730911680389654483e-01,-1.025673761839534848e+00,-1.358317809590168901e+00
-1.228318938764157986e+00,-2.852271694877832164e+00,1.404956966774254745e+00
-2.334482024354278096e+00,-1.363446722584273907e+00,4.411654375618964785e+00
-3.019925810982697634e+00,1.061876560106255862e+00,9.302473999181334330e-01
2.762755714816548913e+00,-8.067777411109440244e-01,1.936430571869663053e+00
2.027857361727427588e+00,5.396461191472934349e-01,-3.503316385316472270e-01
2.721191543341983543e+00,2.273102863591591305e+00,2.606339776452928803e+00
-5.508438411425664594e-01,7.664362003098396103e-01,1.875148390992996017e+00
-3.134905767712554692e+00,9.273852725945295195e-01,-3.888012855721464378e-01
-2.849910911995816587e-01,-1.757268713772757840e+00,-1.614397223285585214e+00
2.894182197579151516e+00,-4.438423818949093769e-01,1.211002168397069978e+00
4.362550779401196399e-01,3.433024483968111773e-01,-2.302680657288837196e+00
-1.441760475934431351e+00,-2.136194215615750736e+00,-2.023525262395063251e+00
2.433085306865341746e+00,6.340740323224505204e-01,1.294847513920760029e+00
9.228981939692668668e-01,1.770078971096835430e+00,-1.451527048844424295e+00
-7.960248678133002853e-01,2.227349083219168691e+00,2.812393564646644251e+00
2.819838099846219137e+00,-8.274382943403947588e-02,-1.309329586617701713e+00
1.398840081052198148e+00,-2.609709658799975518e+00,-1.161667655641339447e+00
4.008166971307866033e-01,1.599499522145108710e+00,3.835984821230953301e+00
-1.096953472741187152e+00,2.539021816875854487e+00,1.226750785233718721e+00
-1.161237205694980679e+00,-2.906865834357513112e+00,-4.658159862085247127e-01
-7.156952664914905116e-01,-2.271590075867936154e+00,9.903994366083024303e-02
2.243694470521776285e+00,-3.101138686563935098e-01,2.423432136531636250e+00
2.481124020214671988e-01,2.683886806573211992e+00,3.451719648526891504e+00
3.455961816930543051e+00,-2.682426485425707163e+00,1.257220335228950381e+00
-8.953379817491815551e-01,6.374636037682200884e-01,2.677559038477443476e+00
1.933843541478598382e+00,-1.213307628609064492e+00,-1.754451875302423636e+00
2.255459849075926115e+00,-9.875475671805611366e-01,-6.761553187170441515e-01
1.207607555781583741e+00,2.876708423320873731e+00,2.157289564053367137e+00
2.006287507614083587e+00,-3.254242667912736309e+00,-1.177505233538500215e-02
-2.701259548727797721e+00,2.036126060453582021e+00,-1.094456443999024975e+00
-1.045797469409709191e+00,7.674890538782916938e-01,-1.817256452509092179e+00
-7.559461809089003115e-01,2.920689208011373328e+00,-2.015058081995668271e+00
-3.004121560922043965e-01,7.398083129374752875e-01,3.763460457657805236e+00
-7.919534093131253005e-01,-3.000057080841677326e+00,-4.377632048558017797e-01
1.578638166651196606e+00,-1.546256894744234278e-01,-6.113373127815688868e-01
8.636728914288754888e-01,1.119952253279052012e+00,2.781252717596505164e+00
-8.671626881319192126e-01,2.373801363583289525e+00,2.881197439452413689e-01
-1.386201246946152654e-01,2.293135494110379646e+00,1.333062054194300572e+00
3.645765509515639824e+00,8.063474682894316015e-01,7.728918715068712197e-01
-3.435925449436962875e+00,-1.054790332382632645e+00,-3.317297067620103568e-01
3.422142593493732732e-01,2.573410675464395503e+00,2.251181723230317289e+00
1.497068011175718139e-01,-2.441184915528770982e-01,3.399751597962828331e+00
-6.077685964412578024e-01,3.024236900244563042e+00,-2.273937820135305543e+00
8.880332419076288064e-02,1.241385984229783856e+00,3.880240641349817388e+00
-8.667012793194764919e-01,2.681797963616700198e+00,-2.012740614802431161e+00
2.755270359725824569e+00,1.084565659914721980e+00,2.282722346273961464e-02
2.031242495562179062e+00,-5.161948422324452723e-02,-2.064611629639505175e+00
-5.352201575895327744e-04,2.836062492418588210e+00,2.073112197977680093e+00
4.280101557106847920e-01,4.880543354180635340e-01,-6.161817829187850037e-01
-9.832264729977061579e-01,-2.067174526653014599e+00,2.576820447460746788e+00
1.853812226591904921e-01,9.086912620624350012e-01,1.202085606693110043e+00
-1.980730686383149530e+00,-9.000647464308562939e-02,1.800037018609536466e+00
-2.632509339559421235e-01,-4.579421165200400767e-01,2.753555302963429652e-01
3.419955932584368696e-01,1.247482445566255177e-01,-2.575672961252545967e+00
-1.261779611482424235e+00,-2.727381205349387550e+00,-1.941789400595192117e+00
3.569238366545774088e+00,1.124012537609358153e+00,4.905263153241071206e-01
-8.834195637192948647e-01,7.188339080013448346e-01,2.167309739599602825e+00
-1.247169651270591428e+00,-6.926987214112089175e-01,3.287072712212190662e-01
1.822444672398090493e+00,1.556799133097839238e+00,-2.662672875372125603e+00
8.224374254366779713e-01,-2.745078694019353449e+00,-1.683891052243516429e+00
-2.626144675805262896e+00,-1.861699692055245325e+00,2.014492508892842704e+00
1.352767709649769445e+00,6.520332790686589330e-02,2.642101833338504235e+00
-7.652495746563180434e-01,5.931843972490273842e-01,2.515788324684838706e+00
-2.413390599211719945e+00,-2.365661947149244160e+00,9.115082338554073571e-01
4.909652915828822684e-01,-3.071570878749483757e+00,3.689784846847222188e-01
-1.577863456020843547e+00,-9.561387899625595210e-01,-1.609663309229940886e-01
-4.891889104489353102e-01,3.875097470797623789e+00,1.810934044910851748e+00
-2.152438381341103657e+00,-2.278689223651945372e+00,-2.561526373647931010e+00
-2.752092208606685908e+00,4.054116156414739325e-01,-1.665350012243579370e+00
-3.169926226367633104e-01,-1.140968647160316651e+00,-1.564864424310899116e+00
1.064268282812178779e+00,6.533680878467041930e-01,-3.188145296838527543e+00
2.216879502104840416e+00,9.177778224461851098e-01,2.982449982551100831e-01
-7.623052518445265768e-01,2.407651929328312956e+00,3.512566087329312747e+00
2.357567165247520524e+00,2.271054493367948290e-01,2.064394762297809383e+00
2.771853078043284846e+00,1.819937386519789646e+00,-1.719600335752014431e+00
1.971806670833820219e+00,-2.873302157144555391e+00,-6.637009895615979538e-01
-1.765294558237137101e+00,5.001429149632824478e-01,-1.481133750946934224e+00
1.792636324514611079e+00,1.453636839006253068e+00,2.916331422898172043e+00
9.279930768654089945e-01,7.927644873168290807e-02,-3.175785266378322813e+00
-3.383912882617625684e+00,-1.392592174455239196e+00,1.607516740889820106e+00
-1.407669256388887957e+00,5.861750021599075877e-01,-2.082335279159297503e+00
1.415597115132976036e+00,-3.557397901475629620e+00,7.243919070308676988e-02
1.720569657719977386e+00,2.377765713990505958e+00,2.058894598638752793e+00
-8.126337339574606355e-01,3.102792845372338792e+00,-1.537006728106225184e+00
-5.667213722253146013e-01,2.104426410874989717e+00,2.623968642939519924e+00
-1.584813218228069642e+00,3.672227675681661196e+00,2.766617546676966577e-01
1.798195466749242799e+00,-6.437015645369700279e-01,1.106776782343734888e+00
-1.183191687510146028e+00,-2.662539564130582903e+00,-2.131916994539280186e+00
2.240288841694973998e-01,-2.921007145232155544e+00,1.087946171676702045e+00
-3.914030542277018743e+00,-8.767715253654765339e-01,-7.880116749180140490e-01
1.791724451954028741e+00,-7.215265016493580541e-01,-1.071352942792890284e+00
5.460674641021284748e-01,2.781318047737838750e+00,-1.871510120517405618e+00
-9.540200554403044375e-01,-2.173893149090254107e-01,-3.226457215969489756e+00
-1.515460665558484799e+00,1.550135822488344362e+00,-4.652048435081069244e-01
2.571813509126521513e+00,-1.936686007130868914e-01,2.459946427108397615e-01
2.566774199833680381e+00,-1.435152945439502004e+00,6.205852596766555651e-01
-2.371918129563471422e-01,-1.415405479914749742e+00,-9.276815292307206695e-01
-2.554234013878393106e-01,3.312465061147728651e+00,-6.563933030894597564e-01
-2.358194318345257834e+00,1.171193867976726422e+00,-6.963422401393366545e-01
-6.088894370414622143e-02,3.140946222503218532e+00,2.494503515716163466e+00
-1.694846122041520742e+00,1.720158707626258332e+00,2.209822727229009964e-01
2.861953894040814461e+00,3.930892481477457623e-01,-1.059813146296898489e+00
2.440380433755148099e-02,-5.490301921430907894e-01,-3.125945938059010665e+00
-2.894483255988551385e+00,-9.919649650046595823e-01,1.587964941551462061e+00
7.911288912620426661e-01,-1.410305182655229084e+00,-1.010525815568884989e+00
-1.019617800753693126e+00,3.660706660288322478e+00,4.784387956210835458e-01
-6.011385578505000771e-01,2.062122621605308126e+00,-9.822062470522162636e-01
-8.112451601338730445e-01,4.196678573576098081e-01,1.275279235200704298e+00
1.624115602082447651e+00,1.173371096176102579e+00,-3.957811673679279441e+00
-2.086663155586693907e+00,-1.612520486348284265e+00,3.702638226665752708e+00
2.307352130012116920e+00,5.821289901338589923e-01,2.538015999415762280e+00
8.700096696123075235e-01,-1.383080001013816007e+00,2.980967093389491618e-01
-1.297112816729128815e+00,-2.899875946164633511e+00,3.461552166032584754e+00
8.130238065904918932e-01,9.110490272205129525e-01,-7.163265670190418488e-01
-1.534284319222254833e+00,4.166903343823197048e+00,-1.493393232080463262e+00
1.253374736374806675e+00,2.150841399099696627e+00,2.744681385118667105e+00
-8.563631300486512776e-01,7.318355179621042206e-01,1.249854922976285643e+00
-1.336157060919585637e+00,8.209250244794159823e-02,1.964680211648381469e+00
1.287232855352022254e+00,1.817184172047247692e+00,-3.390922836201278212e+00
-3.135483605354095094e+00,7.444009415950960662e-01,-1.837472567312349092e+00
8.489014956660063671e-01,2.530898343651372118e-01,6.438163720637702925e-01
-5.842197361746794826e-01,4.003505118645325211e+00,-1.376983782255961852e+00
-1.068795959135040441e+00,-1.986891153737338211e-01,8.605772185615618852e-01
-7.937744449656105594e-01,9.766739869346759972e-01,1.301578802529169909e+00
1.319890028574848717e+00,1.259635139409277238e-01,-7.128527633103006744e-01
3.541518102617233210e-01,-1.859238060395281611e+00,-3.233472135891146682e-01
-1.539822822245930700e+00,-2.397970046346227235e-01,1.069736512084374258e+00
-8.538696701355329433e-01,3.440928652610146798e+00,6.145144182242479047e-01
-2.483947286826889034e+00,9.151695518660268869e-01,-1.268726886747699956e+00
-8.046153737970956898e-01,1.633731415992197566e-01,-1.738319738886600296e+00
2.015493193757460944e+00,1.800768911705384223e+00,-1.308834021475310694e+00
6.895984063835688960e-02,-1.142196063062190514e-01,-1.412864285673017362e+00
1.395949666019885571e+00,-1.435804279596151423e+00,5.520033204170508023e-01
1.093315734356871349e+00,-1.981686427549539387e+00,-3.090921500401661248e+00
1.206396963781502629e+00,-2.428426216744012933e+00,2.052434319309971666e+00
-1.444109398025654301e+00,3.214401225397546913e+00,8.714640717013031335e-01
2.789611588426625932e+00,-1.585290341123705593e+00,3.536044298936876634e-02
2.702860366468274211e+00,-7.370193699777005669e-01,-6.588485484193313813e-01
2.929764526349299736e+00,-3.304113596961399946e+00,1.069885851631926510e+00
1.735660618603797944e+00,2.791391450906038352e-01,-3.066938900539571300e+00
-1.089160710605016735e+00,2.177993442626581899e+00,1.221753658825725619e+00
-1.445270404195191594e+00,3.528190489659385198e-01,4.100970151721224255e+00
1.671049478535888921e+00,-4.599910698255540442e-01,-1.450927063337473344e+00
2.087929221778264566e+00,-2.074156679463036834e+00,-7.628324029802560080e-01
-1.658691424450244867e+00,-2.387495734774948364e+00,-3.376428821778136413e+00
1.754253230041223466e+00,-5.183999612355595366e-01,2.003574179772144692e+00
2.216553519316405207e+00,1.998159717897480592e+00,1.383007091956712786e+00
9.715147130161819744e-01,6.076758921984599660e-01,-1.903236308829128864e+00
2.358678987116159309e+00,-2.794564650119006011e+00,2.325946769494029454e-01
-2.988335397326683296e+00,-6.454082459444844266e-01,-1.440238778875160275e+00
6.203167376724806337e-01,1.295770919014654243e+00,-9.696552850018582692e-01
3.016384577733411287e+00,-1.501490142383203219e+00,5.133607800996913273e-01
1.969353115048859904e+00,-4.365249673998675028e+00,1.614976319138980765e+00
-1.362474957180468627e+00,5.523143264631791283e-01,-1.485689941505241807e+00
-6.462670528810645632e-01,3.064034163303608782e+00,-2.058295979130180253e+00
-2.336834987657986140e+00,-7.207913977476056167e-02,2.356159959519606328e+00
-7.132421734516976031e-01,3.495052502936629502e+00,1.136746178944200991e-01
1.633322372093407360e+00,1.968292551845397531e+00,2.810611226093304715e-01
2.813986087355578647e+00,1.812562448457445408e+00,-2.270672173084031797e+00
4.431213117597094797e-01,-3.117438988249569221e+00,7.799227842246826414e-01
-9.408978530301804755e-01,1.761637349271384378e+00,1.275010647604008840e+00
3.049415218474883282e+00,4.889685487465585956e-01,-1.527905332332194277e+00
-1.694047686493569183e+00,1.106899723089844967e+00,-1.774167465884273875e+00
2.527146698747631426e+00,-1.342728691444102340e+00,-7.922477823587185108e-01
-1.034827406229708924e+00,1.539629239642970715e+00,1.283422882403232990e+00
-2.393476143479027929e+00,6.461010320775838478e-01,1.946538078573544439e+00
1.655652481967457568e-01,-2.113391055403542662e+00,-4.242796752863236875e+00
1.453557368852870901e+00,-3.129408139554614277e+00,-1.652326846998971588e+00
1.535126589007271170e+00,-8.488282780443572317e-01,-3.197069911893816840e+00
6.367964930729168305e-02,-1.529634795628165067e+00,2.802083194088127005e+00
-1.434601629190183525e+00,-1.270323819973880664e+00,3.023867533328608914e+00
7.995995113341047844e-01,-5.520905024081425028e-01,-2.389894039831325312e+00
2.534280620625813274e+00,-2.369432061994038108e+00,1.766189093406391963e+00
-1.386440177398338358e+00,-1.195655201062832407e-01,3.764471212074503192e+00
-1.550674358826238386e+00,-7.423755021190417969e-01,-1.729009167309929929e+00
-1.200171894029500974e+00,-2.397209466156830615e+00,-3.142407438877484527e+00
6.285371603307886579e-01,-3.947625986887875360e+00,-9.997121430520414243e-02
-1.235068233079007927e+00,-2.339465649463086994e+00,-2.327006340616085966e-01
-1.750077789613734058e+00,-8.199606449344403192e-01,-1.340881590638089316e+00
2.835362166179232091e+00,1.890508346629094838e+00,2.097510511985452908e+00
1.882713429527400395e+00,5.148224539670211986e-01,-1.305009514351982869e+00
3.364904537674544116e+00,-1.712139162470020445e-02,1.309304334691989258e+00
9.493783005787624907e-01,2.187215300946344865e+00,2.618887872772266423e+00
-4.398812467434666473e+00,-1.029418629233437521e+00,-1.366535291036851119e+00
3.841169552287332367e-01,-3.936155571927150820e+00,2.969660225830416875e-02
4.273833118102396966e+00,1.381100302601364849e+00,1.772907137590210125e+00
2.808200050812349247e+00,2.020045362761974772e+00,3.252859724581629725e-02
3.147554588557939237e+00,1.448901053795392579e+00,8.417592531151477653e-01
1.497368061017126717e+00,2.226711696531278317e+00,-1.254347436850676012e-01
1.799913823284228220e+00,-1.194979049704059770e+00,-1.654377012283286374e+00
2.598186851114264506e+00,9.214273794059224532e-01,1.067187361290437231e+00
2.058766110956059325e+00,-1.709846104469021855e+00,-5.190378109243003468e-01
3.144988381170480962e-01,9.160131673424850574e-01,4.156008814192969636e-01
-2.377129453486667376e+00,-1.257940236439146986e+00,4.194735681841974539e+00
1.030591959223391862e+00,1.075338468312897922e+00,-3.500860197299480614e+00
3.125294375264772717e-01,-3.833357080236111880e+00,-1.259596722327281260e+00
-4.633388602654314070e+00,-7.433161429022001609e-01,-1.287959269762132486e+00
-2.583888409025989930e+00,-4.235851506124842514e-01,-1.787612377569013811e+00
-1.996613970790875436e+00,-1.719919638004550499e+00,-1.464321645980032338e+00
-1.481758637291409886e-01,-2.525939588717026840e+00,2.826516600036565130e+00
9.786561916953018248e-02,3.222861474891900890e+00,-1.058869323986797673e+00
2.242659999947842042e+00,1.031754940893495398e+00,-1.565837585439929236e-01
1.707524473645046781e+00,1.714234464856864981e-01,1.931275416756312868e-01
2.696270182177380736e-02,3.342103924411107041e+00,1.033340089319252142e+00
9.003145292015286849e-02,-1.182307226364207153e+00,2.114368547383076891e+00
-2.049474251677835923e+00,-2.448668520703363161e+00,3.102661079487783802e+00
7.669470904446087367e-01,-2.585627037219091484e+00,-2.955062628055814322e+00
1.520478985404182914e+00,-2.538619800306047836e+00,-3.706952705303719342e-01
-2.276828833633883331e+00,9.485279440679624807e-01,3.037215335126685067e-01
-3.987374518211419527e-01,3.210530273260343126e+00,-1.773748062816441040e+00
1.987000141559988053e+00,-2.379674260978208888e+00,5.881583345449539202e-01
-1.017465454964103788e+00,-1.399616556346612528e+00,1.309841175989109041e-01
2.334811626404917906e+00,5.976812659453258902e-01,-3.674587090688637314e+00
-2.847320894492042953e+00,1.897637104992110579e+00,-1.450226716290589302e+00
1.410076576887250743e+00,-1.642692272615986770e-01,1.030256399679282175e+00
2.602979716863403681e+00,1.828798533686589733e+00,1.801896093670371402e+00
-1.878071138118432515e+00,-7.612241305640227162e-01,9.273893541170977195e-02
-2.930390171716940273e+00,-1.063031324195738703e-01,-2.256665494397770200e+00
-2.700342709660210616e+00,4.118718521045690029e-01,-1.310310961615266612e+00
1.799454778254338638e+00,1.313473793672820245e+00,-2.979833117240290985e+00
1.414413045397696189e+00,2.622153472016408138e+00,2.102569749088411211e+00
-1.490709243126960404e+00,-2.922518730744688487e+00,-3.113899336684904817e+00
-1.432999223220261742e+00,-2.338033187353454334e+00,2.903279777812997953e+00
4.542517424055567687e-01,1.038581166589226390e+00,9.149962570707283194e-02
-5.618040076048556042e-01,4.368155612092016749e-01,-1.497331113090059951e+00
-3.493084719300930119e-01,1.132785361653524836e+00,2.279581070952909072e-01
3.153523303771332387e+00,7.720749507294327740e-01,-1.534179124094550151e+00
1.965761085134370756e+00,-1.142813441321103296e+00,1.290510350008943430e+00
-1.280264955263699655e-01,2.907401939628105669e+00,3.291041322398524205e+00
1.275699342497356968e-02,1.306392512860800270e+00,-2.614253630216544444e+00
-2.080523290895110566e+00,4.112133968318939736e+00,-5.378315118336793876e-01
1.410181623014856278e+00,1.656662151205563038e+00,-3.056639993875950867e-01
2.057372023911989256e+00,1.691321221481133508e+00,-3.986656826531477904e+00
2.560256125998425336e+00,7.433869805454115243e-01,-3.969371362883922227e-01
-8.150280671976266600e-01,1.552043268628886308e+00,-1.069398482655143034e+00
-9.137948195540755991e-01,1.896714373065790493e+00,2.193999605663461860e+00
1.083885483259550586e+00,2.152852297677457560e+00,1.638448335328241690e-01
-1.292737316988003649e+00,1.782540637926943949e+00,2.296694770839808442e+00
4.395991863674373334e+00,-2.385968739158780549e-01,1.323239195700430582e+00
2.531111043993458307e-02,1.089506162649959586e+00,3.780547448858620374e+00
-2.334530371006946048e+00,-1.285973457265932485e+00,5.816412950681930649e-01
-1.539442403305890661e+00,-1.809548320909850072e-01,3.897285694152964552e+00
-1.858582924713534812e+00,-1.644701230228860500e-01,-5.852664395198201586e-01
1.034648598846428458e+00,2.712861323667639990e+00,1.301581848315053414e+00
2.388927405370710577e+00,-4.971423578788925490e-01,2.317107290857793045e-01
3.420251391790767759e+00,1.880577275126917858e+00,1.653506025180601302e+00
4.683653713640865135e+00,9.630757313383752072e-01,-3.845285316873076065e-02
1.117161848839617555e+00,2.412248188445391128e-01,1.495803996547979686e+00
-2.216461288348634984e+00,-1.599660916941543221e+00,3.389653635183407676e+00
1.253640518296600170e+00,-1.820202189985490548e+00,1.213163705909888535e+00
-2.036707020138130986e+00,-1.290206942849641658e+00,1.699011617611557057e+00
4.579797050247409018e+00,9.150269330961945391e-01,9.960186242238935339e-01
-1.358997052287267193e+00,-7.148447782350512147e-01,8.716968739198425187e-01
-1.962776525907130587e-01,-3.532914702211399138e+00,-1.587032957736565497e-01
-3.980467053856256765e+00,-1.694193136131773303e-01,-1.836670066888865249e-01
-1.603304497030560993e-01,-1.520642330033150191e+00,-1.841306614063027647e+00
8.451041443728168900e-01,-2.587488330601816600e+00,1.181736440824252110e+00
-2.050578127530525041e+00,-4.657965141214696070e-01,3.206579372289268814e+00
-2.068138938466478116e+00,-4.899104431712240082e-01,2.978645910106421990e+00
-4.565013821802472727e-01,3.145012488020402674e+00,1.557390734685589750e-01
1.624105698207060522e+00,-4.144533229115595852e+00,-1.472888998308140018e-01
-7.704509770638551247e-01,-1.702426340744175870e-01,3.515685448355853282e+00
-2.283903811513405380e+00,1.014643763788991349e+00,7.969833394156797812e-01
3.002896715289404828e+00,-1.746031654758788632e+00,1.225606639007835952e+00
4.812743631108619691e-01,-3.665084542684642788e+00,-2.800997276779120804e-01
-1.756308807489879165e+00,4.099638464444198327e+00,-1.315413143704781573e+00
-4.783346137575061885e-01,-7.296074008446740145e-01,-1.456554875089048018e+00
2.138836525567917590e+00,-1.888020184268633272e+00,-1.051829881478366202e+00
-2.109661878956039516e-01,-1.379825308896730218e-01,-2.118878962647684272e+00
-1.249141445211920054e+00,-1.014428292126290931e-01,-3.051981629519692429e+00
-1.639110945500406702e+00,3.721659596307682616e+00,2.565842681598101138e-01
-2.013077814063537030e+00,1.727903170172717662e+00,1.436130689173526820e+00
2.661227084439283241e-01,-2.113052955897655405e+00,-3.852500356348655064e+00
2.337643341488962800e+00,1.172140385090826076e+00,-8.874589697779050601e-02
-2.342527577987988108e-01,1.484958577218652209e+00,1.962883177634614729e+00
-1.260316720922829647e+00,-8.769149956982245087e-01,6.576638032953661117e-01
2.343727701981166422e-01,9.972594631410766630e-02,-1.236805359708397223e+00
-6.573872324945784218e-01,-2.105352173262968127e-02,5.853626022968836384e-01
-1.429387011902740534e+00,4.164284139295165055e+00,-1.371387613520188425e-02
1.238641163495160180e+00,1.800776090310845401e+00,1.783298471722774892e+00
-4.772815920677262902e+00,-2.330042175907177382e-01,-1.322750075837540784e+00
-1.519410086524613401e+00,2.557586304691276347e+00,1.751502978224942719e+00
3.865901633083904887e+00,5.690874472252012151e-01,1.670280354582879934e+00
2.943812097585254417e+00,3.653149544855822106e-01,8.073676320806327800e-01
5.032423190826936121e+00,7.207612160800772605e-01,7.200646762350367824e-01
1.966852247806352150e+00,1.402759298654606412e-01,-3.692818878400451865e+00
3.080124396370662154e+00,-2.366612657452432877e+00,6.636312589155243247e-01
2.431983469778478402e-01,1.863865383687906441e+00,3.416658289439963525e+00
-1.633802582179679774e-01,-9.285957382961819162e-01,7.743262473056360395e-01
3.063985239205755384e+00,4.154369355682508980e-01,1.352573306091854111e+00
7.650481625435490152e-01,1.915032245932505761e+00,-3.209372431297463635e+00
2.500769880607758289e+00,1.500114613844481415e+00,-4.132223577678813875e+00
-2.724552300821259987e+00,9.883395127642634614e-01,-2.088912137951039583e+00
-3.978857764406645181e+00,-8.521372618942998356e-01,-6.702535145973227415e-01
-1.443595689209087540e+00,-6.733506118943862750e-01,-8.672262140233201189e-01
-5.062685637392575627e-02,2.346267386834972601e+00,-2.802604478636931074e+00
-4.315978508319854301e-01,-8.784754307652290484e-01,1.815433703283470201e+00
2.243377137280349487e+00,-2.108840140291522669e+00,-9.850296421897978272e-01
-5.482539968051218793e-01,-1.254244276044370165e+00,9.574739317515255088e-01
-3.431797405068051976e+00,-9.011951852064411517e-01,-3.198353541256374055e-02
-5.913972819585515683e-01,-3.088900462141752623e+00,-9.712475701436227293e-01
3.370929843730255948e-01,-2.640790651421728974e+00,-3.086388952568916988e+00
-1.624241495272688462e+00,-2.210832298726348899e+00,-5.102614916709274917e-01
-2.985051386964076681e+00,-2.243986477476909991e-01,-1.923236751037893377e+00
7.527311684811981429e-01,-6.164962850590420818e-01,-5.626807021642532547e-01
1.136260496816918542e+00,-6.444921933623906085e-01,-1.942277183731434098e+00
1.157637011823404283e+00,1.314294364807388815e+00,-9.176833844519914907e-01
-9.099946315592630786e-01,3.602690534087095386e+00,-2.143295841380376210e+00
1.622218733268657953e+00,-2.115227375213773353e+00,-2.438387921110173884e-01
4.651046083973286116e+00,1.171081574811654313e+00,-4.013633182924339349e-01
2.372491497096001822e+00,-2.036775366156678313e+00,-1.103170498330299676e+00
-1.091167383433095939e+00,-2.939287529850666214e+00,1.031809262391658155e+00
-5.502493310466679555e-01,-2.354040008644215476e+00,-3.746296972535227532e+00
8.353302740055974507e-01,1.039304936991373163e+00,-5.637288346553076535e-01
5.739930489295524962e-01,-1.042078056921059481e+00,-2.256526080681095614e+00
-8.259098616194077147e-01,-5.609298649909910672e-01,-2.832389487299462161e+00
1.844715843032859404e+00,1.636194278890600540e+00,1.240271680123852249e+00
1.046572027406795558e+00,-1.286361719480161536e+00,-6.387686701872271611e-01
6.582840476109076411e-01,-2.554731802946407893e+00,-2.975083796719778295e+00
2.516479986888753295e-01,-2.847191109671753928e+00,-7.633360091694123273e-02
-1.397917198775673331e+00,2.026613171107425337e+00,8.269757446854743010e-01
-7.600707616797816035e-01,-2.020681806357618182e+00,4.224535473657060614e-01
3.853017640125004917e-01,-1.238854760017389589e+00,3.220348337939802352e+00
-1.534577913989620401e-01,1.539816772271758394e+00,4.096368455996900693e+00
2.652158855267593984e-01,1.534973443125543735e+00,5.788338586156892562e-01
4.448677329280132375e-01,-3.299704576302631587e+00,-2.759496774153792131e+00
1.104602480414841104e+00,1.727258326702811653e+00,8.490824406916979150e-01
5.438375345009330841e-01,-1.974899904685672114e+00,-3.550971648992129026e+00
3.809899711554846635e-01,-2.570656937492691974e+00,-2.512440839173286644e+00
-3.137412492211018478e+00,3.148391473108406391e+00,-1.358571135665998186e+00
1.018947678222419162e+00,2.308083569081389008e+00,-6.198466141906419091e-01
1.634059579955810193e+00,1.125385284992574120e-01,-2.790122523258361298e+00
3.440447065140604721e+00,7.613649752551793215e-01,-1.463726959404779038e+00
4.289464082518513188e-01,-2.073398968266402242e+00,2.003666021613921711e+00
1.013336812409641352e+00,-7.207315644939205068e-01,-4.027862741139687230e+00
-1.322318219632504510e+00,1.935675830805871245e+00,-1.827788840343927745e+00
-3.314005807859382036e-01,2.848352437491674660e+00,1.674514689119430244e+00
2.820367488940105916e-01,3.444159618142913715e+00,2.973372526549615813e+00
2.776203584116100354e-01,-2.725906102862608815e+00,-3.004368034686234701e+00
-2.679271772087273296e-01,9.292109577356051642e-03,2.247392922563772544e+00
2.034227520082731999e+00,-2.633488120622194284e+00,-8.973160890654811039e-01
-4.474217378127794825e-02,2.498086863684770176e+00,4.373752869361474671e-01
2.603421653791616830e+00,1.681815710760361293e+00,1.846549453344910940e+00
-1.632806870372236208e-01,-3.223693098918797073e+00,9.513633818559322775e-01
-1.816412524261236117e+00,2.214992787937121843e+00,8.910471192470279522e-01
2.741296954087458992e+00,6.875443192261880831e-01,-1.450460100912505990e+00
-3.136407093364349752e+00,1.145958110662494089e+00,-9.457185889732454553e-01
-5.021424909216007926e-01,1.986939346987281585e+00,2.115726149258474464e+00
2.680869027421557860e+00,-3.364392493958905384e+00,1.461455115309224562e+00
-3.300634824963541991e+00,5.631394601102759356e-01,-1.722725113812772157e+00
2.034025200430830349e+00,6.227533703291185940e-01,4.020784365271415917e-01
-1.843126681038904424e+00,-2.106901388968336064e-01,1.626911718243632121e+00
-4.072820964238483832e+00,-1.287274808922352076e-01,-1.482828618337249438e+00
2.349925900398911249e+00,-3.025713739464789276e-01,-1.883166517444616161e+00
2.632032885792590093e+00,3.928235923651874351e-01,1.232329703202546256e-01
-1.778822450559230661e-01,1.494504787667210399e+00,-1.002565760131723271e+00
-3.731353647655930583e+00,-1.382579340951548330e+00,-2.536936567949849564e-01
-2.294572536676012131e+00,-1.122046417932124784e+00,-9.728635352560766059e-01
3.361434067802163916e+00,1.853562751071622827e+00,1.935839667022115851e+00
4.675442242990468955e+00,8.470472488223070862e-01,4.725729092238376561e-01
-2.083297771074243410e-01,1.318706292858365714e+00,3.391532918124425589e+00
1.346038625754194751e+00,-3.114106958266637637e+00,1.863783216055126424e+00
-1.357979874780301799e+00,2.925361492558049115e+00,-8.429440432977205466e-01
-8.346437684494780740e-01,1.178805343116863469e+00,1.644704480075487085e+00
-7.753469309659516417e-01,5.430959802451427176e-01,-8.579376192101173526e-01
-1.991402279721053548e+00,-1.015371958744489156e+00,4.313219035568199189e+00
2.192169922541670424e+00,2.054410090536294753e+00,-1.650161156724708478e-01
1.823845585984359419e+00,4.531085149818262631e-02,-9.157299947337815826e-01
7.936474314211948433e-02,1.299865190463903364e+00,3.926010329853006020e+00
2.947757980786568921e-01,-1.136186019003132763e+00,1.850400280532239039e+00
2.106315087967591815e+00,2.517331144771620011e+00,3.256449019407492429e+00
-1.537338640334489970e+00,-7.899573333143459219e-01,-3.028598538129525064e+00
-7.618023501282856769e-01,1.096641552712849466e+00,5.384176646886663226e-03
3.212126942767501436e+00,-6.216091334394592272e-01,8.827644999145368987e-02
9.009979599703697994e-01,-1.805038919557680144e+00,-1.467204787679614819e+00
-2.076715765607755504e+00,3.422944779782079117e+00,-1.247225327093270053e+00
-1.921878103690586537e+00,-9.201297759731208448e-01,1.195269178283975102e-02
3.937691814965650128e+00,-1.528374439646037697e+00,1.124040018932006779e+00
1.043154481155071228e-01,-1.773010516616206456e+00,-1.189694849628848639e+00
3.081597602425812266e+00,-1.167065658427892227e+00,-1.989201458835372083e-01
5.628193133940758708e-01,1.797147263684159446e+00,2.737787451410980566e+00
-6.996854669202342558e-01,-1.263951302606177274e+00,-1.427466181874133266e-01
-5.812002664591073842e-01,-2.534243015896214812e-01,-1.008658531396757096e+00
-3.298925513189990610e+00,1.688327228243110989e+00,-1.703654023210571244e+00
-3.510076959263419560e+00,1.262507127605523083e+00,-9.446665666487095159e-01
-8.846864886238996473e-01,6.621039442223708438e-01,1.191013539918377662e+00
-2.215441107577083013e+00,-1.252187638312607820e+00,3.428632193860247757e+00
-9.733567621613482546e-01,1.601641599225605672e+00,3.102049342782988273e+00
5.181007673562594285e-01,1.713000272456158823e+00,-2.672404713209817206e+00
-5.332024168913760409e-01,-5.772196073121560467e-01,-2.681455776962877291e+00
1.191864680057513226e+00,2.090895725184549470e+00,3.151792465115799136e+00
3.353325090580067114e-01,2.495289176122771568e+00,-1.345807738843442181e+00
2.112372455135839378e+00,2.131682106847476721e+00,-3.854310014770432335e-01
-2.515751395304586691e+00,3.460821890475018314e+00,-9.496662847088063186e-01
1.925684353403535276e+00,-1.797828119373051869e+00,7.301706162538208755e-02
2.226914201964258933e+00,1.495130325478748246e+00,2.077130610924010856e+00
-3.995551534454466203e-01,2.126951891691331031e+00,3.936492152379605702e+00
5.535123700522465162e-02,-2.188924713199345451e+00,2.087103690757784680e+00
-2.547342178323965367e+00,3.628060392982489502e-01,-2.155562754609638532e+00
-2.063423460510947383e+00,-8.122573362062047719e-01,-1.683429628898107211e+00
7.705515950208647880e-01,-3.050728039512296874e+00,-1.303544442675881321e+00
-3.381189403220553391e+00,2.105330674042372507e+00,-1.220877678554602497e+00
4.615586373097292916e-01,1.884011152441625869e+00,7.786640771919313142e-01
2.141674415452239799e+00,5.966348881072357502e-01,-3.589886098489113220e+00
1.988538721614140581e+00,8.541849598685596900e-01,2.512831296531142122e+00
-1.049680680342488293e+00,-2.986391214030268859e+00,-1.511240692695294152e+00
-9.454548651639592682e-01,-4.450707819685653654e-01,-2.026187426663995872e+00
3.171249845842175619e-01,-2.227586460727618844e-01,2.602942149381457071e+00
-1.541186695912065419e-01,2.462627799887317170e+00,4.016049390186631207e+00
-3.109607746236907611e-01,-1.285051103030120379e+00,-3.146570379469508350e+00
-2.510794954679811397e+00,-1.202887920464613680e+00,1.331175378305890167e+00
7.648578226079395526e-01,1.433228277344648305e+00,3.636456622859788990e+00
-1.661765589930183085e+00,8.325863984181584021e-01,-1.404543748072944576e+00
3.029685399695359882e-01,-2.017063087273743630e-02,2.717848305268715237e+00
-1.362314544771345837e+00,2.081255727340777462e+00,-5.402849717636455384e-01
-3.215785932504243050e+00,-1.515592748466709772e+00,-2.860476194921280912e-01
8.331150415005439402e-01,1.315111748944325643e-01,-1.912144646163781880e+00
-2.632891054649707296e+00,-5.269057958446292655e-01,-1.758552303708016185e+00
1.715465794793985532e-01,-1.624524112876670534e+00,-1.675922877519311793e+00
-1.398642786246808711e+00,-2.580588592113959301e+00,2.270112675980781258e+00
3.616199034422684200e+00,1.327291593246007873e+00,1.660584579705005837e+00
2.876248815361654110e+00,-2.150576115098053354e+00,1.354102926072186408e+00
1.775993540759384537e+00,7.969740633143523878e-02,-2.607142678745929310e+00
-1.367093635924428563e+00,-1.654419543270835513e+00,4.981914968072111982e-01
-2.870381195866213153e-02,2.326155874226317533e+00,9.306500072578184624e-02
4.320910994257003424e+00,-3.043574020013989118e-04,3.901011402502771452e-01
1.411571347367152951e+00,-1.560526707008857983e+00,3.328669961078102313e-01
4.947480980861017841e+00,6.570032021235350239e-01,1.314302871842005560e+00
1.379357273407635365e+00,-3.797439143858897914e+00,1.558226907237649783e+00
-1.881941492127198190e+00,-1.824843728063251014e+00,4.081650295375093052e+00
-5.393727307512860003e-01,-1.199668664876477164e+00,1.373855542434214483e+00
4.083458415615227821e+00,5.207741104674065147e-01,1.273403175785478014e+00
-1.591113502998525497e+00,-2.443310093522089499e+00,-1.488167034465683436e+00
1.028414210562361569e-01,1.390354493359541088e+00,-8.918252576831510181e-01
6.673425577490412763e-01,5.372130439662278212e-01,-2.485245506265911342e+00
3.305757524760513988e+00,-3.948750370527861486e-01,1.865878892750495011e+00
1.125048254528921321e+00,-1.308216297760695646e-01,-2.007419987020329366e-01
-3.670007249765834256e-01,2.206606558282087960e+00,4.152245565896280688e+00
-5.728946223251124570e-01,-1.968480986316547332e+00,-3.313579550657861805e+00
4.039401913558559265e+00,1.174072382942275228e+00,-9.619759222205243043e-01
-1.770396464140892245e+00,-1.955486926169153872e+00,1.565764766237845107e+00
-2.710934533717418216e+00,-1.878000965586160920e+00,6.286263719699276553e-01
-2.801713871491879448e+00,-1.331971163499667377e+00,-1.636638058558195219e+00
-1.881217931730461368e+00,2.760872709154776228e+00,-1.025806785944419541e+00
-1.114546536228439244e+00,-1.958080161670048946e+00,-1.957188381663230503e+00
1.553872995025638026e+00,5.725624559136788250e-01,-4.745318156717949210e-01
-1.961053387983166196e+00,-3.051711565219081268e-01,7.811174448162474526e-01
9.001587066462887199e-01,-3.065600905141352417e-01,-1.897569171020356826e+00
-2.267217571467754766e-01,-3.603265343099205875e+00,6.142214202531002393e-02
-1.289817306810750130e+00,-1.781702310400785860e+00,1.357274603566146487e+00
-1.008842718463468957e+00,-3.022916945011643541e+00,-3.770232544269810138e+00
1.088505858744669652e+00,7.337851947382062479e-02,-4.798842276497796155e-01
-2.254652007203244324e+00,1.387121502239349047e-01,2.830126804603441126e+00
1.372561757930140514e-01,-2.653099908888669756e+00,3.969311224479634137e-01
-1.913218271259201853e+00,4.078866418422737894e+00,-1.111311734437779863e+00
2.990384544344119711e+00,7.104145525736756950e-01,-3.110986395077534050e-01
-3.935932853226474570e+00,-1.326191008400379401e+00,1.222042852128419899e+00
1.344873512066198318e+00,1.833274002208616360e-01,2.266224122546877329e+00
1.644295051707630018e+00,-8.276688824016129598e-01,1.272006135207668143e+00
1.478071047608815469e+00,-3.105977442937126298e+00,-6.573589670244227579e-01
1.816490500749669446e+00,2.551322455117560395e+00,-9.743734000409465246e-01
1.149552008828961469e+00,-2.062648692881007051e+00,-1.464029074989465773e+00
2.535531758231493349e+00,1.118957638902537521e+00,-2.907674676515363821e+00
-2.912495711512494423e-01,-3.166535506988935045e-01,4.442736412804805801e-01
3.864925096871524857e-01,2.506900141328990195e+00,-8.976372730538433320e-01
2.452889929063107655e+00,-2.969562458184232590e+00,1.218954386932610046e+00
