4.981202113901800899e-01,1.307448693473992896e-01,4.464664916705682329e-01
-6.209280226792075474e-01,-2.635147370584528526e-01,-4.037606170095449087e-01
-1.148154390335042851e+00,-5.701173617043795439e-01,-8.296272283146076676e-01
-1.677790477493743770e+00,-7.582589452457292323e-01,-1.257890688263321399e+00
9.541772378414781208e-01,4.703221949867918417e-01,6.580987775520403815e-01
8.764786932391645247e-02,-4.871871127162757942e-02,2.385142436394502817e-03
1.348011623860221997e+00,5.801862025831162617e-01,9.624177204125675678e-01
5.262914739261773667e-01,2.418473992170670495e-01,3.652856667493020737e-01
-1.723673112610594638e+00,-7.429297326351987918e-01,-1.237667768235600096e+00
-3.591389666437126427e-01,-2.238328564324422176e-01,-2.386686198493890021e-01
6.493387457816104380e-01,3.102568336228673229e-01,5.373470154364440310e-01
8.911276095186184687e-01,4.387255518454452607e-01,6.423809159017056514e-01
1.522338189850351631e+00,6.237452219665052811e-01,1.122499236024059543e+00
8.272153932207231275e-01,3.507753400176377157e-01,5.961372063080859762e-01
6.365996481245524974e-01,2.567075215192329840e-01,3.803880697611812800e-01
-1.496900676637479499e+00,-6.753258043866293692e-01,-1.077417976837918845e+00
-8.226634795248394250e-01,-3.640972914173574160e-01,-7.082604159184527903e-01
1.370243702826913434e+00,5.812838589018602953e-01,9.065798010320682554e-01
-4.404828551899178657e-01,-1.667066794610921610e-01,-3.049279835365850677e-01
-1.418208718994671269e+00,-6.362402230916304191e-01,-1.080852207651686658e+00
1.454906040062342809e+00,6.979501813744164451e-01,1.074982148603071286e+00
6.739336191946430077e-01,2.510400073120002129e-01,4.637439846597909421e-01
-1.191459482965629313e+00,-6.446291575042923938e-01,-7.619101748378568351e-01
1.538706704209354070e+00,6.350513786061006138e-01,9.585216090658132959e-01
1.261184300599361041e+00,5.768990221891342474e-01,8.243845758755733444e-01
1.042525754664137549e+00,4.445991096793331376e-01,7.583409237597579233e-01
-2.512254433503043338e-01,-2.185223728634338169e-01,-2.692151794128130882e-01
-1.411643042254911995e+00,-5.354156332582217237e-01,-1.101751949820709786e+00
-5.871742328855901194e-01,-2.470238305693128467e-01,-3.494513623404811309e-01
1.601013390880707821e+00,6.946808950648063474e-01,1.196339445949750502e+00
-1.224176511862779870e+00,-5.899067232410064587e-01,-9.420206874899206273e-01
5.763743693371768950e-01,2.211761542464142083e-01,3.828247208354539355e-01
-9.771603034325306858e-01,-3.070843028499887217e-01,-6.439300925613810067e-01
-1.432229619267146870e+00,-6.598202535546580094e-01,-1.049375087016335417e+00
7.242175430278524617e-01,3.207628461344395610e-01,4.473175348211894109e-01
1.412680682354257256e+00,6.194982195410443371e-01,1.076501617486354423e+00
1.501060760148711815e+00,7.092497870052489883e-01,1.135829486813104916e+00
-1.705486312735456256e+00,-7.503994907321419605e-01,-1.148453391754655106e+00
1.471805658497969516e+00,6.357717701096484708e-01,1.016902779642717469e+00
-5.323691401947462376e-01,-2.497202932771440675e-01,-3.098405239891972029e-01
-1.716824975371705309e+00,-6.473450219471451605e-01,-1.208170320505841167e+00
4.437688984772124590e-01,1.886685626671793792e-01,2.669043254284764188e-01
4.976651791276479053e-01,2.110173870423898979e-01,3.834349243658681794e-01
-6.288384471005835641e-01,-3.119851581884995340e-01,-4.446873029401078314e-01
3.480020471591704911e-01,2.076730170066426184e-01,2.051031724460707362e-01
-1.257591804522526502e+00,-5.502134044300781568e-01,-8.440222251416450439e-01
-4.150919168382649072e-01,-1.625956440394110969e-01,-3.898986271221427935e-01
-1.700862500705641489e+00,-8.479716667409585851e-01,-1.304359016352709677e+00
-1.262426423254407126e+00,-5.822429814588683250e-01,-9.143356791615908641e-01
9.904101910226495997e-01,3.902936962532324583e-01,6.757680307051404656e-01
-2.671104508473932104e-01,-1.138118565496738094e-01,-2.171196095229697143e-01
1.180939237005553366e+00,4.790980351688871597e-01,8.994138343803742552e-01
-8.093673476052672955e-01,-4.219370187096470604e-01,-5.502040183696014219e-01
-1.025293470816941888e+00,-4.721440066438691296e-01,-8.397839488114282602e-01
1.659349294033135802e+00,7.399436809634740708e-01,1.094069723717890685e+00
-1.633762403376641803e+00,-7.431216618466471857e-01,-1.336809018057447895e+00
1.099806380884421397e+00,4.683941111956487213e-01,7.866614397716578111e-01
-6.411584510264579650e-01,-3.292868956239973777e-01,-5.763203312476484763e-01
-1.331481081587291060e+00,-5.397285501419787357e-01,-9.683031276396234510e-01
1.659183643277071685e+00,6.520181391075489108e-01,1.172516725387227732e+00
1.579146998531780310e+00,7.731504777083986202e-01,1.135502321728498298e+00
1.384489251928029185e+00,5.792226245118827777e-01,9.431998190879676836e-01
-1.409298156942466296e+00,-6.434896695475829098e-01,-9.932894102468597941e-01
-1.511201270676568731e+00,-7.448318554041315487e-01,-1.132250056758266954e+00
8.870567051835980266e-01,3.679138404487060643e-01,4.421565135324895812e-01
-9.454603661358431665e-01,-3.957790179276850506e-01,-6.792188317951111109e-01
-1.325657811125715346e+00,-6.057666188310472100e-01,-9.409472653900987638e-01
-8.111754253548084659e-01,-3.849472407093985638e-01,-6.195928499568083003e-01
1.256271250496558300e+00,5.911284343613134595e-01,8.670501299861395061e-01
1.195282211290952468e+00,5.325665685604007438e-01,8.946125176386510169e-01
-6.718071164229994126e-03,1.846985140777200607e-02,2.675979553364734795e-02
-6.166978608874054135e-01,-3.817014875964441778e-01,-3.884401724592108640e-01
-1.719466370075254824e+00,-7.248606697595612047e-01,-1.238135463855363438e+00
-6.184768548341978978e-01,-2.104592279217283868e-01,-4.449332290503946741e-01
-8.538116645957755102e-01,-4.199905318521541808e-01,-7.397403015355715761e-01
-3.969007720647788062e-01,-1.683480248635156606e-01,-1.711933824696530992e-01
1.147900609276497841e+00,5.640898272997731944e-01,8.711622290552962777e-01
-1.747926674896037369e+00,-7.794893170248398118e-01,-1.254428885598212862e+00
5.458949506545216490e-01,2.332195654854762323e-01,4.241131164715936652e-01
-6.736778379410606199e-01,-2.887359096468007924e-01,-5.117103220699706911e-01
-8.178421621136221509e-01,-3.287592397052793158e-01,-5.832655866703569947e-01
-3.657550745705063222e-01,-2.556456461848912176e-01,-2.386329298746834582e-01
1.224912045217317003e+00,6.163160465633350515e-01,9.694998078332738300e-01
2.760884992751852507e-01,2.140836823982390502e-01,1.101525100706905458e-01
4.781650516834478615e-01,1.655900284381584542e-01,2.850825889940107327e-01
1.342811275394658388e+00,5.161470991760517268e-01,9.225647910951662034e-01
-1.027747966463214535e+00,-4.467721009948885658e-01,-7.555052013875970252e-01
-1.725529645705881965e+00,-7.525118891312789771e-01,-1.155741799017968363e+00
-1.452225717825046836e+00,-6.745212339762270970e-01,-1.082018252166867089e+00
8.057451801037182060e-01,3.022879835325997799e-01,5.615128412332752728e-01
1.510847361217615870e+00,6.615073677641551964e-01,1.125757989412709215e+00
4.406411307255393706e-03,-1.085532476377830263e-01,-1.000232312586553929e-01
1.294837747771322656e+00,5.213149736451477834e-01,8.813213223844822419e-01
1.572226535600585340e+00,7.270373848865804289e-01,1.128555635894883391e+00
1.820345876328020918e+00,7.845103437720631900e-01,1.225383122030495375e+00
3.380786507848103639e-01,2.063993472956814901e-01,2.713130771684461040e-01
1.203467096140872439e+00,5.275243754975218469e-01,8.649148399646793273e-01
5.189551572430652904e-01,2.421328219689647676e-01,4.169642574128618606e-01
-1.632610954092056810e+00,-7.118969677943782770e-01,-1.169196092454213076e+00
-7.800453970537762904e-01,-3.449189391818850980e-01,-5.503500155730592924e-01
-2.469986415933814183e-01,-6.542979999042272676e-02,-2.269221833725264537e-01
1.281781391191653574e+00,5.989276132756971016e-01,9.281430107901218474e-01
1.802944108140797308e+00,7.427443312727697311e-01,1.308327508891492519e+00
1.293666043989277092e+00,5.235920281673651644e-01,8.666967220691725871e-01
1.576643520242804186e+00,6.397780528409532375e-01,1.145265731396827302e+00
8.827178459147347889e-01,4.803231976639920631e-01,7.965311979377475149e-01
-1.232710148770223446e+00,-5.083622973365441444e-01,-8.757120505488241724e-01
1.104300662407316835e+00,4.376982998046416995e-01,7.256468736620679261e-01
-6.337799061793205624e-01,-2.454006342733867641e-01,-4.092280618513645662e-01
2.537149825529192992e-01,1.294243709026630385e-01,1.776267097087018965e-01
1.068575805845203064e+00,5.604931669061209432e-01,9.399334082633205023e-01
-1.480668035171598618e+00,-6.104359823012699415e-01,-1.107842315102708586e+00
2.155868276430130681e-01,9.454583302052822769e-02,2.113455463906262211e-01
1.210203562779882391e+00,4.814774337020670814e-01,8.647805889446078531e-01
1.679316848700884490e+00,6.586889109848180768e-01,1.203035955131626533e+00
4.909227702996631360e-01,1.329389112691773400e-01,3.576648547765911568e-01
3.970217025426986401e-01,1.686387103697232492e-01,3.541440925034014531e-01
-1.069847418736574740e+00,-4.249052595752851880e-01,-7.918261843578625614e-01
-1.777426142549830279e-02,4.555298410352251470e-02,1.486505852506224933e-02
1.709661808678294204e+00,7.668530001069303603e-01,1.099108404822427110e+00
-4.970814295295384877e-01,-2.878566185631155627e-01,-3.426499803633164531e-01
-6.676755897183441757e-01,-3.915435821514355319e-01,-5.595330467552496190e-01
-9.963070320709722649e-01,-3.997805715687108297e-01,-7.291098730732740174e-01
-1.391820297442091903e+00,-6.720660983817683398e-01,-1.011323028522080003e+00
-8.427246890506208121e-01,-5.047501438601429413e-01,-6.641827431600317855e-01
1.394021535940199730e+00,6.179678929551750688e-01,9.391758943897826617e-01
-1.272483677334080410e+00,-4.494483170020245333e-01,-8.721031261771298171e-01
1.387432457019368126e+00,6.239822271342796434e-01,9.281238635686545058e-01
3.052160970977730869e-01,1.537745309027374052e-01,2.482935042387935110e-01
-3.367878978677367185e-01,-1.209641577865298440e-01,-2.301769022818609123e-01
6.342842173845953946e-01,2.337830611924414936e-01,4.249944187678980634e-01
8.852567356311198399e-01,3.133327210393632711e-01,4.600358520601177115e-01
-6.232699089913554813e-01,-3.013480063409298970e-01,-4.691293603027343884e-01
-9.250198761406513981e-01,-5.005695517211412593e-01,-8.030290979656962147e-01
7.566632202809882024e-01,3.430772903765352266e-01,4.628226290050789227e-01
-7.088855661766537697e-01,-2.984886646629612006e-01,-5.705800151927375996e-01
-1.568075833430305543e+00,-7.519665916735975841e-01,-1.177372323730635717e+00
-7.499331303743054233e-01,-3.405431128839484511e-01,-5.450787375462264883e-01
-1.627220030762973890e-01,-6.569971978375067911e-02,-1.400887984352278959e-01
-8.368913713641026320e-01,-3.672962748753249573e-01,-5.877018382637859695e-01
-2.756325352320415992e-02,-3.340831162293365908e-02,3.821386982000357646e-02
-9.896526954974942392e-01,-3.792169549404837414e-01,-7.103193158253450212e-01
-1.025520705450277736e+00,-5.448847942046294301e-01,-8.325124053177687111e-01
3.381267058298975670e-01,6.336318360534878846e-02,2.582611216955896238e-01
-2.158470090181800749e-01,-6.870400727006825692e-02,-2.790537832444562882e-01
-4.262063238103813156e-01,-1.568010413941757497e-01,-2.099030385075707772e-01
-4.399298543264781314e-01,-1.789840456409078628e-01,-3.081740969033024968e-01
1.240963076202500570e+00,5.817686444402002666e-01,1.005551688445891934e+00
1.309318041090883789e+00,6.115316078092462027e-01,9.852389710659658073e-01
2.732457059780551978e-01,9.093369215095761793e-02,1.283345140247002802e-01
5.982712058791703758e-01,1.947554169364549836e-01,3.904950575730671836e-01
1.331704405614466680e+00,5.758178527254053103e-01,9.790585851422897168e-01
9.810248664586769876e-03,-3.277807902715488414e-02,-2.316310092652593480e-02
-1.499348728395709207e+00,-6.778089385369127085e-01,-1.012205381361368506e+00
4.626081018086818375e-01,1.117785778977973127e-01,2.609331479661851638e-01
-3.198112318504316154e-02,-3.395917896645696960e-02,-6.050691946706755059e-02
-1.707964043778740448e+00,-7.626355475885699953e-01,-1.193940504875095732e+00
8.363542724894375002e-01,4.075376909631037714e-01,6.597205717634136990e-01
-1.434633376684508077e+00,-6.633804662883692194e-01,-1.080221483535196647e+00
7.253763862113852268e-01,3.421194895028550897e-01,4.873239538695118833e-01
1.650238040929329575e+00,7.646119512253113371e-01,1.120067640147193844e+00
1.763661235105858482e+00,7.344040580610528002e-01,1.223938198639175967e+00
-1.168555771725213965e+00,-4.728164177981792338e-01,-8.329373041821700463e-01
-3.717434936210188834e-01,-1.208081431243548803e-01,-2.768163934010368643e-01
-1.265435324278939122e+00,-5.614878578752471316e-01,-8.378312514091016405e-01
-7.850011699922272712e-02,-5.465042582262906457e-02,-1.364923586325074711e-01
1.176632466015497425e+00,5.164976257398349313e-01,9.181514647665934836e-01
-4.709885195018679860e-01,-1.991994344232252967e-01,-3.396442244906823227e-01
1.436361854767820301e+00,6.365035603816676657e-01,1.017700862691760744e+00
-4.495456460233600016e-01,-1.371502679988595985e-01,-2.067384580762186286e-01
-7.051862847027656755e-01,-3.056838536013183893e-01,-5.488608061776935054e-01
-2.237647134560927231e-01,-1.052543255988601933e-01,-1.109070447602916037e-01
8.357894888460601357e-03,9.637293861261096717e-02,1.067345137814002844e-02
-1.508653036850522877e+00,-5.979306875435465018e-01,-1.079805010088560779e+00
-1.533654367420861586e+00,-6.857465546236172216e-01,-1.053598360014939450e+00
-1.391595594409326564e+00,-6.362367152812297144e-01,-1.041966837582914973e+00
2.996323728710089118e-01,1.260894463885570693e-01,1.277742588980915195e-01
-2.240930634809186126e-02,1.041694653948437715e-02,-4.254298112914000479e-02
7.151299836975141266e-01,3.835668190860068716e-01,5.321543153850167851e-01
-1.693994471421119696e+00,-6.871896503356410557e-01,-1.218350547419059682e+00
1.110520809354174965e+00,5.209807065732346976e-01,8.327172161653991767e-01
-3.233714940888292033e-01,-1.639876054018594431e-01,-2.409929645917513741e-01
-1.114649129209850598e+00,-5.101316169660888855e-01,-8.329615361854980637e-01
-1.009512096224619349e+00,-4.857981813310841557e-01,-7.908837595966966560e-01
-8.061516470927529987e-01,-3.896199582441259857e-01,-6.122593183426922048e-01
1.485159707089355852e+00,5.968385521566030860e-01,1.071783352769213105e+00
5.348930412970002157e-01,1.099855745448018035e-01,3.339933578619024290e-01
5.286102309303096769e-01,2.017247215279923955e-01,3.645606051893232613e-01
1.172025186297724009e+00,5.298799775960901792e-01,8.980468764820639382e-01
-1.212756466713955872e+00,-5.291257811091232277e-01,-9.063448263778753899e-01
-1.700805564434245909e+00,-7.126933534690315097e-01,-1.277974745804511425e+00
-9.111475205281213130e-01,-4.262332740360799122e-01,-6.943505459559962123e-01
-9.409668143965275178e-01,-4.118038465135706594e-01,-6.269472235395653348e-01
6.670950005047636411e-02,6.853019138444223224e-02,6.237627670002907770e-02
1.346823239751646861e+00,5.583350991836852906e-01,9.056709829542786139e-01
1.213406108825205276e+00,4.877465061180165651e-01,8.756228009811929391e-01
4.069719102169194747e-01,2.090363285597433285e-01,3.856643950701272860e-01
-2.211817610947186818e-01,-1.018117643301804098e-01,-2.220967465979613309e-01
-9.973981161766272141e-01,-4.310669028711127670e-01,-7.651186230570847790e-01
-4.135610266263121115e-01,-2.665370476007696832e-01,-2.806223088373202557e-01
1.486471346304396368e+00,6.508050691303626234e-01,9.641008611117067861e-01
1.268685594587099619e+00,5.780268552919295422e-01,8.721911653655296526e-01
-5.508132888801459126e-01,-2.055185386760976785e-01,-3.453446790545723899e-01
-1.788411918222762464e+00,-7.349931719288214094e-01,-1.280162915824093695e+00
-1.053732505513309103e+00,-5.196852688925024388e-01,-8.071987900859101117e-01
1.577515352245594249e-01,4.883516458235918900e-02,-2.317094811728533793e-02
-5.392395991067283623e-01,-2.111852456683275814e-01,-3.205525836582107102e-01
-7.558568647364910520e-02,-1.030562800810946866e-01,-1.064881468264532588e-01
-6.210989494231959895e-01,-3.412115417767335734e-01,-3.772277978736324755e-01
-1.522628823459163394e+00,-7.181507450079577248e-01,-1.018579742774329722e+00
-2.946322389145545340e-01,-1.434895351778363859e-01,-2.229684099643294837e-01
7.979692920081994378e-01,3.561103801982154482e-01,6.406531643025573652e-01
-2.620938956438834677e-01,-1.041322816470577756e-01,-7.625201992618824143e-02
-1.717915291473225192e+00,-7.285735408505997768e-01,-1.243671171472807702e+00
-3.885532264219600518e-01,-8.255024729266172145e-02,-4.093362578196697021e-01
-1.444418693695833089e-01,-1.532145459227567674e-01,-8.585160839334787797e-02
-1.174898332131599110e+00,-5.582040733294131307e-01,-8.622766828552227425e-01
-1.097313944962330146e+00,-4.968121232344374083e-01,-7.490407510462736562e-01
1.330682738074464577e+00,6.457605210364602000e-01,1.003111352483236018e+00
-1.191734545695379399e+00,-4.731300347278238339e-01,-8.479615647358792474e-01
1.760631051888790877e+00,7.120404657069067111e-01,1.228945553394007462e+00
-1.035356081244533377e-01,-2.774533486284148920e-02,-1.395204441317924593e-01
-1.007666276525829741e+00,-4.539890588669028282e-01,-6.485377540059655832e-01
1.198640959429446262e+00,5.649109695807968956e-01,9.338776157029455849e-01
1.287175588974659890e+00,5.742632463967032308e-01,8.227480071241726201e-01
3.800497991599672831e-01,7.261950024278174265e-02,2.634958240710920663e-01
-7.475873767719891649e-01,-3.804286786861017511e-01,-5.252978731471796836e-01
-1.961779621667640583e-01,-1.124089285938322524e-01,-1.239764615772789846e-01
1.540938046849489096e+00,6.297985084258577171e-01,1.148431681922709613e+00
-1.316686151446765596e+00,-5.474036802452780792e-01,-8.908774044567139283e-01
1.548695589195907774e+00,6.765806420666795606e-01,1.116959392896552439e+00
7.177091313878909418e-01,3.520220666435288082e-01,5.008478433564248489e-01
-1.752663134053581873e+00,-7.079982527493204891e-01,-1.319946685639555861e+00
1.254088014990768496e+00,5.912311611716278836e-01,9.644229999687571331e-01
-4.293153847218977859e-01,-1.077211667559589692e-01,-3.869594727771556442e-01
-1.433983486749140557e+00,-6.680999990505015473e-01,-1.064434987613551487e+00
-4.243892193678751035e-01,-2.284811920988996103e-01,-3.186544092258560279e-01
-1.704015293996096414e+00,-7.949388176367401249e-01,-1.272161865115581714e+00
-3.814549382472882111e-01,-6.163273652233250410e-02,-3.089915540420024587e-01
5.821942131465547288e-01,2.291267498017439397e-01,5.217120645246886568e-01
-1.856490329958560836e-01,-5.828404023507551684e-02,-8.230643909227433608e-02
-1.233591873843425502e+00,-6.027889663218157779e-01,-9.589942799620256864e-01
-1.109006626916049371e-01,-4.114558446255587448e-02,-9.905174629512991658e-02
1.728302672289556252e+00,7.803455805943090295e-01,1.217413049160716243e+00
-1.387127366234092607e+00,-6.338765961172552199e-01,-1.003315486135565759e+00
1.753526320101143954e+00,7.407319643639377338e-01,1.287683809199865248e+00
-2.616495933304863741e-01,-1.203986977168084310e-01,-8.835319883866646351e-02
-3.034105687923178696e-01,-1.606451478638447894e-01,-3.080730406381386177e-01
-2.361861049183835159e-01,-1.280115792554416820e-01,-2.179498927943378239e-01
1.105178881374279332e+00,4.623887167565397527e-01,7.571687468661968401e-01
-6.191242413013585688e-01,-3.651571884177528537e-01,-5.454367802976319846e-01
-2.800431434613826487e-01,-6.012581445608393416e-02,-2.274044485173080943e-01
-7.311510077190962464e-01,-3.399891737594623597e-01,-3.877724889230724226e-01
3.853630961905636920e-01,1.687359878428853488e-01,3.484634779653382197e-01
-1.561696622861109329e+00,-5.927007845238945194e-01,-1.032064282278547962e+00
-1.298346004692077171e+00,-5.573554703236359709e-01,-9.676103650478657947e-01
9.660531374959810957e-01,3.753762152196700730e-01,6.715756684537755872e-01
1.321282661343017084e+00,6.131036301066800087e-01,1.021530030764111530e+00
-2.302749239203032705e-01,-8.260948520800126538e-02,-1.549203309178644461e-01
-4.059346526956912338e-01,-1.114936010456103049e-01,-3.092177840310134651e-01
-7.962883942662449810e-01,-3.850609443005941768e-01,-5.630272432775703662e-01
-6.138280268291790298e-01,-3.258043630510162325e-01,-4.186947001349888842e-01
-4.594964465505420037e-01,-1.634086944282527598e-01,-2.068617883498790888e-01
-1.654993406277019519e+00,-6.246671789693941657e-01,-1.057809710400676728e+00
-9.092867825305207541e-01,-4.609042900962016520e-01,-6.224117967461106904e-01
-4.359129992862290637e-01,-2.403779168920205378e-01,-2.772947033448759369e-01
5.581579653672424923e-01,2.743893907512903185e-01,4.221602203815921772e-01
-1.592614767752899008e+00,-7.158250001400060514e-01,-1.159642251430975435e+00
-5.551983890893347207e-01,-2.277325152452987500e-01,-4.517670789610958026e-01
1.955790447281146038e-01,1.652472340653168559e-01,9.557926954039280831e-02
7.058025797948280777e-01,3.175816270232769134e-01,4.582201919322129724e-01
1.162129173627981377e-01,3.427601985657462158e-02,8.153091724760022641e-02
4.642319936762820398e-02,1.303400076923282858e-01,1.122299452468624240e-02
1.337378351352118022e+00,5.164447235150443349e-01,9.082201527288955578e-01
-9.997641823484698653e-02,-5.888546551722260991e-02,7.273416813682649640e-02
-8.897108914783161682e-01,-3.699148832505393392e-01,-6.797563447008743154e-01
1.228193085935505913e+00,5.653175835094891299e-01,9.796044949204715246e-01
-7.707835529695329368e-01,-2.563773643767489618e-01,-4.874330404258488403e-01
-3.151159895617516304e-01,-1.427754923631064654e-01,-2.447879936179140070e-01
-9.799815716072702854e-01,-5.155856886754661694e-01,-7.812643462002374362e-01
3.354613131146872984e-01,8.453347838815261639e-02,1.691623395302308819e-01
-1.472419813676650868e+00,-5.511119682375842377e-01,-9.959800530468148061e-01
2.880087378907788542e-01,8.551013575867043304e-02,1.915015926709754124e-01
-6.422927913099597541e-01,-2.953135313346095803e-01,-4.511900632021393909e-01
4.284099012153708835e-02,-4.734845110124716316e-03,8.154394824660980701e-02
-8.437453269038603931e-01,-3.487217258494659800e-01,-4.647856748369927349e-01
-1.730620304125436215e+00,-6.672542497506589454e-01,-1.183543100035043150e+00
7.100794738469161649e-01,2.710489486071487319e-01,3.897611702742300732e-01
5.384122212583661859e-01,1.434886622839815218e-01,3.385940486034454411e-01
-3.471316644563739451e-01,-1.091336325489848519e-01,-2.825170541482349140e-01
-1.422923825720175506e+00,-6.441256861058164418e-01,-9.289147946793538946e-01
-1.066320136318931855e+00,-4.058560437601397841e-01,-8.187693016548686087e-01
8.033682467978257025e-01,3.316583709259804946e-01,5.087959897921993102e-01
-1.403400145684580991e-01,-1.454893243944131442e-01,-2.517477079512175919e-01
3.262619764471220152e-01,1.064163033475785947e-01,2.125912028299006273e-01
-5.745635625488124676e-01,-2.243170654445461321e-01,-4.960491889828570478e-01
-1.228436340891038148e+00,-6.703782211434503591e-01,-9.574485313999056002e-01
8.066745158522633519e-01,3.190748094176220628e-01,5.210868049834970206e-01
-8.691079033227540052e-01,-2.993898544185765176e-01,-4.834623638157565240e-01
1.670890359189490804e+00,7.106705735632372622e-01,1.190031411093773084e+00
1.235261395183119726e+00,5.165006931681334068e-01,8.132670879545188525e-01
1.434241872807130447e+00,5.774766041499791447e-01,1.013286703987986925e+00
1.369312627246585867e+00,6.447427244087031717e-01,9.453607495425740970e-01
1.720364607608571461e+00,7.208514882139732682e-01,1.267258401715055438e+00
1.403678142235885051e+00,6.241558011440405673e-01,1.036039376674438461e+00
-2.212186379201802056e-01,-1.233210277361326962e-01,-9.388054183278764231e-02
7.807524752767046605e-01,4.035232502697149726e-01,5.767945373736215187e-01
-3.353445579300293189e-01,-1.219979509841567639e-01,-2.296918185778913934e-01
1.228905155314444775e+00,4.414083804398459265e-01,7.730465271064418387e-01
4.431905596562975558e-01,2.389977491171733637e-01,3.179750453444128988e-01
1.682983319940997369e+00,7.895838781697702702e-01,1.172609243235729348e+00
1.492444123053077165e+00,6.911113347966877374e-01,1.088302149986786649e+00
1.514305249549769750e+00,6.135553153446685615e-01,1.017638143684592267e+00
-2.095891883304006054e-01,-8.898758531592267096e-02,-1.683794279788502768e-01
-1.245486163847281169e+00,-6.142231549567765958e-01,-9.309252922435480304e-01
7.653502537766931901e-01,4.012054863845290198e-01,5.487095451457887352e-01
1.562736005034570441e+00,6.346147052177079084e-01,1.013925548267812449e+00
7.948482252831723383e-01,3.704787559550102860e-01,5.635166087122635004e-01
4.892928629036172317e-01,2.494081863460248238e-01,3.843230890796673904e-01
4.234848534761433969e-01,2.023646117949763901e-01,2.983138846216767948e-01
4.696149458912866059e-01,2.669949808252612966e-01,2.879183527864496162e-01
-8.175967613606220930e-01,-3.502948988087777882e-01,-6.289659045202060650e-01
-1.769633512366726391e+00,-7.600243425584134460e-01,-1.275275432885590199e+00
1.700603329039509060e+00,7.004635110651711294e-01,1.144618253890455239e+00
8.113899293353279418e-01,3.075427433880107420e-01,4.407874325041939989e-01
-8.363524358703516848e-01,-3.913583613491224966e-01,-5.495724280123979177e-01
-1.606399535620807395e+00,-6.115966305056068641e-01,-1.074876218946366757e+00
6.825360039666736878e-01,2.710521331672712253e-01,4.810230969190536499e-01
5.945169985336156149e-01,2.574948521278850322e-01,4.212629486415357949e-01
-7.135441223409531020e-01,-3.796643206142526483e-01,-5.223321977206329958e-01
-1.471538957568983452e+00,-6.197056721211944286e-01,-1.034305356314043189e+00
-6.328702341485336058e-01,-3.631529977694931688e-01,-4.224365738138954884e-01
-1.125320555627815855e+00,-5.797558763715552343e-01,-7.490657555295241465e-01
1.132768468415949581e+00,5.147828581955692373e-01,9.310494085119264129e-01
-4.228406398059988969e-01,-2.131969781527655594e-01,-3.000927663033930992e-01
-1.565932493114028379e+00,-5.992586044581845739e-01,-1.148310661508044506e+00
-1.427020088307738410e+00,-5.976700013608978734e-01,-1.023702898001262795e+00
3.860348391468119700e-01,2.207932847176853342e-01,3.242106379188874343e-01
8.318005172617382037e-01,3.831738573565647288e-01,6.421818460366849335e-01
-1.388132588203511375e+00,-5.965707687437203921e-01,-1.007687625140470722e+00
-4.015933595884182972e-01,-1.054241678004723543e-01,-2.779209172155689966e-01
-9.416412774747271452e-01,-4.955079832925414207e-01,-6.832522317995500805e-01
-1.361632946867142202e+00,-6.485888360443469169e-01,-1.041263483002501600e+00
7.158141489693109483e-02,1.176984968376611762e-01,3.524289050317749861e-02
6.424523979187337641e-01,2.536745743685677179e-01,4.816731819887200561e-01
6.013351232986267059e-01,2.080503320535253553e-01,4.020594016861998021e-01
3.295498008989962702e-01,9.396703791135517514e-02,1.906232355880343732e-01
7.202731947420736303e-01,3.186412242275339368e-01,5.762094557319362709e-01
1.717601986927186353e+00,7.082043631165600983e-01,1.233862068891460551e+00
-1.215239656717667760e+00,-3.568519927287299720e-01,-8.438612451606015696e-01
-1.408794235805250095e+00,-6.166846897636864000e-01,-1.004026914051463493e+00
-1.896548243965546499e-01,-1.037213859235785879e-01,-1.377801370130469771e-01
-1.764045780680540965e-01,-1.171195257758099323e-01,-1.518512123329608388e-01
-1.255293846062810470e-01,5.657784913882743516e-02,-4.479421406775254549e-02
-1.272336375321750923e+00,-5.802553549366297192e-01,-9.597440162731939450e-01
-1.220293147091005226e+00,-6.252478800467275999e-01,-9.272239351749006486e-01
-9.311233553723605727e-01,-4.290737896537634155e-01,-6.506326916999379817e-01
5.181689426571134405e-01,2.245320487517408481e-01,3.269434416935839693e-01
1.303285757518788834e+00,5.220652176788791454e-01,8.973688129830662552e-01
7.045413962398080487e-01,3.408583434355259012e-01,4.670154638319680140e-01
2.883325285957239262e-02,1.777376474259124636e-02,9.858914739678845129e-02
-9.983217607352359302e-01,-5.009620224043190850e-01,-7.572529576478115310e-01
1.684225193954911104e+00,7.107659269470132379e-01,1.179795684016385682e+00
-1.714957131283035618e+00,-8.148026375133154975e-01,-1.297621244846086874e+00
1.504295829068460266e+00,6.953146784101644773e-01,1.086989356949169760e+00
-1.168409401335931852e+00,-4.857512671306082330e-01,-8.446199861247900564e-01
3.214564960496458235e-01,1.529664639774016843e-01,2.394993266587820691e-01
-1.603610466367098475e+00,-5.991738868738649693e-01,-1.082752053264558700e+00
1.449735305091350179e+00,6.005651680747839949e-01,1.075413845892980724e+00
9.229694882693325608e-01,4.313576292790032851e-01,6.549101470316557316e-01
4.732253487690882277e-01,2.324063000508433952e-01,4.114968897559679872e-01
-1.381641680284760421e+00,-6.836991005760992834e-01,-1.010256977374046183e+00
-1.187987437737301866e+00,-5.922614896301793275e-01,-8.353103698371848740e-01
-7.049631382266944302e-01,-3.701030202645940181e-01,-5.807930662955760326e-01
-1.027270784581998608e+00,-2.667386929044422983e-01,-7.252042056354377486e-01
-9.719548473118683196e-01,-4.631861834410907486e-01,-7.531121926503703268e-01
6.742498851253199144e-01,2.878612012913982499e-01,5.161750944523633144e-01
-3.493125856429618592e-01,-1.812488231085038204e-01,-2.871621988139094195e-01
4.260200480897102793e-01,2.364500793534816125e-01,3.911549464332256254e-01
6.615995927900522044e-01,2.141228314700999169e-01,4.377855941809145057e-01
-7.554973898554737666e-01,-3.651606310336710237e-01,-6.162455812835928581e-01
-1.008897725252116295e+00,-4.358756718653024609e-01,-8.014145574044090337e-01
-1.098265693695548023e-01,1.114206957127302638e-02,1.081460661389986415e-03
-7.123115895749826398e-01,-2.594164514595613258e-01,-4.158580049936608236e-01
-8.047935554336130282e-02,-4.374281366325321468e-02,2.092850696904461835e-02
4.031801890626414142e-01,1.062343224606969172e-01,2.017330548048535954e-01
-8.883496086983158069e-01,-4.424025565818762717e-01,-6.096780550874834059e-01
1.791569846692376844e+00,7.731645783218878965e-01,1.265303886221981866e+00
1.491628231455800924e+00,6.599905347612449180e-01,9.861339511300788452e-01
-1.572827630060685156e+00,-7.145924822321461090e-01,-1.223543612711507800e+00
2.375486832769041212e-01,1.237525224833475879e-01,2.623135240998330509e-01
1.352605574052669346e-01,1.289682070252747004e-01,1.735401162587953128e-02
-1.305896188234647315e-01,-1.028567176945543449e-01,-8.972263284627006452e-02
1.306813295757213833e+00,5.342674277719425824e-01,9.020398336741413114e-01
4.299293356727716398e-01,2.564588083083635395e-01,3.220353856503239132e-01
1.305594295277920480e+00,5.475130515220190119e-01,9.334864778862623780e-01
-7.057858820014263346e-01,-2.350545408528313673e-01,-4.429504195342836015e-01
1.147930265476383438e+00,4.965590207103760534e-01,7.849942461361518742e-01
3.961192607727236359e-01,1.876006014243175035e-01,3.395582905049742695e-01
8.718082985662710671e-01,4.150982708024900658e-01,6.542623856526411652e-01
-4.459353898193305077e-01,-2.119934189090171839e-01,-2.696415629582032403e-01
1.174435910135251115e-01,7.883573512711680720e-02,6.077562034722604201e-02
-1.270733893552125071e+00,-6.027705575081213629e-01,-9.610639516974863739e-01
-6.500307901640159924e-01,-2.207487323639814036e-01,-5.196183283651691909e-01
-4.182263344453887588e-01,-1.487504384222556320e-01,-2.239713928050659497e-01
-2.776526427138099606e-01,-1.974568199600499618e-01,-2.464517322056486159e-01
-5.548724045990626602e-02,-7.789822882157163009e-02,-1.322547383722672831e-01
9.379779414172461083e-01,3.828435198599821065e-01,6.372743095049578921e-01
4.293463676037480026e-01,8.783234108972125254e-02,2.906345359805539985e-01
-1.339413466836794075e+00,-6.312920374374870747e-01,-1.056413498822966091e+00
-1.390024451199082023e+00,-7.015880234293604412e-01,-1.102137527573678888e+00
1.358795895111355456e+00,6.076778251692876998e-01,9.083396468417266334e-01
-3.879378695225167012e-02,-2.159624383335823419e-02,5.364045050665856851e-02
5.555305828809149471e-01,2.964805289491941886e-01,3.910563223284519441e-01
5.286595497651979114e-01,2.570836438880404473e-01,3.916246898473068061e-01
8.081857742810302225e-01,2.907422377986015327e-01,6.731522465830309665e-01
9.519546977504249607e-01,4.904048746699524175e-01,6.955989036356609034e-01
3.573045607470082957e-02,4.220932296860581412e-02,9.591241914843630367e-02
-1.101641129277822317e+00,-4.867927984355169269e-01,-8.030918514968025113e-01
-2.379557574525583696e-01,-3.735141698005665228e-02,-2.168426162793063439e-01
1.206474002967268880e-02,1.202446515147234662e-02,3.495313860251290927e-02
1.544070688538350666e-01,5.132911694400733860e-02,6.924955387714164246e-02
8.121670395440026835e-02,-1.553671719541473324e-02,-4.050902495278509152e-02
2.229752550114183218e-01,1.130542838984131271e-01,1.158480229797702876e-01
-9.482311240372125472e-01,-4.690443873587851753e-01,-7.025121322503784516e-01
1.278302727366602110e+00,5.232120873244380244e-01,8.707441507175940343e-01
-4.865953345784038708e-01,-2.094779152173038284e-01,-3.060491646847893765e-01
8.006575889092930609e-01,3.831426332670077595e-01,5.611619501305455948e-01
1.366709300148448714e+00,6.646160783037193820e-01,1.001253733755834263e+00
1.473647426766951651e-01,2.380466669663615017e-02,6.002406491311987335e-02
-1.507766495270480567e+00,-7.728222563379620880e-01,-1.105391735055546443e+00
1.117075148958854625e+00,4.463649151003216131e-01,7.132662168298488092e-01
2.161129866418763090e-01,6.859843409271909609e-02,2.054707767318111056e-01
6.688329773269446887e-01,2.360174248447130529e-01,5.966573518787368080e-01
9.903200554349045337e-01,4.973449754382907595e-01,7.248651765310970552e-01
-1.761385713685975851e+00,-7.304006126952611311e-01,-1.219663037143864592e+00
-1.254807668460182102e+00,-5.288061583124925580e-01,-9.436223407357928750e-01
-8.738206591860855355e-01,-4.335625863236793331e-01,-6.470158267520099704e-01
-1.058226643102601727e+00,-4.168672093625857000e-01,-7.237514258318781257e-01
3.098027062774776907e-01,1.827054723046590556e-01,2.724573329190327353e-01
1.343708419589517256e+00,5.425405189050797050e-01,9.491593158914503059e-01
-7.038580869150826702e-01,-3.098673629204266589e-01,-4.894567707678100232e-01
8.187249023809000104e-01,3.355818240708718370e-01,6.388318863337527631e-01
-1.595604774211558219e+00,-5.670306632509721778e-01,-1.097005536058560660e+00
1.629705182841166833e+00,7.375327641478021112e-01,1.186559897252613016e+00
-2.008609267709876578e-01,-6.014810510162194729e-02,-1.228885997859184842e-01
2.994907212846226185e-01,9.399265542105675331e-02,2.932544749296864817e-01
2.592676911486311297e-01,1.060158875785904703e-01,1.893062238011297971e-01
-1.563060179071121603e+00,-6.490351616852839678e-01,-1.120535393331728358e+00
-1.000239993500828817e+00,-4.592986123730063430e-01,-6.825174964547605638e-01
3.848811665643347424e-01,1.784491147338686523e-01,3.320655135071784447e-01
2.871194846926288791e-01,8.600685380569314531e-02,1.806185842781874717e-01
2.874363113697583350e-01,1.952612030106166408e-01,3.707944668354795636e-01
5.106706458389237424e-01,2.672849026569816266e-01,4.700256595509944568e-01
-2.172627972339015445e-01,-9.150433809670308061e-02,-1.204777881354436309e-01
-1.009665043695968656e+00,-4.503577842872858450e-01,-6.755570964741771656e-01
-1.567091358995081452e+00,-7.504349437519898247e-01,-1.087882260949422308e+00
-1.146097089978223016e+00,-5.770302330074853492e-01,-8.405778899258438130e-01
2.561884123861357665e-01,1.009289007690026690e-01,1.006574341933330480e-01
1.879948985314431886e-01,7.969624443026288030e-02,1.309309888944803213e-01
-2.661706285512943082e-01,-5.593978014828048656e-02,-1.229052920921382130e-01
-1.645200251958907289e+00,-6.562779556501898703e-01,-1.236108770204324081e+00
1.058409689329694370e+00,3.750498173967067861e-01,8.178287793503495884e-01
-3.569458487293601656e-02,-1.609722515643465706e-03,-5.228070509364560192e-02
6.412791461807979543e-01,3.375779583574829990e-01,4.155210857472220187e-01
-1.473169390921010014e-01,-1.480997238616269251e-01,-5.779392072535931291e-02
5.117449632373685109e-01,2.731125057638063014e-01,3.408420183702062789e-01
-1.573117041300666097e+00,-6.890982959566949173e-01,-1.156490906695429866e+00
6.757259886413926608e-01,2.609641252140593726e-01,3.355289428937152651e-01
-1.065490307625838878e-01,-1.769502763998683642e-02,-7.684298681050340252e-02
-3.391679142883509690e-01,-8.690483798395293169e-02,-1.382638222691609242e-01
1.027715896932521744e-01,6.369349872721795369e-02,1.775075989380375460e-02
-1.758952674498850843e+00,-7.588318670999372184e-01,-1.188131441367340502e+00
1.089566126625978404e+00,4.882012878002301992e-01,6.913159869827132376e-01
-2.038853909187588187e-01,-4.922317742414177022e-02,-1.804063110780865786e-01
-2.695856793132577200e-01,-4.864353129741995352e-02,-1.870861505053964813e-01
-1.166583054910932171e+00,-5.641112136617228989e-01,-7.403869158863477518e-01
-6.968968837419674545e-01,-3.193783126623137569e-01,-4.556989958444955247e-01
1.753668574724612350e+00,8.426081833478092920e-01,1.318753474204036547e+00
1.361482197790720772e+00,7.300136063233982897e-01,1.121516665243112110e+00
9.280144327849368380e-02,1.676774234567838390e-02,6.515065230025204619e-05
-8.488675630094897340e-01,-3.135597189247893435e-01,-6.095175838502542298e-01
1.557663456888423337e+00,6.303312375366817433e-01,1.195218633518760010e+00
1.474687600870322024e+00,6.326851510879230034e-01,1.059890463518845305e+00
1.678645340770722250e+00,7.253638556388966041e-01,1.265205936237627560e+00
1.273943860167646713e+00,5.227638289136496974e-01,8.910658730207982048e-01
-1.765186006240379912e+00,-7.259583851559671119e-01,-1.246516391472671570e+00
7.501113931484919284e-02,8.726614868390963897e-03,1.073438305324980330e-01
5.719755150630970730e-01,2.479837410925734287e-01,3.323918479171969476e-01
1.142480583508061476e-01,1.085270222003207607e-01,1.267918366812228748e-01
-8.234467997318294374e-01,-4.072834598054507760e-01,-5.536034022170355229e-01
1.534642857582485087e+00,6.703242362814335609e-01,1.053707500479946102e+00
-1.344568307542184926e-01,-5.245973428234242120e-02,-1.039927789690441862e-01
1.483095034228530729e+00,6.357484383075729939e-01,1.009452427634365934e+00
7.286048996686084189e-01,3.640016362168973507e-01,5.895046411991440305e-01
-1.334668531204527664e+00,-5.486011453328692999e-01,-9.045286776320395905e-01
6.164676810249454242e-01,2.679837679787684945e-01,4.159838379464791402e-01
1.363671495966603198e+00,6.259704687358719211e-01,9.732472962083896784e-01
-1.703533826895605729e+00,-7.170011195393752867e-01,-1.229452858580794894e+00
-1.050941620087835648e+00,-5.596435046226254650e-01,-8.641744438366046888e-01
