-3.799911508027484230e-01,-4.452350089294738744e-01,2.439181120314391216e-01
-6.006209537808987475e-01,-6.204348334110586505e-01,3.896255028369643991e-01
-6.269505270162474553e-02,-1.079392406652902453e-01,2.040488491460007783e-02
-1.333895559472301484e-01,-1.117807243448347698e-01,6.779828502640874999e-02
-5.266018441764710456e-01,-5.520865851890665033e-01,3.419263124667066278e-01
-2.678922505353969474e-01,-2.995132619739073188e-01,1.613981118716436569e-01
-4.894905195519108632e-01,-5.244170549017601601e-01,3.495040247489700769e-01
-2.587898845393971636e-01,-2.478288318112013278e-01,2.068174103482187665e-01
5.322809013626733643e-01,5.605457049020440286e-01,-3.137988709951063382e-01
1.328374781460945342e-01,2.058585931875533404e-01,-6.456536512166236030e-02
-1.670415784047783181e-01,-2.076771803790876392e-01,1.428500746746840244e-01
2.679982118560349513e-01,2.628538622946043901e-01,-1.749641597466278509e-01
7.992113226697224182e-02,6.278324313105627941e-02,-5.228884295082587841e-02
8.228764000637968368e-02,6.812419400892014143e-02,-2.962331356912538058e-02
-4.057564119305040462e-01,-4.896524914200743872e-01,2.936777043689683397e-01
6.067285832945135127e-01,6.700385980665630736e-01,-4.143965372251890988e-01
5.529798444195850940e-03,-2.615086563506120385e-02,2.402675363295352085e-03
-3.473599703492471491e-01,-4.083530950287411199e-01,2.274297762361635333e-01
-1.916537650157815187e-01,-2.164090286624368864e-01,1.247716220825681871e-01
4.954104435921201643e-01,5.305493211569716205e-01,-3.384937510978290875e-01
-3.372707910116876789e-02,-6.799226286488106730e-02,5.875864619855110556e-03
3.393073092785743317e-01,3.065571550205110629e-01,-1.998691346401315627e-01
-2.573919830798805930e-01,-2.898341527726849831e-01,1.350049143695669918e-01
4.144146646207940710e-01,4.100770081815389156e-01,-2.472477132513307696e-01
-1.466360749760763360e-01,-1.983957072179157177e-01,1.316719942143093069e-01
-6.614786850294551712e-01,-6.917970261502655038e-01,4.134372112903256236e-01
8.708141622893374179e-02,9.601070546070455958e-02,-4.849952148969241539e-02
-9.173958887936543155e-03,-4.439344729706973941e-02,4.906987740866668862e-02
-2.287592707134775416e-01,-2.436921692910516968e-01,1.345541917682812061e-01
2.975999222747964246e-01,3.260743378519284086e-01,-2.062382670149950914e-01
6.020511477825479796e-01,6.110447890413620575e-01,-3.741911917336108173e-01
5.118727992267148030e-01,5.026487093312722587e-01,-3.080193251347446148e-01
3.748083573289081594e-01,4.117079851553626102e-01,-2.746615768748777442e-01
-4.283050561089416508e-01,-4.368711525956934794e-01,2.838796835718013223e-01
-4.832416995907806156e-01,-5.204548932516585014e-01,3.124943039609279216e-01
-5.039155671462932640e-01,-5.245191360080003751e-01,3.270743564920998714e-01
6.666096933265587554e-02,4.195082963970530460e-02,-5.012275388304094498e-02
-3.769867286449548605e-01,-3.391161638124977618e-01,2.039543006039263029e-01
2.741967730491405852e-01,2.741195366465450922e-01,-2.095751757318012054e-01
4.349204471991455767e-01,4.314426513931908236e-01,-2.906276607420140157e-01
4.527123119610862445e-01,4.982243759758159252e-01,-3.320096126273156534e-01
3.232513221210692178e-01,2.889524645412226977e-01,-2.464765128940922256e-01
4.247329752209348941e-01,4.222061503104268532e-01,-2.991614192775262082e-01
-5.636445699826755362e-01,-5.878720462191336926e-01,3.577664487517316361e-01
4.241053708160055780e-01,4.184862852490834340e-01,-2.850791407428768243e-01
4.685076530977084763e-01,5.195013671189265825e-01,-2.679475557949890230e-01
3.201055446988494424e-01,3.505542612900960919e-01,-1.785115796562113388e-01
5.670480350450061158e-01,5.895850611824255960e-01,-3.846547974231323552e-01
3.908729795829037346e-01,4.015835340724774327e-01,-2.667943506594721015e-01
3.858232713335248976e-01,4.708474926367796076e-01,-2.964903554424068721e-01
4.754824841444122430e-01,5.180575430581140228e-01,-3.372738588124598036e-01
-4.531392215527171308e-01,-4.854195831004309292e-01,2.798678889232525946e-01
-6.058637322287845350e-01,-6.808149701411038146e-01,3.888384403824605151e-01
2.206384057084183337e-01,2.522832697952078762e-01,-1.592253599936282182e-01
-6.188764265619569604e-01,-6.648232368152702243e-01,3.702152943023393483e-01
-4.302772968263813280e-01,-4.240519446647488810e-01,2.991005872522740638e-01
-1.357312083689275473e-01,-1.923366150831519461e-01,9.666355393380841876e-02
3.396721528268323853e-01,3.843547788145617594e-01,-2.589144014515655234e-01
4.709742747143300656e-01,4.933527606733480453e-01,-2.719810292705114874e-01
-1.378915910922199894e-01,-1.614167970859960721e-01,8.792165396876683303e-02
-2.256153389525392128e-01,-2.095711086777152787e-01,1.327389977318407244e-01
3.968913549413778385e-01,3.847310633953882064e-01,-2.387734065258818317e-01
6.941606500705425897e-02,1.017649194989786732e-01,-9.945559187906577447e-02
-5.727603231430515862e-01,-5.676423556688431349e-01,3.400734409978257156e-01
5.667934116412253198e-01,5.747829154584030986e-01,-4.075728177116720863e-01
-4.113747848867039258e-01,-4.642178634483309363e-01,2.872004294965845306e-01
-4.770777412861684774e-01,-5.252018181560277332e-01,3.370646495112085139e-01
6.217058122885069649e-01,6.410981246234429554e-01,-3.876718238538120476e-01
2.206392572757871762e-01,2.207238053736277628e-01,-1.652177163820865990e-01
-3.674801440881832471e-01,-4.374499570758808575e-01,2.506597106877857528e-01
-2.982352522518214588e-01,-3.673545313247667532e-01,2.225999164063576508e-01
4.931832863780617054e-02,2.904109747166573954e-02,-7.546944666011788996e-03
-3.762390292244473938e-02,4.545329231919081892e-03,1.277229464237271059e-02
4.401440913645885966e-01,5.160738226236711856e-01,-3.191883812487991690e-01
1.660300762152903476e-03,8.871681911162469444e-03,3.894030728397301216e-02
2.304403861642933260e-01,2.821251120946176583e-01,-2.156469636060867057e-01
-8.139039373089011764e-02,-9.684899719874573432e-02,6.092897433616658448e-02
-3.569335155527122438e-01,-4.367645239285866676e-01,2.575444040552143377e-01
-4.020107822237675710e-01,-4.437136217892719281e-01,2.775635148000528130e-01
2.321951220533700067e-01,2.554580507820876090e-01,-1.723056729977311963e-01
1.853002415373854964e-03,1.498312277818627386e-02,-2.244040515540581676e-02
1.885566356559731649e-01,2.380858697500938814e-01,-1.285377594108241817e-01
1.582948294203930309e-02,6.293038700360945037e-02,-5.887259116191939905e-04
3.362342950115050355e-01,4.081090243098976500e-01,-2.409505040725379577e-01
4.489572813602873413e-01,4.851518819842771668e-01,-2.847564523146379201e-01
3.700276480791781508e-01,4.257211814260400962e-01,-2.648741165784838647e-01
2.897680349692488000e-01,2.818381563336764817e-01,-1.956634504546032050e-01
-6.762449755923124473e-01,-6.628299157243973116e-01,4.007889095153470138e-01
-1.838627192481335493e-01,-1.747087891503099899e-01,7.854634849782682338e-02
3.884225010843513903e-01,4.372413875023671292e-01,-2.838067282687167237e-01
3.303949965863067217e-01,3.906651977485343097e-01,-2.476672792245043220e-01
3.477715053589496841e-01,3.395692451837060144e-01,-1.920817010770787536e-01
6.442996202342827772e-01,6.562160583704028660e-01,-3.386930747457229662e-01
-5.837905691390559149e-01,-5.710038063215200355e-01,3.439735272008244693e-01
4.432166605664225600e-01,4.888861665743302609e-01,-2.754709346507515089e-01
3.317568169887172291e-02,4.231350233012914214e-02,-5.111940235689105966e-02
-6.173182208084977418e-01,-6.606237267534842417e-01,4.290850411329379943e-01
1.335649570646560980e-01,1.631759634452310537e-01,-1.147415329166860398e-01
-5.040326458714471380e-01,-5.252182375503415823e-01,3.589070541391121139e-01
-1.921239531835882697e-01,-1.761229909935061733e-01,1.216674894072604651e-01
-6.074819344441382274e-01,-6.390715686294701214e-01,3.672220219259211271e-01
3.442012355249151473e-02,2.882034428677364424e-02,-5.433728098296436611e-03
4.252796157133053589e-01,4.242195228296266052e-01,-2.376299955866309210e-01
5.359296544065518531e-02,6.399263428779358720e-02,-4.295444732063050802e-02
3.207702442123075981e-01,3.304928554967499488e-01,-2.173930588353480964e-01
-4.893066687431610884e-01,-5.273873901782737406e-01,2.929860630840595559e-01
1.517214379295380167e-01,1.913232936418387542e-01,-1.099312608767629984e-01
4.385770838550087647e-01,4.805562765831438155e-01,-3.031378033147111295e-01
5.769203104143858507e-01,6.218196218568018407e-01,-3.911554977854618809e-01
-4.024154725804601762e-01,-4.757383732038803492e-01,2.949814679907858950e-01
1.696563346846086673e-01,2.460864013427885855e-01,-1.031440749019056219e-01
-4.372513974381513763e-02,-7.522939426747402014e-02,7.092695686034315716e-02
-5.599631383483306690e-01,-5.994506199955296211e-01,3.794902377334953281e-01
-5.520076815619407995e-01,-6.008036315029369190e-01,3.709153617174433815e-01
8.029945542528681146e-02,7.638410856851375608e-02,-3.129906929511461905e-02
4.028196570351918471e-01,4.399337022694901345e-01,-2.361253018049398189e-01
5.305035952014887091e-01,5.398715912823965901e-01,-3.582302303783848063e-01
6.314545865948874015e-01,6.263048414033249855e-01,-4.169927138884437778e-01
2.155243673089179621e-02,1.808675906381693177e-02,-1.684080726129203245e-02
4.929054447575165754e-01,5.089550522876868932e-01,-3.156718264589604694e-01
2.428078368120803743e-01,2.385280592893719298e-01,-1.847550284654702890e-01
4.389087838079502868e-01,4.283223430117806263e-01,-2.682583086964815400e-01
-5.946003132006992820e-01,-6.199974123212635968e-01,4.170564280341975683e-01
4.721567310129472506e-01,4.981770090379364913e-01,-2.917144644712182933e-01
2.862987267158019211e-01,3.386465565086216878e-01,-1.841259078909900093e-01
-3.851004623842839147e-01,-4.259308468819971161e-01,2.424989548767819136e-01
1.296906109994692413e-01,1.737015682651100734e-01,-1.061251199762040381e-01
-2.250426225011924464e-01,-2.314084921857544608e-01,1.296249610932495022e-01
-2.037566395012403164e-01,-2.209450707953111437e-01,1.392766017918423971e-01
4.630832914150233570e-01,5.387138002695559535e-01,-2.971978974850230659e-01
-4.805637471855247478e-01,-5.217703316408469627e-01,3.027465549422058144e-01
5.189066481899292649e-01,5.726564447745798869e-01,-3.542521095800753028e-01
5.890650678973453624e-01,6.593131393988810318e-01,-3.863326441589696736e-01
-3.621129272525986376e-01,-4.055377843690651241e-01,3.054746065834574864e-01
3.167385460122781188e-02,1.730198569982093620e-02,-2.956091717486753270e-02
1.311456758494053965e-01,1.053002343532122992e-01,-7.560330825166401703e-02
3.866230726702808984e-01,4.529084765695748915e-01,-2.487420952075897196e-01
-1.555541883039242117e-02,-8.208576227906343517e-03,5.813961355728731496e-03
5.906361697245635645e-01,6.527549882696437322e-01,-3.716619485471117645e-01
-3.054158190021191710e-02,-4.230145387902866511e-02,5.142435989082776160e-02
-5.953312006439427373e-01,-6.571509512009229281e-01,4.023272996598299955e-01
-6.470147219090984780e-01,-6.812223071376936057e-01,4.465089810096936063e-01
1.360499804423719039e-01,1.068441749679908681e-01,-9.550701786009523075e-02
-4.775602350917301786e-01,-5.147146258797418161e-01,3.264390638424821689e-01
-4.865771023696008335e-01,-5.048550316918786196e-01,3.125189377766297016e-01
-3.810670466692036573e-01,-3.941057397093074011e-01,2.851759684708409237e-01
2.116750929301382256e-01,2.549659080654816390e-01,-1.396977724553428724e-01
1.705313010736447255e-01,2.127592379897338681e-01,-1.494495850979682960e-01
-4.162055442864679988e-01,-4.576252692589527493e-01,3.255300710099043315e-01
-2.899973006999791991e-01,-3.178038095185351519e-01,2.231236298922948391e-01
4.241183044830589832e-01,3.959368169805328463e-01,-2.604490001739032667e-01
-5.619407937691711652e-01,-5.774357876950775292e-01,3.343193455476575204e-01
4.386308549571533988e-02,7.749931652729395715e-02,-1.707936630860828683e-02
3.343197927737688591e-02,7.654253553496111542e-03,-5.094847671733579442e-02
-4.821610063792381440e-01,-5.024232311733550782e-01,3.156448011645976992e-01
2.655248331486395053e-01,2.763866884529969647e-01,-1.869005372385465769e-01
5.468547266669290252e-01,5.517115270906970403e-01,-3.362295359628400537e-01
-4.360499145860802228e-01,-5.065480239979318622e-01,3.330093535272839467e-01
-4.243155734724194383e-01,-4.510923271844846094e-01,2.777797172832752182e-01
-1.643204852788378856e-01,-1.899535920692183300e-01,1.157009220767428875e-01
-1.206261635170500640e-01,-1.859811929062746005e-01,7.508411016094133916e-02
1.532502044777814820e-01,1.534435674515265413e-01,-8.119395161832780594e-02
1.756047062431476957e-01,1.716246671479840780e-01,-1.499588254071001492e-01
-3.803125882636525928e-02,-3.235704101533986438e-02,2.514768191629974947e-02
6.503378435425858362e-01,6.648627748241850988e-01,-3.977342936142785335e-01
-4.417422623651600655e-01,-4.402400745354462797e-01,2.625086252217756488e-01
5.909306903728708260e-01,6.868201129395274940e-01,-3.925686089881654794e-01
1.192649102807953054e-01,1.693735309564195490e-01,-7.295368343839192526e-02
1.592600825932915798e-01,1.966227882400961580e-01,-9.655694653687671436e-02
-2.933226869376264756e-01,-3.155637582860568724e-01,1.910342251110511702e-01
2.081165410426088769e-01,2.291679782135679078e-01,-9.421712129268294822e-02
6.248825880645363373e-01,6.549379064811805540e-01,-4.182997534617345914e-01
4.626874127598598063e-01,4.954096655526647464e-01,-2.611238026162387982e-01
-1.976645961935585283e-01,-2.540243280283770999e-01,1.944686038046122556e-01
3.987066391993616121e-01,3.818299078786556167e-01,-2.780632441861753401e-01
2.784673411231866624e-02,3.919226107229074885e-02,-4.206075341504010578e-02
-1.082072406005477050e-01,-9.916509344894880451e-02,2.333078732685374759e-02
-3.451230900892311437e-01,-3.905085241955824071e-01,2.537195359929962368e-01
-5.790217909808419439e-01,-5.501780832691416379e-01,3.918569165948905253e-01
-2.854144925372065211e-01,-2.620187733431536548e-01,1.782776524731853052e-01
1.782515643436152764e-01,1.683767088644909649e-01,-9.417517951784641628e-02
6.681720903444904325e-02,8.981040162768372248e-02,-7.836104653952742638e-02
-3.396944121324637633e-01,-3.914105939138181056e-01,2.679728816736880459e-01
1.617595967287440151e-01,1.710417247141316210e-01,-1.289206029729852987e-01
-3.953890114657498955e-01,-4.241247068046368751e-01,2.694640390707213617e-01
3.812416156457529848e-01,3.880061650734315526e-01,-2.402203656068435111e-01
5.238339967334070257e-01,5.987622815304481927e-01,-3.752250295139243907e-01
-5.922814357870331836e-01,-6.344844789814991781e-01,3.927995555319006016e-01
2.180063163859580766e-01,1.870644020798356288e-01,-1.617843962737716967e-01
3.678231802189889290e-03,5.553565185621442413e-02,-5.719337860869366796e-02
-4.745430325318879539e-01,-4.922839617520208821e-01,3.082108212750356846e-01
-3.877101259377211395e-01,-4.082156533818431243e-01,2.528163434673201260e-01
2.002587812451821769e-01,2.276531912813133107e-01,-1.041102881537378233e-01
-5.442471945681002232e-01,-5.661710815042109157e-01,3.650184416339158355e-01
-4.359027719808029611e-01,-4.897662335590134974e-01,2.518851471753092430e-01
-3.054231855831383846e-02,-5.769573912397180787e-02,5.034734380094660344e-02
-5.360593597883680506e-01,-5.739503824652539832e-01,3.764730850193832024e-01
4.790265784234570834e-01,4.948008935622358329e-01,-2.916173959255440318e-01
6.120660512882020177e-01,6.245286578041272518e-01,-3.581107556643891576e-01
-6.283902756877381979e-01,-6.887958346864433423e-01,4.268899532753082648e-01
-4.621725460981536138e-01,-4.728256670183917931e-01,3.167801320182088709e-01
1.078895219642548309e-01,1.082870014712336015e-01,-2.312573333133479542e-02
1.118971652898075875e-01,1.185601559741715078e-01,-5.885026850952395500e-02
-4.477924564901903381e-01,-4.508228703246055513e-01,2.520278760154955333e-01
1.581237081947328149e-01,1.360768283669943346e-01,-9.992757120498230172e-02
2.744943495982643533e-01,3.062883461982450206e-01,-2.257182164600892438e-01
2.857774415475275442e-01,2.624702824115574540e-01,-1.459415151435292934e-01
1.777870285027162711e-01,1.068263307068134244e-01,-1.056158519820766944e-01
3.735906796375231265e-01,4.066186361900642754e-01,-2.484838624381323358e-01
-1.467829041871751006e-01,-1.511876930597776947e-01,1.563794499547792316e-01
5.317402863073146246e-01,5.797029972131035880e-01,-3.459280423630289314e-01
-1.364375949579243186e-01,-1.108948742862741060e-01,1.051050681463577829e-01
-2.548861001438844642e-01,-2.808671486705697773e-01,1.878204999556240262e-01
6.032733723266124892e-01,6.317310561576139349e-01,-3.593218317200789214e-01
-5.680787260828639162e-01,-6.276377726004765956e-01,4.123577884986060482e-01
-3.685668964883867527e-01,-3.899137849047696891e-01,2.174490080019232108e-01
6.532964487737276393e-02,6.913191421474926268e-02,-3.674680401218232556e-02
1.810670868361882180e-01,1.870702141408649710e-01,-1.107037214404831965e-01
-2.398088655262584912e-01,-2.506080780192681545e-01,1.859976774678741007e-01
-6.192369511920806646e-01,-6.399442271360868961e-01,4.160151808915016347e-01
6.168909810777607472e-01,6.587672143342467868e-01,-3.982077218035616761e-01
-1.015647057331319075e-01,-1.331317178366886456e-01,6.283278949275403202e-02
1.497958919654238108e-01,1.644185422765095383e-01,-1.039058312115583443e-01
2.211682507639812223e-01,2.478416141078764734e-01,-1.655927474951520983e-01
4.977958769807140360e-01,5.834421180838814669e-01,-3.567883035050166685e-01
3.691067981017045474e-01,4.025040677887870566e-01,-2.623061083509716229e-01
-2.057035392712283639e-01,-2.512945956167788597e-01,1.294093378553026197e-01
5.163147875710496493e-01,5.240695505129485676e-01,-2.981093880504039895e-01
-4.418985764617701650e-01,-4.774063864448186978e-01,2.648837682105308344e-01
5.576906005912849601e-02,7.260465070885552263e-02,-6.014258591016507366e-02
4.143499049470330542e-01,4.182838088105512164e-01,-2.994076794467337432e-01
-6.489856224825728548e-01,-6.798936391111747302e-01,4.669450131637655210e-01
4.303033300319190624e-01,4.804674951939600369e-01,-3.149113410926479006e-01
2.689129980987932655e-01,3.181009978464904853e-01,-2.226567778554288668e-01
-3.947489191787561524e-01,-4.000964320146925823e-01,2.664077349833566810e-01
-2.847480100543071102e-01,-3.019083509646656727e-01,1.434185731699145760e-01
-2.840001222740079490e-01,-2.703578090863912320e-01,1.609248632752518504e-01
-4.534185088460228608e-01,-5.174597826511827536e-01,2.731921721650608093e-01
-1.916591559363033936e-01,-1.738477663595779932e-01,1.261814140690687702e-01
-3.142577131829978887e-01,-3.563105484742975504e-01,2.224866640547535357e-01
-1.280443349879243908e-01,-2.050642733243925875e-01,1.108891404255065299e-01
1.310595449897133946e-01,2.043545000671048162e-01,-1.060213257349136851e-01
-2.942056498554633873e-02,-9.483192013863005893e-03,-1.042379674440518066e-02
-1.333043576696957000e-01,-1.254208044535079780e-01,8.385174205651146906e-02
4.094361064515810722e-01,4.469467933654328040e-01,-2.860845960978928848e-01
6.420665787346109543e-02,7.791704005735515526e-02,-7.436944036000806002e-02
5.608176012612139244e-02,6.402060322078018118e-02,-1.352123340898172578e-02
-4.000308507332950292e-01,-4.197267955527823613e-01,2.624657519551427676e-01
4.281386800093809342e-01,4.292811439315947220e-01,-3.097224333075274116e-01
-5.254212320778244294e-01,-5.339905708267599360e-01,3.492510255667082286e-01
4.093926415891047110e-01,4.372614631998512635e-01,-2.684893346326440167e-01
6.382807717659018110e-01,6.865079354187186844e-01,-4.294639757693829996e-01
2.127751691637348175e-01,2.166132906863844354e-01,-1.316194445151213921e-01
2.836021783302827837e-01,2.736725400885362536e-01,-1.645801341053765299e-01
3.376443212454049436e-01,3.171355391652585509e-01,-1.704788663617853306e-01
3.651785722107550036e-01,3.429350022517178576e-01,-1.953378653861530256e-01
4.081456999733255597e-01,4.666118837682268761e-01,-3.097873823731133180e-01
3.160635598722568718e-01,2.876939335524704711e-01,-1.722349510794376759e-01
6.037696564429672064e-01,6.337079853326332834e-01,-4.274295076607970145e-01
-6.651595175801853221e-01,-6.659683808305824071e-01,3.826953507350970840e-01
1.325845155104424522e-01,1.614833950801180806e-01,-1.201518559327833385e-01
2.059390164493896391e-01,2.672079846891867727e-01,-1.217357334138006036e-01
-5.989429547906698348e-01,-5.698872750114999386e-01,3.599673012585760667e-01
1.156519783587619948e-01,9.916694931127226220e-02,-5.689843153682103138e-02
-6.362756265073307160e-01,-6.581330822754334342e-01,4.266510751104796717e-01
8.288784783000967271e-02,9.257825925647869547e-02,-3.690757258755762021e-02
2.625124058846634023e-01,2.706279795155357992e-01,-1.741448845381713129e-01
1.054655635264469815e-01,1.106522945533523761e-01,-2.559229867314977147e-02
-1.145734478294411635e-01,-1.633559258297772598e-01,7.414772740497586889e-02
1.611665172553007896e-01,1.635459552504167635e-01,-6.268866759419632062e-02
-4.124994239632190363e-01,-4.049343334199526079e-01,2.505932130954305892e-01
-2.980210675249180818e-01,-3.373783711742851521e-01,1.737756279896838785e-01
1.726013688423246595e-01,1.252871831606977848e-01,-1.061899006446597321e-01
-3.645952116394860498e-01,-4.079569622893227110e-01,2.404186278380321673e-01
5.523910700439514931e-01,5.534225638604458597e-01,-3.948616544481984292e-01
6.049528707442054509e-01,6.646253932250877350e-01,-4.175461731126411946e-01
-1.546039567979912710e-01,-1.992202307996602806e-01,1.103378175555412566e-01
-1.159702809189474132e-01,-1.096401888141670944e-01,6.192065022525846535e-02
-4.118034690845008561e-02,-3.246946577912099979e-02,3.826572983925288773e-02
-5.306010139314049079e-01,-5.034908821452985794e-01,3.455387737718096375e-01
9.112173097769640795e-02,8.219530436154563746e-02,-5.805275716758052235e-02
-6.209189450444745767e-02,-1.966828712326382234e-02,2.410271985824644775e-02
3.638442981386930120e-01,3.932947404106652556e-01,-2.574119844475832308e-01
-5.030164633036403599e-01,-5.051519872124468069e-01,3.342506053720500914e-01
-4.184054423129544009e-01,-4.464394549087626896e-01,2.883390112279692330e-01
-3.530167455923419184e-01,-3.596716740558069114e-01,2.652391557954255075e-01
-3.630174885207285151e-01,-3.895299411573218684e-01,2.317949397226603259e-01
1.482451363942977052e-01,2.143631197874997507e-01,-1.332077441446588850e-01
5.984283672831051115e-01,6.467343385185758686e-01,-4.222671970833172250e-01
6.106259858855842548e-01,6.182578522741321025e-01,-4.125888443057150190e-01
6.387815733472946844e-01,6.898161453823149492e-01,-4.057848098951536420e-01
4.908088979142279928e-01,5.038239222811331519e-01,-2.842833046503517314e-01
1.608034622934758073e-01,1.716277412454051687e-01,-1.161165419728006076e-01
-9.147293398197015035e-02,-7.493925119538913382e-02,2.977272575757340320e-02
5.620400133078463645e-01,5.699185053216793140e-01,-3.298932849831693326e-01
-2.939889350365658127e-01,-3.071188218364742650e-01,2.273708891091318629e-01
4.552495940866056467e-01,4.865231972248077463e-01,-2.879539777990666183e-01
1.880347975588615717e-01,1.623841364905804219e-01,-1.099469578281346838e-01
5.454826453697699806e-01,5.987692366764865159e-01,-3.747598202200088102e-01
5.762859710835960270e-01,5.990759423123027672e-01,-3.601792176942013035e-01
-2.879987658210061419e-01,-2.712909732763329473e-01,1.757052504376290236e-01
3.400787443515089215e-01,3.244854457559249172e-01,-1.726579672979582647e-01
-2.945074916348442429e-01,-3.260269730376438857e-01,1.745899767942270808e-01
4.178957119342496807e-01,4.241246624196350901e-01,-2.771376058676854881e-01
-1.432367864829447168e-01,-1.574331725409383320e-01,8.956408578835538259e-02
-3.837770097900389810e-01,-4.123548952962011738e-01,2.747975034732292321e-01
-2.970049343875124093e-01,-3.472853012409377049e-01,1.841737915184984142e-01
6.495470862789137767e-01,6.745269151004912311e-01,-4.276488091115241419e-01
5.005364673215794737e-03,-7.812015484492801191e-03,3.325405395642933720e-02
-5.932786592711348783e-01,-6.475322881159901733e-01,3.740803647504025720e-01
5.112624758405341918e-01,5.621275935269884894e-01,-3.396403492164493110e-01
5.933965899226488760e-01,5.671111868120957133e-01,-4.047284079030052939e-01
-4.555827591405179899e-01,-5.301313540657104362e-01,3.184748225477929129e-01
5.347362643640470869e-01,5.413663885444190971e-01,-3.552771549416376962e-01
6.648653837290897928e-02,1.264031190238728286e-01,-4.353335312313655336e-02
5.257451912746502476e-01,5.941260830233153767e-01,-3.366730506252524346e-01
2.287215645017852683e-01,1.598701056057147407e-01,-1.140342951304723490e-01
4.628148971836014702e-01,5.274482373782453104e-01,-3.636900694250861932e-01
5.380194698115288165e-01,5.839744780244713329e-01,-3.647708671848423068e-01
5.876847362568762279e-01,6.874056774715839868e-01,-4.360284791455879549e-01
-6.341528604908943656e-01,-6.497821960863330304e-01,3.780130477813679613e-01
4.750338853730595168e-01,5.739934433619936494e-01,-3.159277802629595899e-01
-6.028673963556002713e-01,-6.437166362041901735e-01,4.174031212591969853e-01
3.118618825747352385e-01,3.409525070593271701e-01,-2.248241491642601342e-01
5.437600060180544093e-01,5.946159195257940677e-01,-3.942318205091237537e-01
-1.122050592315074202e-01,-1.124472680616987325e-01,7.127238670033061996e-02
-1.238396104747289950e-01,-1.507393045453476743e-01,1.104132359871173724e-01
5.931184817725242836e-02,1.190431188657117417e-01,-8.758426523259438268e-02
-5.855894409297313086e-01,-6.248047626101083107e-01,3.815908006475821068e-01
3.020816121662666665e-01,2.663505672325640616e-01,-2.026988270307082673e-01
-2.838070210226100176e-01,-2.677221134746848308e-01,1.508363429944148404e-01
5.870688643647317129e-01,5.677146772206894676e-01,-3.729140991430723306e-01
5.638483942007970207e-01,5.916162750234413847e-01,-3.873253371565326120e-01
-1.723449687396576835e-01,-1.943661158548642687e-01,6.075997989095199836e-02
8.442894719493099914e-03,-1.051469594817951506e-02,5.180846278673732763e-02
5.497400975384927196e-02,2.160124844364380570e-02,-1.813274484597433844e-02
-3.614495766774221130e-01,-4.069930413817159920e-01,2.725872932426081641e-01
-1.457655640002252229e-01,-1.754800945657796207e-01,9.542313601031780779e-02
4.940624860177298405e-01,5.103206498576303707e-01,-3.065932044878480478e-01
1.532390520199425898e-01,1.283194308565581421e-01,-9.822084476998783897e-02
-1.307851207490008383e-01,-1.063044797837746636e-01,2.990637770074400584e-02
-2.361997734228600196e-02,-1.533634111078894732e-02,1.045227765030263753e-02
-3.786825874744901843e-01,-4.342417230938913630e-01,2.820378879837397990e-01
-2.268404357564419438e-01,-2.377057701007658785e-01,1.318391889602507916e-01
-4.524399278526060053e-01,-4.204824966994725743e-01,2.593272759345335299e-01
-1.526772011924074947e-02,-1.673865269949966622e-02,4.153957408131981471e-02
5.209559824185349131e-01,5.328442468448790770e-01,-2.933767353395541622e-01
5.318895131527151543e-01,5.157907007479846095e-01,-3.316390390938421251e-01
3.355810814047200386e-01,4.028030578514240068e-01,-2.141139405585799071e-01
-3.455119244797291711e-01,-3.950105656701724532e-01,2.012599262668434696e-01
-3.072298167917431599e-01,-3.634706601875821175e-01,2.012590431582382822e-01
-3.325956391707494270e-02,-6.203759368676967090e-02,3.133666194686975104e-02
-2.747878147265680158e-03,-1.269815520444916336e-02,-2.183802086765716799e-02
2.153199871098504248e-01,1.894061219325677836e-01,-1.649380105585636080e-01
1.216486984661976078e-01,1.380816357484776491e-01,-7.406175373119637528e-02
-2.331494533182350559e-01,-2.601149480217818111e-01,1.032801672476339194e-01
-1.677726890173047991e-01,-1.719595570717052657e-01,6.653438490972109209e-02
-6.761867405267025788e-01,-6.962575731664301104e-01,4.358614916332513856e-01
6.518499095068358562e-01,6.464129642756757388e-01,-4.426318799484599831e-01
-3.338797070438512815e-01,-3.399785192921416788e-01,2.157312922955203216e-01
2.443925909121626439e-01,3.205492510850683208e-01,-1.914348794600023718e-01
5.444787699982535090e-01,5.538312473434742200e-01,-3.609716554552664380e-01
-6.059630029833544818e-01,-6.165769451132189216e-01,3.582280929470887942e-01
3.545874195543253227e-01,3.449945055425033269e-01,-2.210395816438074368e-01
-5.019437796816330621e-01,-5.442343088010425101e-01,3.181302403764922349e-01
5.433069462789622550e-01,5.571847514477599184e-01,-3.209331895367014686e-01
6.152226182507112284e-01,6.229947368164628907e-01,-3.837502748887286486e-01
3.995582787184883133e-01,3.991946705581136401e-01,-2.491400910801667978e-01
1.829205627932356526e-01,2.283091738049189412e-01,-8.555027242001876642e-02
-5.203669220250599636e-01,-5.192119701565989232e-01,3.524194708066797355e-01
-5.069555314170073324e-01,-5.671721977280083093e-01,2.945498510263273029e-01
4.630165761130360935e-01,5.100563630234922208e-01,-3.135854077850341315e-01
-3.536147066142591999e-01,-3.432025176444047365e-01,2.372036652594267381e-01
5.562721644692750766e-01,5.459938965467051597e-01,-3.289968330648569417e-01
9.105914927783580193e-02,8.329501001370737123e-02,-4.517722081800050471e-02
-2.316377643399458175e-01,-2.599988011340723104e-01,1.615360571850811555e-01
1.044566327197032629e-01,1.281852237874566702e-01,-1.142066914471413230e-01
-1.595346189397267578e-01,-1.790569903942269558e-01,9.135156424962538602e-02
-2.656462092201324898e-01,-3.012387913972295883e-01,2.171089928154348869e-01
-1.110536585560513989e-01,-2.284250870843508585e-02,3.288629042360269317e-02
-2.177488129118855531e-02,-3.765042042157862312e-02,7.303928752972109473e-02
-5.454799076904458532e-01,-5.848857271730765195e-01,3.466130522420946547e-01
-1.694128490077969340e-01,-1.619492280592093603e-01,1.083482177265060464e-01
-1.060483152164527071e-01,-1.515071329676846990e-01,8.316679399483861701e-02
4.117625886389005840e-01,5.023945085853421810e-01,-3.053285564183950695e-01
4.110808475200051215e-01,4.364260816633023232e-01,-2.816454024113324017e-01
-3.885163671479922587e-01,-3.919301647230902796e-01,2.644687495566562796e-01
2.889314471226210879e-01,3.137052832796587976e-01,-1.710250300949605062e-01
-3.068148651558236795e-01,-3.208090193789556732e-01,2.111743462481298628e-01
2.981232588921433613e-01,3.376068878018337882e-01,-2.064995435038854688e-01
1.573174306608647877e-01,1.710308352778993068e-01,-7.891308261270366109e-02
-3.493992305798693243e-01,-3.680142545505789564e-01,2.076284221819579279e-01
-4.982714441718794629e-01,-5.439309664589442317e-01,3.527820106150211243e-01
2.341123516881079003e-01,2.326412170515229361e-01,-1.352722213481578339e-01
3.735829428043155320e-02,4.003415839816242688e-02,-4.446320249318435475e-02
2.929625067929395033e-01,3.006888794057331893e-01,-1.693544160530233711e-01
5.289752597817135582e-01,4.821777825422419728e-01,-2.800031829591977939e-01
1.600811418073821435e-01,1.730770125921889946e-01,-1.560651050204912849e-01
4.832950846522417465e-01,5.353150819829582963e-01,-3.431317386750800669e-01
3.659982195630669399e-01,3.966981350075047263e-01,-2.274721297216726057e-01
1.304760981842490453e-01,1.552689050574071472e-01,-9.327905387880804089e-02
6.520868781656313784e-01,6.619991898847213951e-01,-4.470024562435325199e-01
6.117133717301235230e-01,6.517092132867242649e-01,-4.024088554557137543e-01
2.769018582522838057e-01,3.126500263063709539e-01,-1.642481789851965024e-01
-4.699912634376188780e-01,-4.982475203594981528e-01,3.448528010761669482e-01
5.055092016404938438e-01,5.569038078338284237e-01,-3.005278333128892365e-01
1.715027598956701260e-01,1.763939586964861084e-01,-9.145856867903072451e-02
1.600669650438019675e-01,1.783468251688158923e-01,-1.201249775039955614e-01
5.954188515570243423e-01,6.464508571682184845e-01,-3.982921512714577283e-01
-5.137206448181103058e-01,-4.509920905574770766e-01,3.238125599518312248e-01
5.493952899424032754e-01,6.060839685715181391e-01,-3.600571178485451607e-01
-1.899935214971840147e-01,-2.231376305529342574e-01,1.481109304302709040e-01
5.960846628257997493e-01,6.357017385971841517e-01,-3.707284688453235111e-01
-4.166712985054530916e-01,-4.186875220898582106e-01,2.620832571303045588e-01
4.835825008695723293e-01,5.120620785762053373e-01,-3.116002756409891883e-01
7.237730349132784347e-02,7.291336855115601590e-02,-6.878948822698237320e-02
-4.251228337477131469e-01,-4.683120374376708583e-01,2.523758692000992454e-01
6.182109354279973212e-01,6.457285254281113218e-01,-4.045123579661327740e-01
-5.414337181126054749e-02,-9.696316494533341324e-02,3.545730143094403403e-02
-4.578301246412213588e-01,-4.864291080712042636e-01,3.095669442057903953e-01
2.689833376275886367e-01,2.885402496415235829e-01,-1.584304314987736440e-01
-1.532139126942098639e-01,-2.174418512343455900e-01,1.084901464521323688e-01
3.990900801006802556e-02,1.037907768184887086e-01,-5.884944022824287191e-02
5.657469189904519302e-01,6.385807078584366803e-01,-3.766139366372767694e-01
2.263551464231346733e-01,2.758872631440325018e-01,-1.732071604209709514e-01
-3.576463693155986379e-03,1.038511651979058537e-02,1.193631204817846049e-02
5.237970201907209411e-01,5.586259238824458073e-01,-3.270990505914088686e-01
-2.085395942908840616e-01,-1.838108214664105344e-01,9.894557252856631124e-02
3.730851812557304248e-01,3.899659892875279033e-01,-2.276985095977700768e-01
3.824265223433090943e-01,4.029258836064527616e-01,-2.337894637393407027e-01
-2.116256927689304512e-01,-2.476574257787616806e-01,1.779276685582315554e-01
3.933305032700869508e-01,4.624243993204302794e-01,-2.848926535841045937e-01
-6.374173614994097514e-01,-6.851711415346063427e-01,4.466710913718694997e-01
-1.400881386532526196e-01,-1.625007829219719258e-01,1.169191717130320801e-01
-4.448248125324505975e-01,-4.582179203163650461e-01,2.631358472123866976e-01
-2.595701194136886270e-01,-2.800005237250702828e-01,2.070582520519992087e-01
-2.872924996739055492e-02,-6.924301428540699521e-02,5.677588672004020565e-02
1.113758142123531802e-01,6.563234043015543639e-02,-8.807658010729932374e-02
-4.249398744012210516e-01,-4.538635577649310360e-01,2.955363281891622007e-01
4.952822009256195590e-02,5.566950177355159401e-02,-3.486888240696669333e-02
-6.035056597347150387e-01,-6.005110075140033254e-01,3.551541683392308024e-01
3.665318379375603897e-01,4.083771661847984680e-01,-2.546518575230942161e-01
-4.811935776695600575e-01,-5.191028356023744683e-01,3.166360450005079041e-01
7.237231098290236586e-02,9.653135531657537627e-02,-4.942100634804886400e-02
-5.323086926688230802e-01,-5.878464493133319646e-01,3.067453441729885988e-01
-8.008194432345094871e-02,-4.338780504436992591e-02,7.378970259560663214e-02
4.065991477883031946e-01,4.157004440730458494e-01,-2.575065398667651384e-01
-5.215129538243133966e-01,-5.979774243432827152e-01,3.499863947921719176e-01
8.253096763712546025e-02,7.889722135422334859e-02,-5.537459782982676049e-02
4.200700674401684487e-01,5.122777139157834725e-01,-2.659990628395181300e-01
4.828644008727484005e-01,4.254926317143858383e-01,-2.908216911163197249e-01
2.619318164546132754e-01,2.811491643093892989e-01,-1.675763360746725106e-01
3.090449120617347889e-01,3.279529221678987860e-01,-1.676431056259218844e-01
3.086949952480260162e-01,2.864089037283426009e-01,-2.182335286115384410e-01
3.889390132599245264e-01,4.403007804391600999e-01,-2.467877698468660674e-01
1.223413995243646107e-01,1.430216763948692626e-01,-3.485941602185181620e-02
2.761175616513558140e-01,2.704772269999209389e-01,-1.772143699456136812e-01
1.888811630179297596e-01,2.202940477296189414e-01,-1.228734548851985880e-01
-5.816411420039774988e-02,-4.608761905491581129e-02,1.042910985194002438e-02
3.507280459954471019e-01,3.855925453980000306e-01,-2.096231290209179532e-01
-2.164650818208026795e-01,-2.556990422129224449e-01,1.532103475870116027e-01
-2.673934431298928827e-01,-2.900691337445398532e-01,1.824735264934544965e-01
5.260796753161220973e-01,5.823449036429344527e-01,-3.438577459311916718e-01
1.093671491391687012e-01,1.671410289809555916e-01,-8.890871935429654760e-02
3.685168615945503823e-01,4.196844301372940622e-01,-2.234420041419519776e-01
3.042508186221809519e-01,3.606442088535711799e-01,-2.225287248225809866e-01
5.807681164808290442e-01,6.156188022414084138e-01,-3.729139389986242392e-01
-5.799299679093242732e-01,-6.297918867625156292e-01,3.762644665312418479e-01
8.703753160701051261e-02,6.850246382257747790e-02,-7.807028585452420455e-02
-1.030286048169308105e-01,-6.064454700676320809e-02,7.285130236996058273e-02
-2.549905495554601886e-01,-2.126969412637718382e-01,1.529575651756482357e-01
2.246257869877020530e-01,2.067183262835042556e-01,-1.641471220308097501e-01
-6.657675356302171499e-02,-9.131541616866659106e-02,1.210739630448715541e-02
1.968266648956595866e-01,1.664970387681111996e-01,-1.181331841808607452e-01
5.669262573592616095e-01,6.776817608146439298e-01,-3.769211674026449188e-01
4.479659577486244104e-01,4.658312819777205571e-01,-2.547247686570410785e-01
-1.769288350426745371e-02,4.443210560894077926e-02,-1.235107978987776134e-02
6.531170303406386157e-02,9.838960351951939187e-02,-7.182796025319881927e-02
-2.167114183654240966e-01,-1.869969293044123348e-01,1.068046878464737337e-01
-3.669562908437153936e-01,-4.070600194731554544e-01,2.705253090647531389e-01
5.800509689219207621e-01,5.862496155676698573e-01,-3.813537325538360334e-01
-7.309996765610551894e-02,-3.657535084474127646e-02,4.803502304498371428e-02
9.594015149059596792e-02,1.199103042908044592e-01,-3.644961457065550720e-02
1.664860306338161733e-01,2.316801346666014783e-01,-1.348052801457055860e-01
2.904607758329959266e-02,2.544681198937980351e-02,-7.880507915060175339e-02
6.279869202418615626e-02,1.056581066337935332e-01,-7.629562995197963771e-02
6.464514690973459654e-01,7.018228345404824431e-01,-4.235056436037468730e-01
-4.664095842877737930e-01,-5.330958652416295518e-01,3.021564613950964984e-01
5.974139767175664639e-01,6.758861417427226570e-01,-4.534695933462367656e-01
4.031257561329761874e-01,4.344218793417268243e-01,-2.657011262313427324e-01
3.520341955841503889e-01,3.474016514221243690e-01,-2.156215262307283886e-01
-5.965260657515745191e-01,-6.823439986606851804e-01,4.396130174906138777e-01
2.443020762728442818e-01,2.738127807621687504e-01,-1.822754521963041718e-01
4.075745972129743433e-01,4.239089622631415089e-01,-2.565285115966296492e-01
-2.233263785756804676e-01,-2.217300089403550500e-01,1.275400405003602189e-01
5.349842110581071175e-01,5.598256686733851240e-01,-3.460674723641392614e-01
-4.725567856473044670e-01,-4.917306163581075529e-01,3.283896827023269349e-01
-4.581389244138662220e-01,-4.434264881318516482e-01,2.790290159879378340e-01
-3.784129516923320224e-01,-3.851566482132531832e-01,2.561557707801117023e-01
5.964574688790856838e-01,5.592821095936848508e-01,-3.585431842577964656e-01
