-1.802778619288334605e+00,2.254350215214479203e+00,-2.243025160926205519e+00
1.765651037584959893e+00,-2.258646887870116249e+00,2.525736879494348219e+00
6.071806761296483224e-01,-8.670115013174529706e-01,6.116200358817961424e-01
-6.198198850139942095e-01,8.952339816863253974e-01,-1.079723726214232515e+00
-1.396554510200261223e+00,2.131234672845633948e+00,-1.991708270528225411e+00
1.212386389058144331e+00,-1.632807333261543148e+00,1.608324737472921484e+00
6.115151251103234653e-01,-6.484892484745575780e-01,8.436456194552309773e-01
1.219261558082918251e+00,-1.217834973677517807e+00,1.375775105274212429e+00
1.900717012478702950e+00,-2.622613115836458064e+00,2.504688117668318448e+00
1.470791577771590086e+00,-1.930977253374306812e+00,1.955958695658170710e+00
-1.915590395202642515e+00,2.444372793119657938e+00,-2.308884709393701495e+00
-1.310784161227720013e+00,1.907659677576469592e+00,-1.693626587167617936e+00
-1.707939965494650325e+00,2.090689510183183941e+00,-2.079800972396214309e+00
8.617935377489606141e-01,-1.126282417628804433e+00,1.127014066927896740e+00
6.475832430917191629e-02,-1.922287746765583560e-01,2.125589019989979622e-01
9.347192486133543143e-01,-1.187675160653361983e+00,1.211425955117250597e+00
1.228300736156437090e+00,-1.885884387567316356e+00,1.886824263970408033e+00
9.860859025381550902e-01,-1.359034377842803565e+00,1.298544473824795542e+00
-1.925362151134312194e+00,2.571939032682345694e+00,-2.514557836607421937e+00
-1.209584795953253661e-01,2.157790758572912873e-02,4.639796280680162990e-03
-1.846460977787112379e+00,2.492524967640899813e+00,-2.479905447044775002e+00
5.758081808636545951e-01,-8.917257273214594937e-01,7.896917436875495744e-01
8.439494263425656451e-01,-1.121841751145185917e+00,1.233862173153030373e+00
-3.699743915341214828e-01,4.896518363931624540e-01,-7.379184683121093880e-01
1.810537982372390164e+00,-2.296013923154373249e+00,2.298823082022940945e+00
-4.102686030023428021e-01,5.613525032301710516e-01,-5.260215865274650016e-01
-1.627864034042581842e+00,2.343584926215432684e+00,-2.515794410179060137e+00
-1.512291761495330844e+00,2.015367798443169711e+00,-2.031389934004271591e+00
-2.397100600580230334e-01,2.638229488702228953e-01,-2.788771770196944444e-01
-8.191157752427575822e-01,1.102423252162083589e+00,-1.123910895473892779e+00
-8.017615776788726556e-02,3.209382507206677559e-02,-1.858979595484375191e-01
1.361892481281082201e+00,-1.997089356614353939e+00,1.870263733292994779e+00
-1.146138871627047973e+00,1.498503216335335564e+00,-1.523331115782926126e+00
9.342672825613320686e-01,-1.165673389780729430e+00,1.135854119043020694e+00
-7.665506626516314093e-01,1.046141204846490425e+00,-1.236545761713788716e+00
1.966511516287799299e+00,-2.209825276563670116e+00,2.345556166606434179e+00
-1.199995887690977092e+00,1.359632370765028408e+00,-1.580303946965277984e+00
-9.081848722349330494e-01,1.106606026461287584e+00,-1.244570651744365541e+00
1.022953596199098980e+00,-1.200909905806176958e+00,1.391301188010906964e+00
9.950975417431585646e-01,-1.375651275667965523e+00,1.244134844144356045e+00
4.318340362533727023e-02,1.571755776697617013e-01,-1.124734381532174060e-01
-1.704626711336299838e+00,2.212077701339281610e+00,-2.268105198846228632e+00
-1.554614326264391666e+00,2.211711363942305830e+00,-2.214708393844065260e+00
1.028047806135389486e+00,-1.349097385942041871e+00,1.394509728090219003e+00
1.382724286340384579e+00,-2.077624432127947340e+00,1.768770394039875571e+00
-2.100406804212072154e-01,3.159720151518664033e-01,-1.315748606591075065e-01
-3.050921826062491515e-01,3.156594098956920780e-01,-4.754935976998959091e-01
1.456157766459633962e-01,-9.773225691302368789e-02,8.772269442231615810e-02
-1.053454863178557632e+00,1.654742235367114844e+00,-1.470041332293726022e+00
-1.704447267702496882e+00,2.168635987105959728e+00,-2.241658652054536294e+00
1.796722055165815402e+00,-2.472386661633267035e+00,2.317143278769643544e+00
6.452286974004292075e-01,-6.848627807123526257e-01,6.432586279374182814e-01
-9.388246641585499264e-01,1.066769414595125420e+00,-1.072960905915099517e+00
-1.926258054650884066e+00,2.464114714393571326e+00,-2.629075159516129023e+00
-2.982697972315995899e-02,-7.622208241123169803e-02,1.653375590248285232e-01
-7.352627376183715757e-01,9.218807847646013354e-01,-9.025882047135163067e-01
-6.244924282853473452e-01,9.319797895593115999e-01,-1.039613730153563509e+00
1.965153203966701678e+00,-2.688483884933905887e+00,2.798666905494787915e+00
-1.293139969460020300e+00,1.646290124775287245e+00,-1.551258522359876268e+00
-1.307034935911503132e-02,-1.170308980736826932e-01,-6.774573244730837385e-02
-1.962284320574936292e+00,2.734044461308322127e+00,-2.639559010565458941e+00
4.904197637653106567e-01,-5.727145456699083148e-01,8.184506295321023472e-01
-1.236299842019517481e+00,1.651215888303293022e+00,-1.651029328766405957e+00
1.548927008779403147e+00,-1.877438740260240602e+00,1.887866504253523869e+00
-1.136809327377999779e+00,1.509502720340898607e+00,-1.485588262825743078e+00
-2.852954648776183100e-01,3.233000544739753623e-01,-3.414258707954778149e-01
-1.653779894020273034e+00,2.153157286810497340e+00,-2.369482171849810470e+00
1.424406063986460413e+00,-1.899117496143594153e+00,1.951848858866202407e+00
-1.464300226651874093e+00,1.882931378381207610e+00,-1.846671197693127597e+00
-1.543581400773829992e+00,2.071606745637504687e+00,-2.217078234649078716e+00
1.000910063657605820e+00,-1.685111527332572745e+00,1.422513708347791672e+00
-1.330993483286097678e+00,2.125273112928732555e+00,-2.061835361378376863e+00
-1.996207228001581013e+00,2.570573777540711369e+00,-2.722694599016631578e+00
-1.542519582023702318e+00,1.977208456465246789e+00,-1.937334143220680760e+00
-1.386885161026611968e+00,1.884890183629498672e+00,-1.911616221617476130e+00
-1.767150106054461434e+00,2.293497056678555968e+00,-2.348906752382857732e+00
1.155789156606126244e+00,-1.415299033837975395e+00,1.671670189909723492e+00
-1.043863895069020442e+00,1.567195476714233981e+00,-1.555475840082225503e+00
-1.980679876885456547e+00,2.535284513848285570e+00,-2.661610964628114306e+00
7.088960951030560675e-01,-1.139941537851376196e+00,1.135986103880855635e+00
1.721451219243858910e+00,-2.129704590923677809e+00,2.033311611034639199e+00
1.518966836550747601e+00,-2.006258330320057404e+00,2.066494357068667131e+00
-3.750600168378730448e-01,5.115058619517176552e-01,-3.795634003107800636e-01
1.191064076542599048e+00,-1.617951924074811476e+00,1.473697449512738844e+00
1.325997080687631113e+00,-1.738676403329810105e+00,1.718141318318181954e+00
-5.566463079124064905e-02,-5.863682707921824555e-02,3.377892537971799447e-02
-7.646001864997233055e-02,-3.847823593557019028e-02,-1.788693419695545073e-01
1.320758263802562504e-01,-1.323857309161606266e-01,1.729624817725245178e-01
1.164284815947579599e+00,-1.780245092744380919e+00,1.525812489665844263e+00
4.168668277898422980e-01,-4.845155809266631364e-01,3.976260362869052933e-01
-6.455670427185354887e-01,7.200609387327829847e-01,-7.568409551794054169e-01
-8.562857176430140882e-01,1.208861859251870730e+00,-1.062361957730312501e+00
-5.738527929307257747e-01,6.951338260280458536e-01,-6.474577827890507509e-01
-1.162251644006337292e+00,1.206930935433979224e+00,-1.285663978602139546e+00
2.675482515831086316e-01,-2.928053674778465787e-01,5.872585741329117148e-01
1.797057192408029636e+00,-2.225137565613778623e+00,2.307655794662241355e+00
-7.359425164947077658e-01,9.797680223327132065e-01,-8.582444705672385155e-01
8.292551833416005325e-01,-9.412847860756297091e-01,1.018860586682050151e+00
1.096063027874242923e+00,-1.546180148092132667e+00,1.421677723104671331e+00
1.884163713024752607e+00,-2.484104220103286575e+00,2.463774641142819188e+00
-7.095587734830862692e-01,1.141359260822750299e+00,-1.028519692754240378e+00
-3.486961091355298414e-01,7.451335567540791072e-01,-3.881512465995873296e-01
1.550559376533495737e+00,-2.191827423321310864e+00,2.194363931907531207e+00
2.556674988816428074e-01,-3.608116855452804250e-01,1.955741126329357538e-01
1.484679247001785996e+00,-2.054682723949507572e+00,1.954923474655480220e+00
-7.851392435767003963e-01,1.172427150197544954e+00,-8.965045815088220627e-01
-1.884323836135201935e+00,2.451473040191586517e+00,-2.387452176078281862e+00
-7.197372557271174420e-01,5.632394730960560425e-01,-6.835767580536149524e-01
-1.363308529270447655e+00,1.527009290482659987e+00,-1.715133578074899523e+00
-5.170413542347078728e-01,4.424634640356362447e-01,-5.406748872861454336e-01
-9.731203626155688902e-01,1.504270933333714311e+00,-1.413285730696339337e+00
-8.106419878027274484e-01,9.821075566735590900e-01,-9.722571847803437306e-01
8.918183771063488141e-01,-1.320281693717553662e+00,1.199959021300843753e+00
-1.864881052094350622e+00,2.416291943683353427e+00,-2.538522132728114666e+00
1.502511982024847148e+00,-1.904740049251661294e+00,1.877917336129087289e+00
1.104171529942620689e+00,-1.320721841173006839e+00,1.181824761093629883e+00
5.334998837289182255e-02,-3.171411850454687875e-01,2.616495024826983040e-01
5.112741173831292230e-01,-9.480754916548737032e-01,8.280190747358830983e-01
1.585167837853020290e+00,-2.115812939383790781e+00,2.259403212959665286e+00
-3.036073308440489504e-01,3.292586118259628880e-01,-1.368083320073817943e-01
4.816058551794364373e-01,-3.314387445995966019e-01,8.108605615045890724e-01
1.121820222031276959e+00,-1.720324912797721817e+00,1.589308630028733571e+00
-1.813641712049323340e+00,2.446147147735695082e+00,-2.244144045774096430e+00
1.723246518754379064e+00,-2.285895282436405829e+00,2.365139460154859652e+00
-1.154431212758560310e+00,1.540206485442700668e+00,-1.633271411980489862e+00
-5.429806729808034360e-01,6.095807404988279332e-01,-8.776374167947476046e-01
-1.616730496584162236e+00,2.206356620076279640e+00,-2.255923998563853061e+00
-8.936082728436724187e-02,-1.269834964607497174e-01,4.203908228203567798e-02
-1.634367444572853101e+00,2.557367270316702523e+00,-2.548362521492824495e+00
7.146933884952234861e-02,-2.515182848657868467e-02,-6.605766543931507369e-03
-1.096312273499744583e+00,1.416308510001410337e+00,-1.415382334939632170e+00
1.635239668247216116e+00,-2.141477376135109800e+00,2.232404530722561287e+00
9.738208021154654004e-01,-1.365814499490837663e+00,1.279604872549032768e+00
-2.043806349995535232e+00,2.646134806883086554e+00,-2.504624048139094672e+00
8.747019087181326924e-01,-1.223174517131779604e+00,9.563787036275278597e-01
-7.006610605443229778e-01,9.407286562054543166e-01,-7.113171112223461989e-01
1.521018523516537435e+00,-2.234606916218908168e+00,2.235690677636240853e+00
-1.187243387121731608e+00,1.631282154937383488e+00,-1.728444756987948194e+00
-2.863460871625354009e-01,6.481084497471355510e-01,-4.970283442626290960e-01
1.808998054720592386e+00,-2.338769269148713636e+00,2.341665393710711029e+00
6.022097340347344341e-01,-7.217378016007736097e-01,5.921219881561572418e-01
-6.512081784118566308e-01,7.591879581244561637e-01,-6.747699205047109627e-01
1.380795018869997559e+00,-1.689338151120722831e+00,1.872698378077660042e+00
1.502625661651346256e+00,-2.273281944526257536e+00,1.953644456036948363e+00
2.114609840646164418e+00,-2.803346410677475031e+00,2.706169029834404327e+00
-2.201091185456539367e+00,2.737440607687022354e+00,-2.560859800952814513e+00
-1.451829341504933035e+00,1.818463533992557890e+00,-1.804016351575091326e+00
-1.738867444072700774e+00,2.187566666129705961e+00,-2.465662507342976539e+00
1.304421884601250525e+00,-1.941042155924508794e+00,1.682836419072408107e+00
6.136124467095135371e-01,-6.305632707710185914e-01,6.757560213539094418e-01
-1.038920250053588124e+00,1.490647406353253768e+00,-1.659891845638813646e+00
-1.366010002235260590e+00,1.637876772254462487e+00,-1.616894988225108687e+00
-1.726970775920126266e+00,2.133305011855006761e+00,-2.244888531784781982e+00
-9.877504067029329038e-01,1.170554573456172198e+00,-1.191225193027307672e+00
-1.525891946570601343e+00,2.077622344211487615e+00,-2.070049414351183614e+00
-1.326638315502128407e+00,1.754021981012794829e+00,-1.878731784597543308e+00
7.088011301461263902e-02,-1.311598631497390144e-01,-4.948116637798783551e-02
1.549663314988170892e+00,-2.153485883693406322e+00,2.393115617509045112e+00
-8.579295625920588808e-01,9.080785342240882407e-01,-1.066936852038886663e+00
-9.095413241672881677e-01,1.204765836785470778e+00,-1.387380851106340129e+00
-5.208253679263755709e-01,6.630337635633958282e-01,-5.917775777740433840e-01
-8.131277873941916701e-01,1.078387125578222916e+00,-1.132669956559411162e+00
1.725525546311372338e+00,-1.803786697278882523e+00,2.045602026067264045e+00
-3.619658665813405563e-01,3.312357684947773162e-01,-3.823069714356262527e-01
-5.477338695179903016e-01,8.252318910064114776e-01,-7.304238451374157615e-01
1.560445589317880133e+00,-2.301065520818157406e+00,2.146089155431058604e+00
-7.883254941825810214e-01,9.400650043382257071e-01,-9.561459403746324082e-01
-1.570164127672903032e+00,2.055133377866433797e+00,-2.159996923485753673e+00
9.556503430585527870e-01,-1.407423297294860376e+00,1.492676218166107516e+00
-1.228572946512886066e+00,1.766041668073955240e+00,-1.663081201016484822e+00
1.554876884706424267e+00,-2.026232738866911465e+00,2.062404857089347399e+00
-1.673572816765055649e+00,2.237402274543602410e+00,-2.241940873838959014e+00
-1.774530343465399618e+00,2.430694563383592577e+00,-2.582609605999625746e+00
-2.152175970099242663e-01,3.243163129867453476e-01,-3.275696589260891356e-01
6.183372206457392606e-01,-8.478281464417257718e-01,8.568492765681475776e-01
-1.907777414835814422e+00,2.564960891785895036e+00,-2.768808972028417692e+00
-1.019540846376069343e+00,1.509977198464163006e+00,-1.374893605787562700e+00
-9.840670947545416825e-01,1.363067497150230345e+00,-1.098282040550040195e+00
-1.348600530686746568e+00,1.958082358138134804e+00,-1.999951403622896251e+00
3.633304406857256197e-01,-8.294810333720789020e-01,5.121094661857941155e-01
5.315542099429595435e-01,-6.177285228861684185e-01,6.978234288277417319e-01
-9.982226492524769457e-01,1.465714492213140874e+00,-1.392262797644544525e+00
-1.600524471248002012e+00,1.927691955333532547e+00,-2.015664412437712993e+00
-1.213439116774403803e-01,6.944428023619229895e-02,-1.721697852894058800e-01
8.261509673998937986e-01,-9.987825629681387207e-01,1.020954222442712833e+00
7.181181679246037008e-01,-1.352310763482823974e+00,1.338804504115100658e+00
-1.756651298344019674e+00,2.406307902739242444e+00,-2.459762384671792201e+00
1.602980137628786661e+00,-2.020830134113835719e+00,2.224417692315966644e+00
-8.713161646113950498e-01,1.262923714171803713e+00,-9.848319474356069803e-01
1.937792778688573192e-01,-3.678703027340218257e-01,2.700355184157793853e-01
1.142982007153299007e+00,-1.674268502054414354e+00,1.708432863200598728e+00
1.014996684549205552e+00,-1.295996970566288597e+00,1.261286847126311450e+00
-1.078916577739855720e+00,1.651989650613717941e+00,-1.420650762823658209e+00
-3.679402751851374997e-01,5.941758189767658571e-01,-5.838789879281263140e-01
-1.742257483196918769e-02,-8.018582865715008501e-02,-6.789339930278845414e-02
-1.387110038428392755e+00,1.891435631622910174e+00,-2.020468617626683727e+00
9.139184246923887089e-01,-1.110080569968885156e+00,1.215843527383290601e+00
-1.860286942429557333e-01,-3.155826314145768891e-02,-1.938217656318302340e-01
-5.343771583054669483e-01,6.405073900537116005e-01,-6.899392712499704539e-01
-4.723127957176229130e-01,5.918956555007242049e-01,-5.055587793167779509e-01
2.150246936068165748e+00,-2.808643401223994029e+00,2.765281862498902843e+00
1.128528869459476836e+00,-1.416455551845562377e+00,1.407735184725729116e+00
1.296813982202501769e+00,-1.540381572071622296e+00,1.542653830324989483e+00
2.117313074763069181e-01,-3.577935397857511246e-01,5.446840266094991057e-01
1.055656815102201440e+00,-1.215194389350741533e+00,1.198688625713497435e+00
-1.216931801155633153e+00,1.449804194034227001e+00,-1.435877702326310512e+00
7.937443682625536789e-01,-1.295892106959557921e+00,1.234500574846946419e+00
5.085309908629982445e-01,-8.592732980016076771e-01,8.921090238234135050e-01
1.366220992816250090e+00,-1.858659762379190949e+00,1.891937066807559908e+00
1.193989710868284870e+00,-1.507901796013176865e+00,1.657945015366592001e+00
-2.034183553024281998e+00,2.620331448334211277e+00,-2.702965254381429983e+00
-6.295639971766422427e-01,7.951359552243997264e-01,-7.845758580936043058e-01
-1.474288453245184760e+00,1.835754327687429521e+00,-1.760504096440199451e+00
-1.782930242288810252e+00,2.345138867319027653e+00,-2.360248505657950524e+00
-1.977704545475401643e+00,2.758424700846764388e+00,-2.660680889817259587e+00
-1.363744883558404508e+00,1.924911853556516839e+00,-1.956569403621546632e+00
-1.982102774819346047e+00,2.634412498971260508e+00,-2.546098300135679615e+00
-2.060750338964696393e+00,2.734716934092923157e+00,-2.807256501710007512e+00
-4.339741361153716670e-01,7.369772414441343455e-01,-6.305374590281949132e-01
-2.681772833749029306e-01,4.572358458643381862e-01,-3.648952933170623858e-01
1.379589149272101578e-01,-1.133671423245799226e-01,1.177094094401480578e-01
9.627701201993880131e-01,-1.434355912554435619e+00,1.277324342250905076e+00
1.427611197145779443e+00,-2.129619763431580104e+00,2.049086563524770366e+00
2.211559422755138005e-01,-3.778608262950641783e-01,3.531822290537601217e-01
-2.840293931829527274e-01,5.032762466255389366e-01,-7.237294713948430047e-01
-1.372887963858349769e+00,1.958817240744009425e+00,-1.945425713220314989e+00
-7.413600646022490137e-01,7.913949113471773211e-01,-7.514598948137443113e-01
-6.735876696386867701e-01,9.004608476646620563e-01,-8.538574000613984305e-01
-1.927319045600218050e+00,2.506771489442859213e+00,-2.529650936661354432e+00
2.143889533695542138e-01,-1.124495082494715165e-01,2.701450291819812444e-01
-1.127389475750457670e+00,1.547548108483271845e+00,-1.716221285108135985e+00
-1.824772785414726872e+00,2.543824943789802617e+00,-2.428725812025481545e+00
2.027555968011519383e+00,-2.653589959174195378e+00,2.784872075535775426e+00
1.035284523860521499e+00,-1.448834333763125537e+00,1.449920581103622430e+00
3.883787199043050586e-01,-5.907147408740296424e-01,6.560569161030397334e-01
6.554454831213499810e-01,-7.769283509697488821e-01,9.838236778944118299e-01
-1.749944633077916256e+00,2.506738304851402699e+00,-2.376627326825324182e+00
-1.952609000346750223e+00,2.465307771825020033e+00,-2.434839280046961818e+00
-2.606997008373635460e-01,4.922621454371715055e-01,-7.183349612185971900e-01
-1.342908259927063197e+00,1.737538916639756348e+00,-1.879706127407477112e+00
-6.999582565596783323e-02,9.849415141297250542e-02,-2.267125831341750830e-01
6.659437822188090106e-01,-8.814124521939178392e-01,9.729896568908291687e-01
1.467035609482887359e+00,-2.058840871596231192e+00,2.108225063532053412e+00
-1.301547239975584525e+00,1.947802485182920096e+00,-1.661470643755619259e+00
1.104099613825975990e+00,-1.512659785633154286e+00,1.393347967492081674e+00
2.324790229220068394e-01,-3.354815279290563890e-01,2.348351263579525894e-01
-4.314773665376505640e-01,8.436877718022655070e-01,-8.199412726142645269e-01
8.068020834411813169e-01,-1.155791071433237560e+00,1.063065379629096752e+00
-2.068098231072209803e+00,2.439946485710899005e+00,-2.621589783354787873e+00
1.849865139641716949e+00,-2.611812464596986683e+00,2.684006965478038964e+00
-1.649546446757423346e-01,1.034306326478920540e-01,-2.902892118026698665e-01
7.387559871104280029e-01,-8.859730870769106925e-01,8.875850980625247244e-01
-1.893605510364129163e+00,2.498547317989135763e+00,-2.320066512360966282e+00
1.522053063467122103e+00,-1.936887707817821047e+00,2.001017521185554315e+00
1.438271596329727675e+00,-1.825017993081074819e+00,1.819956881842305974e+00
-1.077222922177303310e+00,1.704659241922529489e+00,-1.606442422095710088e+00
-1.780335309002002431e-01,2.622058905969327780e-01,-3.027884104984209235e-01
1.846588249695213957e+00,-2.345150936108066908e+00,2.288960602673081102e+00
-1.815366024050139027e+00,2.780051301143900311e+00,-2.571170238429175914e+00
-6.889692983661190873e-01,1.065994000085985327e+00,-1.061765446904613164e+00
-2.008797214695997368e+00,2.538375907659599306e+00,-2.632931859360971849e+00
7.558794180551169362e-01,-1.009826051616496745e+00,1.040576237980218588e+00
-5.702935900249909151e-01,9.682936340275072329e-01,-7.753646508638381007e-01
1.592481516736580449e+00,-2.277588232713329219e+00,2.306797953111622501e+00
3.478857046935968089e-01,-3.593123486502821651e-01,3.934238689899932639e-01
6.817546149477090589e-01,-6.106586161809260949e-01,7.264549796044853514e-01
-1.344980955378314746e+00,1.818163204589730464e+00,-1.819706399440356170e+00
1.854402460393607566e+00,-2.440161675891848070e+00,2.518088138252928321e+00
7.741314106690511121e-01,-1.043702965286160911e+00,8.067874700223812701e-01
6.594874370707473066e-01,-9.881527564529482000e-01,8.846534072678234883e-01
1.927884875260972963e+00,-2.656873625483169299e+00,2.770846821172223695e+00
8.710140474493014429e-01,-1.145250032232822290e+00,1.096398669626173161e+00
-4.403859701798882864e-01,5.327777214694553454e-01,-3.887119560736235768e-01
-1.271689927650099805e-01,1.645114800972083957e-01,-2.007694887425389707e-01
1.943936870314258714e-01,-1.786868006652204965e-01,6.604769943831836909e-02
-3.129102643945667894e-02,1.773985678573909708e-01,-6.371471802871844781e-02
-4.172461755898312918e-01,3.340492037157415939e-01,-4.159587142761929646e-01
-1.865754714474884057e+00,2.309971044877700663e+00,-2.506809522609120933e+00
7.202457666272654713e-01,-1.137783819943830155e+00,1.069991630328533949e+00
1.770328965998226423e+00,-2.392369673465435831e+00,2.520724566576722836e+00
9.120617583921310223e-02,-1.049230568961871278e-03,1.540320715653889783e-01
6.173091779811363811e-01,-9.264141581587598262e-01,8.016959845081295111e-01
2.190296654884255734e+00,-2.873729694145291891e+00,2.827098825757274003e+00
-1.788491366146833572e+00,2.479449871886977963e+00,-2.273883436094474852e+00
-2.209683541748437285e+00,2.834234308563770455e+00,-2.804374781265575045e+00
8.562211685520024207e-02,-3.664387517680643969e-01,2.533615580149919944e-01
-1.734990429195299166e-01,4.473695071606740292e-01,-2.884236681414918402e-01
-8.320733427699791296e-01,1.206732095087511558e+00,-1.068544123892906761e+00
5.631781154097859066e-01,-7.771205948457208246e-01,7.348691233332781403e-01
-1.692630678823827228e+00,2.447175953955056826e+00,-2.516637059760698847e+00
1.482945911287339325e+00,-2.068801044643192810e+00,1.866360425360331643e+00
-1.486960571048580482e+00,1.890242120197591413e+00,-2.188603048593837919e+00
1.464464145847536924e+00,-1.899084866457993126e+00,1.563066526213777285e+00
-5.130227828744163832e-01,6.135860790387062114e-01,-5.382585179485066540e-01
-2.908500427778163422e-01,4.427821663152938236e-01,-6.257004049867586071e-01
1.202859873487173853e-01,-5.292620558730532637e-02,4.214217727311947437e-02
-8.804061021758875505e-01,1.346392941430483381e+00,-1.377778386726274285e+00
-1.464307179938367121e+00,1.791182311524732729e+00,-1.879162271813527463e+00
-1.379877357855671116e+00,2.060224106772075015e+00,-1.912913636193104727e+00
3.228616108125610951e-01,-4.636718481058247909e-01,3.713091533611574402e-01
8.318491693399069353e-01,-1.316847903407304843e+00,1.198797788091171324e+00
-7.524881775798449024e-02,5.497849670327055183e-01,-3.401001345073785265e-01
7.686517236260309582e-01,-9.349567961331824995e-01,9.663350637160766921e-01
-1.722220073567143697e-03,-8.634123881849130322e-02,1.358249151984112502e-01
-1.843172755103146487e+00,2.547325452127096934e+00,-2.614202409138821626e+00
-1.227395052132336017e+00,1.524174067090383833e+00,-1.598466194338399093e+00
-2.037464560269620917e-01,4.415636243214582368e-01,-4.008288653451613226e-01
1.200378837886552308e+00,-1.529427758204092491e+00,1.404644832343534544e+00
8.022927131307652227e-01,-9.824245611006342527e-01,1.020268684070084309e+00
-1.769132171403641651e+00,2.488918214810482699e+00,-2.362869280278172557e+00
1.451207464426130356e+00,-2.015618865833504358e+00,2.033467641533520442e+00
1.757109064254975150e+00,-2.117781804925517708e+00,2.284023709902007315e+00
-1.435899134023078227e+00,1.992420131791445392e+00,-1.908454169369842690e+00
4.117349927874913718e-01,-8.097755358591025576e-01,6.882373871530189646e-01
-4.865753799428644832e-01,7.856805263685706642e-01,-7.419295273288595283e-01
1.870567725667364956e+00,-2.401218462396263575e+00,2.576246296192509000e+00
1.018534656928867799e-01,-4.455652286219593389e-02,9.167130894938337049e-02
1.362855447765299877e-01,8.139258696684784425e-03,1.191953337647733424e-01
-4.320511667903336600e-02,-5.850295277415495238e-02,6.442646204826568690e-03
-1.444843506714669878e+00,1.921015143031501005e+00,-1.884526224590494348e+00
4.813751338970310711e-01,-8.185149919866000490e-01,8.269719260282873963e-01
-1.030659571425902143e+00,1.291778521342711317e+00,-1.188154968071326589e+00
1.978557221918275433e+00,-2.280477246447928596e+00,2.491589081647528126e+00
7.156353544597279237e-01,-1.005457595280502492e+00,1.022406775034688131e+00
2.095629508847013933e-01,-2.529141916475797364e-02,2.580088272148180484e-01
4.664815128842417224e-01,-6.657405244206486827e-01,7.810654891239831032e-01
-3.270187196970220089e-01,3.088708335033733543e-01,-4.189417260303018309e-01
1.463498484865996208e+00,-1.942904018597478188e+00,1.964676042941126743e+00
1.033043491284783233e+00,-1.236340179035636755e+00,1.423071697808927949e+00
-1.479554839482255302e+00,1.891254369609592034e+00,-1.882425903321725880e+00
2.034765975655242476e-01,-4.898178170303624790e-01,5.336664535404035403e-01
5.816964779171783784e-01,-9.077603206541551284e-01,6.887418966378732188e-01
1.583688874906033384e+00,-2.062718449449485902e+00,1.980621451932597532e+00
8.911767149938375487e-01,-1.225082008754978524e+00,1.089433550475725765e+00
4.863568520279460961e-01,-9.543565758199753502e-01,8.074753165920153242e-01
1.126785597817606011e+00,-1.511322159740452475e+00,1.480562757150032160e+00
1.319217510267326920e+00,-1.871608519885440858e+00,1.855497813171177013e+00
5.994430692778458525e-01,-8.363983154484854188e-01,8.650202773132797951e-01
-8.371572523641561681e-01,1.431186741854875377e+00,-1.153218027798685208e+00
1.645189940761698999e+00,-2.191998344206301574e+00,2.380960073947254507e+00
1.476284157667512309e+00,-2.246897129209675104e+00,1.901825762207009829e+00
1.102396577924634524e+00,-1.858677616265289378e+00,1.746374975451698619e+00
-7.670026136474995537e-01,8.019737862578979470e-01,-8.531103479264287026e-01
-3.855127852777915920e-01,5.442888919701780459e-01,-5.757304316097732189e-01
-1.189536212918004487e+00,1.722145762678093384e+00,-1.598896404468557186e+00
9.831001504481848841e-01,-1.265461013338879281e+00,1.488974500597698647e+00
-1.529791958808689456e+00,1.836926852220197803e+00,-1.908133421010201225e+00
8.646222721893563889e-01,-1.231153147217001642e+00,9.060975769872855468e-01
-1.497979432552726475e+00,2.074450342304579920e+00,-2.161220640874525145e+00
9.750296288759774388e-01,-1.012849316390821874e+00,1.169769810374122754e+00
1.471347121605298014e+00,-2.271050312396028392e+00,2.163209782570698181e+00
6.122345341622561499e-01,-8.036763983681650680e-01,6.550707389758649857e-01
2.113421175594854873e+00,-2.651720471860254058e+00,2.934670957562372173e+00
-1.024702366092844263e+00,1.578217796262368022e+00,-1.567280255955744384e+00
-1.680804277566102067e+00,2.111506005235358696e+00,-2.135591763374653507e+00
-7.137935765446513647e-01,1.069520385908119042e+00,-8.254875823181389016e-01
-1.600440442117041506e+00,2.037820042585258395e+00,-2.178245054556574356e+00
-2.808549043478229534e-01,2.976563759766015504e-01,-2.194080555417081413e-01
-5.671304119837378144e-01,4.556056534651129475e-01,-5.813168226809276584e-01
1.325660227060874385e+00,-2.047259790672078861e+00,1.942801097563641388e+00
-1.020293325631558723e+00,1.539926512733395647e+00,-1.366586106275251344e+00
7.509135436711504852e-01,-1.274186020842265510e+00,1.196338649247144836e+00
-8.038039064914151988e-01,1.096705232930589524e+00,-1.253863485318429616e+00
-1.146419560480949729e+00,1.444253951833225136e+00,-1.675714679724502609e+00
1.292933867485709931e-01,-1.153887095298896520e-01,8.641190416357182047e-02
-6.846081551195605241e-01,1.010032118750919583e+00,-8.273287547002374787e-01
-1.915676549843449372e+00,2.647902764482858107e+00,-2.486826766787580301e+00
1.263358357648836749e+00,-1.547317233021830107e+00,1.638475297240211903e+00
1.260300636298795629e+00,-1.909009110918065133e+00,1.860321329508435984e+00
-2.157484926873196596e-01,2.066936673156394566e-01,-2.701062016230394436e-01
2.138390842214576149e-01,-3.123076256113828664e-01,4.548994363514261008e-01
-1.780648030501181533e-01,9.338518074049050044e-02,-1.005482146373685715e-01
-1.232906657630516989e+00,1.589965340706992691e+00,-1.636703888896854364e+00
2.142700246251083851e-01,-1.956507739755539710e-01,1.354268905688952584e-01
8.945269528775795509e-02,-6.009860030682206977e-02,1.083810437944937033e-01
-5.093116310385370493e-01,6.484619702501018823e-01,-8.436277039888457896e-01
-6.064042968275090706e-01,5.526371072903573101e-01,-3.743858215083041285e-01
4.093428196332872804e-01,-6.263757722954501617e-01,9.117279491829752835e-01
1.417786760951446068e+00,-1.904362051261900390e+00,2.109697108807051968e+00
-7.237877976785009881e-01,1.123907677919596670e+00,-1.080952959419724468e+00
3.594575337985448926e-01,-3.817792183471099277e-01,3.074403460438148716e-01
-1.294580201283003884e+00,1.928876647209117889e+00,-1.917344409655956872e+00
5.403921604576716886e-01,-7.051599009855102906e-01,7.387259967470465316e-01
2.212119420406231940e-01,-3.653271494100893690e-01,2.673585457340637017e-01
6.287595239178332962e-01,-9.025692410117019948e-01,9.595592626559441563e-01
1.275037725043099535e+00,-1.521468216277587882e+00,1.677295507245089468e+00
2.474393002338540204e-01,-4.677020512774188177e-01,4.470626025446132745e-01
1.707226522576916983e+00,-2.224427132294351850e+00,2.357133435810459865e+00
5.348545939432878260e-01,-6.607922718333636425e-01,6.881027956598840811e-01
1.847378101416774276e+00,-2.369828686029946674e+00,2.571140861996654703e+00
-1.429101495944741451e+00,2.042940870612888205e+00,-2.212608940995526297e+00
1.461524749812288526e+00,-2.000215177156766000e+00,2.014821576002837844e+00
-1.096019326310883946e+00,1.688655282308704875e+00,-1.641370735412160720e+00
-1.982584415305455927e+00,2.414857325571039048e+00,-2.495918131656009731e+00
-4.660213800611531787e-02,-8.191836828375440027e-02,-2.972027144682339028e-02
8.664171707837068359e-01,-1.197226587130700182e+00,1.166521366919834879e+00
-1.945437093163454367e+00,2.769620949917639408e+00,-2.706844817162579631e+00
4.509867822226061862e-01,-5.582096778701294282e-01,6.018977963856113611e-01
4.241505008592079684e-01,-3.807115581960619499e-01,4.411368825182053754e-01
-4.795866128637643055e-01,3.954593478567171583e-01,-4.684203003043631575e-01
1.303692043556832492e-01,-2.364327189365950099e-01,5.275976408261266043e-02
-1.211891994108130755e+00,1.572132828832864648e+00,-1.564212857080240937e+00
1.752471972147102264e+00,-2.367918882115178203e+00,2.568697963171738152e+00
1.147054609781041234e+00,-1.463203272377423536e+00,1.636470727149080151e+00
-1.578624280589285389e+00,2.198708444480434121e+00,-2.356524953552210810e+00
-1.966000977107258185e+00,2.255788637262934326e+00,-2.463570976081853825e+00
1.536632924536140532e+00,-2.045003745273579643e+00,2.099834932122385034e+00
1.845988032447133387e+00,-2.689200925819383858e+00,2.643151470253772395e+00
-5.676198844551548772e-01,5.877706224819297942e-01,-7.139200960413630836e-01
1.031795156063834984e+00,-1.328248780786339678e+00,1.405065096045335249e+00
-1.264516931542464695e+00,1.637184296629176306e+00,-1.710587820742797360e+00
-1.511904606879982182e+00,2.253088031587150653e+00,-2.226297156793366483e+00
1.877952841190430044e-01,-3.178001183299314358e-01,4.828494691844698039e-01
1.692721903390711047e+00,-2.317624728443009374e+00,2.323668880973404516e+00
-1.413917278221844542e+00,1.934813526600239530e+00,-1.716993238880093253e+00
-3.944946666792807921e-01,4.573260915617655131e-01,-3.476962380511670614e-01
5.206751849559691780e-02,-8.213164460726089799e-02,1.266252159249250386e-01
1.122686853285658648e+00,-1.496044304163651528e+00,1.355550337731658672e+00
-1.011673515408765933e+00,1.201772482644507090e+00,-1.343546339519929411e+00
1.160000281968275981e+00,-1.651833714641622430e+00,1.580786183541279977e+00
1.175283232607349015e+00,-1.531560970597230842e+00,1.483392855007314548e+00
-1.894933693330943081e+00,2.502817362200660867e+00,-2.490659123409451503e+00
8.980481726214993854e-01,-1.366398633278306907e+00,1.579132496751266768e+00
1.653646981449408138e+00,-2.324029317731338473e+00,2.452965376020423083e+00
2.189371651520709561e-01,-1.375222357752124702e-01,1.019726563622715410e-01
8.345646427646670196e-01,-8.681844589866535289e-01,9.720579866327486718e-01
1.131665780842343594e-01,-1.272579056951022025e-01,1.439198224867216935e-01
-1.259138746622128213e+00,1.786931638280409906e+00,-1.716312857498971889e+00
7.468951672169693579e-01,-1.095195882327726578e+00,8.801587666706214286e-01
1.995878512524989212e-01,-1.522420742247547198e-01,1.736585400597394635e-01
1.277350237237685482e+00,-1.598306353390207324e+00,1.678870376941496767e+00
1.938549093511898080e+00,-2.483347713646611776e+00,2.657991035528685320e+00
-5.307925876382241226e-01,7.897894485162483269e-01,-7.888918724038280761e-01
8.761128062683188888e-01,-1.378594111389964683e+00,1.325221522448501332e+00
1.078978954715477334e+00,-1.213041332875578027e+00,1.368338667148734755e+00
-1.763581485988133579e+00,2.222956147516810699e+00,-2.283375214413964294e+00
8.818808570924592249e-01,-1.315222612136466074e+00,1.151126762983686325e+00
-1.321449808220175326e+00,1.719295726847267725e+00,-1.845358909565537386e+00
1.036967820947453767e+00,-1.479934985515201751e+00,1.385490446987206692e+00
-1.281986593169091304e-01,-4.155091267807108774e-02,4.970086007816571644e-02
-1.303675518676364220e+00,1.755185652969969867e+00,-1.697593569280733572e+00
-1.120183816053896608e+00,1.543718315917768535e+00,-1.568148518704656658e+00
2.568728971616061896e-02,-1.661421459508314880e-01,2.217533288768298166e-03
1.709506150166996585e+00,-2.611071934705083475e+00,2.718177755625046821e+00
8.708846920972778127e-01,-1.149688631560076280e+00,1.353330280628773696e+00
-2.529835504745462371e-01,4.330752896846733480e-01,-3.380089059556737330e-01
-3.764640602711701312e-01,4.293444149837976620e-01,-5.558039047608804850e-01
-6.367525015247609277e-01,7.758647704648988785e-01,-8.387160412023919598e-01
2.002828393153684328e+00,-2.591708986805389969e+00,2.821507438140762325e+00
9.715044266056135358e-01,-1.370413437207630425e+00,1.436759382562342813e+00
-6.062649874728998078e-01,7.832613069970666420e-01,-8.380714901527878125e-01
1.688398515344652573e+00,-2.290230282519265526e+00,2.176681254300469437e+00
-1.691831408625148914e+00,2.266004782880659540e+00,-2.285026893126296699e+00
-1.800779824416315344e+00,2.567869729154200531e+00,-2.481419200764742428e+00
1.170464191376887175e+00,-1.577986713105052896e+00,1.563900129196812649e+00
-1.586820272415053745e+00,2.151442902930920553e+00,-2.175487024097927158e+00
2.840529589462698068e-02,1.754525428213801752e-01,-9.280294307586961500e-02
1.324330613295467751e+00,-1.916398297843219467e+00,1.765813605369741968e+00
-1.608375513136799384e-01,1.621642703505082328e-01,-4.709229524286959179e-02
-5.489125387376004861e-01,9.665806886030022804e-01,-9.778182805043893477e-01
1.388754781521939430e+00,-1.939148737755482799e+00,1.700854861532520301e+00
1.439913468161277521e+00,-1.774889884712817612e+00,1.881827449583919565e+00
3.708502106926910707e-02,-2.302997911579773849e-01,2.473173597834481818e-01
1.426121507075666761e+00,-1.789188738211993757e+00,1.928995983491491151e+00
1.147631103722757118e+00,-1.411542580020533233e+00,1.479555784171517896e+00
-1.758246501264346007e+00,2.361863245176840209e+00,-2.434395431500612439e+00
-4.749507431179062489e-01,2.675482879792681623e-01,-3.955015638902006914e-01
-1.704022940405343967e+00,2.269216942547628957e+00,-2.266331969574130856e+00
1.472506755936999756e+00,-1.998866183528157148e+00,1.854979340507257213e+00
-1.345165353762689087e+00,1.929011362551916964e+00,-1.828910253398651875e+00
1.876633986385810360e+00,-2.503392469662225395e+00,2.593908167785847318e+00
-1.605694472536574491e+00,2.422864587366105216e+00,-2.124377989203158457e+00
1.561184850888551967e+00,-2.176702139638274858e+00,2.063210271090287762e+00
-6.955017570460477749e-01,9.112677663703915298e-01,-7.997060342900323970e-01
-7.484465434325759947e-01,1.148953717948673736e+00,-9.802516815088874180e-01
-6.649343082088057244e-01,9.680126677830312998e-01,-8.802851983593219520e-01
5.715498693675181707e-01,-7.665971579685408877e-01,9.970306531059532906e-01
1.470424649083342146e-02,1.600983816098340284e-01,-7.633320977540011820e-02
1.017842377540465693e+00,-1.467088502947267115e+00,1.555098023805527419e+00
-1.430096854485715330e+00,2.079812070269304591e+00,-1.857723531790981042e+00
-1.814543882550737841e+00,2.208904860360366484e+00,-2.286692278143886092e+00
1.263144390287125773e+00,-1.696831144351659493e+00,1.782275674262953302e+00
2.006460881507259764e+00,-2.787939111659123004e+00,2.646053913779526034e+00
-1.995338696414703739e+00,2.604112512051595552e+00,-2.581216422331373828e+00
-1.252401566136466915e+00,1.719121745437328874e+00,-1.873395435035561940e+00
-8.205775178877900977e-01,1.356493160334407921e+00,-1.288991967984808307e+00
-4.611728847127284370e-01,5.474921431224750723e-01,-5.909813477750277544e-01
-1.065647217781991785e+00,1.067591714240851530e+00,-1.083313845932452946e+00
-1.086541178191895718e-01,-3.878694555903977603e-02,3.132037283703845848e-02
1.676303163738696922e+00,-2.547195354804992373e+00,2.512177385111428851e+00
3.806559817011226921e-01,-4.888551755536459931e-01,4.166894521073272184e-01
1.705672783915920698e+00,-2.447823175465496437e+00,2.540395744444234882e+00
1.417391904401876346e+00,-1.971435968871217748e+00,2.117127627586087968e+00
1.328132782775611531e+00,-2.031965109980147233e+00,2.041609498534385558e+00
2.966565671582332420e-01,-2.689681272844015592e-01,2.979822439429635761e-01
-1.550080789939142223e+00,2.067537922903974756e+00,-2.261865728486519789e+00
1.512778528697566127e+00,-2.003604540439716253e+00,2.106398458939799045e+00
-1.952136790599688365e-01,2.417148032492561632e-02,-1.835169941681541184e-01
1.770830709829727567e+00,-2.365384946469579308e+00,2.383451960455350349e+00
2.841845035970784750e-01,-4.514236728237397411e-01,4.232906220285918564e-01
