-6.626524783714879407e-02,7.513338231849692184e-01,-3.315753017773007127e-01
6.742498232219452936e-02,-6.581909723467517237e-01,2.535254892807282112e-01
-6.732086099388551181e-02,7.376068674844106221e-01,-2.986032503020881745e-01
4.106556380418829866e-02,-6.151050361738771288e-01,2.594292766861388544e-01
7.226812504338838913e-03,-7.098100243297357503e-02,8.823185207811452824e-03
3.034809683743239922e-02,-5.413679906993005275e-01,2.444432911868699432e-01
-6.419221620713802534e-02,6.898380871421492255e-01,-2.789441746803562605e-01
-7.575629181893164116e-03,1.757108831553048089e-01,-3.195902023298256844e-02
2.894848398765038563e-02,-5.496107559625623695e-01,2.431255212451964576e-01
3.378157736407234185e-02,-3.380692169799423552e-01,1.336368583570335944e-01
7.915391470767490015e-03,-2.911118590307064102e-01,1.144789618655384089e-01
-5.212317742455715129e-03,2.744657400864504715e-01,-1.089365934213570863e-01
-3.245550649423258049e-02,4.764349901239198770e-01,-1.630839885797841504e-01
-3.890838620220886997e-03,2.683030923654449174e-01,-6.445689339842612664e-02
5.485390180757368506e-02,-5.534502308402666770e-01,2.340754008393976793e-01
-1.673187278215121712e-02,4.618095813290264418e-01,-1.805296761386274429e-01
-7.804434445668628588e-03,-3.446770837525441888e-01,1.293807045084586216e-01
1.298104255463407297e-02,8.379300894805502553e-02,-1.678465498340661957e-02
5.480637382635100002e-02,-8.047488816547053725e-01,3.220612228204569605e-01
5.131287518095074135e-02,-6.094994151658025272e-01,2.178375528724204313e-01
-8.106910665367182689e-02,6.682377008791524631e-01,-2.797253853773458143e-01
3.804734954403572733e-02,-2.446867138207735048e-01,8.536163385686665328e-02
-2.399085975359496747e-02,9.710001691098438248e-03,1.367610271364041140e-02
1.295292581920914898e-02,-4.593419491970055640e-02,2.888058470037364184e-02
6.280673378855274915e-03,-2.373413608164870736e-01,8.200493807320552442e-02
-6.311406279732572483e-03,1.295100081084920585e-01,-5.098717901593639162e-02
-4.447084241011595163e-02,5.366673908224993683e-01,-2.250173918803002326e-01
1.794203440006518838e-02,-1.112989404846293773e-01,7.776220574233311256e-02
-6.803142111310217510e-02,7.523974169402829482e-01,-2.768558673574386120e-01
-2.509786116321654700e-02,4.119804373291231503e-01,-1.704185407112793205e-01
4.171256086684477227e-02,-6.798692370074016500e-01,2.673683614553152843e-01
4.009267157066979947e-02,-8.059897798825886861e-01,3.176267600449752537e-01
-4.836154673892352485e-02,7.437510509217722943e-01,-3.020614598735059109e-01
8.780102334376113302e-03,-1.895326342579261303e-01,6.350097851327551890e-02
4.145420902636452742e-02,-6.153578848304903648e-01,2.873095464817631006e-01
3.378937963676956202e-02,-5.319476297363899819e-01,1.886319013641901965e-01
-2.453699741203066442e-02,3.447932910882310353e-01,-1.127500070300516410e-01
5.503924390131669647e-02,-4.773967035539402604e-01,1.940280609366099029e-01
-7.189369869218335818e-02,6.277966291348646699e-01,-2.308239800538628705e-01
-3.927636475074243461e-02,6.975911389663559392e-01,-2.649404626614977887e-01
-8.131913984728136868e-03,-8.187261433333740956e-02,6.558524866035024548e-02
3.055560851766823266e-02,-1.748960209784025943e-01,1.039009096195428750e-01
-3.344137831500802044e-02,3.364279745305803759e-01,-1.240977122168324953e-01
-5.766204076363557612e-02,6.495434936708222029e-01,-2.683611445589971223e-01
2.026068853378274262e-02,1.026928502766017298e-01,-1.098008527666977617e-02
-6.120235311678707928e-03,3.398578641470311190e-01,-1.471366108410698259e-01
-1.933830942874430192e-02,3.607221551868832754e-01,-1.097711981218115890e-01
-4.290682734182019176e-02,7.710118906417648965e-01,-3.182827021125254063e-01
-4.218568743175692831e-02,7.863305168736619555e-01,-3.249060463597025494e-01
6.843436289885559964e-02,-4.551857693131892701e-01,1.449618118299228209e-01
-1.137948777882746322e-02,-1.006125834662414675e-01,1.419524777774655057e-02
4.189340696983440311e-03,-3.506814439359625113e-01,1.167373221665442412e-01
5.329341395648762303e-02,-1.333864295447223514e-01,4.494131381554986732e-02
-3.744665173575652262e-02,7.074137799682667094e-01,-2.298655167792373610e-01
-2.396849191990210737e-02,-1.421398462055547818e-01,4.049168335632302718e-02
-4.238241205916981613e-02,4.647595924750205776e-01,-1.907248002622098093e-01
-4.187521952247404838e-02,6.242233644251115043e-01,-2.159089634867930041e-01
7.585950587204901008e-02,-7.722909363109291547e-01,3.178942899069228112e-01
-5.815540880907786939e-03,2.112269547699739958e-01,-9.908744139676667340e-02
8.054306193967289418e-02,-7.424205480878379726e-01,2.971704775556232581e-01
-8.192886475532913659e-02,8.042353858217345941e-01,-3.231619815698300591e-01
-5.246368774941817525e-02,5.495804139359072860e-01,-2.200256123554759635e-01
-6.112160692035709803e-02,7.097879716203895351e-01,-3.139980446751514664e-01
2.766333485063421013e-03,-3.954718022039727110e-01,1.711949526816960720e-01
3.010903068509009767e-02,-2.375661389355189224e-01,8.258623042368168354e-02
3.892988996935664581e-02,-4.141438382680532326e-01,2.013662288623404018e-01
-4.014833990752896681e-02,4.723151450820886610e-01,-2.166688171970891086e-01
-8.048469311622277397e-03,2.048951239493554677e-01,-1.334070537855335803e-01
-4.207667399671772418e-02,5.284592994418811918e-01,-2.302526482108818162e-01
-3.097859536049885586e-03,-3.195027223230895164e-01,1.687910946719246574e-01
3.215062193991292949e-02,-7.477277050249205859e-01,2.647974226066794334e-01
-5.080930358247553146e-03,-6.647059604279129119e-02,3.891120049807022391e-02
-2.874039827219582177e-02,4.093056857183917097e-01,-1.797376937160551358e-01
4.033417547750019032e-03,-7.640057940574120077e-02,3.749475391723328110e-02
-4.343237308570051247e-03,7.901588942254553216e-02,4.196948271823169700e-03
-3.435065303450395707e-02,5.181333706871028566e-01,-2.080444463145431078e-01
8.827459240832830414e-03,-5.123426154495760443e-01,2.374924472183469748e-01
-1.762480334679604813e-02,5.843782175050988847e-01,-2.486703036234784725e-01
5.986607222204086420e-02,-6.746130845676133747e-01,2.568690417725110198e-01
6.662166108285459687e-02,-7.263000507574141063e-01,2.572126691226174211e-01
3.779025786023381545e-02,-2.965783108132135637e-01,1.161573453085688046e-01
6.461321987497925523e-02,-6.885663314992055417e-01,2.594980552920455596e-01
-1.687821624453932773e-02,-3.752845030704378138e-01,1.477318619736793237e-01
-2.540181033812244360e-02,4.464649050361017557e-01,-1.916450540729556506e-01
5.432479229295166662e-02,-3.866959989796397990e-01,1.477076786995391855e-01
9.212623526587127715e-03,-4.162187825253328421e-01,1.753802759333653594e-01
6.565294840450769907e-03,-3.939055368653915368e-01,1.938005279594370855e-01
-4.393333359146016012e-03,4.006126916905803914e-01,-1.615683164130500837e-01
-2.938200125125422710e-02,3.057212872735902143e-01,-1.326909108410417315e-01
-5.860804070374099617e-02,6.953302403496394168e-01,-2.796921916754652737e-01
3.450289404783686564e-02,-5.550010978994426303e-01,2.087472309495213008e-01
4.712763803331435769e-02,-6.815609481795749103e-01,2.711412831764550835e-01
3.781022943263260411e-02,-7.006030768234053907e-01,2.680610593265938535e-01
2.916901381353985238e-03,-1.018391127278628489e-01,1.435423439542102969e-02
-2.748899831713375042e-02,6.154407488861602937e-01,-2.381328317545789441e-01
-7.794847441951226197e-02,7.269934978753725963e-01,-2.901461993913114767e-01
-3.847176604345434875e-02,4.325678913475208276e-01,-1.787349671043005628e-01
5.166777956554265833e-02,-2.144257898331598244e-01,9.328609152617417521e-02
1.780139157779040901e-02,-1.040952869568580706e-02,-2.747919100398980505e-03
6.189796375901332470e-02,-6.425176169812452098e-01,2.863150825661084919e-01
-2.193121104790998407e-02,1.621230866126374959e-01,-6.258201746954317191e-02
1.003762918975451973e-01,-6.621742147892166752e-01,2.327674667113624751e-01
-4.863491728242541091e-03,1.419923747521138480e-01,-3.685160597947618327e-02
-7.251710254940404998e-02,5.931918399971893852e-01,-2.515668181557166316e-01
-6.033151102323841726e-03,4.429396053480418871e-01,-1.861255510765976451e-01
-3.024379676599004210e-02,2.401854370064928079e-01,-1.489358128756178845e-01
1.920439333386579975e-02,-3.269065143661625261e-01,1.207683920715417608e-01
1.883661861131971302e-02,-2.179522963877169595e-01,1.153463747574266507e-01
4.778529757955931462e-02,-6.872821627288797641e-01,2.566230932650118701e-01
-7.450386056398190793e-02,4.615689736119909514e-01,-1.802651820854676845e-01
4.011759943395454275e-02,-5.165429476635885475e-01,2.107882125529371986e-01
-2.161411389055772209e-02,3.957703365671565443e-01,-1.427773241842298368e-01
1.092989983075049951e-02,-4.035308574076938437e-01,1.754331258412386574e-01
-4.591045376988212717e-02,2.608604336583675298e-01,-1.087243634994962960e-01
-1.987666811107389325e-02,4.267360053089453431e-01,-1.739938396357867123e-01
3.607450429631792188e-02,-6.274959903269630157e-01,2.499317959346758766e-01
-1.119790001957805640e-02,-1.905938656445305968e-01,6.822535904569360099e-02
-1.650828254337802919e-02,4.788154918132443427e-01,-1.883688711582553188e-01
1.664653170395941767e-02,-1.159416704144318466e-01,3.733566486530172368e-02
2.527037405299525571e-02,-4.300521054881481509e-01,1.728873660914907184e-01
-8.974351234357290374e-02,7.415536439668345414e-01,-2.752097539023378170e-01
7.236201564599373595e-04,-2.187326825151258147e-01,9.456491359420857168e-02
-3.567028187427600389e-02,6.918315130112657751e-01,-2.922216782897943399e-01
1.339734405939074779e-02,-2.465265859908307156e-01,6.770880868473470870e-02
-2.086063244911533915e-02,4.086409053582701900e-01,-1.810544118401286595e-01
-5.836152817133082038e-02,5.634882469948254702e-01,-2.352305831558800520e-01
2.669871656866310353e-02,-3.093943579003727296e-01,1.365140012852237295e-01
8.507326880105334915e-03,-4.407209417135806162e-01,1.965479358514763131e-01
-6.196515180046664739e-03,-4.776935680601412243e-02,2.611529581869397390e-02
-9.359282343583645927e-03,2.716961743298936804e-01,-1.046347903057234657e-01
-4.521383715639578499e-02,7.275564350903300781e-01,-3.246735374940104002e-01
5.308939783218777353e-02,-4.610712794764571520e-01,2.076245853812394293e-01
-7.379541437080673616e-02,6.574281278844552601e-01,-3.052289801307929151e-01
-4.252326408791004542e-02,6.722922798545926115e-01,-3.122283245568167609e-01
-1.293143755768290208e-02,1.790189805466897016e-02,3.680655405826994964e-03
6.561086302244045765e-02,-7.413067097859881160e-01,2.899505018622809960e-01
-3.007729214547330554e-02,4.694331191876599529e-01,-1.943389906423377556e-01
3.457946272798991666e-03,9.351620477432864842e-02,-5.540822061364384515e-02
-3.781231320116709010e-02,4.765669581796541654e-01,-2.024320534660503101e-01
-1.884068882805143078e-02,5.240770573787388864e-01,-1.856662523706108514e-01
-2.654906942642089318e-02,4.203418418954248392e-01,-1.553070309238409330e-01
-1.849428136575819934e-02,7.707030731483719421e-01,-2.966936980926797585e-01
4.098287273388043217e-02,-6.201344780238471355e-01,2.434092032532634564e-01
-6.479897909312814532e-05,-9.934061365675078692e-02,6.756927234652770897e-02
1.165741524524103317e-02,1.073282009698890982e-01,-6.188454614727479514e-02
1.060823396974441314e-02,-4.640424560966897871e-02,2.520335958490431752e-02
3.444689407320120078e-02,-3.476562809806478804e-01,1.595768930086541304e-01
4.780828932508513623e-02,-4.401815492728783918e-01,1.728647169393226490e-01
-3.193654102138446249e-02,4.217720276891849251e-01,-1.852565235355514428e-01
-7.660512106524915155e-02,7.923634826429032385e-01,-3.052343844160641528e-01
-5.833833047544044470e-02,3.029773901504532185e-01,-1.470208347844843000e-01
1.892261188793549487e-02,-3.294343576545299412e-01,1.153953733560822981e-01
5.254471805167598014e-02,-3.776122623093786657e-01,1.496221977252689683e-01
8.721169986556772877e-03,1.600207231406930719e-01,-8.154174083053594702e-02
3.744496106824290321e-02,-5.854130853306381832e-01,2.215449554192107373e-01
-4.741916901528697020e-02,6.405222077776444589e-01,-2.745993939742515932e-01
-2.377463589180956599e-02,3.536306526297657293e-01,-1.377619426844265138e-01
-5.383640291905579522e-02,6.759879324133470924e-01,-2.752479980709375273e-01
2.372812517956139969e-02,-3.325290296483351948e-01,1.504562134651329930e-01
-5.108497408222622410e-03,-4.127713148772826912e-01,1.989833992382128991e-01
-9.622734041614160877e-03,1.073829324097174548e-01,-6.386752419623456523e-02
3.407455990506633170e-02,8.164481136561015095e-02,-3.046064898888760711e-02
-5.620155161606511102e-02,6.676175556757228957e-01,-2.620981864377959214e-01
5.383254198389394183e-04,-2.351581156251087434e-01,1.204524245075967170e-01
2.590198735306307315e-02,-5.690713058399680113e-01,1.993579383164600094e-01
-1.438261524233967921e-02,2.926480397834730907e-01,-8.846466781365015797e-02
-1.812906018527750407e-02,5.573893528786092455e-01,-2.475653894496193108e-01
-4.625826806614342923e-02,5.948654383218046071e-01,-2.399925418723149184e-01
3.047318998365545692e-02,-6.189570842836190634e-01,2.688787131756409376e-01
4.563354538699685575e-02,-3.103541304123160205e-01,1.190635521636179139e-01
-4.500441180331479774e-02,5.393921603007374443e-01,-2.288465097660954684e-01
-3.314837337613146112e-02,1.686834694369167831e-01,-5.897058242576787290e-02
-4.202763122177566313e-02,5.356630360476557495e-01,-1.885065042081105480e-01
2.332399354408157613e-02,-1.036298569257238372e-01,6.254747973426339272e-03
-7.701506546778686887e-03,-2.235645470639185256e-02,5.232060484962006153e-02
2.089525216185125073e-02,-1.170513962478331171e-01,3.585319991807900397e-02
2.991431304726161963e-02,-7.255301170302083102e-01,3.048740257220290406e-01
-4.044486996613915440e-03,6.904536655149622060e-02,-2.462096966937803166e-02
-1.444682592019155484e-02,7.710876797222740997e-01,-3.331372574854417623e-01
3.012047501043745891e-03,1.144336997882967333e-01,-4.589917338700578303e-02
-1.783995711133145104e-02,5.995635425681887509e-02,-1.628098419716091094e-02
1.648126925283857971e-02,-1.422356293896605006e-01,7.128838679772390996e-02
-4.240150344985346709e-02,7.277606768739642851e-01,-3.036451234621994066e-01
-1.991189572010954208e-03,-3.046455531815221440e-01,1.168373355565284349e-01
6.435102994257937102e-03,-4.701402067411589170e-01,1.953879488820390586e-01
3.728393212222740061e-02,-7.501833913727921077e-01,3.015632685785529232e-01
-5.128065501088918676e-02,5.760018223211401667e-01,-2.696815953117218112e-01
-1.620475935495253872e-02,3.710821804659663603e-01,-1.545237713431189264e-01
3.449214246398209227e-02,-1.110487984347473672e-01,3.676732200290052516e-02
3.379961420651581699e-02,-3.078860086131754437e-01,1.246310744158653228e-01
-1.186528717323065939e-02,4.010312908165533097e-01,-1.828902328837399005e-01
3.641496960224627211e-02,-5.731236565815778228e-01,2.345264975866418744e-01
2.408473875884681575e-03,-1.294073383844180081e-01,1.591816691141936801e-02
6.719963776447282489e-02,-5.106468265668858697e-01,1.875386337925776248e-01
3.610783802667598408e-02,-5.653427038552503170e-01,2.481107906337426672e-01
-4.292508059072987214e-02,4.652948391389865046e-01,-1.732785738191297276e-01
4.807713371877207070e-02,-6.100752603783199390e-01,2.138239464337971518e-01
-7.924278639906816649e-03,-6.188182098623871280e-02,3.021085643528991296e-02
-2.247739350235776912e-03,6.724588789206531469e-02,-2.895667925478632651e-02
5.001786399158938967e-02,-7.622655987241577780e-01,3.110685830173281485e-01
-9.451509618494438256e-03,-1.220118033919188327e-01,4.930564784577731036e-02
-4.576945947242173907e-02,6.997844836510794808e-01,-2.985003359741170703e-01
-3.384378057813811069e-02,2.209169187644765553e-01,-6.094956152149995365e-02
7.231546801029146987e-02,-7.962639316391723066e-01,2.924894142507323269e-01
6.204495952813678106e-02,-7.699851037790860220e-01,2.953823547869695032e-01
-1.476153163011937296e-02,3.993835452223788995e-01,-1.682846339869469299e-01
-8.718917026951914298e-03,-1.673277444899325672e-01,7.555170568414885934e-02
3.576635053262549463e-02,-1.376866621878566621e-01,7.652412034115187167e-02
2.232912222025788124e-02,-1.441180675478455353e-01,4.854977445196186764e-02
4.475768311601846516e-02,-7.036761648762557275e-01,2.805825115427588723e-01
5.261892680122572108e-02,-5.661445357079591956e-01,2.402277401049243422e-01
-3.836795399338239348e-02,2.655754727153786243e-01,-1.039671682913120981e-01
-4.318935811719897683e-02,7.666793471129484949e-01,-3.428688940139167363e-01
2.430276813572037134e-02,-2.060828796815460939e-01,5.778654676970451654e-02
2.024814337491443253e-02,-3.766506644787743219e-01,1.525268249414615807e-01
7.203065255952276549e-03,-1.781745787272175641e-01,9.520787515737952345e-02
4.892918038139505710e-02,-7.587033823832957102e-01,3.117938699961003701e-01
-3.831146354195880122e-02,4.229083498496928883e-01,-1.524314172673886247e-01
-1.183171865828249597e-02,-2.912290023463876693e-02,3.383191009545442191e-02
-6.865474403500514133e-02,6.374004112718978377e-01,-2.564498384013662036e-01
1.499153085863850002e-02,3.199918880611006544e-02,-2.300403030280729830e-02
-2.749719203293902320e-02,6.449434646898042356e-01,-2.986474424371341474e-01
-3.899870477586560996e-02,2.109818481848013960e-01,-1.056283307096953505e-01
5.017178086355907757e-02,-7.289071137314724336e-01,2.909323067386023753e-01
2.563158098723242878e-02,-6.427795385778347637e-01,2.776276304867948963e-01
3.811593576130750671e-02,-6.232447645960268456e-01,2.455836136393888536e-01
-6.520776837217373556e-02,6.189161515910465150e-01,-2.201766885908440774e-01
-5.110335317331878707e-02,6.922696852306640114e-01,-2.978112668036669852e-01
8.333412326130180264e-03,-1.641596611597572197e-01,1.027713043318573966e-01
1.944429202108917398e-02,-4.832113537427017436e-01,2.048529361723029629e-01
-4.246498034300381919e-02,6.587108821603443465e-01,-2.390309208206125580e-01
1.543430915140918402e-02,-3.352810392770814718e-01,1.485196067057847069e-01
2.737743893044080126e-02,-5.141788210404449888e-01,2.001500995967627761e-01
-1.158279249475938077e-02,-1.517303870424914665e-02,6.244251752914789684e-03
-6.046382129182104048e-02,6.441902563510856217e-01,-2.789915980196313594e-01
-1.346408202897898289e-02,3.918966941408646987e-01,-1.472460266908414417e-01
-4.413281075560519101e-02,4.816834918150312839e-01,-1.834736298427184775e-01
2.371041566469331285e-02,-2.015107944236395610e-01,7.700878736372447630e-02
-1.882531629551642549e-02,4.498697619665562031e-01,-2.055208312284924899e-01
-1.230561337715426785e-02,2.987320938643274748e-01,-1.102112296599088714e-01
6.741739670344067126e-02,-5.172279876333559789e-01,2.052560113105996176e-01
7.901878361393136971e-03,-2.919469971246584361e-01,1.325526060157354580e-01
-4.713578015764419843e-02,3.666024240014275071e-01,-1.611488735314033083e-01
-2.447856968525376556e-02,4.755208263250369494e-01,-1.918954534543679258e-01
1.453720474327232538e-02,-1.148628807982363248e-01,7.949233687493748035e-02
-4.871156132507328818e-02,5.341311087663034307e-01,-2.165803480091141042e-01
5.353991055234538776e-02,-5.640778601969369532e-01,2.188890534561192536e-01
-1.777259375026123481e-02,2.147584809030876618e-01,-9.693519979661800734e-02
-9.042178791529750760e-05,2.081209866694330168e-01,-8.693077277242716727e-02
7.101912483167582488e-03,4.590196572013365700e-02,2.134609507602738040e-03
-4.435342686515902910e-02,6.287214401172394052e-01,-2.574460055516036294e-01
6.428588051196161557e-02,-6.852461737996725644e-01,2.793827505706947267e-01
5.621946654171772195e-02,-5.642652167220135739e-01,2.407953291327629697e-01
-4.004132495138288533e-02,6.849052007274196718e-01,-2.986188431165947010e-01
-4.423586474326978921e-03,6.081012388624444931e-01,-2.507818165642712871e-01
-3.718812889423990520e-02,3.625056786772448691e-01,-1.695527953534913257e-01
-2.736140368126389194e-02,2.929414467764056007e-01,-9.852655868124694793e-02
-4.715974942329487912e-02,5.352064455230449713e-01,-1.930291103472375758e-01
-1.651047060697559063e-02,2.071719361456842712e-01,-7.653927403465106416e-02
8.135422850818467555e-03,-5.971938436460403482e-02,2.989367613858559536e-02
-5.276323605180019416e-02,6.896575044573421964e-01,-2.943537316998606213e-01
-5.311336732208810085e-02,6.343179793061062277e-01,-2.512410985100615446e-01
2.048149989671125756e-02,-1.877691339846204455e-01,6.019179462201310060e-02
-1.383297150469881909e-03,-2.772143331052536186e-01,7.587496491716989866e-02
9.542159704179117505e-03,-4.030431575393381149e-01,1.646759116525405020e-01
-4.802169704310183668e-02,6.868648855466482628e-01,-2.290785567187373084e-01
7.961342972943040441e-02,-4.971132584489425521e-01,2.162679329530406702e-01
-9.534014572189232137e-03,2.322458892568103062e-01,-1.032437669022957666e-01
6.721096747404334271e-02,-7.361627980104542557e-01,2.987130781764084086e-01
-5.003224101730546769e-02,3.089652685342924587e-01,-1.502393232436430581e-01
-6.713243477330525788e-02,6.131456372000535504e-01,-2.366947880201781818e-01
-5.666517652016740333e-03,-1.235971638399429012e-03,2.144993003418695782e-02
3.468999991367851393e-02,-5.900771364371842909e-01,2.162757539724887157e-01
-1.797326502011655294e-02,5.684927277337715745e-01,-2.400959259086044850e-01
-3.126324330387950101e-02,4.940581205554848698e-01,-2.033455267439724656e-01
2.997969256365356702e-02,-5.508093529821443957e-01,2.169039397998100138e-01
-3.224043377236075064e-03,-4.931873554852060811e-03,1.156385332345193431e-02
3.457074004124881250e-02,-7.472139196525787730e-01,2.865166631966160060e-01
5.366591438842142903e-02,-7.465646410963705515e-01,3.029755508369296746e-01
4.945468564474049533e-02,-4.810834447085298171e-01,1.733408358067306532e-01
2.388438882227319950e-03,5.527299983871839743e-04,9.748882790138576476e-03
-9.491342792444450172e-03,-1.287075484638876555e-01,5.696864366799878066e-02
3.299306383030972678e-02,-5.787522371711758540e-01,2.367606205522050644e-01
1.910910925072746222e-02,-3.178804259201058469e-01,8.352818830461565536e-02
-1.838564500689933781e-02,3.880429617151974486e-02,2.364041642293637432e-02
3.638609836446925899e-02,-3.357751396562919100e-01,1.547966402265962271e-01
-1.790315134079825676e-02,2.875958935306497932e-01,-1.261689563259650593e-01
-7.744407350622935227e-03,5.930130477420164636e-01,-2.598586040892204574e-01
2.980481463979613947e-03,-2.308594869187071130e-01,1.002331718454848447e-01
-3.165003410940157857e-02,6.553087976559592853e-01,-2.446313691329070894e-01
5.644238494433311340e-03,-1.049540742791652131e-01,2.469237380852315131e-02
2.998684123441262145e-02,-5.854739471783128035e-01,2.705981773881442898e-01
-8.587735252857983670e-02,8.019662589270508679e-01,-2.945792443729549070e-01
-2.778529150298587446e-03,2.946509387389335544e-01,-1.000463373580864346e-01
2.577871441976699665e-02,-4.415645207080424739e-01,1.713129306801864371e-01
-3.797666654119106339e-02,3.502437480777217949e-01,-1.717766544167503573e-01
2.361305200147988809e-02,-3.427058758196273747e-03,-1.572963710758829708e-02
4.292953433764718635e-02,-2.295964873148312879e-01,9.155007310050475300e-02
3.284046287139337494e-02,-3.470870140117123248e-01,1.279687177410785970e-01
-2.921151843816993318e-02,2.781774555964198203e-01,-1.205083290898701226e-01
5.344176064107207351e-03,-1.203272938337425491e-01,3.726622532437595670e-02
2.588794447101864030e-02,-6.789759922207760923e-01,2.622565267378397791e-01
-2.064044619204252664e-03,-2.588782499341615341e-03,-5.880983741296760305e-03
2.989085523573707225e-03,-2.614155312720897739e-01,6.322665752268925854e-02
7.815425596190200483e-03,-3.498286570373665416e-01,1.474421154592029937e-01
5.617062894323406746e-02,-3.955739996447578122e-01,1.803034608486276391e-01
3.863433025229893319e-02,-3.916895283717841125e-01,1.390672686819603709e-01
1.709356804271636686e-03,-5.274605801701072183e-01,2.132679733078355344e-01
-3.373984012912846497e-02,2.688246644615322478e-01,-1.113114726445870173e-01
3.009724025218097135e-02,-2.959874609745335450e-01,1.060810820328799281e-01
2.746472724555313119e-02,-1.758952221333804633e-01,8.458923491719563814e-02
-2.195584364580900963e-02,8.565151485657057640e-02,-2.504866509342922043e-02
-4.747673525102997366e-02,5.847154762922224247e-01,-2.335759716979352307e-01
4.143136237260954674e-02,-6.001429893601548660e-01,2.433753648191385455e-01
2.686169580987235114e-02,-3.146386073330823541e-01,1.517088406681069979e-01
-2.625869282501623950e-02,5.323452755559124894e-01,-2.087303452432211770e-01
-7.782575801637678890e-03,-3.896245695706709866e-02,7.917854790309188096e-03
-3.937681444329044211e-02,6.849528912303667338e-01,-2.968298323074132772e-01
4.628461209175083885e-02,-6.518553420348603966e-01,2.645261555551429167e-01
1.057497252656577034e-02,5.155782515952948147e-02,-4.053951120220606469e-02
5.010987025597433975e-02,-5.467141502037458078e-01,2.354598137922085388e-01
-8.787101208817978126e-02,6.360453649023567468e-01,-2.574685658284176504e-01
-4.423281271457243924e-02,5.691139160218826494e-03,7.995569172472993466e-03
8.142550428267096834e-04,2.700090374419069073e-01,-6.748449746774058677e-02
-2.808138589708812985e-02,1.524859240148298267e-01,-7.164091756355210616e-02
2.740140667851851536e-02,-2.726146675655544138e-01,1.360121884115033652e-01
-3.880096997430358685e-02,6.707536917268526189e-01,-2.708336399537208394e-01
9.511459470637504549e-03,-2.308893795914884056e-02,2.184391501373212849e-02
-6.301457238257819615e-02,7.833495399734997644e-01,-3.197905810699719353e-01
4.247705179516849533e-02,-4.328855754331175087e-01,1.917399219215835948e-01
-1.909529815537742634e-02,1.922490203678595966e-01,-8.144870997012416958e-02
-4.464816047913679892e-03,2.899882349122732128e-01,-1.069071861391446276e-01
1.893985769941046102e-02,6.111392157975012451e-02,-5.515544730085161079e-02
-1.433855668593696751e-02,4.795687509398947057e-01,-1.756292079558276209e-01
4.048134651501707204e-02,-7.967632445230932170e-01,3.205982755070407308e-01
9.440955524855486336e-03,-4.109915621995360313e-01,1.274869327982078582e-01
1.475577563539809574e-02,1.218460626928905000e-01,-5.070724602403955950e-02
-5.883159395286996496e-02,7.403574186894055220e-01,-3.249914723799097183e-01
-1.994158841458040440e-02,2.547319635268828764e-01,-1.077069998656378369e-01
-1.877914569867597397e-03,3.488616245735552956e-01,-1.339627581211584317e-01
-4.155684691298762445e-02,5.473579230905859516e-01,-2.024523493326711998e-01
-8.681209046159824722e-03,2.101576633113853565e-01,-9.677891463887748624e-02
2.636707936394862631e-02,-6.177493699673421990e-01,2.311060857725211470e-01
-6.331837404089065910e-03,2.586905014653163581e-01,-1.051026952122387781e-01
-2.057374212974384317e-02,7.295400930524836847e-02,-3.720630066032653421e-02
-2.896004660737632602e-02,2.078068653606372496e-01,-5.068606629911098088e-02
9.061126430052402619e-03,-1.106632981582844899e-01,1.737217974086525257e-02
-3.455947535652484359e-02,4.567248833302933742e-01,-2.058327663321050660e-01
-3.237900451375463201e-02,4.323886755843560081e-01,-1.826722034372640080e-01
-1.095031106347283713e-02,4.491067984081674180e-01,-1.561893092540239947e-01
2.509664142245725607e-02,-3.726944781804928386e-01,1.624273772719785069e-01
8.357693918979171646e-03,-1.899482794987732981e-01,1.023766130060244223e-01
2.716939244992479588e-02,-4.919147974660791345e-01,2.189586446463088198e-01
2.133198323551125861e-02,-3.222726542775807279e-01,1.374414889203930956e-01
-1.241109432549242740e-02,5.416676207707543655e-01,-2.487970672381941417e-01
-4.407594841567474830e-02,5.237716369548068851e-01,-2.061895008265716978e-01
-2.446558621920217128e-02,2.531474127485879300e-01,-9.165659163900283235e-02
4.184247254127410748e-02,-5.274533006517007072e-01,1.919640508048051364e-01
-3.607962082127614406e-02,2.380954441732999749e-01,-8.596534330329064222e-02
-5.690580754995959445e-02,4.414880559120752390e-01,-1.872529614799361974e-01
-7.774001513650437289e-02,7.468851940596024086e-01,-3.150131349027427974e-01
-4.629869828209248056e-02,4.261213724601611852e-01,-1.819399631841953080e-01
5.232150960403775253e-02,-7.450636477081395981e-01,3.118386742100102693e-01
2.505674781601644266e-02,-1.330615471206574724e-02,2.492710391720037028e-02
7.719164349395267639e-03,-4.292964573758228375e-01,1.725346375787358832e-01
-3.824029016067171521e-02,7.074429965612958338e-01,-2.792271388124692444e-01
-8.781710912711608585e-02,7.559422311644574677e-01,-2.897846372830425454e-01
-8.139980842116594992e-03,3.019885666426087023e-01,-1.027609841018467252e-01
1.781468945495734771e-02,-1.403775197086563620e-01,5.698705623435736112e-02
-4.213530534225987806e-02,2.418081275471853087e-01,-1.217058586492464067e-01
4.440991252822153873e-02,-6.151297237456520017e-01,2.325175016429321950e-01
5.823945584760310129e-03,-7.583035418859505883e-02,4.787845111754189531e-02
9.955873855996296914e-03,-5.684724680883256331e-01,2.129820770144753572e-01
-4.757349877487968698e-02,5.209244542632635033e-01,-2.349267492058239593e-01
-3.466617257658993062e-03,3.223710710152726255e-01,-1.338724433492429200e-01
-1.668495431329483636e-02,2.277581917206695228e-01,-1.036599078624477893e-01
2.942072678136039773e-02,-5.560737113747530325e-01,2.219473907568826898e-01
-5.453397663819600089e-02,5.686710471874327766e-01,-2.270891464037257390e-01
7.358598940175045677e-02,-6.176074632058760061e-01,2.414618199023680079e-01
-2.977451007937156544e-02,2.505435760334138173e-01,-9.680298027472525324e-02
-2.962127828549736969e-02,5.855861022997765897e-01,-2.381825379916407692e-01
4.406050416945288262e-02,-5.257637779675236045e-01,2.221683960101812350e-01
-2.068466779354283594e-02,4.878956519409387294e-02,-3.143975514893343481e-02
2.145028934128991385e-02,5.552101409779385682e-02,-2.693759397442371112e-02
-6.335724916095505921e-02,7.546283395499258084e-01,-3.375119187858396375e-01
3.877868549527445363e-02,-6.992241707041204624e-01,2.634089953636759018e-01
6.507836962154078114e-03,-7.942165246952866131e-02,3.008165014782948621e-02
2.193960549604292293e-02,-2.927376304763124049e-01,1.112390714063486441e-01
7.947416427674868292e-03,-9.396844149641304933e-02,3.323079115166908959e-02
3.627379280460869132e-02,-7.101688236670375964e-01,3.269950540458056998e-01
4.041963490521387203e-02,-6.155071652203989441e-01,2.774219308439722642e-01
1.337903055776415266e-02,3.225464477375065975e-02,1.339779486438831893e-02
-1.823006724657386807e-02,7.334581764958694738e-02,-4.802934733097384556e-02
2.644039430901106574e-02,-5.423743058308033715e-01,2.188658441094260831e-01
-4.036316137099508344e-02,7.492794896018807327e-01,-2.852670737099376463e-01
-2.568106123071539279e-02,2.060395349145235644e-01,-1.055742259217783141e-01
-2.304255086376368403e-02,1.802524836010003240e-01,-6.967804793265718055e-02
-6.064805304472820763e-02,6.419557877881589825e-01,-2.972602528066962124e-01
-2.356112822999735859e-02,5.391479722741929770e-01,-2.007885452305090690e-01
-4.534134447164552689e-02,1.421268719642737877e-01,-5.162763706730812141e-02
3.605080190700016285e-02,-5.558846587965355912e-01,2.327702096711652124e-01
-1.123305550237518879e-02,2.732766090576856377e-01,-1.047002674662883270e-01
-7.674721248202933700e-03,-1.879305764898591136e-01,9.244509569141584615e-02
-3.218563342873858452e-02,7.149994999092598169e-01,-2.678820032522249983e-01
1.488250955600988260e-02,-6.241341589228949216e-01,2.899209646476619828e-01
3.195471943076618609e-02,-2.022570862892175692e-01,9.777112511980508291e-02
-2.401246373299992937e-02,1.495762195248942217e-01,-6.469133026013716703e-02
-2.447399566750527514e-02,6.881399279189222007e-01,-3.020649209068648200e-01
2.338673855166904098e-02,-3.482372595588585917e-01,1.115593410808755903e-01
-2.420617565784382100e-02,3.044080984854700134e-01,-1.237648815293178745e-01
-2.572317539464001254e-02,1.919012662826630744e-01,-8.572891037698951444e-02
-7.709471713881324573e-03,-3.073121397489442241e-01,1.044434157629392096e-01
-3.329790240919678311e-03,7.375505352226451039e-02,-3.525617523497587974e-02
3.254018653435823000e-02,-7.511581404297902331e-01,3.005376854712994428e-01
-2.938380156006695915e-02,-8.820344544699491862e-02,2.907882382719505221e-02
-1.406422670533104269e-02,9.921840717397270581e-02,-6.179561325737108896e-02
2.361975714495904641e-02,-2.179849697183048607e-01,1.180302257594104814e-01
-3.259384443481911503e-02,7.638968520636874038e-01,-2.972381892705352469e-01
-9.879943514925625114e-03,1.648808527812620217e-01,-4.181447157962905198e-02
2.811142704806469592e-02,-2.262939104742086108e-02,-5.990501309452154512e-03
-1.324446332452763192e-02,1.510047390919829202e-01,-5.865186852033656140e-02
6.298977056068735814e-02,-6.368902540292905590e-01,2.489819912321547535e-01
-2.418764848762299316e-02,3.093030749391676437e-01,-1.326322694756221776e-01
-4.636834339209164324e-02,6.382069814025759236e-01,-2.051232670956241178e-01
2.356555948869492462e-02,-2.598503959807729746e-01,1.259157248409885077e-01
-6.739243129617403412e-03,1.130380225124960614e-01,-6.838155826321193342e-02
-5.419281971046610580e-02,1.586464940872605589e-01,-4.539535158877238546e-02
2.168430256784266083e-02,-4.358275919228428164e-01,1.946624629586162503e-01
4.140971401248953743e-02,-3.715603882905221256e-01,1.447854226277943412e-01
1.980186541930171323e-02,-1.733073337253520918e-01,6.924853677407341590e-02
-5.247899597756530005e-02,5.698440853851045595e-01,-2.246400245754271996e-01
3.325673570255169992e-02,-4.167799881185608735e-01,1.622032298991774035e-01
-4.926324657849357608e-02,4.045610531998779513e-01,-1.874047116813672975e-01
-4.741490501516100464e-02,7.603892432203583907e-01,-2.872418373016685234e-01
-1.768677583543691936e-02,1.987506630016161457e-01,-9.649408121827336704e-02
2.240044974553659710e-02,6.528025855248356657e-02,-1.453930697411046948e-02
-9.375528386429759012e-03,-3.723194873060959448e-02,1.734624278940925454e-02
3.459786731892892930e-02,-6.404809069403435418e-01,2.538773180677471597e-01
-3.895846440595400473e-02,1.612530222495250909e-01,-7.133499604013662787e-02
-3.726190964898085795e-03,1.188281470570751036e-01,-4.322030996581916612e-02
-3.325823589044801104e-02,6.826415212195929838e-01,-2.222396428392844070e-01
2.709705912293440544e-02,-3.866198996451856718e-01,1.359324849712807148e-01
3.911537005822975088e-02,-5.296226712453652175e-01,2.029353612732315293e-01
-7.875450683923437833e-02,7.704801784435717504e-01,-3.318010257352969616e-01
-1.377015005514547683e-02,-3.912644336718935217e-02,-1.788551968686554958e-02
6.804129619392765282e-02,-7.655111678189761015e-01,2.795733476338663759e-01
2.873316211829811742e-02,-1.557838210535045509e-01,6.869828798630095434e-02
-1.247029881967939629e-03,1.823858673431084654e-01,-6.572773822760831497e-02
-1.110731216690092439e-04,1.118263291194624698e-01,-4.747425365118475987e-02
4.030336213170262333e-02,-7.715734190310716833e-01,3.137746174714745040e-01
-6.249410701026698184e-02,6.142817180744151173e-01,-2.403090716985787634e-01
2.983803753054258337e-02,-3.233424817539141682e-01,1.047655170584165518e-01
4.747062016992964484e-02,-6.003347668804782655e-01,2.242786975261227556e-01
5.663193130361685035e-02,-5.051536281924100535e-01,1.962377479675663783e-01
-5.191992202627982583e-02,5.560388127855404594e-01,-2.205997942827607194e-01
5.207110629762076032e-02,-5.566615169274701236e-01,2.429270089739783423e-01
-5.264367522678283645e-02,6.318997791596905333e-01,-2.518110255841233824e-01
-4.297797557527462120e-02,6.165988960844817068e-01,-2.385608337081836505e-01
-1.402944949422144094e-02,1.744841934307806153e-01,-1.213409562834610184e-01
-3.524177525660669805e-03,-3.886192224457081790e-01,1.510953055580898097e-01
3.909940961824934919e-02,-6.603451316258382997e-01,2.665607173639997773e-01
6.153027585226115113e-03,-4.080157636595404536e-01,1.801432176948591646e-01
-2.098286373008801872e-02,3.686791963033300701e-01,-1.516095514647428366e-01
-1.289845956894844665e-02,5.576690946732630882e-01,-2.026830992676187382e-01
9.059350045832258863e-03,-5.546851183454715173e-01,1.945278110045383924e-01
6.796683790039073636e-02,-7.242868857878022038e-01,2.618864355215472783e-01
6.347863905029881015e-02,-6.279742325856092489e-01,2.118695377025909821e-01
6.033263223679212819e-03,-1.914715141723333791e-01,6.480458409548159326e-02
-3.699891029757835376e-02,5.196621007863696518e-01,-1.949662111803700248e-01
-5.119080570685001497e-02,7.821698189097444631e-01,-2.823308988188206747e-01
-8.008157010221202479e-03,-5.874683656161682616e-02,2.720662214810335919e-02
3.031458921844894239e-02,-7.170088254501800762e-01,2.898243437498241315e-01
-5.256081210253786724e-03,1.203651927066940880e-01,-4.994552751191094070e-02
4.725908887649371559e-02,-4.642342745369139045e-01,1.783026287704565227e-01
-6.374083032595231901e-02,7.936416326646339447e-01,-3.309001183229866583e-01
1.846710434128355158e-02,-3.994533210037007898e-01,1.594282130639691208e-01
-1.065106994984283892e-02,-3.578251297048279933e-01,1.478604978427636718e-01
-2.729688822826612307e-02,2.287457373530928650e-01,-9.315411062583076052e-02
3.079977592097165456e-02,-3.916963106171790221e-01,1.554070963694570429e-01
9.214415427796694702e-02,-8.079461296209299315e-01,3.147469633648973253e-01
4.055015158272504139e-02,-4.086759533336892236e-01,1.383388513759700456e-01
-7.337408175638179472e-04,1.270875362769479933e-01,-4.009547196141514253e-02
5.750983361425944518e-02,-7.155914587508162006e-01,2.753653726550587266e-01
2.678709540216782023e-02,-5.931200259500538641e-01,2.369660913156550197e-01
3.794643044348550154e-02,-5.644284668502282942e-01,2.377998444796427524e-01
1.733297263254693354e-02,9.543714100807312861e-02,-1.983122478264614380e-02
1.273618742443843703e-02,-4.232299259867171037e-01,1.746382723409637683e-01
-7.026233503651417578e-02,5.949702170033436266e-01,-2.658558139265677633e-01
6.346121868489510050e-03,-1.445857644382333163e-01,3.850778338711730725e-02
1.575191594019174218e-02,-8.610747552751528422e-02,5.553745325062782456e-02
-1.404866020353547074e-02,4.005383849772497507e-01,-1.969742475946713034e-01
-8.792018736764734693e-03,8.598108584840614965e-02,-1.365358929248225092e-02
-5.599868543048752700e-02,5.316550742824314169e-01,-2.730834896578286375e-01
-1.068362419229514429e-02,3.006362927258913187e-01,-1.315668132194578177e-01
5.757823735956961453e-02,-5.463613914573062225e-01,2.347268764333269309e-01
-5.687565548837787005e-02,5.376917031196305485e-01,-2.464358221130349136e-01
-4.321704351716142839e-02,5.134133199158287253e-01,-2.272962284532643040e-01
-4.714982871540147891e-02,4.333553131348793358e-02,-3.958178048563049806e-02
-1.768515008476717262e-02,8.805895715925811384e-02,-4.277080891225403664e-02
-6.463826430690768066e-02,3.931237946470866884e-01,-2.013636262451831416e-01
