-5.828996700652583178e-03,-1.160060420497028340e-03,-1.323498561414353410e-02
2.702364081531716811e-01,1.579284550945236065e-01,3.443107866995318567e-01
-3.141285006418150783e-01,-1.508320671834983417e-01,-3.915355585432377938e-01
-3.087770496444350310e-01,-1.414497746594057526e-01,-4.113480075054684049e-01
1.366579227300809829e-01,9.536241331159428514e-02,2.001790187681718181e-01
-2.928429028615214258e-01,-1.639071454737285327e-01,-4.119965632662245247e-01
1.142515667763507187e-01,5.389745721753592955e-02,1.554776930799815493e-01
4.206218543726474718e-02,2.500300157921498886e-02,6.037038507474182941e-02
-1.247833443068066400e-01,-8.781472762072434213e-02,-1.608332355837967242e-01
5.432367001027463282e-02,2.010721693043380706e-02,1.012489734799092989e-01
-1.090007300216132707e-01,-4.994552610498126377e-02,-2.010193689516895921e-01
-3.519510153506352768e-01,-1.763946875457959862e-01,-4.558790926621567596e-01
6.961628017822350800e-02,3.694056828633691947e-02,4.817523032667705984e-02
-8.520883909255608235e-02,-5.700126577269689493e-02,-1.058331742261502395e-01
-3.411697943112245168e-01,-1.830556367043934818e-01,-4.667164379080548930e-01
-2.043086459112541942e-02,-8.014707227356959035e-03,-3.712744810195324485e-02
-4.840180981277934086e-02,-4.003950422085064687e-02,-8.665826857199329658e-02
-1.261491503269002723e-01,-4.939627011272665347e-02,-1.684733735520486664e-01
2.661606855226288926e-01,1.317339147324408377e-01,3.638994141194127896e-01
2.209483190412108236e-02,1.079889079808453792e-02,1.899084769275200674e-02
-1.132681029061208267e-01,-5.577343267800666249e-02,-1.659808671164121618e-01
-8.904374207139489905e-02,-4.199832397345365509e-02,-7.903839963378332667e-02
-1.165984902732774275e-01,-5.870341968737701616e-02,-1.598796870931265823e-01
1.398498266942599377e-01,6.703055057935922156e-02,2.086462520720179792e-01
-1.234678063211010896e-02,-9.911304922424410413e-03,-3.699047784687194834e-02
-5.814875581392067033e-02,-2.220427201066214884e-02,-7.165086768616314716e-02
2.546578793128498885e-01,1.318069274555715986e-01,3.057560522594670038e-01
7.557428639431100492e-02,2.829868439693021195e-02,1.155273164471877223e-01
1.382912086334176782e-01,9.355844309539594617e-02,1.895701986887247670e-01
2.110095830280841744e-01,1.008055870890004896e-01,3.034142500211216564e-01
3.497329678294835986e-02,2.792740711774440582e-02,5.131904620191705263e-02
1.556315033697609762e-01,7.237186202222310738e-02,2.346115372786358733e-01
3.060670737345331238e-01,1.603087609167479777e-01,4.257274442849662277e-01
-1.084328119628592269e-01,-5.680849475014489863e-02,-1.511157160092250762e-01
7.263637759924627957e-02,3.606122839407421843e-02,9.347022312320484028e-02
-2.945381968630829683e-01,-1.453997171661162990e-01,-3.816754134670922172e-01
3.268125554515722841e-01,1.694884377473408477e-01,4.203180578845722160e-01
3.489053263228450996e-01,1.689219306675859567e-01,4.381611710738355647e-01
-2.326505798959681015e-01,-1.020029923504368469e-01,-3.143152867067295353e-01
-3.451962953830485792e-01,-1.673279598945996982e-01,-4.309067533218331469e-01
2.667098261503998424e-01,1.219623236105361330e-01,3.262374110722625065e-01
-3.062907282238279683e-01,-1.555099291505745718e-01,-4.181867131390454295e-01
-3.129476595205420986e-01,-1.591447121338040172e-01,-4.132651796802225830e-01
-1.592529186557110621e-01,-8.453027739041960031e-02,-2.185146156825986119e-01
-5.316775016547372126e-03,1.679667542965298729e-02,2.015104690492978533e-03
2.961143815549728830e-01,1.620901648104296211e-01,4.282056954312269403e-01
2.041852987607395142e-01,9.328604862610419268e-02,2.748930186180571500e-01
-9.004007765673287256e-02,-3.725485713732334253e-02,-1.074875341122611822e-01
2.720010028159315363e-01,1.376248233455712733e-01,3.471678974882975166e-01
-7.855862042833372180e-03,6.648063868673046752e-04,-2.462118706868851592e-02
-2.304397741909942066e-01,-1.154205587555058865e-01,-3.019148913874524776e-01
-5.873563641858026152e-02,-4.209833025717625576e-02,-7.290269673478011470e-02
2.206808436019829789e-01,1.234522221161396399e-01,3.381126899551738507e-01
1.678839406626729536e-02,5.443219295991267095e-03,3.224172428084439573e-02
2.837997611047771152e-01,1.433466751249638793e-01,3.844831107876126031e-01
-1.734815857205521672e-01,-8.667150054460284747e-02,-2.311153156036440115e-01
-2.608119691901721882e-01,-1.283484124912157576e-01,-3.211886087240289900e-01
-3.115056317383877449e-01,-1.463988854573262388e-01,-4.166910062285702487e-01
-2.984577924399961849e-02,-2.422384467716791681e-02,-2.768498835831737295e-02
-3.166261308865357393e-01,-1.630963539201426560e-01,-4.370413815446053118e-01
-2.251116725256351592e-01,-1.300039962400561799e-01,-3.141621108562008269e-01
1.976676818532991931e-01,9.562443312122506645e-02,2.345166348228074071e-01
2.315335424631632388e-01,1.257063203250641803e-01,3.198706127563432644e-01
-3.294454034715424418e-01,-1.730316350265362346e-01,-4.360006189065807614e-01
1.826124174548973411e-01,1.069850601966038373e-01,2.496585943614945124e-01
-5.374516048959571829e-02,-1.123207287818004697e-02,-7.282400707304843845e-02
-2.256054366916559750e-01,-1.263894696522107064e-01,-2.963182273502870112e-01
-2.882284162637922531e-01,-1.544698588398401851e-01,-4.095296760445761297e-01
-3.997290471312493071e-02,-2.998023503716126456e-02,-7.026612238901058793e-02
1.649982162044617284e-01,6.773113434617300532e-02,1.859635757623399055e-01
-5.650721774870166164e-02,-5.048071773131745932e-02,-3.345302847507498900e-02
-3.117252348038542231e-01,-1.620816387952750404e-01,-4.318319122453733727e-01
-3.035642264490375219e-01,-1.642143974805602702e-01,-4.189991473466992411e-01
-2.892534576519224521e-01,-1.480186459077023342e-01,-3.526149274415945611e-01
2.679054575161447516e-01,1.540408220989949173e-01,3.710439415716654810e-01
9.855846784792411663e-02,1.582355240073129304e-02,1.036622749059270682e-01
2.731639781118096466e-01,1.511008923529498227e-01,3.698640905569962611e-01
-3.331660339450867592e-01,-1.372130876328007121e-01,-4.493268384281478012e-01
2.102524247282095970e-01,9.432712137054255486e-02,2.778172329359357429e-01
-5.992071218518541659e-03,6.468492060300256273e-03,-3.336064626186394100e-02
1.801891833564714385e-01,7.993031862056895753e-02,2.050951689705430014e-01
1.278609641661543339e-02,1.923314875614459685e-02,1.715251080132130720e-02
-1.488572243746447976e-01,-1.099737926923594344e-01,-2.456091754246481629e-01
-2.612834362912271335e-01,-1.129168096771372559e-01,-3.545535910573259786e-01
4.762842423693716687e-02,2.873870334003083421e-02,3.932459217442692279e-02
1.150285686467152207e-01,4.691131910620723738e-02,1.236478940694096390e-01
2.662012135064460439e-01,1.492852376146771021e-01,3.141946124558201436e-01
-2.765328805321414993e-02,-2.376317820462416769e-02,-4.669722141014324285e-02
-1.299182531930658524e-01,-9.305630000492087772e-02,-1.943518750954734697e-01
-2.394442104802788907e-01,-1.307523397124689402e-01,-3.196562639342940826e-01
1.325924723438240416e-01,6.071356338766859678e-02,1.624747714966947032e-01
-1.450228250891613946e-01,-7.109192418486512399e-02,-2.217976299166096454e-01
-2.414456798274369209e-01,-1.263946376071032884e-01,-3.342172189001683114e-01
2.342957519499022090e-01,1.216451328731727732e-01,2.951115396347214204e-01
1.186945925818129327e-01,7.811271974171694887e-02,1.586064522178625702e-01
-3.451634603244642108e-01,-1.813122082692013304e-01,-4.467944538357492279e-01
3.308917530480578462e-01,1.842610401896197236e-01,4.729543457468723955e-01
1.469618727348837375e-02,-4.889903696677710227e-04,2.300911641877337668e-02
-2.273727710259559887e-01,-1.140600472713556024e-01,-3.119282208022683966e-01
1.612784564460612025e-01,8.696168630203676697e-02,2.007113716297437567e-01
2.952123767976543300e-01,1.616983192116110690e-01,4.136227924945900525e-01
-1.028564300377600785e-02,3.720851140322062409e-03,-2.000846637319399560e-02
2.970520302700239701e-01,1.463939290340184329e-01,3.740697548422673435e-01
-1.710751669695313171e-01,-7.261584081950821223e-02,-1.919364581200631026e-01
1.031243291207329105e-01,5.567796937917166705e-02,1.178895764235120269e-01
-9.163350427080799165e-02,-4.113208461611268102e-02,-1.104278769201685328e-01
7.062693090754332270e-02,4.206549699948544663e-02,8.589962159938058228e-02
-1.881163229895689223e-02,-2.083588293744265824e-02,-3.074995915256294177e-02
-2.863449312199647934e-01,-1.240198510563290113e-01,-3.975744121194246250e-01
-1.736918640771450417e-01,-9.881725975542497709e-02,-2.268603498743471947e-01
3.413439553405386157e-02,1.625428251338958963e-02,3.367867560225929618e-02
3.117776957196722876e-01,1.540179967297872488e-01,4.204462168785296217e-01
3.446712593546538139e-01,2.039021418528427498e-01,4.395312783219951780e-01
3.104221280645158565e-01,1.775687067138184416e-01,4.156483930940944593e-01
-1.765632060170915507e-01,-7.140645274357980410e-02,-1.926801838309533110e-01
-9.494263408688159711e-02,-5.972016931584627625e-02,-1.447819987345374815e-01
2.679191895885180141e-01,1.436683677152846561e-01,3.938349149923677794e-01
1.020581152960842002e-02,-2.404889854777770165e-03,1.738321335350132696e-02
7.055816700669893977e-03,-5.380625741310697714e-03,2.579848561345408214e-02
3.106217736175683197e-01,1.538818452693351824e-01,4.246628750521897477e-01
-1.392471787216316703e-01,-6.900687959365718604e-02,-1.977205142104233038e-01
2.499037133306187819e-01,1.465447738306677461e-01,3.497659915461682756e-01
-3.351910659090979738e-01,-1.544648263628348173e-01,-4.221090567981562458e-01
9.783840521685712235e-03,2.723843510898331117e-03,3.670598321730890456e-02
2.190554444925675304e-01,1.078618401737139604e-01,2.967644876967799883e-01
3.231587846552423926e-01,1.374565891439142873e-01,4.011479215121848130e-01
3.072697194384383379e-01,1.499733322601282670e-01,3.955674371836227499e-01
-2.852128351904140713e-01,-1.505478390264126942e-01,-3.839575314663832284e-01
-2.665920420273042435e-01,-1.365986377289819254e-01,-3.852570984661342623e-01
2.482865361704444107e-01,1.198236447986259223e-01,3.352974687912791962e-01
3.606572161010247468e-01,1.843937205614811226e-01,4.607228369536350288e-01
-1.396710917288094753e-02,-2.405338794061352703e-02,-7.482351001589377000e-03
-2.655119448577787922e-01,-1.436920973055467732e-01,-3.278826834213261487e-01
-3.121216558557908805e-01,-1.437988209067910805e-01,-3.956446539969847298e-01
-1.091158970384977500e-01,-9.041290937498802638e-02,-1.706379250690983340e-01
-3.992126171206958340e-02,-4.237023437741666704e-02,-6.881226302218355906e-02
-2.028649319174732624e-01,-9.513817719940807771e-02,-2.832445126092799081e-01
-1.482192732617499016e-02,-5.694502713060382165e-03,-1.987287215957372899e-02
-2.748260070096361085e-01,-1.393065303472333094e-01,-3.660070639192731790e-01
-3.507019442905889295e-01,-1.535123187430369740e-01,-4.257409254551854372e-01
1.628397440319140355e-01,6.482633366127928121e-02,2.218442061098735152e-01
9.445489749508008404e-02,5.315165497574584480e-02,9.160901886505046221e-02
-3.355494808620342329e-01,-1.523507682630261539e-01,-4.288706712896738771e-01
-4.503883210252956730e-03,1.076578661125361311e-02,2.090901514947102191e-02
1.322790041088902357e-01,5.952070993990261905e-02,1.785044536700733098e-01
-5.137336053793659096e-02,-1.962543578022501317e-02,-5.975411683897074305e-02
1.761807558516660377e-01,9.270254485357092011e-02,2.396276631809978741e-01
-1.030030518943483575e-01,-7.190028157107491991e-02,-1.590068958509658903e-01
-9.271910984489195595e-02,-4.342149288883636465e-02,-8.650073358550233737e-02
-4.210089085267936654e-02,-4.060855325762444124e-02,-2.591685029912108723e-02
3.027352470018422337e-01,1.672907173775649292e-01,3.949014956648050356e-01
-9.811963028374040552e-02,-6.029991023586398630e-02,-1.366340012259403269e-01
-2.439089300095893253e-01,-1.039587979947348556e-01,-3.120907488434198629e-01
9.278692494627686915e-02,2.727885495768636592e-02,9.463573170932390588e-02
1.260766426730474676e-01,6.849713344840441254e-02,1.886088590844064994e-01
2.980502333772498957e-01,1.672790750927855008e-01,4.296853086064213456e-01
1.429332494931297992e-01,5.644664016571249859e-02,1.885745963299415018e-01
-3.063906301962636136e-01,-1.456689359166315478e-01,-3.945569285079628674e-01
2.862869683799693643e-01,1.415714104041320698e-01,3.685668532243545070e-01
2.513987694930761574e-01,1.261856790939764605e-01,3.416925200238661864e-01
2.372132141620519608e-01,1.402364719001211735e-01,3.263479398191092007e-01
-1.302880765787338968e-01,-5.212421187235100756e-02,-1.389260727297227105e-01
2.973747359243655852e-01,1.328902711817941118e-01,3.921826380632371101e-01
-5.272920524368621131e-02,-2.868373338695436731e-02,-7.391018452529520000e-02
-3.132126021956510575e-01,-1.791659826876831063e-01,-4.338835664983050067e-01
-1.703810682346947603e-01,-6.649812726912233962e-02,-2.386499950197172315e-01
1.809152187795725342e-01,8.053790690219549131e-02,2.438347350954651882e-01
3.507655015431458967e-01,1.571084812056347813e-01,4.274044143701809517e-01
-1.797718635563924361e-01,-8.694657472985012348e-02,-2.036570309154151215e-01
-3.050126581235669820e-01,-1.628644552753016894e-01,-4.098250479250362677e-01
-1.447408658011675453e-01,-6.049172784122106711e-02,-1.600106441199588836e-01
6.970109147581839137e-02,7.742646309055967180e-02,1.423512532166613664e-01
-3.185653360082552066e-01,-1.403995602926659814e-01,-3.945966096434714854e-01
1.464390256590567679e-02,4.637600056515295559e-04,-4.840508057276609113e-03
1.159403549818034673e-01,7.242853336838614431e-02,1.339116788251819568e-01
-4.907438525505428313e-03,-2.376478662041229747e-02,-2.063209131673179875e-02
2.403110299330141197e-02,2.553423154700891137e-02,1.375723099395536643e-02
2.620929433292981670e-01,1.348895034571586937e-01,3.747283246273280244e-01
1.746258385304894079e-01,8.893883582805527099e-02,1.962167770751145346e-01
2.872684320896620180e-01,1.653979535078805851e-01,4.266758951274452483e-01
-3.362808730894696341e-01,-1.674246731521531473e-01,-4.235084023100134654e-01
1.044083625211467276e-01,5.348783093882729378e-02,1.579725600400572472e-01
-1.982182891716167128e-01,-9.032685531957487801e-02,-2.562992697957872101e-01
7.971278134316011482e-03,-1.449371786473000086e-02,1.379844180188810263e-02
1.170868125439338686e-01,6.473416009233248780e-02,1.881316544306438909e-01
1.025380147461541214e-01,6.310381792129633738e-02,1.499393861826486263e-01
-3.170589696232806870e-02,-3.128028526855303193e-02,-5.046943514963325716e-02
1.326642092094015846e-01,7.771886470212154008e-02,1.721297298897853933e-01
1.348695740732615278e-01,7.211394905093014562e-02,1.908941323953976532e-01
2.891341578978212090e-01,1.259319947286994257e-01,3.751810312362773292e-01
-2.997117747217893924e-01,-1.489249153522106961e-01,-3.992991121419951495e-01
-2.880999878720637564e-01,-1.375231113577979614e-01,-3.875965166639935289e-01
2.692574386824259092e-01,1.379416981397333375e-01,3.649214276312540139e-01
-1.486683692079279473e-01,-8.956166364348898401e-02,-1.746032442086532799e-01
1.971328292193687826e-01,8.226276646089439315e-02,2.307798887122762266e-01
-1.956624065778614918e-01,-9.632197716824472677e-02,-2.775070719591165580e-01
-2.203735395228458294e-01,-1.309261276247568884e-01,-2.924373819746260983e-01
3.249660660602264328e-01,1.668903992352832322e-01,4.282860184783591206e-01
7.292227367847547992e-02,3.069315028723467939e-02,8.951822204049432463e-02
2.137427064750153649e-01,1.047998208879583892e-01,2.731349968405931139e-01
-2.717707840357516669e-01,-1.429493153231542468e-01,-3.722674963225025002e-01
-8.134900621303994828e-02,-6.595092868378633899e-02,-1.323078300929244611e-01
1.292056621068634892e-01,9.367486670720315267e-02,1.785079241463511934e-01
4.013913853518913388e-02,3.551997908823788935e-02,6.628670601510595894e-02
-1.780582457414629505e-01,-9.872807916728136568e-02,-2.321369430255136312e-01
6.307705563473349486e-02,2.747391372805790127e-02,1.022759069165799506e-01
-6.779977882892175567e-02,-4.484715727877779806e-02,-1.034219721771739570e-01
2.508856540280228753e-01,1.314521573660742404e-01,3.566704874181160778e-01
-3.062369143294131346e-01,-1.732175899666274499e-01,-4.027174960415911831e-01
1.446300450498906875e-01,4.790380259020795423e-02,1.812787006250961008e-01
2.206054658277515901e-01,1.004127930974365451e-01,2.717931134671462967e-01
2.084253066614164158e-03,3.207560676317935261e-02,3.539052919606222591e-02
-2.077882225736568111e-01,-1.066587445912090398e-01,-3.099042013938140827e-01
8.283392743480070793e-04,8.014137289491497784e-03,-5.784346815274397577e-03
-1.135615485826226984e-01,-7.748298273675496839e-02,-1.871116292921315427e-01
-1.220888699314751497e-01,-6.941077185958141604e-02,-1.716720860289256967e-01
7.029678705418454521e-02,4.218065050600309368e-02,7.286287045482207902e-02
-1.463725652456956405e-01,-5.900783376497145682e-02,-1.667167835528473863e-01
-3.122950766539541734e-01,-1.428854882121650960e-01,-3.944077588760276365e-01
-1.358798161745044808e-01,-8.361239042854294590e-02,-2.241400936983918846e-01
2.919997805259880175e-01,1.414897064944523608e-01,4.214427159606482509e-01
-1.169284455457396746e-02,-6.731475816861437651e-03,9.692985865497492567e-03
1.153188959898248794e-01,6.890668809311668863e-02,1.730735106857679562e-01
-2.480028838755123644e-01,-1.300870410601975280e-01,-3.315759046120128617e-01
7.221152481006551382e-02,5.031892799940426014e-02,9.166802693045122963e-02
-8.955010054348917781e-02,-4.217015859983688775e-02,-1.030069645315529053e-01
-2.030804045382574863e-01,-9.797807122338519914e-02,-2.854065393351180036e-01
1.202415781953258545e-01,5.659263273564017066e-02,1.699637591795559732e-01
-1.559764614866369220e-02,1.318425528400585765e-02,5.879110315208339356e-03
-3.704628451621214819e-02,-3.686722385597648172e-02,-5.586955278701806471e-02
-2.613845061116672475e-01,-1.255751364675725956e-01,-3.385037618860816666e-01
-1.168654464579228225e-01,-5.762496033888221680e-02,-1.576201674178643042e-01
2.879273348458512571e-01,1.220644970274240432e-01,3.878851221265165461e-01
-7.585756578007214757e-02,-6.309896078932546171e-02,-1.039083724151085020e-01
7.147876418475085369e-02,3.697968895474955386e-02,9.822290260432040010e-02
2.321136539416783148e-02,2.906438902483652123e-02,1.334160554723752383e-02
-2.737669390702934247e-01,-1.454367437428871201e-01,-3.629912115214485868e-01
2.548238180621865134e-01,1.338531410350231043e-01,3.352152513853985938e-01
4.373475166905623629e-02,2.666850430808096611e-02,4.468693767365043701e-02
1.008871529631384795e-01,5.168174486395264722e-02,1.107165579583622439e-01
1.892489119057701730e-01,7.708306105578616174e-02,2.237297810686370847e-01
-2.838374388812354154e-01,-1.454756019859986815e-01,-3.812250098867432935e-01
-2.891964676553775426e-01,-1.253132019415226228e-01,-3.965254477609269079e-01
-3.092089169932125126e-01,-1.601979743556578850e-01,-4.034772258066754436e-01
-3.779262564934349894e-02,-1.312086753462297049e-02,-3.418569593566031517e-02
-1.741204444406629914e-01,-8.144167636550729561e-02,-2.698525031504634963e-01
-9.697958246653358427e-02,-4.937772517556786311e-02,-1.524821949233371998e-01
-3.193824602278837466e-01,-1.760338865509472051e-01,-4.559946024863032465e-01
-3.259306899673834745e-02,-1.477997033511425050e-02,-3.012628060493956206e-02
-2.164930494438770114e-01,-1.007969116742406940e-01,-2.772665522474546673e-01
1.672194499890146124e-01,8.135891629689438742e-02,2.204700970124121029e-01
6.511748575698837749e-02,2.868171266097459954e-02,8.408209580883456435e-02
1.655029653342508233e-01,8.684676707735006218e-02,2.333550878929428196e-01
2.085205455557805065e-01,1.115229300975699306e-01,2.842845862441157889e-01
-2.158748226701411310e-01,-1.361112946476126517e-01,-2.905475687227705439e-01
2.839003268211811037e-01,1.358998729399665539e-01,3.911188836419142167e-01
2.349277088964842330e-01,1.240735320670398045e-01,3.162695081794790197e-01
2.539751603226968468e-01,1.336346702216111570e-01,3.217451592532801219e-01
2.303965379371740452e-01,1.440002097548873095e-01,2.928136312739852420e-01
1.903686137413925505e-01,8.971057181062705443e-02,2.470777103569515298e-01
3.404731545043658270e-01,1.706570933430778814e-01,4.559740950921306601e-01
-3.122139649081899157e-02,-1.472836970628220617e-02,-5.046539680935502314e-02
2.313728085569718151e-01,1.218218737935379825e-01,3.146484061259690046e-01
-2.770388626167364921e-01,-1.507616575524464153e-01,-4.108538026178630287e-01
2.943214965458804122e-01,1.542459685319572116e-01,4.135625931812441092e-01
-1.828351686780904373e-01,-7.820287400616168783e-02,-2.312690992129631529e-01
-1.357924005856786243e-01,-8.207017510084245460e-02,-2.052745157221226024e-01
-2.633936469159010030e-01,-1.651717197636258794e-01,-3.825970576761683062e-01
2.345250308017534646e-01,1.220275673601250166e-01,2.972866674873417825e-01
-3.402113338261770759e-01,-1.534247741555380684e-01,-4.409809456649148030e-01
-1.454067387908661024e-01,-7.054226084789513851e-02,-2.279830611779533889e-01
2.278461266397784901e-01,1.126493230904887233e-01,2.789705148319457373e-01
3.006210270731844991e-01,1.769986106280511950e-01,4.102509583693941808e-01
-3.734275403529056792e-02,-4.513496333295106272e-02,-3.885407880895441757e-02
2.096406272820424410e-01,1.009931765971871231e-01,2.647797385232767420e-01
-2.821748225598855186e-01,-1.432158271388827564e-01,-3.859039613246362244e-01
-1.075984998368789830e-01,-3.103367096732309593e-02,-1.492633248758932496e-01
-2.173276618183767397e-02,-1.682184091640658366e-02,-4.621611407044670661e-02
-2.029627094663731257e-01,-9.066899922286859870e-02,-2.259887544850599506e-01
1.394411614870571525e-01,5.019783854686128699e-02,1.880028832783582904e-01
2.481928746563960009e-01,1.271627260014108751e-01,3.312858553273516637e-01
1.917507227082197452e-01,9.694449508283349559e-02,2.683745242834191247e-01
-3.994522087991035642e-02,-9.392474306856458260e-03,-5.569761034370841052e-02
-3.380397750663713397e-01,-1.677211746586412811e-01,-4.396558158406444483e-01
-1.614645989251297375e-01,-9.560830261785299711e-02,-2.161036490763712514e-01
-2.556960057078608295e-01,-1.434544350563803361e-01,-3.619449300669483893e-01
-3.279996662187443235e-01,-1.543090231526379752e-01,-4.463075286428195843e-01
-1.517755175988358407e-01,-6.829403476913487037e-02,-2.086988361094211097e-01
1.160101876015175726e-01,3.977801774924985545e-02,1.518775038223225959e-01
1.184122517496253718e-01,7.268080042383391615e-02,1.754092429296137401e-01
3.054914439196801945e-01,1.581567194330675830e-01,4.314235228812743905e-01
-3.170906452756324656e-01,-1.690902244623987971e-01,-4.011404572837675708e-01
2.278814269989363206e-01,1.103712184688304260e-01,3.028663413820967265e-01
-9.263622016082063981e-02,-5.850777779016469449e-02,-1.095791375773621373e-01
-1.132786197420588697e-01,-5.622029490074374747e-02,-1.739026320035655104e-01
3.339813835159411437e-01,1.652199557609888014e-01,4.107620757660892519e-01
2.077782162950614631e-01,1.131571013649212698e-01,3.105984267541501143e-01
1.631121287502081685e-01,8.197196764592015739e-02,2.269334475622963865e-01
-4.076624839323355481e-02,-2.794220218452089094e-02,-6.869102738198561153e-02
1.235399498595570467e-01,8.710235354330668478e-02,1.628281998337089698e-01
-3.391943446419841690e-01,-1.663556184612134392e-01,-4.549202423291665021e-01
-3.034336864916762355e-01,-1.710379615932631214e-01,-4.279670272622022598e-01
-2.055003179498580967e-02,3.261301241442172982e-02,-1.273156749360306213e-02
-2.982967113253382485e-01,-1.685168090372532179e-01,-3.991776159796328050e-01
1.052409429260926649e-01,4.045929738090885824e-02,1.328889531406210744e-01
4.097475418452574403e-02,3.127834354189210075e-02,8.373233878279233433e-02
7.702065371449863529e-02,3.703890890990500090e-02,1.168846146084114301e-01
-1.619600100047589863e-01,-1.089890391957382410e-01,-2.208991137477257782e-01
2.952107741606927599e-03,2.853283483574608342e-02,-5.275605017465870381e-04
2.226802981889478006e-01,9.255566928559322282e-02,2.989467185660433790e-01
-7.041711912517667482e-02,-4.744560158678004513e-02,-7.416179911335463171e-02
-2.147419362625307693e-01,-1.081255922616293913e-01,-2.834710572162220110e-01
3.493355798683971392e-01,1.831773645617793822e-01,4.521872647436695480e-01
-5.399972778563470049e-02,-2.963681775253936695e-02,-7.679398988324070974e-02
-2.556659461657502241e-01,-1.483134359568788752e-01,-3.390017723376304581e-01
-2.918093014561998211e-01,-1.629587202829721471e-01,-4.060723355809816026e-01
5.336071858584180705e-02,2.127333228955220409e-02,7.193802919853332922e-02
-2.603749536790199715e-01,-1.434594994192570638e-01,-3.282792820797146294e-01
-3.128297428878714509e-02,1.608938983551743383e-03,-2.948980460624754663e-02
-3.287102451525950042e-02,-1.955369609301154180e-02,-6.706443822252310116e-02
-2.507799068286964972e-01,-1.388883795972287172e-01,-3.621556304277976368e-01
-1.002507441732578830e-01,-9.153384735760075608e-02,-1.322725206515537322e-01
2.913203234787640778e-03,4.183626170727378817e-04,3.594996963849931421e-02
-2.033971840179091967e-02,2.873699280169670408e-03,-3.955428021904047048e-02
-2.210221632162947536e-01,-1.000860444426946300e-01,-3.111371727991661951e-01
-3.362475263581344853e-01,-1.720095954672587468e-01,-4.584713633259304699e-01
-3.962523224121175525e-02,-4.482283889040619002e-02,-4.051902685435149892e-02
2.618612710785110931e-01,1.219262583558868990e-01,3.530743950660397701e-01
-2.569327871045425926e-01,-1.247071121783292769e-01,-3.695070892262118933e-01
-3.049053776047032649e-01,-1.537367643356799818e-01,-4.052682201028689479e-01
5.393809516570309548e-02,6.177587196413169592e-03,8.049140270216231796e-02
-6.074485653879889424e-02,-5.776939549744913860e-02,-1.000119396991252935e-01
-5.264677790682160269e-02,-2.679534313942744106e-02,-6.437686060521508047e-02
-5.944806102825544308e-02,-1.718704725985112369e-02,-5.917839936966472203e-02
6.547799165932321683e-03,7.520267279149414705e-04,1.528063815581925597e-02
-1.023252404388198394e-01,-5.332512788928384789e-02,-1.304739578994091875e-01
1.664092571650963026e-01,7.874895505119228201e-02,2.113160522714820078e-01
5.361856978177089589e-02,2.710419465396311442e-02,6.170411583732934163e-02
-7.679825284413537012e-02,-4.459356862760011780e-02,-1.127762221880981297e-01
-1.554592644476207042e-01,-7.786417027014082282e-02,-2.144124528624054560e-01
-2.845547896872972493e-01,-1.438788516003856321e-01,-3.835956362455500424e-01
-3.955822839981290584e-02,-1.789574733729086889e-02,-3.766080503774897614e-02
3.445913878506448591e-01,1.862566771870957927e-01,4.550664783598051266e-01
-2.440296546289310586e-01,-1.247785122383296003e-01,-2.940808482184185113e-01
2.735492631025177590e-01,1.427179668997097250e-01,3.694642440659278160e-01
2.104605341462854190e-02,6.636984851331573882e-04,1.340510359068170128e-02
-1.199234341489337358e-01,-6.390646813674083493e-02,-1.956087049233080910e-01
1.152657822844495722e-01,6.663747922335389040e-02,1.872233990770222900e-01
8.648966817324277301e-02,4.736128970911113872e-02,9.172772893772020153e-02
-2.906468531327411897e-01,-1.365614030099187859e-01,-4.075537687993799341e-01
2.967275243751553715e-01,1.773795115469873340e-01,4.243909734734882533e-01
8.487680693998363168e-02,4.575670257238280414e-02,1.206462590112293981e-01
1.811393031637749118e-01,1.275643444568762275e-01,2.472356256373026973e-01
-2.176512659896876201e-01,-1.110588855559142968e-01,-2.781819550385695727e-01
1.261665655987833368e-01,6.198352478567857593e-02,1.742485966721516455e-01
-9.173012475911043739e-02,-4.840467711391722994e-02,-1.333214522966505167e-01
-1.574962360799595507e-01,-8.968867289569139312e-02,-2.069650057874100058e-01
9.815679962024738414e-02,7.859309991718947674e-02,1.494036255678489744e-01
3.052159512376914630e-02,3.930333965246660816e-02,4.205500384853603363e-02
-2.018220642766305473e-01,-1.027564281797357509e-01,-2.479348894614680499e-01
-3.364094992208312429e-01,-1.773034310731785024e-01,-4.188882852754717834e-01
3.678803082548359749e-02,3.614364238826768549e-02,4.882498241774585468e-02
1.649938017452593983e-02,-1.298679601497522429e-02,1.410727495402500260e-02
-3.176385465878093228e-01,-1.679472902397428635e-01,-3.995085423041440098e-01
-2.523305648159817061e-01,-1.272607981131041732e-01,-3.067260375463582989e-01
-2.077354296753213814e-01,-1.178022145732799258e-01,-2.628909619666844888e-01
8.626765567414120678e-03,1.750420578565934238e-03,-9.051964182759509800e-03
8.225654731005978271e-02,3.317499931047456635e-02,1.189255406282940936e-01
-3.239729832633783668e-02,-1.206598340034818230e-02,-5.246657500126877122e-02
-1.374579492379897627e-01,-5.813578325872940933e-02,-1.780524364258636305e-01
1.323543562037602650e-01,6.424238112064059592e-02,1.575747989299129403e-01
-4.577310154379343049e-02,-2.921454601292100897e-02,-5.497814864052891909e-02
-1.444363475664516006e-01,-6.466835491840836059e-02,-1.853553096918643950e-01
-4.193860352135408281e-02,-8.230636803392964509e-03,-4.643599367152629470e-02
-2.424229653949099561e-01,-1.172108794679652677e-01,-3.095254442141721074e-01
-2.613156320886633188e-01,-1.204604139229024096e-01,-3.485737972547925390e-01
2.909482537920843881e-01,1.446627592975350540e-01,3.960204779703403455e-01
-2.083601056714522726e-01,-1.228054264463803447e-01,-2.897876095234645510e-01
-6.044357304775471035e-02,-1.186417759028068550e-02,-8.322395834758986033e-02
2.579668825915276686e-01,1.368121938445321650e-01,3.515303132396155328e-01
-2.395529970531261876e-01,-1.305668703645241069e-01,-3.287009147662136033e-01
-2.883157768718436764e-01,-1.447608706603272510e-01,-3.894356808947996851e-01
8.251227561316615278e-02,3.793312474872551771e-02,8.997584269455580208e-02
-3.285024459152602883e-01,-1.675975587958018487e-01,-4.517741798846827139e-01
6.490473834974623546e-02,2.243330869490917437e-02,7.226512495796511004e-02
1.915142112642476691e-01,1.020276519794260511e-01,2.750393586160624348e-01
3.305039792774867591e-01,1.628319683402484896e-01,4.480838051196926464e-01
7.182563933856661587e-02,5.441836802594945260e-02,9.042651926729711187e-02
2.399614303839478213e-01,1.026851827369868603e-01,3.205924233123086942e-01
2.648860562182238088e-01,1.371836037700709110e-01,3.545893513451451873e-01
-2.179244836399123197e-01,-1.289238533759725081e-01,-2.907628039061028180e-01
-3.822493262693466010e-02,-6.243794009648257620e-02,-5.583126160346182920e-02
2.992967876969787611e-01,1.498550450591283889e-01,4.246436317078099432e-01
2.730426813035792821e-01,1.402954096418200236e-01,3.485254591825455717e-01
-6.476376419523241501e-02,-2.418325222392491217e-02,-9.786253668608414780e-02
-1.737456906336988863e-02,-4.821606147285541384e-03,-3.336824357584266404e-03
-1.743644316774872194e-01,-9.752541416176124800e-02,-2.391877451676378552e-01
-8.953516045794533695e-02,-3.359934036927455375e-02,-1.224004583307984756e-01
2.071607478461916924e-02,2.407444524872773967e-02,5.774955770000243793e-02
2.776129365211467692e-01,1.439364260668167528e-01,3.478999391912916961e-01
-1.716985118078641070e-01,-8.534256054203599728e-02,-2.270922195515801822e-01
-5.296325305980728593e-02,-4.956151946233062350e-02,-8.690036394610552162e-02
1.110025989751951964e-01,3.769434560523615002e-02,1.467177270202722761e-01
-2.055488720311056047e-02,-7.785670327019091888e-04,-3.019125965970027164e-02
-2.642237311951260437e-01,-1.302135325329529247e-01,-3.626344950987378524e-01
1.461888831872648897e-01,6.718798346553143952e-02,1.729431273991671736e-01
-2.100758662508039609e-01,-1.177993713997450287e-01,-2.636323667325610187e-01
1.009390874545984945e-01,4.278571950526751516e-02,1.268515362927741530e-01
-1.203462495887251266e-01,-4.951301760044242439e-02,-1.932345415408124323e-01
1.839291223569377853e-01,9.040165518332499150e-02,2.355974443934447105e-01
2.582689298118098775e-01,1.392870515533440601e-01,3.502617494714455604e-01
3.413291302437639341e-01,1.598493434380194589e-01,4.198605877756035332e-01
-1.962878469834190565e-01,-1.095813937314524672e-01,-2.620743979558118331e-01
-3.294681604401729080e-01,-1.558391510499070043e-01,-4.149656638503043671e-01
4.637581006350606667e-03,-1.060625222495407798e-02,1.536750720725047967e-02
4.230068379335842621e-02,1.675890710361658403e-02,9.282867729157526226e-02
2.223761194220869042e-01,1.138111747494170017e-01,3.154735111138879389e-01
-4.427933093387602555e-03,1.247482080519036682e-02,2.474611793755109382e-02
2.778434035631615045e-03,-6.760537862120657472e-03,-1.243280730968813683e-02
1.962553764536611733e-01,1.046013114945957279e-01,2.268353772403804702e-01
-2.249215322208308609e-01,-1.076499299070688281e-01,-3.033937087397320376e-01
-3.110181546959135401e-01,-1.575914417717065863e-01,-3.857513412672850528e-01
-1.838862529336415808e-01,-8.436168892920582751e-02,-2.457697289807611318e-01
-2.843487789149021228e-01,-1.489753277947390986e-01,-3.583179810960473999e-01
-1.494136828068529932e-01,-6.429142334179621665e-02,-1.708583693904309198e-01
1.360817824385191777e-01,7.778739981593006669e-02,1.673175297659725558e-01
3.202567727216345389e-02,3.734644466961427062e-03,2.283394200727235229e-02
6.300287382792599256e-02,1.842720795668034359e-02,7.585312131720234330e-02
-2.586095639892683692e-02,-2.036205414092037355e-02,-4.242183248279872421e-02
-1.955786033959342959e-02,-3.536964717749674358e-02,-1.603149135331252348e-02
1.326467168991085355e-01,9.493702326501730904e-02,2.188704263297953645e-01
1.275384395906763169e-01,4.096647789585194932e-02,1.447672145370983154e-01
3.579148181682301894e-02,3.321331341433873211e-03,4.162957323173994278e-02
9.995012224117889865e-02,5.149340662233591742e-02,1.546020124947274366e-01
2.415603343135866721e-01,1.297897188393798418e-01,3.262448717018469058e-01
-2.655212961519855530e-01,-1.207342293154190505e-01,-3.543465146482960848e-01
-3.413096973007982982e-01,-1.638553772642408757e-01,-4.529913741134779515e-01
-1.191590768573829034e-01,-4.921038600028927734e-02,-1.825087864428333873e-01
5.510734301436644861e-02,2.639955523567532117e-02,6.157829467957059294e-02
-1.423488890104319948e-01,-7.191765247930641258e-02,-1.942809986781569576e-01
-9.382041907417529303e-02,-5.332290453965853050e-02,-1.113217954332779702e-01
-3.079006126556809164e-01,-1.489518927485873334e-01,-3.941991490644635721e-01
-1.797618644626644557e-01,-9.021768684841706409e-02,-2.466668224825350197e-01
1.658471161986677656e-01,1.032034163864495591e-01,2.048134262592552768e-01
1.232892593483747162e-01,9.523972860745878732e-02,1.742534111231527350e-01
1.547986338640592041e-01,7.280924481297908202e-02,2.072911237748708280e-01
1.125438442450545917e-01,6.892653677505344856e-02,1.523580655645261905e-01
-5.132640799266706411e-02,-2.622976461022776332e-02,-8.465560818088624373e-02
8.213814267638272493e-02,6.874250736213101398e-02,1.461506946615198643e-01
-1.355438673783950221e-01,-5.933093204827998013e-02,-1.895543014663592374e-01
7.772612958707518505e-02,6.288476848691688936e-02,1.037804218013537588e-01
7.794003552505082352e-04,3.696072246760747694e-04,1.972246477611065696e-03
1.443530680970646352e-03,1.861433423058753839e-02,-1.634965125976862305e-02
1.071018689775917049e-01,4.235243832643147827e-02,1.557339198100300692e-01
2.480980999181240376e-01,1.328758113892436199e-01,3.296212593988185890e-01
-2.039631782130396087e-01,-1.010979887397689264e-01,-2.596046501768248804e-01
1.913321019504939796e-02,3.399855185396591373e-02,4.595953910774027568e-02
3.502287285084781376e-01,1.830660927533254156e-01,4.711418616299173356e-01
3.379466803365881455e-01,1.795820809945704588e-01,4.337280288728708744e-01
6.313451025471554512e-02,1.583508797588023542e-02,4.046261014388249228e-02
-1.584321906035642546e-01,-7.091137065419414465e-02,-1.853712759905786767e-01
1.139975204608956461e-01,6.423924932703661828e-02,1.866665623890044201e-01
3.022294763770464465e-01,1.394094201689436985e-01,4.245686407706775189e-01
1.117049964261938866e-01,6.465867590377016860e-02,1.486054930660921092e-01
-2.307319216203604917e-01,-1.134783945594991933e-01,-3.139218273394011605e-01
1.944616334407232860e-01,9.951208916950173011e-02,2.557164974917435218e-01
3.442992114507351098e-01,1.604721720011248742e-01,4.659943588960522298e-01
-8.546836986530959024e-02,-3.953632424351880698e-02,-9.207523621844584949e-02
-1.798250244948286850e-02,5.470057068634718092e-03,6.951733307808192000e-03
-1.628889428613731205e-01,-8.489984268438992288e-02,-2.318686210338148923e-01
1.254790555412753916e-01,7.104274053748206585e-02,1.856309887134306724e-01
-1.742972558059120020e-02,-7.750867109283739870e-03,-1.438861133191101684e-02
-1.403144224095783377e-01,-7.523644225972679622e-02,-1.398635498974676039e-01
1.759793570572801974e-02,9.460813903782947995e-03,3.516270125531668206e-02
-2.251370700225270860e-01,-1.110823631913757381e-01,-2.901684130363914038e-01
-1.946635149361341383e-02,-4.202004404714751798e-03,-3.852725082501424342e-02
2.167775347634430527e-01,8.691165028060421349e-02,3.031560135751824037e-01
1.053312850545343599e-01,4.792489699398089914e-02,1.429642493353305566e-01
-1.236841500900613539e-01,-4.167770923299077973e-02,-1.523807819961848775e-01
1.800932507307148045e-01,8.177592183958876104e-02,2.279549003944890129e-01
-1.153902303962017623e-01,-5.658476197988643319e-02,-1.681887696022946466e-01
-5.482200279460178877e-02,-1.891988337176830903e-02,-7.005451721150396382e-02
2.285331995891347334e-01,1.241517166634607816e-01,2.818144258644271205e-01
1.181475782029891702e-01,4.926512536322807945e-02,1.495118259766790858e-01
1.464181601278311540e-01,7.440208082381001564e-02,2.114309445131185294e-01
-3.426325376272235795e-02,-1.982501688749280580e-02,-7.244271096839256796e-02
-3.211635856512110032e-01,-1.803490884058298604e-01,-4.168979260423544275e-01
-2.521039982021835990e-01,-1.374777246486270366e-01,-3.702763569831246104e-01
2.899109136475732651e-01,1.502533053324024426e-01,3.928822088511922939e-01
2.319770529429774908e-01,1.088346981127515378e-01,2.824183208788256794e-01
1.317464928623846010e-01,7.126366303351291953e-02,1.959177343201508326e-01
1.933102343393101330e-01,9.839148321955439036e-02,2.441737649774256003e-01
-3.000394669553514415e-01,-1.795677409456631901e-01,-4.389722482286901872e-01
-2.263280852121812570e-01,-1.128709144494671329e-01,-3.142791101422942601e-01
-2.376535010804295134e-01,-1.196753124096519988e-01,-3.048767149646184338e-01
1.564224834564756916e-01,5.444216405211918519e-02,2.161400899901296524e-01
1.734220565515360024e-01,8.006308604854844857e-02,2.260968381772823499e-01
-1.184029685797534232e-01,-4.638132016948350034e-02,-1.627364380130355559e-01
-1.723610312516331289e-01,-8.834362747176786879e-02,-2.171426133688424964e-01
-3.411578085693647150e-02,-4.795440422544162279e-02,-6.898353839802347232e-02
