-1.578208584382902568e+00,2.456599049386988032e+00,-3.052789781992390150e+00
-1.819648505074802913e-01,4.053205570818084191e-01,-5.020297310555158488e-01
-1.320484477372639409e+00,1.763344353822181798e+00,-2.173158481723228785e+00
-1.057773297416063407e+00,1.375168908835756154e+00,-1.803655926499398543e+00
9.915518056502571342e-01,-1.507104312281548397e+00,1.725068106790164979e+00
-1.254189376428122449e+00,2.097208912555199145e+00,-2.342208807076323396e+00
-1.617829523292037663e+00,2.486746599872193375e+00,-2.849101504577628674e+00
-1.049240159174715803e+00,1.693807802672551377e+00,-1.732730700590416673e+00
1.225420712588430217e+00,-1.825827388432048837e+00,2.041032168537562974e+00
1.286321378704820884e+00,-1.974343696183284758e+00,2.250394586603683411e+00
-1.649891572413697549e+00,2.452555725236975182e+00,-2.747305094671441239e+00
-7.107198830575663928e-01,1.093675278251233562e+00,-1.320732934215051335e+00
-3.684630060928905659e-01,5.712654371514360729e-01,-7.311758925614082472e-01
8.420849331392916692e-01,-1.650631684279078470e+00,1.785821397364733443e+00
6.652768002350191168e-01,-6.245859285408776884e-01,7.587467787292369037e-01
1.221204651937612962e+00,-1.823771470907317394e+00,2.032215225534751646e+00
8.925617044426539248e-01,-1.401836296664162651e+00,1.547051117918942120e+00
-1.395738350702884656e+00,2.123377297619775561e+00,-2.147609105720460487e+00
-1.150691671857786647e+00,1.870803933761882254e+00,-1.970347182299919675e+00
-5.452652803864577180e-01,8.866859717761214066e-01,-1.113991575373354914e+00
-1.117592018225232575e+00,1.884610176483323851e+00,-1.977054892865766522e+00
6.115338908879653923e-01,-8.401839187223340000e-01,1.086918552381724856e+00
9.652779304045473463e-01,-1.388172732185849245e+00,1.833563381937033610e+00
9.896054085947680878e-02,-3.440732640108417062e-01,5.199479432044715743e-01
1.551205544753966992e+00,-2.419239145201812935e+00,2.852139634191489304e+00
7.606257323553536898e-01,-1.307641942697977955e+00,1.649878207431857646e+00
-7.424630356814634347e-01,1.121661241663035380e+00,-1.322073529842257233e+00
2.545295029337621973e-01,-5.582282874699214803e-01,6.650667278051415332e-01
-2.972062263225492829e-01,5.355083902759482095e-01,-5.784035291645577281e-01
-4.687449706881640088e-01,7.054539121333672780e-01,-1.022371769923861473e+00
-7.708840073877690768e-01,9.777556594728979977e-01,-1.250440325495177474e+00
-2.162679157241836903e-01,1.054427883744502442e-01,-1.896203298605830534e-01
-5.435252098548766231e-01,7.440396897853209790e-01,-8.115928017090648927e-01
9.935996701697757949e-01,-1.376179489771362841e+00,1.491282191120910428e+00
-9.690509981242453885e-02,-1.767930235926556612e-02,2.688318375673677887e-02
1.129431463965975491e+00,-1.959973938513922320e+00,2.233061449227452755e+00
-4.790276648917299873e-01,5.657422631694896120e-01,-8.312326330406423214e-01
1.361082963077860253e+00,-2.230490709077050937e+00,2.670910586403488107e+00
8.040986372485695588e-01,-1.250805918942056838e+00,1.217727458677968500e+00
-1.578266131426680596e+00,2.283233113355770616e+00,-2.652730794939612391e+00
1.662871030604154754e+00,-2.073817082028830416e+00,2.489993997180236729e+00
-8.337159383754468855e-01,1.095965249366660288e+00,-1.433733343736796284e+00
8.076214485347673611e-01,-1.290988385681499873e+00,1.679824228232373651e+00
8.570827925069384179e-01,-1.339577297296766334e+00,1.352467292763135598e+00
1.546998702358375333e+00,-2.432206961280852564e+00,2.770536006348642832e+00
-7.842095785706674205e-01,1.464927588535100078e+00,-1.567041791319928601e+00
8.422070340570732006e-01,-1.485885048433075672e+00,1.522326197984497531e+00
-7.986621465681995602e-01,1.190195968222059753e+00,-1.267333722942815211e+00
-1.330940686587290367e+00,1.856314501713732579e+00,-2.206666327615628642e+00
7.571174396847453192e-01,-1.273454214979288901e+00,1.438356521688046730e+00
9.644387980526157866e-01,-1.509187492369868711e+00,1.761098598868587217e+00
2.698935198281730008e-01,-3.624843611570339741e-01,4.579027160092110083e-01
5.808205323266690812e-01,-5.016643592137346452e-01,9.161505949103758706e-01
2.209731562021385320e-01,-4.142257549083572243e-01,3.096254809960711785e-01
-1.546761376730159954e-01,4.154637188729563835e-02,-2.982541142467837747e-01
3.770752907616567451e-01,-6.834250062985794960e-01,7.067229010578072179e-01
1.549340350589718085e+00,-2.356607857607752710e+00,2.693501951020693674e+00
-8.241294888638408533e-01,1.213097206946388340e+00,-1.305047851013519722e+00
3.629139063342760596e-01,-4.125077164037735944e-01,5.200684749544369767e-01
-8.941867090141122354e-01,1.398433847696484600e+00,-1.622721478511818916e+00
1.295643852707005994e+00,-1.976159788692054553e+00,2.172145410830915502e+00
-1.144301472305997880e+00,2.030293002451221795e+00,-2.387264635791860101e+00
-4.442078182000616104e-01,8.618145160230676893e-01,-7.383169149408022047e-01
-1.158411882806647863e+00,1.828512966259928207e+00,-2.174416534311852445e+00
-6.063760123501474864e-01,8.817451783294503187e-01,-1.061592388314626101e+00
2.483204190202190353e-01,-1.985476002020707398e-01,3.736113736015734821e-01
-7.801776801740095690e-01,1.022580588691001546e+00,-9.846658806247532425e-01
5.586333058893350190e-01,-1.024852984271209522e+00,1.157506670841522256e+00
-4.542814914161290019e-01,9.751178128853642546e-01,-1.075036127440007760e+00
1.585896493907849869e-02,2.778908034728715115e-02,1.905374717106034579e-02
1.080083131684621778e+00,-1.795300444471739088e+00,2.137044149443735108e+00
-1.559460364472130323e+00,2.403561223063797492e+00,-3.056048521265448237e+00
1.031647232788071689e+00,-1.498629899425753642e+00,1.680269829151865846e+00
-1.146256992000949548e+00,1.642897782583401689e+00,-1.796137052206453033e+00
-2.707897920699456340e-01,3.262215835997936964e-01,-5.376089023138836964e-01
-3.984418186586903832e-01,4.901191319576582162e-01,-4.742930984935478378e-01
-1.676484831148342680e+00,2.265007626279078590e+00,-2.707039241896044501e+00
1.172615242790802981e+00,-1.743490805711352731e+00,1.933553309941610676e+00
1.011063796216249644e+00,-1.477857260786195059e+00,1.815163692573091625e+00
2.388750642187040529e-01,-5.747307085529133053e-01,5.941209367292822341e-01
6.704098787107430901e-01,-1.107953327514912045e+00,1.362822441345254765e+00
8.630868890960395612e-02,-2.730203186023132389e-01,2.396500687822514797e-01
-2.310021514046126101e-01,3.679278952200200070e-01,-3.549091757698879523e-01
-2.734804320706468173e-01,3.416470056700104396e-01,-5.794693969195688910e-01
9.798500448720814937e-01,-1.421683976438606889e+00,1.669464713120775157e+00
-1.215533135492107508e+00,1.678922011314830209e+00,-2.184398761944952749e+00
-5.231222169324034610e-01,6.133795647330620993e-01,-9.059721781209967295e-01
1.199052292185331270e+00,-1.990131197343179226e+00,2.212612295248320482e+00
1.095456187829228073e-01,-6.746060158049208000e-02,-9.378344164232342399e-04
7.044398175831707576e-01,-9.693520400350994493e-01,1.380187648360912567e+00
5.764425286156540373e-01,-7.758041506641866203e-01,8.934950849077764046e-01
-1.233026385877545428e+00,1.913684531452028326e+00,-2.327965492998624875e+00
-6.146251812448062513e-01,1.050343031844249486e+00,-9.706765336791699506e-01
9.072146820467305028e-01,-1.182179672660402137e+00,1.371870156770045757e+00
-8.209538144216224631e-02,2.978344301817608675e-01,-2.314597010702927893e-01
-1.157111219841131078e+00,1.846543540989143528e+00,-1.951560237223271876e+00
-9.161467773520238778e-01,1.499954947621908286e+00,-1.709929312703472037e+00
1.429568898247872033e+00,-2.129735823464413258e+00,2.398694476166408851e+00
-4.162009059868004845e-02,1.497119001132522220e-01,-2.088043633389554954e-01
-1.038997040662532623e+00,1.644177009898973862e+00,-1.876061855740685180e+00
1.356289185737368674e+00,-1.876203426477152991e+00,2.111354166041303770e+00
3.566572874078580702e-01,-6.013657904837478307e-01,5.032952528972545192e-01
-9.152287802950157536e-01,1.102409153545333975e+00,-1.461351591835772901e+00
8.928636569271389822e-01,-1.685968915071074825e+00,1.840950984434566395e+00
1.572765586789223402e+00,-2.394907851475443383e+00,2.779330562713395292e+00
-1.090972835685439346e+00,1.753033546457402281e+00,-2.163341535856613262e+00
2.576251193519353277e-01,-5.040660234050744481e-01,2.082195520640928166e-01
1.135266531112240740e+00,-1.835624642453928645e+00,1.950387191295612777e+00
5.999027461578746445e-01,-1.285837892143854022e+00,1.242688442540720084e+00
-1.438780823509473450e+00,2.321076737185447936e+00,-2.694897814896286548e+00
1.157170081551983365e-01,1.575000733620416093e-01,-3.411359514072199173e-01
1.683617994123765005e+00,-2.481659741319047985e+00,2.957818829027591079e+00
7.487530274691366339e-01,-1.302148779109496557e+00,1.481325384229525310e+00
-1.478468225634734345e+00,2.252474481203166068e+00,-2.445690040680089439e+00
-1.342609283339608384e+00,1.842223107069151489e+00,-2.246307248742291485e+00
6.942237336724560448e-01,-1.366824150239913660e+00,1.684992798638498712e+00
-1.696968791265857535e+00,2.485377490379478083e+00,-2.977347727240647224e+00
1.518900827295035727e+00,-2.300010209564789854e+00,2.673609404238400433e+00
-5.385692515389979285e-01,6.753157505076905487e-01,-8.412192403948267616e-01
1.307951596937597438e+00,-1.964619589229474439e+00,2.442462518101309765e+00
-1.571611576693955126e+00,2.214577728550410463e+00,-2.754724700669459736e+00
1.039405958137192554e-01,-2.510209519691689040e-01,3.808430334219609636e-01
-9.224637781164367611e-01,1.316436605396673398e+00,-1.732700158051909023e+00
8.399696009777606331e-01,-1.106933762952091227e+00,1.400498421290244044e+00
-9.611962085019083446e-01,1.289360973248090403e+00,-1.682295177297790989e+00
-1.262124964995803067e+00,2.268165523983654008e+00,-2.509013752375273576e+00
6.228007017701430170e-01,-7.780834416013275856e-01,1.079259624304070408e+00
-8.098691909634758712e-01,1.283190148826468313e+00,-1.787177148805594751e+00
1.406962337479999103e+00,-1.814362466659785955e+00,2.069134867894318219e+00
-7.875151247169062119e-01,1.195060797959913712e+00,-1.528011571259907830e+00
1.554525906702935334e+00,-2.169905255947067069e+00,2.523644625284072518e+00
1.829802928283992713e+00,-2.693715867025969768e+00,3.102229882476465583e+00
1.163974358192858105e+00,-1.866511195896915387e+00,1.923520119536076489e+00
-9.781127171628808403e-01,1.487186939747006553e+00,-1.812746951570258114e+00
-1.473146030049959476e+00,2.108646820367262809e+00,-2.388522730591370102e+00
-3.844180599002035986e-02,2.004703010635075222e-01,-5.402635239969929559e-01
1.585721779072745585e+00,-2.268163267311420928e+00,2.688866981962847014e+00
1.561776564360041197e+00,-2.374624150637742570e+00,2.691482662592936226e+00
1.489361495419020409e+00,-2.103418788816749263e+00,2.507146879798229921e+00
1.429511185422353670e+00,-2.068457156848725997e+00,2.109475423471328437e+00
8.860767862557361596e-01,-1.119575622971452633e+00,1.350299496852671588e+00
1.266748248423069101e-01,-2.172305728745897724e-01,2.662459405139303570e-01
-6.398939743565958960e-01,1.218714630414071465e+00,-1.302957206508069232e+00
-1.466065421490418297e+00,2.323121353321341953e+00,-2.765581508199423499e+00
-1.043217699745866867e+00,1.740410560635931470e+00,-1.847749421667503666e+00
-7.777959034632213609e-01,1.035139023613395937e+00,-1.392071983792062984e+00
-1.809670762996670845e+00,2.454179180064237187e+00,-3.034847446568829099e+00
-1.205214342123378080e+00,2.136611186587479949e+00,-2.386755614838147022e+00
3.492506833950835832e-01,-3.799726501598015838e-01,6.116670034480539142e-01
-7.904901032121083304e-01,1.365282800845837752e+00,-1.464071816018719385e+00
-6.107517654694374354e-01,9.047157854293531587e-01,-9.653556808692341784e-01
2.247316386918275094e-02,-1.415286160626621492e-01,2.706619343510169862e-01
-7.146616999989551244e-01,1.142108267315200987e+00,-1.485210464951266740e+00
3.218485580931451651e-01,-4.911991798170179391e-01,8.180459589044728475e-01
4.521803020549072238e-01,-7.371151023326288909e-01,8.336040752227983353e-01
5.792656467280717925e-01,-6.369406548238648602e-01,7.256012387721182400e-01
4.902300584520636884e-01,-5.904089397016890617e-01,7.220385135588349712e-01
-4.467187427161233293e-01,3.191211190516475282e-01,-5.879530749092866104e-01
-9.170347683964745755e-01,1.522820431383587358e+00,-1.882246537565797295e+00
-6.319370802469636006e-01,1.170326118398678839e+00,-1.262793745270353929e+00
6.150395148359631969e-01,-9.042595424485716515e-01,1.056350449712403661e+00
-9.998280216613613103e-01,1.970876492682923642e+00,-2.079013250844875760e+00
-9.126651014186105693e-01,1.425994617711501933e+00,-1.700714798009397066e+00
-1.617671639754957091e+00,2.630344668547265563e+00,-2.942268982372548969e+00
-1.388831138893295902e+00,2.370559599042441956e+00,-2.548886758837084709e+00
5.042132799649789998e-01,-7.991283836892201231e-01,8.315910671998975046e-01
6.526718695501793066e-01,-7.798998052971226613e-01,9.809857013348681765e-01
-1.066349110589635829e-01,-1.832764979557615151e-02,-9.863956327819871361e-02
-2.630317925864868456e-01,7.388105231596580058e-01,-5.948104987393304510e-01
1.229840536126810102e+00,-2.053496892161501997e+00,2.506711648278220128e+00
5.610535805850442870e-01,-1.168985876208115116e+00,1.236620607207102651e+00
-5.442366109137226626e-01,1.011492563266505273e+00,-1.056648717727206810e+00
-1.689776100361827238e+00,2.490774388217817936e+00,-2.862800130648857966e+00
8.612429417910567597e-01,-1.247138688965857334e+00,1.410523984877320114e+00
1.178973354551102332e-01,-2.439011719843255654e-01,8.346118126430972228e-02
-4.244060378515176479e-01,7.072234200515262748e-01,-7.212994679408478715e-01
3.550949260174857125e-02,-8.577093996528563705e-03,-1.951501835598248302e-01
1.657088446490330380e+00,-2.659367875699573336e+00,3.014506412688001902e+00
-1.083752826190893526e-01,3.414960542906537166e-01,-2.652817692498000146e-01
-1.320388721126454001e+00,2.129316034413391456e+00,-2.354719625698776575e+00
-3.947715655515274813e-01,6.168944569610399498e-01,-8.817165420789652153e-01
-1.097192465844454290e+00,1.764964624900580370e+00,-1.984727438889574147e+00
-1.399934028236409445e+00,2.083918193393119900e+00,-2.354251074015484946e+00
1.548520486638008453e+00,-2.395226320482673366e+00,2.816101123812631002e+00
-5.124977586778166616e-01,9.161926397487046847e-01,-1.105467475614724471e+00
-1.715620503405281383e+00,2.461588564502599663e+00,-2.995515148658357329e+00
1.581488177972084852e+00,-2.414172740529271888e+00,2.830730238373062146e+00
8.877234028393757859e-01,-1.396066452896012056e+00,1.643121220716345032e+00
-4.235834421891036539e-01,4.434085288075100828e-01,-6.012767054767611530e-01
-6.337020978542365901e-01,1.003461334239575509e+00,-1.234207493256040955e+00
-1.973457702569750716e-03,3.380431019132211501e-02,-1.293926902477769147e-01
-5.788641086124349799e-01,1.256310071238057047e+00,-1.232329679065978789e+00
4.576687629451066212e-03,3.192441068507786972e-01,-7.990544273110852802e-02
4.713183656516470310e-01,-5.059393813323683764e-01,6.407021125549685614e-01
1.424197051675536896e+00,-1.994271215967267752e+00,2.542506195211124087e+00
6.931490668300827052e-01,-1.160840937988274479e+00,1.292678642606652994e+00
7.328222955415609752e-01,-7.744084306171260534e-01,1.097104877982884252e+00
-1.397812276916969854e+00,1.938636362888890519e+00,-2.371218415707933680e+00
9.282538741452061037e-01,-1.224906530262583226e+00,1.525613192715563171e+00
4.091437445432794667e-02,-1.460908466449864218e-01,2.271484820688676465e-01
9.204848312441674674e-01,-1.408841604249183588e+00,1.828276059365702588e+00
-1.261013864110965832e-01,5.570951273021359507e-01,-3.173437081688273986e-01
-1.379783351227666099e-01,3.941358768562444048e-01,-4.536517954228243554e-01
-9.592842416980615905e-01,1.502803087521344727e+00,-1.817299656692439980e+00
-1.559824402170162161e+00,2.268836469065245609e+00,-2.701918341693681835e+00
-5.975619923428753255e-01,1.081610611283214674e+00,-1.045165409290981673e+00
-1.432560042386022969e+00,2.150398485299432227e+00,-2.457072887980140674e+00
-1.417588471341403089e+00,1.979790465614448269e+00,-2.272640254008559069e+00
1.846069586131513784e-01,-3.044571192843926188e-01,3.085597802652957911e-01
1.273010474765188027e+00,-2.075898246799946723e+00,2.345283665106371096e+00
-1.031803700032329213e-01,6.129294668516899192e-01,-3.978376623294467840e-01
8.690431631718905647e-01,-1.187841456873479196e+00,1.210156691772519277e+00
-6.402847233555689632e-01,1.330212229662003143e+00,-1.473920613712579541e+00
1.204014672213460146e+00,-1.857183481981282469e+00,2.198836777020197530e+00
-1.666143301123603315e+00,2.527662997469134698e+00,-2.951406294613219572e+00
1.017933798764524278e+00,-1.532125664574926160e+00,1.648537093979080437e+00
1.432205295340050588e+00,-2.179159651083583782e+00,2.493108224731541256e+00
-1.258607947674913463e+00,1.796190563841757237e+00,-2.026120294955991330e+00
-7.332455482881774511e-01,1.077355176559503747e+00,-1.243565497417045140e+00
1.702642105674923911e+00,-2.704245029638427056e+00,2.933446667946805420e+00
9.958438626808060468e-01,-1.592512425516201091e+00,1.702334459553664692e+00
1.681835487568102749e+00,-2.541490414552576738e+00,2.757480278021257725e+00
1.017622770024455559e+00,-1.810639314148120516e+00,2.070782598122356877e+00
-9.542380068900478962e-01,1.303243168489358839e+00,-1.222049187052774544e+00
7.991532203648803456e-01,-1.437774584913848352e+00,1.543474271211547677e+00
1.203579269294383414e+00,-1.519660035682331323e+00,1.720836035574081047e+00
1.530564128645677480e+00,-2.488949356957030901e+00,2.829879048178985723e+00
-2.609726519961405589e-01,4.583235896049502878e-01,-5.594047099459581451e-01
4.274357206129479891e-01,-9.391716828460178190e-01,9.557627938991206662e-01
-2.955949569960956147e-01,5.728702774338702008e-01,-7.885045990365424640e-01
6.074511605068254605e-01,-1.249037178945149096e+00,1.406312556453323204e+00
7.451088049088337995e-01,-1.004044792152093191e+00,1.527262367950896538e+00
-1.032456816094612817e+00,1.514870103430941306e+00,-1.680159674381756618e+00
1.171071921110435232e+00,-1.866967237702202853e+00,2.254202125279453739e+00
-8.255914955317872339e-01,1.072968431390742605e+00,-1.391668516763332475e+00
-9.541540919165982793e-01,1.558764787450863443e+00,-1.991533582422431614e+00
-9.074598653948675597e-01,1.271433207316566394e+00,-1.591635368866017197e+00
8.116742554838902723e-01,-1.482757677664855001e+00,1.700738832752268781e+00
-1.017952102540344184e+00,1.716572784858476419e+00,-1.848990868159946288e+00
-9.135115279210663797e-01,9.461988636049168955e-01,-1.363349079114280160e+00
1.713211501610998777e+00,-2.571336556619515434e+00,2.956319933985222637e+00
9.401975543650224754e-02,-3.208859152371161816e-01,2.682184469563942963e-01
-1.234225336604896292e-02,8.797877190837150030e-02,-9.479810514133873989e-02
9.699417150746105776e-01,-1.495414615981552231e+00,1.889825137891802953e+00
5.547474226989262958e-01,-9.761625872279293681e-01,1.184372999723204201e+00
-8.482851521072535261e-01,1.324281632773481432e+00,-1.474365917984887142e+00
-8.509567844411279891e-01,1.119218674402806535e+00,-1.317032130369803378e+00
1.340579012089860855e+00,-2.344155407870050833e+00,2.525929093525365765e+00
-1.510432797017072559e+00,2.445323364020853596e+00,-2.721417931038610405e+00
-1.632886100691465447e+00,2.369000406103291656e+00,-3.006987152407080366e+00
-4.484310388055880447e-01,5.883129388004985083e-01,-5.351088102340008090e-01
1.271241906426475166e-01,-1.869077453192932725e-01,2.155981335390922404e-01
1.514812518605165303e+00,-2.318381203073160535e+00,2.710049453562859867e+00
-7.516546473514432170e-02,9.450643877103642732e-02,-2.279618544966608429e-01
4.210662318016065719e-01,-6.977742808596292257e-01,7.809525102005682173e-01
-1.147278822827564104e+00,1.592189275410687443e+00,-1.804802793527800153e+00
1.445818873241073055e+00,-2.120689813692373082e+00,2.492044888485463794e+00
4.701695901112791787e-01,-7.416981122890630163e-01,1.050772204888277495e+00
1.016257288497852906e+00,-1.526638844819370844e+00,1.771226972060801597e+00
-7.491043770206311514e-01,1.251991626753591769e+00,-1.764815514722938072e+00
5.346573150444760003e-01,-7.572268152429535437e-01,9.113441238828023927e-01
1.144467126264776535e+00,-2.084756247687651332e+00,2.346189991788924178e+00
-1.177911363836085412e+00,1.987711020941885565e+00,-2.233702858351243492e+00
4.343867304939454388e-01,-6.754844372521257023e-01,9.784676011536794782e-01
-1.511833671053403272e+00,2.422887940464378165e+00,-2.934595399834406759e+00
-9.816068247517616419e-01,1.559558855757308127e+00,-1.865893319150281116e+00
1.058573893413379929e+00,-1.689189463466045815e+00,1.947753620115205697e+00
1.178993970462935525e+00,-1.779917497173171270e+00,2.280402731985265774e+00
-9.383592723168451277e-01,1.458533309726185445e+00,-1.476349549614001777e+00
-1.412678765569624018e+00,2.365123206140399947e+00,-2.524096124128952123e+00
-6.526098864075805528e-01,1.016282278262527594e+00,-1.087674904747908844e+00
-8.231877202910629077e-01,1.394146588100177331e+00,-1.521111905397565689e+00
-1.100972928986385102e-01,2.609561006619301460e-01,-2.412702872731863346e-01
7.046666284302682826e-01,-1.090980451114017535e+00,1.340790365819087615e+00
3.209398117667847106e-01,-5.457952153746776780e-01,9.369127964291327215e-01
8.351041634245627288e-01,-1.434927379045653373e+00,1.712714009633518275e+00
1.358030161924077772e+00,-2.144442387742926392e+00,2.221251536921603709e+00
-9.255525043840807653e-01,1.432805819345654097e+00,-1.739590922065528567e+00
1.461068187432441601e+00,-2.504917651660864220e+00,2.626306104280433207e+00
7.715912077943689606e-01,-1.504295230444941955e+00,1.421704366685351717e+00
1.109934235965381211e+00,-1.746972915907952340e+00,2.051907958638679474e+00
9.956596217629524181e-01,-1.613814670113856264e+00,1.826266748748422986e+00
1.888578836148968820e+00,-2.561206496328770843e+00,2.911367656855627484e+00
-6.340140165654951643e-01,8.046767408602718552e-01,-1.101836684977131053e+00
1.258233134810687215e+00,-2.137066740942792364e+00,2.354637367047736518e+00
5.376022687696957458e-01,-8.643711103609155177e-01,8.399144634214327221e-01
-1.477875307810757377e+00,2.176332744215208503e+00,-2.412057754179230074e+00
1.275009696595367892e+00,-2.035341202106690339e+00,2.224680676914450927e+00
-8.586858202174587618e-01,1.502611692923452980e+00,-1.614553541840875850e+00
6.999074780767956527e-01,-1.055622333779356659e+00,1.097023223359205879e+00
3.382774783733704660e-01,-5.499710047478051367e-01,6.341280337346989482e-01
7.446559594084913858e-01,-9.926480304166820368e-01,1.570965848387328334e+00
1.603067388533067295e+00,-2.467511347812669786e+00,3.009110549537171053e+00
1.299761166916532651e-01,1.156295047470305287e-01,-3.441313948322361482e-01
-8.303363118448232605e-01,1.472185444240094565e+00,-1.564995200035714129e+00
-1.395557943826692737e+00,2.250807531986815935e+00,-2.525153118601314528e+00
-1.276741798888882506e+00,2.160122427078871699e+00,-2.256236063295053107e+00
7.692194656943541764e-01,-1.236300913506873433e+00,1.304706093694294911e+00
-7.715809196619182186e-01,1.260291192600153876e+00,-1.391110276589553107e+00
1.217193927721019087e+00,-2.043064306673690655e+00,2.156023572297634860e+00
-1.296705528861365586e+00,2.182284256553864488e+00,-2.585900040853423398e+00
-2.672944657644003574e-01,3.237302588695752936e-01,-3.634758783463715726e-01
1.198627077218426651e+00,-1.847511664688237687e+00,2.110475071643033829e+00
4.272038407251481096e-01,-5.234468279668423873e-01,8.630605556385124721e-01
1.624108481124396652e+00,-2.468022342306266381e+00,2.771635054307700408e+00
-9.679027410187703850e-01,1.452073339292906606e+00,-1.829495313289927427e+00
-1.499500931400165049e+00,2.516159201694976311e+00,-2.716468400373983183e+00
1.107701684923265706e+00,-1.698225477566512653e+00,1.879604403400691792e+00
-8.503765879868052657e-01,1.117244611053204828e+00,-1.508196763320839073e+00
1.225160110121441992e+00,-2.053071747161055782e+00,2.232726372956572725e+00
2.624259309000503970e-01,-3.240460007908572138e-01,6.030548917935834030e-01
1.129025132255679909e+00,-1.744143578284339746e+00,2.076948733678912529e+00
-1.162159129883776343e+00,1.766033145618028044e+00,-1.734660981893064724e+00
1.451401321146268186e+00,-2.288325518651892043e+00,2.675861439084870952e+00
-1.534917506460978798e+00,2.293542439079681472e+00,-2.746938275325583323e+00
1.342689298903104955e+00,-1.901052054542625047e+00,2.413612692591212916e+00
2.868079788541376685e-01,-4.728195912001174062e-01,4.325992604926176544e-01
-3.636642010719580154e-01,5.801987021733373551e-01,-5.538134601350029884e-01
1.758500845241773636e+00,-2.487561248887331988e+00,2.817798407546006079e+00
-1.145803983698399531e+00,1.828007671144957547e+00,-2.170430681540965523e+00
-3.997027677443152349e-01,7.518442067466100109e-01,-7.676939753184052195e-01
-9.180705695936737243e-01,1.417580271144277093e+00,-1.492334307054245857e+00
-1.674888039688110064e+00,2.431469120901319503e+00,-2.942248715522652880e+00
-1.175727598731039159e+00,1.764810803891124991e+00,-1.899163821210032577e+00
-2.236778362600417014e-01,2.666777278014357822e-01,-2.221779012195978786e-01
-1.694298027096249604e-01,3.978880597733573943e-01,-4.912544510787807406e-01
3.308294237645462155e-01,-5.136953479266166411e-01,4.958146245004291797e-01
-1.241043729454193612e+00,1.814570386280305092e+00,-1.962053575377818548e+00
-1.020912574896059244e+00,1.264785480274270846e+00,-1.728992700399166527e+00
8.464861191383149519e-01,-9.578753188700805943e-01,1.368412303790971007e+00
1.519464795771741539e+00,-2.426285024775961752e+00,2.956822111009377529e+00
-3.906489966068169006e-01,2.231211185816118492e-01,-3.963618176982900976e-01
-4.552471181644152098e-01,8.231014780756668037e-01,-6.884062159606509912e-01
-4.180345042785585385e-01,6.749838803149315059e-01,-9.779422145583753778e-01
8.810172111276997065e-01,-1.533496909373828654e+00,1.536277856175411571e+00
1.279664435481482565e+00,-2.075797617045277210e+00,2.465660121732947463e+00
1.337878454401830730e+00,-1.889223347973843392e+00,2.297897437083366246e+00
-3.390702693840753623e-01,6.110471925933411708e-01,-6.781524313909270685e-01
1.325004000770187762e+00,-2.283460115405461011e+00,2.552876563255004783e+00
2.260818268036596246e-01,-5.522414993013966544e-01,7.308960270988800190e-01
1.556596655264024243e+00,-2.451251518447505440e+00,2.705850581195634152e+00
-9.966008947231144166e-01,1.683238336811280211e+00,-1.763595676995441064e+00
-4.710617642742550015e-01,4.373500849233425969e-01,-7.449542273093425759e-01
1.465126128904847169e+00,-2.142770414594502792e+00,2.651079774464086380e+00
6.084750158124909714e-01,-9.555912017815479942e-01,1.223971383776564004e+00
-1.730010579139219962e+00,2.629810853639089618e+00,-2.795096032480669290e+00
-8.661328813151802919e-01,1.299901283359163884e+00,-1.389055320180273334e+00
1.254367271897080416e+00,-2.059052053916401448e+00,2.323061195732935236e+00
-1.592587224250926470e+00,2.416047113162848703e+00,-2.777162073512512652e+00
-1.524449702949947971e+00,2.117626415668782069e+00,-2.417959306899200911e+00
-2.101836165790007260e-01,5.910156768791691162e-01,-5.972234407649273935e-01
-8.364866950714515692e-01,1.201614481236085830e+00,-1.285848478719068044e+00
1.339577592345857937e+00,-2.199496781700221781e+00,2.445950519004404633e+00
1.171197462977751513e+00,-1.661072537176423669e+00,2.097563742253403696e+00
5.482419062229493267e-01,-9.835699935439092823e-01,1.130132326464401427e+00
-2.133501921570110371e-01,1.875935315153006988e-01,-1.849188858759576726e-01
2.530094283552730694e-01,-2.628550791944308518e-01,3.666348617146165667e-01
-4.390849738860866380e-01,9.160646337605555800e-01,-1.091513670318342344e+00
-1.327796508417233623e+00,2.093005700663457702e+00,-2.270756711381651805e+00
-8.713124973483502567e-01,1.436563141231278262e+00,-1.704358205664605608e+00
1.036462572354420741e-01,-7.306817045157819324e-02,5.761251724848233391e-02
-8.241837733949232137e-01,1.453845621183987635e+00,-1.755761092409826363e+00
-3.940006060272468469e-01,8.517031538847282812e-01,-7.900071922742372132e-01
1.328778566210746526e-01,-4.425899061442438442e-02,3.172210518875491214e-01
8.932463021919697654e-01,-1.395084885564811028e+00,1.498092348002498575e+00
-1.683414449701945648e+00,2.633008414439164113e+00,-2.763434923543400146e+00
9.997187982597616207e-01,-1.474927549859553988e+00,1.653901694158404823e+00
1.698087147135313169e-01,-1.284038878300460540e-01,2.937443077850125928e-01
3.551389996860380149e-01,-3.140619757076476559e-01,4.373568007692750226e-01
1.151634126589885954e+00,-1.967567863278481211e+00,2.208101922605218981e+00
1.674553532253847621e+00,-2.406508721717671051e+00,2.896978717185725749e+00
-1.328033035013699292e-01,3.684613862099874182e-01,-3.252470106216385215e-01
-5.595936069924947187e-01,1.208294678003428713e+00,-1.400935804019029174e+00
1.515831957418014575e+00,-2.066831222121247258e+00,2.447630809551544218e+00
-5.832086789344896882e-01,1.074097825267491091e+00,-1.090383521771108200e+00
-1.548346517595208693e+00,2.242899132632262038e+00,-2.532717299942925937e+00
-4.186383906375324981e-01,6.492911983625276884e-01,-5.647683223326739332e-01
1.371090489976400484e+00,-2.234471174126126058e+00,2.501702522234438231e+00
-1.322751085609264798e+00,2.182601347578958073e+00,-2.362454352712681338e+00
-6.797223070431412939e-01,1.080714657850082139e+00,-1.292147636757759344e+00
-1.174880796998181376e+00,1.895151975990810422e+00,-2.065255427164728541e+00
-8.525169914455754672e-01,1.279356508787639068e+00,-1.450622928555497015e+00
4.612971911645437628e-01,-8.777604383129961052e-01,8.603907715472869366e-01
-1.533736908137232513e+00,2.301233518083229956e+00,-2.843376231070853688e+00
9.865837706289122266e-01,-1.340030791603198157e+00,1.592180012921313059e+00
-1.498885250637457922e+00,2.346308529508166707e+00,-2.588145118036304204e+00
8.581563047372451347e-01,-1.432964363263666607e+00,1.604331931273192513e+00
2.070930366850929627e-01,-4.334159793713827646e-01,4.396081151845252499e-01
-1.647949477923566164e+00,2.442286949464072876e+00,-2.836276629404522076e+00
1.579377087377688227e+00,-2.344843125549834983e+00,2.794306965641377261e+00
3.808477810974786326e-02,1.472787835908979936e-01,-1.819876286895922013e-01
1.070935113975592934e+00,-1.706526601048164116e+00,1.983374959189962761e+00
1.722158109165884188e+00,-2.464359056697816630e+00,2.888859250825757563e+00
-4.833932208278615694e-01,1.042615824906783173e+00,-1.103294897593932733e+00
-7.652697752213165339e-02,-2.950239105298304437e-02,-2.359741242793554628e-01
1.202415004813886412e+00,-1.934801231164311019e+00,2.028040438402905821e+00
-1.454995152440547113e+00,2.147965175653880898e+00,-2.491728243679199650e+00
-1.205312226711970247e+00,1.948665543357581686e+00,-2.353846720892474487e+00
8.150212473234262900e-01,-1.280584078518544278e+00,1.543536514723770070e+00
-1.358827756408514720e+00,2.251824873074972810e+00,-2.528791209699314368e+00
2.280337823971949895e-01,-6.042567781938059657e-01,6.435680795492612072e-01
5.061833216347679798e-01,-8.450691256693714237e-01,1.259300968675467258e+00
-8.861493002563385346e-01,1.284479763650999029e+00,-1.557215504896791947e+00
6.663970686438317470e-01,-9.729596444186315862e-01,1.047641924814215697e+00
-3.853124520592904161e-03,-1.351326549817647160e-01,2.426227888994970661e-01
-3.989905361139925444e-01,4.374846753466000160e-01,-7.652407723999006262e-01
-2.343566148152561590e-01,5.091211764011830399e-01,-4.152346238978032456e-01
-8.555981196165077241e-02,-1.933943403005746256e-02,-2.068425523834143201e-02
1.664587388775727428e+00,-2.530468902744771764e+00,2.926066112019384047e+00
-1.580558472417460170e+00,2.291046775470596764e+00,-2.721916426465699423e+00
1.382352432439503342e+00,-1.810746641778691490e+00,2.257606354776267477e+00
-9.830972389063237227e-01,1.660427763578983473e+00,-1.691644358882776311e+00
1.625869655506950728e+00,-2.673523417548083536e+00,2.722375714947586456e+00
-1.258757009447122766e+00,1.875913314014196143e+00,-2.168191741935508787e+00
6.013837228835806625e-01,-8.377078463909820583e-01,9.942633769122503073e-01
-5.838846393339379715e-01,7.025193062866565974e-01,-1.085147239826581789e+00
3.147385699192308262e-01,-7.380684348073592860e-01,6.380329251807455027e-01
-1.154387929277966407e+00,1.967992884452255176e+00,-2.357790532069994782e+00
3.387271956615228730e-01,-6.418624264291931114e-01,8.070448486834973512e-01
-1.010198063813628977e+00,1.424843609634586894e+00,-1.501747457070115255e+00
-1.274518412245057464e+00,2.016296630743466878e+00,-2.462322600352497393e+00
1.251640593633358778e+00,-1.625715986527928258e+00,2.000410897699233193e+00
-1.040103665479700679e+00,1.708905208181409563e+00,-1.916941699474401517e+00
3.521191655040954438e-01,-4.877097898596925440e-01,7.122684035147800463e-01
1.639679352610930119e+00,-2.544182049404277279e+00,2.799489931846767199e+00
-7.990086593918909186e-01,1.082990348488635401e+00,-1.390428270493323515e+00
1.607752164320195964e+00,-2.419577462999756179e+00,2.636321957758968715e+00
1.175901112033518603e-01,-1.429141991049946436e-01,9.155409736267267062e-02
4.232413838140408613e-01,-8.477541359780852437e-01,7.838068991778509575e-01
-3.284477778663587033e-01,5.644690804577759957e-01,-4.711236352549714179e-01
-2.902111221898483473e-01,4.077624683001702666e-01,-6.579832589199862136e-01
-5.087067761473406113e-01,8.798645930626408651e-01,-1.040874069410236746e+00
6.048903283198614478e-01,-7.746768103678813855e-01,8.032827970494272884e-01
-1.560756551847183315e+00,2.234198816927069231e+00,-2.558405181020677599e+00
-8.751167087269992040e-01,1.372925404127632198e+00,-1.438243343187919132e+00
-2.473188545809740235e-01,1.503427316939300734e-02,-5.499904856535411946e-02
-1.341806198911303039e+00,2.113585087369322935e+00,-2.361446467046215414e+00
-1.349581316109479401e+00,1.894754128338659971e+00,-2.275524279629274726e+00
-2.758008340250781704e-02,1.628032279822348438e-01,2.425317118739628991e-03
2.781386319381656258e-01,-4.333604491392574198e-01,6.593279997556175109e-01
8.271304841696279775e-01,-1.378303089000237014e+00,1.636604102306127295e+00
-9.619898557028379038e-01,1.372387945683464228e+00,-1.567916422612874117e+00
-1.307791643418270366e+00,2.175918309130828732e+00,-2.381569848118542332e+00
-5.598791480664105924e-01,6.668273550343392087e-01,-8.679399342582673205e-01
-1.470198067178830836e+00,2.398865843815406684e+00,-2.799632906933188448e+00
-9.288358503897562457e-01,1.335186206599593861e+00,-1.475641291954135959e+00
4.491894798555274848e-01,-6.188605477483459794e-01,7.144791661925019577e-01
5.722333983319426443e-01,-4.095982404050227399e-01,5.675908200562378436e-01
-8.796529435184988754e-01,1.468527926915401238e+00,-1.918578189310354398e+00
-1.131919476080235798e+00,1.690793442782158484e+00,-1.824503661575382685e+00
2.867005289777680987e-01,-2.163166484610768436e-01,5.624423419335812246e-01
1.448694892882755436e+00,-2.042357586826416327e+00,2.469489278464436222e+00
4.731565661522096899e-01,-6.958207069145733170e-01,6.048080638142603327e-01
8.645764259272961105e-01,-1.294312510514009640e+00,1.521606416970626263e+00
-9.687863497961212156e-01,1.745921259287441796e+00,-2.001812737122206087e+00
2.963674786684769927e-02,1.802090940384311613e-01,-2.536417083356221069e-01
-5.762494243583842213e-01,9.525458563645593513e-01,-1.266070412067391793e+00
1.521805116347920706e+00,-2.387120636070574342e+00,2.788446700715576654e+00
1.124745036776423346e+00,-2.116518618489780845e+00,2.242813154793798613e+00
8.893238358742029392e-01,-1.222232650559386791e+00,1.418744009218738000e+00
-8.506088727277564265e-01,1.308986838130145047e+00,-1.574173833643916387e+00
-1.211250211486222250e+00,1.783843490296610268e+00,-2.457770587889013481e+00
1.424619602764000126e+00,-1.983311699182135568e+00,2.205089624573459695e+00
4.223748495906123335e-01,-3.704309145398765324e-01,3.141077189210342291e-01
-1.435131363287288631e+00,2.106348611207466082e+00,-2.479643879700643705e+00
-4.616271265192123385e-01,4.706823501916942432e-01,-6.888656185544448363e-01
-7.634448379447459354e-01,1.317693184874816348e+00,-1.533608988355425806e+00
1.085046653638553682e+00,-1.763327904336346785e+00,1.895422325198784064e+00
1.384225061149189528e+00,-2.043438783460802100e+00,2.488632206950635695e+00
-5.655810429106846587e-02,-7.228755255408415847e-02,4.683169869987262313e-02
-6.178255451274695664e-01,9.396352864449010189e-01,-9.820910635501328700e-01
-6.473980283775915279e-01,6.884021678423074553e-01,-8.144354118916811158e-01
7.215457819822705954e-01,-1.256913199158130157e+00,1.356467220874509882e+00
-1.022257696293302098e+00,1.659742078714640634e+00,-2.004587441831719996e+00
-1.154462480311639228e+00,2.004554624235521221e+00,-2.137894471438290811e+00
6.793240187767973781e-01,-1.069815590536870031e+00,1.210574265957293338e+00
2.742290355622151732e-01,-4.339311795283095630e-01,3.121454964920369335e-01
-4.852438969479575676e-02,-1.548938599289896301e-01,1.299613505947298797e-01
-1.407286997866563638e+00,2.331826480729349615e+00,-2.864433947167755345e+00
-6.482770669910981054e-01,7.995407182775484678e-01,-9.223981461499299872e-01
1.098487984330436706e+00,-1.701787926227999126e+00,1.726121070558779724e+00
1.139025009641238428e+00,-1.778419309611012356e+00,1.914415869023879724e+00
-7.624417387973773108e-01,1.176289813012816321e+00,-1.466346952384479208e+00
-1.189984518609857433e+00,1.827264095286775136e+00,-2.082006839393840014e+00
8.988563814859484857e-01,-1.540586632038443815e+00,1.659029235361101140e+00
8.844696102645227542e-01,-1.324171562791677470e+00,1.619406832603803803e+00
6.301763956385368903e-01,-7.409742861647028445e-01,1.163222474490505309e+00
-1.006147355368703922e+00,1.517090650963868415e+00,-1.752631754931947450e+00
-8.055059637031112274e-01,1.476660735614382824e+00,-1.782050268667058734e+00
-5.726233914115356205e-01,9.772661142385381527e-01,-1.161371992899699279e+00
-1.153206819688798568e+00,1.758359337410094314e+00,-1.982602545814070583e+00
1.571495051504444351e+00,-2.395394698051759086e+00,2.628880228883979875e+00
-1.574167170702838403e+00,2.139136520323050572e+00,-2.532202124389091757e+00
-9.467081263588955631e-01,1.396992672774060029e+00,-1.730713434963273789e+00
-2.664831819721382722e-01,9.014477367410849151e-01,-7.520075569924558057e-01
-2.581016935315036398e-01,1.185453161567743413e-01,-3.657123699904522574e-01
1.342570732618722396e+00,-1.928697721143312283e+00,2.038641517067797615e+00
4.892404654590328805e-01,-6.168436162874694206e-01,9.659150378556108363e-01
1.493311701760772658e+00,-2.353604420220051896e+00,2.667474478720433861e+00
-8.190679063366544943e-01,1.260050900968801679e+00,-1.503075461936952628e+00
