1.461819111856681452e+00,-2.364427114585847256e-01,1.433034095856861923e+00
1.606840079909655827e+00,-1.956255023914777735e-01,1.430530968571083417e+00
2.328991433893579932e-01,-1.023983852654274940e-01,2.557287888889979155e-01
6.423164113563151201e-01,-9.764372082459044089e-02,6.185779831234314852e-01
-1.694327562820614030e+00,2.817709667367981341e-01,-1.460154834514473254e+00
3.154339726282841538e-01,5.684370001486494656e-02,2.372675825679761985e-01
-1.876115964442900963e-01,8.000550087192479301e-03,-2.495077307305031689e-01
7.906333920895283196e-01,-2.039069128683040077e-01,6.685749009512693686e-01
-1.597445117578542906e+00,2.093256302761180576e-01,-1.387748027380284688e+00
1.530540494787861583e+00,-2.370078609741297082e-01,1.390958150507290769e+00
3.603951456618808558e-01,-4.555179080872997881e-03,3.753741198464397577e-01
-8.281908904166527252e-01,1.834155296488824416e-01,-8.192148524862876702e-01
-8.533906655521787954e-01,7.224556924502932576e-02,-7.332673447912821940e-01
-3.031769309883909358e-01,2.400941193600251988e-02,-2.835211590205632959e-01
5.035526606179866471e-01,-4.864757899434839911e-02,4.200650708917921250e-01
1.353064165382684703e+00,-1.874145033537200356e-01,1.194511449449732421e+00
-9.056832950844921626e-02,8.466255198699845774e-02,-1.427899417493029288e-01
-3.427802546658346161e-01,6.919389440028939076e-02,-2.143295737028822756e-01
1.850314517818310689e+00,-2.602544493553098359e-01,1.707488409557484488e+00
-2.858358578658335980e-01,8.833606250244709079e-02,-2.281704623476877025e-01
1.400199823505148933e+00,-1.634989808897251151e-01,1.209526465502727799e+00
3.636028612823906103e-01,9.380412223450309769e-03,4.274649801888863454e-01
-1.727093447939561377e-01,1.858170219724222805e-02,-1.713211526837238874e-01
-1.923009750774330451e+00,3.677183739764763870e-01,-1.694681720889291920e+00
-1.871232938062404871e+00,1.590701980533501814e-01,-1.566367307281318011e+00
-1.516078202794037377e+00,2.870013293564075418e-01,-1.333921759223911874e+00
1.763699848820702076e+00,-2.484162725442226882e-01,1.608968780795883236e+00
1.047915355746596999e+00,1.037061489497775185e-02,7.729864596713618141e-01
4.607940701677815110e-01,-8.697617289578493671e-02,5.392099673349470823e-01
6.761733008596964023e-01,-6.678806295911533797e-02,5.607460439152862630e-01
1.575892225214875264e+00,-2.614447566389117017e-01,1.338435849526408816e+00
1.084704737518265905e+00,-6.679566030495387441e-02,9.955170039607623700e-01
5.005852557758859733e-01,-3.197879391992353854e-02,4.863464348731154629e-01
1.643671778959475416e-01,4.284686618415523007e-02,1.987724953180572685e-01
1.938658300006711910e+00,-2.583284963771168008e-01,1.674171036997729622e+00
2.161964586636045960e-01,-3.590615304903849864e-02,1.982076301124758577e-01
7.048356015468061342e-01,-1.546711465706663569e-01,5.031457017442729773e-01
-8.761592551717767297e-01,2.554246077628979372e-01,-8.181514056926836309e-01
6.868209819489761170e-01,-1.652801321570424031e-01,6.438098606538142921e-01
-5.148736909428941466e-01,5.705727388689085799e-02,-3.924541037265998900e-01
-1.253949176984244573e+00,1.115232599910060546e-01,-9.982133465835949515e-01
1.633759588831522835e+00,-1.451271370564598540e-01,1.407712013056351630e+00
-2.721515832847487548e-01,5.328628286177335832e-02,-2.276701954984090559e-01
5.491478346635660923e-01,-9.158333222130114748e-02,5.643325771093814502e-01
-1.033748998612460168e+00,1.755270377326359765e-01,-7.817539833478504008e-01
1.393020673606580884e+00,-9.893039580968922275e-02,1.240482943809246397e+00
-1.348391597198312031e+00,2.311884264898920183e-01,-1.029678314007489881e+00
-8.108436232494155016e-01,8.781515648387237805e-02,-6.974032706708015450e-01
7.186851148459861838e-01,-1.255144601092675338e-01,6.499403110084296387e-01
-1.591847144583785179e+00,1.601399111185121127e-01,-1.408721691584347457e+00
-1.793010924713409615e+00,2.044046979909566186e-01,-1.592562269928137431e+00
1.770716273555795084e+00,-1.057502737575262142e-01,1.631998699021298682e+00
1.332923317106678329e+00,-1.290211198478712074e-01,1.063097100157632369e+00
1.218669428276741989e-01,9.173466163208861268e-03,1.880118994144606981e-02
-1.872724445005099936e+00,1.411849691963925346e-01,-1.640043070515414092e+00
-1.938849222175824949e-01,9.638330912107855031e-02,-1.067557945393034502e-01
-1.401109807602970436e+00,2.230749995225829729e-01,-1.320949652637555927e+00
6.387298805807732627e-02,-2.595844101397769277e-02,5.653689075952830767e-02
-1.306763237482746032e+00,2.227841669593341178e-01,-1.167308529267456541e+00
8.382126494583140575e-02,9.917969196865970144e-03,6.235103766337382614e-02
1.330892321812188861e+00,-3.965981405478292282e-02,1.273100757566393737e+00
1.253634537144323824e+00,-2.180525950093960830e-01,1.044447140660332840e+00
-1.682908405511914118e+00,3.166252062181318383e-01,-1.600746026048702086e+00
-1.689918245416596854e+00,1.054287850421888190e-01,-1.374502015539613042e+00
2.412190680168286860e-01,-4.517572086694397054e-02,2.946787286370813330e-01
1.163375108396004665e+00,-2.106399094589893606e-01,1.031770263698749135e+00
-1.872669864512559679e+00,1.084361385433044028e-01,-1.732807121668435535e+00
-1.774311843144302570e+00,1.435403563458043930e-01,-1.550142589331054532e+00
9.748129347537723421e-02,-6.253070377330335883e-02,2.254625335486946935e-02
-6.869480899313787914e-01,1.949126072416202532e-02,-7.101708392792241975e-01
2.380778336908615997e-02,-6.247562936014256635e-02,8.161068595247922275e-02
5.783312755107971048e-01,-4.720318206580133985e-02,5.862188736728678462e-01
-3.068738352712679918e-01,2.249654301329601438e-02,-2.337161156400027195e-01
-1.488019427031588959e+00,2.516219848575245721e-01,-1.341466156106891017e+00
1.881948465633747958e+00,-1.641580676818683027e-01,1.653064839792979690e+00
3.273432017505050196e-01,-1.476318430576965303e-02,3.265677822018128729e-01
-8.153398909859125299e-01,-1.409440945380769847e-02,-7.216023859860027923e-01
-1.449523559303612208e+00,9.247668459184658907e-02,-1.317821458549052638e+00
-4.627869964136636649e-01,1.071224367577284925e-01,-4.553058445827568024e-01
1.822285074795585436e+00,-2.012311560411647327e-01,1.640159075893509621e+00
1.446462342539627466e+00,-1.800618143381902680e-01,1.270703110057263885e+00
-1.707538763929941084e+00,1.889990256534598012e-01,-1.526514092888044072e+00
-1.764398408136768515e+00,1.806147108899509579e-01,-1.577105280987486369e+00
-4.868164096283719017e-02,-8.975625663935850318e-02,4.485345311220390041e-02
1.843917951222956875e+00,-1.761756476812618433e-01,1.722839665413465227e+00
-2.218497158507101163e-01,2.224474303692089774e-02,-3.300808405994881123e-01
-3.294586507743393344e-01,5.629507290804659086e-02,-3.563386282602344357e-01
-5.977809298074695521e-01,1.308442355906243026e-01,-5.750569273610685039e-01
-9.247507012186242936e-02,2.916578692185906214e-03,3.977033820560564592e-02
3.051242639583807148e-01,1.910750820047217233e-02,2.869163414225644471e-01
-7.907282676932175791e-02,-9.199861767802372525e-02,-1.137221282263042865e-01
9.415975371803370075e-02,-1.073584852199831532e-02,-2.563007718162210041e-02
1.510543579256883984e+00,-1.504095614548586479e-01,1.251737568772882447e+00
1.822527126806388509e+00,-2.946707268448938155e-01,1.496997583779671626e+00
-1.299045182123500952e+00,2.064137827200958064e-01,-1.223694957676848549e+00
1.639911025883928619e-01,-9.831115583024931104e-02,2.209033042662524593e-01
-1.925206431950130803e-01,-6.344478043472452644e-02,-2.024833907143172851e-01
-2.161004305471498077e-01,4.787264982162445920e-02,-1.932418563212040530e-01
-1.707818848332359307e+00,1.762344639020760328e-01,-1.645645691319675086e+00
3.465547290657456925e-01,-9.074035093006295460e-02,3.304341812806171896e-01
-3.158884847672200902e-01,-6.881566698014060512e-02,-2.843352248284137795e-01
-1.374024612479654905e+00,1.841870975688729151e-01,-1.088796300067459866e+00
-1.112560544535082352e+00,2.985717510426291743e-02,-1.072301918286189260e+00
-8.915583034525831341e-01,6.985980174598828418e-02,-7.463877897363193625e-01
-1.757498139764033684e+00,1.953914505979147676e-01,-1.597493471878589366e+00
1.317757024851073488e+00,-1.102722479697241381e-01,1.017035392145902106e+00
1.844702160721120698e+00,-2.004883155171601761e-01,1.541561130293465309e+00
1.473208821167783844e+00,-1.960749864343563353e-01,1.285348164879742017e+00
3.573290316862063887e-01,8.686903939276259534e-02,3.623328753638813682e-01
-1.668367631374438664e+00,4.969137511964794029e-02,-1.364745947629522949e+00
2.375609507257555111e-02,-6.209938745751726131e-04,-2.314508522460104883e-02
-1.490592204966479262e+00,1.243841093708629719e-01,-1.409112041507747604e+00
9.816968415807456605e-01,-1.256107225444193509e-01,8.697459835996179667e-01
1.427404306163085890e+00,-1.640174559173596947e-01,1.205036445684170676e+00
1.417068614211983490e+00,-2.055778612828853547e-01,1.226237349287904621e+00
1.389506020928177321e+00,-1.906720864356546419e-01,1.272923590982460329e+00
-1.159667578077856254e+00,1.119916445736368477e-01,-1.134798242348790565e+00
8.922756666211208998e-01,-1.737206352307707757e-01,9.716590719334119441e-01
-1.986135121931639436e+00,3.007207939957726173e-01,-1.775122977322656892e+00
-2.922007961151067978e-01,1.564615284354501645e-01,-2.698360683259723447e-01
1.658207785661917288e+00,-2.030833081234719451e-01,1.413409082869251820e+00
1.584474404529507607e+00,-2.594256995705395696e-01,1.476187613541546151e+00
1.896583938913131817e+00,-1.559785779213354040e-01,1.610642648364332130e+00
1.679034590143978489e+00,-2.074489572546808491e-01,1.493456952519297332e+00
-1.717659549491278748e+00,2.638214783411106379e-01,-1.571442232039535147e+00
-4.790878393887786912e-01,3.782803779098071160e-03,-3.613975406505381960e-01
-4.319535206369524150e-01,8.752867362350587321e-02,-4.049455198921603216e-01
-3.474646827360513002e-01,2.253001659249091390e-02,-2.007283665324074151e-01
1.762632984500236866e+00,-2.541948685798663399e-01,1.721790265463680969e+00
1.896699156027287891e+00,-1.046378365701888385e-01,1.669015153594628709e+00
2.172783438350552043e-01,-3.480345764680715936e-02,1.606561171754122552e-01
1.027937210816032065e+00,-1.092622589136960642e-01,9.295759889957982969e-01
-8.742232981927234858e-01,1.265091990033550412e-02,-7.544360683829803849e-01
1.291366039979620961e+00,-1.023340273120114524e-01,1.172299593585420796e+00
1.975737693699193942e+00,-2.287171411679382593e-01,1.710743041754370308e+00
-1.106627142273914233e+00,7.054549608527238558e-02,-9.018855789138886525e-01
-1.302706567490771850e+00,1.604744662208070771e-01,-1.104900602601867732e+00
3.100015071706050396e-01,6.324461136101179604e-02,2.801894865968951320e-01
-6.193046513165278988e-01,9.507682129429842477e-02,-5.099591966143094401e-01
1.460494052645952445e+00,-2.667759472055298842e-01,1.261572122142507579e+00
-1.466500958568107915e+00,1.504675307672745099e-01,-1.213454707456833370e+00
7.510889382960956873e-01,-1.168915050705040259e-01,7.143013252367713672e-01
5.527767914418916240e-01,-8.299331159972686556e-02,4.251607740625922838e-01
1.085066179534866393e+00,-1.892726800225653649e-01,1.011890700937462695e+00
-1.470974817192922002e+00,1.654736727941684693e-01,-1.375149007005191937e+00
1.257407356378208441e+00,-2.083517382589511469e-01,1.154340151617950783e+00
1.291605845850415379e+00,-4.247124967871879903e-02,1.092159049792393644e+00
-8.430266556604726347e-01,1.195185298893556430e-01,-7.707800593575867554e-01
-1.612001616246075297e+00,1.461545444668643223e-01,-1.426802991494312334e+00
1.579170483016354209e+00,-1.914213314716292913e-01,1.422822894903145174e+00
-1.712094134730066441e+00,1.600867908140661822e-01,-1.580563771601023237e+00
-1.845435440039504993e+00,1.288127009007023205e-01,-1.729614914785134738e+00
7.600757301116195519e-01,-5.831933395806531556e-02,7.085441216030619049e-01
-1.327752199421658563e+00,9.078640374044473493e-02,-1.185235481515740430e+00
1.947806400568826923e+00,-1.864251738737998099e-01,1.636215004537815432e+00
3.431140683932162316e-01,2.261192643204689226e-02,2.770046450291862028e-01
-1.422720724654283064e-01,2.570876152450929722e-02,-6.209219419060262729e-02
-8.594086384342681795e-01,7.767946889148247269e-02,-7.980506422226180119e-01
-1.558721464567227377e+00,2.014894970013115794e-01,-1.386579360500792335e+00
1.169083976052828877e+00,-1.050695000947094448e-01,9.222504442301168170e-01
-2.336464658825122553e-01,9.239377869232396137e-03,-2.626137364885704484e-01
-1.800615026246979777e+00,1.273047155547291087e-01,-1.594749031268846817e+00
-1.195837589974240611e+00,2.091546381474668204e-01,-1.066592962060846528e+00
1.908250237545688233e+00,-3.029448607063950916e-01,1.658710073734804391e+00
2.552219051871406630e-01,1.511971616927720342e-02,1.175677449616526760e-01
-1.666010928018617276e+00,1.475690891620927980e-01,-1.435513517239203507e+00
-8.539893169977140763e-01,9.623263326078795865e-02,-7.838135990924477436e-01
1.408741991714824504e+00,-2.539046899700639903e-01,1.390623128036996725e+00
7.472290311083494563e-02,-1.255360711368121163e-02,1.647493482302452295e-01
-1.624389324496975373e+00,1.840533575635540930e-01,-1.496763560725285602e+00
-3.132666010407167412e-01,8.906947030075497776e-03,-1.969607829225183404e-01
1.252117134808592880e+00,-1.724805206973248350e-01,1.257936187314608878e+00
1.797183325310774404e-01,-6.189509452518025812e-03,4.405139827165912431e-02
-7.598039048533993256e-01,6.465582646943238143e-02,-5.573488685438383605e-01
7.950911296103441162e-01,-9.172970409374546497e-02,7.204510036830186204e-01
-1.780070897732334290e+00,2.178467306492803124e-01,-1.484907839733211166e+00
-1.804542408009460752e+00,2.159177430561636524e-01,-1.607476211798416266e+00
2.259324835375940976e-01,-4.833269838699227883e-02,2.373784426583569196e-01
3.722562926833880015e-01,-3.788854392769310658e-02,2.271766483182184049e-01
-1.640723899575128542e+00,1.535762628274577046e-01,-1.520246522551264245e+00
-7.940943591078353236e-01,9.328931320605143851e-02,-7.705694758575803993e-01
1.181870924543135359e+00,-9.596344712748004768e-02,1.062265959979837637e+00
-2.036226427886582424e-01,4.973303167139754566e-02,-1.479201786319604972e-01
-1.557482669945336351e+00,2.226766700661485521e-01,-1.364651959304271633e+00
-1.411862939755415436e+00,1.118599424658669461e-01,-1.340183707132180047e+00
6.386560168164144846e-01,-9.409090756875153339e-02,4.642012942529462616e-01
-1.789119020430650853e+00,1.684047550732484799e-01,-1.496034095670901731e+00
-6.001297792389607144e-01,9.339729595615106628e-02,-4.595749890514293501e-01
6.328386997415726967e-01,-2.334493589096814283e-03,5.254005205999954242e-01
7.236724497978901383e-01,-1.138637706949729295e-02,7.075768389282246495e-01
1.315007287293721738e+00,-2.298915177638676810e-01,1.105099864133759935e+00
-6.696183359335824425e-01,9.099924237715982522e-02,-5.875091303013679767e-01
1.495318371281967762e+00,-2.252982803326002981e-01,1.353503764658219755e+00
1.226301897514443073e+00,-1.798042239173452961e-01,1.187018915384624451e+00
-1.365571364425626211e+00,1.616195983774404987e-01,-1.332093231934323496e+00
2.429967113428021727e-02,5.140670600560643538e-02,7.243518540635564273e-02
1.974647341332327333e+00,-2.709265357941643693e-01,1.771945563174466498e+00
-9.051106305981414524e-01,1.646297918930936244e-01,-7.743733776593788587e-01
2.001268965422731139e+00,-2.624780910650834631e-01,1.748293837159337283e+00
-1.529304886517471429e+00,2.460470484411598213e-01,-1.385513092002815139e+00
4.003817203116338819e-01,-1.335373698063647453e-02,3.222529586481369113e-01
-1.685241041879526946e+00,1.290734317019349708e-01,-1.567143670250364273e+00
-2.087039638307745804e-01,-6.755924743741259508e-02,-1.648333824645565049e-01
1.212845529021288726e+00,-1.841460539501950655e-01,1.096232894247032075e+00
-5.482055601956755675e-01,1.033815390596712208e-01,-5.397762006828892289e-01
-1.906423527137435459e+00,1.530210861069784267e-01,-1.714593479789263242e+00
9.681607654149625430e-01,-7.114821338620687385e-02,7.537572999964776699e-01
1.865037720875341032e+00,-2.376460216512443491e-01,1.786231432464017610e+00
-1.775867920348744855e+00,3.197330505044247428e-01,-1.606956457328780896e+00
-5.078580270499030158e-01,9.698541730414655948e-02,-4.399770263752229571e-01
4.314724145430586244e-01,-1.266414337827789782e-01,3.177836169129051314e-01
-9.647366383803003265e-01,1.059959992373387533e-01,-1.005056282161717718e+00
8.236151815810394128e-01,-6.623341615098325696e-02,8.458980546639150999e-01
4.078548568149485340e-03,-6.507393904799965711e-02,-8.835047802442046183e-02
1.278277879028965280e+00,-4.568794334607435143e-02,1.061331783134362938e+00
-1.323655117265555958e+00,8.633999172043793635e-02,-1.256597450855790665e+00
1.014263539616892196e+00,-8.037838852647581633e-02,9.168893916794331744e-01
8.246556667725560841e-01,-6.817115924410334371e-02,6.656954238150434300e-01
8.694875743417928016e-01,-2.095413548297589135e-01,6.715297857013686755e-01
-1.540343501804384507e+00,1.314714503899394316e-01,-1.324667747136738960e+00
-4.160041547214036184e-01,2.119555837379905397e-02,-4.232748847065442854e-01
-1.514195503683039457e+00,9.183124968402771315e-02,-1.403718073118248810e+00
-1.842681533645430525e+00,2.347364511787933539e-01,-1.651012353281951617e+00
-1.004861047311441213e+00,1.084243533624610067e-01,-7.092252337958774300e-01
1.669868268233975384e+00,-2.385529181412238964e-01,1.542239192187287999e+00
1.361859327031254896e+00,-1.573996543432732709e-01,1.154638159384096419e+00
5.670217610311717449e-01,6.906136741979574355e-03,4.640960805790189658e-01
-9.888360309250604496e-01,1.845530256089787102e-01,-9.657335393077259855e-01
1.357532855621190748e+00,-1.610944602242767032e-01,1.328185812901202079e+00
-1.821736582869818211e+00,2.273672003826893440e-01,-1.604713158803573902e+00
1.476648080826659992e+00,-1.935512284540930328e-01,1.470207019259247128e+00
1.478543770358590859e+00,-1.794712366632302547e-01,1.311698180287528492e+00
8.020019588826570178e-01,-2.114062140174386151e-01,7.319309131043760797e-01
-3.990690512296315995e-01,1.172906646768481914e-01,-3.161894218458647376e-01
1.201123580388124557e-01,1.750742636596791177e-02,1.467519066662386074e-01
-1.223955454005753785e+00,9.423930679679760891e-02,-1.059851629842206711e+00
-1.540900316981876017e+00,1.834873088835468347e-01,-1.412003601015293430e+00
1.212487625481212694e+00,-1.612712167987813416e-01,1.078869634043619463e+00
9.783119450887707569e-02,-4.062329466088169388e-02,1.058348294526737510e-01
-1.572574841868976114e-01,1.055610721561184712e-01,-7.316800788850534587e-02
8.236132451994114534e-02,-5.967525029239206802e-02,1.488157788916735225e-01
1.702232751294797009e+00,-1.878995438852739674e-01,1.497299239635365709e+00
1.446930860192768398e+00,-1.335687632657118207e-01,1.225745745110252694e+00
-1.084675710208127253e+00,1.386938659619245118e-01,-1.015907193426540012e+00
2.539794573274691339e-02,-2.185353292659009562e-03,3.034449119664887895e-02
-4.038393041555448093e-01,6.066327138902244571e-03,-4.377926277047184400e-01
-5.567184493830098502e-01,3.992042740443668691e-02,-5.697705312093682695e-01
-1.606237691552890867e+00,2.518006958056007161e-01,-1.449027584799757129e+00
-4.786546783855915588e-01,-1.415145943863599376e-02,-4.032826222879378752e-01
2.240112174893633609e-02,6.489537958007426943e-02,-2.542508562924221741e-03
5.109419131333238218e-01,-6.042920576697081991e-02,4.274243886498135248e-01
8.072935908852676423e-01,-1.562432968908921034e-02,7.399816982543837574e-01
1.483717187564925766e-01,-1.484390237487278295e-02,6.707359630160085462e-02
2.471571902266219700e-01,-7.739269474348013655e-02,1.870635710230055537e-01
9.165378085787447837e-01,-5.150248869058973722e-02,8.374030813299725429e-01
-2.331892008281009065e-01,1.166666158733632372e-02,-1.177267421509540918e-01
-1.489707141230816489e+00,2.679981567279329235e-01,-1.183649004748208444e+00
1.484282634717911442e+00,-1.346783657855709082e-01,1.110245773172958028e+00
6.430168160573821456e-01,9.476410374780181931e-03,5.574536208997359354e-01
-6.722001430574797709e-01,1.357891616123800809e-03,-5.392490339848949876e-01
-5.641009119984148334e-01,7.895981256343248544e-02,-5.001728567314998042e-01
-7.818400652969414999e-01,1.053622515738021070e-01,-6.467368625435304663e-01
9.425416869937049968e-01,-1.147481754327950021e-01,7.963186175573777614e-01
-4.590794377442201091e-01,3.204112536534593943e-03,-4.664748779211650431e-01
8.270260902617492249e-01,-1.604439729932300995e-01,5.953522078376849436e-01
1.828367583786238981e+00,-1.938782130496582712e-01,1.617003545582501811e+00
1.294429349098525917e+00,-1.558903175295887900e-01,1.167346855503396785e+00
3.868598916216207106e-01,-1.205499944714148036e-01,4.139085499413399649e-01
-1.100920638633150039e+00,-1.784979267103922046e-02,-9.773190864128319388e-01
-1.019359493625843660e+00,1.309701363011241404e-01,-1.002941402462177667e+00
-1.595658076177085771e+00,1.120007677836681315e-01,-1.442642811896227339e+00
1.770470379305176145e+00,-2.193409030475607924e-01,1.652130814494470412e+00
8.093180387914613583e-01,-1.236722730414354515e-01,8.334079873801832905e-01
-1.015084733452873200e+00,7.071783141982149190e-02,-9.545065498681450933e-01
-1.846176823608155493e+00,2.264354526657049727e-01,-1.682690849301139657e+00
-1.571582449520294356e+00,1.523189194516303413e-01,-1.396850517031380967e+00
1.539501302880708300e+00,-1.251267181862832367e-01,1.492473782356371181e+00
-1.801976803536694982e+00,1.690153589322526129e-01,-1.612783147661299710e+00
-1.387530409007358134e+00,1.282538764426665034e-01,-1.329884531330731035e+00
5.204329850737475782e-01,-7.833475437175269063e-02,3.687749492029235854e-01
-9.434573582635509270e-01,8.677237962984987729e-02,-8.185063453765429875e-01
5.846364092464798601e-01,-1.461686071717556989e-01,4.660233898406386799e-01
-1.034590275381258806e+00,1.657223248003959204e-01,-8.804337054043293032e-01
1.391872268852881733e+00,-1.578811770932207481e-01,1.236044366092306168e+00
-1.210362251679847123e+00,1.887489660133048197e-01,-1.194057534125191333e+00
4.990967088965153065e-01,-7.553289673039749463e-02,3.302163512001297097e-01
-4.864156283245153478e-01,4.701518097764835480e-02,-4.243182044676208076e-01
9.295226930142510557e-01,-7.686511339119357633e-02,7.747815544576730495e-01
-1.137094411012853357e+00,1.387084301853339641e-01,-1.074272701392938290e+00
-1.362379900482000750e+00,1.504311856999758223e-01,-1.264828493910239882e+00
1.175406292943123043e+00,-1.497042622257556133e-01,1.086647524221091565e+00
4.735638459997406624e-01,2.623672269982066027e-02,4.338244322823651689e-01
-1.364549930946394318e-01,3.155511338777753499e-02,-1.986398024305482957e-02
1.018588980079349504e+00,-2.129026295263193591e-01,9.870452432371533691e-01
-1.483736933540333647e+00,2.220647269766219123e-01,-1.412660496470356186e+00
-1.642937316562317340e+00,2.229400436684811082e-01,-1.539831682954893033e+00
3.952249447879681299e-02,1.016062232627083922e-01,5.004200499576023919e-02
-5.729902622506496401e-01,7.644025769513754232e-02,-4.961540836738195237e-01
-1.058958894415058111e-01,8.148502702350902960e-02,-1.668202004768864766e-01
1.241162040775219966e+00,-1.302641255269170462e-01,1.127863799294963831e+00
-1.239663506667464388e+00,1.633956340519912842e-01,-1.149254325637707241e+00
1.371279874238864049e-01,5.300869600862823799e-02,1.925415486190299730e-01
-1.975342347386424224e+00,2.836362301358165139e-01,-1.739380261536969785e+00
-1.676888602236193515e+00,2.146321304659189189e-01,-1.557306369535558233e+00
1.815944817375824805e+00,-2.261428268519020401e-01,1.646803859079578825e+00
2.223270681675252602e-01,2.144135067601156755e-02,1.802046789352587108e-01
1.520075580897421563e+00,-2.559706841055193749e-01,1.518713506021498905e+00
-1.986669973879814366e-01,-6.790293849499957901e-02,-2.711098246006428125e-01
-1.534917854686776773e+00,1.769037880559588827e-01,-1.337451719676978623e+00
1.686866470469006840e+00,-1.369591504435516971e-01,1.493962796547251060e+00
-7.474685704799097774e-01,1.179638221817508048e-01,-7.160666457910006555e-01
-1.662210814676162274e+00,2.376264571311263174e-01,-1.382061287497623914e+00
-1.685853818974055729e+00,2.101894237584180369e-01,-1.500566621135033474e+00
3.017973369549333817e-01,-8.772290867735177411e-02,2.943100928600507760e-01
1.299500730234389279e+00,-5.415608858506414103e-02,1.222400910160808651e+00
1.230156811701893282e+00,-1.050621250030612103e-01,1.121499618064488946e+00
1.315881622617299573e+00,-1.950408238255789406e-01,1.107648303622397634e+00
-5.451184333500372903e-01,5.493114115039589296e-02,-5.314550406712157393e-01
1.361544809621337615e+00,-2.242848817277648676e-01,1.275627784930506436e+00
-4.301859435503389562e-01,3.190816432190358293e-02,-4.922051456788837376e-01
-3.288531521818316428e-01,9.172983563061180845e-02,-3.684534350938029612e-01
-8.168417075747347322e-02,1.365488653941911712e-01,-1.818360513552608193e-01
1.555183049485543645e+00,-1.194001241893544174e-01,1.549815605676901242e+00
3.506644110190052510e-01,-8.766959403456180133e-02,4.173988648169281168e-01
-1.175341529860694401e+00,1.408240770531765107e-01,-1.039339952687481805e+00
-3.422328757134195376e-01,1.181822203060895471e-01,-2.564488479285241262e-01
-1.180366067933905416e+00,1.632127742353152444e-01,-1.070598251310816096e+00
-6.758781687789897630e-01,1.318817661644157424e-01,-6.081586072996318926e-01
1.303669651596945644e-01,-2.188125379597483100e-02,1.959285234133367470e-01
-1.652444747194276697e+00,2.121348662357364079e-01,-1.518351120111500085e+00
-1.245004411234781616e-01,-6.197827196088308288e-02,-1.106603523279812290e-01
1.706971041654593790e+00,-2.922750321930898121e-01,1.462531720889698406e+00
-1.203301481409888574e+00,1.326570755436217164e-01,-1.116359232124839673e+00
-2.565728191405127756e-01,3.621873463622229256e-02,-3.361945810297885529e-01
-1.461922457843489731e+00,1.464505625369774411e-01,-1.375463811979484863e+00
8.279820582518393479e-01,-2.307760574863323630e-02,7.887374873260870611e-01
1.396809247245412777e+00,-1.152155422158309267e-01,1.212436216147558588e+00
1.185107298701155581e-01,4.425055629423828990e-02,3.422671580994573332e-02
-1.251404440107654503e+00,2.096458684386510729e-01,-1.279719088928750859e+00
1.797076100906853213e+00,-2.269348277127679614e-01,1.636327911441801231e+00
-1.901014940415283849e+00,2.257196931685971353e-01,-1.663240089659247412e+00
-1.781192010459058395e+00,1.589888652171700389e-01,-1.648451296951618739e+00
-2.500293856707047971e-02,3.953100556463904486e-02,-3.192808691889557904e-02
6.207316248964254157e-01,-1.306780959037548984e-01,4.999068055729103399e-01
2.773798202121223744e-01,-6.778368052373472119e-02,1.130804559493542444e-01
1.697986085031735648e+00,-1.484782222119074846e-01,1.560317991045661268e+00
1.640594150785339211e+00,-3.042016960670449466e-01,1.405402260513346935e+00
-1.330346642253774858e+00,6.892264138398000728e-02,-1.142401276535094823e+00
-1.444163381790283252e+00,1.072158311701223304e-01,-1.184298372416321632e+00
-4.152635222056377251e-01,-4.170866090983625109e-04,-2.616480593084125617e-01
3.469259971869630144e-02,-5.661124020799939566e-02,-5.845515642581354532e-02
1.715342935378015188e+00,-1.579898481488905271e-01,1.567018027492142362e+00
-4.354500318098073475e-01,5.832299935984553568e-02,-3.253346730271680087e-01
-8.333596044721249818e-01,1.042489842120000038e-01,-7.767822971288870226e-01
6.951145633576613081e-01,-9.243642417561712121e-02,6.319022297866462301e-01
1.616147334731456442e-01,-7.484741762419594435e-02,1.795990193494583220e-01
-1.821293424437244290e+00,2.446450592550885872e-01,-1.734727261898798778e+00
1.951739361275194318e+00,-1.701907583164943283e-01,1.817227947104677499e+00
-1.151140893058318682e+00,1.994008847479286917e-01,-1.214083547875532521e+00
-1.430442127926114804e-01,6.948041440696857418e-02,-1.761208836256180632e-01
1.647141224733154496e+00,-1.941530249124441831e-01,1.507358465472891762e+00
-3.944921912415357834e-01,1.096148044038457864e-01,-3.325637147815688754e-01
4.158819023597992715e-01,-5.893595426510091911e-02,3.804226208236445861e-01
-7.649048818138385331e-01,7.803452645406223909e-02,-6.694698455119787450e-01
-5.688283307317660853e-01,8.428872684628226086e-02,-5.150248861758892627e-01
1.514877594819669548e+00,-2.079687987643347447e-01,1.438733968507516225e+00
1.369642927109116837e+00,-1.684265734848185425e-01,1.352419622730586690e+00
-1.195954937695032472e+00,6.333432292196188029e-02,-9.583232127248341170e-01
-1.750123525430138605e+00,2.809105401632329135e-01,-1.600455546308287014e+00
-1.297020461994246476e+00,1.349312420800024004e-01,-1.155364285409185010e+00
1.427188082571909968e-02,2.653335823713572766e-02,1.398037901241549336e-02
6.722802723217898846e-01,-1.563198996145517827e-01,5.919686813868589859e-01
7.572104264803655171e-01,-7.381352444567430837e-02,6.434353621273695145e-01
5.094292539458792485e-02,2.321144401174182401e-02,8.622153285768584252e-02
-2.777790921125605217e-01,7.871190578501786883e-02,-2.887319771825387904e-01
-1.512289942150150557e+00,2.166974308275708416e-01,-1.424392338809323588e+00
7.033221454958944463e-01,-7.985140860070849556e-02,5.038146348410439401e-01
1.500621067519199991e+00,-2.004994364273956220e-01,1.306442803778552708e+00
-3.644239736513915084e-01,1.723335741791717562e-03,-3.936113124413899156e-01
3.979512075672701488e-01,4.069510012817344202e-02,2.701841164465917933e-01
9.928667607657429839e-01,-1.136772418974353327e-01,9.311498865975400552e-01
-1.200131811754326511e-01,3.998813213302280373e-02,-5.794453220657238418e-02
2.982457318854319084e-01,1.447327548548319430e-02,2.440951045597230806e-01
-1.359292596307285272e+00,2.301980889060996627e-01,-1.291127776086489209e+00
1.253094265432080912e-01,6.530551105345012118e-03,1.389594763397140609e-01
3.365091266238525169e-01,-1.001907575950337637e-01,3.963195483878144687e-01
-7.782217038765424366e-01,1.743671579480329803e-01,-6.713227057117938656e-01
7.466015230970902972e-02,-9.835056275864414652e-03,9.927459806321890790e-02
9.118000614523623648e-01,-5.919041416060406152e-02,8.111109579003729086e-01
1.213526929595371229e+00,-2.529704010438643680e-01,1.295221995801955295e+00
1.970527980447263072e+00,-1.933808149776372887e-01,1.771686521721503649e+00
-1.956635315511667361e+00,2.822615971598675944e-01,-1.725977417234421329e+00
1.477962869389499501e+00,-1.354789263177978154e-01,1.249987273328951209e+00
-6.606274856466777257e-01,1.030876720485205712e-02,-4.698002161141061062e-01
5.460260208227848411e-01,-7.962845103229834742e-02,3.967200466757211941e-01
9.080398940146965359e-01,-3.478436624086025941e-02,8.391271069407869598e-01
2.136456463789455570e-02,7.391256694849471232e-02,2.976536702091982234e-02
1.104352499160537349e+00,-1.143273636605921240e-01,9.555301375405786946e-01
-5.591247256818692168e-01,9.832185235868552697e-02,-4.480454070143606859e-01
1.301707158635059702e+00,-1.721394615083725321e-01,1.141606775653462469e+00
1.461016293923929288e+00,-1.167303040405729270e-01,1.268723499134065458e+00
6.474621633170059010e-01,-6.844736775779811100e-02,5.923781803720113981e-01
7.759807827520424084e-01,-1.174135052994593198e-01,5.571636310159666650e-01
-3.770843496270949724e-01,7.011914988546356919e-02,-3.558938544565839468e-01
1.387056550841279545e+00,-1.984107995577998607e-01,1.322873718683049926e+00
1.489980052111443465e+00,-2.124420081284014994e-01,1.438017111074472165e+00
-2.680951472325969198e-01,-1.583320200273579531e-02,-4.125649817091032734e-01
9.100952697207823627e-01,-3.273139797728520650e-02,7.854837263803575720e-01
-1.072723009834590124e+00,1.972474502616592684e-01,-8.382784538616624426e-01
-5.025746635693556508e-01,4.403616725543672145e-02,-3.216443300560235530e-01
6.509904912790147602e-01,-1.032857212887179771e-01,4.751307157037404361e-01
-1.427774517374727603e+00,1.577343636147412742e-01,-1.256217102689717091e+00
-3.522829697065518045e-02,-1.649140990283093702e-02,6.819897297986132756e-02
-1.560639162005312830e+00,2.748196987873510189e-01,-1.383085150902528371e+00
-8.106865779942749040e-01,9.188679483488192135e-02,-7.838719960594799918e-01
4.254036412983545068e-01,-9.020652315927393805e-02,4.682134356168274891e-01
-1.412593335605587308e+00,2.215934845045548773e-01,-1.382121173449970319e+00
3.288152002799494822e-01,-2.609808691693070448e-02,3.899521859734740303e-01
-9.696145791547003956e-01,8.852136500369194028e-02,-8.780140814609248556e-01
-9.254033233836195249e-01,9.190422842414382176e-02,-7.190290988234423475e-01
1.787244026067076108e+00,-3.230902644669239043e-01,1.629195399324879112e+00
-8.686471150312830014e-01,-8.029944172764206384e-03,-6.745430967771873787e-01
-2.451528750659357769e-01,5.353852755530624785e-02,-2.168276066627384813e-01
2.749796149100265374e-01,-1.050649952601093867e-02,9.202581367891286834e-02
-1.330195127566870417e+00,1.895792222703342467e-01,-1.106195384517420832e+00
-3.155457139999244542e-02,-8.278778962074356037e-04,-6.195102093190908189e-03
1.829592644123207545e+00,-2.109031934411560172e-01,1.643708664438402689e+00
1.807484996101732522e+00,-1.375854987066710278e-01,1.670895192184753020e+00
1.921750727013030069e+00,-2.883285215183757910e-01,1.661299664079908922e+00
1.528374577193324646e-01,2.467728621353134939e-03,2.345419844230892670e-01
1.264138117981874698e+00,-1.735292593445880993e-01,1.178637653340474323e+00
1.430547673926828578e+00,-2.325412705415673686e-01,1.377245679936557998e+00
1.413117278686292222e+00,-1.714848348780672604e-01,1.269197489093877529e+00
-1.195092880321153572e+00,2.021966488818490171e-01,-1.022188759175735928e+00
1.955786851471528198e-01,-1.185138424843793122e-02,2.789553776938197283e-01
-7.595049326292935277e-01,5.443237969581180002e-02,-6.077477995723981063e-01
1.605917313875316610e-01,-3.389274850149975177e-02,9.406306652589932482e-02
-5.541008990076773388e-01,1.150110448179366140e-01,-5.484268413261510489e-01
-4.896213485601527693e-01,1.682974561048776740e-01,-4.247854147148509285e-01
1.256955570440553560e-01,-3.917737944942666778e-02,1.619234395254515180e-01
1.737594687184989439e+00,-2.155902296760507375e-01,1.646800919095203097e+00
6.083255572142114431e-01,-1.077461625762957259e-01,5.225323113594334545e-01
1.636392622864882851e+00,-2.085271390642276235e-01,1.458269101150613922e+00
-1.015872714242687769e+00,1.091028369305295925e-01,-8.686448431790478875e-01
-1.787479314461723146e+00,2.876405682664037733e-01,-1.534533801246659834e+00
4.652884194352727154e-01,-5.860556111226180448e-02,4.048554071477247773e-01
1.445871553512416030e+00,-1.047140356813421186e-01,1.285014665173380921e+00
7.134173388205290456e-01,-7.823117073994362292e-02,6.198802857706540159e-01
-1.124917876527079308e+00,1.363941157605177423e-01,-9.784860712865882659e-01
4.088944833029977688e-01,-6.087232660288087460e-02,4.479885356032375920e-01
7.197332331010680706e-01,-1.013734692260619269e-01,5.679048562207952289e-01
-1.553065169265193779e+00,1.431332172908649503e-01,-1.377291283916398879e+00
-5.601154751902335249e-01,8.050650733755305988e-02,-4.883450721043477993e-01
-5.268010733194768980e-01,1.077400401051308021e-01,-5.536981912309625331e-01
-1.053932671380043651e+00,1.394812867104689436e-01,-1.059655039590700953e+00
-9.954735748939127493e-01,9.364499444993905353e-02,-7.182364013179077800e-01
2.842614366378654056e-01,-3.474950423420986728e-03,2.603233099716461552e-01
5.191191221772952780e-01,-8.307671658948867499e-02,4.798799076736831037e-01
-8.245756465490491349e-01,5.681870523174391979e-02,-7.358447194040436123e-01
4.738684033462032819e-01,-5.935180692148843418e-02,4.546811638332666217e-01
-4.425840969153875815e-01,5.668669300353740281e-02,-3.664113595774203258e-01
1.471899441459523672e+00,-1.972024897751038508e-01,1.287923072408898140e+00
-3.253786071363603538e-01,1.239224047942949769e-01,-3.422145393116826084e-01
2.411805584357069321e-01,-2.977557569774457943e-02,2.578786483930505802e-01
-3.995827317182056859e-01,2.610742302694956524e-02,-3.367702830214258092e-01
-1.435072262510442620e+00,2.305182269579561793e-01,-1.306242813554715498e+00
-1.547039118148556325e+00,1.854988883946807887e-01,-1.306722947668716106e+00
3.632576402705810503e-01,9.668481226218389110e-03,4.020398460469250534e-01
-2.228937903000220364e-02,7.054289952875944514e-02,1.440515611964360461e-02
-1.640346512255461464e+00,2.119802490034076170e-01,-1.504634870468143371e+00
5.566711321812647384e-01,-1.007174027773267977e-01,4.516402148998954758e-01
1.033560570533178735e+00,-1.529291542238271628e-01,8.523146654214212026e-01
-1.492110495070005260e+00,1.957440422485366982e-01,-1.319074770971913058e+00
1.240659776108258283e+00,-1.327052289365745208e-01,1.188974806266373418e+00
1.950794956034165306e+00,-1.591234342408239799e-01,1.727526237845855350e+00
1.730502049271579745e-01,-2.686427922414109590e-02,2.800321576113696809e-01
1.255779240821231157e+00,-1.035556667145175191e-01,1.077669188888562779e+00
-9.141191890239486195e-01,8.845446229676280636e-02,-9.554518476350315481e-01
-1.764306773911444415e+00,2.305435097866336269e-01,-1.576579598532091397e+00
4.973681826835043007e-01,6.857449570247489690e-03,2.598546376908480449e-01
1.683748437559862976e-01,-5.772095957753745760e-02,1.827160173968035428e-01
-1.237509542974422061e+00,2.412895561065958594e-01,-1.111615420934728427e+00
1.281252308310704802e+00,-1.500310687384139308e-01,1.238045535844826794e+00
1.104858112635465295e+00,-1.465560247639561275e-01,9.016340462203772388e-01
-1.706499629176041699e+00,2.454072542765449727e-01,-1.560573345828914826e+00
1.280645257955545513e-01,6.399384003905148055e-02,2.111969502004815424e-01
-1.715832917356381992e+00,1.282016497691910173e-01,-1.503904095549687625e+00
-1.655632314342902145e+00,2.421101916751554617e-01,-1.635817449570113657e+00
-1.766060085189106177e+00,2.221733294610994669e-01,-1.679265939479307912e+00
-1.704749566866568200e+00,1.265815751171370240e-01,-1.598374035387193137e+00
1.701359248391074219e+00,-1.609580884326392847e-01,1.578485905653139731e+00
-1.391177759200751041e+00,1.188203392456988750e-01,-1.301984091338862060e+00
1.471228005628152591e+00,-1.836115148758902249e-01,1.265737983005331913e+00
-3.876421553218078464e-01,9.537055260133649182e-02,-2.966826814586476790e-01
-6.333225140179199464e-01,1.437663688460191214e-01,-4.594118143485169115e-01
1.606351191944770163e+00,-2.257945471797981607e-01,1.360813651641221478e+00
1.590714860020441712e+00,-2.075370564410775609e-01,1.460703032851468741e+00
1.105866650968390985e+00,-9.851213018387772191e-02,9.593036865181330253e-01
-1.356833116071648471e+00,2.089242205649851636e-01,-1.193255223610307336e+00
-6.012987823297030188e-01,8.142005938146520960e-02,-4.866319392511747610e-01
