-6.019266933543236942e-01,7.944672758792054035e-01,2.175591647131187578e+00
7.080979442347264119e-02,5.469967079604992621e-02,9.707329399854375263e-02
9.502367127592167839e-02,2.501245056718673018e-02,2.015475921619521715e-01
5.976101177293605682e-01,-1.388922629369446105e+00,-2.598184025237384454e+00
4.854735564726257446e-01,-9.921749551848595416e-01,-1.975620186595494543e+00
1.195198601624773316e+00,-2.040649624475885382e+00,-4.051493040051534322e+00
-3.778531996656174230e-01,4.554899037595416811e-01,1.058248076531364434e+00
2.753740183466182184e-02,-2.006795619843028677e-01,-2.955440227199409020e-01
9.887199862690391194e-01,-1.473518665202950828e+00,-2.962532308734482367e+00
-8.690948474701722937e-01,1.277014030056908611e+00,2.831607118310932591e+00
-8.621173993487991627e-01,1.548740972632964397e+00,3.286392066939676226e+00
-9.209093273514996625e-01,1.392136505061908780e+00,3.055455162595563490e+00
1.139903583122959363e+00,-2.009190544689106073e+00,-4.034588553481495588e+00
-1.223393083834352080e+00,2.157817542883435635e+00,4.181873418645825069e+00
8.132641126077216074e-04,-1.437925229667058880e-01,-1.783799531478133804e-01
-9.336964349714392819e-01,1.809453238032021183e+00,3.744358447355136565e+00
-3.150573414179174692e-01,5.523736224316131427e-01,8.033808673512931042e-01
6.853018268088714171e-01,-8.198839475931862797e-01,-1.760378553216645381e+00
-3.866305584671694273e-01,5.783152602914165552e-01,1.099736081655176001e+00
3.661125382932541306e-01,-2.441779471197060569e-01,-6.775521226696450405e-01
-1.435331296228117559e-01,2.109397956831509935e-01,2.737527432967362118e-01
3.975630853752500915e-01,-8.776024977080387757e-01,-1.891840895913490694e+00
-8.967470264680408309e-01,1.828195670820375707e+00,2.991759905080739745e+00
4.192504863012813110e-01,-8.574084041070358930e-01,-1.808703752838701329e+00
-7.202855233874652097e-01,1.078116665353914261e+00,2.306343475392389486e+00
-1.150780094969139355e+00,1.984117691111924930e+00,3.905029198657659073e+00
-2.542975467881156693e-01,5.602153512517554779e-01,1.352631020953325880e+00
-5.125655166304993182e-01,8.148030095442756471e-01,1.411939200466509670e+00
7.676442319610965459e-02,-2.757473422008190345e-01,-8.543668789592420154e-01
-1.717533325759263707e-01,1.106111188579208260e-01,3.176770571822703504e-01
-2.422930589281014069e-01,1.672863960477660727e-01,4.806198448279053181e-01
-1.035440248031936461e+00,1.879402625304596341e+00,3.715877625380955340e+00
3.392132141076482088e-01,-5.828117979576906693e-01,-1.143308390799131935e+00
1.345609821532950168e+00,-1.838776321962401150e+00,-3.997314140878033051e+00
-9.640824433562364959e-01,1.552626085756399821e+00,3.275547038796235100e+00
1.188976527815004625e+00,-1.901304213503704599e+00,-4.277093719301682029e+00
3.443212100013731680e-01,-6.647581043296234560e-01,-1.507413561240288802e+00
-9.589274520639753385e-01,1.554119405378144414e+00,3.159221897143445812e+00
-7.588924493488860001e-01,1.409914209373182237e+00,2.850856753235550212e+00
1.249406055331156340e+00,-1.734272125960582001e+00,-3.878027021562878485e+00
-8.307290091405961086e-01,1.909728442887812294e+00,3.995307582389535650e+00
3.285045441265644350e-01,-2.097639067466395557e-01,-4.048722012826864169e-01
-6.295776392722741699e-01,8.528691688758274214e-01,2.032688127880938556e+00
9.802280408039808490e-01,-1.142930175394368808e+00,-2.936291838525664666e+00
9.880650317801196181e-01,-1.859178248105962217e+00,-3.512550088472747412e+00
-8.253405451243838176e-01,1.158597428743280089e+00,2.358393536546405933e+00
3.932294239291192484e-01,-8.272142503697490490e-01,-1.487139502564325255e+00
1.288858563197525509e-01,-2.264795140859272582e-01,1.791913006892323357e-02
-6.466206455320627766e-01,9.184812844072611782e-01,2.052051467018419117e+00
4.848556645870171211e-01,-8.746447376169497190e-01,-2.061367480808874664e+00
8.354276726041492962e-01,-1.126930526084907180e+00,-2.348917181033218782e+00
-8.439023670254747200e-02,-1.149872562768278032e-02,2.762039094530080452e-01
-6.982538070676312936e-01,1.148029501895378335e+00,2.622648567344723958e+00
1.054776484469285514e+00,-1.690076618713555190e+00,-3.799963214327965133e+00
4.447895138361150913e-01,-9.173667490123214030e-01,-1.690578594361018538e+00
6.655372071702057024e-01,-1.084589313421215229e+00,-2.238796909714708239e+00
-2.396868219886067186e-01,2.689376730706315999e-01,8.440862596548930341e-01
-2.560506801959531731e-01,6.459907436571574735e-01,1.177473514088994033e+00
8.581730701099981040e-01,-1.370606279559590579e+00,-2.871550822231525135e+00
-1.184422457020875979e-01,-8.692190468885477306e-02,-8.151942534324760348e-02
7.019534000224673109e-01,-1.660113540045479841e+00,-3.367503307110189859e+00
-9.264314640095775433e-01,1.892932617332997669e+00,3.406123730229805968e+00
7.148649203237568139e-01,-1.096542325254470596e+00,-2.514017517974095561e+00
1.453284476026570349e-01,2.060537604902113740e-01,5.050505724056765233e-01
-6.951868705379489199e-01,1.080072592973102541e+00,2.432910716464344425e+00
5.452638721645194364e-01,-8.229843350772797494e-01,-1.476896241539331411e+00
-2.111256740106581264e-01,3.763670203573630246e-01,7.418305908599132081e-01
4.548462293131177447e-01,-7.100867358804068274e-01,-1.833172926762013599e+00
6.919863440213495087e-01,-1.207237661242087867e+00,-2.526647309792885210e+00
9.839238013748314859e-01,-2.281946991484194776e+00,-4.350228232631134340e+00
-2.522827293700670159e-01,3.702632770386979355e-01,7.649865931754811221e-01
-9.195948154965782884e-01,1.740129353254626032e+00,3.354797456768523922e+00
6.392303319828199215e-02,-1.279556319178387636e-01,-2.626169294849452496e-01
-2.266393344946444344e-01,5.026933990557906906e-01,1.120832429908327876e+00
-5.341255457010604113e-01,1.369108357957670385e+00,2.375050318556267026e+00
7.740573880014316177e-02,-1.541150639233113129e-01,-1.742485248801272368e-01
1.215169357684919849e+00,-1.917677284779727875e+00,-3.838696377225948364e+00
-1.996776077936091853e-01,6.839953540645923868e-02,2.797132402912875793e-01
-3.899556163869431491e-01,6.304553425486884022e-01,1.255514471743546467e+00
3.245343256230510121e-01,-6.933185217241969456e-01,-1.310494028493705443e+00
3.950333088939224080e-01,-1.069719019980622576e+00,-1.420299545783562545e+00
1.098497141656972653e+00,-1.932392786153009245e+00,-3.924051647437719836e+00
1.131935086092409115e+00,-1.810723638892784981e+00,-4.025270799792459719e+00
-5.228766203981203287e-01,1.007969989154321455e+00,1.708846362204047065e+00
7.057604575445702855e-01,-9.951638865176148929e-01,-2.072496466589204278e+00
2.542347490510576402e-01,-7.097265192735562334e-01,-1.652982751169472575e+00
-2.662477356527990779e-01,5.681378890610641053e-01,1.776414851619305901e+00
-6.677631955877388892e-01,9.645034314023157584e-01,2.196892237359273636e+00
-9.523782705648795588e-01,1.270366295469069984e+00,2.703362139018575583e+00
-7.082432757233148024e-01,1.466381368502686078e+00,3.064050443196495888e+00
1.172027521538222539e+00,-1.805247549874220203e+00,-3.625339552073107541e+00
1.152782296282104157e+00,-2.052662430639684121e+00,-4.239096508928134277e+00
-1.051937420791060118e+00,1.845295643217349069e+00,4.122332906934047081e+00
1.088717634470454110e+00,-2.013371189675879247e+00,-3.839171274821670643e+00
-1.411453341205126388e-01,1.521552633519310527e-01,1.783443146806915625e-01
-3.545025500569982668e-01,5.408891977603131895e-01,1.227377721768869057e+00
-1.592470892635967084e-01,-2.710483612124113817e-01,8.427919419321411310e-02
-6.773120050995911079e-01,9.214942919096102969e-01,1.761217667575556201e+00
2.124196024054000598e-01,-2.674338660312614024e-01,-3.093567944412933812e-01
8.305688534301588488e-01,-1.485047747248340988e+00,-3.078719546053434453e+00
-1.122465955716136721e+00,1.866328092060805188e+00,3.626677329757339141e+00
-1.838152006698140495e-01,7.510368333031443022e-01,1.323531912643711506e+00
-7.310361302182659671e-01,6.796923326856664227e-01,1.647340451181236842e+00
-2.737442256155153686e-01,9.929952286931892358e-02,2.000074427377974973e-01
-2.717120913381965708e-01,3.889551393679654967e-01,8.515113100020420545e-01
-6.731245938009928764e-01,1.317106417743365787e+00,2.795891356398152894e+00
-6.056913741332630163e-01,1.337674776506431407e+00,2.512272110931483837e+00
-7.410575107467151090e-01,1.488748216577634009e+00,2.761073781340118494e+00
-7.945000748378009403e-01,1.478082633753839525e+00,2.528061167006998122e+00
1.441214501846625196e-01,1.355699352004808567e-01,1.677934841486987960e-01
7.580771615170087685e-01,-1.239301240159102147e+00,-2.448489533576561961e+00
2.981470894217022605e-01,-4.877888377516594320e-01,-6.321984280065725548e-01
-7.108664928225968405e-01,1.545516854576196586e+00,2.690580375036798255e+00
-7.762950057132494974e-01,1.347091246667662556e+00,2.684716649250586507e+00
-4.676859515390361377e-01,1.074582958277211064e+00,2.617144983092908106e+00
-4.885783963368714455e-01,1.039632647139524080e+00,2.190338877118297667e+00
-1.195979162333488555e+00,2.145453189883741896e+00,4.077075031353297518e+00
8.653804576235843982e-01,-1.625092460536738725e+00,-3.339049107559115992e+00
-7.816755318798617180e-01,1.343596846064872175e+00,2.691040334134924716e+00
-1.356016329823906519e+00,1.849909120063728540e+00,4.037422654512246467e+00
3.825399304948944867e-01,-8.816038396585499370e-01,-1.917296755549523057e+00
3.159501268512152072e-01,-5.665656136105281515e-01,-1.183008143863230277e+00
3.315303510743297394e-03,-1.929825867009617515e-02,-1.877538260470732467e-01
3.310861342948339670e-01,-8.300645074726334949e-01,-1.429245038334403528e+00
1.148100598738514666e+00,-1.748027431924716879e+00,-3.824074301762619754e+00
1.142481352015860541e+00,-1.802463719779725970e+00,-4.052266327526869105e+00
1.112015487025432181e+00,-2.009511838849813437e+00,-3.965577873758754812e+00
5.676485090655911669e-01,-7.804857995646223845e-01,-1.905583578293454039e+00
3.779913050061142754e-02,2.706261880513152751e-01,4.090089264822842074e-01
-5.391084306439696272e-01,1.133447359596802873e+00,2.191754760237588862e+00
-2.536359811537248210e-01,3.135425486889165114e-01,5.603402573475390058e-01
8.961966710471108710e-01,-1.548309342290567381e+00,-2.981782060719309957e+00
-4.822438229149940692e-01,9.295516722374947971e-01,1.859048412023374786e+00
1.296761947560655381e-01,-4.625242425613773634e-01,-1.138454723229109344e+00
3.867573665036553310e-01,-9.450851189767971450e-01,-1.572581981409094887e+00
8.895946197531943156e-01,-1.641609413531169404e+00,-3.348342712746267491e+00
2.559680896421660523e-01,-2.837278198677372631e-01,-4.582190828026500018e-01
9.133323406742941408e-01,-1.655312740829465445e+00,-3.405660080566988768e+00
7.124824773572951964e-01,-1.437355272194329459e+00,-2.859892840596547803e+00
-5.596741171170194207e-01,9.703308101271214126e-01,2.125089566777616845e+00
-9.492547465013621011e-01,1.399394057274492509e+00,3.153154297586760801e+00
1.365105851747198673e-01,-2.286752194553194062e-01,-2.124941349673738211e-01
-9.433461690540239086e-01,1.368794638402606401e+00,2.990320409206260077e+00
6.089700352039382203e-01,-1.177436636897416289e+00,-2.239447212625576000e+00
-1.104773635242834562e+00,1.884679993972056433e+00,4.161480191627260794e+00
4.040722750278358810e-01,-7.658674748043048375e-01,-1.749917212711055825e+00
1.109509605475254235e+00,-1.787451218128829789e+00,-3.781466429887927472e+00
-1.212674718716475253e+00,2.008000442257216189e+00,4.251478188305591210e+00
-1.591704574334272815e-01,4.702306004078187773e-01,6.245647933696525378e-01
1.169958866066355130e+00,-1.875776716307409719e+00,-4.039349957445861783e+00
-1.564705406185900316e-01,2.630318159756820373e-01,3.749478351932205022e-01
3.162612598692972066e-01,-5.568904076016429894e-01,-9.247847534659471291e-01
-3.665341497089328326e-01,2.524428565452875861e-01,7.223943272080789457e-01
5.359958554845525303e-01,-7.675815280294796539e-01,-1.402214221376907988e+00
-1.511502824018305380e-01,5.571254897210022872e-01,1.004387265933292861e+00
5.242110479625330388e-01,-8.898054338698415666e-01,-2.002527090579980573e+00
-5.492292750533152024e-01,9.901517002742403761e-01,1.764215484423209412e+00
-2.955917592178077813e-01,4.051223388656269297e-01,1.030593846314915574e+00
-5.204062311804833474e-01,8.848767421135846911e-01,1.972813469687109800e+00
-1.717832646309522815e-01,5.316289503726725346e-02,-5.646829139920996055e-02
6.911795674048001326e-01,-1.275259570620651761e+00,-2.466009097356007818e+00
1.046347634020256434e+00,-2.036118272964261955e+00,-4.146425210956712348e+00
-4.872908410067959828e-01,8.842932142267503348e-01,1.692143477120296113e+00
-7.701381952190892166e-01,1.154680176375830980e+00,2.526346603926015177e+00
-1.081198480137385426e-01,1.359745941807052327e-01,4.067961972921064207e-01
5.885489075322408725e-01,-1.104383705591435394e+00,-2.453391887651017900e+00
-1.660777515223345047e-01,3.548397016648092150e-01,5.222537659676745880e-01
2.447689489249564865e-01,-4.323644959403694088e-01,-1.152945986878649354e+00
4.091427701013393703e-01,-6.880614538839837646e-01,-1.590526378639042671e+00
7.953999689509438920e-02,-1.090149719326544281e-01,-1.334592404353995565e-01
-1.063177495128943412e-01,1.834324574770620497e-01,3.929002220923148991e-01
3.923799737773771279e-02,1.389438130395759252e-01,4.481162526684547287e-01
8.355186875645033151e-01,-1.572301413158584849e+00,-3.480825831672408111e+00
3.617327884415856842e-01,-5.241469615506282320e-01,-9.477449331993472725e-01
5.025154758092524876e-01,-9.271855000141583369e-01,-1.914590693182560255e+00
4.811426698483813325e-01,-5.882200630180713929e-01,-1.339770836798280573e+00
-7.527891468994882818e-01,1.559420130070017008e+00,2.851579066789597494e+00
8.210474032710755043e-01,-1.608819866620486039e+00,-2.860435644030363544e+00
-7.745964904622817393e-01,1.217835916981787170e+00,2.561438956493153896e+00
8.259414319710799424e-01,-1.222932345031141121e+00,-2.646645061396964316e+00
1.020972040113419688e+00,-1.955162349598985605e+00,-3.674296353212927357e+00
-9.781882989212652424e-01,1.753737295763551973e+00,3.433611283560590532e+00
2.853932157919116253e-01,-8.086705605262505259e-01,-1.579791332836433915e+00
-4.401152823186428309e-01,7.249706761879008976e-01,1.497874113720593314e+00
9.860781782739843626e-01,-1.387564067971128523e+00,-3.053475360757337054e+00
-1.270964616274435466e+00,1.898199850634056940e+00,3.980213901860290893e+00
3.845303700464307028e-01,-5.941939737327540660e-01,-1.486102062575249905e+00
1.336774898404093637e-01,-2.240391964107266987e-01,-6.193437099146191782e-01
8.795377236249405373e-01,-1.528355316892415994e+00,-3.358688952943478245e+00
6.459896654635747248e-01,-1.661754876675784587e+00,-2.954627041472128735e+00
4.577055243758185177e-01,-6.991485897547551343e-01,-1.525160500142964670e+00
-9.775765041271115008e-01,1.752595919419236647e+00,3.240263084521790571e+00
-9.331530881436055358e-01,1.407745742359354235e+00,3.135305917251263619e+00
-7.536702626997537902e-01,1.487766224529447623e+00,3.055141232099380932e+00
-1.513945481705429863e-01,8.920144024146989259e-02,1.284214825451009401e-01
-2.540047247481396764e-01,4.534609845586480836e-01,9.684019176088753955e-01
2.781627777331496243e-01,-4.250525636777026106e-01,-6.389106420765934269e-01
1.096224720228371696e+00,-1.945941006322315925e+00,-3.999017243332001925e+00
-4.714599700240722502e-01,1.095089989847098266e+00,2.261006326492750684e+00
-8.944395931293219748e-01,1.327433521434447039e+00,2.771382457576986980e+00
-8.015739398507635283e-01,1.217387226300982395e+00,2.492209645964282849e+00
1.142786058531159332e+00,-1.822785198895129133e+00,-3.814310850668696240e+00
5.903818264163974705e-01,-9.933224272396097287e-01,-2.086087808214344808e+00
8.215008495434637792e-02,-1.351423268050539472e-01,-4.196390452593185549e-01
4.983917650741703231e-01,-1.025040922930923859e+00,-1.778064446256418796e+00
1.060818461069846119e+00,-1.424493902007283097e+00,-2.898199269872553607e+00
1.066362064942425025e+00,-1.477740322707823406e+00,-3.519156387914640582e+00
-1.018566255564649525e+00,1.569818303709893614e+00,3.146861350568189497e+00
2.255796692799196257e-01,-3.780454504801497584e-01,-7.766725682493049732e-01
1.202161849966770335e+00,-2.021730891113764805e+00,-4.051165917143735307e+00
3.922364310421979500e-02,7.190691632567626501e-02,1.168582274126508530e-01
-7.764618308977641048e-01,1.232907768982635321e+00,2.529266162130851203e+00
-3.854579426344838522e-01,6.631123214477273597e-01,1.592530227736771886e+00
5.710292145399654684e-01,-8.851136959638326029e-01,-1.426117188173164019e+00
-2.847292057984187053e-01,4.215427596463003912e-01,9.618493641900728308e-01
8.337157501895213763e-01,-1.645480781599642839e+00,-3.216706437231626747e+00
6.318246963350397927e-01,-1.332837877904013313e+00,-2.343385139385245175e+00
8.651937395687031573e-01,-1.437525085400219726e+00,-2.866298141931339138e+00
1.028238886229015714e+00,-1.908756411124696628e+00,-3.761534840906376242e+00
-2.402262396389948373e-01,5.955249382682222814e-01,1.059283425721919025e+00
4.418223130912729002e-01,-9.809948526982200656e-01,-1.419602922272688694e+00
1.025071527078442513e+00,-2.116861422792132963e+00,-4.169771435461275821e+00
-2.017780864326494117e-01,1.561658497305201398e-01,4.207194825140756489e-01
1.187945404517584569e+00,-1.719619059018119955e+00,-3.717815671258520194e+00
3.597941602544504902e-01,-7.668641694487405847e-01,-1.528970119049154475e+00
4.254598451720095764e-01,-5.501915596697263267e-01,-1.204015837819664148e+00
-5.489961632940697500e-01,1.091970716938486241e+00,1.988424749881900988e+00
1.187423890569759388e+00,-1.755963455345189494e+00,-3.854343941119132921e+00
-6.186663932595135584e-01,9.038582474304176495e-01,2.249108196823134342e+00
5.213542776409362256e-01,-7.117088075890539711e-01,-1.569516565195595348e+00
4.341290165014149993e-01,-9.006545169710828969e-01,-1.855665040472766147e+00
1.377391597942334844e-01,1.404543885353481403e-01,1.169472203691469953e-01
-4.900432057857957435e-01,1.069511549900777903e+00,1.835321292133085258e+00
3.533364853095063429e-01,-7.609769368355290275e-01,-1.305262815540377153e+00
1.158212772059696638e+00,-1.952584347319450631e+00,-3.996455398774634293e+00
-1.212741420857922581e+00,1.865367974078757873e+00,4.252848594701498897e+00
1.260593631578371232e+00,-1.679732912612539764e+00,-3.726058133651030779e+00
-8.356620626444988265e-01,1.487282814341345683e+00,2.985896816735410741e+00
2.641267197435159253e-01,-1.434411568331576681e-01,-2.356095823910311637e-01
-5.494233137080483109e-01,9.244060108364851036e-01,2.018667431565878800e+00
3.504811259690942538e-01,-6.020909281343207464e-01,-1.483158908063891612e+00
4.361196003432318280e-01,-9.650159472087261880e-01,-2.038442565797323525e+00
1.015732730590090727e+00,-1.805235709822686774e+00,-3.839648349490559998e+00
-2.879760876354148791e-01,6.297023047520063921e-01,1.055222475069450327e+00
-4.759820126249008077e-01,3.860620223257011929e-01,1.259793495651503115e+00
1.414035179269410580e-01,-5.207010865436522140e-01,-1.106121577565635672e+00
3.907241289896035696e-01,-6.760788331073159796e-01,-1.068593474973852819e+00
-2.854603318907731335e-01,6.616643556351201605e-01,9.096658488300998213e-01
-1.184837253653589162e+00,1.676587490127119384e+00,3.700240116700522552e+00
2.127774498914978829e-01,-1.772660522195878274e-01,-7.898549777963201901e-01
-2.574221996907051779e-01,5.668765624597086328e-01,7.301709934776668964e-01
-8.517133973075533548e-01,1.422424907184793419e+00,2.614671322590274904e+00
-9.433311687506391596e-01,1.792790776248013085e+00,3.370866625992170462e+00
1.035816734194786815e+00,-1.804445645438254697e+00,-3.910978789441633019e+00
-6.244382360833100609e-01,8.580686706631175387e-01,1.688695515044028150e+00
-7.783297603641146090e-01,1.560281080037536405e+00,3.162038456997754210e+00
7.301175691700366732e-01,-1.380634459299040273e+00,-2.650451344484603400e+00
9.944073894331200147e-01,-1.722812466940527143e+00,-3.342947496331717616e+00
-6.897312264091834955e-01,1.258308694113286830e+00,1.993965557467525240e+00
1.158050808344910365e+00,-1.811925323077488992e+00,-3.899544807929808510e+00
-5.119624576363916990e-01,6.518026326178616436e-01,1.275361268092569889e+00
-1.059687375675699927e+00,1.852327919156557146e+00,3.941640965176353983e+00
-5.571401261799636684e-01,7.267392010397610846e-01,1.802990267878997965e+00
-6.112461616699253752e-02,-1.448951582311040764e-01,7.339410021913636561e-02
-2.783414397976381998e-03,2.626019239376070277e-02,2.017754605717667904e-01
-3.521040421314088897e-01,7.749906109137320032e-01,1.522753943914540109e+00
2.772316077567948400e-01,-5.649024074466287848e-01,-1.431624025279879975e+00
9.531113307433297654e-01,-1.951366452506192672e+00,-3.359153884288563763e+00
-1.021422060834695916e-01,5.337530400580268175e-01,1.143672291270368513e+00
8.716569494956357689e-01,-1.887304780234830393e+00,-3.827597924586162659e+00
8.145148613984055652e-01,-1.602884077815915909e+00,-3.176659468308208112e+00
9.684697599377332100e-01,-1.503461039906385244e+00,-3.195189936598098690e+00
-6.100807743196137167e-01,9.680736850320856846e-01,2.172104531283806761e+00
1.189868201485107857e+00,-2.000606123779181011e+00,-4.171209831370751075e+00
-9.851566516647825011e-01,2.085198305212487835e+00,4.124904453913402769e+00
-3.182558563804250840e-01,7.720371525487418340e-01,1.671014587712855048e+00
8.840211502411413069e-02,-1.173317231224798168e-01,-3.162171063904116730e-01
2.256439418952975173e-01,-3.868163984705343950e-01,-7.741142282720430146e-01
-9.578693861246969643e-01,1.743133960458825404e+00,3.443279458611820054e+00
-6.397674460563997911e-01,8.771587694665280432e-01,1.441047111901014866e+00
7.723636375629425732e-01,-1.414904512762572342e+00,-2.830210197013758755e+00
-8.423887243789559554e-01,1.313190401630295989e+00,2.682244201859310007e+00
-4.594650455276544365e-01,6.838104602418879630e-01,1.449969273860670427e+00
-6.019618530087379737e-02,-1.150994545908027855e-01,-1.495565763903662915e-01
3.489940711088413416e-01,-4.653724385393817053e-01,-7.447436106677560730e-01
-1.223079275538841770e+00,1.880133933189403583e+00,3.784345548633144318e+00
2.177435164701298775e-01,-1.383008540140918674e-01,-1.481701314679630954e-01
1.027228384004590378e+00,-1.717069255349138901e+00,-3.671247650062722911e+00
-1.682596604986318772e-02,7.702287308639829688e-02,-5.128356896174198765e-01
1.154183019963845647e+00,-2.017557913256597502e+00,-4.157833116901270998e+00
1.147911044964881944e+00,-2.056570493638492536e+00,-4.016233952009578445e+00
4.515932285728913587e-01,-9.729532708104271510e-01,-2.254341132127258174e+00
8.004999944244960419e-01,-8.035396285145772755e-01,-1.621038873646903689e+00
2.046232546953968279e-01,1.181654360907041512e-01,3.084320220295340143e-01
3.103672567362597001e-01,-2.545690378901861450e-01,-9.825443318101033663e-01
-7.210177047302670506e-01,1.428805856660444462e+00,2.926123744734872023e+00
-3.876744703282072324e-01,5.827220799458918687e-01,8.906199198967059694e-01
-7.680864210167437367e-01,1.047972007424919028e+00,2.319073003777012421e+00
-1.021416264069145319e+00,1.886229272358593168e+00,3.800381048481231705e+00
-5.074796859165329188e-01,6.549631578770868101e-01,1.734882841256924380e+00
6.361493022362606220e-02,7.693688985617236353e-02,1.375288399256589522e-01
-2.353974912430020772e-01,7.205904942429010307e-02,2.272060470601187099e-01
3.186642278594238320e-01,-2.596802068383283757e-01,-9.615400951980727084e-01
1.340570911675985855e+00,-2.240572136634125577e+00,-4.161809350267546392e+00
3.720577555970456252e-01,-7.287902563835294556e-01,-1.444229374891169648e+00
8.986646060991766438e-01,-1.477661089000986250e+00,-3.286711661081903824e+00
5.314620704025487807e-01,-1.412696365705529367e+00,-2.736748016192484201e+00
2.648572958343287792e-02,-3.817252077084800493e-03,1.937879563507233782e-01
-3.316043663901940136e-02,1.105519973620405633e-01,9.102106603372828175e-02
8.620433315149940157e-01,-1.115464967714393074e+00,-2.400480673236371931e+00
-7.991418464532522581e-01,1.512070721358577785e+00,2.833102011388219488e+00
9.834441995776519452e-01,-1.524591078346846151e+00,-3.079078481065232076e+00
-2.118636415925428673e-01,4.446725399524305011e-01,9.364613169366179379e-01
-8.949737003923263767e-01,1.443663391747657343e+00,2.937114285621973409e+00
8.185960214329845996e-01,-1.168213764734541193e+00,-2.840769768521025362e+00
-6.701474344053758303e-01,1.329530928644173216e+00,2.592514139000070994e+00
6.482680381258767444e-01,-1.043917085585504223e+00,-2.149551770628727709e+00
1.025195023777683456e+00,-1.581074863024492183e+00,-3.780603704040597091e+00
-4.823610331418620029e-02,-1.120842525233518017e-01,-1.851984025207704943e-01
4.098185492586030321e-02,3.247891630595309276e-01,5.495219745591938265e-01
1.311898321158219805e+00,-2.076202140690897924e+00,-4.164562366381042935e+00
1.398589840420313979e-01,-2.410174431579947540e-01,-4.922735611487530361e-01
-8.469655347402981205e-01,1.352883920771990045e+00,2.959683640610523359e+00
4.233858462825385582e-01,-8.792805815708438777e-01,-1.763806208715309687e+00
-1.101483734482006316e+00,1.776228510287223283e+00,3.337026817637453124e+00
9.102436278859394880e-01,-1.572055883265931708e+00,-3.197401779985397763e+00
-8.773766793596277092e-01,1.450732245306417978e+00,3.383750272724618036e+00
4.512695021721162547e-01,-7.795782710758173417e-01,-1.443649050730579475e+00
-7.866667649684313535e-01,1.573212323404714397e+00,3.142575641571097922e+00
9.576172391995310118e-01,-1.349116463844338254e+00,-3.165776354736454579e+00
1.158586340535076253e+00,-1.745072925262301844e+00,-3.914175835887653498e+00
3.126738869896715511e-02,-1.927012799477984262e-01,-3.571609556828512222e-01
-1.347058126790842865e-02,-4.205670155631014914e-03,1.319840340694954373e-01
-2.739566177987161621e-01,3.246165671874524095e-01,6.199832146672801247e-01
-5.101306117269086560e-01,7.049920737010129113e-01,1.626182284214907403e+00
-6.148822232934620935e-01,1.247636970655290112e+00,2.574801415831259099e+00
9.228935298002647336e-01,-1.626257049402413557e+00,-3.389099767294990517e+00
-4.984046595971901028e-01,1.274442251256009850e+00,2.673957811724278155e+00
1.067243970182049306e+00,-1.893899237998657448e+00,-3.861152429903540462e+00
4.088346972858916684e-01,-7.474006034531792686e-01,-1.267879636118614650e+00
2.207346588459242753e-01,-3.658969334364955972e-01,-9.463382656553726013e-01
2.755504512277793805e-01,-2.448928820117535488e-01,-4.873775074469818280e-01
8.415919438627202931e-01,-1.552263953423917986e+00,-2.976876073990514904e+00
-1.274604271847964654e+00,1.803253300872177611e+00,3.825386357593016484e+00
2.374760614888554444e-01,-4.346912636044106271e-01,-7.905011709212379500e-01
1.048791086615105950e-01,-7.436540502849203760e-02,-3.437404138991665414e-01
-3.673691815297069896e-01,4.509449293616401011e-01,7.462547216020906093e-01
9.500325284879427290e-01,-1.785731152102249863e+00,-3.660253305344444819e+00
-9.315088172345989959e-01,1.799779404526397064e+00,3.370934183031112141e+00
2.066278120474538682e-01,-2.741439280810480938e-01,-3.565663097835614637e-01
1.070397206677603297e+00,-1.799761896551962392e+00,-3.567894480269940161e+00
-6.903151920165419009e-01,1.241079456749772714e+00,2.548504477247677258e+00
-7.286458103320422319e-01,1.253408591090517055e+00,2.428872111431658709e+00
-4.046776964416428091e-01,1.131810973616820037e+00,2.143223049749253928e+00
6.449752903158126882e-01,-1.152063329561563210e+00,-2.638515100830753024e+00
2.011300136825374951e-01,-8.192903404510089305e-02,1.964338699761223606e-01
-7.127244396146364958e-01,1.505285630479217485e+00,3.134015393602039623e+00
-3.789462013613635882e-01,5.034230659553887710e-01,9.436720031349290494e-01
-1.028225261644486188e-01,1.329218305052646265e-01,4.072237341229882901e-01
-1.039104811519163896e+00,1.678599934901956914e+00,3.098396381040873226e+00
-1.290357550958485533e-01,7.384617080508615317e-02,1.830514241546067067e-01
-1.591504953809781339e-02,-3.034641914077600422e-01,-4.798657456054876702e-01
6.781034656026204699e-01,-1.398388616799314699e+00,-2.935246501858228996e+00
4.867623057264786612e-01,-1.095838312822012162e+00,-1.919478099490563361e+00
-5.861954166349150341e-01,7.888426280274362101e-01,1.618556064442977727e+00
8.562652924911168251e-01,-1.392249211202858605e+00,-2.692498837315838944e+00
1.008151118669557422e-01,-3.456398504282663219e-03,-1.494416527210638002e-01
-9.683049558376197741e-01,1.605931709430867604e+00,3.071748595880207766e+00
-8.903550899299400578e-01,1.520522292091282646e+00,3.050046629170548584e+00
-7.061788912831240550e-01,1.407218694859597496e+00,2.453629642146857304e+00
-9.732888091064165748e-01,1.783365226217714650e+00,3.454913243864247807e+00
-1.013479461732520237e+00,1.932113051863610487e+00,3.796760512493751794e+00
9.682268177535426901e-01,-1.518574268258568338e+00,-3.226703831080175000e+00
-7.342836879267901073e-01,1.360401681795176065e+00,2.395414104332138194e+00
1.339087861386818457e-01,-5.412833786970907418e-02,-2.202990267771962607e-01
-8.812593064763132311e-01,1.201069876023048044e+00,2.527252359770540302e+00
-4.427248102912965111e-01,9.919706235155677509e-01,2.028393289640914254e+00
-4.990520903177834144e-01,1.176341008676235811e+00,2.286871232884657879e+00
7.848827909493767407e-01,-1.165137184951803739e+00,-2.147207028917659244e+00
-9.659831702528833830e-01,1.721910352175336500e+00,3.581387466742066206e+00
5.135052705838728526e-01,-1.024953905654689246e+00,-2.118730828875843741e+00
-1.008927314004461895e+00,1.914632070810694975e+00,3.828051142586606836e+00
3.556819650805497224e-01,-9.072916018889771728e-01,-1.992872181174939472e+00
-7.707894458898356671e-01,1.400397479797701905e+00,2.459831747601628926e+00
1.609087061035232025e-01,-7.714180985247459654e-01,-1.444226482711411741e+00
3.874580493394894076e-02,-4.507209021248486519e-02,-4.295925826464034869e-01
8.302157645111925000e-01,-1.279437268309820075e+00,-2.682745017930273868e+00
9.011167687284917793e-01,-1.693132373360970000e+00,-3.164409982142500244e+00
4.974759325314542235e-01,-8.054456215088129367e-01,-1.507281003002720610e+00
2.963794346719880735e-01,-6.369076672278968232e-01,-1.092317271260680123e+00
1.083634162176993376e+00,-1.937928294582672128e+00,-3.815133945698403473e+00
8.106022775316863438e-01,-1.268756454679234258e+00,-2.404190680236771627e+00
2.404575406210281985e-01,-5.251576223824901968e-01,-9.671428180352947823e-01
-3.001302319849596945e-01,4.031040203679979728e-01,9.479928900891496646e-01
2.729164938310401634e-01,-2.300932109513644241e-01,-2.919183912248735080e-01
4.503965761727241612e-01,-8.473270007514092095e-01,-1.633809404696663359e+00
-5.280244507733983239e-01,7.429185432455736038e-01,1.577854157336528784e+00
-1.946758117399736698e-01,6.301268985708771142e-01,1.322801380534232019e+00
-6.752516029143481591e-01,1.540469957537623502e+00,2.897175736946321578e+00
4.856202135948711196e-01,-9.234979574258090906e-01,-1.960116896906500816e+00
-4.355347950849218774e-01,8.077016232583785760e-01,1.585370318007951473e+00
1.907294839678075060e-01,-5.309645743304111098e-01,-8.601146665757245513e-01
1.494403260978157399e-01,-1.364258398482970647e-01,-3.423294248381183458e-01
1.052825450349689218e+00,-1.643409614297308696e+00,-3.635140219858557842e+00
1.572390493276004664e-01,-2.024268072446847588e-01,-1.919002648806555078e-01
2.811180173366351620e-01,-5.263508251050809106e-01,-8.657110875759950197e-01
-7.908380571144842941e-01,1.602800338902954369e+00,3.113799490439741025e+00
8.573917097719068181e-01,-1.666893248606114319e+00,-3.048788282512760794e+00
-6.728428363564981085e-01,1.308601383586794675e+00,2.363002045862214295e+00
1.192850992765788209e+00,-1.746769643960018215e+00,-3.530465409219524897e+00
-1.189159667326360692e+00,1.816264964941523452e+00,3.740190787967431874e+00
5.185918128559099394e-01,-9.246824148498632434e-01,-1.647000958802327775e+00
-5.215458345142981456e-01,1.203644899197154894e+00,2.062340840617651327e+00
-7.460602198083816639e-01,1.473383511298192561e+00,2.897072802224089916e+00
5.828551612613791510e-01,-1.101213752055478556e+00,-2.380455080899970710e+00
-9.050932643264351096e-01,1.598020703654575714e+00,3.263808864085863792e+00
-3.543250844601086164e-02,-1.318954955809522323e-01,-3.703148503067298924e-01
4.651374722297865749e-01,-4.731225894690169187e-01,-1.170074908726427498e+00
8.854610886363765143e-01,-1.503310155034418116e+00,-3.230829065627799590e+00
-9.087490587989979218e-01,1.820774098729143420e+00,3.773274452788812017e+00
-9.649068525412973774e-01,1.614549812980811128e+00,3.563189863834110405e+00
-5.184596269608477970e-01,1.023362432855376536e+00,1.805536106304917121e+00
-1.505662107785120385e-01,3.183868004538081831e-01,6.339255369268663731e-01
3.648286238605801257e-01,-6.764482574221513111e-01,-1.094570246236745481e+00
2.608199841879234593e-01,-4.713420777859975153e-01,-7.215596682096687697e-01
1.010731277696123698e+00,-1.478824765296661070e+00,-3.245568691392702654e+00
-1.269600490152952954e+00,2.021735410758835894e+00,4.188813775500803693e+00
-4.692696219802507812e-02,-6.631834821248185075e-02,-2.850180857440056670e-01
-5.189667924939157517e-01,1.159573682659766236e+00,1.955846217566593159e+00
-1.056253999124510345e+00,1.935324190491895413e+00,3.984725524584376455e+00
1.283644399769533484e+00,-2.147691378463301604e+00,-4.087846172514455922e+00
3.611518223704533459e-01,-7.337362848170281282e-01,-1.742569842950117964e+00
2.597415275081752517e-01,-6.723390974931383601e-01,-1.223278109343745479e+00
-1.482843325535782020e-01,6.527338287510989767e-01,1.034733071069800392e+00
-4.618869619495714618e-01,9.342249230962290651e-01,1.402774112670039042e+00
1.040422114509889973e+00,-1.888544525294594267e+00,-3.947932472139782600e+00
3.826754959139725965e-01,-9.154544861042694937e-01,-1.721266096237732857e+00
5.880195112796036128e-01,-9.538590101128535670e-01,-1.900372258022482441e+00
-1.172284952992980633e+00,1.918918763671626726e+00,3.706756084060065071e+00
-6.112932614174544366e-01,7.966312840335925127e-01,1.748715938310833051e+00
7.946936565045507050e-01,-1.400322007671414237e+00,-2.755619176294982431e+00
6.801797003133315256e-01,-9.251794402004634987e-01,-2.109670976325569214e+00
-3.266939511359945314e-01,7.106213822417644099e-01,1.057285466452152489e+00
6.790944854757602345e-01,-1.026461400664599344e+00,-1.852398703647348377e+00
-2.424079928879810386e-02,-1.278283588319882313e-01,-2.224836280765236929e-01
-3.245601416340136991e-01,1.311317346205032319e-01,5.649486156685566973e-01
-4.758511199439832140e-01,7.857616671018756715e-01,1.532221149242733338e+00
6.132474138835563027e-01,-1.071820499948031413e+00,-1.911337851254657494e+00
-1.027240776929995825e+00,1.849336408761129036e+00,3.828920859198820636e+00
5.235421753260127709e-01,-5.898526680894387031e-01,-1.482574768478613914e+00
-8.488971369761333374e-02,3.111923544740441971e-01,4.749353970477049325e-01
-1.255378543837992966e+00,2.018786954586756277e+00,3.819310611118410748e+00
-4.241348781035758075e-01,4.403075196008892078e-01,1.075502310885100066e+00
-1.153897519399241789e+00,2.106576605794876489e+00,4.158859463269070744e+00
1.024668786444054014e+00,-1.965095785088271541e+00,-3.766268926661894056e+00
-9.767267150032776790e-01,1.862248328087079852e+00,3.904334871564159037e+00
-3.405125302662549980e-01,2.987129390665406725e-01,7.797475896543218932e-01
1.066325937704438509e+00,-1.787399244174785462e+00,-3.569799525516364813e+00
7.644743687744055549e-01,-1.320507832331202502e+00,-2.793723341534573024e+00
2.555228622893093160e-01,-7.032095768260013813e-01,-1.212347064261737550e+00
1.164822656758935260e+00,-1.794162196864897529e+00,-3.964102086680872272e+00
5.867053623978936427e-02,6.034235907048746822e-02,3.845515070494709975e-01
-1.082700623892452141e+00,1.748101249484340425e+00,3.430617579716659371e+00
1.746900223068940938e-01,-3.169035345633823830e-01,-3.244324320340373768e-01
2.732684373301882408e-01,-4.638291100828796920e-01,-8.293510581357053102e-01
-8.471403454387110843e-01,1.964133455429425190e+00,3.572765406012598177e+00
-3.612178463895150404e-01,5.212318926153483023e-01,1.039759540409396665e+00
3.735856034110799917e-01,-7.227306593542072166e-01,-1.450019893788556224e+00
7.099658985122093702e-01,-8.470009803264112458e-01,-1.853871424847268301e+00
-7.599027908147517607e-01,1.197801634411685301e+00,2.516265604422876834e+00
-6.618667352800956527e-01,9.893225361523224626e-01,2.179350975706884075e+00
-1.133712958106227742e+00,1.995189033867135642e+00,4.043320201804336378e+00
8.047487671075110871e-01,-1.435928892523563150e+00,-2.559265922412349070e+00
6.381383449665005703e-01,-9.804704019679582050e-01,-2.035792322354044614e+00
1.205265950982717715e+00,-1.864263608911336023e+00,-3.952806581231500527e+00
-1.552010069888133392e-01,1.969737123930570544e-01,4.186730075680709651e-01
1.058843482157346694e+00,-1.874702916092829685e+00,-3.646972068528285593e+00
-3.949910314517832699e-01,4.308314999184997274e-01,9.335817906999449578e-01
-8.717291526571795401e-01,1.553464233224488567e+00,3.196785360894785377e+00
1.168146218883693715e-01,-1.460141202380624559e-01,-4.655812388194587315e-01
3.610936553083795575e-01,-6.905395939458666144e-01,-1.129669904225385935e+00
-4.089422304974262290e-01,7.817530959935310442e-01,1.587891017564084573e+00
4.638400151364762553e-02,-1.237476296877107196e-01,-2.400263399538467290e-01
-1.269192313093138624e+00,2.068331058416535750e+00,3.962248326412248556e+00
1.698959044698315213e-01,-6.843902605691493113e-01,-1.044359879085662302e+00
1.009384517982055307e+00,-1.658926084432520875e+00,-3.416861097722877716e+00
4.457305570562538483e-02,2.542937431227008938e-02,-5.368479628881700494e-02
6.035091407644146422e-01,-9.648769947105529932e-01,-2.248379428542589764e+00
-1.713371467324992237e-01,6.138645072412544090e-01,1.229559186028524431e+00
-9.461938568392276316e-01,1.938880170052473151e+00,3.987643081309186321e+00
-1.263996853303205603e-01,5.910560070781111230e-01,1.296191167222928708e+00
-3.279557982429964769e-01,3.886563533379168156e-01,7.185251543726591805e-01
-4.659447362692017980e-01,1.046578117073150738e+00,1.946357284562514778e+00
-9.496079410199033122e-01,1.613195636855706550e+00,3.443376339129308406e+00
-9.204165794288875491e-01,1.745848927320269306e+00,3.726700420399086333e+00
-3.504837816094316105e-01,1.834044402996494461e-01,5.337918409623518823e-01
1.376041655215493320e-01,-4.989709877280902317e-01,-7.254897532034799701e-01
-1.152944833035241867e+00,2.091749566767703516e+00,3.782539602942526891e+00
1.174095653188866328e-01,-3.475968835347759689e-01,-4.206926552841531719e-01
4.484341062505054487e-01,-6.554157640502886739e-01,-1.269832852006449020e+00
