-1.385087250796641856e+00,1.218162136622598757e+00,7.138992120385404538e-01
-5.642091404253276599e-01,3.910393215510008513e-01,2.616561559100292755e-01
-1.406003865278037557e+00,1.370047744827452618e+00,6.759573715187300325e-01
1.977632983608065720e+00,-1.741932261245401126e+00,-7.886145346561922453e-01
2.382851049416854217e+00,-2.293339660117790668e+00,-1.148823845995243342e+00
6.977132828578080925e-01,-8.131254971537221765e-01,-3.281489675603453393e-01
-3.192091936361805882e+00,2.773302582335633648e+00,1.363715893167460891e+00
1.931561495140313722e+00,-1.653787315262122970e+00,-9.434865872369995188e-01
-5.769084794161816188e-01,7.420499576970025490e-01,3.662424703047168495e-01
-1.292458560474055718e+00,1.057686565089710484e+00,5.247353513765102839e-01
-2.586582323338567413e+00,2.289256193638527836e+00,9.820631023347179411e-01
1.378592689077293432e-01,-3.053488532992003068e-01,-5.836018598869673057e-02
2.311625809221398153e+00,-2.194724197317776682e+00,-1.131921108526287245e+00
1.135002989105354382e-01,-8.173908888507293302e-02,-4.048959412763890320e-02
2.503212313510720932e-01,-1.267886736202141207e-01,-1.708307071312057113e-01
-3.983460534409015152e-01,2.512443774890558701e-01,3.449571979109561370e-01
2.001929092804411336e+00,-1.793110604680953069e+00,-7.823880609735056613e-01
2.482824635723967610e+00,-2.117417446873930409e+00,-1.126685612138053294e+00
-2.681650509769144097e+00,2.495837478869534110e+00,1.291262670550388902e+00
6.527163834840258305e-01,-7.375954494036415232e-01,-5.397324507795874249e-01
2.387706442711434285e+00,-2.262232993488362709e+00,-1.031609807943313806e+00
3.844416401973420605e-01,-2.383192189702073582e-01,-1.441271586241663349e-01
8.727941064019565376e-01,-8.879289995224104448e-01,-4.611672662481114404e-01
2.881123005826125016e+00,-2.586749949715603680e+00,-1.230755133127308332e+00
1.018204722805398976e+00,-9.313198013249729401e-01,-5.431413981032596761e-01
7.348884330851697122e-01,-7.329910768188864223e-01,-3.973297036457700826e-01
1.000436568151313432e+00,-8.974516760285573547e-01,-4.630095428136063451e-01
-1.111687052752727611e+00,1.109521951527794981e+00,4.876998206356037424e-01
-2.242614521973949060e+00,1.908793348768031528e+00,9.161466113057064042e-01
5.058449016828786560e-01,-5.003154395990925263e-01,-8.569207709054343924e-02
1.352331241929039640e+00,-1.301642437767182692e+00,-6.015346766385391009e-01
-2.684986961633344826e+00,2.606930338996078067e+00,1.235624360930875021e+00
1.475135923973466490e+00,-1.484815763420965107e+00,-5.780563081142210402e-01
-2.125860928939122374e+00,1.990067683201533377e+00,7.538583384044876823e-01
-7.446650376520275172e-02,-1.823013160076437378e-01,-2.580889821583149443e-03
-1.888731747805194594e+00,1.959314105899552905e+00,7.567753303693004474e-01
-2.742850751552273092e+00,2.324211754271420460e+00,1.085759809597747427e+00
9.019267610312043937e-01,-8.603912622797306176e-01,-4.701528334958090527e-01
-7.680653520930791345e-01,7.221614851707588434e-01,3.520322766719105045e-01
2.705174515496117316e+00,-2.334721963218260754e+00,-1.256485852365516243e+00
-2.497234515088156304e+00,2.402524342835900217e+00,1.017085998853296536e+00
-7.370875196412861596e-01,5.055564122193555443e-01,1.914948062841496934e-01
1.311791893346505367e+00,-1.109526993819939689e+00,-5.762961629712630707e-01
3.077516985320376985e+00,-2.792546967061367624e+00,-1.467198877029414206e+00
-1.244944025324926651e+00,1.228409754476489368e+00,4.699169682486992738e-01
2.588079928390456974e+00,-2.175433788412550307e+00,-1.131309456851610662e+00
-2.462094585577715655e+00,2.338255652740993451e+00,1.006169175288091022e+00
-2.428408739246893155e+00,2.310767190309682473e+00,1.126802994688390402e+00
1.411583604660401892e-01,-4.878791761723957204e-02,8.027380010957888001e-02
2.913371174851508982e+00,-2.789642814115412595e+00,-1.235051021879253641e+00
-1.744308900156517295e+00,1.690847393531974996e+00,8.242866494244925901e-01
-1.571493957294228361e+00,1.345507254307858336e+00,6.150512754257536630e-01
-1.277173641288475103e+00,1.194980332714276727e+00,3.793597999411814081e-01
-2.795754846029093521e+00,2.707735116454829338e+00,1.283614993014140726e+00
6.224447025499767472e-01,-6.677329140284933295e-01,-4.650251757370067462e-01
9.223735165932802627e-01,-7.856558616174291743e-01,-3.949831534651518372e-01
-1.285835511513887086e+00,1.176577349667185635e+00,5.445614766545926466e-01
-2.172684450178729687e+00,2.088792388246628384e+00,1.100703022266642961e+00
1.315404628397329967e+00,-1.009716281944646132e+00,-5.366413520766997181e-01
-1.084003504069444845e-01,1.443178651742171303e-01,2.434760067153216370e-02
-2.340895730894199112e-01,3.947049457986395171e-01,1.754847693602540615e-01
2.571449793438449927e+00,-2.384818584879778491e+00,-1.274133529458302938e+00
-1.109649952795014771e+00,9.751143176617247388e-01,4.512871565682531894e-01
-1.772983873355178819e+00,1.875927848041473611e+00,9.041310462325524711e-01
-2.727552085104356205e+00,2.416003443720159627e+00,1.084569489626059369e+00
1.104349024834145807e-02,-1.875936164174592524e-01,-4.177237748300675901e-02
-1.251002518096125282e+00,1.071981545181491802e+00,3.392373828651749634e-01
6.171202714710197768e-01,-6.419262934540089782e-01,-2.653209358140333762e-01
-1.131123534099251593e+00,1.123595219145644197e+00,3.432474115615595234e-01
-2.711868394895682766e+00,2.661520267776621207e+00,1.197295571836980654e+00
-2.531049084551792117e+00,2.243918775634096363e+00,1.022503956008522730e+00
-1.714424061368621244e+00,1.660305538376539269e+00,5.630697179560834043e-01
-1.286311983187984342e+00,1.059494031594055308e+00,7.630333408840432874e-01
-2.888937561539125731e+00,2.423959523213176759e+00,1.105205490242274324e+00
-1.787621442780560566e+00,1.624015012440824135e+00,8.976405827112358127e-01
1.136349843139472515e+00,-8.557210063800910760e-01,-4.593713655928587380e-01
1.561684740001934690e+00,-1.719181928593663367e+00,-8.433447895537958816e-01
1.628381499218881867e+00,-1.355346017951731374e+00,-6.256451140526576582e-01
1.752608400861503490e+00,-1.731369104982211082e+00,-6.810569114618025832e-01
-1.404435548537807055e+00,1.384943012682603669e+00,7.086395618929658413e-01
1.232514825092593691e+00,-1.138797438921723026e+00,-5.797296252727818233e-01
-2.314054877553310074e+00,2.085726260959553713e+00,1.115879201286019029e+00
-6.654269786802187170e-01,6.508769190392398318e-01,3.616450555098202901e-01
2.302206148305122380e+00,-2.107607114082229227e+00,-9.869213999078857436e-01
1.396778989634645196e+00,-1.288963856627957538e+00,-5.686962358952789565e-01
-1.435222031169135937e+00,1.226606170006553365e+00,6.040652335882517043e-01
1.597339361703962624e+00,-1.519045934090605288e+00,-6.455402546410420328e-01
1.002310187641453298e+00,-7.414914840244313243e-01,-3.926096312236482255e-01
6.017381226163157626e-01,-5.750633221166221443e-01,-2.069367627534757226e-01
-1.130657551629340868e-01,4.897360921362833158e-02,3.466771577479269006e-02
-1.772548670697865481e+00,1.474129816708055429e+00,7.625445247494873069e-01
-2.180194760598626491e+00,2.003364302950958020e+00,9.430194493763141006e-01
-3.864229210241701407e-01,5.830566063667773635e-01,2.370087565928658546e-01
-3.141707401253636789e+00,2.750674576387636350e+00,1.431717594884383438e+00
-2.541930396747218435e+00,2.523559898267710100e+00,1.182486671051586447e+00
2.988034334497822631e+00,-2.739610062274680846e+00,-1.306018513512711143e+00
1.209337796541396726e+00,-1.021533236084674723e+00,-5.517792645171544219e-01
-2.306249283673715400e+00,2.347482809867434739e+00,8.631310241166654240e-01
-2.674053772671029172e+00,2.499199373412415603e+00,1.084245392830187171e+00
-1.833572809112625546e+00,1.679763660847793716e+00,7.211015804376967875e-01
-1.722084070647428300e+00,1.564076246957680771e+00,7.924196342059107723e-01
-5.104126284410591685e-01,2.805099168464660342e-01,6.667760294296426471e-02
-2.095961087201775097e+00,2.054909873363460093e+00,1.070155788066351477e+00
1.209628440584047837e+00,-1.011416483660658949e+00,-4.741195429465404065e-01
-2.303194922305348058e+00,2.155463148184665112e+00,9.610649308131277158e-01
-2.089743974491895084e+00,1.989528805810126588e+00,8.807729252154553601e-01
-3.401725135196379535e-01,3.381478902562660704e-01,2.057569136562820422e-01
-2.828995718788448244e+00,2.714052165169989372e+00,1.275184942609229211e+00
9.851614885663567689e-01,-7.327264403496146494e-01,-4.403807921478470333e-01
-1.543026289359967329e+00,1.380439759987692305e+00,7.629755830717402931e-01
-1.158430424867038511e+00,1.230883866122081560e+00,5.192022994965604932e-01
-1.314164408951486562e+00,1.214091420132541899e+00,6.889805973954989948e-01
1.264030977499220443e+00,-1.166786229519792828e+00,-4.530429781389569976e-01
3.179284837937584651e+00,-2.928843634692402720e+00,-1.318836849805536726e+00
-1.640489499352385749e+00,1.729660574163360609e+00,1.001251020081940224e+00
-1.952093739438259812e+00,1.740150798528852683e+00,7.424322944004357883e-01
2.019162331262996268e+00,-1.943966966333520174e+00,-9.600190270957847938e-01
-3.080922463768121844e+00,2.949661140644760149e+00,1.443811105461949795e+00
1.187234586144255921e+00,-1.196330915026716513e+00,-6.791996998758107473e-01
-2.137898340455413937e+00,1.950755857861749876e+00,1.044960374838381556e+00
1.636704005315822830e+00,-1.434872690869495315e+00,-6.961202776809103376e-01
2.316635736859165462e+00,-2.202572777583742702e+00,-1.022856674851555070e+00
2.300372876541233680e+00,-2.423954248010929291e+00,-1.126372752879934991e+00
-2.569339026870815168e+00,2.400745657624995033e+00,1.051117266737599198e+00
-1.057623827572034929e-02,-1.483205383069830310e-02,-1.021347782079570776e-01
1.416845531198610342e+00,-1.306883875212113466e+00,-6.054646207332439189e-01
1.496014385314464512e+00,-1.282491071425768459e+00,-6.071077699880103040e-01
1.549371489273901059e-01,-1.360672001164127676e-01,-5.184815753848315278e-02
-2.984275723834811433e+00,2.737957340774232140e+00,1.266147757820607511e+00
3.111051250876368246e-01,-2.721119264761551193e-01,-3.892618023802113091e-03
2.074876535238785180e-01,-1.788455194911252877e-01,-2.074988282988987354e-01
-2.691375639685558152e+00,2.256402130144873119e+00,1.181371864851490372e+00
-4.946975577183961303e-01,4.549600900326379871e-01,2.046178636417753938e-01
-3.120484532894141072e+00,2.617451185550492720e+00,1.260999260372548614e+00
9.341308791211455631e-02,-2.062992735408323564e-01,-4.209705325831095829e-02
2.585815486595386958e-01,-1.942798025334960266e-01,-1.410861636901552738e-02
2.715682936190191299e+00,-2.512241742649375276e+00,-1.237666407838521332e+00
-1.082457387902598045e+00,1.080061992703816642e+00,5.132098150145042448e-01
1.282624833482276738e+00,-1.021780997184064788e+00,-4.389582247522544334e-01
-2.259363301925966017e+00,2.179705754770010273e+00,1.089292571172145063e+00
2.191704968662836261e+00,-2.064789288480060936e+00,-1.076209635785356111e+00
-2.271372615389527283e+00,2.097720917342614122e+00,1.074807608274944926e+00
2.045737505787001531e+00,-1.918230886717509742e+00,-1.025970420964778640e+00
-1.871602101599475487e+00,1.719391912102378184e+00,8.166151472126077504e-01
-1.044390136638417843e+00,8.238824436072774704e-01,4.141890329906603441e-01
-1.800869740212809544e+00,1.625051290364611267e+00,9.773286399671615721e-01
2.208862628849352028e+00,-2.135528323861211053e+00,-1.089604913444314871e+00
-2.105652597457448483e+00,1.956380134203464793e+00,9.439458894280877699e-01
2.353649158040123535e+00,-2.224850186930026119e+00,-1.096705961571550869e+00
-2.426167604561651370e+00,2.076564465938809612e+00,1.015115417355630267e+00
1.645552062291182116e+00,-1.500852126188853886e+00,-8.513372771514047255e-01
-1.362876827348096453e+00,1.222118471827589037e+00,5.801883221177668304e-01
-2.171918854463481097e+00,2.354486198715466827e+00,8.698257993021907275e-01
2.982978576532928194e+00,-2.656786796646404714e+00,-1.362307024383392573e+00
-2.789964051602653150e+00,2.640906657487000153e+00,1.244359492890141805e+00
1.533292181445990776e+00,-1.295929757463051502e+00,-6.932420993767146600e-01
-2.049238618629981801e+00,1.962017640442476951e+00,1.026800322952947875e+00
1.978953844644943671e-01,-4.801060914022463599e-01,-2.816291075479123718e-01
-2.013602969628949801e-01,2.437492321579035615e-01,1.840532654392628698e-01
-5.854284277209089726e-01,4.244787262265840577e-01,3.629673526101218628e-01
-1.038144466906850139e-01,3.649642089302136960e-01,7.523795114737785727e-02
-8.348125439129225889e-01,6.704371896195366887e-01,2.911499310822467934e-01
2.545392296964049894e+00,-2.453706916940145977e+00,-1.263778175693220263e+00
5.461362994945991867e-01,-4.128741034156572232e-01,-3.283502150517749602e-02
3.004311914881379053e+00,-2.731065080658888533e+00,-1.189114058255741790e+00
-5.573133627682854696e-01,3.474827371268999765e-01,2.081284210827143710e-01
2.495250869071261590e+00,-2.453293794725358357e+00,-9.330436771765752146e-01
-1.335013282417412572e+00,1.238047070933578242e+00,4.517539545696414582e-01
-1.129258168285100394e+00,9.905592982824912296e-01,4.295832669003069593e-01
-1.174795974654791353e+00,1.076282175804374797e+00,5.538101501358722034e-01
2.429568343385009932e+00,-1.993125731013552393e+00,-9.758141362408210284e-01
1.154907889258462994e+00,-7.743941374500321606e-01,-5.723410277577700711e-01
1.136889343303433719e+00,-1.073034900592653607e+00,-4.460569319041814973e-01
1.169672980903423198e+00,-1.131673315630180587e+00,-6.201315170514123398e-01
1.008479817319772875e+00,-1.250646389949363391e+00,-4.936467846175092156e-01
-2.676939732330657407e+00,2.567351827862766278e+00,1.139960190095763881e+00
1.946562164105360315e+00,-1.842897591604254703e+00,-8.821886653871835460e-01
2.446280765317601080e+00,-2.388205009973995985e+00,-1.002225282418234498e+00
5.087639171227776452e-02,-1.801852298054684165e-01,1.125372205242933521e-01
3.015594245274798357e+00,-2.805065055237538907e+00,-1.200214607443849113e+00
2.754215121062657534e+00,-2.556544017711005701e+00,-1.268198522620840540e+00
-2.299641152420230483e+00,2.088921967995172491e+00,9.966687653392208857e-01
-1.513353072214855821e+00,1.481121918749030764e+00,5.727708449082516973e-01
-2.247393073331150237e+00,2.033423235772927384e+00,9.782943855034159641e-01
1.328900067716324518e+00,-1.394651405956579326e+00,-6.993927635638322871e-01
-1.897567548797262083e+00,1.740401230811065902e+00,8.115037133963168836e-01
2.706973821373093170e-01,-3.247723635563573574e-01,-1.729248791824806730e-01
1.599099133838835174e+00,-1.365246066830071214e+00,-6.479640385472843489e-01
2.241095526972556762e+00,-2.026243185725418172e+00,-1.093274160695218100e+00
2.016141532657718116e+00,-1.759851464391636089e+00,-8.499676446080012271e-01
2.189171708557177798e+00,-1.930478470393431900e+00,-9.829358439589036545e-01
1.368470755146541595e+00,-1.273140632119592164e+00,-6.086958360099906651e-01
2.330508559954483250e+00,-2.133465494939803087e+00,-1.165796645450887015e+00
2.408003821559241420e+00,-1.859591656737488830e+00,-9.659423027381908167e-01
-2.845346004465735934e+00,2.513754707633727214e+00,1.204085919221066447e+00
-4.853041205120380841e-01,6.318990752753086415e-01,2.710328549881020899e-01
-3.119952321393113071e+00,2.816935998775470296e+00,1.359374387494675540e+00
-1.761683087573366224e+00,1.608183674469239710e+00,7.160547789053656187e-01
-2.536406479768256172e+00,2.427938678912832771e+00,1.184227770908083732e+00
5.270510622874928774e-01,-6.255900937645479942e-01,-2.530483069899323589e-01
-1.550954738784245279e+00,1.314671538786720273e+00,7.248249752165504267e-01
4.300430859780842718e-01,-5.643408598225257977e-01,-2.253160311840895214e-01
2.007134400967045096e+00,-1.724819771627896570e+00,-8.337673063535776530e-01
-1.438482763297778577e+00,1.333190981508418416e+00,4.349625190126069074e-01
1.603144522900124658e+00,-1.710698837584130327e+00,-6.242207925592382356e-01
1.029728415436750311e+00,-1.143441311361291790e+00,-5.292155794164543625e-01
1.341502341740360649e+00,-1.319777358729331773e+00,-6.377794915607638560e-01
5.113105645192739246e-01,-3.403325951206844224e-01,-1.117389670044859340e-01
1.445927274521275452e+00,-1.334610481201834009e+00,-7.777463314675620021e-01
1.670551497117669149e+00,-1.486743126139983273e+00,-7.422100922621294172e-01
-1.381593667977325524e+00,1.426063963471883023e+00,5.381235950011333813e-01
3.538185186347052591e-01,-1.871383103114260260e-01,-2.111185874509841631e-01
-6.012055169030935398e-01,5.714222078057196175e-01,4.439961588372397516e-01
8.362149289674928321e-01,-7.357329104721599400e-01,-3.434305394694571190e-01
-2.733911802506652777e-02,1.889397881040971727e-01,1.378508050530863338e-01
1.745665809715089001e-01,-9.273057366677889268e-02,-3.975648725305880316e-02
2.051044596604326919e+00,-1.923663619388866319e+00,-8.119738374188134600e-01
3.229399935659114651e-01,-3.072746394861305963e-01,-1.180256496635537361e-01
-3.092400499782169465e+00,2.690187463860054695e+00,1.160399174801322708e+00
-4.641437448397633392e-01,1.885157034043677682e-01,1.662528191405432954e-01
-2.024063604468209654e+00,1.915134940896185745e+00,9.906379909279746654e-01
-1.779145611787574355e+00,1.703759910123900490e+00,7.658096977642084857e-01
2.159073091042362780e+00,-1.974092464299967320e+00,-9.269072179992805527e-01
-3.922089708746918646e-01,4.840544462739263532e-01,2.387114380690052995e-01
-1.712574886836803478e-01,1.787582031018534745e-01,2.216675767379240602e-01
1.240966544576190600e+00,-1.038673313619106198e+00,-5.024506342007852844e-01
2.298142532445015984e+00,-2.090026212018148755e+00,-1.153395550622551946e+00
1.631469611913783480e+00,-1.607504114141371288e+00,-8.552889634766812632e-01
-1.181104763257798229e+00,1.128495014488790638e+00,5.456622483703711390e-01
-1.045131105084358830e-01,2.529067465455627217e-01,6.909671143389783943e-02
-2.497247640952345304e-01,1.995404251426989850e-01,1.722223105610752938e-02
-1.675007172263780486e+00,1.635462989654023147e+00,6.726429853622746258e-01
-1.467767666975075214e+00,1.550575994652210854e+00,6.615349876479199587e-01
1.980641143217993783e+00,-1.903562495460738635e+00,-1.048370735781662955e+00
-1.353635844767920204e+00,1.112920391505010986e+00,6.340546222932408327e-01
-4.402743494154172099e-01,1.165762244700623840e-01,2.273933775596192752e-01
-1.169634531961865731e+00,1.019041672335274873e+00,4.312003785167362602e-01
-5.215633542954478674e-01,3.721071611265399648e-01,1.991239649989539895e-01
1.422112360533049014e+00,-1.362393395034261045e+00,-5.009083239388516517e-01
-6.370579073357662825e-01,5.911399818538398687e-01,1.465914822029199538e-01
-2.410604930667979318e+00,2.299686622634149025e+00,9.029757935208573283e-01
1.084258410895877933e+00,-1.013047705663083997e+00,-5.469067129849910502e-01
2.657920089652539897e+00,-2.300540250520682672e+00,-1.255524037117752956e+00
-5.107086509960367948e-01,5.110270394094545976e-01,2.021863526857612392e-01
2.084777140036715881e+00,-1.842608619401416181e+00,-8.292115946923405145e-01
8.264787867132725729e-01,-7.816728494430574825e-01,-5.027118461970133678e-01
-2.488361354640979517e+00,2.522690984358876065e+00,1.008691174778438837e+00
-2.091004826057702992e+00,2.036094870723152983e+00,8.137760611059863258e-01
-3.146822363510294873e-01,3.198590307255033682e-01,1.457024401847824002e-01
1.907920917262703409e+00,-1.912697033458531148e+00,-7.498717306869709942e-01
1.375033599741052326e+00,-1.394240198235621619e+00,-5.333703323747315261e-01
-1.114585075944980685e+00,1.155934553613835458e+00,5.761686106364430904e-01
-2.093957854391424345e+00,1.915782817994136966e+00,8.816685949026116242e-01
-1.774531245130526624e+00,1.743449521531794888e+00,7.201836618413399727e-01
3.838673116549724540e-01,-2.781209671609452538e-01,-3.684347194293611794e-01
-1.650800036517287017e-01,2.875709796124654716e-01,1.272171885962657401e-01
2.008482836488133305e+00,-1.768405929783099184e+00,-9.079348338942498930e-01
1.332661571453197302e+00,-1.234076524260781182e+00,-6.708354972580746756e-01
2.857269354940768835e+00,-2.521096870480980190e+00,-1.153965600306984474e+00
-2.271151672567996549e+00,1.930013369605469098e+00,1.153719719274232558e+00
-2.959703081616542164e+00,2.679465593306228577e+00,1.297116821279014509e+00
1.281645422558669534e+00,-1.184031179681057866e+00,-6.106855501656326402e-01
2.895095429284298305e+00,-2.648625120466176153e+00,-1.129150261298596192e+00
-1.815391423066162746e+00,1.369036381551917092e+00,8.262930858033170622e-01
-1.286157119615021438e+00,1.062544474827093355e+00,5.646273792588798468e-01
2.223728026399455437e+00,-2.071015826496465095e+00,-1.074163482384435264e+00
-1.007162558916076867e+00,1.035583364292751662e+00,4.187728181498286961e-01
-1.563204538609558991e+00,1.425498381658829361e+00,5.213616775807971004e-01
1.107429642721918350e+00,-9.796124981201590476e-01,-3.469283845714968839e-01
1.521077620588561663e+00,-1.507931779841375608e+00,-7.204127137028542016e-01
-4.164452359818076044e-01,3.595758438827000303e-01,1.921582452870707614e-01
-2.082159321417654141e+00,1.807913443963143907e+00,8.801180344375593156e-01
2.712938599134062656e+00,-2.356936113211077100e+00,-1.090666773531620892e+00
1.976660540994553905e+00,-1.890239855191641283e+00,-8.920580063748183575e-01
-2.947375541736410920e+00,2.574450620732866568e+00,1.345819700232596450e+00
-9.053519978878761254e-01,7.557625376208442214e-01,4.360694761117048235e-01
5.326437632643656883e-01,-2.873984272031454568e-01,-3.812991903895162626e-01
-6.162206490060095909e-01,8.231266181817853411e-01,2.796942781000664180e-01
1.745859801411532519e+00,-1.604866464579945973e+00,-6.873398521393506710e-01
-2.869584701566313956e-01,2.892247282918817830e-01,5.352348208916716393e-02
-2.609028327594657082e+00,2.428494312967396596e+00,1.176339521581493797e+00
-8.483017682880751309e-01,5.486676153109829590e-01,-3.198363346707085858e-03
-1.295165999969925208e+00,1.236919680697300405e+00,7.263197121307642945e-01
2.853249465298055121e+00,-2.652221036520558073e+00,-1.133559702592691343e+00
2.895838314873889097e+00,-2.591455798614864747e+00,-1.347383578722999520e+00
-1.851179973062935025e+00,1.759346177089210927e+00,9.140254449250855284e-01
1.536319687963287217e+00,-1.510607975638937894e+00,-8.282896847873938428e-01
-2.420802388984502063e+00,2.269269985073539164e+00,1.064295745520647429e+00
-9.330504142162228121e-01,7.165321774357269469e-01,4.032072772860589294e-01
1.762299515334098676e-01,-1.369485968698607170e-01,1.324230097107242932e-01
-6.577179605130789586e-01,6.573058201493026109e-01,3.380466196411721080e-01
-7.674582821727116144e-01,5.997918256904359868e-01,1.768380950259416662e-01
-1.881549646543379195e+00,1.539250099358034030e+00,7.835773211114740455e-01
-8.721443810396510843e-01,7.344358044323183732e-01,3.078363830587962369e-01
2.814513941554006138e+00,-2.727773143478894102e+00,-1.429897214772491099e+00
8.033974521305458083e-01,-8.554483472734857319e-01,-5.296507977656286226e-01
-2.646632555954082200e+00,2.465517433717719697e+00,1.377781174021544874e+00
1.030386160763154146e+00,-1.039853200840577641e+00,-4.350678978956947218e-01
1.741969663104978361e+00,-1.306667249415268239e+00,-7.831634677535884714e-01
2.805226406122206750e+00,-2.719018913454005482e+00,-1.242382503538769445e+00
1.621812478211003272e+00,-1.533795580083444188e+00,-7.188119013233228438e-01
2.065149047433954888e+00,-2.011898271751658029e+00,-9.847122248739366146e-01
-2.481416613036681318e-01,1.422999922165865960e-01,-8.789386819561981201e-02
2.152571674569917715e+00,-1.750703433574383627e+00,-8.313252461604400123e-01
-2.891780101664224389e+00,2.673869459774517399e+00,1.297154753616494460e+00
2.776469928416072652e-01,-3.092930629428373712e-01,-1.930846020824467102e-01
-2.334222214573429710e+00,2.164645008104461255e+00,1.049763188297801575e+00
2.834228802378591983e+00,-2.568507040352371540e+00,-1.266853505373322308e+00
-3.132410426406412540e+00,2.826277496260934718e+00,1.380205680252779787e+00
-2.555166093277314143e+00,2.160589971238294105e+00,1.058499945963317757e+00
-2.323646057845924151e+00,1.913970303825840213e+00,7.728347304231217851e-01
1.882133933634341227e+00,-1.546289239591626341e+00,-6.450666113056197082e-01
1.071729047028162629e+00,-1.098462476311546032e+00,-6.233485995113272615e-01
-9.645406847817376006e-01,6.867142012674141149e-01,3.953796391601857585e-01
-1.829780800376701988e+00,1.668909006250479443e+00,7.870188318714920195e-01
2.398532703484559658e-01,-3.772197328482741474e-01,-3.063447255312744602e-02
1.431499168876237960e-01,1.746483564812054690e-01,9.117151026939326885e-02
3.203103513390687329e+00,-2.902166291538452736e+00,-1.399036242331155089e+00
3.036547318479431157e-01,-1.820315688888631267e-01,-1.449755621502857306e-01
4.652058934677084645e-01,-5.739417552289729496e-01,-5.107708946643535475e-01
-1.442482198502009760e+00,1.316502435406117000e+00,7.939621178165013893e-01
6.582129177737410242e-01,-7.410486365355605232e-01,-1.843973517289624053e-01
-2.515285283141648787e+00,2.466750914401821593e+00,1.198454777176625852e+00
-2.286324900130133564e+00,1.980595322311883733e+00,9.169021132985781808e-01
-1.232745440304339635e+00,1.048169774476437555e+00,7.435445491839753895e-01
1.886474018321388613e+00,-1.429059270712126573e+00,-9.480031684560463745e-01
1.291015241313916428e+00,-1.241572958751975708e+00,-5.309470159714961834e-01
-2.543612935476059267e+00,2.305399370423364847e+00,1.018773034846742309e+00
-1.453645853366092755e+00,1.327570056912937835e+00,7.567694021475971367e-01
4.178498090841146206e-01,-2.140416604835613246e-01,-1.042081455897793246e-01
-1.683286857243661672e+00,1.735741527396094774e+00,8.762246479716159220e-01
-8.922335440023381192e-01,9.923867465526555742e-01,4.745086102311002474e-01
-2.679218367301122949e+00,2.352419497534869564e+00,1.114582008240230016e+00
1.423493834664264268e+00,-1.215306974035024412e+00,-4.235156675480730715e-01
8.409035029890283841e-01,-9.240887622877604901e-01,-2.842008060149718296e-01
-1.816620979190260998e+00,1.548860926703826024e+00,7.470824073491028061e-01
1.743531018600974480e+00,-1.366188923146811396e+00,-9.877167215174947890e-01
-1.091885773020111250e+00,9.846375736874870555e-01,3.804490866190720078e-01
-2.033071827909266049e-01,2.884689557446887265e-02,1.110963289486584515e-01
-8.366222628013807450e-01,6.891917110565091154e-01,3.277768752026878896e-01
-8.203916768044705599e-01,8.691711404241924122e-01,3.428655376428362822e-01
-1.869029362824591978e+00,1.498411939056990327e+00,6.583894528498157594e-01
2.532078922815539812e+00,-2.100147276455284207e+00,-1.058779193637747085e+00
1.086911661332666951e-01,-2.253784813770103312e-01,-6.106919827496667258e-02
1.352811243481128356e+00,-1.260352012679963440e+00,-5.537940064874478097e-01
-2.694187658711461708e+00,2.656876333332198747e+00,1.223160270936104688e+00
-1.528647772855359577e+00,1.399092802287692283e+00,6.502114167647308207e-01
-2.649870251236876584e+00,2.420882430650867168e+00,1.320080961568184108e+00
6.433097036546335801e-01,-4.237228642225388531e-01,-1.444390497400603324e-01
-1.707717925562206140e+00,1.388580436716631894e+00,5.838196246743170281e-01
6.555677476844965490e-01,-5.057045338421304326e-01,-9.657572530457536608e-02
-7.661173996593780011e-02,1.113800517665970713e-02,9.963799676590187615e-02
1.729768210260697936e+00,-1.575712049797292957e+00,-8.437676970016042555e-01
-2.523698048852343945e+00,2.488626283026146968e+00,1.312876102967448277e+00
-2.775912778254507440e+00,2.447896518576152314e+00,1.207329774636145991e+00
-8.662013920218253338e-01,7.830413837037919489e-01,5.125529222619951142e-01
-1.853734310159844467e+00,1.741197511775046225e+00,6.527578033165412075e-01
-2.491370016984905122e-01,2.885071792594940954e-01,8.302441818401935444e-03
-2.040174832038827546e+00,1.739249121572320478e+00,8.363918341071925333e-01
-9.194345070559221123e-01,6.642332595411809537e-01,3.358227812813652235e-01
2.792986269358878726e+00,-2.642475607423564465e+00,-1.346381978134756130e+00
-1.492930365626297107e+00,1.421197803559457462e+00,5.719485107562646276e-01
3.071577033078594976e+00,-2.820157494813164245e+00,-1.362277858659603602e+00
1.411723044468907728e+00,-1.402430408033602527e+00,-4.908945827067308088e-01
-1.220364964715377365e+00,1.113429341962260066e+00,5.367727955745332791e-01
2.374352231598999108e+00,-2.198091536915405264e+00,-1.051071383335333564e+00
-4.306159564373149284e-01,1.387603816360803433e-01,1.140830554851056666e-01
9.152022087382885029e-01,-7.446497555245652489e-01,-3.086770993814555997e-01
-2.541759377934847297e+00,2.335181237177216040e+00,1.046525670904235428e+00
1.478456304669689914e+00,-1.304992728304377403e+00,-6.152362371024713283e-01
2.610839317465516451e+00,-2.389148107824758505e+00,-1.188070342737809426e+00
2.303071475752528130e+00,-2.056697516817753257e+00,-9.739037346119704397e-01
-2.331046355373958878e+00,2.221796261015237306e+00,9.940759232361839892e-01
8.597833065513369455e-01,-8.039804580399531053e-01,-3.865657042224955875e-01
2.422448223765612862e+00,-2.374348927426006561e+00,-9.708024905793564141e-01
-1.541778495616294764e+00,1.338767613647449339e+00,6.986494762914005063e-01
-1.975421589030476488e+00,1.673938667015161474e+00,9.800916875391463279e-01
6.721458778508695442e-01,-6.077787410758189734e-01,-1.160626593342325430e-01
-2.097482562349139545e+00,1.901831784070747045e+00,1.047532719044823590e+00
-2.868864842013566285e+00,2.505646286914657850e+00,1.180755779741531786e+00
-1.816670458020219536e+00,1.769650175239759538e+00,9.692901802304346726e-01
7.861709986663484306e-01,-7.338295152394646026e-01,-2.629180906146736940e-01
-3.180199762154574561e+00,2.809269692616024994e+00,1.337750869133646825e+00
3.052765068354466926e+00,-2.857340315965960720e+00,-1.277591351422287191e+00
-1.684081192963317666e-02,-2.026392644733033405e-02,1.376008403384721690e-01
1.043819094598071873e+00,-6.758127391687048791e-01,-4.013218613651748368e-01
9.764901297373165256e-01,-9.234954812433687765e-01,-2.766338516028483685e-01
2.152260301932429343e+00,-1.875706083871275354e+00,-9.460830091534632169e-01
-2.022316435364788667e+00,1.786754366983696274e+00,8.649037049513097486e-01
4.527508869247903744e-01,-5.388591038256438370e-01,-2.213502147081045646e-01
-5.438260154390546219e-01,2.628002621316391507e-01,2.058296188093759749e-01
-2.367147525657002038e+00,2.195795245659041051e+00,1.086125443201109819e+00
5.700794877001985617e-01,-6.677494173113364129e-01,-3.690670755031189576e-01
-2.507409498590493224e-01,1.264465983951080230e-01,1.818866411689097073e-01
-4.617013241397314727e-01,3.410244640306420161e-01,3.418828211215174662e-01
-1.681981032436537182e+00,1.733557372719100709e+00,6.675182414342158976e-01
-1.940988678509715681e+00,1.809776885650085987e+00,8.448909331390167532e-01
-6.693898292866252708e-01,5.232386747566696306e-01,2.603140175393728328e-01
2.736142226622604756e+00,-2.426289367983664125e+00,-1.262032432127202730e+00
-2.744520197699208630e+00,2.625464200685480698e+00,1.293932764696901883e+00
6.536308915053463675e-01,-7.110421461136743337e-01,-2.478541979040635168e-01
-2.410416827267854334e+00,2.319072425940376991e+00,1.002027410335127433e+00
2.560899963618513020e+00,-2.353192799069117491e+00,-1.003924008273537671e+00
-2.459534884082043682e+00,2.441715881414631362e+00,1.118252324095152073e+00
2.823637215202230433e+00,-2.432661234895940439e+00,-1.187560133096752679e+00
-2.318920297559582622e+00,2.179680670006439502e+00,1.078567433041434542e+00
2.205324872143672899e+00,-2.132520418117565875e+00,-9.037296599498884087e-01
1.976565618562001081e+00,-1.769303340943389591e+00,-6.980680386998194820e-01
1.702704750658286414e+00,-1.351324861686334922e+00,-7.879626871827033474e-01
1.699669475008281694e+00,-1.650290191598977163e+00,-6.041383504998900644e-01
-1.546237843179154137e+00,1.582334022864380296e+00,7.547416419186439018e-01
-2.944848864787318110e+00,2.404253828071901911e+00,1.202776872837895805e+00
-2.012384553448722357e+00,1.842622168160009677e+00,1.120087042784267073e+00
1.952514445957021172e+00,-1.661032818423943569e+00,-8.182936116667529625e-01
-1.640320992766392871e+00,1.382397002833306576e+00,6.962015700933954498e-01
-3.652402182429366206e-01,3.196413926051260290e-01,1.621462380784071955e-01
1.703248602221354158e-01,-3.533244784992251586e-01,-6.609861896591842645e-02
5.421772488932479206e-01,-5.705091852820387555e-01,1.447657126674773732e-03
1.360031817452705960e+00,-1.259988203356435132e+00,-7.552685323315094790e-01
-1.686361843516571701e+00,1.486789979309407261e+00,7.004902821616212361e-01
-6.028888149579738620e-01,5.765991698227573847e-01,3.040817658931802003e-01
-3.450848313011325996e-02,7.022896423136805455e-02,1.533230103819357426e-01
6.140700216646840515e-01,-4.394858046392429718e-01,-2.590777895609057691e-01
2.812424010693278034e-02,-6.565357673813476680e-02,-8.487498183023345355e-02
-2.536053506833408466e+00,2.434020265561356755e+00,9.589250143602143783e-01
1.875048157561949758e+00,-1.719610594724285457e+00,-8.243116285890470518e-01
-1.615923910435282274e+00,1.454911379523738502e+00,7.007304631686512852e-01
-2.565697588694115794e+00,2.396527514633612022e+00,1.010162938235142249e+00
-1.985750192534795344e+00,1.641265844878245561e+00,9.261700293871003575e-01
-2.322364551653150588e+00,2.150483917184150329e+00,9.985857398335896695e-01
2.953690758340966394e+00,-2.860446618589779444e+00,-1.347521374127551796e+00
2.762911473092897197e+00,-2.427447160660628711e+00,-1.096578779058921205e+00
-2.373235551352273820e+00,2.306074258389361642e+00,1.101259755434779386e+00
1.651688710121896220e+00,-1.584117479912122706e+00,-7.720148212324641213e-01
-7.828622045601073554e-01,6.615174976572233412e-01,2.734823581962735894e-01
-2.464797567791146893e+00,2.357174747790760971e+00,1.124233387331276202e+00
8.847263336297935821e-01,-6.634358397813882036e-01,-3.894718845626160553e-01
2.238882394251739072e+00,-2.037347107637499377e+00,-1.067026928571872091e+00
2.128468241663026728e+00,-1.875660888518127845e+00,-9.159876535374187334e-01
-4.603779663846281900e-01,4.779525002925758548e-01,3.374936349977332162e-01
1.234967529973841405e+00,-1.226007390753860449e+00,-4.308440621851337693e-01
-2.186385780170104542e+00,2.103931885588910866e+00,1.052174439001259953e+00
-2.438356134206605130e+00,2.399845167733377860e+00,1.109446577279290969e+00
2.049327608789384580e+00,-1.982221129859057296e+00,-8.513213098301317672e-01
-2.191717897718826968e+00,2.120800921055935095e+00,9.973254466756126257e-01
-1.595831785819952664e+00,1.579233948938860710e+00,6.939485231320525749e-01
-9.046297219902387221e-01,7.322543173294745467e-01,3.920987777964897170e-01
2.069748311761024695e+00,-2.033522616820078177e+00,-9.599361923562998999e-01
-2.610118363462851088e-01,1.348404630419726691e-01,5.577560136571618754e-02
2.237398932429156773e+00,-2.126824407396550765e+00,-1.045109867972878526e+00
8.705060099854917688e-01,-8.073967348956032630e-01,-6.076190519517444821e-01
-1.310476677863436468e+00,1.310735259246340156e+00,6.193133832363891811e-01
3.189285152468313456e+00,-2.783535131290269860e+00,-1.389152217493329955e+00
-2.413662836073659612e+00,2.322045591177796631e+00,1.182500152211377387e+00
-1.116863090268923386e+00,1.048407044358192319e+00,6.343971910599197628e-01
-2.544800377399495606e+00,2.310537022741650404e+00,1.057444232801912243e+00
-2.629737446591470462e+00,2.442224084203541423e+00,1.150240359597275885e+00
1.397402607449447443e+00,-1.249547668950155677e+00,-7.660056808079805934e-01
-2.810382965449910397e+00,2.454958602060122175e+00,1.123504370566203336e+00
8.133095958714927631e-01,-8.123080328507601422e-01,-5.007185491078740558e-01
-1.672053224004854899e+00,1.515943037923799475e+00,8.230073273223131869e-01
-6.509440755525197631e-01,7.759489224926395812e-01,3.587240639072064030e-01
9.253855741642430521e-01,-9.257404363011831894e-01,-5.435339183311015399e-01
-2.148202853093095221e+00,1.987768544964599648e+00,1.058014391947788679e+00
-2.804897103239154088e+00,2.352936193946736143e+00,1.165375790809381806e+00
-1.994014476614163422e+00,1.933443226695464201e+00,9.396211240272537291e-01
1.068016174414940567e+00,-1.014337107841726704e+00,-4.259823628564837206e-01
1.436185744657727525e+00,-1.315186837883068671e+00,-5.218494200988927911e-01
-2.866549657187155375e+00,2.602858166765820158e+00,1.315358215369309303e+00
-1.382934262510369550e+00,1.125941252397295367e+00,6.463216633146646739e-01
-1.508321404525721221e-01,-1.469908553841012353e-03,-1.237210571706712659e-03
-1.306079585564074996e+00,1.291979402886629824e+00,5.212673278474562188e-01
1.745301246002438633e+00,-1.595681921252245505e+00,-6.637209368268957022e-01
-1.800912417743389726e+00,1.735540367416407381e+00,8.083237222576812320e-01
-1.288257973001228018e+00,1.224496487544984635e+00,7.114639097602277751e-01
-2.107928522517817704e+00,2.038800752271199723e+00,8.098736174775793550e-01
-2.521234021825203619e+00,2.167319980550748593e+00,1.175470873316794229e+00
-3.919254182512030282e-01,1.640326600603582152e-01,8.042626731844267074e-02
1.562240772299518632e+00,-1.546173087334926199e+00,-6.820917747971917411e-01
-6.345712120929366540e-01,6.199908317004774183e-01,1.822095727442701318e-01
-2.452935723001557822e+00,2.583884114227095630e+00,1.096612890600384249e+00
1.582254935245914984e+00,-1.521690244611119347e+00,-7.651150616425493878e-01
1.356808141743402807e+00,-1.210530063557026859e+00,-6.080534295188628757e-01
-2.735709825316794963e-01,2.080981598190416795e-02,-2.245312502981574448e-02
-5.305004160280155645e-01,6.565614082592161616e-01,2.328450754893667818e-01
2.879071969137487308e+00,-2.723392824210189911e+00,-1.412136561494200526e+00
-1.663936441777047248e+00,1.462024068993415638e+00,6.784590354817793267e-01
-1.919974915468906085e-01,2.570673912027825470e-01,2.061641914646323570e-01
3.096982314296835292e-02,1.045996527612878535e-01,1.883726756516440060e-01
1.203184003489364828e+00,-1.273483783564890004e+00,-5.066627660547656786e-01
-4.886932899665702434e-01,4.653292506347274649e-01,3.495760100710542662e-01
1.027479871836652459e+00,-8.515756905631099993e-01,-1.375235793626861658e-01
-1.207009065596897024e+00,1.037530271406899907e+00,4.723394476810759968e-01
-3.079104093521338292e+00,2.847272815266362667e+00,1.405920298132591784e+00
-1.171284905599470280e-02,2.714623430381379182e-02,3.024732154014470042e-02
1.543724340967625175e-01,-1.844166052625503260e-01,-1.497215951924989463e-01
1.334953537765666720e+00,-1.158216885630628523e+00,-6.161137288241527177e-01
1.611676022619919824e+00,-1.292637366080514605e+00,-7.251573129672480578e-01
-2.962162499657463588e-01,1.356467275228381009e-01,7.234809408335943215e-02
-2.972637390825690673e+00,2.851443059847466266e+00,1.387355912953165626e+00
