7.909054854792256783e-01,-8.136854510787353556e-01,-4.579962060032247706e-01
1.233969557924433857e+00,-1.589924534381083054e+00,-5.961104077916437038e-01
1.479061794360092552e+00,-1.800766026072313286e+00,-7.709468421634652069e-01
1.950882009421205446e-02,1.432774719423321463e-01,-4.777014117635799972e-03
1.901104385314870804e+00,-2.059688414345260288e+00,-9.214882099188104192e-01
8.493800693943737157e-01,-9.539536511219903758e-01,-4.733067304639120843e-01
1.786141552774485941e+00,-2.016248643913910232e+00,-1.145177440080403120e+00
-1.261308560285715030e+00,1.359996762356845412e+00,6.265700046115930677e-01
1.587265577813376627e+00,-1.620047765849033317e+00,-6.984878978730352239e-01
-3.596678935035954594e-01,5.008703887498470175e-01,3.166065084580725886e-01
-5.228846523069513585e-01,5.752398921601442616e-01,2.406004511659264877e-01
1.962682353872829688e-01,-4.696155961522651134e-01,-2.062907754854225173e-01
1.955406319601738829e+00,-2.091562271538531803e+00,-1.069788314483168357e+00
-4.857006546762019927e-01,4.086292739511128147e-01,2.902084358658070795e-01
-1.624195060170171789e+00,1.748713832827630599e+00,8.293639418774552130e-01
1.691995149248868735e+00,-1.814632362180071290e+00,-8.038163342226855024e-01
-1.565973064129536629e-01,2.176512292800430737e-01,8.577514589237961173e-02
7.861929201774612783e-03,-5.508650093183649343e-02,9.864579395579020984e-03
-1.031480927504943246e+00,1.277043515292011211e+00,5.952626455093803504e-01
-1.747716968985449704e+00,2.250843130502391265e+00,1.081499369995499116e+00
1.733366129315111470e+00,-2.039657533720121929e+00,-1.094783157926229489e+00
-9.603964939597602335e-01,1.000322873438841853e+00,5.604200135870414101e-01
-1.213881933708130800e+00,1.438791375686805596e+00,7.241125240566913535e-01
9.755609520461449025e-01,-8.877807409687401563e-01,-5.064287345697963127e-01
7.139089273870035113e-01,-8.482284751556835589e-01,-4.028608647426615841e-01
-1.317654419749361816e+00,1.462218668152017509e+00,7.453512014360178517e-01
-1.345290406470571964e+00,1.502873792225882577e+00,7.214452136199069887e-01
-1.942106401710524510e+00,2.144529846079904711e+00,1.075642002610562198e+00
-1.029276243350524533e-01,1.334487519410365863e-01,2.737016255677210061e-02
4.278537225450458892e-01,-5.266530259910939815e-01,-1.098209734380127395e-01
-4.434652060669967977e-01,3.791772730896722510e-01,2.123721066301967886e-01
-6.876531445946048038e-01,6.924238913024624020e-01,3.593942416360467185e-01
-8.416825395759521822e-01,1.005273454898923724e+00,5.189264812384354331e-01
-8.758121604839456120e-01,9.410686121766189682e-01,5.653026897919198879e-01
2.040324478935029717e-01,-2.062174329355317415e-01,-1.344433095113764243e-01
1.343221634038291867e+00,-1.457877491087035793e+00,-8.263979524931257536e-01
1.272015923272153959e+00,-1.377923641680853573e+00,-6.197379612478238764e-01
-4.341560450549227790e-01,6.030068887407841194e-01,2.461607988347617459e-01
-4.897859777374437562e-01,3.867363500894651085e-01,1.908288917766161608e-01
-9.707374395490255825e-01,1.180791967707291334e+00,6.098270346264166308e-01
1.372157605985349305e+00,-1.551688944861635111e+00,-7.607972313149315990e-01
1.931391422582845907e+00,-2.126672070393180292e+00,-1.133215044484569223e+00
-5.238481976829262310e-01,4.406802312355681539e-01,2.571411197894928891e-01
-6.900715171306242013e-01,6.969974640275971023e-01,3.715075754332710645e-01
9.537143353014010394e-01,-1.027600716030799610e+00,-3.720944862627520999e-01
9.439764465061087906e-01,-9.777168583742668062e-01,-5.425327118198203236e-01
-7.430939696585112664e-01,9.453707985266468494e-01,4.538727408337339120e-01
-2.076218876331054064e-01,3.495923107929483353e-01,8.489457922393324474e-02
8.019700309313008146e-01,-7.515129782084208898e-01,-4.424461013900922168e-01
-2.519192921779494498e-01,4.191078510784628230e-01,6.392530616562668022e-02
-1.395211616730803517e+00,1.627577233179246630e+00,7.863547027865596117e-01
4.151145840829636446e-01,-5.211343486200420427e-01,-3.673823680164607919e-01
-1.418343379446145747e+00,1.519968360930818330e+00,7.365756068001663159e-01
-5.346269813461310694e-01,5.104266313630547725e-01,3.827687117601374922e-01
1.645702182736970220e+00,-1.840351869530433282e+00,-9.895532771555046736e-01
1.560206355993172700e+00,-1.913618253569506766e+00,-9.249490127687307606e-01
-4.039192769323184939e-01,5.492964389833411287e-01,3.471871065904733600e-01
-7.169574021245067597e-01,7.645578453007246811e-01,4.640749357682507070e-01
5.354753652619416160e-01,-5.174341818978436258e-01,-3.833932006175048146e-01
-1.673376239549785593e-01,1.653979353714946643e-01,3.201021056981905033e-02
-3.412506904493722293e-01,3.917303108755854635e-01,1.558899146892520626e-01
-8.019553998309767451e-01,1.039304305145134499e+00,4.604062822729000359e-01
2.660509852874179959e-01,-1.348037745895947215e-01,-1.732018873694572969e-01
3.713251515749940029e-02,-8.490551834004211873e-02,-4.345863381743880760e-02
-9.263815375327896229e-01,9.193177629966049480e-01,5.111601881205029008e-01
8.384642227452846486e-01,-9.855301082533821644e-01,-4.726347322906631065e-01
-7.879018659267201796e-01,7.241655167372382795e-01,3.952150108005952900e-01
1.189942572299506479e-01,-4.769022101425331173e-02,-1.302793897994231620e-01
1.540608851318568284e+00,-1.850712615120736038e+00,-9.628760525986704844e-01
7.761441036246150560e-01,-9.899194616892137422e-01,-3.664608047962151782e-01
-1.657678532101752644e+00,1.858759385530113439e+00,8.564408360141470000e-01
1.270152709285254922e+00,-1.424215950043093759e+00,-5.967142964842842012e-01
-3.568743754072176699e-01,3.700706798748148452e-01,1.872850413450312113e-01
7.961257585610013177e-01,-7.297538331814569235e-01,-3.698661135827785995e-01
8.354349020500071443e-01,-9.185164671396008895e-01,-2.883012981900028304e-01
-1.407433543132409204e+00,1.544939090693514316e+00,6.798379708307941138e-01
1.040998678651021692e+00,-9.544601349764781917e-01,-4.341476583232987685e-01
-4.806179302453409963e-01,6.240546097556742833e-01,3.061871216561298792e-01
2.883517675645294598e-01,-3.584099902851885511e-01,-1.943627312640733573e-01
-7.901467869105847086e-01,7.479071156775087825e-01,4.256580576624605095e-01
7.520701346241346341e-01,-8.690330295037590469e-01,-3.695017854405416857e-01
-1.559145600352295435e+00,1.723069493657444662e+00,8.255780797134967264e-01
1.348901174012993864e-01,-1.844098951552781973e-01,-6.914701841000427118e-02
1.578803871877583420e+00,-1.906657473822610749e+00,-8.233746082974412461e-01
7.656088279241727301e-01,-7.215177627693910578e-01,-3.886920364470483613e-01
-1.055758694937885434e+00,1.133155692898804467e+00,5.478339992168801409e-01
-3.866817610000320427e-01,3.415364765807366032e-01,1.800045813473814260e-01
-1.310302134833916554e+00,1.436325042914013750e+00,7.329633040673467770e-01
-6.771613155393668704e-01,7.778216815709788623e-01,3.618460064564516521e-01
-1.329634515052393384e+00,1.406142166748993949e+00,7.559479377721827209e-01
-2.488149243424948032e-01,1.726166337343059409e-01,2.237966681848407163e-02
1.981190495731900203e+00,-2.203628271157579643e+00,-1.055040605764386408e+00
-1.489336906044019360e+00,1.696060134269619546e+00,7.069062944862368747e-01
1.925938072357078035e+00,-2.188649132679983733e+00,-1.074719746634752893e+00
-7.181159534964229874e-01,7.957694522613522059e-01,3.439702694430298302e-01
1.473786391451353595e+00,-1.598185813533807398e+00,-8.580194114914653225e-01
-1.653119574354173782e+00,1.841397717067015716e+00,8.798675491427495610e-01
1.559912375198756473e+00,-1.925304974019490523e+00,-8.888359231883443679e-01
-1.511283064510664076e+00,1.710731435147186730e+00,9.192735317895162073e-01
2.556765844184931136e-01,-3.698092858604962174e-01,-2.020761660283761640e-01
-1.372541410474794610e+00,1.545512663781605234e+00,8.363166715912536686e-01
1.246396352151460496e+00,-1.423918761818926182e+00,-7.151229607484353989e-01
-3.676733416287847334e-01,3.459238817935421650e-01,1.072762933149629810e-01
6.640151116853728608e-01,-7.922000754059761451e-01,-3.012288430424016061e-01
2.789015017894194703e-01,-2.534329632956158762e-01,-2.389396424426033505e-01
-1.412890821938399544e+00,1.588613191908176958e+00,7.958662255694934906e-01
2.601613980633882828e-01,-2.670007366199997345e-01,-1.283208933586334199e-02
3.636997447528041993e-01,-5.327569419584370358e-01,-1.748142731229423708e-01
-1.603811195693098934e+00,1.776811972586293642e+00,8.027098682502974425e-01
1.100020589584462388e-01,-2.211021374623729427e-02,-6.049902350802527362e-02
1.465259157401973322e+00,-1.592678525180440063e+00,-7.555411340555263644e-01
4.166362564121633971e-01,-4.864511251381574142e-01,-2.463972580980992588e-01
1.731426750364825295e+00,-2.008723954648006682e+00,-9.474789588373715432e-01
4.287772225959336492e-01,-5.489667476138695434e-01,-2.188399238918930512e-01
9.541506220129050142e-01,-9.037182828329268780e-01,-5.509060519170003722e-01
2.493143167181659237e-01,-7.611463898662415573e-02,-2.794402069507988425e-03
7.572745145201505990e-01,-9.478059833522584077e-01,-4.717606593579012353e-01
-3.325704438941197161e-01,2.460420766220946243e-01,8.418491183881472717e-02
1.520171492331474417e+00,-1.681246692263814957e+00,-9.014657545437650965e-01
-2.194883112546399395e-01,1.971631720950880462e-01,1.584583512004417438e-01
1.033532999790598872e+00,-1.114272552691030871e+00,-5.665932116092362580e-01
-1.279238718908576766e+00,1.510815579299110256e+00,4.940600470631867358e-01
1.843599327511846075e+00,-1.889426040989568234e+00,-9.873277944956659891e-01
-1.613530109843996252e+00,1.861203479573630970e+00,8.731983210669910234e-01
3.083400980188655272e-02,8.457888988922360185e-02,3.048967526805028763e-02
-1.466684698339178139e+00,1.756114548017531307e+00,9.582706295415936992e-01
-2.497331005633094125e-01,1.870463666325738739e-01,9.817665357128664561e-02
1.392378717963521639e+00,-1.641702162859764336e+00,-7.266815816557478103e-01
1.849560272194298749e+00,-2.124382574399041435e+00,-1.067980733726454634e+00
-2.007844806029079054e-01,2.617540864745543927e-01,6.513204227171372207e-02
-6.565885489027413202e-01,7.592378543580737826e-01,4.584518600662440546e-01
1.453662316417042133e+00,-1.706851301628708129e+00,-9.116996507574584019e-01
-8.076208517010475818e-01,1.112243304352532602e+00,5.388196237852962422e-01
3.005188668402811181e-01,-4.199508136484904064e-01,-1.885441243147048529e-01
-1.203947343330309172e+00,1.381897901701516274e+00,7.589030225350515968e-01
5.770428927657650364e-01,-6.881439370208587425e-01,-3.673673016023631388e-01
-5.224092009730465502e-01,6.446306629106838271e-01,2.710255671735909422e-01
9.680598473283554828e-01,-9.728712630947132789e-01,-5.077923860661752720e-01
-1.730055682038789788e+00,2.078044048283839818e+00,9.981398635511602446e-01
-1.565884212275862053e+00,1.721405389905672934e+00,8.931430387941939886e-01
-3.172027591872774166e-01,4.097095146255459452e-01,2.009075910737682935e-01
-1.740699737498027089e+00,1.836456452517288840e+00,9.462772112243238443e-01
-1.584703758899096426e+00,1.800523429101619666e+00,8.379265004557864271e-01
7.570648262908208359e-01,-9.217710183868551566e-01,-4.913716917269306816e-01
2.820393260242388123e-01,-1.303461972041787542e-01,-1.997904028545295918e-01
-1.338198277280479243e+00,1.575794536523694056e+00,7.131839099403235460e-01
-2.082262993112725669e-01,2.498947944843115110e-01,9.609025078555130661e-02
-1.656158902177619963e+00,1.979013370631879543e+00,1.003274544891509024e+00
-2.011001816584113144e-01,1.059976371427159836e-01,5.597731687468809891e-02
-4.992428623991182479e-01,5.887678304455976619e-01,3.230598596396855315e-01
-1.958675142316746998e+00,2.269140481186147973e+00,9.716143906396428331e-01
-7.913608434201593322e-01,8.568050792156561846e-01,3.295028569320386236e-01
6.354815952963095704e-02,1.707766564071342905e-02,-1.401879319423551644e-02
1.640109792828685853e+00,-1.864690411483375332e+00,-8.832071857992701558e-01
-2.680985065432290454e-02,1.544905923147149862e-01,8.804581284548411435e-02
-1.628654784422570723e+00,1.861332588461076520e+00,7.859642693056517748e-01
-1.619863291368444091e+00,1.774627957536886402e+00,8.534568856034927542e-01
-1.936796028615405341e+00,2.128967369334465509e+00,1.033579078867411960e+00
1.566859016171494146e+00,-1.882386463331298554e+00,-8.579217405772685545e-01
1.025440654402020701e+00,-1.076569042479609051e+00,-5.172825053219818336e-01
9.424830580182320949e-02,7.804552746769027882e-02,-1.260459421876297843e-02
-4.489370235201670112e-01,4.367758920711489745e-01,2.114094836853440129e-01
1.720002895474305626e+00,-1.910150662855556236e+00,-8.452144412835451703e-01
-5.147808600463639195e-01,6.718277110667499885e-01,2.851334989068983750e-01
-1.112609532908564791e+00,1.234921989734194314e+00,5.187509308798018415e-01
1.807951471775788022e-01,-2.015259344312652912e-01,-8.041155033070551683e-02
-1.071068007180280279e+00,1.331081950718510987e+00,6.225877382993461051e-01
4.170347331681278358e-01,-4.216082836623253893e-01,-3.234067317306953404e-01
-1.680402101852803254e+00,1.857479734513939107e+00,9.329456385862947565e-01
6.742519315695777449e-01,-7.968204922081491004e-01,-3.042802524205543424e-01
6.678807925122067779e-01,-5.885248732550463213e-01,-3.416901226189144047e-01
-1.409619666057103426e+00,1.655027785150641861e+00,7.895841439462241151e-01
1.166283726188651615e+00,-1.310853303604753162e+00,-6.186366884839059610e-01
-1.404689860794974265e+00,1.524448832129639886e+00,7.855880283745875214e-01
2.004039495524914116e+00,-2.116127841277192445e+00,-1.102863713147764990e+00
-4.458262526958257227e-02,8.332616997124519392e-03,1.258289012359738168e-01
-1.943889533772363176e+00,2.224269250073121373e+00,1.102433728354687892e+00
8.533272196420896849e-01,-9.772817700563851684e-01,-4.099383129283214466e-01
1.787494033704480678e+00,-2.121243497972809866e+00,-9.335312151695440708e-01
-6.897977621534842063e-01,8.372257084937740901e-01,3.150911453778930671e-01
-1.605428511481238107e+00,1.951990950563589067e+00,8.643587703623814011e-01
1.035581042370816718e+00,-1.115533086096964999e+00,-5.188392659079270608e-01
1.685827796782634280e+00,-1.774887876652216478e+00,-8.588275858886630365e-01
-1.295035810999300319e+00,1.362682510271182146e+00,6.675136752453160183e-01
1.786534960126044069e+00,-1.993178643298778807e+00,-9.885464305612065017e-01
-1.788037834645179514e+00,2.018431634726796098e+00,9.498557251840364923e-01
7.394034366046959086e-03,-3.640800543927669164e-02,-1.485676024090767586e-02
-1.715461297076902980e+00,1.845332067207731352e+00,7.852334748850219315e-01
1.450084867126845589e+00,-1.642630580159638365e+00,-7.118802781667048496e-01
7.248863848590544334e-01,-1.003242543058320280e+00,-3.230546015888163258e-01
1.446613906925573456e+00,-1.627057546548654532e+00,-8.322276142219288131e-01
-2.751132722366604333e-01,4.791453067366885921e-01,2.194924444315290157e-01
-2.730278656653690184e-01,3.790609248645462337e-01,3.090194662483571331e-01
2.641265093254096391e-02,-1.448862356525612571e-01,-4.954342115752237430e-02
-2.868511902050500245e-02,-9.594411650951287229e-02,7.979820273386804830e-03
-8.560718301620903192e-01,8.871961888133459428e-01,5.822964787370912276e-01
4.299319458077623390e-01,-5.072915077522575089e-01,-1.683480608081436569e-01
1.586285704662843132e-01,-1.461690182351209344e-01,-1.346694290822288143e-01
-1.328207481528088652e+00,1.682734555063421622e+00,8.072168034286172356e-01
-1.011326773686869407e+00,9.905893928370135271e-01,4.241421761122240452e-01
-5.469890077800045880e-01,5.558134963338378087e-01,1.959174469562407483e-01
-5.239612077374851129e-01,5.462036198292014033e-01,2.174030813836986820e-01
9.333422876632103682e-01,-1.035696940563016089e+00,-5.255645281965630744e-01
-1.924951614852865811e+00,2.237427530576153067e+00,1.145895856773656130e+00
9.219652652593659514e-01,-1.023510142629987074e+00,-5.248126533485607537e-01
-6.014245378589254676e-01,8.133804338196025663e-01,3.852324628959376551e-01
-1.404992257514592557e+00,1.524130794988831639e+00,7.008623245670783097e-01
2.265560872060699005e-01,-3.584250339126590079e-01,-7.589913557218404445e-03
1.851771269763857530e+00,-2.152526517675801720e+00,-1.064983271030917944e+00
1.611478553110087475e+00,-1.893560428472243373e+00,-1.034040770302345758e+00
9.120236290711292160e-01,-1.107843923789841423e+00,-4.888493274926772325e-01
-7.819824520551014180e-01,8.039158642789098197e-01,4.065223584923802203e-01
-7.970162486884072583e-01,7.134884625890851595e-01,4.546368915754733231e-01
9.352559790951658902e-01,-1.175982256152078520e+00,-4.456330294113130530e-01
-6.994169852250773367e-01,6.813497479659804679e-01,3.111922447545941717e-01
-3.200207395093211393e-01,4.652962616140972618e-01,1.996809191857799037e-01
7.376696155049561332e-01,-5.782314352227195808e-01,-3.229872132021723852e-01
-2.759360343799379667e-01,3.314954937079495068e-01,1.922329211342434230e-01
1.937110299915985712e+00,-2.046784500810573171e+00,-9.187526931965365184e-01
5.949454836247913825e-01,-6.784406863201376536e-01,-2.719500562206944028e-01
-1.514664417669312924e+00,1.698694699589935686e+00,7.167595707086986678e-01
2.389855195087937645e-01,-3.276404395383790136e-01,-1.375930639586530058e-01
-1.079432095924242940e+00,1.290208352249901047e+00,5.599184037655020596e-01
-2.126238881393897329e-01,2.127648003210221295e-01,1.439613396530847744e-01
-1.975390189303249500e+00,2.273521388941051491e+00,1.034040056294302845e+00
-9.715843297393709221e-01,1.081215916934913146e+00,5.522009918022419139e-01
3.508496060767434255e-01,-5.577219367450364507e-01,-1.982591337320289138e-01
1.544608702510269271e+00,-1.777329951653681572e+00,-8.112917249309742340e-01
5.307105248208675574e-01,-5.510435516798879441e-01,-3.443892700655414307e-01
1.817700670553977549e+00,-2.098717824434273904e+00,-9.202929302650770804e-01
1.576736579929562287e+00,-1.921739694030230483e+00,-8.895173515610163006e-01
1.395988400988775080e+00,-1.643787911094214405e+00,-8.606744175859898371e-01
-7.237407111713604069e-01,6.982136810280621386e-01,3.156246841625058308e-01
1.301246755091866714e+00,-1.505579673654620532e+00,-7.013785776308766318e-01
-1.786621344883974505e+00,2.026378857850706261e+00,9.604167206927113343e-01
1.778439766127463129e-01,-3.595938265112369470e-01,-2.883980872962935704e-01
4.551792852435416759e-01,-4.878016503832872108e-01,-2.320111069385226432e-01
-1.275178177770788512e-01,9.588400144737904696e-02,1.317562294012715740e-01
1.149455815028369132e+00,-1.269232338501599333e+00,-6.508380118531145175e-01
7.239909680187730512e-01,-8.958112026553736174e-01,-3.679647931775104630e-01
2.798795203169416809e-02,-9.604405961190727592e-02,-5.496545623658698199e-02
-5.101111399780421385e-01,5.567873126353619639e-01,2.480381402610051800e-01
-4.712729445303885378e-01,3.990971415792670673e-01,1.976976410113489013e-01
-2.009688910263930151e+00,2.114605865302183751e+00,1.089549255279387729e+00
-1.009337750391308131e+00,1.092408812675039309e+00,6.415237166031521054e-01
6.825867386740441800e-01,-9.043582687371393147e-01,-4.015793943559351487e-01
-8.695094093767463672e-01,9.816621607114328629e-01,4.104741781542597390e-01
-9.835534917190661419e-01,1.060837945549184758e+00,4.488547256717179690e-01
1.404692350505005960e+00,-1.684540089382900785e+00,-8.703088487621261082e-01
-1.857412015508406844e+00,2.011677707271104509e+00,9.926882106720107402e-01
9.294064440575059427e-01,-1.025623203678939444e+00,-6.272480796496822109e-01
8.760903209993194940e-01,-8.800267650447139989e-01,-4.166896933681421555e-01
-7.671362000888335420e-01,8.184296687403084247e-01,3.085717849742105612e-01
1.359834824409766219e+00,-1.491023974904447158e+00,-7.828127609147250698e-01
3.777846041209657613e-01,-5.045615903779079314e-01,-2.429197193270093702e-01
-5.541586766982307122e-01,7.265166697976286336e-01,1.881871654456497567e-01
-7.175228777220424847e-01,8.942235558092567205e-01,4.429603055762944552e-01
1.500901041418870374e+00,-1.674347841735328135e+00,-8.627073459990821647e-01
-1.484578582708911965e+00,1.863469265811040776e+00,7.797223700658809653e-01
-1.787219227658607412e+00,2.050979656805911322e+00,9.427009632224359059e-01
2.560328777279305412e-01,-1.272750532477337770e-01,-7.948988562781823808e-02
-4.207261290270440934e-01,3.325687836076165471e-01,1.411423443982415260e-01
7.903423313317939902e-01,-8.773495300519461582e-01,-3.984501886452901931e-01
1.805636504295404565e+00,-2.023621553023279507e+00,-9.154882536348333266e-01
1.607259058311703237e+00,-1.915698165867146141e+00,-8.090982409217480908e-01
1.697668167201374700e+00,-2.096281490559407601e+00,-9.986170028287543188e-01
-1.220552337700912648e+00,1.459499982002756324e+00,6.518722141457174990e-01
-1.035108536070208807e+00,1.088797405067981616e+00,6.019521382888871619e-01
6.801399973599137061e-01,-7.127861797783743292e-01,-4.350799127335827077e-01
-1.009902852301695741e+00,1.239647192379593088e+00,5.048360549812916931e-01
1.761343593315274569e+00,-1.931660102950070623e+00,-1.058901179087407662e+00
-2.141778550182159291e-01,1.286112491118995005e-01,-4.001171140924488639e-02
9.333899610235515398e-01,-9.641032689769912789e-01,-4.268385519774898218e-01
8.019896160596141632e-01,-1.012152387722390579e+00,-4.902071974010264732e-01
5.936603399455125940e-01,-6.105581557107443436e-01,-3.357855110440740032e-01
-5.878963943095379951e-01,7.126313267744863733e-01,2.852087645106473612e-01
-1.021823815180868067e+00,1.196992967759407112e+00,7.048761646275767401e-01
-7.399558509408807883e-01,8.094838910897096396e-01,3.189090124701931539e-01
-1.415509216797113723e+00,1.786158318079186902e+00,9.841573237426498588e-01
1.029829381014615075e+00,-1.161499404675621294e+00,-6.296764457539479887e-01
8.737072516253885368e-01,-1.093053321628801866e+00,-6.582502708918109846e-01
1.299084463009480661e+00,-1.421328898921819572e+00,-8.009581623597783473e-01
3.477862483202967536e-01,-4.108065063033588538e-01,-9.303156252651979818e-02
1.327866597312047592e+00,-1.454770116887359688e+00,-6.750151113027100802e-01
-4.456845913103481549e-01,4.747344871943579014e-01,2.685230918723715554e-01
1.698682059514672771e+00,-1.881581353754754105e+00,-8.956881462712251718e-01
1.519663576694973539e+00,-1.701054581944664079e+00,-8.431129406036739216e-01
9.753764367056905540e-03,1.940951294330296728e-01,1.299902360524414213e-01
-4.008353120677474735e-01,5.490942435288981294e-01,2.347877406906447861e-01
-2.742366295120521325e-01,4.748214312409972382e-01,5.650289853771477133e-02
1.225035632332379665e+00,-1.505728726845994014e+00,-7.531452657981414500e-01
-1.901308597117833177e+00,2.110833582361691718e+00,1.071837215515700326e+00
-1.151502594533818646e+00,1.397550664659443553e+00,6.705810411296488915e-01
6.567050311917913552e-01,-7.751622882966737738e-01,-4.266762052905708202e-01
1.609670017757844462e+00,-1.897365096233243120e+00,-8.840782655318895067e-01
1.250871725126695422e+00,-1.476063717773275386e+00,-7.696416053016791325e-01
-2.909129687877184400e-01,3.001021632675267004e-01,9.076002693596667281e-02
1.335102717865570332e+00,-1.577563900492816584e+00,-6.999493409357717688e-01
-9.302159890889448723e-01,1.104877340303571653e+00,4.649918190703963838e-01
1.871814431234248399e+00,-2.204493688226699888e+00,-9.332539214262093319e-01
-8.289492891103303895e-01,1.153583439131218746e+00,5.037410081190599742e-01
-9.156336656422044973e-01,1.070341223127641239e+00,4.513216834528170351e-01
1.658157980601212833e-01,-1.717478819559391523e-01,-2.955053229713626786e-02
-1.411583964258889434e+00,1.459302464972788593e+00,7.633373377639094404e-01
7.157022535291699405e-01,-8.376881153300402838e-01,-2.456751630552533039e-01
-1.937632856006729742e+00,2.095532427539507747e+00,1.006679190910007682e+00
5.549706302524178847e-01,-6.504789875617952299e-01,-2.414958058124435369e-01
-1.489043099046648333e+00,1.650175624897775029e+00,7.590919216320505258e-01
8.806136773377793991e-01,-1.087671238970486565e+00,-3.603826899874105760e-01
-1.243374683081729604e+00,1.543717212802021121e+00,7.362278007956587489e-01
-4.944371675117369413e-01,5.680117065891288064e-01,2.691341549178111747e-01
-1.290357385028565007e+00,1.529766762132298785e+00,7.298546638855285540e-01
8.704838116505626555e-01,-9.465777274180167122e-01,-4.158288313716742013e-01
1.104936100050645686e+00,-1.269518035845021320e+00,-5.078086567360068360e-01
1.732658898881167087e+00,-2.004639808915119836e+00,-8.527272490806417915e-01
-1.560789162932563423e+00,1.613743707591640764e+00,6.635405976062629385e-01
-1.331919398730998516e-01,2.476126771591847520e-01,3.113220210943105914e-02
6.556460662638377013e-01,-7.548407379571654419e-01,-3.725467355555975857e-01
-1.110872635236778594e+00,1.271030809408034035e+00,5.924457613747829976e-01
1.446940822854674069e+00,-1.566534722641886868e+00,-6.988308809016982037e-01
1.694888003671946031e+00,-1.975692457550084713e+00,-9.598491400065738421e-01
1.818095158700536729e+00,-2.124168551027038276e+00,-1.049665420850250941e+00
7.049650877460227061e-02,-1.264634457890051744e-01,-7.140884835709633560e-02
1.798176842852099000e+00,-2.132207991607300457e+00,-1.030739475415878736e+00
1.926613138246911217e-01,-3.931120577286475459e-01,-1.648465621754070798e-01
2.965249188161402927e-01,-3.654872970956241640e-01,-2.252888139179911320e-01
-1.995749421575944593e+00,2.181540551139322659e+00,1.017410330562290577e+00
1.914274867636572397e+00,-2.018353217902804086e+00,-1.056572134126961160e+00
1.896568292305659931e+00,-2.037030478594586747e+00,-1.056587545606989087e+00
1.860877596474178608e-01,-2.229967803879122079e-01,-4.942736724615095362e-02
1.702177646544088097e+00,-1.868427886012061556e+00,-9.117046400711997789e-01
5.774394847867058145e-01,-6.478887541063473865e-01,-2.925202997806129468e-01
1.189796708286867899e+00,-1.246867720561383841e+00,-6.716694043656156188e-01
-3.084661688119110304e-02,3.283320133662712137e-02,-1.173028189970809487e-02
-1.223442713129421211e+00,1.432644872118430834e+00,7.625364306289533767e-01
-1.727998267173363134e+00,1.830050376305308424e+00,9.403319353956691717e-01
3.633998564656543140e-01,-5.125564602096428501e-01,-2.507618040554822070e-01
-8.488675214828665938e-01,1.014352096707872741e+00,4.546704183868894300e-01
-1.095090285618806947e+00,1.297348294561642135e+00,5.240101510410630770e-01
1.476091180609330422e+00,-1.895888981694135556e+00,-9.601886770637999557e-01
1.190970743678608779e+00,-1.280058122441298352e+00,-6.903559412157247444e-01
7.022462227595133166e-01,-7.207879229933406018e-01,-3.110199174599479477e-01
4.461446353991246894e-01,-5.038306083148682557e-01,-2.872748301689359574e-01
7.385956081605207224e-01,-9.917063807232572303e-01,-3.457327503166305327e-01
-1.667836360285335662e+00,2.030743217781988186e+00,1.095892511323552920e+00
-1.846955826396440070e+00,2.086118113155249532e+00,1.075063878952145169e+00
-1.704778451140857909e+00,1.984274585333511087e+00,8.870803270793089501e-01
3.806108584317295374e-01,-4.053017206731994171e-01,-2.693200758732064992e-01
1.235733772241374595e+00,-1.448519914155498967e+00,-7.216398186745418553e-01
1.630886522002429562e+00,-1.959790628288101022e+00,-9.930252290080071598e-01
1.450226666541900356e+00,-1.603222153559245022e+00,-8.104862768331806411e-01
-1.931831900240787769e+00,2.195118892113635756e+00,1.000593966790301215e+00
-1.648758837832629665e+00,1.817249339708455702e+00,8.232339320328132537e-01
1.663682232320424115e+00,-1.795309979698472835e+00,-9.303055821349374144e-01
5.457826081384290484e-01,-6.463670849868533574e-01,-3.545043325649741006e-01
-1.336417605004590836e+00,1.645095643845170263e+00,7.529884634324768289e-01
-6.553119269212827058e-01,8.971879845572089396e-01,4.426047876670823888e-01
-1.884553441869087687e+00,2.036219320065146388e+00,1.054266589041557900e+00
-1.833477650140830306e+00,2.024158768841867406e+00,1.015490955459874778e+00
-7.469353535823217705e-01,8.833819157153682822e-01,3.358615232787565685e-01
-1.059146832868590016e+00,1.176652328732497699e+00,5.288396409124317410e-01
-2.588114542277766827e-01,3.151991677424089144e-01,1.825342538238776680e-01
-5.027904474943138968e-01,5.194238880490334997e-01,2.997565416352301337e-01
-2.969787584438169370e-01,6.005209288577502136e-01,2.028216696093649296e-01
2.062467241254280215e-01,-2.489202376321461574e-01,-2.388650999935940100e-01
-7.982671781118232390e-01,8.832628702470307624e-01,4.122154064675521146e-01
-1.097257092238960396e+00,1.264717027807889416e+00,6.812619775139564515e-01
-1.468059361195039880e+00,1.592521504599811788e+00,6.606070081724492171e-01
1.464102160385026274e-01,-4.835877691361390590e-03,8.301746694076940492e-02
2.892867654159906876e-01,-5.709874595652101315e-01,-2.314331067955502641e-01
5.008760067766637736e-01,-4.143228551193575138e-01,-1.594909325057538851e-01
1.170286854566505497e+00,-1.410408678731181809e+00,-8.016846903879381037e-01
-4.711441388507391081e-02,-2.278315322670290133e-01,-2.197390869406814357e-02
-1.931967017121336117e+00,2.103974818570103267e+00,9.601102693478007488e-01
-1.400870395519345335e+00,1.590222020198979846e+00,8.548290616106487549e-01
3.905865537959687939e-01,-4.044673021806837743e-01,-2.054479660273221819e-01
-3.186681056486155850e-01,3.211327391145874510e-01,3.160820903614994237e-01
1.395500384797852544e-01,-3.214791821209086325e-02,-3.780947768023071309e-02
1.041891534697810373e+00,-1.234659955101636619e+00,-5.469682775119650842e-01
7.702411327387697071e-01,-8.880950087690273609e-01,-3.833957612145881266e-01
7.128551935000354556e-01,-8.120308123257924393e-01,-4.147752775868953079e-01
-2.907653790183639120e-01,4.123191545447101314e-01,1.490503579314124694e-01
-2.601151222564943022e-01,3.190220733010225018e-01,1.978122368207474169e-01
-1.434912909890202037e+00,1.741712504878644596e+00,8.163477765035841438e-01
9.086428232800954907e-01,-1.010202169104697401e+00,-5.349494003697794486e-01
1.322878086366677586e+00,-1.390515161075100092e+00,-7.282108092199599536e-01
1.628019373307640683e+00,-1.980966837693602045e+00,-8.932890561536444007e-01
-1.127178417157912588e-01,3.334680280048628598e-01,1.467698448114194421e-01
-3.022323293741762118e-01,3.911828844788666770e-01,2.473364851603984116e-01
6.611782541474111596e-01,-8.302421582812987699e-01,-4.266297811871477830e-01
-1.296181176520932787e+00,1.568889875292362790e+00,7.821875375919277174e-01
-2.631393221501621693e-01,3.919001220880525271e-01,2.142844033675506132e-01
-7.524717519948909139e-01,9.138979553061569172e-01,3.885978116510050429e-01
-2.808312633316659701e-01,2.398110179782036444e-01,1.401603268994630336e-01
1.375630796621716501e+00,-1.693959582800816044e+00,-8.305897274904644467e-01
4.225223352968741075e-01,-5.710905315227625678e-01,-3.142428471656611988e-01
-4.700160014738735126e-01,6.007742462564813479e-01,2.708356514605228527e-01
-1.748065300719998438e+00,2.207601226510885528e+00,1.088854668040758478e+00
3.079730601354744857e-01,-4.517728197412649860e-01,-1.418170084489346616e-01
4.943646211788083611e-01,-2.613637579094985064e-01,-3.077838488900985214e-01
4.449076832562928741e-01,-4.471226577950105918e-01,-1.392476043209826819e-01
-1.756763980228723820e+00,1.913868585052771243e+00,8.638728409484313087e-01
1.104572295589960174e+00,-1.330247751776400866e+00,-7.033174164132164341e-01
9.857684798155388339e-01,-1.274903110070893408e+00,-4.895014209789863013e-01
7.096574482343868118e-01,-7.771610269277782201e-01,-4.150437497878694537e-01
-9.389178233760264725e-01,9.333084542129008732e-01,3.960832391898358451e-01
7.545605787237711359e-01,-9.361870499592208628e-01,-4.450783465110900727e-01
9.484871420569102041e-01,-1.006530328931068086e+00,-4.532708890071455166e-01
1.481059485425999300e+00,-1.781670162412502201e+00,-8.172796084171183306e-01
-3.076621185312021778e-01,4.242279926027012760e-01,1.100715609730704841e-01
-1.195704962325745635e+00,1.364004553375923967e+00,6.575263620662907815e-01
-1.586046285723292870e+00,1.757882012439840880e+00,9.074263924554888394e-01
2.356847812286140265e-01,-2.483895104509483698e-01,-6.335152971742771810e-02
5.641777882959810864e-01,-7.444790279052737603e-01,-1.836812630726899764e-01
-6.047914515843252348e-01,6.997905834658542101e-01,4.129870408482909649e-01
-1.104276489694747676e+00,1.228700245156613358e+00,5.017950175004038949e-01
5.875123386709829587e-01,-7.470374051361247103e-01,-2.541207504325911359e-01
1.716401003955674076e+00,-2.090189264003731395e+00,-1.102171966233852718e+00
1.581566084726575783e+00,-1.709329637483055553e+00,-7.926547416924900613e-01
1.560264702224914091e+00,-1.729089920253217283e+00,-9.088204931836230127e-01
6.388399272794754724e-01,-4.568583355741803742e-01,-3.726355782762073576e-01
-1.161293598737826116e+00,1.420372239733005415e+00,7.261031530500918763e-01
1.261600066917077712e+00,-1.546690403525273538e+00,-7.322997829254019875e-01
4.827139742405202050e-01,-5.584571882093507522e-01,-3.442797703548902688e-01
-1.881713333496147333e+00,2.222410155821964217e+00,9.389522365197724429e-01
2.892962561594242810e-01,-2.204638963979100863e-01,-1.145659234682686878e-01
-1.254637868385076294e+00,1.433900844165599597e+00,5.010722926270773092e-01
-8.936668503809699904e-02,1.418848451962495261e-01,9.225185224505940210e-03
8.328399027781366870e-01,-9.927443963208664179e-01,-6.244577365964089077e-01
-1.567257432160924058e+00,1.842166874472462634e+00,8.491063222648460584e-01
9.350405125012345442e-01,-1.103639307276737647e+00,-5.343372274434238234e-01
1.165109695995088623e+00,-1.322163089261197966e+00,-5.395072037009980281e-01
1.732678576103282797e+00,-2.001023898422770841e+00,-1.019720185764439790e+00
3.977988430192652136e-01,-3.865688377606468218e-01,-2.695545081742233284e-01
-1.510035750929669685e-02,5.780221677690097759e-02,1.469486416209877210e-02
-1.062197478011460472e+00,1.220082267510929963e+00,6.174406471117774853e-01
-1.012615978896750812e+00,1.220584606731017763e+00,4.460536471244125889e-01
-5.218217949611548834e-01,5.971777534154695255e-01,2.989666555037329143e-01
2.009559315037301896e+00,-2.153552457901591222e+00,-9.784664418181989731e-01
-1.940102388933119260e+00,2.188526674998279908e+00,9.780577134905117376e-01
1.411222463631166324e+00,-1.473886526148786347e+00,-6.778118829846964122e-01
7.655383841047447291e-01,-7.665515191066364364e-01,-4.787074616379289327e-01
-2.463291942017027392e-01,2.521492014919844982e-01,8.632538488821502043e-02
9.309238703112746594e-01,-9.223061297352234122e-01,-5.353435958329845201e-01
-6.471764362649191915e-02,2.384558999795926837e-01,2.193591756149096961e-01
-6.081280392138300739e-01,6.790793545792279673e-01,3.269128320459600001e-01
-1.048377161431377047e+00,1.214968680452948702e+00,5.362871195308643868e-01
8.278288259011576389e-02,-3.207378566976289147e-02,1.079659291685998793e-02
-1.187110802601542225e+00,1.437026475758537369e+00,6.624031141147483925e-01
-1.216646646706551094e+00,1.355395113077710656e+00,7.491708793478700779e-01
-1.197668668771328715e+00,1.264731057426179417e+00,6.829355284416409599e-01
-1.613860881163655003e+00,1.941379773653822971e+00,9.605162675714217224e-01
7.247517520223334397e-02,-1.597437851795469599e-01,-1.529582349591476417e-02
1.371769829105305982e+00,-1.483946704196603239e+00,-7.685833980195105886e-01
-9.128229869950040820e-01,8.137587869635781734e-01,4.179107344190910456e-01
-2.523537002407232333e-01,2.788156625015702494e-01,1.237494365020750386e-01
1.566985260273366487e+00,-1.856953072557793183e+00,-8.569719281125016686e-01
-4.738061058217165056e-01,5.018997612035137612e-01,3.163378539852856330e-01
-1.613772131189544989e+00,1.867508502613024035e+00,8.886292258316020876e-01
1.839038436543531496e+00,-2.023599570226498390e+00,-9.732223131622642631e-01
1.496729716640881613e-01,-2.696998100543188115e-01,5.489685364355919445e-02
8.726685346577442992e-01,-8.086305623453793334e-01,-4.654178622970326917e-01
-1.485698703279805466e+00,1.661581085755656995e+00,7.448199361557921172e-01
1.870938458458099585e-01,-2.349099797311913762e-01,-1.383598070222074594e-01
6.811031644534577545e-01,-6.472469112725857121e-01,-5.179586587973353806e-01
-2.532425933584844802e-01,2.844450362873530147e-01,8.406549335267356204e-02
1.073023190023422169e+00,-1.194247259185329701e+00,-5.310630045254868259e-01
-1.246634428976655995e+00,1.368830000833707761e+00,8.164532675295367303e-01
7.249419575826390183e-01,-8.801246384988303806e-01,-4.179518436088235922e-01
1.125124605557990654e+00,-1.353446085290578527e+00,-5.973523078354036064e-01
-1.477343256074675759e+00,1.607894672844229822e+00,7.714385574639929244e-01
-1.599176417705425068e+00,1.873762939522311877e+00,8.875117086772298380e-01
-1.931517793280674633e+00,2.090680471800432372e+00,9.231800466284866280e-01
-1.766131735792870971e+00,1.881029859470514820e+00,8.627880172150159677e-01
1.714865626730675829e-01,-2.142879681639893730e-01,-6.330273813858906806e-02
8.362121055736988495e-01,-9.486193638948997586e-01,-4.698473210585761284e-01
-1.895833631574071809e+00,2.301810903901573280e+00,1.086396254124273320e+00
-1.575615532204844405e+00,1.813954829760951126e+00,7.680101448351202009e-01
-3.714439678458466565e-01,4.020804839223953153e-01,2.063762199703704225e-01
8.520905674423473464e-01,-9.944261603471681310e-01,-4.168948227930142081e-01
1.898130105341301777e+00,-2.082148221815427025e+00,-9.058175744661783879e-01
1.100523073652958095e+00,-1.166148617343177651e+00,-4.916144422078291831e-01
1.471694920302364595e+00,-1.696886510557731986e+00,-7.362779598838723460e-01
-3.149476317234820577e-01,3.111922475984520986e-01,2.475233284443420501e-01
3.961471558038808793e-01,-5.678455685050813884e-01,-2.461198061944925020e-01
1.834883202132277180e+00,-2.078778962318866164e+00,-1.040187180782517817e+00
-4.408249246706510416e-01,4.138307606066915501e-01,2.909291550619530486e-01
5.504876575971999753e-01,-6.901574055630605997e-01,-2.040606347138360921e-01
1.217171943015508351e+00,-1.519141682330884757e+00,-7.612503530712152466e-01
-1.768051861154481541e+00,2.038097608715938147e+00,1.033789444689591219e+00
-1.853520289598394655e+00,2.074131259573213093e+00,1.084201597354627511e+00
1.362480597071947352e+00,-1.528813868480914939e+00,-7.860025740125088367e-01
1.972142468598874432e+00,-2.189803933095330724e+00,-1.067842440566437734e+00
9.362270741147372677e-01,-1.090613381009221117e+00,-4.931914015712993149e-01
6.395744776718830238e-01,-7.590471967028670219e-01,-2.366965959844706535e-01
-1.202766461300871059e+00,1.052213063122086067e+00,5.046004098319833986e-01
-5.669070774070428254e-01,6.377103979288560875e-01,2.780574703321403995e-01
-8.191349270147299175e-03,-2.485682806034135786e-02,3.783344691675441518e-02
-1.695348419853875077e+00,1.833019597965306779e+00,9.266851824620785383e-01
1.279283910836925831e+00,-1.453537819266260245e+00,-7.642174317913013049e-01
