3.788587174752345351e-03,-7.856298930687937582e-03,8.065832385015078709e-02
-1.247684346541880034e-02,-1.928976080917824965e-01,3.456472308421920658e-01
1.525412457586464987e-01,2.785490385220945053e-01,-5.115295461336510918e-01
-4.617093244011454822e-01,-1.204195989781363219e+00,2.033763985224448234e+00
-2.336146223736150773e-01,-9.653052411336334737e-01,1.416865321693864033e+00
-3.038302787304941743e-01,-9.869461481522870949e-01,1.501831981937051808e+00
-3.600453766551451329e-01,-9.966972897020659472e-01,1.689660401549122115e+00
1.619837299789193275e-01,4.829596473055079442e-01,-7.290464797675672015e-01
3.099242366241755642e-01,7.032968126185380475e-01,-1.220250405898936963e+00
2.577060936153172110e-01,6.517875968578430435e-01,-9.883964789083217184e-01
1.934313688479108728e-01,6.305803981410100789e-01,-1.041851857501541190e+00
-2.167424474171893989e-01,-5.563908152385913519e-01,7.234131013636593277e-01
1.320636466987572810e-01,4.141856252575047970e-01,-5.416989945636632164e-01
-3.069249307289906858e-01,-7.061011590356820466e-01,1.144019682089221002e+00
-4.717864312370702029e-01,-1.350562732498870711e+00,2.131340549814472851e+00
-1.815117344791647436e-01,-5.279905663425425999e-01,7.660854110199115663e-01
1.618609855313746515e-01,4.438851495368572042e-01,-6.448533377241377762e-01
2.567334641418860808e-01,6.744069643102472700e-01,-1.325538667358840517e+00
3.606294085023917240e-01,1.072805663572066859e+00,-1.721535754435388643e+00
1.900536436266415941e-01,3.646558026816179576e-01,-4.142507101464404928e-01
-3.574987665529461012e-02,6.811051627063463565e-02,-1.896426202420215812e-01
-4.174278031001135703e-01,-1.152512333633597841e+00,1.929397190371268112e+00
3.610783744754400559e-01,1.023259494561615579e+00,-1.718126833131401243e+00
1.026978588175113394e-02,1.733355276397330336e-01,-3.938160607846475925e-01
-5.334312442912860774e-01,-1.326227841147328057e+00,2.162096871543738530e+00
-4.381260318514667573e-01,-1.081292465208804288e+00,1.754560772588809492e+00
1.057229130453244681e-01,2.137546330831608943e-01,-4.436070390830133547e-01
3.169744045323795167e-01,9.868198847742414292e-01,-1.460448904503123257e+00
4.050042126575070789e-01,9.468102263481135150e-01,-1.458751431139905907e+00
-3.085651285077987138e-01,-1.161285917183920491e+00,1.896290872355999690e+00
-2.631900943475290466e-01,-8.448668978546888253e-01,1.190027464420909231e+00
-2.840734941454571283e-01,-8.903169443440439590e-01,1.463038364006530090e+00
7.244536654941706455e-02,4.065566926669900161e-01,-7.909801793291133531e-01
-4.131089639741084008e-01,-1.267182853070365045e+00,2.187527159541785338e+00
-1.817805286115704855e-01,-8.465717794932852147e-01,1.301433916112796574e+00
1.376859031019312396e-01,4.049532132525287542e-01,-3.881151742084283929e-01
-1.636597183962061330e-01,-5.711210452453870934e-01,8.469339875803291173e-01
2.827682740689457241e-01,6.824545948789557670e-01,-1.166365456699117731e+00
-7.015213179833414137e-02,-6.139613761389456359e-01,8.428767755651777049e-01
-1.105568526929682077e-01,-8.904112245126612202e-02,2.193558702631541180e-01
3.314814153107702444e-01,1.375296284636891020e+00,-2.183481078346261484e+00
-4.001239768948727793e-01,-1.299854607879237012e+00,2.000565590541017347e+00
-4.173805140586090978e-01,-1.308908135312126131e+00,2.050506409413960007e+00
-5.178456023667786789e-01,-1.423815791086086024e+00,2.250489084211073632e+00
1.019533378226928771e-01,4.318335101719539271e-01,-7.200727175252559231e-01
-2.112820373200266777e-01,-5.958197451704165815e-01,7.430442278447145776e-01
-1.928713491422817949e-01,-9.762485117469072993e-01,1.497829905442870091e+00
-4.268461173182382801e-02,-3.505574769735970153e-01,4.978575271393136381e-01
3.755252231859038201e-03,-1.489280611870520410e-01,2.549564674975702272e-01
-9.724606782631646518e-02,-3.411179083003274548e-01,6.359691018531566931e-01
-4.163000377529809115e-01,-9.103642935641792500e-01,1.384623249556417468e+00
1.516344608791589930e-04,-1.536274258340427912e-01,3.426287075639105062e-01
1.714288215099778467e-01,1.971834726673840910e-01,-4.832926462711260585e-01
-5.042635270182739271e-01,-1.325966254318042381e+00,2.129521937670924459e+00
-7.456339385127326060e-03,7.658262261066037246e-02,-8.813643740263357729e-02
3.592573251509509347e-01,1.207027618281939496e+00,-2.025409763232391303e+00
5.893492016514435827e-03,2.932660222330919497e-01,-3.452248343678193110e-01
-1.438347373671400309e-01,-3.425727198680692531e-01,6.586863931928695903e-01
-7.935791407867763200e-03,-2.209030909149392596e-01,3.319769851148510753e-01
-1.137954583824738741e-01,-6.785649508808525021e-02,1.205875860523656778e-01
2.225696167045792262e-01,6.025234954548509547e-01,-9.585403206614266924e-01
1.611422209964042951e-01,6.958661874592957375e-01,-9.942712400330663280e-01
6.089978340137162938e-02,1.085482155953881346e-03,4.720526623333191896e-02
-2.604087005092579551e-02,5.403952617328409286e-02,-2.013793952794652453e-01
-4.649334069648085599e-01,-1.436597643230490329e+00,2.373067409340058553e+00
-6.823598553041811121e-02,-5.322674093329686773e-01,7.472501474352433171e-01
-2.854680015629023071e-01,-8.459702728677714889e-01,1.208810727384420414e+00
1.186883136448360077e-01,6.145583892607469068e-01,-9.084726669318644587e-01
-3.468165349320459501e-02,-3.029564943954933254e-01,3.094989900134283434e-01
-1.498129689133637088e-01,-2.176260786865133745e-01,4.698429000176175263e-01
8.982582087154215855e-02,3.109104996963181211e-01,-4.343327897455562803e-01
-2.473985604182028508e-01,-6.205836458393121369e-01,8.778927127062733371e-01
7.294597489554563441e-02,3.268188864142566041e-01,-3.521605102939605603e-01
7.959240013871111963e-02,-4.317138347254647485e-02,1.312203928784683449e-01
-6.376172427383268448e-02,-3.894618912950124634e-01,4.907560267051911951e-01
7.523941731708722047e-02,3.635858640739620951e-01,-6.161114299729103516e-01
-5.141050426014432545e-02,-1.229523172837318074e-01,2.439194901933170456e-01
-1.348509447585033161e-01,-3.997423963760299848e-01,5.074597422325392015e-01
-2.557686447601802415e-01,-6.389993239272787617e-01,1.126821810794572221e+00
-1.105006484707097766e-02,-5.064093920110814828e-01,6.146989846960075887e-01
-4.211613629274431059e-01,-1.482843748091659419e+00,2.140966874856598867e+00
-3.452128201137521502e-01,-1.024209025327609046e+00,1.705145812105189673e+00
-3.213693989193983080e-01,-1.056922922170814738e+00,1.507178882609044868e+00
2.417186456569312206e-02,9.253082190660389533e-03,6.665079004083229730e-02
-8.287963466964597126e-02,-8.220393179664296779e-03,2.340829165637310361e-01
-7.325615421032936891e-02,-3.777448582672300881e-01,5.942781443526473639e-01
2.698449619032207702e-01,8.803877350624389475e-01,-1.348470826224252184e+00
1.402270086335297497e-02,1.861904810568361934e-01,-2.337043545974496483e-01
-5.676487171352715411e-01,-1.424025499237108416e+00,2.322876788141961857e+00
-5.524063848423945711e-01,-1.315750502331239913e+00,2.126826792452461756e+00
2.144421124000503720e-01,3.729510704479610528e-01,-7.069857923371353214e-01
1.707842043245089703e-01,5.621617482670018262e-01,-8.410997175708129214e-01
5.146965527062442591e-01,1.475554318617496641e+00,-2.293980205020524021e+00
-5.948821457089900622e-02,-5.470424690973620940e-01,7.328713278067248149e-01
-5.607300633553597979e-01,-1.460815920604596529e+00,2.377075337872464278e+00
-1.214517629855567105e-01,-4.217721007337952854e-01,6.500021907201396498e-01
-2.657784802877209973e-01,-7.484254104991469037e-01,1.204639724735075967e+00
-1.374069884466981306e-01,-1.659079977563248653e-01,4.370959700261013436e-01
4.462392493050190145e-01,1.280921996877774749e+00,-1.872016542890924340e+00
-1.872286415487284250e-02,-2.876554355197733556e-03,3.099415503195867561e-01
9.648834751513120367e-02,1.301672456160082036e-01,-3.175259744360231506e-01
9.939550662572067818e-02,6.184906863937055660e-02,-2.746751965563529185e-01
4.430668867614501738e-01,1.262247939791746543e+00,-2.102114589434478820e+00
9.494131438079805863e-02,-3.377425484227992991e-02,2.723543266477394115e-02
-6.737851038918879487e-02,-2.375202790847377454e-01,1.495154191110022457e-01
-7.213048032323740588e-02,-1.133868253881148980e-01,2.710435615639545937e-01
-2.993085512341411292e-01,-5.658226005117499291e-01,1.010623484256092164e+00
-7.110206081085644614e-02,-2.312113767872061854e-01,4.628655623093568261e-01
4.472844845810235448e-01,1.474537764519564309e+00,-2.380370562080219798e+00
9.419340742680419598e-02,6.144688520757326522e-01,-9.381241977691298084e-01
1.681968722312128517e-01,5.039207419690311385e-01,-6.281622173732596126e-01
-3.093762820983146367e-01,-4.991927182414283570e-01,8.175445574013583405e-01
-1.738464471380834209e-01,-1.013990704590757908e+00,1.425522515457546602e+00
-4.663742814160584671e-01,-1.300550750456084481e+00,2.115672930974483723e+00
-4.362169127316735673e-01,-1.285407281615203123e+00,1.858524593002064851e+00
7.231812481395225034e-02,6.121573867283865156e-02,-2.280991376927369307e-01
1.055072709288838173e-01,6.204975677167921810e-02,-2.952698913947111592e-01
-1.560554548405782005e-01,-8.046382440945395453e-01,1.111079195020831190e+00
-3.057054248628749971e-01,-1.006695406267619664e+00,1.580664984793959782e+00
-2.377849165726896308e-01,-2.708385058212803842e-01,4.066190051814659867e-01
-5.191059360168822322e-03,-7.969208807312755383e-02,3.168251633483361029e-01
-8.639160401080257790e-02,-3.412102310082379963e-01,2.610195193944383485e-01
2.991034309042726602e-01,9.302238963750083522e-01,-1.689430763467228758e+00
-1.397069757762430670e-02,1.607418014588873623e-01,-4.221682027325790454e-02
3.675985701912414250e-01,1.359821513749169375e+00,-2.234330150148960747e+00
4.397172639218484558e-01,1.286214840660701020e+00,-2.002636212884733702e+00
-4.314115815068392257e-02,-1.047940952382270391e-01,2.702659845065101263e-01
1.454996103484650916e-01,4.148705982465159536e-01,-6.616896429414272918e-01
-3.097910576393074766e-01,-1.035604805789403393e+00,1.512416158667535981e+00
-3.029723270657005280e-02,-2.241400983033260408e-01,1.153214295769633829e-01
-4.563794377422830673e-01,-1.574096374371223073e+00,2.317419113032050948e+00
-3.449989520164375989e-01,-1.144022514195278672e+00,1.780529393445748010e+00
-1.334681763160315282e-01,-4.082430450464216709e-01,5.859998338292407016e-01
1.378768202318834124e-01,2.753803789003562708e-01,-4.611837391671810282e-01
3.043810421602748950e-01,8.775956872329848668e-01,-1.281094588212316365e+00
2.964996217939910306e-01,1.337830068313153209e+00,-2.179835119833614776e+00
-5.316013017547758235e-01,-1.434537778820493159e+00,2.331036551724630979e+00
2.899426959809137672e-01,1.260294277744209879e+00,-2.016202139833159990e+00
-2.471865627803140342e-01,-6.461106346696311453e-01,1.124535510591271992e+00
-5.088743725904243398e-01,-1.291295589798532095e+00,2.116868934173514294e+00
1.736814327877570507e-01,5.815189559732611979e-01,-8.212728096240604625e-01
3.811687613809829345e-01,1.196531535717925365e+00,-1.853643151797001343e+00
2.973946308097430991e-01,9.751908517395202480e-01,-1.593137990881869026e+00
-4.212192163886280816e-01,-1.190551192072283326e+00,1.777354671994761492e+00
5.818683048912504097e-02,4.077247150379795793e-01,-5.951243421666795319e-01
-9.539832588045278616e-02,-1.054152252151250718e-01,2.503224187887729268e-01
1.280814852698672901e-01,4.761387019409267785e-01,-6.527938934438023422e-01
1.371131292136100466e-01,4.136787873475704091e-01,-8.825818076826137393e-01
2.094639693474331099e-01,8.761268145915696026e-01,-1.450349221607860839e+00
3.237038258766662957e-01,8.641547261671082003e-01,-1.499892690604414769e+00
-1.181670093201212940e-01,-3.075226174086323483e-01,4.534882810131193320e-01
3.810133305725253994e-01,1.430559438822983420e+00,-2.218930366319078917e+00
1.083941280636496474e-01,1.117701913455320800e-01,-2.699900670022256088e-01
4.216429256860824148e-01,1.020066621978855226e+00,-1.617037084734419983e+00
3.010171571393469026e-01,9.291911031808643973e-01,-1.400770591117670882e+00
4.044055304320552657e-02,3.438259222932509296e-01,-5.304200189157490808e-01
5.174254580593828923e-01,1.498886032404192381e+00,-2.266789587716137699e+00
3.525114538891761518e-01,1.106676262575871039e+00,-1.818527380889395362e+00
2.034988164548562906e-01,6.312056184741776654e-01,-1.194422456691043521e+00
-4.635827341883509423e-01,-1.347775838108994595e+00,2.044936423362515576e+00
-1.832073523402567850e-01,-4.353266988078204891e-01,6.134214357287146591e-01
-1.934767891414093388e-01,-3.469733136900684523e-01,4.693416225111805007e-01
5.412758079200007399e-01,1.409030682733380502e+00,-2.175917292664954150e+00
3.732532435964715511e-01,9.427787145541842717e-01,-1.676374620235699053e+00
7.438455195300608391e-02,3.051385964032375386e-01,-4.640285436512601724e-01
-4.662119639378862514e-03,1.212829892043966740e-01,-7.679582350258157275e-02
-1.948964723224767548e-01,-8.744747639640628734e-01,1.252297056849219548e+00
-3.454684675124158888e-01,-7.077981216597708514e-01,1.166526958771828992e+00
3.029216063325814168e-01,1.049080044561011560e+00,-1.482595784663043981e+00
-4.724129983377044206e-02,1.151131104764500784e-01,-2.110476902702079771e-01
1.710107649943391761e-01,6.853573610019557671e-01,-9.913169547659723690e-01
-3.996990398665011823e-01,-1.239765208291656373e+00,2.132739951753618524e+00
-5.691325449555317828e-01,-1.269956510772149327e+00,2.224368439441581025e+00
3.556198610238746061e-01,1.167946924464137615e+00,-1.835711522739258417e+00
4.599779470542948029e-02,1.790932150077653717e-01,-3.062685704403658171e-01
-1.190566075023550829e-01,-4.756375348910144019e-01,7.667593704877720961e-01
3.101942211403089789e-01,9.566619596824073035e-01,-1.462120968660828968e+00
-3.313809443787469888e-01,-6.838168144599177101e-01,1.316904425331844486e+00
-4.106544580752986557e-04,-1.932384041838822175e-01,2.727399757233786026e-01
-1.538572227227007760e-01,-5.353914989561562310e-01,8.005015909801120877e-01
2.426216052541659285e-01,8.221653260241310601e-01,-1.177893148163480896e+00
-4.651131541081554022e-01,-1.407282196720635037e+00,2.352932208286857563e+00
-1.538851917484926057e-01,-4.278589936312087727e-01,5.990406168006987553e-01
-1.843491865752748260e-01,-3.969977064283000678e-01,8.497061968109095309e-01
5.500474027967307000e-01,1.629779226047355367e+00,-2.385209116218691250e+00
-1.550298971045969976e-01,-4.250343443997919857e-01,6.553367135763257245e-01
1.288188146096456467e-02,-1.796275767080462715e-01,1.921097459188880197e-01
2.862564239932334845e-02,1.783581376260586493e-01,-2.349949258404520347e-01
2.010725877912106774e-01,6.171205572899316483e-01,-1.058162191136630792e+00
-1.244823902209503397e-01,-5.176181307021955336e-01,6.471948438721503161e-01
-4.086548649940466293e-01,-1.487935623007110575e+00,2.263588927006481732e+00
-2.632638277890687606e-01,-7.111549648301017656e-01,1.014272272010941611e+00
-1.227904898839335679e-01,-3.872602282995483702e-01,4.355070045370686982e-01
4.297165645379074639e-01,1.475890933525007664e+00,-2.275262105735080809e+00
2.053653801964384629e-01,4.734605202671419710e-01,-7.795606655388692685e-01
-1.978122178964256128e-02,-7.561503893186682923e-02,7.407219941850963496e-02
-2.654364990323553330e-01,-8.654911139817883514e-01,1.260672246092629400e+00
7.556005294899044433e-02,4.992171801841998047e-01,-7.918727969371185393e-01
7.197214814672407701e-02,-1.190790039286001023e-01,8.815000267843900450e-02
3.232246823397476043e-01,9.968066751383375390e-01,-1.465937811355569886e+00
-2.213162223411705709e-01,-7.210522798566665337e-01,1.117642884253656987e+00
2.451221740457335541e-01,8.466497565540120895e-01,-1.363189004640464663e+00
4.012747079115946414e-01,1.004747455528023581e+00,-1.769737490669144542e+00
1.586098840902022255e-03,1.956810541824734462e-01,-1.609011887386909423e-01
1.192639800202962598e-03,1.051105820450206202e-01,-1.292723723431857541e-01
2.358724714922712240e-01,4.001805329607307504e-01,-5.206931309331140900e-01
-9.622684071990526833e-02,-3.316325736368593291e-01,3.539562247234759873e-01
-5.911652388433886497e-03,7.885873161888291849e-02,-1.527007049215164669e-01
1.474290466519774523e-01,1.573594920417689391e-01,-3.635004050732325021e-01
-3.080915930921104828e-01,-1.099792494751294925e+00,1.739770308045369918e+00
4.765334112474400308e-01,1.363365820330169287e+00,-2.145877547941297703e+00
-1.891255657475396645e-01,-3.098354330382440680e-01,6.652185714817537843e-01
-1.468580903647641600e-01,-3.248880257544708994e-01,3.640422945495363494e-01
3.229785460840084443e-01,7.363181391413224919e-01,-1.207800986252539177e+00
1.170890776044940240e-01,4.514934028784635678e-01,-8.366349706323807922e-01
-3.240339342657261867e-01,-6.633621299142816730e-01,1.080915356485349088e+00
3.318251826109896441e-01,1.036799645863844432e+00,-1.697480603237322638e+00
-2.730201363580244678e-01,-6.224798455966622512e-01,1.106880250561612433e+00
-4.531503204076830493e-01,-1.324830353919045578e+00,2.200663912444244641e+00
1.934399378809505965e-01,5.975967794339704514e-02,-1.646077301142418459e-01
4.829182054877688771e-03,3.745611649186946224e-01,-3.837119175788401559e-01
8.843870562364851418e-02,2.395164042342011190e-01,-5.058265791284295432e-01
-1.582049210218132995e-01,-7.058315693677917890e-01,1.241341189186764060e+00
2.618820219012385486e-01,1.045617102437442547e+00,-1.664415546440875637e+00
-5.808924412382786284e-02,-8.472370265675019385e-02,4.990624695235583441e-02
-1.930309264364861999e-01,-3.892534793468522269e-01,6.323286107052233929e-01
4.758141077240806149e-01,1.404042408883071857e+00,-2.167627218981412085e+00
-5.367726340228770043e-01,-1.396250773687400359e+00,2.310401761091253281e+00
-1.508032117775606751e-01,-4.575227043941805238e-01,7.667844785308036704e-01
7.102603318006216193e-02,2.258837187647529943e-01,-3.153615464254435063e-01
-3.915829754799158846e-01,-1.355240101842397626e+00,2.004785296653806004e+00
1.670927515907094374e-01,2.238509208572858900e-01,-4.469346025019858559e-01
4.546776537965394605e-01,1.335162525860428939e+00,-2.192564772519322691e+00
-3.029737963791380717e-01,-9.693680147219347898e-01,1.396596626409853714e+00
3.488084656173947029e-01,8.467500426450348394e-01,-1.460982173604284728e+00
4.051275443597786574e-01,1.233010697723544657e+00,-1.862712787227461364e+00
5.331847261988473252e-02,2.460745967742062473e-02,-9.439395529409010110e-02
-1.698802698936228706e-01,-4.673419158613619229e-01,7.772091789369761639e-01
-1.322893843514318379e-01,-1.737826990995264831e-01,3.791573640774299481e-01
-3.669748369780661545e-01,-1.101197775665204048e+00,1.721758858741562204e+00
5.081636734924637189e-01,1.380308575692581474e+00,-2.248133977033159425e+00
5.304476451018536043e-01,1.315991669766933825e+00,-1.980754396171764631e+00
7.095149379801127254e-02,1.756831682343933942e-01,-2.480689903483289660e-01
1.077589542804792827e-01,1.097833556714050834e-01,-1.715696085126427184e-01
6.261869282376363033e-02,1.025359487921232854e-01,-7.819906677509101678e-02
2.156453617153266944e-01,8.074297936721831492e-01,-1.317595329813643135e+00
3.775534145429668698e-01,1.217537918453799550e+00,-1.854045961528338671e+00
-3.320574277453665346e-02,4.125511947318318828e-01,-4.415092889088575445e-01
1.301368721564581943e-01,3.400538654868482946e-01,-5.794128073320307104e-01
2.025939633156093322e-01,5.200824594755747432e-01,-7.771994777803293841e-01
1.007957808443579184e-01,2.139279448664140881e-01,-4.509755310161264186e-01
9.537106103540621271e-02,-2.288733634638875566e-02,1.514031924570963250e-01
1.631121069205789809e-01,2.949094078809317843e-01,-5.239306498632246845e-01
8.364406995263518052e-02,1.680050651313537424e-01,-2.519808884327469634e-01
-4.428394804603100199e-01,-1.354263095816883311e+00,2.155139110681318471e+00
2.737456814592924004e-01,1.000911564255808406e+00,-1.525236183150467495e+00
-1.624567174432145211e-01,-6.308921324290389654e-01,7.872737251814903026e-01
6.627965836538568523e-02,3.082268838830047875e-01,-4.038671612375301923e-01
-5.742930234237039189e-01,-1.343151471585929846e+00,2.282907318726334456e+00
8.485099523464824378e-02,5.513076551051271368e-01,-8.645220049531682216e-01
3.196049873103823935e-01,1.067969982028668774e+00,-1.606606803103176606e+00
-4.204624047556392852e-01,-1.371332816657772069e+00,2.203675771888706780e+00
3.267821342681656027e-01,8.399730068167617913e-01,-1.448568342026719691e+00
-2.975534986256598430e-02,-3.341619844481921175e-01,4.105210211202134363e-01
6.301604696617051360e-01,1.286705012814882032e+00,-2.134149800671433006e+00
-2.832333636247266195e-01,-9.046457972639585510e-01,1.337448250439716935e+00
-3.566937712751747785e-02,-2.215788503513889951e-01,3.539482410351317831e-01
4.542385838916134233e-01,1.531466348404452171e+00,-2.224507666335225231e+00
-7.224868680774239327e-02,-3.212663469227422519e-01,6.699764972729848056e-01
-3.239837089579637452e-01,-9.738817900121802262e-01,1.509212099947597974e+00
4.733486971495973195e-02,3.801657151973494297e-01,-4.256668593445927518e-01
-9.264196182993113260e-02,-2.751319425549172970e-01,5.708521359958489416e-01
2.805783759267656552e-01,6.772730150665166038e-01,-1.255372572472063242e+00
-1.303009631477594910e-01,-3.385997791117534295e-01,6.444046330914223741e-01
-5.351634129405269391e-02,-2.779075564331105405e-02,5.391023168298236107e-02
9.176014298517205792e-02,3.326740198543142180e-01,-4.835619201977078285e-01
1.150182993814053700e-01,3.908993050265472391e-01,-6.240696609484156498e-01
1.794638561766919715e-01,5.614432704243664807e-01,-9.021301764434005444e-01
-4.594332106674121376e-03,1.365598121641392049e-01,-1.868832770920671182e-01
-2.269947146544573358e-01,-5.243321460716429128e-01,8.242060966780331288e-01
-4.496764274909921255e-01,-1.085958948096493293e+00,1.743033715926961547e+00
-2.714054426101757400e-01,-5.515542851851498174e-01,9.130019402154845309e-01
7.665001274591037861e-02,7.293645143590472835e-02,-9.391490127267947130e-02
3.336162308943110277e-01,9.071907008305434283e-01,-1.567367797380178729e+00
-2.558159355312545902e-01,-8.543507887045672655e-01,1.415144074686383258e+00
-2.223789845605066429e-01,-4.244216352096165656e-01,6.749359911358089326e-01
-6.631252555271278937e-02,-2.968857286083714242e-01,2.736242104357717864e-01
1.671260293003724584e-01,5.737860433307994112e-01,-1.002697323443624056e+00
6.744977305090885111e-02,2.559337432861505390e-01,-4.640205401964215270e-01
-3.059590283813931055e-01,-1.197243281707510931e+00,1.848536725030261563e+00
1.465499258484802281e-01,7.341489212411720366e-01,-9.893328597652750744e-01
2.937458265496643017e-01,1.076899920054223081e+00,-1.784651544807143608e+00
2.636604580665043995e-01,4.538397024947534164e-01,-9.015541957225048364e-01
-3.922490032636574697e-01,-1.384604806093541862e+00,2.179661923360680653e+00
2.384136545597217716e-01,8.454628043047393016e-01,-1.437671474487407064e+00
1.668910279510175398e-01,3.530866752095752625e-01,-6.686248875579315909e-01
-2.442317062974592168e-01,-7.307324076890838738e-01,9.962872311393965452e-01
9.025157191653758459e-02,8.077508212357190076e-02,-2.528699485689048232e-01
-2.368942808008552559e-01,-4.973423944174772404e-01,8.271737334012837506e-01
1.571703585466943109e-01,6.194086885248768493e-01,-1.129227949599589165e+00
1.558197694689311130e-01,5.895768689078498825e-01,-8.458727349231460746e-01
1.731100695541286372e-01,9.139437311110308881e-01,-1.422207535406770029e+00
-4.957515912452474527e-02,-1.648098745921034447e-01,2.468941846774005411e-01
-8.541643198645428037e-02,-1.613885168616759902e-01,1.923793494628056877e-01
-2.406849261962723530e-01,-9.686294802551792538e-01,1.560407106661971133e+00
2.101690386742091632e-01,5.297362500364399818e-01,-9.335875343328318143e-01
3.582956859662554949e-01,1.080341072268973690e+00,-1.637697629548417133e+00
-2.917975638623384604e-01,-6.213213584656568367e-01,8.835063793554657208e-01
-2.757573911424336943e-01,-7.147766450424862805e-01,1.150387261187078236e+00
1.469462171332005518e-01,6.615118913946773649e-01,-1.005681611404627862e+00
2.292733353985050293e-01,6.608467263274213632e-01,-9.960476420195981673e-01
2.336957931405596670e-02,7.852165832995834649e-02,-2.185224059751700587e-01
-1.190284083873650589e-01,-3.875621430080195551e-01,4.798774019528659895e-01
-4.856349755626988562e-01,-1.316433840050743376e+00,2.039379391391097140e+00
2.567173485023476268e-02,-3.050912338760695675e-01,4.276290215643221426e-01
1.881022351012615335e-01,5.885755328000109587e-01,-8.797888403540050639e-01
-1.542153535063045533e-01,-5.099585026029511692e-01,8.555215948191119413e-01
1.599757585500920787e-01,7.198830741509986142e-01,-1.085299985082915697e+00
2.000805238360645055e-01,4.792134733588143680e-01,-1.115535152303256838e+00
-1.203223264280649102e-01,-7.743541513770291207e-01,1.086503228993256132e+00
3.435100490384807026e-01,8.311716250945117013e-01,-1.244191266996544698e+00
1.276400732381871850e-01,2.892826102406667044e-01,-6.232697005446038441e-01
4.427318283029416102e-01,1.249130235548311596e+00,-1.821593183665436655e+00
1.023309943423784674e-01,6.064679168435386236e-01,-9.080499424972813260e-01
4.202427817344638328e-01,1.250240458184269432e+00,-2.062661459589128388e+00
3.567323885326550981e-01,1.123226074985107736e+00,-1.747051938668519711e+00
-3.996386046585448937e-01,-1.188470477198295461e+00,1.786855435589336460e+00
-3.033711119007608814e-01,-1.067203802743866836e+00,1.546785399891538404e+00
5.184864367322153944e-01,1.344152558862519387e+00,-2.277448601964001451e+00
-2.365927731096741371e-01,-6.670884341718084087e-01,9.041083459471493944e-01
-3.367740712385527968e-01,-1.447557913562587784e+00,2.133197130291256460e+00
4.120024501019253216e-01,1.042256290908061045e+00,-1.764205963490717011e+00
-4.299701640668315283e-01,-1.238764418166041326e+00,2.018767945772654837e+00
3.736710767063963767e-01,1.301145291578516661e+00,-1.925954208435193049e+00
-2.587264652553743494e-01,-5.206936956705313646e-01,8.919320806247346134e-01
-1.488284857355799129e-01,-3.802483732121595961e-01,5.124694632024482388e-01
-4.895958418764496667e-01,-1.451456186111621527e+00,2.269521504527762801e+00
-2.011890298856597870e-01,-1.954713713069445857e-01,3.455270407336985539e-01
-5.145127553846436941e-01,-1.567294884907734165e+00,2.460243216230517227e+00
3.466175804461911203e-01,8.781020215891510716e-01,-1.527691276320847003e+00
-8.773047460009571197e-02,-2.557294367994785711e-01,6.120907008974004748e-01
4.250478200367174830e-01,1.484072827116302173e+00,-2.292946147359019804e+00
3.887133749315933584e-01,1.066603277682774520e+00,-1.739368701712357801e+00
-2.699648124785624659e-01,-8.736703375103965774e-01,1.311172060494132596e+00
4.224337696446677781e-01,1.198288459326058097e+00,-1.974091328312855831e+00
-3.213207566636614443e-01,-7.511312603413270450e-01,1.158796396064218914e+00
-1.952565286669904476e-01,-1.440007787546112861e-01,2.821623793877187092e-01
-1.038602299370013637e-01,-2.679796211001586603e-01,5.155636254422107934e-01
-1.920992858290843444e-02,-1.787168544852258678e-01,5.440519332091608984e-01
-4.645875265928552933e-01,-1.409939586992165150e+00,2.129266805703226684e+00
2.359552701432148236e-01,3.773919128763379427e-01,-7.569032845099378237e-01
7.991335518114159320e-02,2.224307251888165970e-01,-2.516938968242436458e-01
-8.633069201732451736e-02,-1.730027074308241875e-01,3.447142402294421371e-01
-1.080997083546494653e-01,-3.299370081241274066e-01,4.825599401120476695e-01
-1.140558606236475037e-01,-5.749804370156660349e-01,9.761390219050890549e-01
2.160905132745603863e-01,8.464377375045041285e-01,-1.429907113553066100e+00
-2.985692179332279927e-01,-1.085463302772111893e+00,1.506574147360709492e+00
-1.925969920384224682e-02,8.689427776445637908e-02,-1.444469126710099319e-02
-3.389285687134281910e-01,-9.126252209009495520e-01,1.548078190597344417e+00
9.252737901048259384e-02,2.664095519825293579e-01,-4.391209128674063433e-01
-4.992905934552067243e-02,-4.008187932999796588e-01,4.536518817618527266e-01
2.179783785605457769e-01,5.675658306900234207e-01,-9.809878400597470405e-01
1.576073626244474946e-01,4.160849011898334893e-01,-7.654112936640958820e-01
-3.562517508567866198e-01,-7.370018671908445951e-01,1.180176236020683778e+00
-2.089189985038446273e-01,-9.095901483980448621e-01,1.319298693198777794e+00
3.237898707518174768e-01,1.056518607895919892e+00,-1.689930307905880724e+00
-1.719479031644345901e-01,-8.870093467650480568e-01,1.319768373320092447e+00
-4.510627641020274470e-01,-1.324033118180110380e+00,2.104223091000396728e+00
5.559217509472489521e-02,5.426532750062822430e-01,-8.595438486381673515e-01
3.984899495310819106e-01,1.082162612300626492e+00,-1.901358151446504552e+00
2.502342438403749036e-01,9.576972956704008499e-01,-1.392241618398500913e+00
-8.305200896652056852e-02,-4.004835795909361673e-01,6.057459951705194134e-01
-1.723541594429439383e-01,-3.117704773497997905e-01,6.901437742971860967e-01
-1.693636553805122069e-01,-6.341145317272487425e-01,8.428576429457658170e-01
-3.776709021381777776e-01,-8.638649166956257064e-01,1.355207834040894843e+00
-1.500467488630144175e-01,-6.052698717559727992e-01,1.023724661086589993e+00
4.149083619539942203e-01,1.383641841881545931e+00,-2.292205678016961290e+00
4.969946688783728472e-01,1.471925958404801671e+00,-2.306977959119609789e+00
-1.172828038496185471e-01,-4.401055828116854363e-01,6.192414658863125698e-01
1.090748231234709917e-02,1.425174980822790649e-01,-8.001959933254569612e-02
2.631044312236336391e-01,8.526958294508848457e-01,-1.100534399010067999e+00
1.884494583967264159e-01,6.827390774852020172e-01,-1.060359906348293579e+00
1.095973355954724116e-01,5.503497066701663609e-01,-8.899147612484041847e-01
3.055080921256676518e-01,9.797259085774393528e-01,-1.548438625193928386e+00
-3.145833512640960894e-01,-8.469950560109100746e-01,1.509177251446590651e+00
-4.243955738915214382e-01,-1.073914212525888257e+00,1.697299281206380295e+00
6.282090085528659051e-02,2.001124610500962797e-01,-1.150390694161620292e-01
7.702557487960408344e-02,4.291969972858772908e-01,-5.730787745409767764e-01
-1.609610840258575981e-01,-5.326173692973418250e-01,8.847987768444398604e-01
5.216853015997231086e-02,1.310196324259539358e-01,-1.701966765554120964e-01
2.983117286521815847e-01,8.092139274287843964e-01,-1.207693505322670280e+00
3.549750285668171190e-01,1.330351127562062530e+00,-2.026534765405348715e+00
-2.042443860467572647e-01,-1.078898759462710855e+00,1.553141080785828798e+00
2.534001202750984019e-02,4.902736221162540958e-02,-2.760647059419404220e-02
5.399283746907940218e-01,1.537501610703869259e+00,-2.500132121281867903e+00
-1.121229191006540560e-01,-4.124825715197682485e-01,6.458395129097629361e-01
-2.862657922915306519e-01,-9.136779008131498125e-01,1.356047135561755601e+00
-2.276296282680100591e-01,-4.314092845147010635e-01,5.919940133656728110e-01
1.025514007209035183e-01,4.336203706754365728e-01,-6.244284021513220040e-01
3.015239632735777775e-01,5.824647868018312247e-01,-8.178412545096371833e-01
1.368396677246597193e-01,4.681741717203129483e-01,-6.910483381399877834e-01
-3.838047743902978648e-01,-1.304422725386460868e+00,1.862819213342208791e+00
4.408010395865504250e-01,1.268516591591677178e+00,-2.076335257784720056e+00
-2.004422502085528579e-01,-7.803978772690743915e-01,1.358260512093558692e+00
-1.859549450331927645e-01,-5.339942405083485388e-01,1.008994217346657951e+00
-4.271916055877758023e-01,-1.250625459079204083e+00,1.996170145403586949e+00
-3.073178715144525008e-01,-9.695834276547429242e-01,1.611134419839751031e+00
-4.111414968222346089e-01,-1.152734403114929362e+00,1.733828970640032718e+00
-1.010225541154137763e-01,-5.960370219672608272e-01,1.027029409133261684e+00
-2.620820623201015054e-01,-4.742946128761097446e-01,7.596813946080124280e-01
3.710916966350467083e-01,1.341666789122223369e+00,-1.914277203516562054e+00
-3.218374553932349946e-01,-8.055381915151225147e-01,1.276145865728176121e+00
-4.858303027204746716e-01,-1.300274616096685598e+00,2.134483674600795133e+00
5.133351665047791723e-01,1.553575414522379905e+00,-2.439978503486572414e+00
-4.864411225155287899e-01,-1.488646195431446717e+00,2.273484987870896479e+00
4.118666776862070500e-01,8.315897349549358220e-01,-1.462329754040847529e+00
2.371346956169278208e-01,8.144709538718954978e-01,-1.128736929460555372e+00
4.206584882131486625e-02,2.018003312333091215e-01,-5.112395887657859017e-01
-1.556851787166352308e-01,-6.146986926073186863e-01,6.923729522023062133e-01
3.784009412306353903e-01,1.055666911716570233e+00,-1.737581994093445381e+00
4.853156069219778379e-01,1.349061436062845898e+00,-2.168354131646934135e+00
-5.118595059987873785e-01,-1.443649791442031871e+00,2.235510537379071572e+00
-2.085298154171583984e-01,-6.319793491468379543e-01,1.046174818417010766e+00
3.985686618768714551e-01,1.276490711266571987e+00,-2.084695206754526353e+00
-4.500196664954252967e-01,-1.405970286285121773e+00,2.156484478934291182e+00
1.444026748244419678e-01,4.906743088972150835e-01,-7.110650941762638455e-01
-1.738332891996016150e-01,-7.553545715204112998e-01,9.748207955364767141e-01
-2.476966846389723476e-01,-8.110635797198639807e-01,1.300158037019061075e+00
5.353385804998663650e-02,4.597130127913333086e-01,-6.334334117274249554e-01
5.537317821420613129e-01,1.562192158233534522e+00,-2.324796775870332066e+00
1.338726458055952140e-01,3.445049242099106901e-01,-4.550978693620936766e-01
-2.003860338153383158e-01,-4.827766296904213439e-01,7.402333792704663962e-01
3.597935712018893728e-01,8.596054399324890571e-01,-1.377601545611065958e+00
7.417328253737129340e-02,8.945761901190273091e-02,-1.559463574982985490e-01
3.720027794839986801e-01,8.124985546175457207e-01,-1.346373800055691961e+00
-4.842355062093306461e-01,-1.373661791128977905e+00,2.239839686501387206e+00
2.733809825152621609e-01,9.403103102504604127e-01,-1.397791342705948736e+00
-2.727281356926655187e-01,-8.008340784474334839e-01,1.284979564822321008e+00
6.741048916934196111e-02,2.033408249142756308e-01,-2.902274483917511305e-01
-3.201898075272541777e-01,-9.250668147880367620e-01,1.348613731098470270e+00
-6.123223563691431587e-02,-4.163319222257546026e-01,4.797813570703388653e-01
-1.462972688090234397e-01,-8.488292046464831486e-01,1.290337325366407883e+00
-1.402771978466735570e-01,-3.110620387229339756e-01,6.491948139269179130e-01
-7.150402519527478129e-02,-1.784152214466935282e-01,3.073034650735302353e-01
-4.906753573359749487e-01,-1.415633843989648533e+00,2.043717056395676135e+00
-3.332664221901978086e-01,-1.003867544590135275e+00,1.532257589884259863e+00
5.157713811227140899e-02,8.627825537092004282e-02,-1.238726885849899817e-01
7.300995085290044873e-02,3.099029182821587680e-01,-3.601638962399185684e-01
-1.529506959460718088e-02,4.748740777737320978e-02,9.999117112362140847e-02
3.721004686082994284e-01,1.414439998222798645e+00,-2.178784688365062117e+00
3.783127914103002337e-02,1.878483708437254096e-01,-3.309550892120252108e-01
-6.926073260161657447e-03,-2.933281638128795166e-01,1.804480071833902410e-01
1.963021250373135074e-01,1.492445327327008020e-01,-2.959207352939376423e-01
1.045473920712911564e-01,6.172455849243093651e-01,-9.536304420324350772e-01
-2.615800995292837383e-01,-9.239637544100419708e-01,1.502343550655716786e+00
-4.530522932212271287e-02,5.486131262916400797e-02,-1.815050674683186399e-02
8.484817062381336261e-02,2.543392729260786078e-01,-3.255771439582128002e-01
-1.864651884153911421e-01,-6.182041022609220393e-01,8.106191338697278370e-01
6.001842642870686834e-02,1.772026835250319343e-01,-3.792226608208584260e-01
-4.394990060885609617e-01,-1.330894418335079710e+00,2.039207535476187161e+00
5.123645533451928052e-02,1.895085758180863611e-01,-3.654785228903929539e-01
1.649561399909151849e-01,3.215553429898584947e-01,-5.287799132192289031e-01
-8.774406339881705985e-02,-4.456101759748438695e-01,7.045778153295155777e-01
-3.990219713995212247e-01,-1.078187155391863605e+00,1.741379608389902467e+00
-1.734057730247855478e-01,-5.338388365854557227e-01,8.341417295203613635e-01
3.458723684214871086e-01,1.280827353436900795e+00,-1.889039035210282824e+00
-4.633524305444994273e-01,-9.793716727958833301e-01,1.601630057772422511e+00
5.250336216545294782e-02,-1.157370663470285443e-01,1.827547802451078285e-01
4.586793172204220448e-01,1.173878124394897027e+00,-1.838361669978585189e+00
1.157691320612524305e-01,3.447231809245826506e-01,-6.950702111773937597e-01
3.253874486931651600e-01,1.046534631114481639e+00,-1.651093044274782873e+00
-1.940009589994658723e-01,-9.889723743013604240e-01,1.448877660984889904e+00
4.219433190761646690e-01,1.158628485265631669e+00,-1.837952490961465735e+00
2.047213066965322403e-01,6.926818471182519810e-01,-1.019885047914712128e+00
2.202459366517843520e-01,5.870015916698781977e-01,-9.571156435937044904e-01
2.173268002125053611e-01,3.627874514181059218e-01,-7.188401726854302121e-01
-1.741601413039073065e-01,-6.841748180456435069e-01,1.112227846977406953e+00
-4.632696710061046802e-02,-9.485904120877518275e-02,1.066486669669879650e-01
-1.775302289412852563e-01,-5.141604201821177167e-01,6.622814947145589937e-01
-8.710490523452209949e-03,1.980791595935967875e-01,-2.390003284679199369e-01
3.836571791823453759e-01,1.130313860739600385e+00,-1.597890543676226294e+00
-1.845996295700393919e-01,-4.540158878556074806e-01,7.953689637142876689e-01
-3.095871456736875443e-02,1.858535555984994897e-02,-1.521785338749734873e-01
3.458338482271974823e-01,8.191913522669187486e-01,-1.283389673854691937e+00
2.330048456957874159e-01,4.520390012729399998e-01,-7.441400613587800805e-01
-3.007945823573096589e-01,-7.669610840823909426e-01,1.275253810752555284e+00
2.158287993233393709e-01,6.060792518388432581e-01,-1.071349047487097916e+00
-3.989047374743670549e-01,-1.363979115546414045e+00,2.121724194365074645e+00
4.033460073086282405e-01,1.417403290157927431e+00,-2.163310282651198513e+00
2.353709029095610861e-01,7.157509997663528134e-01,-1.106776038842824716e+00
5.535948318539036794e-01,1.353114398801713358e+00,-2.162734733384171992e+00
-5.560985674368117415e-01,-1.398731480236393931e+00,2.356334783692400237e+00
1.541662977770629217e-01,5.877359126945954637e-01,-8.220516777495395777e-01
4.458027574041272811e-01,1.030570125063519749e+00,-1.805676298430174853e+00
-5.245249953800478204e-01,-1.505616791644733166e+00,2.313264715528345672e+00
-3.898725893638791962e-01,-1.277667182050695960e+00,1.935722373860535805e+00
7.296350544499355384e-02,2.622516550159492699e-01,-3.834769472345023744e-01
4.123555432742174731e-01,9.452721966835823109e-01,-1.595871788548840486e+00
-9.834614398834651272e-02,-2.838864620756798018e-02,2.436956413920815523e-01
4.336668596351509475e-01,1.388392873703082397e+00,-2.265503173919472868e+00
