3.388206044102452186e+00,-5.806529765689701250e+00,1.763109019397772981e+00
-2.713833519060783850e+00,-3.306794268460826469e+00,5.371806445027278443e+00
-2.720011318665296773e+00,-6.215358630406654150e+00,1.399329706878026380e+00
-2.213854950037880798e+00,6.151350389710451338e+00,2.199466137748472327e+00
-6.777743482466800806e+00,-1.574813471821630451e+00,-3.882633914061313085e-01
-1.413576458941672609e+00,-3.222232954273810179e+00,5.950920037664059414e+00
-3.185311319515435891e-01,4.084843521236283692e+00,5.459141038613223529e+00
5.559653123005185549e+00,-2.415090431898292866e+00,3.537491839857910492e+00
-2.305418065530602245e-01,-5.496352115543601258e+00,4.149739990819726110e+00
-3.636596138742208772e+00,7.643048940236985000e-01,6.120879828069043072e+00
-3.907656122050020109e+00,-4.198699347970268114e+00,-4.029553850971485218e+00
-5.982864541086628796e-01,-6.332145416010143357e+00,2.891043030120516555e+00
-9.050839698387070920e-01,-3.138519813537480552e+00,6.145275337395585957e+00
-5.393048742497899006e+00,-7.578122318644036071e-01,4.327311706613456543e+00
-3.452252647489529647e+00,6.105723327098196762e+00,9.802968345654140547e-01
2.803428310325391415e+00,-4.458225944678291808e-01,6.464100558764767968e+00
3.113542895712287706e+00,-1.586556320117116003e+00,-5.937044135666649680e+00
-9.050881710755880327e-01,3.861101214722246766e+00,5.737746457172833381e+00
4.289620803307416352e+00,5.476020396358385334e+00,8.684099553268931349e-01
1.111046275995214438e+00,-6.642268174964772065e+00,-1.846528541934465029e+00
-4.759762703857058241e+00,3.471617269776170023e+00,-4.005096578709070876e+00
5.165300967343807059e+00,-2.095551308078299257e+00,-3.941128613987792573e+00
4.844496442537923109e+00,3.622640910872260811e+00,3.434694082252391478e+00
2.050433936417612735e+00,2.546675850962146548e+00,6.238483026389803676e+00
1.958869478456159552e+00,-3.768107501198285192e+00,-5.498161177030237212e+00
4.440424771047850605e+00,2.149306390269184686e+00,-4.772426485940001406e+00
2.142976102761935397e+00,-6.270968397636229597e+00,-1.924080005503925328e+00
1.712946977774559176e+00,-5.882858060830550961e+00,-3.167318709182590730e+00
-5.131658757707000973e+00,1.741910247104667242e+00,4.456215650039097476e+00
-4.609493118211266172e+00,-5.033632246613947814e+00,-1.811376846171573796e+00
6.545076452366934916e+00,2.578848153351239736e-01,2.261247517664725759e+00
5.340041324427087233e+00,-3.467146112614765130e+00,-2.799005941710736689e+00
-3.713633291534842229e+00,3.112418764981211616e+00,-5.153257604322797114e+00
4.303563574639881484e-01,-6.634539874094308232e+00,1.775775687352563192e+00
4.309437651310744632e-01,-6.909170459989648627e+00,4.981625709521913525e-01
3.733254543193687436e+00,-4.235170562060184274e+00,4.078809396167696555e+00
1.420997493715102422e+00,-4.401145411266130125e+00,-5.086515479516106275e+00
-5.451616387339518255e+00,-1.534125976182785900e+00,4.054774893457759433e+00
-3.204561861041202331e+00,1.140576591356771627e-02,-6.177350200391527046e+00
5.027321116939543089e+00,-4.741278391808047665e+00,1.250338424389741743e+00
-2.365773719179375068e+00,6.055134950728921162e+00,2.499719959903675015e+00
-6.711465443121675811e+00,-2.631915233127409603e+00,5.731212308832704938e-01
-4.538723967295342554e+00,5.324123598575065230e+00,-1.839697596949569497e-02
7.005818731041298264e+00,2.254656763638162101e-02,9.198907232057427219e-01
5.128233114840092810e+00,3.863035736159777134e+00,2.738173353115937569e+00
-3.594955095303627775e-03,5.766263967433396864e+00,-3.722491376616817949e+00
-3.382546971763801036e+00,-5.821908513281602637e+00,1.315447001241546232e+00
4.913121098523633101e+00,-1.469275595081941166e+00,-4.539531226424402099e+00
-2.823884904602399271e+00,-5.857815622914649190e+00,2.500634621090690679e+00
-4.764969864032082114e+00,2.844185025455374660e+00,-4.246815493164503685e+00
4.232268277866912065e+00,-4.047905837862152190e+00,3.600001826859427823e+00
1.375681273637076263e+00,5.595523130687867663e+00,3.963786880912109289e+00
-2.832396357124185471e+00,-6.022732983759842895e+00,-2.179273960900045548e+00
-2.026583505582763012e-01,-4.375468926495761579e+00,5.289891373574724831e+00
2.358120306121488596e+00,3.727298790092889114e+00,-5.349989098187918124e+00
5.978112396794660555e+00,1.820718176173870884e+00,-3.166768631341497553e+00
8.203384155346465922e-01,-4.924509099043439697e+00,-4.828588810590058955e+00
-5.114582006814417880e+00,-4.403512099551715409e+00,-1.108368378603892923e+00
-5.274151173608638388e+00,1.650634508568845860e+00,4.150309840308008980e+00
-6.669420024253711610e+00,1.690960425144264034e+00,-2.257409018597457684e-01
-2.238641961719034512e+00,-2.135644709867653201e+00,6.184731753334236082e+00
-1.333824607676206364e+00,3.042903190068018127e+00,-6.240404540412583856e+00
-6.938066810975062282e+00,-4.700148036204408047e-02,-1.106493566095072961e-01
3.859509713201621839e+00,5.304356360213720478e+00,-2.244161407490655069e+00
3.076199393439154495e+00,-8.418984051415703274e-01,6.238424393264954126e+00
-3.334062007918226822e+00,5.751463969790254538e+00,2.045090321116949106e+00
2.327267299405488821e+00,3.376028761882650997e+00,5.510377203214795294e+00
1.197770395090294704e+00,-6.244368454443608663e+00,-2.699820834245604484e+00
5.582051637473006700e+00,3.252948922712837199e+00,-2.630833612534361432e+00
3.584440972942396275e+00,5.838028588424151621e+00,1.008771657221093632e+00
-1.014353507670589405e+00,6.678619073113590154e+00,-1.716378643322849618e+00
-2.579158044425624574e+00,3.703082395970139773e-01,-6.453093881091351847e+00
-4.148309490807919886e+00,-3.332764125838465041e+00,4.728537860777474400e+00
3.827359587513669226e+00,4.357715123706718430e+00,4.071682528828909575e+00
-3.683372382381843835e+00,3.832365999823300395e+00,4.487428921337150101e+00
4.078425815454094661e+00,1.123674259645215612e+00,-5.584964597535310382e+00
6.900745515567313859e+00,5.507712117352599190e-02,1.619181318083459997e+00
3.438769460466418515e+00,5.837661945989652601e+00,1.182058108296061727e+00
5.047207258196479529e+00,-3.742881209241487372e+00,-2.917884941912603392e+00
3.246031014738098186e+00,6.107824578265052651e+00,-3.535994553803234464e-02
3.997331613595133337e+00,9.720129101813020922e-01,-5.607980436882928466e+00
-2.882494652665028578e+00,-7.013347593556208404e-01,6.255190751715570485e+00
-6.454253042955197195e+00,1.003014473477201962e+00,2.371460579486901477e+00
-8.654628228354219188e-02,2.222826442034512781e-02,6.900472655956716217e+00
-5.128974889227593259e+00,-3.302391265126623843e+00,3.364814834442972469e+00
-3.907786112135646750e+00,8.446826555442581153e-02,5.860530849262353570e+00
-9.453820816908236058e-01,-6.767770966931342613e+00,1.117997217566145229e+00
2.300224310666374450e+00,-6.567577081236738223e+00,-1.023596386541097525e+00
3.014040121691819341e+00,5.620339113583611379e+00,-2.694918361874234503e+00
4.705346538573379256e+00,4.384218677445256951e+00,2.764540209030738716e+00
-4.538473068860386483e+00,-4.329495753941370317e+00,-2.816748546010896526e+00
2.113178507713934895e+00,-4.733786720221940136e+00,-4.717863570503102899e+00
-7.159204855303827886e-01,-1.615018308664452729e+00,-6.830676091230694524e+00
5.765355358435132693e+00,3.891773306402176225e+00,3.647792525207355085e-01
-6.779243317752770892e+00,-5.222059833146210917e-01,2.010858612819504732e+00
6.728053154462956265e+00,-9.103866367308227625e-01,2.096999395846384395e+00
-3.245681145153124780e-01,-6.701692319266830289e+00,-2.176064992547121157e+00
-4.293611153776427436e+00,-5.374821977667729733e+00,1.208970785717471547e-01
3.818728649664218655e-01,4.123363386043529033e+00,5.628753022065705380e+00
-1.710720845978166871e+00,6.713476975571034622e+00,1.354143643964712818e-01
-5.966439236473165764e+00,-1.725544851574831950e+00,-2.970714868025131405e+00
2.909413462627118196e+00,-5.088898415068626946e+00,3.896910187374615475e+00
-9.214929698969955840e-01,-2.860570288012774243e-01,-6.887311868938549075e+00
-5.375266174134277541e+00,1.958217131780912279e+00,-3.706493901105955668e+00
-3.749683661205400198e-01,-6.404365376774566521e+00,3.026041107947372577e+00
-3.776206504493714089e+00,-2.154331655692968805e+00,5.556641109798949429e+00
-2.272314930702294955e+00,-3.411241108558044743e+00,-5.682216574868028225e+00
2.071411909449363264e+00,-2.682151419173505261e-02,6.646160964247456171e+00
-7.149783376157011405e-04,4.902346468644677380e+00,-5.020247479318604711e+00
1.001675535013602403e+00,3.206131291074762135e+00,6.057267276771774789e+00
-1.898391773640129454e+00,6.675885574309115000e+00,7.743016160468133569e-01
2.198538903552459622e+00,-4.594268617559563950e+00,-4.726062999144588161e+00
4.538069901852943566e+00,-3.122819917588008032e+00,4.206032139282931404e+00
-4.909646793076706039e+00,-3.107804787040300276e+00,-3.847391146512745053e+00
-5.032205069152053678e-01,-6.741586904988413842e+00,-1.522996076725081194e+00
5.238823061404255910e+00,8.555171775935472844e-01,-4.550056388298064469e+00
-2.309121127619639058e+00,-3.004457730146088412e+00,5.880908312849802755e+00
-2.275863755163059388e+00,1.405099152660906681e+00,6.489245569988357332e+00
-2.172083700074795232e+00,-8.232746623860160984e-01,6.714029609627241157e+00
4.224357574820285954e+00,2.471397731447669610e+00,4.935364359815106461e+00
5.932360036150595484e+00,3.677024414660885032e+00,1.424053148920008560e+00
4.635746901957112698e+00,5.155148572625868120e+00,1.241819900478701388e+00
4.629213362056285419e+00,5.186537136690430927e+00,-8.987683401648087766e-01
-5.785234794998562080e+00,3.377233091167688883e+00,2.006890276030191433e+00
6.646171471524122687e+00,1.292394876958401051e+00,-1.916090986447238631e+00
-5.867667619352599395e+00,-2.412497333497285457e+00,-2.945717479194911004e+00
1.968296663124263546e+00,2.988132638137614094e+00,6.023637324896305323e+00
5.321123592842647021e+00,-8.254063821953679936e-01,4.337667126379682436e+00
4.562345241512012706e+00,1.884568094852051123e+00,-4.700084573389953668e+00
6.194673515934534969e+00,-2.517030177530437673e-01,-3.387504977108861670e+00
-5.492478505067823313e+00,4.307237090241938238e-01,-4.343270251438023699e+00
-2.759441723146020209e+00,1.540010693267854114e+00,6.178930163643773454e+00
6.686934844405451273e+00,-1.142402929124890276e+00,1.594091518451909995e+00
-2.004020363854300824e-01,-6.520627524536299013e+00,1.992862019872017054e+00
6.204976325168496842e+00,-1.177344041616573911e+00,2.609013440513646920e+00
1.443628687809200173e+00,-2.489529646095202331e+00,6.441001920741058484e+00
4.828810778809350168e+00,1.267864135718405505e+00,-4.826174513546947153e+00
5.192157066083722405e+00,3.151491784904990823e+00,3.206819836777552446e+00
-6.722661582841491956e+00,1.196850679005865059e+00,-1.032914979613970274e+00
1.523640888361963208e+00,1.648221120386757610e+00,-6.662247987060053056e+00
-2.840644801486817084e+00,6.154619120874601279e+00,-1.480672940239236679e+00
6.912778281828924065e+00,-2.266940666614629118e-01,-8.604341471525116247e-02
-3.085814099863355864e+00,-6.370093959749701717e+00,-4.660805826528950369e-01
2.534045167279681987e+00,2.495634667680912244e+00,5.932599813891648921e+00
-1.114585528025049399e+00,-4.211617863327298927e+00,-5.392131424460973044e+00
-2.613369515303008317e+00,-3.254773467551820954e+00,5.486232722229290815e+00
1.484588836446160798e+00,6.013829110639657749e+00,-3.204611135105975173e+00
6.526294579578197030e+00,1.130932460179434385e+00,1.856744822729373912e+00
9.257779295376717954e-01,-3.841750344246487092e+00,-5.735521927310232471e+00
-1.328733681759547869e+00,6.447953120734235100e+00,2.290310765438661189e+00
4.746415846076044609e+00,-3.366267740665399355e+00,3.716317938227907902e+00
-3.065723080203458295e+00,1.114162472651593072e+00,-6.169897714228450347e+00
9.948073980086050705e-01,1.158205445553125879e+00,-6.835483065228729949e+00
5.913697283932027204e+00,3.847982553505813641e+00,1.640592684085893649e-01
2.178832971064632584e+00,5.723578922569077854e+00,3.343754562620740778e+00
4.757320814536442732e+00,-3.435593007541654309e+00,-3.779038616131199735e+00
-5.050467446871339305e+00,1.602032904142400405e+00,-4.523348296261741730e+00
-1.832724863613106603e+00,-4.224328334452610356e+00,-5.214654086281475642e+00
-5.240752369528644650e+00,3.496497980787394155e+00,2.848945672265726259e+00
4.383949121644995728e+00,1.967614909349967078e+00,-4.968477077896269023e+00
-1.229914211091071019e+00,3.446901779057538917e+00,5.956740747211861198e+00
1.739594158909692379e+00,-6.605635400184418415e+00,-1.669301760762487374e+00
-3.197896453405858264e+00,7.068221471582916138e-01,6.239444653214308190e+00
2.663252722507252201e+00,-4.520767918295963916e+00,-4.526694535204528691e+00
1.098899075080051579e+00,5.514072699911266362e+00,4.117030082192425944e+00
4.853453803428677382e+00,-4.585559497882151447e+00,-2.070678479342772160e+00
-6.549705662048374677e+00,-9.206726682563102226e-01,2.152487537579156118e+00
2.436051383174542284e+00,-9.465471196161736600e-01,6.470965548221809804e+00
1.304638056831834758e+00,4.341462156379313875e+00,-5.369311463808075224e+00
-6.602938094110934131e+00,-2.374033054774311591e+00,1.659910161049898136e-01
3.716128361480396158e+00,-2.718453470935419780e+00,5.128445146984661029e+00
7.551658657889442905e-01,-4.097589003494972459e+00,-5.677920656164789470e+00
-6.796836861619681258e+00,-1.520734292124082065e+00,1.250860132346873543e+00
8.980915290969397891e-01,6.315732342223616236e+00,-2.846858083914378668e+00
-2.103063908360171652e+00,1.257154360357219947e+00,-6.500932547720651655e+00
3.493450543087695870e+00,-1.840266814008607144e+00,-5.799168853114131217e+00
-6.881096036767512913e+00,-1.744399770411438899e+00,5.379541377398971980e-01
4.000063375402369559e+00,8.753341404807900572e-01,-5.749884788981944439e+00
3.486946357533537544e+00,2.167806572767410955e+00,-5.545735374362443793e+00
-3.431717805080579442e+00,-5.505566799661816724e+00,-2.868631753957290975e+00
7.640885652317711552e-01,6.544348527895219370e+00,2.615446120261557983e+00
-2.178464581571966097e+00,6.322050745966715013e+00,1.929768659637209671e+00
-4.088528918966608749e+00,-4.958359005374961548e+00,-2.643822336121483207e+00
-5.409433964147797980e+00,-3.380880540911892496e+00,2.818438065662252523e+00
2.498754301181190129e+00,3.852411802414435371e+00,5.278385675391101373e+00
4.308908011238158586e+00,-3.458736859754698578e+00,4.254114479588268161e+00
3.456324889262087030e+00,-1.959217319207338937e-01,-5.907109273491760959e+00
1.407479145901582518e+00,6.789090511850406351e+00,7.096489390822361409e-01
2.198982095387352675e+00,-5.759354004021125739e+00,3.290957210147050560e+00
5.172952558814567503e+00,4.188726357413341539e+00,1.725866498281109385e+00
-2.977116860702543999e+00,-3.665672559726266933e+00,5.075595707159537007e+00
-2.195416451183503093e-01,-6.808294377178582657e+00,7.539644494361344984e-01
1.972578414516189982e+00,5.715961148795588365e+00,3.693959546535546590e+00
-6.523773430598693857e+00,2.120527758387634520e+00,-9.437920301723042860e-01
-1.525279064338704416e+00,2.057114815834427457e+00,6.525326721617258130e+00
-3.687670809639278069e+00,-4.303239996201390305e+00,-4.129853157716627088e+00
-5.129566781593399405e+00,-3.414721667961984508e+00,-3.062098460949079559e+00
4.182111748522759243e+00,4.443066385152643960e+00,3.272402605942770215e+00
3.440425828203181435e+00,1.484593447917244458e+00,-5.877696183328054325e+00
5.971146636054871948e+00,-1.008276768536441104e+00,3.395657758378895164e+00
-5.328222999502260748e+00,4.267793387507547997e+00,-1.268886282040501134e+00
-1.239118427153960367e+00,-6.481631071901001739e+00,-2.481115124356553459e+00
3.852626017566433081e+00,-5.454643549122939028e+00,2.247876488718878463e+00
1.718975684956530525e+00,1.434617422913223805e+00,-6.607129347231569305e+00
-8.907876842567324926e-01,1.707497800407941524e+00,6.692223039389885386e+00
5.866730327610437890e+00,-3.892324798207201564e+00,-3.109343316913433797e-01
-2.938321945639390087e+00,-5.746236762945590826e+00,2.627189577769376339e+00
-5.950176033203263160e+00,7.120128888099942488e-01,-3.820543989966164844e+00
-1.134886692140445685e+00,4.719649259370350514e+00,-5.045060379806795225e+00
-2.042935306046825161e+00,-6.006790350977333048e+00,-2.834129317488646382e+00
-1.127352179259057285e+00,-6.524552549442819149e+00,2.482235685835100014e+00
-1.064204732865813297e+00,-3.009725375989755314e+00,6.229499398158106160e+00
4.679401734459645024e-01,3.696647785705481581e+00,-5.707258859270656792e+00
5.163394936915652877e+00,-7.424394161089935273e-02,4.593073282199724439e+00
-2.837866247756292370e+00,2.684664309013024663e+00,5.754387879784205850e+00
3.518549601802563487e+00,-6.662588801856293985e-01,5.982060886606750394e+00
-5.304371842563186057e+00,3.445721830573693634e+00,3.046967170325317387e+00
-5.161914701338181644e+00,4.289621748113550126e+00,-2.261819552170083458e+00
-2.733638449856297115e+00,-2.929349501610631457e+00,-5.610968886085996310e+00
-4.489677686035206783e+00,-5.002397349615384847e+00,-1.753104339020084890e+00
-1.813420464179129610e+00,-3.579552235907257351e+00,-5.673839989956420027e+00
3.200192300845112747e+00,-5.652075289553526449e-01,-6.252623510818288821e+00
-6.065945175254497279e+00,-3.208691863790399168e+00,1.452973892037733306e+00
4.217410563075478791e+00,-3.711037339536737090e+00,3.963636807872322532e+00
3.264950669617975532e+00,-5.254933393662551744e+00,-3.054348346279116999e+00
-6.796772077965026249e+00,4.698108921808575450e-02,-1.735097859966878042e+00
-3.298349786107574122e+00,5.110592140298041430e-01,6.171229829005143053e+00
1.996057805924273065e+00,-3.084036462877934426e+00,5.877189322229504853e+00
-5.008158011039847146e+00,2.081447658629110631e+00,4.372311856119327267e+00
3.581940613403326035e-01,-7.477061722234703556e-01,6.827305804974341363e+00
1.646120626225415551e+00,8.824919336738263898e-01,6.727854221434244941e+00
-2.282123240605095749e+00,6.600897283287900486e+00,3.569330011110175560e-01
3.947001650859180977e+00,2.052349392704332587e+00,5.380374029578207207e+00
-3.585768634663397236e+00,6.949832452823209161e-01,-6.048589594403369851e+00
5.507136895281797173e+00,-3.854402690642459106e+00,1.742033800823989731e+00
3.842156619446750465e+00,4.813469052986169672e+00,3.339993088506819419e+00
-3.142768884223798409e+00,-6.231156238234438760e+00,5.659729196029580911e-02
1.850207041957735998e-01,-6.089502224920551043e+00,3.464009435070983578e+00
2.288255173397502507e+00,-2.606911940458074728e+00,-6.084671794399781675e+00
-2.638846911655030603e-01,-2.721461672099874995e+00,6.426948632085479396e+00
-1.875558174338105122e+00,6.539346839016002555e+00,-1.688807305771664158e+00
-1.764939156325475933e+00,-6.798570317421379627e+00,-6.565734589976377489e-01
-2.063260006691241433e+00,-6.432939902438667090e+00,-1.733323115423857308e+00
1.157921095297080205e+00,1.353303088851435909e+00,6.710280299922811054e+00
-1.185063362446771906e+00,4.918109433604091585e+00,-4.768924615320952576e+00
4.060455321804738560e+00,-4.559669031450966692e+00,-3.381578003315551584e+00
3.069455379376896609e+00,-4.184729098507286693e+00,4.843679160735303135e+00
-2.711086892664881898e+00,6.176180583580724637e+00,-1.698834896749441770e+00
6.539814146774247661e+00,1.472166622748088072e+00,2.633296784807918289e+00
-2.797208662152850689e+00,6.300603867049267670e+00,7.921341126248570008e-01
8.847321082190774677e-02,6.455248920524801370e+00,2.808938513029456630e+00
2.552465555092730654e+00,5.951252328723642293e+00,2.266846801894272900e+00
3.849915881535798334e+00,-5.343996195004567795e+00,-2.398657941521784132e+00
-1.469737378222356172e+00,-3.599936151205114676e+00,-5.868814458779726628e+00
-1.565838961762366477e+00,1.463823665503919180e+00,-6.651392996454545958e+00
-6.799752692905392415e+00,-1.719680203373041172e+00,2.440624520793786001e-01
9.126720888731543191e-01,2.995553490786152739e+00,-6.125806603484382329e+00
5.990334820544227057e+00,-3.675601408722907193e-01,-3.748905390453991515e+00
-4.054985553986663604e-01,-6.860591138339592554e+00,1.030664507126161977e+00
5.220807547329151532e+00,-4.413093748146168060e+00,1.400394980303949710e+00
3.889603690614760634e+00,-5.041929140409862953e+00,-2.988351650453615616e+00
6.647012004364111881e+00,2.047922573965731630e+00,-6.703706060740920458e-01
3.241042260351180815e+00,1.175020116461611197e+00,6.171399531379730519e+00
6.368939412670489908e+00,2.943668679143089051e+00,2.895491546289634122e-01
-6.708394788678811338e+00,8.541129467298358424e-01,2.046749643133913832e+00
-1.636751171866214660e+00,1.347079734834201181e+00,6.693788675616525907e+00
-2.031306882151776350e+00,1.339135247922720318e+00,6.512780590972563566e+00
4.193607403306372383e+00,-3.750708814018438364e+00,4.227773449589808941e+00
5.112628275437389291e+00,1.778279943883386505e+00,4.405086469023063778e+00
-3.536376962897595622e+00,5.321406335882223004e+00,-2.873179423874343108e+00
-5.154233519314757039e+00,-4.225583206364342814e+00,-1.130203285994240359e+00
2.236362789438971266e+00,-2.366830650957000515e+00,6.218773479688103123e+00
-6.072574028052065920e+00,-6.534640284574176894e-01,3.441207002578762442e+00
-6.865762803707826656e+00,-1.900562376086331273e+00,-8.079342377519627139e-02
6.122960565409221623e+00,-3.173890756354027953e+00,-2.610630483962806947e-01
-2.426099185828207272e+00,4.539752513097762510e+00,-4.792295579219733703e+00
-5.901798939023525925e+00,1.087313282408208570e+00,3.435413988382912009e+00
6.873412926344355078e+00,-8.871899118019618280e-01,-8.184080606072809960e-01
-3.250754984231058131e+00,6.129208099673683741e+00,-8.124916476731324222e-01
5.070016449113525780e+00,3.584890820026193747e+00,-3.062378505411547547e+00
2.065164395464723857e+00,4.859445030192381054e+00,4.761479276376166858e+00
6.944351121637664104e-01,4.574912013787190368e+00,5.122686951518862664e+00
7.059813845988871073e+00,2.790536894953827077e-02,2.971344857041139376e-01
3.094452142613537404e+00,3.872962023324758807e+00,4.819662990127089763e+00
-3.902699191487720487e+00,2.846190532738057111e-01,5.947780520708917606e+00
1.055613027013134975e+00,1.197195666105344003e+00,6.833790241178999914e+00
3.819405744639706057e+00,-5.119896034140261953e+00,-2.738524003525706796e+00
9.720108863755545503e-01,3.057342835172652595e+00,-6.181095638575210494e+00
-5.054679334688197301e+00,-1.315455911393069277e+00,4.648681087669913836e+00
9.087876775932126616e-01,3.960273502993792771e+00,5.776840187081333511e+00
-2.955010075634966871e+00,5.151956798936747184e+00,-3.610559515761602611e+00
2.268343964363583876e+00,-6.593915219718240905e+00,9.767014746623101651e-01
-1.326995245842983451e+00,6.301625610213119622e+00,2.455063518082380991e+00
1.520516053014752345e+00,-5.052886289525991614e+00,-4.626145438681316335e+00
3.325924880548724594e-01,7.016481074611747637e+00,-9.595972166048490903e-01
2.361657180909740195e+00,5.716951257274453191e+00,3.563376493062136330e+00
3.496875295998879363e+00,-1.806972379625989777e+00,-5.814770334136939667e+00
-1.858893912370042534e+00,6.601311171706496950e+00,1.339063357783663699e+00
2.235677195749282919e+00,6.587145780686837426e+00,-1.042992816627531655e-01
-1.453523415787130402e+00,6.890743244414069046e+00,1.630756627863175559e-02
-4.087669592598664359e+00,3.016569829453704887e+00,4.756110169335356019e+00
6.499131103247284713e+00,1.437210354641427212e+00,-1.462350827229397021e+00
-2.213918743363175512e+00,-6.081575402587573898e+00,-2.580485131590121828e+00
-6.695801416428964536e+00,1.989977618966419226e-01,2.058349719743629791e+00
1.833120846843033336e+00,-6.539745762624986358e-02,6.658397709512025031e+00
-1.936392670553362283e+00,5.727993843138300178e+00,-3.478954280686736844e+00
3.098779607886412713e+00,2.210468332432529159e+00,5.889110311163636702e+00
-6.193337080659730987e+00,-1.058678057703339892e+00,3.045947601526300286e+00
1.736030140404993372e+00,-5.033171702575870654e+00,-4.475749355671683638e+00
-6.724968370824567110e+00,-8.178345113233274066e-01,1.926865552742729193e+00
-6.537757326228782695e+00,-6.572769495118659933e-01,-2.378702040875541268e+00
8.433491001198503145e-01,-3.683863366185043287e+00,-5.993396864156266268e+00
-1.518725970913887169e+00,-5.820837931971222901e+00,-3.696785363311604566e+00
-4.772479636672022907e-01,-5.523235350904494467e+00,4.221971829730399861e+00
3.887691376538700450e+00,-5.306013322639462793e+00,-2.455316170697168676e+00
1.089101274424804977e+00,-1.043613930028476355e+00,6.899150460542710306e+00
2.885162450955302216e+00,1.335589381246118812e+00,-6.214799817904747670e+00
1.824577546234726233e+00,-3.660612189235965097e+00,-5.632417113372738093e+00
3.413556588031553929e+00,1.409068057472655511e+00,5.861852999698396793e+00
9.714359636214937588e-01,-2.626814544498992987e+00,6.368295911037885837e+00
5.145965309840697444e+00,3.962713183471285650e+00,-2.452012488599381257e+00
-4.995648032600247035e+00,4.748854818309490078e+00,1.654674192798634147e+00
-3.004734608872331236e+00,-6.429247663144852076e+00,1.601286665914402330e-01
-3.442917433717361142e+00,-2.869407059439022412e+00,5.265554000406013735e+00
3.315943849020991152e+00,-5.774420719680144032e+00,-2.045965654299592096e+00
1.759159771396147542e+00,5.173685118642369574e+00,-4.375571509511612334e+00
-2.761444112884027025e+00,-4.494525750088467220e+00,4.724034372128465442e+00
-6.170095179725385570e+00,1.342470720580294152e+00,3.006307520641541053e+00
8.726162717310415040e-01,2.741431216521917680e+00,6.442857510395349152e+00
6.117338476948386727e+00,-1.470404829082469611e+00,3.088593749097126917e+00
4.430356867321675551e+00,4.564051818861342369e+00,-2.952750851787827813e+00
-4.842668484977528998e+00,-2.055197676525267969e+00,4.549403217964174573e+00
-5.453047462729495587e-01,-6.131328830761542115e+00,-3.383383504011534981e+00
-4.218626455482686666e+00,-1.462616811511268544e+00,5.253277431650855256e+00
2.985949199120142783e+00,-2.609126711339406324e+00,5.746425138849403425e+00
-5.971820325388002004e+00,-3.231053391211142767e+00,-1.436160332687775210e+00
-1.535606298638552358e+00,-5.175059730332129959e+00,-4.559350215138414875e+00
-3.174508683249782859e+00,5.353371689703207537e+00,3.143432106890663214e+00
-2.428625177986501793e+00,-3.062348380841382944e+00,5.848617680865732638e+00
-1.012430697727235041e+00,3.187360972071797249e+00,-6.080350833134234634e+00
7.881675940332968366e-01,-6.822998411763174786e+00,-1.011381730996821826e+00
4.320841485021210460e+00,-5.151494858150893918e+00,1.453379494827891749e+00
4.140762084304657087e+00,-2.561867626381764573e+00,-5.017478898109041907e+00
1.453939719117078866e+00,-4.375594884034695653e+00,5.197249273271948411e+00
-2.311140125168181569e+00,5.302688689220123486e+00,3.982812420398073705e+00
5.117308560393035499e+00,-4.041660945671215366e+00,2.572670169402187845e+00
-5.046501328439259026e+00,-2.710173995752945597e+00,-3.859579617996514056e+00
6.201181962733529396e+00,1.798490539429105750e+00,-2.576785624376916495e+00
-6.496355228187029596e-01,4.557345701580633346e+00,-5.242208672037817152e+00
-4.633256231784708135e+00,-5.297664898153877644e+00,-9.103048541993067344e-01
-2.567536231926287993e+00,-4.359071059721556729e+00,-4.764063046678614910e+00
-1.645972333331589654e+00,4.500762445320002136e+00,5.053312989878468997e+00
-3.533788334974135470e+00,4.905944390169177716e+00,3.611980687052628980e+00
3.279651036730394931e-01,-6.464563164911423243e+00,-2.348091692152155741e+00
3.389071376430056404e+00,-5.731783078182273172e+00,1.860358650258499891e+00
7.767723494705679466e-01,2.265312771823011495e+00,6.515139573944003004e+00
3.237557194065088240e+00,-4.692906057565922051e-01,-6.133106975219838830e+00
3.031472132843756384e+00,-5.837740149055537842e+00,-2.077908302765614668e+00
5.910812064215088313e+00,-2.263234198910370587e+00,-3.089918851490971452e+00
-6.855017751273605464e-01,6.117189149826803174e+00,3.341838899984472366e+00
3.136206741556549993e+00,1.210797773279695511e+00,-6.130818725001264902e+00
-1.222488894700942200e-02,1.550134997901647438e+00,-6.793106580037072462e+00
-1.786324513294783034e-01,2.672755198249327613e+00,-6.357644215636701901e+00
7.995180491480011753e-01,-4.777341185348332075e+00,4.985520005083388106e+00
-2.216475726200635599e+00,6.598387546526300440e+00,-7.019150892327689073e-01
-4.652369028603788315e-01,4.096494866604710516e+00,5.596368512627210023e+00
4.503957098191147423e+00,4.493350214117175057e+00,2.939463942256669959e+00
1.763344037562410982e+00,6.681955373235398454e+00,-1.401406248120943054e+00
-6.783271949979211790e+00,1.121658905469544942e+00,1.108988726420831572e+00
-4.891669033712664039e+00,-4.874015151550382008e+00,-1.234971580896318644e+00
-4.330112189947363355e+00,-3.852434141606084328e+00,3.802337148521371724e+00
5.315520469136006732e+00,-3.754725384197542759e+00,-2.702818266437639227e+00
1.262633586281674880e+00,-6.556061570286618512e+00,-2.131983121130770265e+00
2.810148353501187302e+00,2.381787701898991916e+00,5.860753072374826012e+00
3.137731834921665630e+00,6.213096891232653185e+00,-5.970444809406696418e-01
1.106961147201072748e+00,-2.977478584671140016e+00,-6.172900638800793871e+00
-3.886394219419307738e+00,5.606058854483620735e+00,-1.400192962279905640e+00
-5.014180237134485019e+00,-4.082282082598217343e+00,-2.491754255650250993e+00
-9.488605161182243064e-01,6.900900292735091313e+00,-7.643452338858472972e-01
-2.412425747814287202e+00,5.113298142334157248e+00,3.964898234692773915e+00
-3.881511619437727489e+00,-2.380300760093649437e+00,-5.401793716163610704e+00
3.459646501062561885e+00,-1.409235970320724007e+00,-5.993488638073015906e+00
5.320331869979481709e+00,-6.836145382201851417e-01,-4.590389717943234693e+00
3.444865320478270654e+00,3.421995396378155085e+00,-4.931780382035500843e+00
-1.699874221294708443e+00,3.391177105344389098e+00,-5.808679690926581429e+00
-3.187707660162327983e+00,-6.137740934123797842e+00,4.847125226568144152e-01
-5.750933274284689922e+00,-2.493476004866247153e-01,3.767183353547539859e+00
4.201022864523276112e+00,-5.305718485174586441e+00,-1.087288524729672634e+00
-3.629880392235545816e+00,2.173536277764445135e+00,-5.659114159980473957e+00
-3.589992942895209538e+00,2.457950859093490870e+00,-5.554467583116583285e+00
-4.187100861380438133e+00,-3.562457639703746626e+00,-4.459955557975807672e+00
6.070631612885943440e+00,6.049235563387683756e-01,-3.230131092642020363e+00
6.509819699419855610e+00,-2.523565858531011230e+00,-2.606204722250610173e-01
-3.834331720110300434e+00,-3.627654075264659994e+00,4.484641009253006239e+00
1.286251072053542499e+00,-5.079302055725904097e+00,-4.617950883580767218e+00
-5.965285898003827469e+00,-3.748159527450463990e+00,4.386794879759592369e-02
1.744748650884900165e+00,-2.724591978941369952e+00,-6.173524573204577592e+00
-5.202525072601318357e+00,-1.681550007680433279e+00,4.456944850123638169e+00
1.488813588539689703e-01,6.839243751321856024e+00,-1.819423276715834259e+00
-4.120328126249129141e+00,4.470111469249803626e+00,3.491206173977687399e+00
2.824977265954025984e+00,5.776340568390949670e+00,-2.768345246342057475e+00
-2.237155903417892944e+00,1.130235059455716673e+00,-6.528358410392575806e+00
-8.792524611578871330e-01,3.499676223987049362e+00,-6.099122324384911309e+00
-4.879963014182643555e+00,-2.859991467305785573e+00,4.111994577410448493e+00
9.042618321632530654e-01,3.403889377559132789e+00,6.141294919805842412e+00
-6.485298509495060593e+00,-6.859864917939640927e-01,2.281605143830585547e+00
6.117544532902229548e+00,-3.342504787088308671e+00,-1.066934797274132096e+00
2.820223694576554418e+00,1.143749643545248329e+00,-6.334905873684985700e+00
-2.525942572444798362e+00,-5.612892414760634274e+00,3.146866565873400301e+00
-2.591786739562160768e+00,-6.471783381186216211e+00,7.194392205690992581e-01
-7.825537661867436601e-01,1.621329820531680843e+00,6.871312264946919157e+00
1.445506658106338937e+00,-3.472070068230425743e+00,-5.959539615658751011e+00
6.237564183241291360e+00,3.160938427559551567e+00,3.482753044111670526e-01
-2.504528268810471747e+00,-5.201318765571397940e+00,-3.780498970152079252e+00
-2.195068220072110776e+00,-6.427426520363752616e+00,-1.835456340245761098e+00
-1.430879590892478070e+00,4.581830951203964553e+00,-5.068588043891338657e+00
5.351413279364328091e+00,1.579611846515667772e-01,4.502496255383523938e+00
1.664817316686427073e+00,4.113167830869340236e+00,-5.391586588322155649e+00
-6.940244095579490846e+00,-9.912872485387106414e-01,1.152100760416590708e+00
6.261290481136422059e+00,-2.754335451354970044e+00,9.615857833226263418e-01
-4.006395471806532882e+00,5.641445761628927968e+00,-1.315011580843475691e+00
1.051624814547679865e+00,5.080012269370135947e+00,4.651069363756068498e+00
-6.003852049866450491e-01,6.900669695453975905e+00,-4.760252250257615558e-01
-5.511892767870349985e+00,3.022008341522105734e+00,3.151387892412857106e+00
-2.083830218296579773e+00,6.391396042178113746e+00,2.191264991273133678e+00
6.721867308392130980e+00,8.897211110429772973e-02,2.043026197591667703e+00
-1.245832730636637242e+00,6.727720146741954288e+00,-9.394809835066458836e-01
4.292780276814449181e+00,1.939980695984939718e+00,-5.003329257732701763e+00
3.926273599925502178e-01,1.990163511204562363e+00,-6.590478478413976049e+00
5.431941001545348868e+00,4.015061478896332581e+00,-1.904047000601921003e+00
2.801135013946070451e+00,3.052063677790227469e+00,5.678023104974219137e+00
-4.767490338804730499e+00,2.067137713465196924e+00,4.704028295807636262e+00
-5.591026426278827621e+00,-2.740009272959092357e+00,-3.101083506997857508e+00
3.333235192240779465e+00,3.017836462276231924e+00,5.270603339751265715e+00
-2.197598983857369070e+00,-2.568732757802338895e+00,-6.014163328339491521e+00
-5.231817882093935168e+00,3.960823671775480115e+00,-2.016777022158914079e+00
2.118141910349035761e+00,6.177381921888860816e+00,2.288455654172044884e+00
5.823143139389228118e+00,-3.757898387093510095e+00,-9.727831086167523233e-01
8.296110866781722382e-02,3.706404536785941506e+00,-5.981028990202039708e+00
2.735593697729801654e+00,-7.146359166587892275e-01,6.368605604754520755e+00
-5.559314715588547173e+00,-1.123473528409513644e+00,-4.148549676428181066e+00
-2.270178948523101425e+00,-1.000540587777538404e+00,6.604279212345180561e+00
5.086003365617244754e+00,4.453042185163546662e+00,-1.763688590520899657e+00
-3.575516299601062098e+00,5.846907567877721590e+00,9.467254156524264053e-01
-2.365419195778843076e+00,-6.531331338255046859e+00,-4.487827255820002192e-01
4.674503538753256748e+00,5.084171038786593932e+00,2.801355880445908220e-01
-2.745031900398861247e+00,3.251114172487914900e+00,-5.652697090698532989e+00
-5.547325143358153632e+00,-2.161108040088078219e+00,3.659004408775031969e+00
-3.290551860096762038e+00,4.544661494677591611e-03,6.247990723141084501e+00
1.117000434351630211e+00,-4.849837640245933557e+00,4.945977580789940653e+00
-3.486470824511461508e+00,-4.988965571787987052e+00,3.271817844264838460e+00
4.160437239797396103e+00,5.861855700280547143e-01,5.491911723076842833e+00
-3.207648221560994273e+00,5.274354218288894280e+00,-3.556430936110639873e+00
1.702525317324109055e+00,5.361753102834196483e+00,3.988049531881975085e+00
2.400769321417519198e+00,-6.564278412925406592e+00,-4.321089569175519396e-02
2.091345781098818968e+00,3.305172533738513607e+00,5.711504714561697504e+00
-4.461940096475618844e+00,-5.173654855368239325e+00,1.001578319686157847e+00
6.132688995746734761e+00,-3.133380573436999050e+00,1.446910771059751077e+00
-3.923609998801276810e-01,-4.679271378332588438e-01,6.886945250027045162e+00
1.147187086841049863e+00,-2.604897266059701622e+00,6.361171941043565425e+00
3.633395526754077398e+00,1.275384014814237021e+00,5.768026400533927678e+00
-2.945310665817656215e+00,-6.115021227056471886e+00,-1.337329822622711051e+00
-1.682871305263835104e+00,1.189640465230059840e+00,-6.662314966751964107e+00
-6.177301420101203533e+00,3.127357519906669214e+00,3.633674507075460580e-01
-7.831005900122889329e-01,1.014370778873294077e+00,-6.764717701788623749e+00
3.968076241612105814e+00,-3.531225483246829278e+00,-4.601659140797305092e+00
-6.450434493610139874e+00,-1.815188368675799468e+00,-2.153100789464053921e+00
2.547217053038511203e+00,6.575608209180820118e+00,4.217781233685201081e-01
-5.012810853140036826e+00,4.017366850929019684e+00,-2.816913393670815058e+00
1.988850040392712737e+00,-1.076974113751835604e+00,-6.547538702388886911e+00
-3.563543108202235299e+00,-3.106798101593491346e+00,-5.021172371680931334e+00
1.564480027545647856e+00,4.638676722328286539e-01,-6.621781772038072944e+00
3.261062364128544666e-01,-8.050854500744011322e-01,-6.907388068578108609e+00
6.829437039122872477e+00,-2.271849322514524205e-01,-6.784494342532674249e-01
4.971244398554556021e+00,4.125442065031598382e+00,-2.603484477880216197e+00
-8.337302438475877597e-01,-1.620202473727342829e+00,6.887419860568581242e+00
2.909806474500054030e+00,1.829785215434839296e+00,6.219623210721155537e+00
3.915301879346010594e+00,-5.509420754352918337e+00,2.072158203562616929e+00
-4.135441129805950133e+00,-1.505633859445486333e+00,-5.384054803039070691e+00
-1.241180804751197853e+00,-5.899907034300499120e+00,3.522858537374449206e+00
3.302832931883583623e+00,-9.307684955358385137e-01,6.123290893596774254e+00
2.376002951488410897e+00,-3.218430823620112680e+00,-5.721888198318139551e+00
6.166326351019423058e+00,-3.335179954272282643e+00,-4.480439689920429763e-02
6.052160978006503100e+00,-3.494927599455488920e+00,-1.601236053526204350e-01
-4.171416769102009425e+00,-4.241820751896752562e+00,3.810593350590593786e+00
4.700785208190520592e+00,-5.118001945193316971e+00,1.213962130414592444e+00
6.790408984202033871e+00,1.908168903864489563e+00,5.971871644594346495e-01
1.045118421648404627e+00,-6.214860819768718514e+00,2.956708203663940271e+00
-5.560179664857379578e+00,2.868800919817387829e+00,-2.724728186624569393e+00
-6.289588922004697658e+00,-2.902535398234525221e+00,-5.714935421361015955e-01
4.121997946392822243e+00,3.876657611463470765e+00,-4.169589365047978724e+00
5.751207817196024585e+00,-1.039673613176004929e+00,4.047706643011411032e+00
4.355761728911878627e+00,6.523911970296147889e-01,5.352773296321879037e+00
6.200152858727562943e+00,-3.304758232515733862e+00,-5.673235102540558072e-01
3.229677978720927101e+00,-4.569079241994183249e+00,-4.209161552303400278e+00
-3.624874056880056372e+00,4.709694428793385512e+00,-3.640002504397011673e+00
-6.352764938168462550e+00,-2.739146625377811617e+00,1.880665168633396667e-01
-6.713506853667408514e+00,2.124268341773182467e+00,-7.659985643595279559e-01
6.599838475380140679e+00,2.189904435014520256e+00,-6.204179961155173451e-02
1.654757457619363770e+00,-5.801381944934008494e+00,3.680096111026263106e+00
