6.277048566683420816e+00,-8.502373955312464426e-01,2.902896418379105281e+00
-6.074997558036346668e+00,2.961085749193428818e+00,-1.189124639706247377e+00
3.987617817959717481e+00,-3.493007609272469782e+00,-4.756064927978181700e+00
5.090979795305567990e+00,3.563579689123019367e+00,-3.077938693539815862e+00
-9.894196297979309662e-01,6.875519573404484497e+00,1.432920162911556883e+00
3.218212109866782633e+00,1.185999882487803969e+00,-6.116810398621348455e+00
-2.695033531674869032e+00,4.054071830134493126e+00,5.046662535480331613e+00
-6.671253241987802340e+00,-1.227019938501174634e+00,-1.936402546386414958e+00
2.635948223245729416e+00,5.976981116381582027e+00,-2.614078636871586703e+00
2.225929176279215493e+00,-2.845969298094014333e-01,-6.577660451146705611e+00
1.421487232435562520e+00,-2.312969732827649061e+00,-6.601418471325509074e+00
-5.936585912905427698e-01,6.312590520106767578e+00,3.015435806005224872e+00
4.894843520999483388e+00,2.092816292797931688e+00,-4.780315129937058316e+00
2.751043439366994470e+00,-5.908459531711400814e+00,2.436907374627183653e+00
-6.739587426357148026e+00,-1.545200774124450005e+00,-1.371448216244202989e+00
5.383293985148100980e+00,-4.583072678139051170e+00,6.529144149119777696e-01
4.425598999838203262e+00,-2.526533825600560501e+00,4.725103815269807939e+00
-1.185939317902511059e+00,-6.273047572345038070e+00,3.125629732912400982e+00
5.681577886451016468e+00,1.933599233652849136e+00,3.585791421552576796e+00
-4.897714077535254340e+00,1.287465446970373240e+00,4.833167179608788722e+00
-5.332122917019513686e+00,-4.435524376005154146e+00,-1.397500894476648270e+00
-5.954219990212342495e+00,-3.806800395919455404e+00,1.736730199289918675e-01
-7.081039361580939717e-01,-6.871054051475535829e+00,1.152772658720731869e+00
1.057046218288079320e+00,-2.412412022057438765e+00,6.515302386725287498e+00
2.134719369655839749e+00,4.466021773265724804e+00,-4.937950097130640259e+00
5.033943765597263642e+00,-4.404567737100194336e+00,-2.284651854767000057e+00
3.125371171500567868e+00,4.133581725615539604e+00,-4.831920703246245452e+00
6.714618966285857971e-01,6.957797077633355975e+00,3.215987240659243240e-02
-6.801521440603425006e+00,-4.344652910345508379e-01,1.794091990100766587e+00
6.505963382481633417e+00,-1.158463342681394836e+00,-2.369829154111571246e+00
5.320662242174218015e+00,-3.162376037107522020e+00,-3.183487787802690150e+00
-4.838540805763217989e+00,-4.905284021296103525e+00,1.625698342606560098e+00
1.480854875853173436e+00,2.386404975647887561e+00,6.527433355459208109e+00
4.224762897032271702e+00,1.444138885366578640e+00,5.501917147770721606e+00
-2.894242079944825186e+00,-4.920410439770607880e+00,4.032705904205308833e+00
4.994423438833429429e+00,1.709596228377922023e+00,4.531652767626174416e+00
-1.888093548583123435e-02,6.833371829082566684e+00,1.439603886650883791e+00
-5.116230914026385079e+00,-3.878384892114691507e+00,2.550251942721440734e+00
5.017291742156538170e+00,-1.339087206101817529e+00,-4.817699084950945121e+00
-4.983002362025494916e-03,-2.184320082627544846e+00,-6.629715057898463826e+00
5.346018160677170172e+00,2.517212957454480371e+00,3.803715117999038053e+00
3.067668999597369384e-01,6.063943395785026169e+00,3.683897518593129750e+00
-3.080002096467762129e+00,5.586925694628257055e+00,-3.081785787743560157e+00
3.795869463174206704e+00,-3.277970831066684632e+00,-5.133595974060200184e+00
6.140388756788425439e+00,2.320653105039637953e+00,-2.400511702957944582e+00
-5.577381183281352683e+00,3.126305712897997857e+00,-3.124747245252640138e+00
-5.525215864894629902e+00,-2.271172274925577383e+00,-3.818285372372500319e+00
3.514124788755577988e+00,-5.698509606301525920e+00,1.971567617685757501e+00
-4.362001885389795497e+00,2.446496335543772993e+00,-4.954225216610626426e+00
3.221656397034805774e+00,-3.235447200738798212e+00,-5.254632106157575144e+00
-6.142733429554403379e-01,6.194454255816300936e+00,3.144940610459995955e+00
-2.727914069923844220e+00,1.917820779051160773e+00,-6.119542914334643591e+00
5.435903099695042151e+00,4.246775194303205936e+00,1.402940267002864116e+00
-5.037032537420030209e+00,4.531405333517813716e+00,1.879395007237856019e+00
-4.230768456999830285e+00,2.164572678714841381e+00,-5.231138087240685408e+00
-3.380184995726454922e+00,5.125896816003810308e+00,3.339908634297442891e+00
-6.667424713759242394e+00,2.581314273248354940e+00,-1.472870972606071249e-01
-6.830427363011312814e+00,-1.983694058197907617e-01,-1.894201668287730289e+00
6.082812096938668311e+00,7.576735086722508061e-01,-3.418687192759730209e+00
4.582150278957339395e+00,-4.058206794707462706e+00,3.606174115972927030e+00
-6.561336239391941660e+00,1.747550122860390243e+00,1.566539308661561547e+00
-5.369263032576171435e-02,3.006551050824268767e+00,6.375360951635069107e+00
2.942363837274379890e+00,6.225138485459408066e+00,-1.071409688854168651e+00
-3.447148861540051623e+00,5.798783559213937622e+00,1.806458633523076118e+00
5.797544528129860986e+00,4.005748190635721961e+00,-3.283562303716762165e-01
-1.727055259252184172e+00,-2.331800884758046255e+00,-6.382740365380867864e+00
-1.515538826881395629e+00,1.625892446514904943e+00,-6.544380433646733941e+00
2.955570312727680005e+00,-1.097777682197051408e-01,6.378566754454577215e+00
-6.392831381381114397e+00,2.298069126825329267e+00,-2.195465222853760334e+00
6.274736332580856057e+00,-1.830239118349670679e+00,2.926465207852065209e+00
6.678124976418957637e-01,4.334362816881103697e+00,5.755787853598064885e+00
4.722211703125724469e+00,4.116772848645722682e+00,3.099953282960847378e+00
-2.760536974619359984e+00,-5.773951172942110688e+00,-3.048449042855680968e+00
3.539395290409490080e+00,-6.030867623030489177e+00,5.377388366236188766e-01
-3.664581636989188151e-01,6.748887581532984292e+00,1.493531729213501968e+00
5.871730213320425662e+00,3.248683505610811206e+00,-2.265047722147280673e+00
8.091679101452824430e-01,-3.424571639388660937e+00,6.013672031124383643e+00
-2.321709586022444149e+00,4.993042146234993872e+00,4.253470214347027323e+00
-4.270836773551514476e+00,-1.903812573938239883e+00,-5.223927836894507237e+00
5.807956740862999512e-01,5.239116332084273964e+00,-4.622963602827678820e+00
-9.673274449692151888e-01,6.864205845132548056e+00,1.012627095634292207e+00
-3.646213724382505905e+00,5.397363756373447785e+00,-2.577370071287720332e+00
-2.567595898501459750e+00,6.062451211549061192e+00,-2.414484243085851745e+00
-4.785419585313278823e+00,-2.738237358435837571e-02,-4.974696381412070600e+00
-5.045896903864132810e+00,4.944722753930767212e+00,-1.192000431468305359e-02
-2.181764337678409493e+00,-2.307708274182283859e+00,-6.222221177679321258e+00
-8.440967880303221760e-01,1.342946816828961831e-01,7.038682339553120393e+00
1.944075212561957589e+00,-6.576861239241199364e+00,-1.383791039852820814e+00
6.524559387683994238e+00,2.523974123952460680e+00,8.631789313386943885e-01
-2.946283043960492787e+00,6.380719292320080172e+00,-1.306521572803808873e+00
-1.387492791994204167e+00,-6.273043784974830395e+00,2.964173917314189222e+00
2.981551222159664061e+00,-1.269716564878915932e+00,-6.364554788143510500e+00
-3.042828419485203550e+00,-5.977220332879783271e+00,2.451745372188349759e+00
-6.547658941619242334e+00,1.822484317104321683e+00,-1.958271326277260416e+00
2.591238619199368376e+00,-9.983484514955137668e-01,-6.299586568089419636e+00
-2.287319267241370024e+00,-2.731989431842058558e+00,6.121261021239216227e+00
-3.483881459586475327e+00,-2.243224105356516063e+00,5.574968861898054406e+00
1.294855181244462194e+00,2.508037075809141037e+00,-6.506649397815008840e+00
5.601530060368916430e+00,3.364393841912922678e+00,-2.516195737013471767e+00
6.271767325527964232e+00,5.124060274130022574e-02,3.083003082121975158e+00
-6.512545976361373334e+00,-1.416902481484487053e+00,-2.285227150306257116e+00
6.358571221984711030e+00,7.463349210837215697e-01,2.633062577369467139e+00
1.904440399260515226e+00,-6.234994912697916725e+00,2.642459139762103337e+00
4.675914700289573567e+00,4.770953902763142906e+00,-2.374472637952802057e+00
-3.645119495076732274e+00,4.054075564539078025e-01,-5.853446110160141380e+00
6.685128425723889656e+00,-2.081789476860168797e+00,1.099144148962491574e+00
1.908598575144018483e-01,-6.419237449069813195e+00,-2.651061534896571814e+00
4.845051439706995922e+00,-4.296479458516973438e+00,2.732473261858667346e+00
7.792143025985212024e-01,-6.992180498878144412e+00,4.383754997644693785e-01
-1.530672254059638915e+00,3.237607182551013540e+00,-6.055163110898944545e+00
3.208327920973117031e+00,-3.608717818489198592e+00,5.281984031648835121e+00
-3.076720039313383559e+00,6.270585021139321924e+00,5.080932969014581024e-01
1.684492620649595374e+00,5.712909536051696158e+00,-3.952345632005152432e+00
4.092280356079780468e+00,5.328424948983871090e+00,1.981455683292177472e+00
-3.345026292255957934e+00,5.725054494618758705e-01,-6.131626941232707573e+00
-8.775760060852719757e-01,6.724401624649607889e+00,1.846287635137750849e+00
2.609514787068346608e-01,2.738706604168183567e+00,6.494811966743402998e+00
-3.730805369930125348e+00,-7.050137692325825212e-02,-5.740112784517631184e+00
7.041359359545685592e+00,8.721526856385869442e-01,3.704118629705046573e-01
-3.321753812978005094e+00,-4.099608378696410149e+00,4.617057059722792012e+00
-4.808035808628032370e+00,3.398796664470339124e+00,-4.030739629929686707e+00
-2.670979220845174584e+00,-3.009305448533766025e+00,-5.653412975957696318e+00
6.327372654851002309e+00,-2.771619329956972244e+00,-1.596190761519483470e+00
-2.205599731132303454e+00,6.048279962441361901e-01,-6.562457015237399993e+00
1.485274315885698693e+00,5.613088054699463925e+00,-3.952945209690762685e+00
2.696766574659748006e+00,6.509111493671472459e+00,1.434834134809428230e+00
-4.210905213136111769e+00,9.800078449398366698e-02,5.609235610126902749e+00
-8.010395205929866647e-01,4.614473509853876720e+00,-5.077247201412419031e+00
-5.301133992066981548e+00,-2.835869107629730212e+00,3.689454340277662059e+00
-6.764437401570451591e+00,1.277655372411421020e+00,-1.587172783882705662e+00
-2.083014437484676851e+00,-5.744493507919951725e+00,3.539648706927865263e+00
1.262656617004209059e+00,-3.337953147401266030e+00,6.075986625455207069e+00
4.235118360523792091e+00,4.541296529285403949e+00,-3.666385275801157473e+00
4.802660659552133282e+00,-3.225717262550369835e+00,3.968163343195270532e+00
6.325806122924348074e+00,-1.815319304724902771e+00,2.158616737922383955e+00
7.364148979709659315e-01,-3.156579880557209616e+00,6.296794908974121086e+00
5.976448428279466540e+00,3.425903125639041313e+00,-1.564742423482677669e+00
-2.474726685957885142e+00,6.552331943244595891e+00,-3.613541076239882854e-01
-5.019393017619080410e+00,-5.053275371608670241e+00,2.927730409127591860e-01
2.435365206325576626e+00,-5.436637061611035548e+00,-3.870633124421287263e+00
3.420853237852748308e+00,5.232419641120174880e+00,3.051939711280482914e+00
3.299325350926863187e+00,2.185139181460277413e+00,-5.766228611679220961e+00
-3.385057664037793845e-02,-5.621244036217984963e+00,4.043024462274023456e+00
-3.538367372931829902e+00,-1.807689379650043504e+00,-5.805962881410132503e+00
-4.251738817942191773e+00,-2.781686347695235373e+00,-4.894057739623355552e+00
6.835024635495095424e+00,-1.418191445207256152e+00,1.231316805993526664e+00
1.783088492932640268e+00,-8.061013069597365854e-01,6.792420125792046015e+00
-5.076650281227422568e+00,-4.858875874740566481e+00,-6.518308804690129410e-01
4.190571311934771614e+00,-4.974864631618734379e+00,2.570880729888689320e+00
-4.782487299023425287e+00,-4.042948207617618195e+00,3.162858123313129433e+00
-1.579579806751344240e+00,6.477832991587146871e+00,2.196533037194433824e+00
2.660382365630799661e+00,6.089328328657040323e+00,-2.251102956937710342e+00
3.221890359586057961e+00,-4.899859431089791606e+00,-3.965558950008535533e+00
3.163871071959786896e+00,-5.725575963449066386e+00,-2.285069527153705593e+00
3.597641215010086047e+00,-1.294195215585272729e+00,5.906900196453052310e+00
-4.109761135959217326e-01,-1.436141697954912644e+00,6.894150634479566442e+00
8.581805110513220924e-01,4.250671888412226984e+00,5.546049661261417185e+00
-2.214324627480830365e+00,-6.649516940075348437e+00,8.178202974639761091e-01
-4.457154444980229613e+00,4.519831067597986696e+00,2.849238546456188459e+00
4.985957846165386620e+00,4.921824565978550226e+00,-5.849610749145389699e-01
-1.149292283420407568e+00,-2.759537140685927259e+00,-6.444857232426033811e+00
3.086659143528322158e+00,-5.115051677256847451e-02,-6.455889110635495420e+00
-2.777439747167561368e+00,6.452433634639473503e+00,-8.565575515696635112e-01
2.576684386250986059e+00,1.896464774895807892e+00,6.225751019585939794e+00
9.810557890754150190e-01,-5.540122503281527777e+00,-4.072029584304818428e+00
3.459667438633521552e+00,2.541663946904499927e+00,5.526754142049827401e+00
2.391898891842876296e+00,-1.150423336868128699e+00,6.672249512451307929e+00
1.388243528871364818e+00,-2.850023537319438471e+00,6.453034419019838097e+00
1.770280493534973854e+00,5.177037135645931265e+00,-4.137281018361595564e+00
-3.401849282190066770e+00,6.041210033052425210e+00,1.088087242974884017e+00
6.525033815725500119e+00,-1.814628710450953530e+00,1.770983041726555074e+00
-3.875141187008366739e+00,-3.105331407122563281e+00,-4.804690076041652880e+00
1.840071772779878989e+00,-6.235370764291066514e+00,3.078148806308243390e+00
3.379595429781519833e+00,4.490351706498246109e+00,4.301393126687986346e+00
-2.354701740691316214e+00,-2.714162005366559161e+00,6.091683822654903935e+00
2.458288094929926615e+00,-4.978727541396524181e+00,-4.306828052087375625e+00
-2.451513850900354452e+00,5.277535739365218248e+00,-3.899390511216598298e+00
6.850082696165662455e+00,-3.413945529460987172e-01,1.167710172731568186e+00
-3.737659986862028605e-01,2.852343345416040954e+00,6.566533479643279492e+00
6.694129527250844980e+00,1.640331449404532627e-01,-1.992187389037634260e+00
1.855893696620238564e-01,1.706466068761933741e-01,7.191760783113020139e+00
-5.249471056933098012e+00,-4.252131953653891294e+00,-1.727136195331935742e+00
5.027568114516172137e+00,2.176872038400269993e+00,4.413042886424431543e+00
-5.835656621205854044e+00,-3.892827088900939536e+00,1.162604132133251644e+00
4.509787082947226189e+00,5.471236355288760400e+00,1.246071704596213026e-01
6.671934689436423760e+00,-8.107219781796394242e-01,2.429908852111130724e+00
-2.025044828909348560e+00,4.616014770321324789e+00,4.798666275972005124e+00
4.996751568174031988e+00,-7.231268439334183340e-02,-5.071477824624817110e+00
-6.034693840624579586e+00,4.461872950137433236e-01,-3.651578515981638962e+00
-3.951417532289240864e+00,5.621382893901606614e+00,7.930984361351960388e-01
-3.553247094525023297e-01,5.939361579861543561e+00,3.764673039808490884e+00
-2.674037197226794227e+00,5.501979141197879564e+00,3.568186929932421592e+00
-5.132095838549440181e+00,-3.525782593238296680e+00,3.327262432653125490e+00
-4.314906032812012349e+00,3.960440524009216645e+00,-3.869435567342425220e+00
6.066087727120462070e+00,-2.075401051058079815e+00,2.844785675349423837e+00
3.920746768263812854e+00,-5.855581936898824225e+00,6.962835305873638081e-02
1.001341781967713951e-01,5.520768521070637647e+00,-4.365344212804040502e+00
-5.088021113295967623e+00,4.957924703778731512e+00,-5.433478969841766260e-01
-1.323029032152779116e+00,-6.927054393448385028e+00,2.984103916498037634e-01
1.914162324132459903e+00,6.782225777728889682e+00,1.418326082228578977e-01
1.701102632308507889e+00,-1.474159057547182794e+00,6.795495497266511364e+00
1.250365131688920384e+00,-4.006797752209476648e+00,-5.658639616679520756e+00
-6.526814637048033774e+00,2.343523267653136788e+00,3.384839917642012419e-01
1.386583942074747222e+00,1.382287336326022409e+00,-6.836181052381539835e+00
-3.847258854380453119e+00,5.615526167071270613e+00,-1.625103749947049536e+00
-5.934533924695869267e+00,-3.929128663749787087e+00,-4.077757505616866895e-01
8.472720244550141500e-01,3.309203777407893732e+00,6.256332422942352700e+00
7.958492460220850662e-01,4.785794581509134282e+00,5.069803222966013934e+00
-5.510742610387900697e+00,-1.359879093033192765e+00,4.185214505393229700e+00
-7.677600336200063325e-01,2.342074863979315857e+00,6.484928816924424133e+00
6.851036925025310254e+00,1.505740002882071327e+00,6.133274118435667610e-01
6.419247332297510766e+00,2.990950966700179681e+00,-1.524441966233091583e-01
3.442853917706669709e+00,4.646940666296236699e+00,-4.132133300645079999e+00
-2.648413067867430915e+00,5.064162052863300900e+00,-4.214242234439584678e+00
-6.185543785037933562e-01,-6.943909258058282852e+00,-9.766155972292601684e-01
-4.658082675478024015e+00,2.823819740345741014e+00,4.542986738575861771e+00
-5.187441254261623058e+00,4.618200015299834149e+00,-1.410685436900585454e+00
-2.547401023096345529e+00,-6.403538037398937455e+00,9.126337740922045860e-01
-4.687058839189352177e+00,-3.734614807189759134e+00,-3.477776932391432485e+00
4.042769321712749608e+00,4.022158147846156773e+00,-4.247573943634802340e+00
1.198632771409785747e+00,6.587948135395444993e+00,1.937581110525175010e+00
3.596522161872238055e+00,4.161340265342329481e+00,-4.261316854929658504e+00
7.974640303653826034e-01,6.485053682906868566e+00,2.825471272084608021e+00
-1.966973499588730467e+00,3.967421699063359508e+00,-5.461339717951349648e+00
6.618250520616732580e+00,4.220307699838286020e-01,2.682044746700288584e+00
4.743106049360211962e+00,-4.163247937109603392e+00,-3.161564324699188244e+00
-6.546503285781056114e+00,1.831036087786729993e+00,-1.717744565015175251e+00
4.597453339377883808e-01,3.936903127768681454e+00,-5.840479967682631113e+00
1.705709872761112633e+00,3.401126716148350937e+00,5.898044866688396226e+00
6.525951007581347163e+00,-2.695199869615444221e+00,-1.054405359823601840e+00
3.439720888024881074e+00,1.758907849965373194e+00,-5.882197687077152182e+00
6.229128805775491884e+00,1.504967583812222065e+00,3.152219463219390505e+00
5.699252907934231338e+00,-5.505562891816152549e-01,4.300146239119955638e+00
-4.867001102099393073e+00,1.211912120103699975e+00,-5.107644158496708719e+00
-6.139823225945097995e+00,1.351772525533801117e+00,-3.184629247933028484e+00
6.651945869876128903e+00,-6.814117424327160721e-01,2.331931754920421707e+00
-4.543419654693840570e+00,-5.386806698204844146e+00,1.867004358076764237e-01
-3.486252988835952582e+00,-5.491651924312333399e+00,2.251735071781176156e+00
-3.781042955346312517e+00,1.795978444801556551e+00,5.549908738023538568e+00
5.575106840996486568e+00,4.144745278806777122e+00,-2.765866445217698422e-01
-1.621976890572617513e+00,5.784816621995483743e+00,3.502796901788006512e+00
3.903438821431083117e+00,-5.945222193819242884e-01,-5.777177100222009365e+00
6.366749236263926193e+00,-2.225644840258038215e+00,-1.710323483191006133e+00
-3.593517276539121230e+00,-2.650053801800244635e+00,5.300179618270655979e+00
-5.619650578412273667e+00,4.873348574491234153e-01,-4.061146382166067603e+00
-6.090744720962232961e+00,-3.134028045619436487e+00,-1.245105543984906138e+00
-4.092711116381834380e+00,-5.203235695912469261e+00,1.679711494551237916e+00
-5.868249080446613419e+00,-3.720248544066725671e+00,6.400801716426253174e-01
2.944865604038108930e+00,-6.203736882216540849e+00,1.462862741162406222e+00
-5.343138221985799241e+00,-3.496704491966252437e+00,-2.840270643182386312e+00
2.343866729619342948e+00,-1.793277126210842454e+00,-6.437315637436560323e+00
6.927305694052491525e+00,-1.283043111585757012e+00,-4.851952257786495970e-01
-6.420593268105786677e+00,2.585465204096504710e+00,1.388822549284510766e+00
-2.639169256337888125e+00,6.179375595651741548e+00,-1.616892514823796256e+00
3.848294439219730023e+00,5.748135574894567945e+00,8.821732344923602920e-01
3.189801564181776961e+00,6.266875173125900034e+00,1.026494695017059477e-01
4.598930366055361318e+00,-1.748969640875573717e+00,-5.144537018636517800e+00
-6.289019139877352949e+00,-2.939683974733457994e+00,3.542904197181604431e-01
-4.652803732207794418e+00,4.475150760444525311e+00,-2.725356589092261306e+00
-3.520475244434976503e+00,4.193425628347924317e+00,-4.324234590952422685e+00
-6.697629360684700828e+00,1.464874089654439215e+00,-1.476890117772476030e+00
5.531611720378950103e+00,1.005333094764731816e-01,4.279736556456490426e+00
1.324848689480662811e+00,-1.188918246556548430e+00,-6.835354605597681932e+00
-4.675410165530277773e+00,4.954039247326520012e+00,-1.808092901374820149e+00
-3.420841099686501519e+00,3.859117797980430531e+00,4.934297963765266637e+00
5.784341148162192248e+00,1.499833335289825431e+00,-3.598007389504172426e+00
-4.931445038568440076e+00,1.982818418842814623e+00,-4.428591446250403685e+00
3.195994100892859180e+00,-1.826171610715719984e+00,5.992574413727549398e+00
-5.734001613793549695e-02,-3.662927118730687326e+00,5.869202939522142337e+00
6.225012318138891665e+00,-1.231517187453905704e+00,-2.671325536793153432e+00
3.908202282327364774e+00,-5.140335165210355939e+00,2.900799081979355876e+00
-5.198062080354771020e+00,1.320194138852334720e-01,-4.841477715101445867e+00
1.129704534001880312e+00,6.373455236800050550e+00,-2.903824335260956069e+00
7.805172621512950215e-01,5.772465872375132090e-01,-7.006747045111215932e+00
-5.091979750393819115e-01,6.164776052781917315e+00,3.257553262173902286e+00
3.711544703055304151e+00,4.798167948369668423e+00,-3.588564034307718753e+00
6.289872250904998907e+00,-5.104847115388808643e-01,2.983071095289307362e+00
5.296395229487794509e+00,-1.598365580710844558e+00,4.400538864220975732e+00
5.840216619374316576e-01,1.526730141927712170e+00,-6.810255138666960306e+00
-3.640485209718671733e+00,5.059967863003375088e-01,-5.954155932123082806e+00
-6.207771889257974074e+00,-2.946578915510391639e-01,3.271248216805152431e+00
6.248888476658630786e+00,-3.036852207903641077e+00,2.036111522853786271e-01
5.021214362877543635e+00,-4.365104922748957783e+00,2.322464631792902967e+00
5.146297021184431664e+00,-4.726910684658688133e+00,-9.574719679639268621e-01
-6.714944459081012340e+00,2.312907814487061842e+00,1.021685359340733790e+00
-5.214289752716968707e+00,4.693108960267262653e-01,4.756356804098723856e+00
4.266187524434105205e-01,-6.974570506758526633e+00,2.034475181171672420e-01
-5.175782936776761822e+00,7.362786660212026213e-01,4.701367567412542137e+00
-6.286154116840453554e+00,7.228555677672506841e-01,-3.069328030682934028e+00
4.449875508707794580e+00,-4.550987304910978359e+00,2.906927906313961252e+00
1.295983957483518356e+00,6.876937061152656128e+00,9.648517198563956176e-01
-2.905362597887540588e+00,-9.764326940699934454e-01,-6.228284045480407372e+00
-1.844503095158564587e+00,-3.001541839544803913e+00,-6.098830347723546375e+00
-6.175392493494711310e+00,-4.323961495111440234e-01,-3.504073319817360144e+00
-3.963282804750928090e+00,-4.035736927691218945e+00,-4.160858639841114481e+00
-4.774905309128465447e+00,-3.441018248058025808e+00,4.061469986919109765e+00
-3.228700111666059414e+00,-1.417773117753892587e+00,-6.274223971683195344e+00
-6.771180303032876324e+00,-8.482537506957832374e-01,1.562219666840105381e+00
4.756025521218106178e+00,3.376837149145455630e+00,-3.865111794364973541e+00
-2.231084901226811468e+00,4.036991950202780011e+00,5.325772411259344530e+00
-2.343427507050307224e+00,-6.748224244135338168e+00,-2.295804499497457185e-01
-4.296979927483020489e+00,-2.601789784525936788e+00,-4.793684016280711724e+00
-6.344006461960003840e+00,-3.885818335807347812e-01,3.122854912408440597e+00
5.944523807264566528e+00,3.316068313887345909e+00,-1.873837831341215621e+00
-2.946391045834593658e+00,-1.708863184235104526e+00,6.149598514196689791e+00
-3.861330404549764506e+00,-2.288534534049480484e+00,-5.539384424222759229e+00
-1.932060751220911199e-02,-6.726578397921775476e+00,2.067864507925035067e+00
3.214916757226413679e+00,3.744266510804978854e+00,5.051007263421976923e+00
-3.127652556901944436e+00,1.836850068248563783e+00,-5.965919169027514180e+00
6.691869184132750448e-01,4.331265190531380149e+00,5.490321875495434156e+00
-2.954061408251539067e+00,-6.519238576622241155e+00,-2.230211816703558947e-01
-3.974429144810656567e+00,2.304122278657298128e+00,5.375298874502721702e+00
-3.848164881350745858e+00,-5.689917766295500279e+00,-1.111468999759026133e+00
-4.602081303309724092e+00,4.579741887718867588e+00,-2.281305252127014072e+00
-4.533881118812337907e-01,-6.728200795618208829e+00,-2.067263014449729930e+00
-5.299644783860559816e-01,-5.272488743032842429e+00,4.560333654459428843e+00
1.809582897147625324e+00,4.733287769105847254e+00,4.820079824084257503e+00
-1.849747909978421978e-01,-6.890609770294941150e+00,-1.262354838145070213e+00
-6.798092704483983617e+00,-1.919707157675538678e+00,1.302404072120934897e+00
-3.411582328218382143e-01,-3.433560314834998461e+00,6.033382737173055510e+00
-6.878492346748232400e+00,2.723361134679990192e-01,1.711358480418974537e+00
-5.325264229536268878e+00,-3.054328953418041337e+00,3.434226124969331106e+00
-2.585601232744871858e+00,-5.709168039706439934e+00,-3.201423355602933896e+00
-3.282418259564775731e+00,2.324067888095071144e+00,5.901853348202046767e+00
-2.903767742342821645e+00,-5.296384361319246281e+00,3.490024351341473263e+00
4.592043623606612890e+00,5.058749817860807241e+00,1.744921854381064730e+00
5.872910021227811583e+00,3.385627518580093920e+00,1.883475090166801147e+00
-1.609569048270386382e+00,-6.709808454046997106e+00,-1.531470246638689581e+00
5.917527766299898850e+00,-1.478001551320912377e+00,-3.572950000100417967e+00
-6.381693651951269253e+00,1.877504284964750747e+00,2.244427326962176839e+00
-1.865013696803328180e+00,6.668885080603506488e+00,1.076312181888088304e-01
6.690212050713835623e+00,-2.083541691791260586e+00,-3.868563045958922642e-01
-4.804874930499450691e+00,-4.491650652561114399e+00,-2.435697818531212810e+00
-2.155055249864788802e+00,-3.362783081673363927e+00,-5.799863544926838976e+00
1.336030331544533878e+00,-2.760038985561793723e+00,6.389785223799097302e+00
2.347387548150675851e+00,1.445290952932552497e-01,-6.646538871533776316e+00
-5.065149251662626639e+00,2.010857471781447803e+00,-4.381589954965656730e+00
6.071279574487824071e+00,-3.092533533797208634e+00,-1.877337639021393390e+00
2.531767209042881994e+00,6.438538668381664998e+00,-3.044886267048685369e-01
-6.436842902896207086e+00,4.166453940326748095e-01,-3.014180343862822298e+00
-3.379143217822988987e+00,-6.016272379036725404e+00,1.244670511662037793e+00
-3.474277411873559096e+00,-5.690465874603331642e+00,-1.443727577041698407e+00
2.537227894827870145e+00,-1.099736000143546555e+00,6.403159990260761880e+00
5.224325628148069889e+00,-2.683713191208846993e+00,-3.856461306720507576e+00
5.021515163700720485e+00,4.859030641776328707e+00,-7.658710681600703341e-01
-4.056174256292673697e+00,1.499275258238653041e+00,5.576313952092961657e+00
-4.623126900780540005e+00,-5.040915595846311881e+00,1.318801999116855583e+00
4.250166822163111036e+00,2.927993981308974369e+00,-4.650319718615502751e+00
-4.799791622979133976e+00,-3.412647914141193173e+00,3.716373318014296157e+00
-4.836328063504551800e+00,-1.564278340872400364e+00,4.843862872594402624e+00
3.290726036024418821e+00,6.047459173645481495e-02,6.124214192667702505e+00
4.835941066383664833e+00,3.810200318771293393e+00,3.127610005758123091e+00
-5.543094954331685642e+00,-6.372678789810208855e-01,4.060724979320718298e+00
-4.155458138480749852e+00,-3.117537876677545228e+00,-4.758810021302044113e+00
-5.976677660814373461e+00,1.074849148856484415e+00,-3.175610628564197846e+00
-3.772890622753996226e+00,4.758928913143672723e+00,3.609705356913200269e+00
3.680355910641670114e+00,-1.967163096328645944e+00,5.792860877019642807e+00
-4.293919181269658658e+00,-5.262469659946771294e+00,1.925592419572950575e+00
1.507995165632310286e+00,-4.218645501822840593e+00,-5.402654854344357993e+00
-6.475033110721939877e+00,1.780524923989553976e+00,2.001905102368773726e+00
-1.050615555558350955e+00,4.346456258885609714e+00,5.547348213300114850e+00
-7.917638394023163162e-01,-5.389850872113577829e+00,4.471507478985502715e+00
1.843166637189459500e+00,3.812520880120028322e-01,-6.816646696053246579e+00
1.880742501276808865e+00,-6.546311800612263809e+00,1.797677969958189959e+00
-1.149183308932567149e+00,-2.785305938972120199e+00,6.377808084112457365e+00
3.051298775774005656e-01,6.291420687522180977e+00,3.035179367907685943e+00
-8.443473515399978202e-02,-6.898253672968905015e+00,1.450031071495409885e+00
3.738283278520821984e-01,-5.214895727486361210e+00,4.738781006275181618e+00
-7.914598611240963866e-01,2.235244517616601923e-01,-6.982287154999023748e+00
1.680584856649014025e+00,-6.768967688173914254e+00,6.294083476379090936e-01
-1.998255027665494232e+00,6.334954206920364150e+00,2.496354560431804703e+00
-1.827290541743286534e+00,3.597296986363546889e+00,-5.846370574038506795e+00
-6.141489160871326902e+00,-3.289486743417380232e+00,4.363453034316155943e-01
-3.133715016380565821e+00,-5.604751545243868982e+00,-2.904490518828438006e+00
-5.710948090547606215e-01,2.983534236510358095e+00,6.474813667290489683e+00
-3.214043302474607344e+00,-8.397835240995487061e-01,-6.174725053444249490e+00
-5.700981536179116738e+00,3.710553242719307754e+00,1.331764987204361095e+00
-3.155922334247431404e+00,1.380807801583839201e+00,6.135426899850229709e+00
-4.707872161118628718e+00,-2.650058069398030458e+00,-4.604319961628092095e+00
-3.176197692177209930e+00,-2.859664863518057487e+00,5.531261392972285584e+00
6.631102543614877831e+00,-2.303794684217244093e+00,-9.387785989541659326e-01
-5.810470953289760487e+00,-3.868589699982847741e+00,1.505853467253579048e+00
-3.627397064577042585e+00,1.914946305491098899e+00,5.634284460661538319e+00
3.919977702760695237e+00,-4.964201148981350009e+00,3.002064781490526801e+00
-5.230527639753190350e+00,-1.282626125544018114e+00,-4.597058071568445925e+00
2.371660138014164865e+00,-5.953207905896651830e+00,2.613946041790297325e+00
3.446102224394027580e+00,4.413157718423954101e+00,4.127438600592645557e+00
-3.082436485160398920e+00,-1.256650259617224874e+00,-6.199525322442998032e+00
8.512901329040615250e-01,-6.236788325317266235e+00,-3.087302204795481231e+00
6.384179795928620615e-01,4.494713788713980307e+00,-5.524665392827942334e+00
1.011854511362818787e+00,-5.839250144908647577e+00,-3.976820909121234315e+00
-2.244575088864613654e+00,5.210546446257418474e+00,4.027017340811271495e+00
3.563249557858946037e+00,-5.877727097937405221e-01,5.970201198842469026e+00
-4.636605912027706999e+00,2.740811381493830634e+00,-4.421872690951409446e+00
-3.157844752040341874e+00,-4.751287208659960903e+00,-4.181065927095269252e+00
-4.758210935435829292e+00,4.847584601701713680e+00,-2.176993788191482260e+00
-1.070250014195858190e+00,-6.085200720093509652e+00,-3.185955417950019797e+00
-2.113289654935031958e+00,3.415214633245948761e+00,-5.822232025892918550e+00
-3.221267797813678335e+00,2.707600321329116877e+00,-5.691374970247841780e+00
-5.701724734449122867e-01,6.785228485456573644e+00,1.626173811526835600e+00
1.921587537376964416e+00,4.838373962624117119e+00,-4.814133194740270127e+00
-3.467890007755982662e+00,3.613010881046700984e+00,-4.938784770574271121e+00
-2.261752145550691928e+00,-3.161498756238608099e+00,-5.968438333619165981e+00
-2.978319153303812250e+00,2.318287421519130920e+00,-6.072209081184401391e+00
-4.983322991987102490e+00,8.469082158031578100e-02,5.043289423390055148e+00
-1.260499416184193366e+00,3.161674379209012287e+00,6.133325975321644030e+00
6.767286180210273727e+00,-6.159616188623870947e-01,1.136355303600129485e+00
-3.841773080914574479e+00,-3.792536913972322399e+00,4.462605527074894773e+00
3.871418708410051757e+00,-1.545430493924766724e+00,5.548205346499062607e+00
2.721100360477481939e+00,4.624918145292448379e+00,-4.749911839519265655e+00
4.201635268474507967e+00,2.772534993065838282e+00,-4.784422128550930964e+00
-3.328526088133133776e+00,-6.270248783403509663e+00,-2.348710209031387997e-01
-1.074507018119110979e+00,3.696472537974175299e-01,-7.045968313959608764e+00
4.886276833972595379e-01,-6.991351220002030686e+00,-3.764118764693451524e-01
3.579743905323683695e+00,4.204746597323778090e+00,-4.510117022899588157e+00
5.564091504022320223e+00,2.131719147001528203e+00,-3.842765992860871282e+00
5.482306661115025292e+00,-2.810841519026224589e+00,-3.436199115721515707e+00
-2.491150801811569782e+00,6.487720056438354810e+00,1.042416951655601026e-01
2.597505500102038845e+00,4.825308618887701684e+00,4.235501525823348601e+00
2.051645582023139180e+00,-2.686827266663995406e+00,-6.219403918657742558e+00
4.929947414053881261e-02,-1.451313820576351166e+00,-6.979145097815507626e+00
-6.453503454430545183e+00,-2.508287085119485837e+00,-9.078414454723283677e-01
-3.802799885376381361e+00,3.281873403751004670e+00,4.828360823642302790e+00
-6.781099640447633803e+00,-1.369243075942410792e+00,7.553168346889749252e-01
2.664209212026901197e-01,1.543441472058372899e+00,6.854911807628280229e+00
2.121744353524999571e+00,-6.656046199917502904e+00,4.208703042268391314e-01
-5.292923290685758175e+00,4.478278791191399932e+00,-1.321006310429947428e+00
-2.371061280010394512e+00,6.658704333061736591e+00,1.161626449022360896e+00
5.182779172285306046e+00,-2.313536476233576167e+00,4.204704706490854704e+00
4.979406620519705839e+00,-5.027996041621650924e+00,-4.985199221050622409e-01
-3.086021204509671545e+00,4.575252467550303237e+00,-4.389243546577395350e+00
5.278814796870588744e+00,3.921451963154646947e+00,-2.391604155846188462e+00
-1.495324471580766583e-02,-6.987705425395810188e+00,5.537442559080774096e-01
-6.081321433195492787e+00,-3.494335401374532690e+00,9.604929834618920470e-01
-6.180090946178060207e+00,1.799976003361265509e-01,3.714024321172880061e+00
3.574829303048273399e+00,3.477198855124010723e+00,5.138325539076943116e+00
3.770951481486435775e+00,4.170185417908721881e+00,4.213844927493377135e+00
-5.508119109969175753e+00,-1.200450883346443787e+00,-4.259901286363034778e+00
-4.964523577545336686e+00,5.017072511924443035e+00,-4.291389151620150777e-01
-4.978745485359227452e+00,9.563718618310699249e-01,-4.694778177997209312e+00
6.285212015828276044e+00,-3.498611768783618903e+00,-3.238114743130295348e-01
-1.555242648046892162e+00,-6.932151339742713414e-02,6.844438324919255301e+00
-6.238362944607160010e+00,-1.911796190005100371e+00,-2.687253703892920509e+00
1.136355214903844058e+00,-5.820452323068081579e-02,-6.925628252172449706e+00
-2.083752686618908889e+00,6.421446456498134836e+00,-1.875349363900499666e+00
-3.868154520130854923e+00,-5.433451146789859187e+00,-2.168263021904257126e+00
3.846233467229588143e+00,5.993094281071066121e+00,-5.188622177654071965e-01
2.668833831058563977e+00,6.316777229271692384e+00,-6.688897149416964671e-01
-5.918053466842015276e+00,-2.615028857682956787e+00,2.489095892275399180e+00
-1.518287932473519453e+00,-6.869440233127306783e+00,-1.193666037723782949e-02
-6.470821055935660482e+00,-2.292507221638365511e+00,-1.613635825339829299e+00
-2.087983780889115071e+00,-2.373635011987651033e+00,-6.317176078419860730e+00
-1.105091551473843081e+00,6.882533847205130506e+00,-1.020442981792336612e+00
1.084613249314064554e+00,6.151462526138723241e+00,-3.246201741108245997e+00
-4.388859734748447039e+00,-1.034204275177336596e+00,5.500422326567390385e+00
-4.789628378580271573e+00,-5.096216084975292659e+00,5.424700729572722313e-01
3.384517177593835968e-01,5.023654040862881587e-01,6.960803996733771370e+00
3.675176775619521496e+00,3.499099244539443543e+00,4.646556255872630992e+00
-4.359567350742507230e+00,-3.954207455697655860e+00,-3.913698936692524111e+00
5.110383763423126169e+00,4.772623200329548787e+00,-3.415666033534213164e-01
3.925678687913246812e+00,-4.114736797944773095e+00,4.228136750759603935e+00
-3.068425250803868964e-01,-2.075875929753506099e+00,6.705662099881329219e+00
-2.889607591192984604e+00,-3.730065998863759891e+00,5.277679507442469387e+00
-5.846990412797236303e+00,4.155254187400434063e+00,-4.507121417113505446e-01
5.603840482288693359e+00,-2.690599569122796630e+00,-3.359088858382736742e+00
3.269980656862312873e+00,6.048835946323953827e+00,1.124544910426289013e+00
4.788215723683612701e+00,-7.775889703619154325e-01,-5.087377784142839587e+00
4.662441918376575956e+00,5.214501152431036957e+00,-4.596059557258394546e-01
-1.426699875052557909e+00,4.737258887860519074e+00,4.793471132678685187e+00
-1.948879048051393170e-01,6.486856854531444228e+00,-2.755553923276667927e+00
1.871452647418250015e+00,6.730084592214589101e+00,6.993593378087534784e-01
-7.109929895128477284e+00,2.358371025889390293e-01,4.941277450847620378e-01
6.846893942264461685e+00,1.795991079764044152e+00,4.229364196261206077e-01
-4.837858362378318067e-02,1.351807817728680972e+00,6.811077945165127545e+00
8.285948812088131943e-01,-4.434823878042009504e+00,-5.350667471919398288e+00
6.748928552261982183e+00,1.487291568272168130e+00,1.747584994642491507e+00
-6.747348177264825608e+00,-5.556637793794573232e-01,-2.127898038642002110e+00
5.005366049429455622e+00,4.818713075675892910e+00,7.356488317057801041e-01
-5.594878742456494969e+00,-3.255473178056363270e+00,-2.821811318034340044e+00
4.327924694804718975e+00,-4.810035903959764880e+00,2.540270705869149825e+00
4.729644823171161860e+00,-3.575088558584976761e-01,5.233098174482681664e+00
-2.893336398649830166e+00,-6.180134042689442886e+00,1.867288894127081100e+00
7.647117246093166898e-01,6.107059827490475712e+00,3.058985107106301893e+00
5.433674208042935661e+00,3.792558211876189134e+00,-2.448969000124733508e+00
4.403400176648072595e+00,-5.587341183728262273e+00,-3.465306837800694040e-01
1.960325377165072380e+00,6.201584908198600310e+00,-2.616908910912633779e+00
-5.596273295452705909e+00,-1.110353885000490592e+00,4.448300935263559630e+00
-4.704358995919241337e+00,-3.650943567874544549e+00,-3.801153846208267240e+00
-2.081617889678857747e+00,3.506179658552267542e-01,6.561070009091354294e+00
2.875118025814458633e+00,1.755302186895628003e+00,6.149128993056692138e+00
5.584664786213451748e+00,-3.437827546508172016e+00,2.503215151691791984e+00
-6.872420316600400092e+00,6.352361353643624087e-01,1.200582782330450682e+00
1.887809319645320283e+00,5.096310645672902595e+00,-4.556142366617051742e+00
-5.480264313459595193e+00,2.264063695552657463e-01,4.321006670217293788e+00
4.511097783793918126e+00,-2.865893950048593375e+00,-4.581995111670560838e+00
-1.206693168392372728e+00,5.206274581927062606e+00,4.587975649682149992e+00
2.275483505767948333e+00,9.122497534428143373e-01,6.592701935219887233e+00
-2.097035192119375502e+00,-6.442145846407581367e+00,-2.017576380741237685e+00
5.167398958910315088e+00,-4.766348508003170892e+00,-2.370939822060129654e-01
-2.790463892218806752e+00,6.444972822103820498e+00,-1.249458461192794578e+00
