-2.830746047251176734e+00,-3.799488367261969923e+00,7.708088446745629874e+00
-3.155053518233073895e+00,-7.565642292013456505e+00,3.678478310269043039e+00
-5.040875426136715021e+00,-7.102411944486997086e+00,1.877183450786243712e+00
-3.092475129229625086e+00,-8.308056264632615040e+00,-1.140439915482267974e+00
-5.271580490897118665e+00,-2.136870098819392272e+00,7.122030164820768228e+00
8.237956950794776745e+00,1.430113058567814344e+00,3.032050322883409699e+00
-7.055411180851351105e+00,-1.136788575421624037e+00,-5.630949143561131187e+00
-5.043695301445135115e+00,-3.387736827082271418e+00,6.599840002179390375e+00
-7.517426312935779897e+00,-5.323926073529547942e-01,4.716451450413665647e+00
-7.768359683852623654e-01,-8.539192049115488459e+00,2.212390507561785569e+00
-7.143318553199494048e+00,-1.727854783757546198e+00,-5.138506990579364775e+00
-1.350297561108814159e+00,-1.402820046601658932e+00,-8.843953892509206938e+00
-7.105278249059091777e+00,5.615446091218485591e+00,-4.192674496562090458e-02
-5.150952471791987008e+00,4.584879618698434633e+00,-5.708040302908004904e+00
-3.867550845116291214e+00,-7.496219113891433139e+00,-3.296994333483922457e+00
-7.345253254578186786e-01,9.069492256977639499e+00,-1.766881927882579528e-01
4.222119062945921542e+00,-6.480292662325711106e+00,4.737564671027305607e+00
-4.547112024765484151e+00,-4.940665591841210791e+00,6.067486804958653224e+00
-8.875655899258468651e+00,-1.841872661536412492e+00,1.330609118542785962e+00
2.172266814415673597e+00,7.716502159639287761e+00,4.249303004863552502e+00
-4.640310613516278160e+00,-8.688447337168463402e-01,-7.720170450961575170e+00
-7.677683557141638637e+00,-4.219625843818521460e+00,-2.388934928632335364e+00
-8.252599379615007891e+00,-3.779952745084479648e+00,-1.723553991465032187e-01
-4.221983820729033887e+00,6.217105675561571232e+00,-5.029269892404022890e+00
3.321812844615644966e+00,3.666130233472927324e-01,-8.181382601561557166e+00
8.296060035382144093e+00,1.828958511575650148e+00,2.660042986923593755e+00
6.590764915697427284e+00,-3.499442810039981477e+00,-5.109545144482817491e+00
4.398674643886623770e+00,4.227836093228274805e+00,-6.685809606226353452e+00
-3.019305363539227294e+00,3.037663705958038918e+00,-7.966057030274921402e+00
-8.577619704144987978e+00,6.124446108362958663e-01,2.423409741821513919e+00
-1.195024765370989339e+00,-8.835655576778796316e+00,1.600236430882427952e+00
4.952112190007043502e+00,6.956414844592144320e+00,2.677115999545747194e+00
-8.770610823841010983e+00,-1.105039900016204335e+00,1.378945401223711231e+00
-7.599618258621783085e+00,2.643940522146695393e+00,-3.830602422509815419e+00
-3.818826224818743675e+00,8.042615740563087812e+00,-3.287577446417573324e-01
-1.917516555261796318e+00,-7.714121277650827224e+00,4.127546800443552044e+00
1.032235782113428924e+00,3.963488375398092067e+00,-8.080752525079981652e+00
7.746379202836316757e+00,-4.714229287576436334e-01,-4.507765837077872817e+00
6.037238440341265111e+00,-4.586442058528554355e+00,4.716851629077802421e+00
-3.602938858620378770e+00,-4.015622992117640955e+00,7.090593111534952087e+00
3.339493479683044885e+00,-3.175624129383053162e+00,-7.649804894159148994e+00
3.764753640737557916e+00,-1.808643855816075563e-01,-8.122918748217632157e+00
-5.443248574471859058e+00,-7.073384814572194479e+00,3.138649526843477755e-01
7.843602157479475645e-01,-8.278402358474870937e+00,-3.312554202506771794e+00
2.515181378003714219e+00,7.118265828009829654e+00,4.763825864971813040e+00
4.536272436369416461e+00,-4.312855349960709184e+00,6.521846426631378257e+00
-8.396864633057429472e+00,-2.558968657894081122e+00,-2.035212852722587673e+00
-3.960157864492921842e+00,6.433213147567673040e+00,-4.744598723908309168e+00
-5.901517726617675486e+00,1.222228948645288860e+00,-6.477618922483188157e+00
3.572784742015279735e-01,-3.250151352684520489e+00,8.583176683849259803e+00
1.164689491996127479e+00,-5.179512310769279537e+00,-7.169341764271589312e+00
-5.989581532151769139e+00,-5.385174952616806898e-01,7.029097490387910874e+00
-1.577971785050832576e+00,8.592469000426870451e+00,1.416126391912439164e+00
-5.052268364359363551e-01,-1.193326912173119814e+00,-8.990908834154597074e+00
-3.301893337868457845e+00,-1.132441973770983434e+00,-8.239007823955574850e+00
4.231996142505273895e+00,1.954327126358903932e+00,7.726428875348948289e+00
8.492010451073833011e+00,-1.011622347047502979e+00,3.041946925871219509e+00
-3.494634951271501144e+00,-7.931426172617130455e+00,-3.071869068694525584e+00
-6.484497707921776488e+00,-2.938762882425236089e+00,5.475593990105905640e+00
-5.309872601845427198e+00,-2.912520206744752205e+00,6.597765471627001332e+00
6.543646967692966498e+00,6.356343890560993692e+00,-2.428690243952875139e-01
6.590511808175104846e+00,-4.329692110435302332e+00,4.223659517735424807e+00
-6.677918749818982036e+00,2.116933283757760353e+00,5.484396113975478215e+00
8.255406380251677945e+00,1.610076874642774047e+00,-3.301970808560924286e+00
-1.792037313475701721e+00,-8.626839289278972700e+00,2.155308433099984100e+00
-1.778742483450387768e+00,-8.637296508897920333e+00,-1.647458926284655067e+00
-8.131233956611527702e+00,-3.388596733108153014e+00,1.768027137439837970e+00
-5.457023817962017631e+00,-7.190143105824195580e+00,-1.133090014852325300e+00
-8.848430705318840239e+00,6.649616588887172774e-01,-1.669424625391557448e+00
2.634788157664102459e-01,8.758355552064342575e+00,2.028927662276181820e+00
4.746992174816353049e+00,-7.520637354681955489e-02,7.792313066305204927e+00
-3.127404995074729577e+00,2.552022191578568577e+00,-8.152779476894528088e+00
-3.814612193152224329e+00,-3.427489554612174194e-01,8.338974676376167849e+00
8.319838494728848843e+00,3.616515019305903689e+00,-1.442781262624202254e+00
4.430483523635388110e+00,5.159750929390789942e+00,5.921596972554438842e+00
-3.428590781089367212e+00,5.320398712974419020e+00,-6.491972931489311094e+00
-7.749275565734214943e+00,4.218152193105551007e+00,-1.923168867361243706e+00
8.915096706686556516e+00,-2.228985380910899206e-01,-4.835002160640328173e-01
6.142924394949240696e-01,1.527918825723661111e+00,-8.775458435103116628e+00
-4.554850629980817800e+00,7.560459895713513845e+00,-1.202317257249625682e+00
2.911416175504971005e+00,8.219101033660480837e+00,2.210407860767352961e+00
2.183253435563048850e+00,-2.526824463838398760e+00,8.321775138884715872e+00
-5.107416057398287634e+00,2.551302304845796787e+00,7.003072330821941804e+00
6.176414183808515368e+00,-5.769554581270075921e+00,-2.569343945637196480e+00
-7.784930131114319529e+00,1.643382199337467098e+00,4.392855610294226665e+00
-4.675055704775065379e+00,5.555965336294505619e+00,-5.260729832711240839e+00
-2.641377128000593100e+00,6.938084578285601545e+00,5.041450885039774121e+00
-6.207374850593074811e+00,6.560277183792703859e+00,-6.485924252689759806e-01
-4.197483891486285756e+00,3.817258540638504560e-02,7.861996755986024432e+00
-7.546460469800474691e+00,-4.864714194413541470e+00,3.288742080533429979e-01
-2.968909695006830329e+00,3.838374246664743694e+00,-7.513308322507905146e+00
-1.549672011811836558e+00,7.872360475675221458e+00,-3.929575772123132804e+00
8.159232790960665227e+00,-2.804399903190480714e+00,-1.957461458261990028e+00
4.534896438387042039e+00,6.796965763503483693e+00,3.616122408714199654e+00
6.619364862596015975e+00,-5.843065545382260417e+00,1.994466631977478199e+00
-1.263556904333643427e+00,-7.347902261728097351e+00,-4.994917079554787698e+00
5.099362581558395391e+00,-3.347837362807594364e+00,6.580161008540077461e+00
3.500749992728348303e+00,-4.700675580635842010e+00,6.841995688167842538e+00
-8.196396510281466874e+00,3.206058811547331189e+00,1.698808049945799592e+00
6.593758899840710619e+00,-3.319817142420990574e+00,5.011902472092568672e+00
2.069251756778686779e+00,3.545580981105147078e+00,-8.096807928046493075e+00
-6.986330534283131666e-01,4.986820354970596725e+00,7.470765476603961730e+00
-5.447964979237039707e+00,3.274885146168577954e+00,-6.522641188330270623e+00
1.400009473111943681e+00,-8.006766955688560117e+00,-3.446801666066634073e+00
2.594211038667704194e-01,8.971983827688939428e+00,1.383979931845511269e+00
2.016250339188090379e+00,3.277850813274015618e+00,-8.209563904522989120e+00
6.438447202564297811e+00,-1.009249901689432960e+00,5.861565186568942210e+00
-7.600507521265591926e+00,-4.661868966566762751e+00,-5.316900135675771688e-01
-8.321839507483112186e+00,3.242826614689584108e+00,-5.392480165305379991e-01
7.747059549718896321e+00,2.273983736292791935e+00,3.830076557288459416e+00
-4.409202859670494412e+00,7.799239995393968172e+00,-6.335376949007027747e-01
-6.081506563808287247e+00,3.822650449348882429e+00,-5.512159450397444260e+00
-5.683487491429364269e+00,5.567714143096702095e+00,4.276282488161569084e+00
3.227265389201239287e+00,-7.127237838393951641e+00,4.515354662097849747e+00
-4.056337543659926242e-02,5.908354513131736319e+00,-6.540886123649744199e+00
7.736830041891406218e+00,-4.403918175965784165e+00,-1.560219685532821865e+00
8.786630487227488073e-01,-2.864406099061191480e+00,8.690736708796444887e+00
-7.270780365962507652e+00,5.443554877790137247e+00,-2.087727871519726164e-01
2.922269466534248128e+00,-8.550831457981535877e+00,-7.400025998838192232e-01
-8.614149315525370554e+00,7.184554093905015648e-01,-2.852415748283767538e+00
5.888830281013833767e-01,-8.951549959829749881e+00,4.230315564616435875e-01
7.520216981028793768e+00,3.706525118655058293e+00,3.108630608475341450e+00
5.130311201333794813e+00,-6.666430184433832729e+00,-3.227787424159216823e+00
5.335644013031452637e+00,1.400383589090276493e+00,6.925737982025392370e+00
-2.609159229014702763e+00,8.596201092697450363e+00,-1.042860981981847290e+00
3.000125701747837770e+00,1.418870305738709980e+00,8.379102715256060208e+00
5.956342791425198513e+00,-1.930638536443289421e+00,-6.500554474064640154e+00
-5.311325030254149482e+00,-6.360151371025319911e+00,3.401150357090942933e+00
-3.314107812304663003e+00,4.511021751288160964e+00,-7.109019603514912689e+00
6.232959819111650646e+00,6.407811962715019405e+00,-1.428411666876066466e+00
-8.031470531270141322e+00,-3.778021192825189001e+00,-7.511360285392878477e-01
-8.922900261972927183e+00,-1.188231401804515253e+00,-1.638985480559952856e+00
-6.136473599280403146e-01,9.049750299313634727e+00,1.012994375522211055e+00
-8.732919629041306919e+00,2.753607866836724760e-01,-1.777438034029929170e+00
-5.851161047708487439e-01,-8.705506162708230633e+00,-2.288239083774523674e+00
-2.310504752244068261e+00,4.420382036810856619e+00,7.516353266042419712e+00
-7.729841584230279672e+00,4.113388332762963451e+00,-2.244677147929118544e+00
3.761760744585228355e+00,-6.933039639072841709e+00,4.559022178624212884e+00
-2.523441123400970820e+00,-4.568699336492707097e+00,7.272103676470243805e+00
-8.876740362521584160e+00,-6.205368043827532050e-03,9.203548014205098493e-01
-4.485005343141203582e+00,7.083244686686869684e+00,-2.829613715342822466e+00
-1.400230626898300246e+00,8.211461023894875311e+00,-2.892976238187085158e+00
-6.800074098317441695e+00,-1.779039145536151612e+00,5.603853938017093306e+00
2.823023415572515127e+00,-4.194398874000692778e+00,7.591771832033967549e+00
2.651014689114929990e+00,8.512860335495918918e+00,-2.624130278415135464e-01
-3.885589185413976132e+00,-6.415099227300458118e+00,-5.265625675536349526e+00
4.424118660594833941e+00,6.152013048741189927e+00,-4.720303497495509149e+00
-4.022978043320002861e+00,7.772481738590565570e+00,2.174336066961336744e+00
7.097903403705076997e+00,-1.123053073323027951e+00,5.369206126039029137e+00
2.628889874874709709e-01,3.416062170457789815e+00,8.218591607817069544e+00
-3.791305764845135595e+00,4.511406309067836240e+00,6.737300983316001357e+00
-8.909028036544935247e+00,4.076961014324974042e-01,1.943429195661114495e+00
1.104438622236988632e+00,-2.947681398122222518e+00,8.394956039861645181e+00
7.755278768245855048e+00,-1.417642249496936291e+00,3.921682122617898614e+00
4.171689124419759587e+00,4.408457165568153147e-01,7.890637330324818954e+00
-8.089965700050418818e+00,-2.149081747672351828e+00,-3.050218901297795604e+00
-7.499735507682649072e+00,-3.758876067740389626e+00,2.883332340558113049e+00
-6.019452600790868857e-01,-1.434871830030781448e+00,8.872808535107326477e+00
-6.032524565711089970e+00,6.719394220940811735e+00,1.348017029717189619e+00
8.891319492801958546e+00,-3.565942049216040965e-01,1.916354640285924393e-01
1.091470598173615025e+00,1.766241403368686846e+00,-8.607100297901949304e+00
3.441796601909608011e+00,-5.703379239352423191e+00,6.065190580225781503e+00
-4.570926648922330471e-01,8.762826409188148702e+00,6.899331593586548461e-01
7.664163160862304203e+00,1.645681265803033755e+00,-4.015368495545386551e+00
8.732258624153232063e+00,-2.545647625114761947e+00,1.279258348991314798e-01
1.824259302574983144e+00,8.947506207709965409e+00,7.404635780167623249e-02
-5.733084340664382772e+00,3.271356770288712745e+00,6.262006629622305809e+00
-7.566128183496405590e+00,-3.008289307026370096e+00,-3.417667296370682894e+00
-4.634229106537934406e+00,1.647166282754110034e-01,7.674329815112490571e+00
1.731285546438960932e+00,-6.630531946895025897e+00,-5.911131822146780124e+00
1.235785948689911651e+00,1.573543000610835962e+00,-8.849370801894396621e+00
3.058398732654080465e+00,7.518780919900505566e+00,3.637897684372097373e+00
-8.770017415604462130e+00,-8.796002283825379298e-01,-2.018870197573019443e+00
5.326828243076301428e-01,-6.210009290049359088e+00,-6.527146606785503735e+00
-1.411207751111732689e+00,8.526650886032859589e+00,2.479119614247409675e+00
-4.397792257447670217e+00,7.782744745565336686e+00,1.508468562596274154e+00
-2.771960045981060272e+00,7.666205012776336147e+00,-3.938910236405297471e+00
-5.300709019099270058e+00,7.189223062086424143e+00,-5.888974957459859605e-02
-7.538446628001097771e+00,5.006322156062030793e+00,-3.157046470010686501e-01
-6.986943258182663818e+00,4.687466901529812602e-01,5.722906744409780089e+00
3.693195146985598587e+00,3.238732308965899254e-01,-8.208107896446270146e+00
1.877964301340323328e+00,6.132759522478647085e+00,-6.352079431237717344e+00
5.619517617809350440e+00,-6.257167694901834665e+00,-2.835506850072002205e+00
-1.429661805880970693e-01,-5.355849921268024616e+00,-7.071641642324506094e+00
-5.798039468744401681e+00,-3.969803351329957319e+00,5.614840946983558290e+00
1.563204286901456408e+00,-8.159749630212278504e+00,3.349961813399354504e+00
8.098326050306001278e+00,-2.778604039154595196e+00,2.473825893434677070e+00
-8.879453273506438649e+00,-1.468387827190858808e+00,7.559449315860665708e-01
6.937963929284571840e+00,-5.491312353230878074e+00,1.845294517415319469e+00
3.426656915895822664e+00,7.521621234783579801e+00,3.663691819383938952e+00
8.291562730033369633e+00,-3.316262936588011190e+00,1.033526258773184381e+00
-5.442848469847791470e+00,5.494204420794728705e+00,4.452732043376509630e+00
-2.379259113438345619e+00,-8.493766092120623057e+00,-2.443088278214890163e+00
-1.122332140558535363e+00,-2.020173567096739120e+00,-8.629742218509374396e+00
-7.594756810334222230e+00,3.859753417157762545e+00,-2.837055646831019740e+00
-5.240332979305265759e+00,4.221703345812939823e+00,5.682282561687755695e+00
7.877554059230852168e+00,-3.208591488774672040e+00,-2.762935296381888950e+00
-7.595616127726981581e+00,-2.804814983677923923e+00,-4.011832605553339093e+00
-2.814579946017086165e+00,-7.101650096501138876e+00,4.490570494268433244e+00
6.845450126047782469e+00,5.207050567620401971e+00,-2.213975083199169802e+00
-8.186437764414112195e+00,3.759511664785976759e+00,2.743713302254107145e-01
2.324063401174133237e+00,-7.737310905206972400e+00,-4.096312734511061038e+00
3.541448326385169931e+00,-2.322898078997835736e+00,7.903186168744398721e+00
-3.167237092329899806e+00,6.444928328865066725e+00,5.401914000771597557e+00
-4.338315186132872259e-01,2.188253566676892525e+00,-8.819545401287360420e+00
-7.457338187098152993e+00,3.072679231773665975e+00,4.188967778086490235e+00
-3.612889738259532635e+00,-8.073424463757808311e+00,3.394870326574025987e-01
7.546547913344742398e+00,-2.303752237401298419e+00,4.037378777050431466e+00
-1.155392357744221693e-01,-3.784535030767740338e+00,-8.340949773614335427e+00
-2.435212084227970308e+00,-5.648493534473341349e+00,-6.400639200113686478e+00
-3.564015118399509685e+00,7.425209706579447122e+00,-3.344010126667533278e+00
2.349720623711621936e+00,-7.375154255683447069e+00,-4.748140095905682756e+00
5.953867916037815178e+00,-6.063875612359198364e+00,-2.691761889008134290e+00
-6.649898975189673322e+00,2.636602202153301433e-01,5.844792107184374252e+00
-2.865459012401388339e+00,1.366699640184361186e+00,8.354810999041042407e+00
-2.717646138949970869e+00,5.312460842015979345e+00,-6.870545891273104999e+00
-1.101565105120892119e+00,9.027018390229166300e+00,-3.056293434864593150e-01
4.876670186637611648e-01,-8.545377248401250014e+00,1.994933453849139671e+00
7.119635936474044691e+00,-1.676751083446046398e+00,5.307146541894814717e+00
2.988763214707407467e+00,-4.521399108044740878e+00,-7.137564620040652841e+00
2.941556166906972525e+00,2.759603215437548940e+00,8.068667514648343086e+00
8.358363322202629675e+00,9.224779828757455613e-01,3.519067172800391941e+00
-3.672542887573476467e+00,6.596941894872380807e+00,-4.991737200448501000e+00
7.259048422955306501e-01,8.942226987730810706e+00,8.240919667383451719e-01
-3.690101318011771991e-01,-3.816211705400969212e+00,8.387585763149303375e+00
-7.372715132571606489e+00,-4.953461974608514673e+00,-2.231112280823960514e+00
8.450363395088990259e+00,2.801729994969186066e+00,-1.578771738913692602e+00
4.145441799142854045e+00,4.144667948150058123e+00,-6.631415554641351129e+00
8.729355017217244495e+00,8.250923375713582475e-01,1.559918247229759025e+00
4.635668877081078776e+00,-3.293795932326089915e+00,-7.175440055603934830e+00
-1.068850276905594754e+00,2.208603513569707300e+00,-8.767740758744839269e+00
-8.660268128909844876e+00,-1.577262944404807188e+00,-1.737760702635532395e+00
7.762029542679880656e+00,4.855709931540967084e+00,-2.362723458209216032e-01
6.582594415123209863e+00,-4.065846275450843095e+00,4.611750133288704312e+00
4.403974620144482266e+00,7.599831272349097055e+00,1.548266136100322710e+00
2.930712628347733162e+00,7.811682362603701080e+00,3.652846930956562765e+00
8.114779521848802801e+00,2.850341128504580546e+00,-2.810255921432875059e+00
2.946811449490156498e+00,3.375951286663900319e+00,-7.788263002247044042e+00
-6.787824812548377551e+00,5.281751551299760372e+00,2.791343838718904902e+00
-7.596815959406603369e+00,-2.629820415204018325e+00,-3.953490422978565899e+00
-5.478897414967962565e-01,4.907539427941597587e+00,-7.534656489578079430e+00
9.296541718046502645e-01,-5.118285134922488488e+00,7.343871497626371259e+00
5.034575132601564640e+00,-4.385165391364058252e+00,-6.036790657209696320e+00
-7.516212494783627740e+00,2.701160487091076146e+00,-4.154727686068111048e+00
4.053816661330717608e+00,8.116893362560462677e+00,1.557543430187181333e+00
5.710751129485744038e+00,-4.998508294961274245e+00,5.097304305517909029e+00
-1.369165013497094296e+00,-5.900151572931354060e+00,-6.656574135017080174e+00
4.991036370836294367e+00,-3.869427559461872335e+00,-6.245141298417300924e+00
7.950748694679157680e+00,2.594950703142604898e+00,-3.125869070281297457e+00
4.360142030701045890e+00,-8.043392743619069307e+00,6.627445249278147710e-01
-3.359601036913130390e+00,-7.993480654774564265e+00,-3.041571171725203193e+00
5.767936942507588149e+00,4.204979328673490002e+00,5.420348556951890551e+00
-7.500809069494513537e+00,-3.152003801305216957e+00,-3.475293387839353709e+00
-5.890333567912484636e-01,-8.591479350817508021e+00,2.761077056348881786e+00
-8.450324159846823946e+00,3.239371442030273496e+00,-1.546170604560126671e+00
-6.415386767135174750e+00,-4.003544382639329768e+00,-4.604785492245479617e+00
-8.112974726087708532e+00,-3.750279246159737401e+00,4.564185284723136227e-01
-5.059806153822225205e+00,-6.956103672417941475e+00,-2.875429495133595026e+00
-1.945224200621472610e+00,-7.296942697585961923e+00,-4.770579163342327789e+00
-3.280158974181404119e+00,-8.121571797444618213e+00,-1.482168078498295571e+00
-5.466399646975787618e+00,1.092931255797162216e+00,7.118425547240910589e+00
-1.615754907211446767e+00,-7.416362142576083727e+00,4.632686060712413401e+00
-8.024406909210087591e+00,2.499315906029730527e+00,3.278071041818627407e+00
-5.141324918466378513e+00,3.027593763583317443e+00,6.513287805618092285e+00
2.253823924903572529e+00,2.350074205430572327e+00,-8.420068424053354761e+00
1.107722011816977936e+00,8.841390313487623942e+00,1.431575930990111267e+00
4.244172084768048081e-01,-7.754827496976400836e-01,-8.861891277231944031e+00
-5.524518792736164308e+00,-6.095787992745104411e+00,3.770819556537609696e+00
7.808009997265446422e+00,-4.501728227694406392e+00,-1.203554288041567277e+00
2.933029806519005245e+00,-6.696975331793761921e-01,8.370132996562736238e+00
-8.796142466334347931e-01,-2.035721795714486859e+00,-8.590939167467960047e+00
1.964374941662661245e+00,-6.548568743268057268e-01,-8.767791358170020644e+00
6.949447290360341256e+00,3.838655824868955069e-01,-5.567823405706374018e+00
1.575857679724665283e+00,-6.435008932218527988e+00,6.158794586368122381e+00
-2.766707336096707603e+00,8.477500455238756061e+00,1.139285701314337595e+00
5.584983445379809730e+00,-6.034954358133985508e+00,-3.306522091704109823e+00
-8.176901441301979157e-01,8.722974728121821286e+00,2.841164696155126901e+00
-8.732147581344934295e+00,2.216926529845392735e-01,-2.177648472246098699e+00
-7.241510213740498969e+00,-5.222822513185229276e+00,8.622516677530284168e-01
-8.219287298845035394e+00,-3.308375643100003316e+00,-1.959536827834975847e+00
4.518182362380374961e+00,-1.082122488833766050e-01,-7.796677721433102448e+00
-5.938833351030452512e+00,-4.420379234570814830e+00,5.154937740826725623e+00
4.175452238406665906e+00,2.161053804813014345e+00,-7.619161841007392688e+00
2.399249608066141626e+00,-8.051941123817480062e+00,3.387644548753725005e+00
7.540015966374121525e+00,3.924598784831244469e+00,-2.739315653466263267e+00
-5.221371032936898082e+00,-5.449490892445793655e+00,-4.866057503356021385e+00
5.404615174353985196e+00,-3.157423880108019554e-01,7.276205547525511186e+00
3.994415841773626408e+00,-3.467472698873943049e+00,7.265960113273512100e+00
7.357938304169810095e+00,3.670220764082666953e+00,3.718162105117973404e+00
8.929617281646443416e+00,-1.070370491848595007e+00,9.350824081701660795e-01
3.880550143504410965e+00,2.170857333888749796e+00,7.915478843279082355e+00
5.446311568893999144e+00,-6.476988148716755767e+00,2.583991645677297555e+00
-6.254210837854844662e+00,-1.988154575470845620e+00,-6.041160794054869498e+00
-2.942853161679701568e+00,-7.989487124520036510e+00,2.398274480963152655e+00
8.385470525731705038e+00,2.968626391134492337e+00,-1.141725141920471032e+00
2.232526172789497387e+00,-5.292128180743545407e+00,7.007755924034825945e+00
-8.377649227005909083e+00,-3.370628677995316291e+00,1.237010272346570128e+00
-7.838726724207293550e+00,3.929934570028665863e+00,1.802845033790941409e+00
1.407305821942518520e+00,-4.312032825934421609e+00,7.791498201762853348e+00
-8.122972477428708871e+00,-1.295218283126077008e+00,3.574143337865565151e+00
4.751415648518606538e+00,-1.456235131395634985e+00,-7.402324254284473604e+00
-8.588263412475610536e+00,1.054110763788784766e+00,1.867843781260221103e+00
-2.851419029586479859e+00,-7.735610417054085808e+00,3.627395130097362141e+00
-4.194783243777583159e+00,7.886660288534427465e+00,1.212784442044268385e+00
-3.811576030175529706e+00,-7.667889224484721211e+00,-2.754694447664435941e+00
-5.363341183632316600e+00,5.013815613483271427e+00,-5.112293107597643882e+00
-1.769274607353691131e+00,-3.357494573832864759e+00,-8.130134545054563233e+00
-7.739293147862734479e+00,3.505255237619534725e+00,3.168433592368279594e+00
-1.685273329895398353e+00,-4.721674067243850637e+00,-7.545101912989220061e+00
-5.463641271669209543e-01,-6.875239754780350765e+00,5.736944850068890212e+00
-7.320291356169201791e+00,5.609736378151411351e+00,-1.753366705288381400e-01
-2.214522653151339338e+00,-4.162550446313432850e+00,-7.706916700190379110e+00
-1.592065294981512613e+00,-6.107641786256516880e+00,-6.415606382472639702e+00
4.731555091471896013e+00,-5.691438309520929550e+00,-4.973903780885198245e+00
4.078374941972509049e+00,-4.732811397275201060e+00,-6.575006939455755983e+00
-5.932753213864878639e+00,1.234609869705179497e+00,6.369944917327294398e+00
-5.905028582830096795e+00,6.086588298309241196e+00,3.351624573571521104e+00
3.034038821906962724e+00,8.175138515430237618e+00,-2.912680385690898710e+00
-5.381289510492068828e+00,2.446783611101014611e+00,-6.494660668582808327e+00
3.193746062007455588e+00,6.727303111394900448e+00,5.132157880601122102e+00
1.017565503981327391e+00,6.422060822759666721e+00,6.386587655767330673e+00
5.362166136551709261e-01,5.705028193520177204e+00,7.173416879885844644e+00
-6.824418515801897733e+00,5.054868552412839833e+00,-2.429184200981533426e+00
4.540744184085536261e+00,-5.230353853738065162e+00,-5.803135681685105851e+00
-8.103294675667465086e+00,-3.948044879551969366e+00,-1.641113985052391699e+00
7.505876279909528215e+00,4.915429324811231737e+00,-1.113794433693736208e+00
5.598246960577238696e+00,-2.974666821586078869e-01,-6.961375508137381374e+00
-9.031781217699017539e-01,-8.813601875605236557e+00,1.378954473280994408e+00
9.000197324058964554e+00,-1.901173085666531648e+00,-7.124236211310064348e-02
3.883031434357466338e+00,7.600990472329257841e+00,-2.838410510676835141e+00
6.917267641615620910e+00,5.407350462731531415e+00,1.832678507335299356e+00
-3.802632876985712063e+00,7.925938446805704807e+00,-1.958200537389498619e+00
-7.389918142349983121e+00,8.218004033866938007e-01,4.889621301558558564e+00
-3.475913219140448263e+00,-5.486862852188031603e+00,-6.086025122498748274e+00
-3.643126210522273922e+00,4.099211972444058105e+00,-7.138368741340435975e+00
8.865129467042825340e+00,9.780410870961238345e-02,9.234316446203898465e-01
-3.766185648927502960e+00,-1.635501548565094110e+00,7.957899409150513748e+00
-5.109428684621557082e+00,7.277734604408463426e+00,1.683849345514955465e+00
8.511739189690517904e+00,-1.200357679618692108e+00,3.189233685205230984e+00
-6.676304349613680245e+00,6.011086971472369811e+00,6.024765220998578030e-01
-7.030747203963758629e+00,5.507242024408137482e+00,1.265712353208010288e-01
5.643579791252513189e+00,-4.559330741939733755e+00,5.381107273562327542e+00
-2.209600198926404691e+00,-7.206148066433772037e+00,4.946597720721896962e+00
-5.772947400375191940e+00,-6.288078408508826378e+00,-3.135380517111229448e+00
5.023216565656756671e+00,1.748005552997080825e+00,-7.320076015426319138e+00
-2.876451090339743999e+00,3.071215476482522355e+00,-7.922017479970978826e+00
-3.631279776503574253e-01,6.963673592368463616e+00,5.607345685405191738e+00
2.863613522545199075e+00,-1.677769529730165576e+00,-8.439438292980355527e+00
5.352996697780708857e+00,6.925321383721936286e+00,-1.945236997716581984e+00
3.912511777368846921e+00,-6.897655510395741985e+00,-4.353928599893770013e+00
-2.579035056027897177e+00,-2.756721451423977509e+00,-8.165096405146494263e+00
7.324474030286658000e+00,-2.388383896149943730e+00,-4.885362879658678992e+00
3.650684778832203881e-01,2.924025742020266438e+00,-8.509448821370293459e+00
-3.632149127104662423e-01,8.057234541792620774e+00,-4.061743803271307129e+00
8.395277715636375149e+00,3.326422832474655866e+00,7.261984381733540550e-01
-3.901176206611183694e+00,-7.975606994804282479e+00,-1.771012728109457424e+00
-2.646314468432786615e+00,-6.799945540728456805e+00,-5.276462352015753865e+00
-1.391024297064680448e+00,-5.613446779765220995e+00,6.915130517717274827e+00
-7.432797652584530734e-01,5.856846737622289467e+00,-6.978609094673265290e+00
6.062736074297624178e+00,4.626281980281468087e+00,-4.401952832561779161e+00
6.397186271250792089e+00,-4.972092131205338994e+00,3.696933047354859614e+00
7.124515703530273081e-01,-8.626587936594090067e+00,2.521054420090963699e+00
-4.462579440377562712e+00,3.952302859735921547e+00,-6.757196952445261751e+00
6.857311967765794769e+00,3.536896690158447543e-01,-5.971405870233148505e+00
1.337111920763893180e-01,-7.464967894595806008e+00,4.674242713239793900e+00
-3.553745565617130175e+00,2.022350803722364976e+00,-7.924616363259377572e+00
-1.733616376354344180e+00,-8.327073896231532046e+00,-2.747958525779139904e+00
-1.510201190089967893e+00,-3.040764625544521427e-01,8.868258144730409853e+00
6.777171210723369477e+00,-5.313512444688273106e+00,-2.451802631715318981e+00
6.780840732188589293e+00,5.492120670316980480e+00,-9.887594957047015631e-01
-3.392394259614228136e-01,-5.625064517516379148e+00,7.161901539049625676e+00
9.136899155997270094e-01,-8.235961829622732822e+00,-3.169236789937936560e+00
-7.542017645774208745e+00,3.982730288518661954e+00,3.263143278759986998e+00
-1.617529208509854266e+00,8.901687631321285821e+00,6.850117324773776772e-01
7.375859727600312610e+00,-1.421011995220555546e+00,-4.897970920327042066e+00
-5.549495545042402611e+00,5.799489748429226488e+00,3.906500470594871377e+00
2.095595225458297683e-01,-8.537064157093405825e+00,-2.504559515113207624e+00
1.882293753174922202e+00,6.049586215911546105e+00,6.367511304343506318e+00
-8.622027685961915822e+00,1.193755206307710454e-01,-1.527685014590991930e+00
-2.191976495298705530e+00,8.296370210245013865e+00,2.708475355621588143e+00
2.454715146802863845e+00,-6.504037838575232655e+00,5.504215336318379670e+00
7.020720547726095440e+00,4.457259086549269611e+00,-3.434522518577972860e+00
-4.234670532288229872e+00,-6.153570957287862520e+00,-4.944703671754463237e+00
-1.458014731744234460e+00,6.683029373788037297e+00,5.696372273920996321e+00
-1.188217490932890197e+00,8.428993324632434891e+00,2.817715336706205775e+00
4.959573880055167194e+00,-7.092589636213733506e+00,2.382422876531934186e+00
1.482767287337489082e+00,5.671296651853878323e+00,6.746583093983581136e+00
-2.286569130292659402e+00,6.276695319861947731e+00,-6.401686429445017978e+00
-5.240587927151905134e+00,4.734307077938597175e+00,5.355573236464079123e+00
-6.304365623617093739e+00,-4.499808521616732726e+00,-4.374354278473388646e+00
-1.556500119836672802e+00,-3.657014648450712446e+00,-8.046189912382772036e+00
4.849380044318193583e+00,-6.940512364522888333e+00,-2.849686943010339757e+00
-5.470394875409711588e+00,-6.344641304831142747e+00,3.213906363696730217e+00
-3.476827958925046591e+00,-4.257293456186234337e+00,6.838719625771382482e+00
8.057055254504730257e+00,-2.134876680131669868e+00,-3.264285108197122920e+00
-3.086453100613672174e+00,8.334732803560019221e+00,6.603774455834450219e-01
2.012495400980673033e+00,-7.852439620982858415e+00,3.592494219857063964e+00
-6.273369712986709423e+00,-1.911823338255246973e+00,6.348101553488516124e+00
1.760518154916488998e+00,8.601391668049233274e+00,-1.341116094693060257e+00
8.622825403822465873e+00,-1.216995722449155881e+00,2.091176053354589559e+00
6.909992732313481767e+00,5.576921747214040437e+00,2.066204478643702824e+00
-8.673039105924731373e+00,-4.940958794773033791e-01,1.777866343286275352e+00
4.536300742515089190e-01,4.352499714266367725e+00,7.589288117845716108e+00
4.027155668745929340e+00,5.839703483019190067e+00,-5.527384596302230335e+00
2.635209935864017083e+00,7.525587205382320732e+00,-4.037742313233174229e+00
5.026739796514043235e+00,3.433738373673565825e+00,6.517536415551928641e+00
-5.661549118808415493e+00,1.258336304515806248e+00,-6.688930643316784774e+00
-3.528838746263634474e-01,-7.695214914809270113e+00,-4.832300890763135293e+00
-4.701523895339044579e+00,-6.882946978687304096e+00,2.980387003237890298e+00
3.143856235859270876e-01,8.149359981869437775e+00,-3.819209213260846170e+00
8.089177172192932863e-01,-7.213396459492017243e+00,-5.347721513238242963e+00
8.204190396956958509e+00,1.556933830469786395e+00,3.504536669301521634e+00
-8.977458208699651721e+00,-1.062454825167215455e+00,1.282705934474583698e+00
5.276032252533532585e+00,4.677712221941156656e+00,-5.558923957649324343e+00
6.357088698743400990e+00,-6.333318654347499077e+00,3.456984693986603612e-03
2.250055476131000542e+00,-1.690491673343783807e+00,-8.395764797428338255e+00
-3.540410418122498015e+00,5.035834555721861783e+00,-6.412570401056824743e+00
-3.590341346554443813e+00,5.490977133782245723e+00,-6.217683641289805330e+00
3.333809025984939112e+00,7.991830452392578721e+00,2.598344596542669027e+00
5.500781864297842327e-01,-8.956803376863001986e+00,2.492710287948324277e-02
-2.850551140379810722e+00,5.657029704362391165e+00,6.234395643254101671e+00
-3.928873993653823504e+00,4.468480625249363847e+00,6.508301933175220100e+00
-7.807327145990095474e+00,-2.162293652878786165e+00,-4.016323739250450942e+00
-6.806756464397720308e+00,5.285948532247752851e+00,-2.751945204038491966e+00
2.791966501279631530e+00,-5.875512222228059578e+00,-6.136082751284849479e+00
3.072476819234968848e-01,7.793786382552346126e+00,-4.565396953991974982e+00
-4.808466348317843142e+00,-6.649363494787909445e+00,3.740929933230460858e+00
7.689209826338396780e+00,3.133407332956967384e+00,-3.547047333605481523e+00
-2.439681107154059614e+00,8.340391464914530317e+00,2.668506294219572084e+00
9.673717659041320971e-01,-1.596339205627897551e+00,-8.632621097019747225e+00
-5.358532760889917590e+00,7.026266354776098844e+00,-1.981265860335351903e+00
8.204162483093831781e+00,2.883569467329430425e-01,-3.791434057041065842e+00
-6.510710948744751647e+00,1.217362626183475127e+00,-6.296211945747779204e+00
1.200479349708207133e+00,6.876983469061844545e+00,-5.686056490015872988e+00
6.203384709582389966e+00,-5.027861533033672892e+00,4.178727181394883416e+00
8.734455534191495119e+00,1.088060387181661648e+00,-1.279310102820311545e+00
-2.250109544702415754e+00,-3.146137137899084557e+00,8.062068860988595986e+00
-5.648093899779940585e+00,-6.051196688825483783e+00,3.795959151842101864e+00
-2.412567847641548191e+00,-8.488656642994373058e+00,-6.574917213294458884e-01
-4.867632398832371976e+00,1.151285115566483830e+00,7.481096803822440577e+00
6.600775938192912307e+00,-6.184317616818718832e+00,-9.326936560218441752e-01
-8.217446820341081093e+00,3.167194868179180833e+00,1.434066684648717116e+00
-2.171965402431475844e+00,-4.918518778811581171e+00,7.135358263438098980e+00
-8.427817945666340904e+00,-2.797377314264793302e+00,1.105837456449916933e+00
3.345641369340550231e+00,4.075432453475786865e+00,7.267468474766949349e+00
-1.348391371617240875e+00,-1.209156042115795859e+00,-8.815959218190712932e+00
-3.441489167203604982e+00,8.121849798886779936e+00,-2.073492255190136468e+00
4.543394614582393132e+00,4.452363220530627608e+00,6.120148227824961928e+00
8.419574649274522926e+00,1.654929045923502429e+00,3.084299535021272298e+00
-6.428840070719535227e+00,-5.516688180444839773e+00,-2.569642593854942536e+00
7.232767246784137960e+00,4.942503337101724625e+00,2.312841870930028243e+00
8.458165015002998999e+00,-2.845330184648581451e+00,-1.215149520179537479e+00
3.275416760267972016e+00,3.640217982707640410e+00,-7.508370698077126093e+00
-9.068944237034816780e+00,4.190053437226565897e-02,-3.261264560618893915e-01
-3.964881706658262672e+00,-7.887737425393359203e+00,9.891430885395655626e-01
5.321862190857686414e+00,-6.446882176761976169e+00,2.808010164952131849e+00
-7.936932904182698145e+00,3.966741430949230374e+00,5.240839324554215084e-01
2.774198552928315742e+00,8.054131516501884747e+00,-3.009229532528821860e+00
2.446764990341192991e+00,-6.262266836489752464e+00,6.114652798497935748e+00
-4.519317158548307845e+00,-3.803353390929630873e+00,-6.652836967059133855e+00
2.980952384658543952e+00,1.933123801825304522e+00,8.357118071131662163e+00
-1.680915855351621246e+00,8.600240493923886120e+00,1.901159885636698688e+00
4.010502584190104969e+00,-5.937536520820314578e+00,-5.501577978808689373e+00
-2.372668646658483205e+00,-3.474049000240631457e+00,8.105971347494625334e+00
-6.414094644132659617e+00,-5.736723802539597905e+00,2.042557673675466035e+00
-6.356639327810940543e+00,4.470465206853251772e+00,4.469319655429558225e+00
-1.951410098970886908e+00,5.018000390513246423e+00,-7.160162945145470914e+00
5.735764350871877859e+00,6.144724517945537201e+00,-3.116878587790568034e+00
4.020127086352969226e-01,-8.818865814679417880e+00,1.905799984657057244e+00
5.111996526688838749e+00,1.938054488741333126e+00,7.226363149855204782e+00
7.181343357455880927e+00,-2.335299282446492430e+00,4.766856596345703245e+00
-6.411070125367557715e+00,6.119330870726924942e+00,-2.074689978737660034e+00
2.012591188149129628e+00,-2.483403051356110058e+00,8.408479051385707947e+00
-1.082900841068586750e+00,8.960812534079030556e+00,7.555420728221927673e-01
-5.808567493535012893e+00,5.894237895488313228e+00,-3.448429884172117710e+00
5.459217543134712081e+00,-4.329297880812529975e+00,-5.794068457022800267e+00
-8.923374811468349321e+00,-9.575808964569568205e-02,-4.813872659873682514e-01
2.896491693402296619e+00,2.682624839597878008e+00,-8.094548694953511259e+00
-6.538448937815730666e+00,2.910190401139836069e-01,6.190389094412484638e+00
-1.051248630497922942e-01,-8.918340382607073735e+00,-1.022021534538619214e+00
3.193278374082671345e+00,4.992139342803032953e+00,-6.706039676677597150e+00
-6.528962708426534256e+00,-3.644140216229971863e-01,6.278614541433785057e+00
3.545484710812404572e+00,-7.889124501788086441e+00,-2.474988618399537987e+00
-8.612928613569862391e-01,8.833394070217181593e+00,1.680124581780116033e+00
7.508605108541527073e+00,5.010314296609900353e+00,6.827541089052687751e-01
8.253859962084780122e+00,-3.479173503636455500e+00,1.045489616551842138e+00
-5.353239699116391748e+00,-4.323553428103361906e-02,7.223591957665262520e+00
-4.954988843436758827e+00,-5.855222626013537379e+00,4.892745619862008510e+00
7.081492276660220853e+00,-3.980035127997865185e+00,3.781963716232741302e+00
-3.543084929608695699e+00,6.364438510872692412e+00,5.403296151899334099e+00
3.833202955091941089e+00,-4.415794439386142578e+00,6.741348670398639165e+00
2.557945541621904795e+00,6.011309710480396085e+00,-6.100831145388026400e+00
8.838963053955467331e+00,1.733043107009092143e+00,-3.053400956598478766e-01
-3.901069110875182488e+00,6.561024491472281284e+00,4.787672774704962997e+00
-6.554906135319541249e+00,2.390742212031366498e-01,-5.784728598706780467e+00
3.290092154847644057e+00,5.410166058229936681e+00,6.387040694768647775e+00
-7.824440303350697512e+00,4.019476115306000352e+00,-1.835118506259921789e+00
-1.655091573874358790e+00,-8.278846393354818645e+00,-3.146447374606688996e+00
-6.540975762182508646e+00,-2.463240145132234105e+00,5.683508145335077977e+00
-3.409401048578093008e+00,-7.737945104688652265e+00,-2.993912263745579949e+00
