-4.117151403114198693e+00,3.527043245183916209e+00,-1.245129357643473877e+00
-4.118809430992959264e+00,1.927847773293485556e+00,-3.270968899393133178e+00
-5.492627467591425727e+00,-1.449897098793076378e+00,5.707361535004451536e-01
-4.743387635163763605e+00,1.465853149704825498e+00,-2.420379371564841620e+00
-2.697221129341772272e+00,-2.534329372972675465e+00,4.202945848381689053e+00
-2.468904041687677964e+00,-2.842527744015268532e+00,-4.147153913177190176e+00
2.506956576293950523e+00,-1.592729115278601615e+00,-4.855182823783119161e+00
-3.291842963703567992e+00,-2.036554944765128994e+00,-4.090921044537953577e+00
3.976820871604654251e+00,-2.583310054263970201e+00,-2.988315323832743786e+00
-1.288187099574645389e+00,-5.291363537156759556e+00,-1.054971843043523760e+00
1.754328783703088313e+00,3.844855775283702926e+00,3.739346641607468325e+00
2.008792681183627415e+00,2.983845758923201696e+00,4.254194519073463354e+00
1.950466267672924081e+00,-1.230720085535575103e+00,-5.011488786333478274e+00
-3.118312075436224351e+00,-3.612940551272155965e+00,2.860202700165476841e+00
-1.933529648710008653e+00,4.123910984509079114e+00,-3.148036285272259427e+00
4.787788131914918921e+00,1.842318930547059974e+00,-2.363232655029031459e+00
-2.362946579322767526e+00,-3.631683851777784966e+00,3.550745769271735242e+00
2.094105265671655669e+00,3.617157244675253125e+00,3.818246293277033576e+00
-1.246918113379273052e+00,-4.837001291359949384e+00,2.509859114622583931e+00
-3.747773463552930284e+00,4.012179062893316051e+00,1.222325399798949608e+00
6.616957660249285222e-01,-5.489434550286088843e+00,-1.956703845856540835e-01
-1.695663022723533642e+00,5.263773575690855466e+00,-4.328739462400582605e-01
1.211187268978434872e+00,5.386848132865676320e+00,-1.030841910913402826e+00
-1.512610568836776581e+00,-1.405841105274451497e+00,-5.199821288995715385e+00
-1.919464952690270065e+00,3.387165202379465168e+00,4.130927414175970647e+00
4.794922888078508860e-01,4.644934590387106432e+00,3.071837383629349105e+00
-2.624637697850493279e+00,4.995361930959865582e+00,2.962849924995966666e-01
-4.881641818890656737e+00,9.155686313342624449e-02,-2.697594176388134812e+00
4.628607204527859231e-01,4.216542242876284874e+00,3.692910896282202149e+00
-1.512914078487147540e+00,-3.307174279118222149e+00,4.178366403278890751e+00
-3.482574743311782406e+00,4.333543491138058812e+00,1.467098043627267090e-02
-3.005990595709287394e+00,2.546583027314979208e+00,-4.077674519869981751e+00
-5.723549033086807736e-01,2.085019793806841548e+00,5.179973451147414032e+00
2.025616368763419328e-01,-5.654977158874191723e+00,1.604233984856694717e-01
-2.079251756103795312e+00,3.854763176278690473e+00,3.576416285459866007e+00
-3.681417512946159931e+00,4.070902047921226341e+00,-1.131180285278857722e+00
4.589046339626636772e+00,1.238908810374771852e+00,-2.832330717280217680e+00
-2.102869145021231123e+00,4.309124236659823026e+00,-2.677378649781665398e+00
2.349856332936741232e+00,-5.105587037564936814e+00,-1.688590122321073916e-01
-9.556729464559610143e-02,-5.417427497313287432e-01,5.519520066852010132e+00
-8.337612944690858674e-01,-3.482535799051817982e+00,4.154768066201455667e+00
2.146521434522927319e+00,-2.584971623135714491e+00,-4.552397757073373796e+00
2.991537101980628610e-01,3.879626849230974006e+00,-4.080970888241699512e+00
-4.659839327652864682e+00,1.989302092782960996e+00,2.333244007382684782e+00
-8.386637679827198266e-02,-5.600179965606437271e+00,-3.751988892721739438e-02
2.094773963460992316e+00,-4.175592998094776576e+00,-3.065225316096353403e+00
4.242867387810933089e+00,-3.511864533463033844e+00,-6.639863590310153274e-01
-1.544864512926865219e+00,-4.285037715057923968e+00,3.266297552976598517e+00
1.775688070187185774e+00,-5.364636827448332035e+00,3.297120256127978322e-01
-3.330669987473810600e+00,8.065845310481956076e-01,-4.372201900279568676e+00
-4.584115752993259685e-01,5.508472694549635840e+00,-2.660035722354147508e-02
-5.270411983724730298e+00,-3.120465117654817044e-01,1.552518295231160028e+00
4.719514492103479064e+00,3.000255286693156886e+00,3.133734593810221236e-01
-1.067673265236560365e+00,4.273122688680053294e+00,-3.239207390039385626e+00
-3.480599463529620685e+00,4.212774887982007499e+00,-7.199405309533158936e-01
-4.044584127186406697e+00,-1.581663841796340453e+00,-3.439229839666174460e+00
-4.352112638247500165e+00,3.132332037402381530e+00,1.574383783648314106e+00
5.163401507979890503e+00,1.992681393355787201e+00,1.944710815853677721e-01
4.924232380739005599e+00,5.225956755674495691e-01,-2.652545200855978003e+00
-3.466895301290535247e+00,-3.243303128467780017e+00,3.079364232022840486e+00
2.811532975558731717e+00,-3.318724466189578948e+00,3.480127000682958549e+00
4.130277040829918533e+00,-1.203051774089502368e+00,3.586913715067987507e+00
-1.252490143784595888e+00,-4.875952855852084156e+00,2.313175923457003513e+00
5.020429372377135380e+00,-2.885736788113067997e-01,-2.178689870885977875e+00
-1.118051679948485422e+00,-4.214261263030327775e+00,3.348807167380964955e+00
4.653755162156875791e+00,-2.131854580310443392e+00,2.224285713459845049e+00
8.381375720015404873e-01,-4.270303120827623644e+00,3.529673188068584100e+00
-8.366991086909933983e-01,-3.889721876233362519e+00,-3.985041750204603606e+00
-3.573136734408927317e+00,5.285600092449252996e-01,4.254358528714733190e+00
-9.648530003216150286e-01,3.133426815771888307e+00,4.566038047945017553e+00
2.905598312370918368e+00,-1.981305884495498049e+00,4.447581924285794130e+00
2.273061274038893131e+00,-3.109450691577773096e+00,-4.100302816518007099e+00
-4.890144052010199083e+00,2.732616450407247655e+00,9.894663645448691092e-02
-5.176264325335760752e+00,-6.056146777663072855e-01,-1.961323631414088275e+00
-4.685000978278099026e+00,2.627046550860502983e+00,-1.345282958447399535e+00
7.523785600593795309e-01,-5.099590029277541348e+00,-2.271824105441237585e+00
-5.193297493697458300e+00,3.822554846787185601e-01,2.192185974981974983e+00
-1.282368629368709989e+00,-1.623810465166227068e+00,-5.090019002806169368e+00
5.834803193692368328e-01,5.122472539984656237e+00,-2.016231403413845769e+00
4.414755416812702116e+00,-3.191326729241317217e+00,-9.425144370407750882e-01
2.061652054258407141e+00,4.775758371705951966e+00,-2.437199725987391652e+00
4.350531498946525133e+00,3.298629145993432932e+00,8.905798200146414212e-01
2.040123329964289134e+00,5.142843030037485441e+00,5.106355040362953179e-01
-3.601774733362649084e+00,-7.901492329171042606e-01,-4.310940495736820033e+00
2.004711433471958681e+00,-4.387773241777991551e+00,-2.730430719366058856e+00
-4.555354388193634030e+00,-2.666482409378251983e+00,-1.952734794527205997e+00
-3.720354818020458421e+00,-4.198893006175212328e+00,1.999520363883936502e-01
7.283616748002146313e-01,4.947677215971893361e+00,-2.575297260209929551e+00
1.067893599030724366e-01,5.348922712471369856e+00,1.627860504069963410e+00
3.488975806949667913e+00,4.324877453472598887e+00,-6.296278700758116686e-01
-5.505342958629166894e-01,-7.200485490635181174e-01,5.536497118673217699e+00
-1.976843030325939665e+00,-4.926479633139195791e+00,-1.913004449235249149e+00
-1.974214585742054107e+00,-3.809470772124452509e+00,3.726631049690257491e+00
-4.220459774601996727e-01,4.279259455464444528e+00,-3.559946867616865518e+00
-4.842176536471979098e+00,-2.342246283934618312e+00,-1.433328162068684408e+00
9.854494431995212134e-01,6.502125338105905206e-01,5.510146344433876742e+00
-3.473968071028892712e+00,-4.397221301441853747e+00,1.672233993068492908e-01
2.807346687920420081e+00,4.702751514910405994e+00,-9.965525787199873697e-01
1.753012124379958125e+00,-5.088207092654336350e+00,-1.066097242105455534e+00
-2.439306577485989003e+00,-2.754499630196666438e+00,-4.206383386756312071e+00
3.183685431229524632e+00,3.986270775324780580e+00,-2.375019414937729501e+00
-4.447809368253578199e+00,-3.120305938062146289e+00,-1.423903894288333083e+00
-2.906188383955467636e+00,3.480345728518398740e+00,3.199998562441387140e+00
-5.734339681262449195e-01,5.308629385212511487e+00,-1.395590098550631541e+00
-1.569594844895729313e+00,4.031178932215000010e+00,-3.526919986194695156e+00
-5.591880324241697009e-01,-5.255536520255728483e+00,1.663870725461010558e+00
5.211061812592907572e+00,2.159492659651115254e+00,7.002150586279686229e-01
3.001473070785825037e+00,1.649710799775127246e+00,4.408163259194617822e+00
2.563200067451739894e+00,-4.304788780181810992e+00,-2.203703334249903278e+00
-4.946852226009186282e+00,-3.313414579927987935e-01,-2.500166878519648694e+00
2.044544789962973841e+00,-4.372014759991645905e-01,5.136792432611768433e+00
-3.415663094615283057e+00,1.981589021593959998e+00,-4.015679189572895602e+00
3.406352242688388543e+00,-2.060584474937784627e+00,-3.790332083447242706e+00
4.687872593603304772e+00,-9.579183958804131649e-01,-2.756288306269186084e+00
-3.393189116300606711e-01,-4.212944114097483705e+00,3.402196561054532165e+00
5.261350614067985987e+00,1.890752873774487475e-01,2.155720515514744307e+00
3.303162128458060121e+00,-2.801670874455064464e-01,4.430535203387800713e+00
-5.524597362849303916e-01,4.678326718733802458e+00,-3.034561818445153936e+00
-2.255960736482129469e+00,2.179067649838028142e+00,4.619169660268336308e+00
4.430868837886092315e+00,-3.322408561209064803e+00,6.577141632502387925e-01
-3.497060142213377798e+00,3.431072218480004210e+00,2.826125845658043811e+00
3.380929371029921970e+00,-4.434516716899087996e+00,7.961131843963757948e-01
-5.199581899382115679e+00,-1.970533865196613332e+00,-6.873395743809143088e-01
-8.392016548106355778e-01,5.530954944319373290e+00,-1.686561025874817599e-01
-4.627929516297390578e+00,3.285950091791999927e+00,-6.630635456891104118e-01
-3.622260162417371365e+00,-3.418289130780471030e+00,-2.436229921076527472e+00
4.427144596416168199e+00,2.023519688071337530e+00,-2.474098971863149643e+00
-3.581055438097534349e+00,2.006725468600277562e+00,3.661491292241981999e+00
5.016747140955154505e-01,-5.095136069258570544e+00,-2.187316488180533369e+00
1.702082400982962040e+00,5.340648863044159533e+00,6.036291880728463302e-03
3.110559716541692499e+00,-4.578446214082444676e+00,7.766046361339346005e-01
4.958620188663092954e+00,-2.232181943039112326e+00,1.446881052499403353e+00
-4.834223118472232628e+00,-1.980271773999515039e+00,-2.054843828948776707e+00
-4.182565368559333585e+00,2.768724091256548725e+00,-2.524816516076904716e+00
-3.678160474501762867e+00,-4.600128492653255963e-01,4.168354881937087697e+00
3.735880845041287035e+00,-4.131098509363877014e+00,-5.788653441436528713e-01
4.471682998477660043e+00,-2.109775417285450594e+00,2.458707751521344687e+00
5.454850082121729393e+00,1.121284630259331005e-01,-9.604499944512253640e-01
4.571135694849970399e+00,-2.127148209315306293e-01,-3.188532427980629969e+00
-4.023339548813940958e+00,-1.494839918865247919e+00,-3.458732294541794428e+00
1.969974898043880485e+00,-4.239717832663298935e-01,5.223570169651215345e+00
-1.847022873938939519e-02,-1.407597476769866518e-01,-5.612084847445703240e+00
2.587170846866879703e+00,1.791629343077027814e+00,-4.709209058208765342e+00
-4.906514422197443714e+00,2.267044639095515013e+00,-1.120252930716851170e+00
-4.095890265856821699e+00,1.885732791289657651e-01,-3.746646833788468633e+00
2.779801691256019947e+00,1.736535048609187726e+00,4.553059564629116984e+00
1.534725644882610096e+00,3.784209628483979238e+00,3.866445786584441269e+00
-2.663260027788981521e+00,-3.090652076611585031e+00,-3.758966327202934998e+00
-3.048359610189156910e-01,-5.470445459867297799e+00,-1.060553622498544346e+00
-3.408764891014401943e+00,-6.481508564672107120e-01,4.320799170160912084e+00
-3.275616349617482825e+00,-4.497527945826439222e+00,-7.742860115642811181e-01
3.902308859414842956e+00,-3.762373538656695438e+00,1.230856295472020578e+00
-6.736127240011042794e-01,-5.324524365301119389e+00,1.553421856289632030e+00
3.067655736334629957e+00,-4.428818159575897973e+00,1.382142607012983859e+00
-3.376402023248018747e+00,-4.341089510820168584e+00,1.363571881681402420e+00
2.768819588473343973e+00,3.552065730153472156e+00,3.169877293019140119e+00
-2.444064639222683244e+00,4.864546447046667943e+00,-1.044184492346882376e+00
-4.015654991691925524e+00,-1.189498632403430678e-01,3.723660866297576533e+00
-2.557295502142507448e+00,-2.149412227027183153e-01,4.991649751697585735e+00
3.141250357629295831e+00,-4.693044418298544684e+00,2.227264670976930039e-01
1.036704450999753169e+00,-5.194140133455578123e+00,1.767150076060949093e+00
4.713117837038128810e-01,-1.684679544015619479e+00,-5.287183328206899624e+00
5.338082991026567026e-01,-1.112512541743511552e+00,-5.424704091850522047e+00
1.201009320178135109e+00,3.067140060581745598e+00,-4.464273671252048992e+00
-2.518259883116407138e+00,-5.076071669973639011e+00,3.500774516954544557e-01
-1.939788005905599633e+00,2.954085473441893650e-01,-5.209515454516819410e+00
-5.353998218348515081e+00,-8.113641514943026323e-01,1.316652789759100273e+00
-1.926904670374689266e+00,6.729725810076410131e-01,5.183506840666078475e+00
-4.099912149572150000e+00,6.248361264488565547e-01,-3.722748814967562936e+00
-3.976224262745013949e+00,-1.017132973589876199e+00,-3.708110728584507410e+00
-4.525998480481193020e+00,8.729489962455723173e-01,-3.298819163943542687e+00
4.926554578018793151e+00,6.426627367705577409e-01,-2.363045972107163273e+00
4.730391479869813232e+00,-2.234399413341166873e+00,1.698544369549169764e+00
1.294925889094285187e+00,5.418267245455290038e+00,-4.420775160718938834e-01
3.971571652730073954e+00,3.512497982252336115e+00,1.794859643862739329e+00
-2.816978644094214168e+00,-2.967460400781518182e+00,3.802858139306109830e+00
-5.362280485733018409e+00,-1.334836245145051947e+00,8.582278455907912385e-01
7.206243908078704408e-01,-4.526665069458626789e+00,3.137759274078451899e+00
-1.634753066736664096e+00,3.452932915554934645e+00,-4.069379180751174552e+00
-5.121027530438603037e+00,-2.089708292984946425e+00,-2.995410171346823414e-01
-5.392870317895229526e+00,-1.299914397486402473e+00,1.039707530510910249e+00
1.877688121030113289e-01,5.238942214330182701e+00,1.895273622756924681e+00
-4.756947480609461820e+00,2.488451847908128123e+00,1.485645839024812176e+00
-5.440797012056593829e+00,8.608863732975808869e-01,1.487278857297801071e+00
-2.061770442721122532e+00,5.069060989509369897e+00,7.697125953133961973e-01
3.282942648416583342e+00,2.986524111479231358e+00,-3.412753107969436428e+00
1.580940727045097915e+00,-8.834189381117909523e-01,5.335530444482367685e+00
-5.391354712878611011e+00,-1.327740014654885226e+00,3.473822092690874719e-01
-5.628254988781823620e+00,-4.221998496103612775e-01,6.899979352237795016e-01
1.860977379193011094e+00,3.821484209115583397e+00,3.582227011921654380e+00
2.051419868728889817e+00,5.864960938038319416e-01,-5.244813101532263211e+00
-2.726009578735444361e+00,-2.784125050761515063e-01,4.990633866781696071e+00
-9.860069373930215875e-01,3.786325299281388723e+00,-3.976552677930641710e+00
-3.660299092116455544e+00,-3.455056917749951495e+00,-2.541396390654348636e+00
2.767809162516176591e-01,2.103205869335377898e+00,-5.049164216179728548e+00
-4.970855579629305687e+00,-2.407636479773990867e+00,-1.652879367171103675e-01
3.018092300076775647e+00,-3.524792997598165112e+00,-3.218441384096067281e+00
4.932912128633062387e+00,-1.541820117154024450e+00,2.174944909853495645e+00
3.072363593863365772e+00,2.187386602721600681e+00,3.986427263973356894e+00
3.295909949546386386e+00,4.374225169663092494e+00,1.243594532261205643e+00
4.145405335507259537e+00,-3.573405526930199194e+00,-9.281972182441198260e-01
1.385368732694421817e-02,3.622903151689598644e+00,4.276817746654736574e+00
3.818239803434182900e+00,3.148426336061098230e+00,2.524559650506517983e+00
2.704086270383811108e+00,-4.330640591341282430e+00,-2.014104432617812801e+00
-2.553833453200255565e+00,2.093488017086997388e+00,-4.496094307405625656e+00
-2.114888637394543913e+00,9.934526171644488812e-01,-5.134953450031009226e+00
1.651856164846866148e+00,2.108581321235369899e+00,4.824753802124702062e+00
-3.801452727723578562e+00,-3.242290526109757209e+00,2.367662438907229383e+00
-4.644167532371644924e+00,4.140253025205125059e-01,-3.177964755212430603e+00
-2.001993955224185662e+00,-5.217933668673336634e+00,-7.430703781283830578e-01
4.474199179312907226e+00,-3.324308719913863452e+00,-4.967896141666400256e-01
1.320312813914328975e+00,-2.784100877913865180e+00,-4.703516380031977917e+00
1.727439329102897325e+00,-2.318856020063212231e+00,-4.837806045233516095e+00
-2.632874830048693937e+00,4.510291091858317891e+00,-2.116369462217986275e+00
1.786714661791564129e+00,-3.061564305688722953e+00,4.339352983628105065e+00
-3.657217949578523530e+00,3.727497225620234556e+00,1.930850233007364913e+00
3.429332293814593147e+00,2.466928577044527060e+00,-3.712302311464852789e+00
2.001041102848481579e+00,-8.752329333250378207e-01,-5.170497448211343716e+00
9.984836906275894597e-01,-5.021116342667599319e+00,2.541695521912578304e+00
1.771586327001250183e+00,2.226481657406702563e+00,-4.888248635233142458e+00
-4.599583684297654962e+00,6.757926062661047117e-01,-3.181399561408285503e+00
4.587944734145052550e+00,-1.639344727510848310e-01,-3.250422625390818610e+00
1.110444131257103395e+00,-9.463557937213682436e-01,5.278243434329700001e+00
-1.512020402781165007e+00,-1.105692599978086221e+00,-5.135464631758397402e+00
3.137632655654161162e+00,-4.188010275536527161e+00,-2.067570534612650945e+00
4.609333784755669683e+00,-2.074348471056121301e+00,-2.458741693317338495e+00
-4.618432354720145128e+00,3.203931044580970777e+00,-3.168563775020262208e-01
-7.542231882707463031e-01,3.981630521829357505e+00,-3.837316199454340548e+00
-2.101402651335182448e-03,4.656390012832117620e+00,3.154645412746035937e+00
6.823989358659046101e-01,4.033274389825759698e+00,-3.795178835240140547e+00
-2.423055033172325068e+00,-3.746657133734345724e+00,3.410738042667905479e+00
-4.505313844536590118e+00,-2.625313881733409627e+00,2.127637785329352660e+00
5.480029574010158555e+00,7.340671912520640996e-01,-9.869923371148612290e-01
3.001884834409462410e+00,-2.818457572472092387e+00,-3.732626149720884356e+00
-1.290101245974535349e+00,4.869817633791031497e+00,-2.358801771806123160e+00
3.624533169894448292e+00,-4.085713324692663129e+00,-8.197679195757175130e-02
-1.334990055733023206e+00,-1.868787909463231811e+00,-5.117126764531428229e+00
-3.131079289230855878e+00,-3.382807528073691561e+00,3.304154862986776298e+00
2.949675197771202684e-01,-4.562918640035531492e-01,5.518885710832254432e+00
4.389507859398746881e+00,1.609066475315169331e+00,2.967379187145366970e+00
3.624230776367858287e+00,-3.595118400788565705e+00,-2.501508667570710998e+00
-5.222963463221219627e+00,-1.658649090137904292e+00,9.932400575397836162e-01
-7.763180655564454191e-02,1.231360571660572445e-01,5.626717135770899603e+00
-4.330884610117890610e+00,-1.179756503289300262e+00,-3.532446038078734585e+00
-5.005774998935193842e+00,-2.240833247308274601e+00,-8.719980142486652985e-01
3.164224055819894410e+00,-4.108655006057262860e+00,-2.203230916097398406e+00
-3.083232156125086831e+00,-4.278485953881865811e+00,-1.596844489827869973e+00
-4.900631382613819476e+00,5.736802630793824687e-01,2.406380170761093229e+00
3.581141834276678981e+00,-2.641749385630339564e+00,3.195568323949337763e+00
-5.382872393357384766e+00,-5.163445239320929581e-01,-1.366652145660771644e+00
3.827241950264373305e+00,-3.935829833662753074e+00,6.612612868774911945e-01
3.327737890666231824e+00,-3.550682622342741901e+00,-2.619573052520313361e+00
-9.595700783882390450e-01,1.278499880066927163e+00,5.357891882416629059e+00
3.579017289293843884e+00,2.125376474661835768e+00,3.729370206466221749e+00
-4.058709048789111762e+00,3.821399611679208608e+00,3.809990604185045648e-01
1.461956302518167439e+00,4.384290792893685840e+00,-3.185261328482120735e+00
-2.531208928826532034e+00,4.539153055603131648e+00,-1.909216748784651418e+00
4.822660922260961769e+00,-1.386840927263117029e+00,2.093343853344380445e+00
-1.046977134546438037e+00,-4.480247383869028432e+00,-3.028264433832139613e+00
-9.840932307560540382e-01,-1.495966465262005829e-01,5.489656514237514884e+00
-3.114885651081774842e+00,2.717853219736946269e+00,-3.771879765483788116e+00
2.774602233672831986e+00,-4.633994527884961023e+00,-8.511382719621933823e-01
1.524821921695744154e+00,-3.181149133119140604e+00,-4.484248010457704936e+00
-2.707459630897798952e+00,4.826626622625963314e+00,-7.097977974390747846e-01
3.730340071574197669e+00,3.546258576067853330e+00,-1.941450176983236187e+00
4.611968862424075333e+00,1.552043184365128559e+00,-2.746500345172736335e+00
-2.721889062846954310e+00,-2.560602274334716544e+00,-4.209497749696236468e+00
4.292158326566685389e+00,3.347745422649968106e+00,1.147686888555029538e+00
1.471499432618617931e+00,3.136647718316507127e+00,-4.321899621605818531e+00
3.799287417972680103e+00,-1.972336020057520733e-01,4.095780766231221115e+00
4.528461193399115459e+00,-7.869494126228524511e-01,-3.129379022311592706e+00
4.118372501310706840e-02,3.604676008365203188e+00,-4.261146552863825931e+00
5.060852106278833418e+00,-5.082332821954087532e-01,2.330405389523022119e+00
-8.183173998239222369e-02,5.513326603476857990e+00,-8.101581692951060898e-01
3.002277235232902797e+00,4.632071692541605223e+00,1.009329355459711808e+00
3.739432000691184754e+00,-3.913390450166391865e+00,1.596291169471738103e+00
3.420669476212689908e-01,5.566671347485375065e+00,-1.283702154511641991e-01
6.876848646227237127e-01,-3.270776809064131374e+00,-4.548019159951792290e+00
-3.279561697325490854e+00,1.770420075434559815e+00,4.118195887870902183e+00
2.149034481137798380e+00,-2.462625113601272009e+00,-4.484468717568052654e+00
1.143618851339938791e+00,2.297198638809309301e+00,-5.046102075476667892e+00
3.613709074805430799e+00,2.238887315993556726e+00,3.639009850706675930e+00
4.855924941004248208e-01,3.750181119236493110e+00,-4.086694311991069029e+00
-1.168888865187782677e+00,-4.276049846672289156e+00,-3.300086073353769134e+00
-2.764208844513525776e+00,3.472655697200172309e+00,-3.339260241927398010e+00
3.163520894093001523e+00,-1.297942605400810523e+00,4.417783223202686571e+00
-2.256841649322641974e+00,-2.016461941615192155e-01,-5.181315694244990944e+00
2.649284352991290614e+00,4.457756848583334097e+00,-2.115942990689484660e+00
-2.634259238635630940e+00,-1.421773440022616075e+00,-4.813986330952909398e+00
-2.545621602486243695e+00,4.994808583897365040e+00,2.774806212044751974e-01
2.896743460307724227e+00,-6.829177702987089191e-03,-4.754042930901047903e+00
-1.717855310389406309e+00,2.419646392554539283e+00,4.698460632879400301e+00
4.245252231343065397e+00,1.691451947334947192e+00,3.398195661556564051e+00
2.437207936596243130e+00,5.009211042264012370e+00,9.326879989562240902e-02
-5.062902924685466211e+00,-2.306707216877917244e+00,3.180525763924239580e-01
-3.317591746377226425e+00,-1.989956764960534308e+00,3.982211953465097931e+00
3.602394524633106165e+00,-2.231166014765008754e+00,3.636354257012486269e+00
3.176721180160429370e+00,-3.783113083132772836e+00,-2.691468245625580735e+00
6.072182923475892835e-01,-3.535058205276650923e-03,-5.561965568218028899e+00
3.517557377478010672e+00,5.438680206081432100e-01,4.371032496482220253e+00
5.360302869839129514e+00,9.464795224505396787e-01,-1.358711331622890928e+00
-4.298027943232249015e+00,-3.461624758966327597e+00,-7.195610365097202532e-01
-3.541306205473460089e+00,4.263782325875824064e+00,3.344893752210280069e-01
-3.865005424466481987e+00,2.683379360700934857e-01,-3.944742945221259678e+00
-4.262317466296678070e+00,-3.225057256573907072e+00,1.433494165848946844e+00
-3.127417370105822769e+00,4.571608116322365412e+00,5.727233141248355697e-01
4.459018101078152441e+00,5.247260366999521031e-01,-3.179755257073458186e+00
3.622028121756224461e+00,-4.158941136391729465e+00,4.130822137506576786e-01
1.349591573508456266e+00,-3.301880542112956896e+00,4.299684298872884725e+00
2.467292582819996749e+00,-5.006285206894967033e+00,8.102561811852938556e-01
3.695386867778004181e+00,-3.938194055876929944e+00,-9.472136117069949179e-01
-4.563912528867660967e+00,-1.546362757697204771e+00,2.689656445052994282e+00
2.125904379638510644e+00,-3.824330457537582717e+00,3.496072863857343727e+00
-4.610841531316074438e+00,2.547107887808691462e+00,-1.780364964085766388e+00
2.979288985526498568e+00,-1.671815183285201956e+00,-4.413426243310307306e+00
-1.265448961377104720e+00,2.796503868649525604e+00,-4.648225525685737658e+00
-2.508979277254620666e+00,-2.107640853972450934e+00,-4.467709954634226932e+00
1.394809754777390776e+00,-7.437677080508423577e-01,5.364119071599450450e+00
2.315802639013963660e+00,3.591521826711581600e+00,-3.398771878933153356e+00
3.871319304589619925e+00,-3.902454214133693977e+00,1.413875541328717400e+00
-3.311847991313024431e-01,-3.679025172538348265e+00,-4.279734848436958394e+00
2.454781500890741153e-01,-5.546194171628368252e+00,-7.629153414353743168e-01
4.732188451590633171e+00,-2.047652000653134241e+00,2.180676712523935024e+00
-1.963860791143023699e+00,-1.257950940980207433e+00,-5.156397670935763955e+00
5.299187839844104353e+00,-2.021123291523254373e-01,1.848993289621127634e+00
-5.198703502524252507e+00,1.802785039714422277e+00,1.382219836965292936e+00
1.805172255941798198e-01,4.408114091876059071e+00,-3.593650302011397901e+00
-1.186864960655249712e+00,-6.758660187454164081e-01,-5.341791906016467806e+00
3.222181006872856468e+00,-3.309139893223641771e+00,3.063402848247806620e+00
-4.900901063290757698e+00,1.406245848212045457e+00,2.244193477754275357e+00
-1.572968813438359481e+00,-4.842951228040860201e+00,2.342221660185376475e+00
-1.871099070402712838e+00,3.471567099332681039e+00,-3.903955613405008407e+00
-1.122166626909711029e+00,3.310434507215466837e+00,4.469817184751197381e+00
-2.347908760321959942e+00,5.102158029257195082e+00,3.686063913873693365e-01
-2.828597486823684615e-01,3.961495508867152182e+00,-3.882998111582838252e+00
-1.246129392126021473e+00,-3.405910080066612000e+00,-4.205660907985728336e+00
1.917519603149651752e+00,-2.913850546016036880e+00,4.419498875576983288e+00
-3.561049156212287681e+00,3.341699960143294401e+00,2.919489138460534594e+00
4.204107736807582540e+00,8.146838142786153592e-01,-3.650700921779432395e+00
-4.453620425965900687e+00,2.581282385359467302e+00,2.272747067789743003e+00
-3.420964994896782851e+00,-4.555086038169198659e+00,-1.579450872738470124e-01
-2.909960639458152865e-01,2.347703215470992699e+00,5.006782120039909856e+00
-2.724035129127458266e+00,2.522107200879922573e+00,4.175808707448846135e+00
4.057182876574522368e+00,-3.899006681993799628e+00,4.818053534297093154e-01
5.582276614030343254e+00,5.277838388220326138e-01,-3.739029550482793618e-01
-1.889228407173802804e+00,2.764261512931807552e+00,-4.356097141722730548e+00
-1.586640891733988701e+00,5.458928549094061111e+00,1.351610775206635306e-01
2.961566838243553601e+00,9.461102241883659336e-02,-4.561857531853357628e+00
-3.729145160961609307e+00,3.485078913888392194e+00,-2.451111103967594129e+00
-3.205867378905127296e+00,-3.252082030554498182e+00,3.311536831460757391e+00
-3.739433806685660056e+00,-2.651754831925030587e+00,3.293832116450119418e+00
-3.768798246583412670e+00,-3.000007550569285808e+00,2.851664488390294405e+00
-4.627319366033839643e+00,3.244927400529390216e+00,8.595938340132383559e-02
5.128931463959213843e+00,-1.528795881572890147e+00,-1.540521250600853875e+00
-3.868523367536932600e+00,6.230538772789732116e-01,4.075441937955317506e+00
-2.738426809711971721e+00,-3.988764448336724389e+00,-2.831630072495761929e+00
-3.673938193277535569e-01,-4.037478556774768634e+00,3.863851425083110414e+00
3.427886187971104448e+00,-8.244033799778675009e-01,4.194271871776781069e+00
-2.235632203236722848e+00,-1.921643427953142746e-01,5.079375687737145206e+00
1.253917025288588061e+00,5.120408608203715239e+00,1.806064247084039787e+00
4.398474458206356186e-01,5.510565462451930685e+00,-5.127404375819907267e-01
-4.447335263363505931e+00,-2.984321986507675550e+00,1.293873576303700146e+00
1.077804706563026738e+00,-5.313932319148340078e+00,1.430873699798994814e+00
-2.924230085400910895e+00,-2.591511255548655690e+00,-4.086816231571329894e+00
4.280491405948764344e-02,1.222769324681307612e+00,-5.597732130028296282e+00
2.995027645685013201e-02,4.137394631716972526e+00,-3.748020216154490658e+00
1.607566105951250712e+00,-5.307817601142177821e+00,-5.678877354449305415e-01
4.930806525792503336e+00,-2.642768253290419533e+00,4.179617521706591177e-01
-3.502502932064978314e+00,-3.877074388901878610e+00,-1.966293909876029034e+00
-4.101353019854911963e+00,-5.326126366858515704e-01,-3.706479422587515060e+00
2.824882984322893975e+00,-1.802902960690198508e+00,-4.547762966237824500e+00
4.671732945245616442e+00,-1.570295747647979079e+00,-2.611045882812736529e+00
-2.135880904838455496e+00,3.879694695139169092e+00,3.397215736086655280e+00
4.800962152678625472e+00,-2.726487645624722789e-02,2.889108822625855222e+00
3.637496636031042563e+00,-3.314417475912478928e+00,-2.783397610628469021e+00
-3.687262407357606797e+00,3.303823736024187330e+00,-2.697088914119815328e+00
3.674560649827221415e+00,3.092084300909435646e-01,-4.226461507159149811e+00
-6.704337871483562195e-01,5.547559437442947328e+00,-2.999867049859136769e-01
-2.669030661806631732e-01,-8.661839078503671407e-01,5.425768707584063044e+00
-1.067392814443663296e+00,-4.510376591900189247e-01,-5.499663175183775898e+00
-4.926127686494618629e+00,-2.160710511538763701e+00,1.482302340320598377e+00
-5.060329385906301880e+00,1.733036523713304300e+00,-1.701773172072204465e+00
-4.786392230085258603e+00,-1.651392806780165534e+00,2.324442918381222078e+00
-6.265478733054333782e-01,-1.694146796040665759e+00,5.384220689415877281e+00
-3.406430793855837802e+00,3.891517597910219450e+00,2.171298706569692705e+00
2.209324589065228550e-01,-1.254557524655681988e-01,5.651813788630774660e+00
4.854149731205898433e-01,3.975748837028161731e+00,-3.765953789780002392e+00
-1.901300873790024548e+00,1.703708199882886021e+00,-5.002158731499296351e+00
2.650189325727373646e+00,4.956512215866236026e+00,3.772265968187186735e-01
-2.679792028193977771e+00,-1.385310901840231201e+00,-4.643258006391953074e+00
4.850523608622359539e+00,-1.604524213336245175e+00,2.390895778784642101e+00
7.172798978909175061e-01,-5.296224275322024333e+00,-1.740983025472297330e+00
7.988456146259638180e-01,-5.363423750278239588e+00,-1.337435812151904324e+00
-3.296325413029587814e+00,3.538064109345173680e+00,2.764705071581683882e+00
-4.157651545839526008e+00,3.373001114768595432e+00,1.330334288733372450e+00
-1.150380082063309772e-02,3.587485656144289603e+00,4.141304421563687832e+00
-5.599726099519314992e+00,-3.101958100756386782e-01,-4.543067256376600582e-01
2.020025966742634571e-01,-5.540577951465685658e+00,7.636098766389513015e-01
-5.057861286695332304e+00,1.847914413339779127e+00,-1.894266591414392131e+00
5.316307297281925415e+00,1.447840040659035710e+00,-6.960001774144514153e-01
-3.215573534901469355e+00,3.856472138798527016e+00,2.460531231141795061e+00
-2.627062848562981667e+00,-2.990155307604147161e+00,-4.136865316046288932e+00
9.247958815923394971e-01,-5.513113317795038881e+00,6.318769754476200040e-01
2.721722278566644435e-02,-5.618191532036217239e+00,2.858976672501321592e-01
-5.446138310696190921e+00,1.009402450853005950e+00,3.480166958814782663e-01
-4.876766116370748527e+00,2.249001379216243546e+00,1.462082198728918980e+00
3.525854692843789273e+00,-2.783927776396623699e+00,-3.237847562412639491e+00
3.468492724005463601e-01,5.378895792833477962e+00,-1.638153892531988509e+00
1.816169380009919232e+00,-4.827658862422295805e+00,1.712052541384496473e+00
3.315396440215406804e-01,4.923780912660375542e+00,-2.575698426027327237e+00
2.976049783949288319e+00,-3.089021261281492237e+00,-3.459608687131774385e+00
-1.822083004033055786e+00,1.557046214647604065e+00,-5.090555126758792959e+00
-2.895136909348326792e+00,-1.305300192407696513e-01,4.829748946412067312e+00
3.031331163543006024e+00,-2.254420453474307529e+00,-4.088339080047310503e+00
2.542813166559668048e+00,3.816031538505840093e+00,3.283352455050328800e+00
-2.543489152663096053e+00,4.865566052786034490e+00,-3.805815560706277134e-01
3.176110278129752995e+00,-3.234013363328279489e+00,3.192360302181625809e+00
1.028013977679288482e+00,1.615421443201961349e+00,-5.297319097717562819e+00
-3.506585150580256105e+00,-1.502415838376517154e+00,4.175159878781325773e+00
-1.853129586806819828e+00,5.188954264893704149e+00,-1.225402077260510536e+00
-4.031357563864879978e+00,3.882420882379133076e+00,-2.811354426524604322e-01
-5.612637389332626014e+00,-5.302470542272746945e-01,3.179678905188881299e-01
-3.770589331244584397e+00,-5.647010888419589092e-01,-4.078966433972395222e+00
4.747552602692794110e+00,-1.413378158631078740e+00,-2.502120478624695110e+00
-2.207612634025490461e+00,-4.592876641736758359e+00,-2.471301470978941595e+00
3.975270740346067644e+00,-2.510629185122840390e+00,-3.115490016110070925e+00
-4.214617556729084669e+00,-3.438448914997260797e+00,-1.467811629747234337e+00
-1.017177028359940838e+00,-4.744962204034244735e+00,2.599972192779621771e+00
-4.269366897105399516e+00,3.643379422978097804e+00,2.574536827407958306e-01
-2.474857697033944870e+00,-2.285966444908396511e+00,-4.507455185727846647e+00
-1.438175554350237473e+00,-4.399310728697548356e+00,3.179862465230721025e+00
-5.171704418476297249e+00,6.301488409137084856e-02,2.165321859520554781e+00
-5.450441420588867381e+00,1.724178491713496131e+00,-4.781787865341178834e-01
3.228001326618796352e+00,4.432993169488919527e+00,-1.493506069109779011e+00
-1.271549477219520441e-01,1.299748786057247196e+00,5.314467030679280057e+00
-4.425435124945198417e+00,-2.992266828211279428e+00,1.495050244190382571e+00
-2.336396728854327254e+00,-3.466597435516582060e+00,-3.661562847771321128e+00
1.835481512186395880e+00,-3.224914071255357229e+00,4.143204593060483276e+00
1.831305708359570295e+00,-2.755562561672025179e+00,4.557017303658009943e+00
2.505622942051790591e+00,2.091549898719291090e+00,4.566373392532313780e+00
-3.089841714370503922e+00,-4.703068426113079958e+00,-5.887509516077740201e-01
-1.927756380118113899e+00,2.682733261404690150e+00,4.430522580167838065e+00
-4.846628062682054150e+00,-1.478961912341965723e+00,2.355617984108495655e+00
1.158961453782544782e+00,1.271979327179831865e+00,-5.236444497019487443e+00
-3.104512126606115530e+00,-4.689954563154638656e+00,-4.091330555679366654e-01
-5.423549640080095990e+00,-1.223301196629704712e+00,7.374812263806170831e-01
-4.742670038989641235e+00,3.011925413141751218e+00,9.885222786089241653e-01
-1.306922612746238999e+00,-5.140224295829751711e+00,1.758241157385159958e+00
3.869796634282422154e+00,3.784989105939097431e+00,-1.035480511471134735e+00
2.008113032192236247e+00,1.167840598305325051e+00,-5.117101653763818980e+00
2.079959297027196730e+00,-9.308165536554584285e-02,-5.230389190680781120e+00
-4.016700255562428268e+00,-2.436077009612164890e+00,-3.036825628164230295e+00
-5.346653086338206684e+00,-1.263978390410851249e+00,-5.695796139076376718e-01
1.211919324199756343e+00,-5.312758111459600308e+00,9.107669563233568022e-01
3.420691298494840105e+00,2.218661199456525956e+00,-3.798034289204048619e+00
-3.415615392759960400e+00,-3.816315108314166427e+00,-2.334377520180198839e+00
2.319980333298286901e+00,7.144828687738938866e-01,4.856488516248425036e+00
-2.457126325921436205e+00,-3.827776874191958445e+00,3.163319129378812988e+00
-3.887612380448284721e+00,-1.564940781456640284e+00,3.602419065614762772e+00
5.579391512148412779e+00,-8.183080284025874285e-01,1.844536296125663943e-01
-3.375797546620921796e+00,-3.641918987626631132e+00,2.562434001166749464e+00
-1.262828822168149179e+00,-1.539898573885897272e-02,-5.364770906374467963e+00
3.093209272369792373e-01,-1.611046404137333576e+00,-5.417772815106108197e+00
4.672870205697859936e-01,5.493068805575682667e+00,3.580820866064353125e-01
-1.835536615457339815e+00,-4.121742644441894754e+00,3.319986613261397768e+00
5.527503250385361611e+00,5.873403177219154170e-01,1.387753815823993264e+00
4.725998636781808315e+00,-2.926186793810151787e+00,-5.506212700481009081e-01
-4.317048095477531433e+00,-3.550383458269061876e+00,-7.662162202683285850e-01
-3.295302062018533318e-02,-3.861204657139626129e+00,4.106064360913872946e+00
-1.411945686549485934e+00,4.183862039926062870e+00,3.476624457309213323e+00
-2.492284414696044781e+00,-3.181542373579714589e+00,3.832058034466940377e+00
-2.457804351228355666e-01,5.235032092987164987e+00,-1.964249674738039131e+00
-1.232030142882155177e+00,1.909701113534831407e+00,5.183577088271382749e+00
-1.600553144362432789e+00,5.189713955153253622e+00,-1.403131141748368282e+00
-3.457244891851765090e-01,5.372339197037603320e+00,1.549697533114944070e+00
-9.940889701032037395e-01,-5.553443233834117088e+00,-5.333591181799479664e-01
2.778575060111369233e+00,-3.549212458415194948e+00,-3.238225452626070311e+00
1.080586962130867912e+00,-5.543357352388835757e+00,5.560368660685872932e-02
5.552878528753431020e+00,4.228771502824049122e-01,4.282782981310390147e-01
-3.478725851986250284e+00,3.835808210462630985e+00,-1.901621108297814278e+00
-3.751975029600441158e-01,5.653444850267631772e+00,8.073311410636672125e-01
1.885945270300481535e+00,3.473859168795496721e+00,4.016458150771149427e+00
-5.466505031678227100e-01,4.778486286125795068e+00,2.772182172753892004e+00
-1.675592584497483051e+00,2.059920069324673531e+00,-5.044741269343295365e+00
1.544604126100131314e+00,-1.561797191481965941e+00,5.161005482211020734e+00
1.504189800844325797e-01,-4.313356125146916575e+00,-3.819201223795769984e+00
3.745641436903202504e+00,-4.087772446245315550e+00,-7.348452173167155932e-01
5.436161620296854124e+00,1.674097180534939611e+00,-6.698084882209005830e-02
-4.071799360069992879e+00,3.638066879730235126e+00,-7.935463789414877178e-01
-2.178386375308000389e+00,-4.955280281822355803e+00,-1.418010359148240696e+00
8.400730017431402574e-01,5.376550482679912868e+00,6.325495360696083980e-01
-3.199098960550670334e-01,3.425938670438737788e+00,4.380954820299007402e+00
-2.566597844280790408e+00,1.861925697208879349e+00,4.587053881333748251e+00
1.551706380574453314e+00,-4.146717878852466121e+00,-3.551325355257525018e+00
4.277780324131949641e+00,-2.687071856604767550e+00,-2.506210413664776482e+00
-4.950007076644475035e+00,-2.418989316534176481e+00,4.552088456290468987e-01
-3.518984700114531350e-01,3.058842698917732417e+00,-4.725442080011799106e+00
5.324324522331878917e+00,-2.746625969268411960e-01,-1.748049460809706135e+00
-2.335141834974758801e+00,-2.851878308683822638e+00,-4.275398559656450992e+00
-1.171455236564798330e+00,3.375697674384933844e+00,-4.244441544551429857e+00
