-4.057782779015717267e+00,7.382699963941837806e-01,1.909307320033790889e+00
-2.091857367033769233e+00,4.071344959017287657e+00,5.007758181993110513e-01
-1.859860980632405347e+00,-3.931342995090310044e+00,1.438829868046511917e+00
-2.848941686053747119e-02,-3.797824737751991364e+00,-2.646703243349385559e+00
9.649734783492562862e-01,-5.903696520254644170e-02,-4.532197560060359898e+00
-7.020225124350365498e-01,3.027604757929768908e+00,3.378331639589540636e+00
-3.181573118470852890e+00,2.768404558329677467e+00,1.864018089743978202e+00
-4.265315397416153509e+00,1.706481563401349488e+00,4.121598860453112301e-01
2.958618246605510649e+00,2.966925641011553427e+00,-1.633559116127924371e+00
1.330264251926668306e+00,2.161946621710806316e+00,3.683534229972812657e+00
1.554835078711831020e+00,2.276378506275238411e+00,3.641373336028324914e+00
3.312479134134007186e+00,-9.534342457776449065e-01,-3.201387861077019892e+00
4.219285830282204053e+00,3.539222741577768838e-01,1.835042209322401696e+00
4.254424206186398827e+00,-1.505540738037177029e+00,9.783457587726700488e-01
1.787910192954119237e+00,3.631951161223885727e+00,-2.052952328606202137e+00
-3.558571180801365585e+00,2.056993740416475536e+00,-2.199637378246581232e+00
4.036896302356891120e+00,2.065286223107828611e+00,-7.070525689627534804e-01
-2.827740578162951213e+00,-3.464528925641649160e+00,-1.259063116658540205e+00
2.989414251699490599e+00,3.505955414750175247e+00,-2.123250312641012869e-02
5.935581788519976865e-01,3.493359908720694129e+00,-2.901832377431441845e+00
3.442980781568812709e+00,-1.876123685414511799e+00,2.400523619250230389e+00
-1.431932355378384258e+00,1.955316905660780424e+00,3.878619797358151100e+00
-1.204578561528786285e+00,4.468636026954195817e-01,-4.334612514061508826e+00
-2.851766351868761262e+00,-2.344665328288896955e+00,-2.786830064624579162e+00
-3.252185426059427620e+00,1.450576639272154855e+00,2.920389525297546029e+00
-3.986777770961837053e+00,1.234182281501747580e+00,-1.836332786336082101e+00
-4.107642174815564928e+00,7.129371258956304080e-01,-1.919633392705674790e+00
-3.499180099923354437e+00,1.310433092337193184e+00,2.742301824694106660e+00
3.304246422277080431e+00,2.269327880893855287e+00,2.074262842940377549e+00
-1.212938182523551345e-01,-4.585999459064255213e+00,-3.037601792662801836e-01
7.874017385565771354e-01,-2.236726184743042800e-01,-4.456602089942692579e+00
-2.579960742267421114e+00,-2.827724234836892503e+00,-2.659879370343543048e+00
3.681253954399310135e+00,9.881080357796624414e-01,2.583152679149611775e+00
-2.247118221929070625e+00,-2.494102128179150224e+00,3.066868060145912178e+00
-2.477698993778377101e+00,-3.644170452565402396e+00,-1.305750897240133268e+00
-1.225571665449331160e+00,1.479402244060208593e+00,-4.246954747453271395e+00
-1.258279428894935714e+00,4.386715025288156156e+00,6.768633219407766966e-01
-1.394039168097426895e+00,1.199069139863786937e+00,4.302310627874730287e+00
-1.614999938599980533e-01,8.480974917407509972e-01,-4.447778336700797475e+00
2.604247516655680439e+00,-1.742652786622715388e-01,3.735764857317278587e+00
-2.368358899540833118e+00,-3.856568675200078289e+00,1.049786841825127492e+00
-2.047333220230318052e+00,6.273745590653185822e-01,-4.066547522787635316e+00
-3.508788713705794482e+00,1.536446751220233997e+00,-2.593974473727707952e+00
-2.486057762423909967e+00,2.669422439193783747e-01,-3.920598745954945397e+00
-1.982105105302132131e+00,8.178305769768802191e-01,4.021983450424503559e+00
2.970506085820573752e-02,4.437539820240222199e-01,-4.588599829050616918e+00
3.456676829975033005e+00,1.678247894477004065e+00,2.564602252436346319e+00
2.899852034957353109e+00,2.742892130269406703e+00,2.234058619492086173e+00
2.678209038389207652e+00,1.747967212870266962e-01,3.712832032167893814e+00
-3.853427189504358807e+00,1.739512836861513367e+00,1.912286613348976871e+00
7.852506492527511206e-01,2.582771657727064074e+00,-3.699758222403126684e+00
2.539044358586594274e+00,1.611270798446495123e+00,-3.453171119988439841e+00
4.398054270764490070e+00,-1.070489689370131892e+00,1.040962290581959548e+00
2.338755309522666970e+00,-3.567682416866343242e+00,-1.799169844424173270e+00
6.153527978382093977e-01,-4.553958954313537255e+00,-4.186901962338943628e-01
-1.727063852878427674e-01,-2.060339191076374643e+00,-4.140736233885548678e+00
5.354025517919420718e-01,-4.125068740004049772e+00,-2.011442955316999015e+00
-1.211579788065007476e-02,4.171041005549215974e+00,1.886274294215496417e+00
4.235801806563049610e+00,1.869719149515223666e+00,-1.974287032892016458e-01
-1.207180870877159196e+00,3.304164870075406046e+00,-3.042548922839393377e+00
2.126207653604410996e+00,-3.913186537217177907e+00,-1.007457345142019012e+00
-4.465156644827523280e+00,-8.385109812639074400e-01,4.590957627463777002e-01
-4.014113250575518599e+00,-2.317281771220639719e+00,3.132735830008886446e-01
-1.578650717336507414e+00,4.302538702742203292e+00,3.690826259976869722e-02
1.290871713474237570e+00,4.382975155420028912e+00,-1.890509728659756639e-01
-1.578911947730029075e+00,-2.800832937852645088e+00,3.200443332172731914e+00
-4.099790679618314115e+00,-1.877988476789643979e+00,8.897487644768813375e-01
-1.354494188598976079e+00,-2.020062711794008870e+00,3.946679639414216290e+00
6.506726862357138375e-01,4.197658662183733291e+00,-1.485995068969965027e+00
-2.692014731295454766e+00,-3.405261799724733418e+00,-1.234576940503566922e+00
2.011888004763978888e+00,4.079741963119244197e+00,6.890482379142971459e-01
3.335854763342473106e+00,9.329813747606775509e-01,3.067514469443627156e+00
-3.544507592530866003e+00,-1.200073884498214394e+00,-2.603472439291987683e+00
-3.049827172171446055e+00,3.350900385280277671e+00,-9.534325008606214791e-01
1.213812566500004797e+00,-4.361546471442193429e+00,-4.902212860345104839e-01
4.507572801946015062e+00,-1.112852138788973821e+00,-6.324953094542318244e-01
-4.261990837431914869e+00,-1.381430465570197830e-01,-1.528013830810579510e+00
-1.614885435399322722e+00,4.327842370915996995e+00,-1.849353481219185025e-01
-4.228199278284128226e+00,-1.505034902882381287e+00,-7.662195049986542106e-01
3.595124017908608027e-01,2.071176020574518883e+00,4.070617374820575840e+00
4.317240502130605506e+00,-9.205219736956954391e-01,1.342134148404066973e+00
-3.959133016224789525e+00,-3.519490253400489044e-01,-2.225849503992060274e+00
-1.707135541236849852e+00,-3.290789515132531928e+00,2.838948241645175230e+00
2.286522216888797310e+00,3.154260898500058197e+00,2.591463830388865741e+00
1.794183143373047518e+00,3.492810455619689503e+00,-2.375247941451958500e+00
4.521040897986982721e+00,9.097653745674821879e-01,-1.212052354706711216e-01
3.940026055016054407e+00,-1.907452853880955645e+00,1.352407703302726638e+00
1.525836286358926097e+00,3.800692278812016767e+00,-2.183742490620729004e+00
3.577570305437169917e+00,-2.750814639407151763e+00,-8.830511425170924911e-01
-1.366383487991991830e+00,-2.317723886518607834e+00,-3.736950041284476942e+00
3.017586249896393458e+00,-1.868286313438029200e+00,3.095121103414535391e+00
-1.162890106218912756e+00,2.544549157789187666e-01,4.396309364049793444e+00
6.508078106227813131e-02,3.216048195342092519e+00,-3.309853583662199394e+00
2.960826987069024696e+00,3.222977854348275883e+00,-1.234441665998053272e+00
2.730683728198209259e+00,-3.002004556572896554e+00,-2.234134473382968444e+00
-4.065402948770939773e+00,1.248216532400984402e+00,-1.640389390336667752e+00
-3.890392282622171738e+00,8.181874440127211434e-01,2.380882164956181324e+00
1.393094156238789516e+00,-4.190454742452947023e+00,1.268077337098291846e+00
1.908400261358230043e+00,-9.674130582988991200e-01,4.090961604586907718e+00
3.251827261665318325e+00,-9.745948863825540931e-01,3.033584484905597733e+00
-2.608525615487176985e+00,1.292194199185190628e+00,3.580140555158839444e+00
2.491974525153332287e+00,-4.050189920596098392e-01,-3.790946552942720871e+00
1.006623944999128994e+00,-1.453885704398813150e+00,-4.175069550533738294e+00
7.732721214772824148e-01,-4.533424130897021342e+00,-3.845127321873561405e-02
8.329132820611753196e-01,-3.817536418074806370e+00,2.463912646826564856e+00
3.396927784055034927e+00,2.934674800217083046e+00,-8.175722888767404939e-01
-6.417716169049653141e-01,4.495043613456309650e+00,7.947477009612999854e-01
-3.550793272449669580e+00,2.931903013440461780e+00,-3.302017250815221794e-01
4.434605474573085182e+00,-4.313554797247029504e-01,-1.227630343510478506e+00
-2.748670145331103765e+00,-1.172302738060071459e+00,3.517144707005541715e+00
3.679722539704809670e+00,1.991577626602656137e+00,-1.925065452453458281e+00
-3.013841023803110808e+00,1.237725252058392428e-01,3.505269823217079139e+00
-2.929374243391412058e+00,3.231354319367313099e+00,-1.483950119831498160e+00
-1.024030807326578030e+00,3.986632798088642016e+00,-1.932302320982868915e+00
-3.218848565350850288e-01,-4.465228967529181858e+00,-8.095440715143017441e-01
3.631534091221821026e+00,2.181088721850259038e+00,1.893522867226910655e+00
4.265569485893729862e+00,-4.493111102911926391e-01,1.650329660978651081e+00
1.079887830759344247e+00,2.151980621303442032e+00,-3.898621030609982441e+00
2.561212767015946579e+00,-2.505258547282363413e+00,2.879269363481615329e+00
4.955845561376706621e-01,-6.133826940219005985e-01,-4.434253963414946931e+00
4.422257753756960952e+00,-1.251949956814550458e+00,-3.763275028884680573e-01
3.923593259839010639e+00,2.207819382721646573e+00,-9.011199206786216775e-01
2.193958479567611697e+00,4.090693398277246651e+00,3.123880881418938937e-01
-3.501654378273764578e+00,2.377685444171351747e+00,2.005704452204269739e+00
-1.868535649303294521e+00,5.730188188978382335e-01,-4.221788762094750069e+00
-1.660392359238374471e+00,-2.483730336716353460e+00,3.426387686937022448e+00
-2.794462144286275596e+00,-3.312147662142130855e+00,-1.376192208204689127e+00
-4.153937860751685918e+00,-6.817169903906329376e-01,1.757644069144644439e+00
1.827378092003264509e+00,-4.246376603352925549e+00,-1.031029331595947340e-01
-3.978371548427458659e+00,-1.895709297935124660e+00,-9.575997003974877630e-01
2.735421750698064702e+00,-3.386854316304668266e+00,-1.403524209117396726e+00
-2.879848000916672923e+00,2.792936814026489856e+00,2.273410294037514934e+00
1.967708806789170151e+00,-4.060243010249033446e+00,-5.193784403803429761e-01
8.241583215217256342e-01,4.467055484007186550e+00,-7.622454760631370840e-01
-2.344596488030991840e-02,-2.432538461256813278e+00,3.869080780705248745e+00
-3.507450400089506815e+00,2.901323770102910871e+00,8.285462087185453406e-01
4.191934075351690048e+00,-4.649104112842507575e-01,1.926774752440860272e+00
-1.751494391071193035e-01,4.611759173140385748e+00,2.562970551330003705e-02
-6.055034214341267762e-02,-3.234101941223200605e+00,3.420326416295882410e+00
-1.560741618258222108e+00,-7.538587566914203286e-01,4.301105048939910525e+00
4.444488689360255762e+00,-4.429091309265664744e-01,1.145160759643445214e+00
-2.435151511437072092e+00,2.982625687862100250e+00,2.440592216013649729e+00
-2.213891994936391772e+00,2.887027195529250356e+00,2.821663611874964506e+00
9.597525750092190666e-01,3.560617906335253657e+00,-2.687579922663482890e+00
4.162042714447029113e+00,1.983847070457821937e+00,3.496342624623453021e-01
2.012004064029762965e-02,-2.333742215675600473e+00,-3.923157863871870266e+00
4.275051582943524053e+00,1.656028102670966673e+00,-6.573720679144979817e-01
-9.303557111074167718e-01,2.435846200627396207e+00,-3.733364066610768361e+00
1.632032652114797866e+00,-1.145093770165949820e+00,-4.057993926137887009e+00
1.270166942967804635e+00,2.552380025138773600e+00,3.560999281395233584e+00
-1.207495174204322952e+00,2.066960629087983836e+00,3.958095988730148118e+00
2.252967522363742869e+00,4.285777539871288289e-01,-3.879339724055628658e+00
-8.561886941904274240e-01,4.454816179373768392e+00,-3.141278785247355598e-01
3.720951613632392796e+00,-1.995502538007305204e-01,-2.799603397532584026e+00
-1.154782011737261138e+00,-1.690006778232616969e-01,-4.457549179644032300e+00
-4.088771274153095270e+00,-9.200886708681571893e-03,-1.940724493679211848e+00
2.303215956946675913e-01,-3.455986951441318400e+00,-3.011984787221937410e+00
2.076187610005963080e+00,1.066366817305589354e+00,-3.876628093881636428e+00
-3.740800275526647400e+00,-2.721400997639355168e+00,-3.999418857845553066e-01
-1.472382858079688550e-01,1.964531830317316208e-01,4.595502025929915746e+00
3.609902611024719210e+00,8.247510339124356493e-01,2.668624983802351469e+00
-3.231053187340511834e-01,-4.512306535134333885e+00,5.917014431355968052e-01
-3.878303637955170302e+00,2.025285604889957014e+00,-1.272242759678070989e+00
3.890968182674785947e+00,2.319616699643663349e+00,7.241329614048469532e-01
1.014006494499950062e+00,4.098924566058567365e+00,-1.786581815272947349e+00
2.886842273854018259e+00,-7.794382118650569624e-02,-3.489978484505596779e+00
-1.153231871063143510e+00,-3.751525872331172184e+00,-2.490945573905085642e+00
-1.701905496188853562e+00,2.478168230179291331e+00,3.429235033623351026e+00
-2.201485291813547907e+00,-4.065192126933465211e+00,-4.408635725593466059e-01
-3.918282256460476010e+00,1.745768443566473316e+00,1.625734590153383508e+00
-5.436307470154128074e-01,-1.091259380353075681e+00,-4.386486773869050282e+00
-3.647804871155685191e+00,1.186137874110907209e+00,2.468432172090001764e+00
3.331048223526035912e+00,-3.123331293683098586e+00,6.089798458812852866e-01
-1.016748316714701561e+00,7.658908385402194395e-03,-4.535802192391246379e+00
3.092219307629048508e+00,2.220656897545500552e+00,2.522181309337653499e+00
2.328507990806935712e+00,-6.596843595653223424e-01,3.844028204181979547e+00
1.835566291728505162e+00,-1.863294158341590068e+00,3.775240172809130268e+00
2.809462103486317641e+00,-3.643128065172834162e+00,-8.112613033574458399e-01
-1.132139991591088329e-01,-1.213138956629749687e+00,-4.383357745945419381e+00
1.032356482323257829e+00,3.162338994209457632e-01,-4.458062686007959741e+00
-1.955203099264333666e+00,4.150999798103390148e+00,1.138094886167112241e-01
1.201616265033473990e-01,4.394435227370089514e+00,1.090022076375242843e+00
3.042259505420519816e-01,2.321349308831561320e+00,-3.898655350069381686e+00
-3.327787507276854573e+00,-7.815710789836900485e-01,-3.160132238665170235e+00
-1.595807049970568547e+00,3.695707083487347777e+00,-2.155465963045560152e+00
4.605579147850146882e+00,1.303511824105693384e-01,8.723744525111409853e-02
3.615019407796877360e+00,-2.089499716539867880e+00,1.781182000266127163e+00
1.067624640499768018e+00,-4.423096466141024585e+00,6.769319515960950939e-01
1.538858709268657865e+00,4.282693509229963169e+00,2.029286634572725345e-01
1.467621728753090826e+00,3.912110741291523031e+00,1.926223823933749024e+00
2.912291326281795545e+00,2.344627972821113904e+00,-2.776928025882392070e+00
2.168283917933846894e+00,1.542749224114766005e+00,3.826019977327805854e+00
2.450033193158581035e+00,-8.179153296833078235e-01,3.893475298603885193e+00
2.806406642283043595e+00,3.636678974832391997e+00,2.200234150609932104e-01
3.938838591741716133e+00,-2.124592423682841513e+00,7.903893882807472293e-01
-3.721994064628282750e+00,-2.432368821104035739e+00,-1.375412077275169009e+00
-3.116793792713727917e+00,-2.563173125791002316e-01,-3.450625837200990809e+00
-2.733535033644304502e+00,-6.976476541723818370e-01,3.692246853168892784e+00
-8.928574937058614269e-01,4.502994074789459233e+00,-1.950253526196260023e-01
4.259487293925060314e+00,-8.564718562117341616e-01,-1.538709968883427148e+00
1.894047131436347398e+00,-1.948789351888449817e+00,-3.814026417501212851e+00
-1.595054391844028086e+00,-3.506641364006832795e+00,2.491527790174260293e+00
2.559798487212934681e+00,-3.607149848232636735e+00,1.502547543975438549e+00
-3.438123965806874072e-01,2.179972773321768642e+00,4.054330179773567799e+00
3.604039140383862527e+00,-1.755170001401619995e-01,-2.896588008267283687e+00
-1.820231002022097977e+00,-4.249632808226549763e+00,8.974122870189953083e-02
-1.880234991215005147e+00,3.168744026208157205e+00,-2.668824982102668830e+00
1.441073137738260845e+00,3.676953770601353977e+00,-2.390740351797322027e+00
-3.950563384634939279e+00,1.437813016020105472e+00,1.758951009105188312e+00
-1.863934200370608973e+00,-1.426233297460734795e+00,3.894561371995384214e+00
9.421830970357055746e-01,4.375389585331197928e+00,-1.025254211308506802e+00
2.054284267300681144e+00,1.608459030167624038e+00,-3.821332349523459904e+00
1.572777251391656250e+00,-3.784261196917516834e+00,-1.981129263088781123e+00
-3.969124570990076428e+00,1.421026635356180234e+00,2.023579226993879931e+00
-3.320623652648412971e+00,-2.648390871621882248e+00,-1.370774276035500838e+00
-1.356269888973009596e+00,4.387811742672239390e+00,1.412959534286883923e-01
3.767902212347015389e+00,1.288961583996845794e+00,2.295833346273456144e+00
1.215648300601815279e+00,3.846915022653785599e+00,-2.151963048046379612e+00
4.393665533978205140e+00,1.200804790760999635e-01,1.466499262756008726e+00
-3.400719511377373827e+00,3.157683188235702154e+00,-4.179415678733780504e-01
2.758368443078923704e+00,-2.259837986902347717e-01,3.615120157241044740e+00
-4.484789635881255343e+00,2.558432332957856770e-01,-9.733656884646874063e-01
-5.855762504979208360e-01,1.222310563851563447e+00,4.257029872652033475e+00
3.897779044278787630e+00,1.183103352426473354e+00,2.138623318652390193e+00
1.115144866930251499e+00,-4.459667661455084975e+00,-5.125101881557325711e-02
-1.349310509701619587e+00,1.590314406282782755e+00,-4.078139966365966096e+00
-3.324893859322998857e+00,5.512783642304495135e-01,3.024800587404080865e+00
-2.907224661520054543e+00,6.158882331094868157e-01,3.467032090638832997e+00
-2.675019214239491294e+00,-3.634824860348813580e+00,7.402062495742000037e-01
2.052843534097380296e+00,-3.687242369630365779e+00,-1.899457174664075820e+00
1.520787277599309650e+00,-3.712937161956715748e+00,-2.177730911929119717e+00
1.344417228233457662e+00,3.355586916776513107e+00,2.839432644914555937e+00
-3.600720348668659643e+00,-2.279690063290426227e+00,1.577055747132962482e+00
-3.988799686358925456e+00,3.165755526403873366e-01,2.251191844073564319e+00
-3.661311723241866378e+00,-1.736614827110214199e+00,2.250975898669530295e+00
-2.539728364195179111e+00,3.818863040098815276e+00,2.212969122774529063e-01
3.331314670040864456e+00,8.429313600068478740e-01,-3.048386316582455624e+00
4.323196518855089820e+00,-8.876301547171356887e-01,-1.176921439073180364e+00
-1.283149886222533453e+00,4.328326509156640967e+00,-5.374119630558663596e-01
-4.094801992374903499e+00,-2.033220954210817055e+00,4.770634632994090185e-01
-1.115528439683014739e+00,-3.380473580056648775e-01,4.497333653949565857e+00
3.034330760142328387e+00,1.819319239757593465e+00,3.017737905834743106e+00
2.154542303908721923e+00,3.925088819855302003e+00,8.898038523467242111e-01
-2.203337956520455165e+00,-4.488239675483171598e-01,-3.922277237045950216e+00
-1.934081672310371258e-01,4.535174842119179317e+00,-5.453382233591648198e-01
-4.407845135781501611e+00,-1.044372354898069066e-01,1.186088101814002149e+00
-8.606226600561889262e-01,-4.510028804960581006e+00,-2.164668024342233377e-01
-3.148418617337952252e+00,8.858921586318235786e-01,-3.303770979565061605e+00
-1.398660525467316118e+00,3.490473686742365800e+00,-2.722625567538931257e+00
2.850203727636077655e+00,1.586459059167360186e+00,3.168674512477082761e+00
-3.395928963360661079e+00,-1.540067194710864174e+00,2.715836988738890234e+00
-1.800153136609719429e+00,-4.024469885395952851e+00,-1.060883606993609840e+00
-4.016035520108171220e+00,1.427617408593081505e+00,1.577090573611354296e+00
-4.286521432914058849e+00,-1.322138162332234135e+00,1.193983549339704853e+00
7.347061961789810303e-01,1.870332202152730661e+00,4.151992416450682732e+00
2.262917836393570692e+00,3.426295803633919945e+00,2.125515762991993185e+00
-3.706971783083239824e+00,3.623141345079732289e-01,2.703464532021437439e+00
1.483490147607551712e+00,4.167711023721547114e+00,7.021975456921804026e-01
2.671741512235474847e+00,-3.026994857903573699e+00,-2.228146201711134200e+00
3.848161316922521724e+00,-1.014665165716397643e+00,-2.434382527556711917e+00
-1.567111397805705852e+00,2.128483559931478641e+00,-3.797946681570557814e+00
6.853381135035798710e-01,3.267484646184307451e+00,-3.156540656998625405e+00
-4.586265928442746720e+00,2.661226507062680602e-01,-1.987678712179904161e-01
3.664921055396723193e-01,2.709896820203216539e+00,-3.711074586666187169e+00
4.048055910782556666e+00,2.243781311232530662e+00,-4.952473664718050617e-01
3.889036869985216693e+00,-1.735503471471550874e-01,2.354248762686148577e+00
3.209900457468728985e-01,3.885356764301514332e+00,-2.343824135610374615e+00
1.393442305497780032e+00,-3.964424225751287167e+00,-1.863185326631878524e+00
-3.478501585416197361e+00,3.039407362465214479e+00,5.710383114478607691e-01
4.169003185838328740e+00,1.972022713167760122e+00,3.046337928184543187e-01
-2.118439013011528704e+00,2.027750783847110494e+00,-3.582406514077359105e+00
-4.914293034063559884e-01,-1.689105639808899717e+00,-4.229674455121542387e+00
3.110961960195371301e+00,-3.342360206565893055e+00,3.999625467964187941e-01
-8.961711526873832323e-01,3.989661720446743498e+00,1.926130685458167457e+00
-1.787656738914021659e+00,-2.053883364754689023e+00,-3.759057605548515202e+00
-3.788272644576974546e+00,-1.155089696284533757e-01,2.564814276673173410e+00
2.568461434228114459e+00,-3.334082333916418839e-01,3.877416917895983861e+00
2.260995863033735953e-01,-9.350242589226075429e-01,-4.456395151592631443e+00
2.170929104340441729e+00,-1.865250864747334036e+00,-3.580240632268639978e+00
3.953316039579697794e+00,2.224537029036029789e+00,8.651351409961766104e-01
3.072610985706057729e+00,-3.385342515429742516e+00,-3.192148019024350636e-01
2.831372283944670443e+00,1.099316231388543175e+00,-3.451871313519885742e+00
1.859219537096534092e+00,3.583716333182414449e+00,-2.461607473612992258e+00
-2.854701879490757932e+00,3.550831429659820682e+00,8.652812737034064616e-01
-8.757955337836303977e-01,-1.068773395801627668e+00,-4.350060166208522539e+00
-1.603444141566452652e+00,-4.171464567520460243e+00,8.917472789404280453e-01
4.046068308857125650e+00,-1.365722128811819980e+00,-1.660931342838876112e+00
-1.652948036735218729e+00,-3.934350757915936914e+00,1.775763102049828124e+00
1.347696535602594392e-01,-4.284938652794767044e+00,1.584518212789256308e+00
3.788703553105420063e+00,-4.139194814566741765e-01,-2.643158185595865017e+00
-4.425951372801943506e+00,7.437933557517524275e-01,-9.372630610092975711e-01
-3.068717087190798720e-01,3.484640523847042815e+00,3.006836414430041238e+00
-3.107936406841830035e+00,-3.469707004522422089e-01,-3.321303165791440914e+00
6.016969134176845813e-02,4.132053847784413314e+00,-2.024840004049735409e+00
-3.547159591337251783e+00,-2.781956975604026328e-01,3.021305626442530201e+00
3.499523149840750413e+00,3.038446601148100612e+00,-3.560133039198956073e-01
1.306738186076891406e+00,-1.912627078586779161e+00,4.051958951995713321e+00
7.970778333787555958e-01,-4.095871550183719734e+00,-2.006040099726822845e+00
-4.490792045313432901e+00,-5.793345235674107752e-01,-5.174527882504028620e-01
3.529179900864171771e+00,-2.863790805308682241e+00,-1.229594152591567402e-01
-3.431689956122516261e+00,1.950048523039040749e+00,-2.408897201809175215e+00
-3.218343776177533311e+00,-3.024202357474859770e+00,-1.378975834196392025e+00
-1.786362685124962324e+00,-1.781527716869545808e+00,-3.904699131663369016e+00
-4.316520293112422912e+00,1.308621148056032357e+00,5.197457683102796322e-02
1.335400421249957725e+00,4.348802172432660207e+00,2.226561637115178627e-01
2.032351927568943895e-01,5.795669644685494393e-02,-4.563200952776602648e+00
3.899705789660459665e+00,-1.119017494709475757e+00,-2.229693034932027640e+00
-1.058099434551202700e+00,-2.506765876457435760e-01,-4.499177426721608697e+00
-2.565733119431398812e+00,-3.426001223849328259e+00,-1.570341484364024431e+00
-1.011641174651743524e+00,-4.210945771798179749e+00,1.551377756650510031e+00
-4.411652326279015490e+00,7.784586945373757061e-01,9.275784951572194625e-01
-3.553107956853843508e+00,2.896456580167534156e+00,-2.372555131195628053e-01
-4.382815743338641212e+00,1.485129692556732328e+00,7.879248039514134827e-02
3.979811088408182318e+00,2.343358899058809452e+00,-4.847952184306355550e-01
2.414566003037735553e-01,4.323512388105324789e+00,-1.383242024649582680e+00
2.400442649048960320e+00,-3.858501807070548129e+00,-2.908887244578507447e-01
-3.003125612750152662e+00,2.396613585214069531e+00,-2.417023426970377642e+00
-3.098997784877947304e+00,1.016863949386199284e+00,3.283106355957316147e+00
-5.256419312624709406e-01,-3.091726502852813585e+00,3.480719287522610728e+00
4.492313481639221173e+00,7.927404727795526185e-01,-8.173840285214826196e-01
-9.025440561844838561e-01,4.507023323515139346e+00,5.171215607264186831e-01
3.863191152488412161e-01,-4.485187780846786154e+00,7.422363182824089911e-01
1.929345542519136814e+00,4.125664804489042048e+00,-9.448367239015040830e-01
-4.018549315015303769e+00,-1.546175501959562160e-01,-2.183428988982966334e+00
3.637112734333652231e+00,-1.390562559502430129e-01,2.844083275834989433e+00
1.709392234237162134e+00,-3.979507218306240546e+00,1.548215381854141537e+00
-3.761894159678369043e+00,-1.674457089252545217e+00,-2.067230946340794073e+00
-4.279366398372722813e+00,1.390753443304872716e+00,2.701162051255894814e-01
8.910225109075298189e-01,-3.992295874923189380e+00,2.057644068696122375e+00
-3.312294740180084240e-02,3.385501332922642992e-01,-4.552274019329626498e+00
-2.713374168901524719e+00,-3.761658093555189541e+00,-7.102118922876729523e-02
-4.249642981660269214e+00,-1.725190973068245204e-01,-1.732899204418964167e+00
1.121860675858621148e+00,-4.984767220660595716e-02,4.464378304411076748e+00
-3.397623258934569179e+00,1.549796721871225635e+00,2.671125277984759627e+00
2.710998771479221858e+00,3.507974882234449865e+00,-1.139845318655193784e+00
-2.330562848236293227e+00,-3.969372344911879846e+00,-1.724283628401971358e-01
1.105488227087933373e+00,2.661672667614597199e+00,3.568002518296550463e+00
2.287440484062434720e+00,3.913924108373326938e+00,-4.735433105724028979e-01
-2.288171483403682593e+00,-1.988032493615992102e+00,3.315741331070527043e+00
2.655795450407457903e+00,-2.752567854856672547e+00,-2.520432474813111501e+00
-9.923652318321418697e-02,4.586267311579066863e+00,-6.151963645122656699e-01
3.609101813827213512e+00,2.158063894853039066e+00,1.849968320482104245e+00
-4.014337968787155542e-01,-2.138585884487676836e+00,-4.007829851447903380e+00
3.834909026301391854e+00,2.037880610399318115e+00,-1.425818105075465470e+00
1.031754118399803133e+00,4.410425543244755886e+00,5.903480201055297805e-01
4.845907336878162996e-01,1.139908972736458637e+00,4.367049252794267034e+00
1.564019909537995634e+00,-1.758854595533385412e+00,-3.954009198455019636e+00
3.041969042537417511e+00,6.821159461258198276e-01,-3.332281782310456464e+00
2.355003238412335165e+00,-3.417659602886347958e+00,2.058072156033803335e+00
-2.722555049401300664e+00,2.700833713970613115e+00,2.559244490388091098e+00
-2.757864505218479145e+00,2.465506454516527945e+00,-2.806182636490185178e+00
3.430294740784762819e-01,-4.619055907577381603e+00,6.510286808499774480e-01
-3.706033273681675677e+00,-2.592914628158515367e+00,-4.217464457958308710e-01
2.007366684305742499e-01,-1.535179227113681710e+00,4.333165815145255451e+00
2.657944789899110205e+00,-2.661715460284061141e+00,2.710898026768653324e+00
-2.905138441910350977e-01,4.347490038276185409e+00,-1.586243622206981563e+00
1.476556841832795897e+00,-1.539245245988861477e+00,-4.078261146617299993e+00
-3.365003501145510612e+00,-1.059034226145601915e-01,3.185875078150852246e+00
-3.613965851074001812e+00,-2.711550312206326030e+00,9.636588569178875519e-01
-2.773957653282146385e+00,-3.274881574671481221e+00,1.759792763217484346e+00
1.427766366602551684e-01,3.787298950650344942e+00,2.589203215706989081e+00
-3.869257779615753901e+00,-1.877501727079258498e-01,2.497734305842117752e+00
2.817836013671572104e+00,1.873888335339656708e+00,3.083805764591479370e+00
2.885337911713818038e+00,1.637602707240058963e+00,-3.205156524551611597e+00
-2.399001692508001771e+00,3.003233094635967326e+00,2.602468723048340760e+00
-1.883285992574473822e+00,4.089792827596947511e+00,9.624459486618558435e-01
3.772418988447928001e+00,-6.569508242770332185e-01,2.599971467457842689e+00
9.350278679230785706e-01,-1.842815080373212178e+00,-4.074220121611426215e+00
-1.577432427854128294e+00,-3.015484995124557699e+00,3.169777288932831727e+00
2.420754307880825795e+00,-9.683560065887082402e-01,3.835474097505322977e+00
2.259156052691723815e+00,-1.051206814288513147e+00,3.873798486648832640e+00
2.756614751203738042e-02,2.257271370246570485e-02,-4.614237162240167223e+00
-1.996514790569425379e+00,-4.078815952369237330e+00,-6.612380295383599726e-01
-1.052776183187728920e+00,-4.411898972597046331e+00,7.841048062336113400e-01
1.446533715876173742e+00,6.582186404576580996e-01,-4.315285853114719572e+00
4.525194005603300873e+00,6.060279550868405973e-01,3.632482074218928436e-01
-2.170377116737798318e-01,-1.814374887020581140e+00,-4.191808492785498608e+00
3.471819772073943433e+00,2.032268040553592670e+00,2.138844586184778240e+00
1.415979183702536393e+00,-3.327931577661963569e+00,2.764499734746653559e+00
-1.687327254193776493e+00,-2.627387392174834080e+00,-3.326990111085515789e+00
3.606883054852362935e+00,1.376909106382653958e+00,-2.551707370307660039e+00
2.938245792347093488e+00,-3.595355566526257540e+00,-4.933431054921319503e-02
-3.830849492158403535e-01,1.455013573041926467e+00,4.275881707502309226e+00
2.975918566299887491e+00,3.507204980894951252e+00,-1.270379545219278983e-01
4.581990960926253464e+00,9.436428835603921650e-02,1.133785993972702411e+00
4.034215080711184065e+00,-1.458493934531844394e+00,-1.634319933688844984e+00
-6.192618447209693455e-01,1.535762052566157276e+00,4.247639639761994879e+00
1.284400219302082480e+00,-3.567964475002237901e+00,2.580932572702737460e+00
-1.103547610822881664e+00,4.386995570033363379e+00,7.057655514898214522e-01
-2.828783347773764500e+00,1.508048818054385398e+00,-3.221424333847570320e+00
3.081577541700643241e+00,-6.241746169470336891e-01,3.321989279917705762e+00
-8.303521769819662834e-01,-3.044076164520303163e+00,-3.287613252644594031e+00
2.434643880414900430e+00,-3.882058269111604343e+00,8.631194641105358611e-01
-9.902957624418680382e-03,-3.277557939077381910e+00,3.224361126469549976e+00
-4.482198267768546351e+00,1.068628797011854870e+00,4.036765244087233695e-01
-9.736171002661521134e-01,-2.084464717296231395e+00,3.941798409444893903e+00
1.440925067740350951e-01,1.809519347543244727e+00,4.251686949219440237e+00
-3.007227087048091718e+00,-2.787731570814170556e+00,2.028237540231202729e+00
-2.784652888536749415e+00,-6.338494027823901034e-01,3.706298824171561979e+00
-2.487969350926066969e+00,-3.564107437330553907e+00,-1.576735528276234533e+00
2.739414914963213210e+00,2.537877710287743671e+00,-2.730718294227819420e+00
2.555496842620600173e+00,-4.142550192091365990e-01,3.805442029868356890e+00
1.903000488554446923e+00,-2.852771537522899692e+00,3.032532623081564349e+00
2.180517195265921249e+00,-2.634935914904276810e+00,-2.979855948429831258e+00
8.946108715071086070e-01,4.405927398447166077e+00,7.187076292382088560e-01
3.915262068034440546e+00,-5.849634159622859597e-01,2.234545489726235346e+00
3.610332596883115919e+00,1.702021653226923614e-01,-2.846796807033849852e+00
-3.580107107087291851e+00,-2.312317992931316457e+00,1.720261137348603642e+00
-1.185959742128248617e+00,4.435221215759639790e+00,4.372004415160681834e-01
3.351738101436439354e+00,-2.558998583588812270e+00,1.770430625409961989e+00
1.622652017108810574e+00,-3.688464712934515166e+00,-2.424587214677762947e+00
1.375117578306964239e+00,2.962031970314646934e+00,3.210269343628381566e+00
3.745698403574759361e+00,-2.609829304410731243e+00,-3.716526283707536904e-01
-3.559131339954725526e+00,3.098997899922759647e-01,-2.899451884392945544e+00
-2.179702773671248650e+00,3.681336853652370511e+00,1.769357516648093931e+00
4.334470842894421416e+00,1.399148032880288550e+00,-4.672389239743533484e-01
-3.060973931752769550e-01,-1.125310783928417990e+00,4.454650443813114258e+00
-2.506905933149366383e+00,1.091896891142207782e+00,3.686383471261112099e+00
-9.353206719860609475e-01,4.088195008263367569e+00,-1.748067626299860233e+00
1.826047496010107185e+00,8.888996118384496770e-01,-4.099259067993818562e+00
-1.010947647674949934e+00,-4.404493692543477223e+00,6.263860155322550360e-01
3.167119338149407159e+00,3.202690265632885946e+00,-8.335796573248323016e-01
-8.887353888292529591e-01,4.444534022261457551e+00,-4.653363481403510749e-01
-1.228024483140271461e-01,-3.646859191886823837e+00,-2.800113845326986706e+00
-3.559604262883214520e+00,-2.729575621527351004e+00,1.017779570449487858e+00
5.877860517385661288e-01,-2.280626787969608937e+00,4.064614206554048259e+00
-3.463607952617758112e+00,-2.920790841135536109e+00,5.017245836060222342e-01
-1.681626116813032423e+00,-3.992254812188757995e+00,-1.628048813658676597e+00
4.338364592140321108e+00,-2.759712407792426769e-01,-1.447404918030050780e+00
9.091638518966258520e-01,-1.360662414221955441e+00,-4.254317212724323838e+00
4.057089361325971311e+00,-1.991136750265052324e+00,7.070071919858581522e-01
2.262167798233777560e+00,1.717466397388601962e+00,3.619720706423966927e+00
-3.083883118127132672e+00,-2.189614694772433090e+00,2.539312139411806779e+00
-2.565027687251214772e+00,2.492817010204406269e+00,2.987654234642696416e+00
-3.760206773369181743e+00,-1.704944453665566684e+00,1.852663012012986554e+00
-4.133327880224640261e+00,-1.300857084823371368e+00,1.323593923667343297e+00
1.275992304318193549e+00,-3.655770180093214083e+00,-2.403671164082445522e+00
-2.165980609764474707e+00,1.986991764081998069e+00,3.555002121281896965e+00
-9.499450037211306652e-01,-4.512859472249602710e+00,-9.679407724411009939e-01
-1.656264055936461643e+00,-1.171191026857149264e+00,4.079393900242959781e+00
-3.034046274747445704e+00,2.150058502069839061e+00,-2.751668857038289229e+00
2.688693845409902305e+00,-1.679737513230580959e+00,-3.393235663676180014e+00
-3.918753898432141725e+00,2.116834398554529706e+00,-9.509335101755811426e-01
3.693974588171836881e+00,-6.360775285652476851e-01,-2.806659949150953626e+00
1.376859205900080374e+00,-8.546740977644298742e-02,-4.417957156855110590e+00
-3.379669626416467398e+00,-3.154848743037229841e+00,-1.497241546186223182e-01
-1.427742632098438103e+00,2.562236499623788522e+00,-3.571718520833599086e+00
3.717633917334322025e+00,2.427705070714906821e+00,-1.352543161197061083e+00
2.570310739966757296e+00,-1.027577762274821671e+00,3.638446869473207723e+00
2.305004527273883053e+00,-3.683154914821678005e+00,-1.505948843653428293e+00
3.384243229480532467e+00,1.240958508321197584e+00,2.947594313268365074e+00
5.401269542272421065e-01,3.374751990931364354e+00,-3.093696859498765939e+00
4.391167984859742468e+00,1.388380401176258383e+00,-6.436793655499920552e-01
2.315393564821461414e+00,-3.951893521609536553e+00,-3.206917672954294196e-01
-3.599636668288194397e+00,1.448442228239686713e+00,2.361812185125854224e+00
-3.273254411340302816e+00,-8.055495313500449228e-01,3.136669220253480717e+00
2.848125381428980418e+00,-3.335469369018475128e+00,-1.373123260718611904e+00
-6.262567197473316583e-01,4.470976517650105286e+00,1.195176813997365223e-01
-2.422354324713233559e-02,-8.879362202741822307e-02,-4.598867860229760574e+00
2.395168394729056516e+00,4.595880014870025732e-01,3.852352328301760664e+00
1.149936253114111295e+00,-4.288533589751641451e+00,1.029897753202883015e+00
2.182089192566459612e+00,2.643550308452670361e+00,-3.123781514200017373e+00
-3.536945342696507399e+00,-1.828152189772767722e+00,-2.272307470460230405e+00
8.866387126936542407e-01,-4.475127814170111407e+00,-5.655593476489000349e-01
2.663625690272998003e+00,-1.866716265235832228e+00,-3.264385794371579497e+00
-2.405116583407522768e+00,-3.494803835296911743e+00,-1.772352616332318220e+00
-9.610347287940580463e-01,-1.776004552360199495e+00,4.176459463760159529e+00
-1.740967518340422182e-01,4.006546767150168442e+00,2.035325298531542426e+00
3.359217386206634792e+00,-7.771369356387902716e-02,3.067091813228559616e+00
1.071358884778975451e+00,9.106762559533357893e-01,-4.374005364966947695e+00
-3.775586533714905713e+00,2.128358158646762366e+00,-1.298600871854179717e+00
-3.010511694061338783e+00,-3.595316300973759205e+00,4.249536621853315932e-01
1.559687255066616596e-01,2.125739750525721394e-01,4.651051914559708678e+00
9.151702317318599622e-01,-2.879951261335765844e-01,-4.534883699940892576e+00
3.603350559910774464e+00,-2.832601675534161423e+00,-3.619660431913435672e-01
4.087201883441650807e+00,-8.966645089049967154e-01,1.966449979454656383e+00
1.451709564906760397e+00,8.716424272835248122e-01,4.204814096859489148e+00
1.885706530042696949e+00,-3.873009823546710972e+00,1.454060652759758598e+00
1.796227202861666372e+00,4.204008016284006999e+00,7.518329288922241949e-01
3.293214046619937552e+00,-5.574478221648443421e-01,-3.197535030663574140e+00
4.029350444783693419e+00,1.205481266591280853e+00,1.849977563419906490e+00
-1.471202323720858018e+00,-3.574142166410550381e+00,2.227950103468562926e+00
-2.538393472291720077e+00,-2.089856090051683157e+00,3.183741068358282966e+00
-2.444420691116169664e+00,-9.017620100371565028e-02,3.810733601350927202e+00
-2.682372405484620970e+00,-1.037218460486102056e-01,-3.751129773032121584e+00
4.149691984120793542e+00,1.280982743977312266e+00,1.627633836603388451e+00
-4.582221659050457419e+00,5.649537552553647313e-01,1.633701787588830723e-01
1.465775811201983636e+00,-2.313261563899047246e+00,3.688993110285008648e+00
-3.027101561871189617e+00,-3.474810114688993590e+00,-4.569639937719793127e-02
2.032860893440454397e+00,3.644338348262547989e+00,-2.096683788294359641e+00
-3.282205096992111937e+00,-3.193222833423671858e+00,-6.837474137286935205e-01
-4.031739854017226676e+00,-2.049415647371892302e+00,-8.619898612137596450e-01
4.475445634610355050e+00,-1.019878208532069008e+00,2.394016952267455645e-01
-3.432149162861968694e+00,3.093529886904908821e+00,-1.631548238574840812e-02
-1.576126360776071600e+00,2.692888633943172128e+00,-3.386351979190495687e+00
-5.174760582503246109e-01,-1.699142418285250811e+00,4.278455782442486921e+00
-1.846004131129995285e+00,3.688902432399779663e+00,2.016472365230340014e+00
-2.960432772503144960e+00,-2.393624102059769498e+00,2.586675841359030947e+00
-2.513017904492157673e+00,-2.527451147651127883e+00,2.925267591061776251e+00
3.043698508261518221e+00,-2.567232792766924732e+00,2.330012322556863857e+00
