-3.681599246751928511e+00,-6.963704132643438349e+00,4.332587823225335200e+00
-1.185387462467340391e+00,-8.750655325548898134e+00,-1.611928248583492262e+00
-8.059798857003462880e-01,-8.966938527852843066e+00,1.301952833305501933e+00
1.765442293007781549e+00,-5.462558011482556708e+00,6.990038679978028746e+00
5.207910915410525199e+00,3.785034919797315212e+00,6.333758662401073103e+00
-8.296054261246720074e+00,-1.866021947379784329e+00,3.651467373134107852e+00
5.256322053698504249e+00,-3.095579768954041633e+00,-6.885245112968761738e+00
-3.558843694522046075e+00,-8.086253605212112561e+00,-2.400499509597726178e+00
-2.207101173107124392e+00,-8.784191274495299240e+00,-1.357851665559005605e-01
-8.473871717331961761e+00,2.105418854026765096e+00,1.567102501898146594e+00
-3.000781078674629843e+00,-6.164304528665111027e-01,-8.642745000047019843e+00
6.605698110046114735e+00,-1.701722733400096832e+00,-5.771130012519756214e+00
-7.520453172257654195e+00,-4.577226420354682190e+00,-2.111756544355726017e+00
-6.691253333643166101e+00,-5.059769888472200883e+00,-2.783629242993527875e+00
8.060052726778238252e+00,1.657990378761390549e+00,-3.514728096624160081e+00
7.515119654218902490e+00,-2.722715998816830130e+00,4.089367441612846044e+00
7.733071739548772250e+00,9.334217801967591432e-01,-4.628576434292784647e+00
1.515060371978672160e+00,8.665836583221519618e+00,1.912921692799074203e+00
1.016683804400247748e+00,-1.600700952455702319e+00,-8.796483247862806110e+00
-4.401438588643934224e+00,5.846263031780060793e+00,5.413539438646544077e+00
7.676829077013749725e+00,2.959862592925328162e+00,3.572656413956857957e+00
-7.171089609679284216e+00,5.709664196722555651e+00,-5.196226746875353131e-01
-5.491075925732102903e+00,-7.398290275547008576e+00,4.440582153023106549e-01
3.149992087375260041e+00,8.393204372148051817e+00,9.671365788975423428e-01
6.448220539214103653e+00,-6.212680338309320760e+00,-1.110215619277871157e+00
3.506383678396690406e+00,3.422448900636204883e+00,-7.819636907724075492e+00
2.703817823517396413e+00,2.337147529861249851e+00,-8.262697290791358284e+00
9.749293927701755402e-01,8.226175164935387585e+00,-3.995894171497619496e+00
7.029250502267475831e+00,3.125309227818146574e-01,5.701484624338203133e+00
8.375991898317140638e+00,-6.932489310582135023e-01,-3.765464876638597413e+00
8.099586104146313303e+00,9.924050152844547945e-01,-3.279976787086524848e+00
-7.089371716465049822e+00,-4.819392769975721080e+00,-2.871330129915779406e+00
-2.072827469576730586e+00,-7.147136565938066788e+00,5.313536120045528222e+00
-2.016224399999460459e+00,2.807722290399823795e+00,8.421368386270936313e+00
-8.404929910059191212e-01,5.932675016245958943e+00,6.753102696446155129e+00
6.438437344334541734e+00,6.172946076480670285e+00,1.808241483245019099e+00
-2.858611030007334630e+00,-1.060727572292715415e+00,8.627496016601455153e+00
-1.850165211341397997e+00,7.633742482254864292e+00,-4.609677759259135144e+00
-1.131511758152372371e+00,2.032964913246416927e+00,-8.808081731684143989e+00
-4.240459188600355311e+00,3.462631341754450753e-01,7.955388374689301934e+00
-2.537743702625624653e+00,-3.012908178198387965e+00,-8.262247804765703307e+00
4.367293761400112828e+00,-6.610866186022666291e+00,4.532621821135068174e+00
5.380870739569608041e+00,-6.021943364825894207e+00,4.537861020054494432e+00
-4.592138589753072431e+00,5.030131880903318198e+00,-5.966254079045349989e+00
-2.125130296061388258e+00,4.294813258957963953e+00,7.668027670558784870e+00
6.509383215403397038e+00,6.167119700389219972e+00,-1.439230071823585755e+00
5.978119781262829502e-01,-7.062939686301964670e+00,-5.528253924145664300e+00
-1.236850013468459686e+00,8.978071896936741680e+00,-8.657525051154101314e-01
2.743163531025013757e+00,7.368984564481373845e+00,-4.624484603093471868e+00
-8.261689846854977759e+00,7.172480831084955266e-01,-3.679670477333079504e+00
-2.746058229690772734e+00,-8.729193291490872753e+00,-1.319435341596742362e+00
6.941120764963700118e+00,-1.131387650399467981e+00,-5.680694375583942524e+00
1.365937578016345855e+00,8.260319661740112451e+00,3.398575530657360844e+00
-4.941536942461805637e+00,3.684448328518445503e+00,-6.734559374609939475e+00
4.121169508417706240e+00,-7.059184192789546231e+00,3.824213308632455455e+00
-7.044232514564234826e+00,-4.491524047691733301e+00,-3.148287001994388046e+00
-5.484473840477065210e+00,6.882781569729591986e+00,-2.043644029175919918e+00
2.594162001796505468e+00,1.019941167004190463e+00,-8.685367620381992282e+00
1.335747330986728709e+00,8.505972609966844900e+00,3.309541043274041527e+00
1.745013273980255519e+00,-8.783134744319639253e+00,-4.764263526256694026e-01
1.591404596266320082e-01,4.770471783024134993e+00,-7.755558847575545478e+00
3.785200727574220991e+00,-4.418095367705739740e+00,-6.928021237180646885e+00
5.585201898925831188e+00,-6.050767314227216254e+00,-3.835213389677645690e+00
-2.765891354074703212e-01,3.670419951422649429e+00,-8.464343546605070046e+00
-1.313618969218977250e+00,-8.459574505892133445e+00,3.166895865340562111e+00
-7.244776919692910155e+00,1.753928534913652415e+00,5.119918899471065821e+00
8.206556241267801255e+00,-3.497955273550809263e+00,-1.830721164583244631e+00
-8.895752610241405733e+00,1.611015057637777526e+00,-3.660237527548848568e-01
6.504041044885742195e+00,-5.045418940016585196e+00,-4.002543510478057343e+00
-5.259794957694178485e+00,6.515351554995921113e+00,-3.552854369554391933e+00
8.067179386562962407e+00,-2.108225159004566862e+00,-3.651219117473421871e+00
-6.489699331619187106e+00,-5.817496182451686870e-01,-6.326705104667416535e+00
-3.431735941574280524e+00,-2.993762056786887449e+00,7.797366378530161235e+00
-5.118511887125751336e+00,5.013970845033862922e+00,-5.501054704821400243e+00
-6.783487044461446125e+00,5.751607790209297910e+00,1.822601875438065955e+00
-5.274886202409267533e+00,-2.026871501874859316e+00,-7.093976577344800916e+00
-2.711905949842332131e+00,-8.338752730954492876e+00,2.573040768656379651e+00
8.654379800743505768e+00,2.685188597235233399e+00,6.220110042373183656e-01
4.451159708571772455e+00,3.215661979919650193e+00,7.261583761662860681e+00
-4.733276992991001464e+00,5.863857975212138918e+00,-5.040860603480632030e+00
-2.972553462635552646e-01,3.707486784805524849e+00,-8.368582489252252898e+00
-8.729953725203017101e-02,-3.570545596111390108e+00,-8.300826051723078081e+00
-2.487829523384024188e+00,8.467351156256786027e+00,-2.199898259256042543e+00
-5.904435517986378557e+00,6.522860378823216898e+00,2.310862402853706143e+00
-6.131921361533445136e+00,6.483175294798780186e+00,-1.470616458365543000e+00
-5.709441407085386722e+00,-6.857529275494807841e+00,-1.781223473348790165e+00
1.600789952180312614e+00,8.051010112448084399e+00,-3.912202824717745830e+00
1.387660623842749130e-01,4.633610226866570869e+00,7.753751368791900411e+00
-8.820059443839314284e+00,1.969609804460475289e+00,-1.143452326709931910e+00
1.693414484821158528e+00,-8.811360379823943489e+00,7.245995818064532301e-01
3.859904432615040459e+00,5.582072441905652660e+00,5.961929754170733453e+00
-6.943554386579965154e+00,1.494934516969197880e+00,-5.437768843638897565e+00
-1.675669976651141591e+00,-8.720766394459694482e+00,-2.147127068393525740e+00
-7.485876669767382197e+00,3.913310005774824241e+00,-3.461293573915300126e+00
-8.107092630733905736e+00,1.394196586892287426e+00,-3.939277750511517961e+00
7.645556636763974012e+00,-4.177501096396685654e+00,2.483065857657741127e+00
-5.206521233170170682e+00,-7.457921817358208472e+00,-1.330575044500747373e+00
-6.948559821214599808e+00,6.023025335463377594e+00,8.227510736346328457e-01
-9.111009374003426586e+00,1.895814387663636302e-01,5.000407616641708852e-01
-2.227474729952422905e+00,-7.507450166680574632e+00,-4.616899677052042072e+00
-2.662151057167437163e+00,7.817288814965469790e+00,3.649629464580106841e+00
1.076415342759275529e+00,6.468842150017212411e+00,-6.319729379819668758e+00
-2.150895470415398414e+00,8.494509912173279886e+00,-2.280351792952797219e+00
5.612013264770147281e+00,-4.442818539587520377e+00,-5.348248199725674112e+00
-6.048362057669693037e+00,3.677276353338777337e+00,5.470342828422094072e+00
-4.011620348295594773e+00,2.079725215538559713e+00,7.880146188455698031e+00
6.773775741543830442e+00,8.663238496300030844e-01,-6.016908004586441372e+00
1.728766171719089417e+00,-2.325548131471471880e+00,-8.826835353564497666e+00
-4.086799092626240970e+00,1.349027760087939454e+00,-8.122796284630215524e+00
8.345377840358505495e+00,3.152236293523253519e+00,1.135186489551016420e+00
1.844412420707805644e+00,-5.031269084685605186e+00,-7.296097449735655438e+00
-2.001476890446318269e+00,6.502195863157728795e+00,6.074180642081216774e+00
3.047465448218257045e+00,7.712805022245088793e+00,3.356226855956949695e+00
-1.376562812258855795e+00,-2.048112392551552752e+00,8.713892646996969304e+00
1.403287823296359260e+00,4.637154297448202733e+00,-7.633436088534272024e+00
1.925486369424935340e+00,-8.323253537413837222e+00,-3.382970234620407801e+00
-8.372201196557041980e-01,-2.178220299069629551e+00,-8.663765647324961350e+00
-9.071519809462889938e+00,1.264723006425368501e+00,-4.140553221634207803e-01
2.594338478457635322e+00,-3.970884397956965017e+00,7.755896086321101279e+00
4.639178187105645002e+00,6.098446925699140486e+00,-4.808613449793704753e+00
8.131960250422975989e+00,-1.536052542987633274e+00,3.611889698301231189e+00
-8.631535540139161355e+00,1.614435777081525636e+00,2.002725884682630131e+00
1.110158426109399521e+00,8.720613991512385255e+00,2.318798819909808184e+00
5.860885001557055496e+00,-6.627820365326797081e+00,-2.149490648430061324e+00
4.119003206840415210e+00,-6.053049872807349630e+00,-5.599778053929876265e+00
3.551039563152198042e+00,-2.417339385638272553e+00,-8.148713114344436903e+00
2.443997351182159439e-01,-8.072072164635001101e+00,4.295294916712081523e+00
-2.426505303773079270e+00,-3.430076263176825790e+00,-8.208461692561359158e+00
4.260235931746500171e+00,-7.726185014794614503e+00,2.322580394714936602e+00
-4.016108401983485843e-01,3.623204042965388894e-02,-9.172177844577714012e+00
2.320765421065609679e+00,4.868882388639784509e+00,7.255445831301034154e+00
-6.962322184681002391e+00,2.532105065038382730e+00,5.373106703433710329e+00
-5.293824936661086333e+00,-1.537802355322484660e+00,-7.192693533248536220e+00
4.130565829386310561e+00,2.772970483568236943e+00,7.511618800303470067e+00
-8.031479369401255397e+00,-3.164004763988292002e+00,-3.030460195691708325e+00
-3.661497659933102278e-01,-1.740604497619937741e+00,-8.937562601700161480e+00
-1.333398492181032902e+00,-8.123209687020231939e+00,-3.882322578853543593e+00
-5.425120756177786475e-03,1.864685439190352900e+00,-8.885619721394744985e+00
-2.046200479590777555e+00,8.876485354324085364e+00,3.346936114225639719e-02
6.860736292499181488e+00,5.687180426156392521e+00,1.979986848427723212e+00
-1.835645204710616429e+00,4.429160818072466199e+00,7.689473486340795638e+00
6.944243851345251350e+00,-3.687224941542865064e+00,-4.863352392607067642e+00
9.765331858435983836e-01,-2.241699919770296034e+00,8.806201342417306677e+00
-8.755840162548672367e+00,2.673527282263457039e+00,-1.260472550871627184e-01
7.988065342621135656e+00,3.586315248599142969e+00,2.653159688531465221e+00
-1.748214824894761543e+00,6.103126917323858258e+00,-6.666830507311176213e+00
-4.318280720888465041e+00,-6.196361372119853606e+00,-5.174502596894060780e+00
1.154627877496908317e+00,-7.247873368926524229e+00,5.556793825503478779e+00
-3.198971867970677341e+00,7.609332411588409784e+00,3.519733584684877403e+00
7.061382144088597101e+00,-5.322965904368929912e+00,1.942032850604203276e+00
-4.289287641525906802e-01,8.435765929517136996e+00,3.412941568000880999e+00
-7.940069809778864673e-01,9.040872329371291372e+00,1.156667566102990818e+00
-3.563065637119077422e+00,-8.305145246057792363e+00,-1.162447378943545884e+00
8.101935125509212909e+00,-3.982056873952152909e+00,3.839479591012368020e-01
-2.586748739702389610e+00,8.899536910383877564e-02,-8.763430821355852274e+00
8.702015709341846872e+00,-2.329096738720014770e+00,1.348614381268251838e+00
4.565074491275774804e+00,5.066152453448376392e+00,-5.784382591460769163e+00
5.924975312275726047e+00,-2.944932194151011373e+00,6.022717759195534093e+00
-1.160571895948690369e+00,-8.764078691218026407e+00,1.863764115015268619e+00
5.682507185933022953e+00,2.811696123884297904e+00,-6.378724310994192237e+00
3.594716728430714880e+00,-8.060656233595521414e+00,-1.945945641310641738e+00
-4.861214410135229258e+00,-2.702708311351720294e+00,-7.006658399343108634e+00
-5.097896683624679959e+00,5.158145743768101532e+00,-5.478111156917502278e+00
6.230962566909676426e+00,5.694783513385821117e+00,-3.210228664819460231e+00
6.344067961265811739e+00,6.094221862964284142e+00,1.613746281273802374e+00
-8.595465207698729238e-01,4.009054988486136395e+00,-8.079877609586040066e+00
-1.237923597183590463e+00,-8.894133327599483607e+00,-2.046422288269884593e+00
7.360177587773678809e+00,-5.239317827662778093e+00,-1.286930920520800159e-01
2.755604961606233694e+00,-6.923165016506009906e+00,-5.175642479407743579e+00
-3.435877851079789380e+00,-7.654130065219578505e+00,-3.897397888596836779e+00
6.911777161491772681e+00,5.775927551047849384e+00,4.241729720548047533e-01
-1.616335706338992040e+00,-8.316140575462085849e+00,3.000732483847038612e+00
-5.890881593487978130e+00,5.433802252386981557e+00,-4.006856531945943267e+00
-7.166673940168535317e+00,4.616622480120321725e+00,2.788359198639135172e+00
9.346946121041841415e-01,-7.294971567464458850e+00,-5.315205383247547211e+00
-9.640058187525325506e-01,4.355126145996501386e+00,-7.790097008158992864e+00
1.560783616700908816e+00,8.597224926243329790e+00,-2.849164207066899657e+00
7.775549222361052060e+00,3.741597726497868592e+00,2.675421735841744475e+00
-5.467569890090627771e-01,-6.615152217461074180e+00,6.182248818372689136e+00
-2.568107752532755139e+00,-8.695918175972813913e+00,1.154490536896367325e-01
-4.590403200628359492e+00,-5.988223429975207068e+00,5.147518737129050947e+00
7.438727861195748581e+00,-1.962215356961754420e+00,-4.711579210910421089e+00
4.347125653088851571e+00,-6.068578387695930942e+00,-4.952051183871432727e+00
-8.333977919094158082e+00,-2.717148752995315331e+00,-2.489687079201382769e+00
-3.170626224222962364e+00,-7.030415301053689170e+00,4.955481213568464938e+00
-5.890341704096135445e+00,-5.752454613571614139e+00,3.781454329067766462e+00
1.666774501445020595e+00,-3.107950216448159608e+00,-8.240587526232435067e+00
-6.521752837160068594e+00,-2.355035920338826916e+00,-5.751007995688054208e+00
2.900792717639232965e+00,-1.122715356412145704e+00,-8.661759145998315645e+00
1.921535220168541391e+00,-1.997663112708026656e+00,-8.699489214142737126e+00
7.821906585113441501e+00,-3.050705921398356946e+00,2.949987124766358715e+00
-8.318272743544635972e+00,-2.328436594991717623e+00,3.352369830740093093e+00
-7.739478312413242911e+00,1.024201677312834846e+00,4.653606302056668476e+00
-8.920729585409205242e+00,-6.165731491916173201e-01,1.670785057949022656e+00
-3.088550110745509336e+00,8.377411362397701566e+00,-2.174000033998901849e+00
6.813554595779814704e+00,-2.891671394251458693e+00,-5.305319845676823576e+00
-4.826938937829693188e+00,5.858628200517198792e+00,-4.852085027952475649e+00
5.382573039937028625e+00,-4.265613229514589655e+00,5.801940365832791713e+00
4.218652049564191486e+00,5.432255093412827307e+00,-6.121568637704050353e+00
-2.007247790270378029e+00,2.872938415652662503e+00,-8.488946074766541727e+00
-4.195522604975180592e+00,8.033702280690004471e+00,-3.461707110887686234e-01
3.051757199453430047e+00,7.674242523442218911e+00,3.882598305495780888e+00
-2.530174984861687015e+00,-8.007422964393716924e+00,3.437778520512295710e+00
1.137906308248662901e+00,1.924641041055983770e+00,-8.865247732970171768e+00
5.913087660444681148e+00,-6.597079004717909534e+00,-2.385496774837868372e+00
-2.027387249022548410e+00,-2.590256441800766751e+00,-8.398775995129307503e+00
-6.160077346372626828e+00,-7.925061717220730495e-01,-6.549362058998018377e+00
7.286867114503712273e+00,3.858569907983417480e+00,-3.345808099536638380e+00
5.649243944719068544e+00,1.462369365770722851e+00,7.028809326877295760e+00
-4.550997918140470944e+00,-7.018910911439966149e+00,3.468390234633005775e+00
-2.459130558384301946e+00,4.767417475727731890e+00,7.298935749615623081e+00
6.743311886710353420e+00,5.146283093412899134e+00,-3.345345531826020125e+00
2.849783258814530651e+00,-6.339121160654801912e+00,-5.704042111077949784e+00
8.207429006698525598e+00,2.169453958604422361e+00,3.775583701802909253e+00
-7.157380980573451623e+00,-5.218333333669300522e+00,1.931156492754676268e+00
1.042550593554399274e+00,-4.145904709826197632e+00,7.889991769831762092e+00
7.721862083402172061e+00,4.634716690717641363e+00,8.387777900786551610e-01
-6.016952869218031630e+00,6.083222786497014312e+00,3.457943363520320723e+00
7.391080587485062914e+00,4.490288505818089249e+00,-1.811197065283498331e+00
2.979120518749055258e+00,-2.908138453746890173e-01,-8.464770979283485985e+00
3.127218791334562265e-01,1.966126994662020122e+00,8.858066788448969220e+00
8.085811897262487946e+00,1.418168228828856625e+00,-3.586755637865092439e+00
2.948210895630809070e+00,-7.766516893792591247e+00,3.762343070206023654e+00
-7.774932706543332017e+00,-2.869130315098431527e+00,3.801358618767141095e+00
-6.919974363137303186e+00,-3.002260290876745064e+00,4.938793190938931765e+00
-4.305459184796459837e+00,-6.198474699918042674e+00,5.029258182807126332e+00
3.980017385724335277e+00,-5.878123183407875096e+00,5.784152637154882370e+00
-7.889388929555052776e+00,4.461250555611029900e-01,-4.202730442491457552e+00
-8.681692640248069637e+00,3.194629595058983806e+00,5.722165888358381192e-02
3.730470366384754044e+00,-7.298587247044189041e+00,3.754069157430375281e+00
-6.950131369663378855e+00,-1.504015378967805461e+00,-5.789524159873708165e+00
-1.288684751698174979e+00,-1.990558613322700676e+00,8.816980254148793605e+00
-2.515308016017148596e+00,3.517772359618143607e+00,7.942836086246295224e+00
-2.067432823640890760e+00,8.881921676930753407e+00,-4.337045111910793338e-01
-6.289468476794223051e+00,-1.299360814882538850e+00,6.411280392733575084e+00
1.341375668996763526e+00,-4.305163048708805285e+00,-7.921534668560006764e+00
-7.691786567927199059e+00,-4.378967198479019274e+00,-8.705486878581251142e-01
2.606146595718906944e+00,8.460165915372165557e+00,-2.342442522041249031e+00
-5.604029801765282315e+00,-6.561816411036918595e+00,2.830686423151951736e+00
-7.507171637912154694e+00,-1.060525700212410882e+00,5.003154249512568263e+00
-7.932703571907857132e+00,-1.111501664535155393e-01,-4.442735099529646625e+00
1.841448736215396953e-01,-4.440269737604406686e+00,-7.894339615088171058e+00
6.236752044000549944e+00,-5.570614782467890436e+00,3.642312927790891663e+00
3.982300367046789802e+00,-8.244403621240023128e+00,3.729956247830313876e-01
-4.418678914612500286e+00,7.588183132628269156e+00,-2.583545563608503848e+00
-3.138979060498676699e-01,-5.701865588492291081e+00,7.078354532927819243e+00
-8.954777045268855318e+00,-1.212224482510331214e+00,1.148671613093164012e+00
-4.059715928674789254e+00,1.051659167125078120e+00,-8.071758582502008394e+00
-2.121384023724383727e+00,-8.044233807698697447e+00,3.541657449824243464e+00
5.085180750115734227e+00,-6.077237338155179192e-01,7.468585395474485189e+00
2.312353403722587242e+00,8.784129496178387342e+00,1.339675873084593460e+00
2.635866842695091528e+00,-8.532484480945363714e+00,1.053829127756432893e+00
1.097861148210908189e+00,7.537973874019257892e+00,5.102792929023946655e+00
-7.692840855004551948e+00,-4.574259427387644905e+00,-5.287810579507246089e-01
6.029317684738026983e+00,6.251935295513587620e-01,6.747683512924551152e+00
3.274883464318968596e+00,-4.854661758191916476e+00,-6.977373817920452304e+00
1.284056971331039021e+00,-3.128179228443333848e+00,8.405858898919616351e+00
-1.194195494965194060e+00,-8.956883725708184585e+00,1.809019070405581964e+00
4.077106514241640056e+00,2.130891925378225693e+00,-7.813750357911692923e+00
4.497565659419774597e+00,7.807915853548965224e+00,-4.515821668673498102e-01
5.911297910886866847e-01,-5.418085287914776060e+00,-7.348532513479120176e+00
1.997602430882725821e+00,4.642914521631388958e+00,-7.459325983381181580e+00
3.470983989323230379e+00,-8.261835778150791398e+00,1.966205359397073416e+00
5.332706263252450896e+00,-6.762801423291237235e+00,2.691354029061413300e+00
4.105195039759560238e+00,1.674354593905904798e+00,7.986966225429106281e+00
4.637281021601851183e-01,-5.954864105058073953e+00,6.629591374151545757e+00
-6.002260473578795441e+00,8.647762691019489356e-01,-6.760902866143631229e+00
-3.663846291449142534e+00,-2.248201292130856288e+00,-8.138915370306923691e+00
8.265837740552667512e+00,3.636895131051935071e+00,-4.733988480857310721e-01
8.188973863918455720e+00,-4.015886412928611371e+00,9.100469552638535964e-01
-8.972406132094976172e+00,7.230504170913460982e-01,3.711578182140327642e-01
-7.720479615811409957e+00,-5.965422920023216724e-01,-4.594610195979366374e+00
-3.393833354250885836e+00,-5.175272661604565450e+00,6.551473590479850451e+00
-2.090946600748967210e+00,8.728369954307781953e+00,1.168987835026695565e+00
-8.362688214546507126e+00,3.622291101504880650e+00,5.997212980341333211e-01
2.903480932471597331e+00,8.682631367687564605e+00,-1.208767670157553153e+00
5.486863128374445786e+00,4.041803122228422751e+00,-5.880414233555405268e+00
-1.503801960562842543e+00,-7.222360693413657273e+00,-5.214347837642542061e+00
-6.613559775245154704e+00,-2.862954697073144761e+00,5.514863467592249435e+00
1.266212916364153118e+00,6.325701083829694760e+00,-6.274640122647443974e+00
2.916528773686478893e+00,-8.135594393653818202e+00,2.741491912232243866e+00
-7.075817695433948007e-01,-2.834851015324141521e+00,8.515162370779927770e+00
-3.838651125334181291e+00,3.197019326117185756e+00,-7.410883784816129527e+00
5.562785054062213241e+00,-6.613515732762878407e+00,2.470416411688645120e+00
3.101060986129236863e+00,-3.725995459137470878e+00,-7.589876625249568853e+00
-7.488187049437021459e-02,-9.151375638100937238e+00,-1.489183074892874437e-01
4.664389456963433211e+00,6.932531135484582663e+00,3.313668194021032409e+00
-4.843776161393008373e+00,7.505977580206121935e+00,1.335812874739112255e+00
7.181208873689312711e+00,-5.217016898879546893e+00,1.521552795540726644e+00
8.151595071637959933e+00,1.654669145876099590e+00,3.610675317193406286e+00
-9.048407575135577474e+00,7.577176119745246963e-01,-4.018425731732075956e-01
7.703018977476663309e-01,-1.763572130244909442e+00,-8.962736579585248720e+00
-7.056585914562998774e+00,-2.034989519526611446e+00,5.121764608316789591e+00
5.913286770870038289e+00,-5.413353880260292073e+00,4.161016340467180719e+00
-5.398840369681055407e+00,2.657745477102586573e+00,6.642295137862404886e+00
-5.786802495613040165e+00,-3.858066730084779294e+00,5.844661153982550594e+00
4.079206994338466230e-01,-1.784121038842636731e+00,-8.934193359596880768e+00
5.122518139437469031e+00,7.700752370865603602e+00,4.396008167852378801e-01
8.028179114968931884e+00,-3.909102910015076926e+00,-1.574841797114042707e-01
-3.419780305339306548e+00,7.176203238186651845e+00,4.453185023883850846e+00
4.057225505073190241e+00,7.598663838511079405e+00,-2.885914133296422435e+00
1.489495588815696436e+00,-4.504526993040250282e+00,-7.875176238647535243e+00
-2.962296883638965816e+00,-8.631743141768504657e+00,1.250224940736928803e+00
5.635645154824173719e-01,3.494108605573170490e+00,-8.335772712247841554e+00
8.620934504304194945e+00,-1.691837829171330299e+00,2.620506240105477058e+00
-1.015239325133412862e+00,8.738788001121477578e+00,1.683798290262551234e+00
4.771210700264934879e+00,5.609729598373268011e+00,-5.319511692038163098e+00
-6.169280362265097128e-01,-9.070782102100663380e+00,1.300328115196663026e+00
7.975448893015235186e+00,2.909422253119481883e-01,4.378778763274917551e+00
6.479781087403372553e+00,-5.713607523770852126e+00,-2.857001606582143527e+00
1.836701810756104170e+00,-2.079923082968960113e+00,8.655230982581649357e+00
-9.940937958514700634e-01,8.052763138755249628e+00,-4.405874313973595413e+00
-1.896609160917736292e-01,-8.648711652820171736e+00,2.751745875370592120e+00
-4.283466264779533184e+00,7.126812696199303687e+00,-3.348196797847447836e+00
1.972603883775859990e-01,7.630455123771335835e+00,-4.858799526564957283e+00
-1.553256300582560590e+00,8.957610844080726054e+00,8.100566972054346060e-01
2.281674773824985195e-02,1.277822729492262166e+00,8.914283225474598282e+00
-1.457997138056761066e-01,8.477174948756507789e+00,-2.947761951570462280e+00
2.917340512117089002e+00,-2.966813289560283895e+00,-8.181114074951336690e+00
-2.181928210388663469e+00,-2.880373409347878777e+00,8.337631316617024169e+00
-5.428055673787623547e+00,-2.270165305067632477e+00,7.154984040629178921e+00
7.346052674097197865e+00,4.436141584237008217e+00,2.758757410331211357e+00
7.329605850331888384e+00,5.026674210592378955e+00,-6.819523000284318792e-01
-4.721992374677196125e+00,-7.174458548758885001e+00,2.795136772369388733e+00
-8.933294149175337040e+00,6.630473461307986316e-01,2.015065797254124824e+00
-3.969529880446593939e-01,-5.367434869724690749e+00,-7.399269183440401854e+00
-2.479238568279560351e+00,3.294525146253103109e+00,8.061706848431121841e+00
2.958893567192303120e+00,-8.142868744320413299e+00,-2.880141658489533629e+00
3.165198792803284977e+00,3.316810779125801023e+00,-7.964738098208473893e+00
2.196764269922399926e+00,7.911874925163922434e+00,3.959604281588904762e+00
-3.260877599300561869e+00,4.977466666356659353e+00,-6.977963443889577455e+00
1.127957376318935889e+00,-1.257708919023095388e-02,-9.053843120360808072e+00
-8.219963559449997348e+00,3.253082295762373288e+00,-1.707019882168210323e+00
-2.298227523118517635e+00,-8.640130922680386405e+00,1.636030761134682043e+00
4.759353926369801258e+00,4.097519183891243921e-01,-7.559787195647471592e+00
6.391911203780053619e+00,5.738548028014393010e-01,-6.552314437711956430e+00
8.973575145678905685e+00,1.972017522972752790e+00,7.415145890366628967e-01
-4.500225861540289585e-01,9.083618612667171632e+00,7.154303371894223940e-01
-5.438601834589465334e+00,-4.810939173285293968e+00,-5.152378776655855752e+00
5.464538099908098800e+00,-5.967255795911121652e+00,4.121808535260282902e+00
6.693664540229552706e+00,-4.694340760259001044e+00,4.079120873015241955e+00
-7.011032780856023550e+00,-5.975397770200487901e-01,5.714861218013564503e+00
-7.329404161591421385e+00,5.062986896004428417e+00,-1.200965248227299664e+00
-1.692026193682263813e+00,-8.597857403901711493e+00,-2.481119133134987553e+00
-4.314391257526071222e+00,-4.578025462737319029e-01,8.014009539036994312e+00
4.069606254764956965e+00,7.788104597488525904e+00,-2.840180821672384504e+00
4.104560164677062417e+00,-6.314522333361463624e-02,8.047416077457778982e+00
7.746750300225364594e-01,-5.639077490423696215e-01,8.936823471421458720e+00
8.295370034705385365e+00,-3.536154619663285370e+00,-2.039841357563004554e+00
-6.448305787327003991e+00,5.599335685745054469e+00,-2.801087730036556422e+00
-8.903369745073570485e+00,9.026798940815897732e-01,-1.097388932628370117e+00
6.816633474112479441e+00,-4.930943783641334122e+00,-3.812107487811044582e+00
-2.105220599691292882e-01,4.205813635904455339e+00,-8.274551142994285513e+00
-8.141309548309077826e+00,3.064521404800033100e+00,3.124380240018598265e+00
7.471075807223559906e+00,3.138465966719466316e+00,4.134053228172255956e+00
-7.686344775307792254e+00,4.836328423197118198e+00,4.541368682549212221e-01
-7.124476868491619541e+00,-5.524479663111882211e+00,3.699962276325881594e-01
-7.302067261710421420e+00,5.312812891204943710e+00,-2.597397488060206316e-01
-1.457930138230964623e+00,8.849544888313204183e+00,-2.088328981871102830e+00
1.493959855304065054e-01,-9.152721033750339075e+00,-1.009050467213859825e+00
-8.726861370537553952e+00,-2.188038897361205937e+00,-4.557381248138185348e-01
2.240289384947095286e+00,6.774533747333998157e+00,-5.599535983991940746e+00
-7.742791600031696753e+00,4.675758236849667071e+00,5.266294175458171578e-01
2.292481399929796826e+00,-7.432614217937135948e+00,4.591639745199792344e+00
3.895776495656193550e+00,5.581380506990850421e+00,-6.099783922534521174e+00
-7.997704474444259359e-01,6.900129140960864049e+00,-5.987808891424190705e+00
-1.666558552981935559e+00,-8.801084012202718299e+00,1.525855321702365375e+00
-8.482362155455055452e-01,-4.490424894922518284e+00,7.620464202189921821e+00
-7.599035784798932269e+00,-4.766609953358245555e+00,-1.372685797166225630e+00
6.862068895632098986e+00,-1.486938796514028160e+00,-5.682769032661399322e+00
7.799735920077907281e+00,4.261291699212774176e-01,4.753390668924959428e+00
7.618420658191489281e+00,-8.653492153605671922e-01,-4.642426964956857027e+00
4.961814669879572648e+00,7.886942670821798451e+00,3.951404221630978042e-01
8.484836008569306642e+00,-4.891392880914811614e-01,3.273051686305946451e+00
-5.259803965984264806e+00,6.582110641482991298e+00,3.617847370283004516e+00
6.623415806835762254e+00,5.947831544816532201e+00,1.754679485437812048e+00
-2.925650358505399673e+00,4.092302218018255999e+00,7.756379712555248496e+00
4.238954075797123799e+00,-7.610094720345547792e+00,2.407845500773126091e+00
5.477383656910841836e+00,6.028854737165641353e+00,-3.609972706249222174e+00
-6.062600665559026325e+00,-3.997843736687828109e+00,-5.675534182018648899e+00
8.998724748306765164e+00,1.402358773477732967e+00,3.456953084967896994e-01
6.141833930294636090e+00,2.021118175680129525e+00,6.369796739786530715e+00
7.463004531163771382e+00,7.397503695413276681e-01,-5.120864231369971264e+00
3.403111995000867918e+00,-8.454735927696837905e+00,7.537235808807685178e-01
3.677484394268476509e-01,8.810790110710044587e+00,-1.889180843570139157e+00
-4.877399500092068685e+00,6.707686075912519641e+00,-4.177837047217498601e+00
-1.459221414904409597e+00,-7.680825936579534385e+00,4.327168585888252927e+00
-5.034943737869896907e+00,-2.161801588512177297e+00,-7.283712265967779764e+00
5.309361425514862454e+00,6.439117511259773607e+00,-3.558312254747879599e+00
3.670102425259372581e+00,8.400496153812694544e+00,1.212581223931323615e+00
4.817479992080994755e+00,5.476232423414993278e+00,5.562311812405485334e+00
5.185677402257247159e+00,1.492852263245398658e+00,7.291927361797336360e+00
3.948997208170177409e+00,-6.116599504051499103e+00,5.601871127354135282e+00
1.246221999463484192e-01,6.137682230735158839e+00,6.735978314086212393e+00
-4.795815100302370126e+00,1.037218281205732673e+00,7.739317239719518682e+00
4.130917458066964087e+00,-5.845738870334541204e+00,-5.656958553176974824e+00
-1.229874297385109339e+00,1.481697236449617705e+00,8.913429075673015234e+00
3.200936463917798847e+00,-6.385695563775712902e-01,8.442629046936172443e+00
4.258233578749194947e+00,-2.712879933387748022e+00,-7.534433226188433252e+00
2.330716596176350297e+00,-6.747838291370320540e+00,5.962249452306422448e+00
-3.911297465528897344e-01,7.434805412853268791e+00,-5.042822009639778891e+00
-2.622621398124675540e+00,1.635180156494705939e+00,8.662899953144714615e+00
7.374037619626339080e+00,-5.292038229806737881e+00,8.918573066448798325e-01
-1.564935603104326001e+00,1.905915123466169092e+00,-8.738576511706810379e+00
5.030730520265927375e+00,-2.385270045196525412e+00,-7.312443955060538237e+00
4.409025317404695166e+00,-7.794656531815919109e+00,-1.641261609346109207e+00
8.829881046238901021e+00,-2.216799878808094260e+00,5.996423281187194254e-01
-6.567500384827951176e-01,-5.408938780023260229e+00,7.209834434221058963e+00
6.542318961272140854e+00,-4.380400680364836319e+00,4.577867837259961270e+00
-6.612117443509307080e+00,-3.603028521276678386e+00,4.905761371028408035e+00
-5.795820277373254115e+00,-6.936019982566508979e+00,-5.182243564038656602e-01
-1.857140756738618892e-01,8.410209901118422593e+00,3.662927016182581319e+00
7.058035650510499970e+00,-5.535537881148193229e+00,-6.334401968347409539e-01
6.218278618575241445e+00,-6.674153116899709026e+00,-6.550808150647214889e-01
2.571629877238804429e+00,-4.909483092218263067e+00,-7.216378480081923286e+00
-4.412308885507643552e+00,7.974776643626594108e+00,-2.738320401661987757e-01
-4.167232324630054663e+00,-5.338216402845213926e-01,7.995417483379318568e+00
8.900464034733680307e+00,1.011815049506292530e+00,-6.267872749062589621e-01
-6.554891942034678752e-03,-7.724441074268936447e+00,-4.662594484313452803e+00
4.034752851856119982e+00,-5.228757765088647425e+00,6.314866835832576797e+00
4.458263417329866307e+00,8.369049548667542027e-01,7.910458804658984988e+00
7.027958570625877144e+00,4.504601188768633691e+00,-4.213490058047003828e+00
8.708913526937141825e+00,-2.319436728547823012e+00,1.253577107565040594e+00
2.242236577774080697e+00,6.416340241470171790e+00,6.256020391046921425e+00
4.003656751336333919e+00,-7.775646640773851814e+00,2.533894492574499946e+00
-6.075265432944541466e+00,5.932667270329242903e+00,2.775827446302350676e+00
-3.425223243068524770e+00,8.235971963112767469e+00,-1.723110793912971506e+00
6.606109104173033764e+00,-3.178609766363041933e-01,6.132850133998375419e+00
1.478238724536775406e+00,-7.237939047886380095e+00,5.436613340155799001e+00
8.032450099580509928e+00,1.361605580182264852e+00,-4.027335499151734943e+00
-5.278763163390185476e+00,4.805505728142665411e+00,5.632097257256346801e+00
-7.196579548471840226e+00,-5.296625001056351145e+00,9.694563810027064799e-01
4.907718900854983524e+00,3.142370830594951148e+00,7.104112311902909482e+00
6.224042432461285301e+00,-4.013388098744332666e+00,-5.204567533088547471e+00
3.649754925238627212e+00,6.795673138264760382e+00,-4.687442854843959061e+00
-6.550631040728704946e+00,1.651056321185316422e+00,-6.056121611008995487e+00
4.460147056762342466e+00,4.927468880689107600e+00,6.278215952828530177e+00
-5.900080373865431049e+00,-5.007281424218713362e+00,5.084300058239265674e+00
1.179534624396677778e+00,-9.076394835145306317e+00,2.246488209946842229e-01
-7.360640550877009858e+00,-2.517965345168561075e+00,-4.634871281636334217e+00
4.114982453014023100e+00,-6.753947939923236277e+00,-4.543435384194772553e+00
5.883025221516406944e+00,2.207634869598997351e+00,6.910040261327531574e+00
2.686215977311326331e+00,5.186394929616272576e-01,-8.636897469081873169e+00
6.367424977878630266e+00,-3.405524731102631097e+00,5.336350430964318825e+00
-6.407914924426253434e-01,-6.679958305953916486e+00,-6.287559653320112574e+00
2.069436634327813662e-01,9.110594674040244811e+00,1.149322561456383340e+00
2.190889865605328168e+00,-1.346798546692937748e+00,-8.770042471886199564e+00
8.454422226716587829e+00,-3.514761024015563340e+00,-8.415441863320326232e-02
-1.257467570326124440e+00,7.556504636524426388e+00,4.984403445820142942e+00
7.257668722571136932e+00,-5.249658753682687973e+00,1.253225923995381574e+00
-1.924282311973965376e+00,8.884439200269117265e+00,2.671451396055581351e-01
2.749046284399849327e+00,8.310527333474270861e+00,2.586186459902499291e+00
2.047794378806955695e+00,-7.256394709626622586e+00,-5.259218992060177733e+00
-8.711418843039478332e+00,2.334502971782556280e+00,-1.031129304516366529e+00
-8.759950000046954344e+00,-2.167186114693115506e+00,-8.759025700074656307e-01
4.071714420859350092e+00,7.393704738671298848e+00,-2.954621792794368762e+00
-5.971417582431997495e+00,-1.813874328918535284e+00,6.572778770368115531e+00
-4.525003653174997531e+00,2.642392545624830280e+00,7.618386439635890461e+00
1.909837503696980576e+00,-2.949935213766402331e+00,-8.401933153598513115e+00
-7.865658747409555396e+00,2.308077306693368413e+00,3.863817092246553120e+00
8.627250737558966875e+00,-2.085410280232432356e+00,2.375138910544642101e+00
1.439047020979825176e+00,6.291427355654263032e+00,6.188074640210924571e+00
5.513659642709058950e+00,6.074337598767198365e+00,4.195253459202707980e+00
9.014508163314298272e+00,1.213392213724272306e+00,-1.420689397951264976e-01
-8.211320641811855836e+00,-4.051634278413463797e+00,-1.184570657586256903e+00
-4.018356700682449656e+00,2.640702939522345805e+00,-7.845614411345767536e+00
3.074530383590530214e+00,-6.083995146474576288e+00,-5.966788462187624376e+00
-1.596021730617000145e+00,-8.514599377624007204e+00,2.669346530762843006e+00
1.445489868153436941e+00,-6.646853177937016355e+00,-5.982502385675698697e+00
2.123904522979401133e+00,3.939533576837967566e+00,8.107998882123759188e+00
-2.712441275925102424e+00,-7.900264145990032461e+00,-3.265436252179936272e+00
3.906855029533091717e+00,-7.289931426205217946e+00,3.700556055823327029e+00
1.067490296573334385e+00,-8.491656633101499096e+00,2.817184604314954210e+00
4.000927532386731877e-02,8.907711027011769644e+00,2.625744893479250219e+00
-3.544820939943990279e+00,8.462089336021991315e+00,1.069404232939030086e+00
-6.197138676572774507e+00,1.918319983843273790e-01,6.760515822305771749e+00
-4.747182294433053507e+00,6.980683599106291659e+00,3.090456659092699621e+00
-7.032159527927845488e+00,1.217896850288621158e-01,5.739569688130212732e+00
6.600082432621137585e+00,4.199284852184274719e+00,4.708123400547354898e+00
1.760877868736967500e-01,6.884868127507136393e+00,-6.117175844629181292e+00
-8.686884576261704183e+00,2.624259128330871160e+00,-3.584879213854408886e-01
3.313692453294168061e+00,-6.356378478746484539e+00,-5.654776165072645355e+00
-1.406122993172757907e+00,1.234592136568964493e+00,8.835388683821754796e+00
-6.667268732245799967e+00,6.177592653849147908e+00,1.217267170344828120e+00
6.794614226605917295e+00,-4.089845818342584316e+00,4.407839478868750049e+00
4.288899222707526881e+00,-2.301409055644223933e+00,-7.688972187302788086e+00
-3.638519821067007776e+00,2.329746501467056419e+00,8.123577016087873304e+00
4.365153534713466676e+00,4.851226563758739729e+00,6.134058554307530997e+00
-8.754378065238007878e+00,-2.048498607023751639e+00,-1.017714789471083403e+00
-1.948304048326946925e+00,5.096305462084003146e+00,-7.233894622377482264e+00
-7.945562706611009496e+00,2.971110729975836140e+00,-3.483499436951231765e+00
-2.967076007217094080e+00,8.495435664015824173e+00,1.538363495472929721e+00
-1.746057578024841295e+00,-8.309842820113008344e+00,-3.085412537949477674e+00
5.878795968228462954e+00,-4.226322125593035217e+00,-5.560958478185819231e+00
5.411432457474009361e+00,-7.014675349606750210e+00,-1.754043098489058261e+00
-2.059594878243502070e+00,8.766565744425342643e+00,1.670288090222305177e+00
-2.671504592250660171e+00,1.519568788881064725e+00,-8.590315446383831599e+00
3.728475299049271108e+00,-1.088725767914699549e+00,8.247911299912962235e+00
-1.993906469820618144e+00,-4.982856343223421192e+00,7.197723496400682208e+00
7.369536391013986609e+00,-4.688523056649972709e+00,-2.679688804571685790e+00
