-1.720704818335384578e+00,-2.174718459910676138e+00,2.731168564704081536e+00
6.355927637884517534e-01,-3.396103360894025425e+00,-1.967298035687406577e+00
1.674180829358777212e+00,-1.579628761613291577e+00,3.142927639694473196e+00
-2.345531601175957714e+00,-3.228574032680039174e+00,-5.079750114977309855e-02
-3.520630203406083236e+00,1.947740939515614667e+00,-1.426269846366693683e-01
-2.853029191937658915e+00,-1.734953426090731110e+00,2.017211017365630799e+00
1.912395631635037896e+00,1.080100838870781343e+00,3.297174577998102318e+00
-3.883928286641209926e+00,9.661257883052556394e-01,-3.874578478631005019e-02
9.907609630919845811e-01,-3.779480020305410637e+00,-1.046282852108664674e+00
1.147191277897193107e+00,1.499936601272028880e-01,-3.805519638419657014e+00
-8.254893554240880782e-01,2.078982671911322022e+00,3.366627451430461715e+00
-2.189314764340438479e+00,2.230790729887086155e+00,2.315303743172564488e+00
3.430108236818692369e+00,1.938586523218583713e+00,5.092244019019213086e-01
-6.281972641933221135e-01,9.973754224902812160e-01,-3.868549127646987440e+00
-3.462785565700340129e+00,1.303993559794568213e+00,-1.421154566842199207e+00
3.545739941609442614e+00,1.461736752212772661e+00,1.145854732789509889e+00
-3.503149432094393667e+00,1.898128345190313704e+00,-1.923134739548410799e-01
1.291734104645928527e+00,2.517889635109714863e+00,-2.775309499059636753e+00
-2.261056376591696004e+00,-3.034538525609079773e+00,1.334211076764841186e+00
-1.621277011036949656e+00,3.672737037313670960e+00,3.353896477392838693e-01
-3.481860309191992631e+00,8.587721247257373847e-01,1.693546808017555749e+00
-1.718703705967266293e+00,-3.313260094613784013e+00,-1.342504403188814255e+00
-2.557805546926713358e+00,1.720947029090372116e+00,2.480459353882781937e+00
-1.565355525196674424e+00,2.119599336254635702e+00,-2.973427168819842592e+00
5.334556592697069499e-01,-2.191216308019320103e+00,3.185177449666535043e+00
9.330779630434213878e-01,3.223535225245160785e+00,-2.102666020713823247e+00
3.826478526975883643e+00,1.102160367262565582e-01,-1.036356082629835473e+00
3.750262528650516458e+00,1.222438080944963756e+00,-2.118399058974540783e-01
-1.193088588986430443e+00,-2.705629390952143165e+00,2.640316018940593867e+00
-2.617292353721901943e+00,2.792133023900620792e+00,-9.111552461155900673e-01
-5.056227426096704392e-01,-2.953732725792134417e+00,2.645180403687064530e+00
-1.433578336039411205e+00,-4.519011128032658919e-01,3.627901299779445754e+00
7.274918304584291340e-01,-3.060418539212634848e+00,2.446556927924159908e+00
1.799102481257477626e+00,-9.672966939239947826e-03,-3.526381144891457264e+00
-3.488410279456689356e+00,4.661978586028885374e-01,1.890710546023637084e+00
3.862128529461133386e+00,-9.689944490357912388e-01,-7.305848066252355055e-01
5.951883205887172901e-01,-3.666606999348588136e+00,1.195360526396358258e+00
-3.562290646477754286e-01,-3.211742749232365579e+00,2.301113331932743922e+00
-6.231305874307502268e-01,-3.784156936702137930e+00,-8.490912772376255635e-01
-3.202531521367714351e+00,1.647515759007759151e+00,-1.762416156602562678e+00
-1.686630883716019325e+00,2.077280080714135835e+00,-2.931056050967355109e+00
9.555361076222936845e-01,3.500816971985778014e+00,1.693196942124584048e+00
1.308909219362213161e-01,3.857425277465155844e+00,-1.018781906281479133e+00
3.315296162617240583e-01,3.634664398446850964e+00,-1.436017109988693585e+00
1.660789529726717895e+00,1.231941766951298423e+00,-3.406075030807908188e+00
-3.788925833755205197e+00,-7.934795476827406491e-01,9.023368181629651819e-01
3.834732955879886607e+00,-5.637027765133141299e-01,-8.576375450679520895e-01
-8.408217472226541256e-01,-3.764849257919824055e+00,7.161795296622378570e-01
2.066378164973738496e+00,-2.694895037029516605e+00,2.169607931684931046e+00
3.925258282875779159e+00,-6.424799691899154563e-01,5.068371392552886157e-01
-3.401892231963338786e-01,4.607116838156385952e-01,-3.932680382385499662e+00
7.628895182052384261e-01,-6.369988877344722189e-01,-3.810059550361171166e+00
6.732642751079974675e-01,-3.745262709411727453e+00,-1.214332272700610282e+00
1.225446972816247371e+00,4.609532762046426868e-02,-3.812363298336616246e+00
-2.041222249135095090e-01,-8.287782403131151998e-01,3.905191654635732146e+00
-3.525237328658198166e+00,1.884777732100072489e+00,2.515200715638134521e-01
-4.940784377467207777e-01,3.157755641544337522e+00,2.283904817998296366e+00
-2.029162767317964189e+00,2.532898269883558928e-01,-3.341195644541740783e+00
1.881420835952094306e+00,3.093469865385452433e+00,-1.545849120731389581e+00
-1.116449570541500291e+00,-2.620280902194181971e-01,3.894726511089569687e+00
-4.010484298944654302e-01,3.620146762335405555e+00,-1.543398602717065193e+00
-3.060404052808907149e+00,-2.044634349303553478e+00,1.420717659767316787e+00
-4.544355713908230232e-01,1.194577015054485297e-01,3.963197403923531148e+00
-2.666075417885956700e+00,-2.467535690448024344e+00,-1.540938089701211711e+00
3.203359104310401495e+00,-2.191595508299340800e+00,6.865731478633791962e-01
-2.321931654887279262e+00,1.134570187718659362e+00,-3.089887144327332358e+00
-3.421938135943447978e+00,-5.444969300867597006e-01,1.908850745769661517e+00
3.527038404876479127e+00,-1.703844270621401646e+00,-7.680904680749844893e-01
3.673274013555694495e+00,-1.074500740846989100e+00,-1.113599147218627516e+00
-2.163084404033804642e+00,2.274766052210048795e+00,-2.438766567493518611e+00
1.848351712737687169e+00,-4.496860417727024384e-01,-3.518588802623165090e+00
-8.859243045616288503e-01,-3.853890733684293135e+00,-3.958183930502989778e-01
-3.393253861719115250e+00,-1.753036416040920420e+00,1.360932142296770397e+00
-1.189633352363712371e+00,3.005459220492467942e+00,-2.388631383628514460e+00
3.758143911261251802e+00,9.886112542606521059e-01,-4.523503549073406016e-01
-2.370613713752761420e+00,2.348812215588479635e+00,-1.930050634744117088e+00
-7.134037130333283905e-01,-1.880183667453038554e+00,3.434114542383518653e+00
7.188216176789850032e-01,-3.781668080658207032e+00,8.934617345872654104e-01
-2.545482195248233825e+00,-2.466522078122730832e+00,-1.600414041654090402e+00
1.810508946720391865e+00,1.366678438613673219e+00,-3.208211110800302190e+00
-1.059376691155754502e+00,-2.816826727586501100e-01,-3.781200660839787009e+00
-3.767122021258851206e+00,1.019224947258615011e+00,6.592276692393963522e-01
-1.105329248617415772e+00,2.367772517554108447e+00,-2.951534959736030306e+00
-1.934612501876839419e+00,2.271339158043748974e+00,-2.528542404167424262e+00
3.014117210394597457e+00,4.794654811553519802e-01,-2.499108344664858095e+00
-1.852868574256353318e+00,-7.392511695414732964e-01,3.459511862957768802e+00
1.616093099693200585e+00,-1.059798653537304292e+00,-3.464580255832812927e+00
-8.936178541220288762e-01,1.562514437097705100e+00,-3.594753813954086663e+00
2.316433943392071648e-01,-4.015250396401274458e+00,-2.452330157846881464e-01
2.426010503791767636e+00,2.780855140317599172e+00,1.388193884775450915e+00
-1.755905174600514151e-01,3.987737902563071923e+00,8.667171893679662120e-02
-2.392762987254144047e+00,1.696903968589917877e+00,-2.644096826045770676e+00
-1.574693351313094514e+00,3.467270570179248335e+00,-9.014733240411759718e-01
-2.225303005772000908e+00,2.136163690466867493e+00,-2.536720937645719154e+00
2.932469197251444726e+00,2.716286753223898121e+00,-2.305324181921445947e-01
3.269247721458794498e+00,-2.220953751876975080e+00,5.452845287167898958e-01
-2.819322747519619643e+00,1.445564291700697224e+00,-2.302199520665842769e+00
-1.402291771907311801e+00,2.411509035355094532e+00,-2.884531890668335929e+00
-7.291539869752358127e-01,2.933046823514679158e+00,-2.537820862644940334e+00
-3.710491473086062753e-01,-3.176812449954066864e+00,2.249068312042294959e+00
-2.658663511215610953e+00,2.941425912476266280e+00,-4.699619684298268485e-01
-3.685665008895673722e+00,-1.299136305447146977e+00,-6.860808114399027380e-01
2.463503804152966659e+00,1.770143555394640078e+00,-2.581616776705547345e+00
1.000620905139308237e+00,-1.941394142380977073e+00,3.293154194179985339e+00
3.659713266504352358e+00,-8.012659769469603344e-01,1.105541176897629763e+00
3.345228962509633197e-01,-1.358630366134025325e+00,-3.696459534195485119e+00
-9.647094108025375814e-01,3.894794779350140956e+00,6.184676564664675080e-01
-3.143665751476967696e+00,-1.689261090088989725e+00,-1.684693108934230965e+00
-9.682952258875124896e-01,1.719674346838893975e+00,-3.363242720597897417e+00
7.415568113887418544e-01,1.750881075306648826e+00,-3.443955486449445935e+00
-2.612215560691612204e+00,-1.197054886362328846e-01,2.910054346948266257e+00
-1.008735366161671726e-01,2.587744706071834155e+00,3.019489706956683062e+00
2.463137684144273809e+00,-6.326760778281852460e-01,2.975564841728143506e+00
-2.540476603502108688e+00,-9.939825224719330832e-01,2.890709175065623970e+00
2.229978578675050116e+00,3.193290385399353948e+00,-7.005866959772573122e-01
-3.032239803504358733e+00,2.340625311579532131e+00,8.324126734437549135e-01
-2.968397782174201804e+00,2.117612042599273270e+00,1.640714707542427764e+00
1.430453681988908432e+00,3.349275134540548926e+00,-1.637681148082610783e+00
-2.184881485126307865e+00,-2.738119489402158102e+00,1.834937268892843587e+00
2.668756787457406521e+00,1.407558072545093797e+00,2.543681605791245026e+00
2.142238156691289030e-01,-3.164990657929529494e-01,-3.953121329754952118e+00
2.317637835276982639e+00,-3.014375588159373898e+00,-1.174242206947891498e+00
-1.262160455942710868e+00,-2.983306621941085979e+00,-2.315886332973823514e+00
-3.696908581503434821e+00,-1.078014459953495763e+00,1.228633853750622063e+00
1.015887312320772340e+00,2.235277505318137570e-01,-3.852830283684760992e+00
2.439887865926002597e+00,-8.177170676212622835e-01,-3.094650528115453714e+00
2.372296522615647607e+00,-2.152284703901142127e+00,2.412655874103692089e+00
-3.228527538434661448e+00,-1.874618645561578090e+00,1.211117876594206555e+00
1.042646197202875324e+00,3.322518709822892991e+00,1.897080973006369797e+00
-1.032889546165059791e+00,5.598946017397211650e-01,3.768747730481321945e+00
-1.195682517565742398e+00,-2.007644437148534688e+00,3.224808346226436306e+00
-3.799969966747599237e+00,-7.876106971491150244e-01,-7.843654527657402120e-01
-2.031159516080196792e-01,3.807626508994232495e+00,8.806057686363515380e-01
-2.715475111471867820e-01,9.745765370329448896e-01,-3.897317777714442322e+00
-3.590871165093794115e-01,3.585626970163648952e+00,1.783289471620847610e+00
2.883060590994110495e+00,2.548121578732656545e+00,-7.899786547880750520e-01
-2.177819398124716255e+00,1.519582268052098284e+00,-3.003482864893278315e+00
-3.853229459276486413e+00,-4.472772844126448599e-01,8.742126785669229738e-01
9.193371127515369556e-01,-3.445574607655905286e+00,1.693357457536741606e+00
-1.858713783425400612e+00,2.448487004013207624e+00,2.565787559281093699e+00
-1.321655769233305744e+00,2.377594444662416873e+00,-2.918289980205552858e+00
2.197578351532373020e+00,-3.050100392270420624e+00,1.371317194882058832e+00
3.157685102758191142e+00,1.674056195245930301e+00,1.737100536257555339e+00
-3.361269150291270158e+00,1.880689784265635378e+00,-1.113876449682782432e+00
2.981490271400996317e+00,1.502928643348099058e+00,2.171579236271879321e+00
9.683914831078451746e-01,-3.623038648071601919e+00,1.235130929461227156e+00
-1.266203248978746032e+00,-5.121940863566474267e-01,3.713647966645603926e+00
-2.503062451840855740e+00,-2.382600506675692564e+00,-2.065762879753743064e+00
-2.065265857382154735e+00,1.352546572415598836e-01,-3.437844060688390435e+00
2.472236083541134999e+00,2.677256355290648759e+00,1.672657308723833447e+00
2.806602139789193817e+00,-1.273963087755226598e+00,-2.565322853116853263e+00
2.591335014956130056e+00,2.330845659047653395e+00,1.952673104182630182e+00
-1.339005796466588460e+00,-1.259834390868751264e+00,-3.498524062870863371e+00
-6.647793360180171973e-01,1.938997671668338807e+00,-3.397801209729733429e+00
2.025008685386810114e+00,3.336512428683739095e+00,5.087528467691644352e-01
-1.942965781179011309e+00,-3.283043114315380429e+00,-1.373621835304841721e+00
-3.442652431027528159e+00,8.277373306953088594e-01,1.738094709200363130e+00
-4.225277156667299749e-01,-2.674010256892912496e-01,4.013171353239193273e+00
1.380632501975195270e-01,6.432829144940690469e-01,-3.856791580514193907e+00
-2.708503140490098993e+00,1.795561085148100311e+00,-2.363215420076942852e+00
3.902089960904462806e+00,-3.539309231256417831e-01,7.089005115973555649e-01
2.723142450637995093e+00,2.816550495330643500e+00,1.020461025882255096e-01
-2.869560662218349378e+00,2.099705421686904216e+00,-1.814097117620438793e+00
2.138298426425880194e+00,-1.901668999377968960e+00,-2.840061652912373891e+00
-1.790230561619969407e+00,-1.859610549923161660e+00,3.032075495805800269e+00
5.175246020832144911e-01,-2.922474959623036828e+00,2.683194334986104046e+00
2.173372219209197986e+00,-3.210701446456183827e+00,-9.965807251496876518e-01
3.898710796565985959e+00,-3.531478714885700199e-01,-2.909625596758496080e-01
2.922953801932998363e+00,-1.708555898438124165e+00,-1.986268426088021455e+00
-3.811766112936134210e+00,6.251175405734325785e-02,-9.064989513693975098e-01
3.758384619708280638e+00,1.990139841904324802e-01,1.137133981596519794e+00
2.785827129390663792e+00,1.850347085320130480e+00,2.102340874362490730e+00
-1.521258527470355393e+00,-3.726744628739876664e+00,4.325459882539581247e-01
-5.167200516935214205e-01,2.688125262564997175e+00,2.851242127051432096e+00
-2.531490370687415226e+00,-1.324678154595317681e+00,2.832469906121859005e+00
-2.986362014475802962e+00,-2.614224610653491432e+00,2.664978028161255150e-03
-2.618307785976294322e-01,3.870108326327593939e+00,9.473307261462156070e-01
3.022846951303881369e+00,-2.444527927368008946e+00,-7.811213723321427382e-01
6.498705189591017506e-01,2.061099434212009918e+00,3.369820285129462967e+00
-1.063654935106651545e+00,3.575273558412662478e+00,1.287031544437419184e+00
2.333175167905905401e+00,-2.933156844733336488e+00,1.276781900890192389e+00
3.238354512493683224e+00,1.716374497996975973e-02,-2.366026809941147224e+00
-2.530028587040776600e+00,-1.785012228020522507e+00,2.360764437634791157e+00
1.779656805243458040e+00,2.092164258104633134e+00,-2.882572038784041446e+00
2.661709855749364584e-01,-3.761316418485685986e+00,1.469246252232908612e+00
9.177083240940374642e-01,3.552221060910133232e+00,-1.691238134604954757e+00
-2.911922766816395836e+00,-1.586862819433560112e+00,2.209090643032620260e+00
3.372037829635309070e+00,4.309249903431041639e-01,2.039296336057910164e+00
-1.767026557340332760e+00,2.226281865246416913e+00,-2.787330619556482425e+00
-1.599903639672083822e+00,-3.054851878262800913e+00,1.883666364334886545e+00
1.194974400426964678e+00,-3.286789313001382773e+00,-1.936024616870277049e+00
-3.837352163639074831e+00,5.767778800806552253e-01,-6.990328441351351119e-01
8.642477487300364025e-01,2.325332740003050791e+00,-3.013339660675240950e+00
2.383469409910090597e+00,-2.894907863348909149e+00,-1.202031666166682111e+00
3.897816323783654724e+00,5.352910575589631126e-01,8.013434931172617182e-01
-8.798737400618197313e-01,2.572200081993264664e+00,-2.995095502356358796e+00
1.031172731616148308e+00,-3.802876737475782143e+00,6.642882395251467065e-01
3.166238641257117070e+00,-2.025477151016552124e+00,-1.080864535579573849e+00
-7.497734995134930358e-01,3.743480965803912319e+00,-1.046014650002242696e+00
-2.835414561077479689e+00,2.066520975909496904e+00,-1.911847705970065814e+00
-2.884728953387998729e+00,1.964991203977010326e+00,1.930722140538397635e+00
3.471192570583826686e+00,1.582740767832341300e+00,-1.340188981626976528e+00
-3.933961874613817855e+00,6.200812365988962460e-01,7.401854780587077132e-01
-2.067855005561707385e-02,-6.078293681026342155e-01,-3.882102393235791205e+00
7.066729257547603726e-01,3.849223349375805903e+00,1.829989934137045415e-01
2.175365021076073546e+00,-2.554939310959118526e+00,2.140470360265414485e+00
2.728576333256118591e+00,-2.119552256478604568e-01,2.901548047339088665e+00
-2.030514916553519900e+00,1.894317955327107894e+00,2.779414817080207989e+00
-1.347231938563242082e+00,-3.427390011757676103e+00,1.424942920464775442e+00
-3.558741829972171256e-01,2.773665428807184252e+00,-3.032665219045366900e+00
-2.151770087431069456e+00,-3.101607637071992940e+00,1.311976227225233993e+00
1.151629446987109118e+00,3.297029152218440284e+00,-1.907075063679958049e+00
-1.380389532594829272e-01,-3.969586561226400523e+00,1.814857186711945625e-01
-3.975294872336456287e+00,1.057301898063686407e-01,4.236680138098706805e-01
-2.917923353145766008e+00,4.526210899153798040e-01,2.722370504615928333e+00
3.821573553367942466e+00,-5.730277100715905902e-01,-8.850661182651053949e-01
-7.891456508627031630e-01,3.741656620727235705e+00,1.053811396461219241e+00
-6.989609108772562029e-01,1.561275828559633094e+00,3.551327384152328293e+00
-2.636863210815893588e+00,-2.854919515769044125e+00,3.837376754245732657e-01
-2.234391387550872743e+00,-1.571224065892925958e+00,-2.810378521392592255e+00
2.055728930750068351e+00,7.857539325791351725e-01,3.311455513405888063e+00
-1.481487852865660981e+00,-3.550148492862973626e+00,9.465200702393191667e-01
-1.929463061378043021e+00,-3.440814477719319253e+00,7.284876416318570858e-01
-2.006796829217912137e+00,-1.445010902928072882e+00,3.080523819596532764e+00
6.832439646264146793e-01,1.108067958338306624e+00,-3.796732724867332820e+00
1.552381849062481445e+00,-1.288166315622969460e+00,3.412927927497501734e+00
-3.579703782906235698e+00,1.542451177548535002e+00,9.388832311294944555e-01
-3.599014118362541481e+00,-1.310108033416640172e+00,9.983753107617390210e-01
1.868705730450540781e+00,-9.388386257798753132e-01,-3.391029936263379341e+00
-2.152749062006193148e-01,-2.362463850504664897e+00,3.338870979946040318e+00
6.214155505028813309e-01,3.563056810506179506e+00,1.731538342632616079e+00
2.805898819026819258e+00,-2.458524656412874598e-01,-2.854790196773387301e+00
2.306965280483652236e+00,2.100096191684985403e+00,-2.491749373980616689e+00
-3.797925056434550695e-01,3.984758027907520095e+00,3.314189163953746853e-01
-3.490769133021556225e+00,2.063894513791340313e-01,-1.898970259416751238e+00
-2.731860646621048883e+00,-1.438746829936269789e+00,2.539669468604868197e+00
6.246958972005446364e-01,2.139906184708773917e+00,3.348041090227608318e+00
-2.038268633661432627e+00,-3.308212054072311226e+00,-1.005311677445816843e+00
6.692227866048507945e-01,3.918582040024347179e+00,-1.462347952766585857e-01
7.725482367663869532e-01,3.320403564801563512e+00,-2.124239038823215964e+00
-3.558360911315049807e-02,-2.049748611478616755e-01,-3.956648582575351014e+00
9.683559654466422639e-01,3.808502233585022712e+00,-5.969724804880763847e-01
-9.880332204068367208e-01,-3.284929190452986258e+00,-1.965095094595934677e+00
-2.515077752793652532e+00,6.102301911559940839e-01,3.006558335429225792e+00
-1.841477593593685791e+00,2.479855683736267746e+00,2.429529358855428978e+00
-7.690174934625017000e-01,2.441366422055046392e+00,-3.020405392243672438e+00
-3.972138308565816844e-01,2.679739622759727435e+00,2.940457622705198837e+00
8.101545102336422943e-02,3.306412021163453563e+00,-2.149343856625759663e+00
-1.036145386957130432e+00,3.355537049538987127e+00,1.918647862886187383e+00
1.654873509082134042e+00,-2.546107678132871310e+00,-2.549324873039620520e+00
1.896557533407136287e+00,3.399988404037366685e+00,-8.825132176559973285e-01
-3.388275527449039259e+00,1.982286466472622299e+00,-7.614528766670932702e-01
-2.548825885554276027e+00,-2.204606903856016320e+00,2.016389540092698773e+00
-3.465508509043801144e+00,1.508104448010757492e+00,-1.013102956728593407e+00
2.415944503746247474e+00,-1.997802986322015029e+00,2.475492216724312744e+00
1.447066808282542472e-01,3.127830460382737821e-01,3.960351907619981571e+00
2.880120157618470067e+00,-2.660389983744758435e+00,-9.007363444511761186e-01
2.126029166849271679e+00,2.794316500679947080e+00,1.752127572225610219e+00
3.988492307542295112e+00,4.983248141926376745e-02,3.518564675879207737e-01
-3.111265007640712454e+00,-2.926960527986276900e-02,-2.481664493040942610e+00
-3.304751482914324079e+00,-1.404140114645121784e+00,1.636743012706473710e+00
2.594901119281813440e+00,2.441143804265770711e+00,-1.772327517792699592e+00
-2.115585908588158759e+00,-2.789698518271089611e+00,-1.823904522579541831e+00
2.980551093712565880e+00,-9.720705559947386831e-01,2.427985605121147916e+00
-7.074509327125158009e-01,-3.936724838318729880e+00,-1.479473807458300816e-01
-2.341381553129432191e+00,-3.135776058729262239e+00,7.530416747928658783e-01
1.426659580631093549e+00,3.729687758509346196e+00,5.074079603611604261e-01
-2.641722902899437120e+00,2.694089157731122786e+00,-1.234399369789411338e+00
-3.292911159222831952e+00,-7.051054739326257925e-01,-2.056859398549284457e+00
-7.670833863486188342e-01,-2.145480616800679474e+00,3.189702511111720540e+00
-3.473390136027188824e+00,-9.251434072469749692e-01,-1.623027336199019510e+00
3.380858896243842171e+00,-1.765457443298114715e+00,-1.205948184971835646e+00
-1.049383999660238986e+00,3.570097112586557153e-01,-3.744462363011238804e+00
-7.611955766432990655e-01,1.956649704839815707e+00,3.341159695708110444e+00
-2.796899386157087886e+00,2.679818546920259781e+00,8.254426978118728497e-01
3.505106698578891677e+00,-1.816767858981011563e-01,-1.827537872308459876e+00
1.804374016982490225e+00,3.324070160744146296e+00,-1.041643587206958266e+00
3.995287381655589165e+00,-1.365247717332279398e-01,2.536646347393052281e-01
-1.933542725043760235e+00,4.676904817616205079e-02,3.370921081072371095e+00
5.982879227439686920e-01,1.714125696846063196e+00,3.472978907987487318e+00
3.602056001623090697e+00,-1.685313060292826126e+00,-2.672995682989418587e-01
-2.230811809733357354e+00,-3.116200333850532633e+00,9.651216025730288139e-01
-2.803278884964969464e+00,2.738745584858357951e+00,-2.957470357827920449e-01
2.097308669818682691e+00,-3.386770356345396582e+00,4.853898568909215117e-02
-2.275643701200842806e+00,-2.142217575849810096e+00,2.459500439939633853e+00
-7.488475137557992767e-02,3.478246072293778468e+00,-2.068710885890889362e+00
-3.547035527034340330e+00,-1.670901427131080474e+00,-2.929353407258900588e-01
2.984790350477208865e+00,-2.122165878195013899e+00,1.566506230797753307e+00
-3.932456763144213330e+00,2.875503963262969753e-01,6.736983482253274813e-01
-9.424876452901636004e-01,-7.438409900365211547e-02,-3.808782215759245027e+00
2.574217713745674541e+00,2.580388628500980275e+00,1.468068968109931260e+00
-1.474757477243664017e+00,-6.550469796456633853e-01,3.593935575665216042e+00
-3.401387490926315316e+00,1.906626281123984246e+00,5.221221566624927313e-01
2.019479051827762994e+00,3.336888112537978124e+00,-6.694052898659647033e-01
2.924778789797526368e+00,2.374624517662374590e+00,1.065480016009323405e+00
1.024424722745463257e+00,-3.174765402909256906e+00,-2.202869189951117246e+00
2.897639301478537877e-01,-3.963769874249596814e+00,5.992471535693868340e-02
-2.914134992344898478e+00,2.492478028687309610e+00,-9.369609007656338751e-01
-1.476004624220401018e+00,-3.398598178339767628e+00,1.412672568352588254e+00
-2.339356998458968384e+00,9.692622317579770996e-01,2.990311856185280615e+00
1.671002809392185151e+00,-2.538828540951514334e+00,2.500833003337244342e+00
2.074803717032168926e+00,6.171492511020975069e-01,3.378575097808295791e+00
-2.595329320206981816e+00,3.410478412823552130e-01,-3.054173244345736116e+00
-1.729224397175308514e+00,-1.401462586494154117e+00,-3.219277567259300810e+00
3.668786360680195008e-02,-3.819532591279923839e+00,-1.016847088157964096e+00
-3.402596356242685971e+00,1.854947637403895566e+00,-6.486267314803344508e-01
-4.445654491795341112e-01,2.969909441227482461e+00,-2.583164412718063740e+00
-3.407726968953100677e+00,1.844794135802877655e+00,-8.328261555315024101e-01
-1.610409135379333723e+00,-2.377533152607754996e+00,-2.776599678135692084e+00
-7.307524933712284954e-01,-3.775374563908244330e+00,9.909065131697843976e-01
1.447242891844004577e-04,-3.802128743639829445e+00,-9.788207208071332266e-01
5.333085482279056322e-01,3.752440704906051305e+00,1.169350934581621093e+00
2.817347229635346562e+00,-9.724957515106813499e-01,2.582290504715608837e+00
2.779076816836161257e+00,-2.652611264331331764e+00,7.616990911801581055e-01
2.024055105834105639e+00,-2.760959675000057345e+00,-2.044390215409776612e+00
-1.141786281328237562e+00,-1.750534043644623505e+00,-3.400625799254102244e+00
1.145774562908266292e+00,-1.558245245185900352e+00,3.497338288757604108e+00
9.164176107707225905e-01,3.773012260708079602e+00,-7.909220676217483259e-01
3.750660818251873696e+00,2.794660015008885168e-01,1.286671504448782200e+00
3.139621533075735549e+00,-1.754256863317096293e+00,-1.719691653160990041e+00
-3.579253789707965261e+00,-1.412504273068169613e+00,-9.555781625065630225e-01
2.009957326425581670e+00,-3.115198852192554213e+00,-1.459417375863051758e+00
-3.898976949213864618e+00,-1.802478208936254545e-01,7.449233974479327891e-01
-1.540284146224121686e+00,1.479973522110466622e+00,-3.389426299478247362e+00
-2.463169646074083730e+00,-3.098371189082923305e+00,2.310403342347653044e-01
-1.545047782935355496e+00,3.127879014754187281e+00,1.918921341951040027e+00
3.826598002005934696e+00,1.177622336358446903e-01,-1.065050326574055850e+00
3.074680346181045909e+00,-2.516048181866587630e+00,1.025641611073854417e-02
1.565814572967143992e+00,2.463656118280762364e+00,2.573747376194531533e+00
2.464591225974299249e+00,1.111347804003550932e+00,-2.967346901960579597e+00
3.762452698378524030e+00,-5.676211839998570596e-01,-1.318790517448777067e+00
3.874316364832028015e+00,4.560136456931359050e-01,8.487790204015556172e-01
2.890786032931575988e+00,2.640862468630799764e+00,1.281154468632146048e-01
-3.904388377481861738e+00,3.665213532670374974e-01,-7.974853518296696198e-01
-4.832973241818701582e-01,-3.556436134038940988e+00,-1.726586503772418624e+00
-1.378375887614303297e+00,-1.733890442240311858e+00,3.341149071615817423e+00
1.854558355989522012e+00,-8.224964931383836886e-01,3.363184737046735595e+00
2.053126610203420022e+00,-3.083982541105005915e+00,1.297204400326778861e+00
9.562361123087487202e-01,-1.949050388116172261e+00,3.301458658593430684e+00
3.695407777942849137e+00,-7.188463597975287556e-01,-9.904634476180395053e-01
-7.215932495253035706e-01,-3.182763585480270052e+00,2.254371954395796518e+00
1.290828844947160770e+00,3.663547704140396988e+00,6.362255654481471234e-01
-2.681230256745141816e+00,2.385402855509048958e+00,1.720007827476456086e+00
-1.975586661416815160e+00,1.891052502760111720e+00,2.882597746417891571e+00
-8.159973667557013366e-01,3.811866938432814766e+00,8.642967981296600932e-01
-1.687304970399331250e+00,-3.436752896718458850e+00,1.063757119616590474e+00
-1.163404647686930860e+00,2.957529301473483141e+00,-2.331123959136170321e+00
-2.358952332855105638e+00,3.325018819320717522e-01,-3.113468609886520966e+00
-2.711406166130545525e+00,-1.190122138448962419e+00,2.674383354624921161e+00
1.548518123527132806e+00,-2.496811147394540686e+00,2.592827384576973593e+00
1.010518974368544765e+00,-3.645282891995391683e+00,-1.369316249575566413e+00
-8.753240917888990835e-02,-3.907670128257979325e+00,6.552596930734188030e-01
2.610556452302664976e+00,-2.173553499440313619e+00,2.073959428062718491e+00
-1.250429137831518211e+00,3.705814540145891733e+00,-3.660711032993537173e-01
-3.828288471780686208e+00,1.007667786547686406e+00,2.843848677735116293e-01
-1.082330203782235323e+00,1.066728004253173268e+00,-3.659723075173548335e+00
-2.805748881582904586e-01,1.857523702838397961e+00,-3.539324007792191029e+00
-1.875240517849642519e+00,3.456590957661098695e+00,-1.502079397906034008e-01
2.969877513226954480e-01,-3.124219644936717888e+00,2.406107598537814862e+00
-2.389990939609372589e+00,2.076915789725355399e+00,-2.218833208463197870e+00
-1.869883689257605841e+00,3.460216956976724489e+00,8.243557698224605046e-01
-3.722947443396785960e+00,1.273111913322838795e+00,2.912490291195857228e-01
9.679575540567016967e-01,3.632269956400344224e+00,-1.331159337073099636e+00
-3.742017408009514323e+00,9.899968192199237738e-01,-7.088613204248119803e-01
1.991764035267318045e+00,3.382402551696188198e+00,8.031371126534908589e-01
2.360035358320735632e+00,-2.664479783991388295e+00,-1.766142317988440791e+00
2.115047224605918430e+00,-2.654074515930266998e-01,3.367568612901976177e+00
-2.144053211172185947e+00,2.515886254035754277e+00,2.163258283637889967e+00
8.568824680792230808e-01,-2.056805119005469695e+00,-3.260385701578892625e+00
-2.303461402019634452e+00,-2.375989060639613459e+00,2.206716584497031786e+00
8.883901451888265299e-01,7.003090732524355211e-01,3.768629083166433968e+00
-2.645305438851592417e+00,2.759582982358288028e+00,-1.004964891397279292e+00
1.118592811881562038e-01,3.955642921123721401e+00,-8.381839657318864711e-01
2.394879153241650904e+00,1.516196249121837925e+00,-2.703842444501994624e+00
-1.446508582442326496e+00,2.767881754458546784e+00,2.352768311759167563e+00
2.373002008184157408e+00,1.990936238261674207e+00,2.507114436151695713e+00
-3.708286762115312385e+00,-4.128035057033246358e-01,-1.245068769156863375e+00
1.579801250961668235e-01,-3.084119435426453837e+00,-2.579150843673909677e+00
-3.389621065727113081e+00,-1.690542930074535877e-01,2.019920485226400775e+00
7.538392399178044379e-01,2.209699510997657601e+00,3.211485094022330511e+00
3.706606087114000747e+00,-1.954258928138951912e-01,1.499294357526808508e+00
1.542913313683464294e+00,2.669100188155206776e+00,2.525755570621039947e+00
-8.948204664558838672e-01,-3.672199152705555303e+00,-1.294479219048260799e+00
-1.930083771578550156e-01,3.590842202357898749e+00,-1.695961693720319463e+00
5.748164110794296011e-01,-1.396148554621760907e+00,3.665027974024260171e+00
3.860778070236906334e+00,-4.185603355065877218e-01,1.016276274219302334e+00
3.947013304281185686e+00,4.011922763801493153e-01,3.821876915696560961e-01
3.086558466948750024e+00,2.527088969339542857e+00,4.217919561801333206e-01
-1.715536090095525656e+00,-3.355432538255389119e+00,1.188600966531874858e+00
6.957310774545002463e-01,2.563990697591876256e+00,-2.983536933834014082e+00
-3.273950446912116785e+00,-8.746552656224451106e-01,-1.977382257126923060e+00
2.170036621140061239e+00,3.185738824846732875e+00,-1.088725677462438979e+00
-3.609083035254047722e+00,1.475182217291283182e+00,9.634129803846052109e-01
1.914772508116405536e+00,1.440962240287847473e+00,3.146332718093145520e+00
3.000758033965566174e+00,-2.665444700858638605e+00,9.734078166598073012e-02
2.192638655220791044e+00,1.589055445473791961e+00,2.999769019616170151e+00
-3.752414328010638567e+00,-1.223018434709907565e+00,-3.045254620174153715e-01
1.052136122227223414e+00,1.344504404437953493e+00,3.507603559984557418e+00
-2.618122343568863197e+00,2.512572864042596166e+00,-1.649172946495890635e+00
1.845350430920926543e+00,-3.430626793061831048e+00,-1.087363115959934401e+00
-1.920690823390662327e+00,-3.406582596322507595e+00,4.148330471328415259e-01
1.774371126309944646e+00,-2.600434647508963248e+00,-2.450305857864635950e+00
1.496096501739738294e+00,2.435139163469110635e+00,2.762850916493077680e+00
-3.127279158127246550e+00,2.489123270658137876e+00,1.005442253424407018e-01
-1.209571308449247873e+00,1.134530875554776941e+00,-3.588916048934250203e+00
-2.039917609361678874e+00,2.383317758474431169e+00,-2.526321245503920565e+00
-2.889414570136758620e+00,-2.654976220603967541e+00,5.222075001928487836e-01
2.615156356197974485e+00,1.171970262623635017e+00,2.652006970627837745e+00
1.213376248356786702e+00,3.253469401585121101e+00,1.944437314049200394e+00
-1.932537166700492470e+00,-2.209095168240955420e+00,2.614867011016620779e+00
-3.690023998107348380e+00,9.616254643731740881e-01,9.742951877164630625e-01
2.079441780691043462e+00,-8.369902004694392827e-01,3.342081557079533027e+00
3.022096935353492109e-01,5.514096787062359173e-01,3.906489836878999533e+00
2.936393831521565190e+00,2.472237464346845659e+00,1.103926634589856182e+00
-1.613909712090186632e+00,2.776548432903276797e+00,2.285048374935146231e+00
2.925061048477203829e-01,1.752952587520840044e+00,3.544788091241239947e+00
-1.144261279681445531e+00,1.202855084152877119e+00,-3.569081679597255530e+00
2.296177780576986294e+00,-1.113085520576427567e-01,3.300039063530644690e+00
-3.757580017997226740e+00,6.157671458778011253e-01,1.177323966345423800e+00
6.267976412780337236e-01,2.354154851031093010e+00,3.115327561455742078e+00
-2.498794392585655721e+00,6.596834008298834151e-01,3.026401242869855235e+00
-1.247452762617168975e+00,3.791545394741351771e+00,3.155064330471379908e-01
-2.341686223938560296e+00,-1.344498555811965312e+00,-2.929230539366260988e+00
3.136553205804275990e+00,-6.792695845471334870e-01,-2.338763462814377636e+00
3.049043153113482951e+00,3.994054457434900729e-01,2.524456072504113635e+00
-2.069757052047136170e-01,-3.858180214695571486e+00,6.225798878911221745e-01
2.115589835660469653e+00,1.129888957730643462e+00,-3.224359156005648597e+00
-6.327760914964104533e-01,-3.403765045886924856e+00,2.004318271772935312e+00
-5.301111841852467199e-01,-3.862932952321031177e+00,-5.496565402038192660e-01
-1.539123766367122004e+00,2.751032019109546756e+00,2.397817863133594685e+00
-3.484770009055281892e-01,-3.532027585473133335e+00,-1.766527934058627514e+00
-3.127505044288831026e+00,1.213258013016872416e+00,-2.154800344154492731e+00
1.231022444670128557e+00,3.654793586304441178e+00,-1.094585575679355438e+00
-4.773363903267004993e-01,-1.452194376622609528e+00,-3.718919626263690326e+00
-2.154272926058643289e+00,-1.967389849051943918e+00,2.624931608414382556e+00
-9.824140646733898752e-01,8.802803196705384359e-01,-3.719771783917963592e+00
1.270309926164734815e+00,-2.932827925489027265e+00,-2.337290814495085023e+00
3.064084512143377736e+00,1.912127132086197667e+00,1.600508258345103352e+00
3.402343700572802110e+00,1.675916525186179840e+00,-7.651546154030974822e-01
3.712567636768084434e+00,-9.198879727544502227e-01,9.472400608672099098e-01
-3.124166217836406467e+00,1.967366775209146823e+00,-1.413820683881942042e+00
-2.579156201677479388e-01,1.784003291585419149e+00,-3.554802023624677343e+00
-1.157770591463639809e+00,-2.156986141672457169e+00,-3.066359306976612853e+00
-2.022643578100800976e+00,1.602572770331032626e+00,3.030019955348776328e+00
2.581844921178620744e+00,2.974801566430323341e+00,4.493854441354208085e-01
-2.921736180101494273e+00,-1.544647064126302149e+00,2.259361552400328765e+00
2.860174461612698948e+00,2.573303376344916238e+00,-1.005424038826643107e+00
-7.472075692542359260e-01,8.728358832486968755e-01,3.776703087818988891e+00
1.000667463563350790e+00,1.238423542428999546e+00,-3.641591830682640918e+00
3.684497860539550196e+00,7.145240208071554910e-01,1.278033329466336188e+00
2.422486970370883341e+00,-1.091135792030919038e+00,2.856041364797773596e+00
5.536774880315362690e-01,3.880884254262015887e+00,5.365239469810408890e-01
-2.652228194049152332e+00,2.508528945264167476e+00,1.649164750410492264e+00
-2.102722702995300175e+00,2.946946139384853058e+00,1.494080788932952597e+00
9.751858427484924041e-01,1.708376011545241546e+00,3.394022170882992739e+00
-2.300484073923545036e+00,7.096363935708830395e-01,-3.197473291259606665e+00
5.449588141213915771e-01,1.330039264522899778e+00,3.749594511966289456e+00
-7.583722290856955706e-01,2.125072925176084038e+00,-3.232185592147335029e+00
2.230129347664080885e+00,-2.983425916742451278e+00,-1.576703377702876274e+00
-2.524327805361444188e+00,2.157101236831651558e+00,2.106884676850971694e+00
3.310105887494675603e+00,-1.464039193348947610e+00,1.621340478065433466e+00
-3.757896318538242575e+00,1.356679526843955319e+00,7.292384016427435611e-01
-3.435511465786126095e+00,5.055107811446474253e-01,2.033699293969342570e+00
3.546942391223445679e+00,1.337038078488093529e+00,-1.104477167323308917e+00
1.704208161954337886e+00,3.266845245691547994e+00,1.482783584165393576e+00
-2.182532055533245696e+00,2.680374790920089012e+00,2.015592924986380652e+00
3.338864078276470443e-02,8.262038667061180619e-02,-4.001380868780641364e+00
4.031878226953904479e-03,-1.203683925716507730e+00,3.766202736029783171e+00
-1.790615973427990504e+00,-1.547479426275433001e+00,-3.256822810845636962e+00
3.308668210488113548e+00,-3.485343829093544288e-02,-2.137419151131554784e+00
3.122072033224963850e+00,1.081164754428942887e+00,2.036592226874188949e+00
-3.988752250178002612e-01,-1.595154651461254236e+00,-3.605876086286319726e+00
2.060759972877203861e-01,1.116499928231909911e+00,3.767214785379727093e+00
-1.895237459024402771e+00,3.284597071791249823e-01,-3.543486751958738523e+00
2.151513958240009128e+00,2.575901807514748398e+00,2.093567063371731152e+00
-1.415792344225462740e+00,-2.763831174154815606e+00,-2.488801473102568718e+00
-1.939522894169734668e+00,-1.789105347499299725e+00,-3.013858200846335489e+00
3.690745615252745360e+00,-1.549795105668319906e+00,3.520690786742443623e-01
-1.087686231962753158e+00,-1.759407486878425741e+00,3.409127786769478696e+00
2.957049790709353587e+00,-2.579146975381501949e+00,5.199827947958727270e-01
2.581655046647445495e+00,2.496542009665311923e+00,1.640061638442052550e+00
-2.332321702958318976e+00,3.133654799385756196e+00,-8.236628378108498127e-01
-3.965552118596231690e-01,1.471140369555532512e+00,-3.651051953268320105e+00
-8.122282750677202179e-01,1.635887031823340387e-01,-3.960007702366303839e+00
-3.612252451473454418e+00,-1.545800287200911560e+00,5.202986811349797902e-01
-5.130389519157255718e-01,-3.551741854892459305e+00,-1.669096426598848160e+00
-1.344574342225190566e+00,2.973122386995602273e+00,2.275231242399261777e+00
-3.062014382650045885e+00,2.478652849827013505e+00,-3.246512739068684317e-01
-1.184154304411462189e+00,-3.583452287256921220e+00,1.276199791840092024e+00
-3.456637821926811682e+00,3.420640388190839265e-01,-1.904129386633938825e+00
2.890880546033975929e+00,-2.071171304405000857e+00,-1.742108857559563573e+00
-6.662200378123539490e-01,-2.574322986380833123e-01,3.897042959797833106e+00
3.578008635498969969e+00,1.554808040905201416e+00,-5.943728323288726134e-01
-3.186369963185397558e-01,-1.473791531668697807e-01,-3.922123152865859108e+00
-2.776161325078845721e+00,-2.110640865652923193e+00,1.938320179374538155e+00
2.860039332346635099e+00,-1.742274373918024200e+00,-2.098547490739722132e+00
2.301165643561793317e+00,3.035364606062387782e+00,-9.798176161012360774e-01
1.955659213191707879e+00,3.333648808675634623e+00,-4.688285676407326630e-01
2.391570806456643883e+00,2.836124006286422805e+00,-1.435547273283076963e+00
6.125407209740817427e-01,-3.530319559553067421e+00,1.666472258768157966e+00
