3.333113278838873761e+00,-7.423416079948851054e-02,-8.605271062532089843e+00
9.809005576383332814e-01,8.286652697225683539e+00,-4.411001916745904694e+00
4.124410819371746584e+00,4.315178771981981853e+00,7.012548870030220982e+00
-5.892434192925844805e+00,1.478283980827047372e+00,-6.778375572693322582e+00
-6.631768999742022608e+00,3.893789832524613637e+00,5.443781104087673128e+00
5.743166457163274785e+00,-7.412859654598133119e+00,-1.359404107644764936e-01
-8.942744804837163386e+00,2.261711024709795126e+00,-1.820718521908666787e+00
7.760393704619538369e+00,7.750404764934964996e-01,-5.115373082416737383e+00
2.342369336462045037e+00,8.875194108711228935e+00,1.644561484908070526e+00
-5.440329608379643744e+00,-1.787723344890327359e-01,-7.597509968799228908e+00
-8.529523629170546073e+00,-3.062764436041487404e+00,-2.319836829837206515e+00
5.445131354737778651e+00,-3.631523919515489141e+00,-6.730335831222197918e+00
1.825053396122684912e+00,2.863345183416094564e+00,-8.708083047728164772e+00
7.978356997922440463e+00,-4.588369251955787043e+00,-1.632034593696096048e+00
-3.449952172676716278e-01,3.184684487558739452e+00,-8.646032622498813325e+00
6.382553921520659479e+00,6.214802603849466145e+00,3.020733836865054922e+00
5.701485579555771732e-01,8.188630921631018467e+00,-4.202540995091413656e+00
-2.039051732329320910e+00,-2.654672630153932733e+00,8.641702487146879719e+00
8.004465695912138301e+00,4.788423156095781508e+00,-4.466467333121501571e-01
-9.485303196307144802e+00,8.839953375489886245e-01,1.075747116580191509e+00
3.535223532732475249e+00,2.880197638834066431e+00,7.928953281445175527e+00
-6.134380759931120863e+00,5.133005419055869378e-01,-7.089987820899877669e+00
-3.885342611139177116e+00,2.644001098255223337e+00,7.986032434785478529e+00
-1.267992685244236029e+00,-3.193802300387831306e+00,8.633449589879429453e+00
-6.304483733220778596e+00,6.427289913309188307e+00,-2.081450513538096736e+00
1.295135591726529034e+00,7.797966891636920472e+00,-4.756203028406477351e+00
7.945977597473671494e+00,-1.685470863874986902e+00,-4.245655478176077580e+00
6.846607900886520603e+00,-4.288542977332791217e+00,4.576635117344024728e+00
7.055610023459822244e+00,-5.652380734633493109e-01,6.212796879332352695e+00
1.875581709964334376e+00,-9.005790933741781856e+00,2.102538958980931516e-01
3.021896402794546521e+00,2.993165187851034137e+00,8.369145744073369642e+00
4.338499519208079747e+00,-8.012617793758614937e+00,-1.660625277942739730e+00
-6.008372678904609465e+00,1.979099554532422589e+00,-7.030816959984086623e+00
-8.090642461846039524e+00,3.807178499418522488e+00,-2.602620197030458105e+00
7.109008004555430027e+00,-4.034812564821057990e+00,4.408407968079703920e+00
2.531615710846519818e+00,-7.160397785814086369e+00,5.491264597515774781e+00
8.265447685086165563e+00,1.409952602831070489e+00,-3.782880019798655180e+00
-1.241529222041200864e+00,-9.174804239448064891e+00,1.048847521399538518e+00
4.189333872179435758e+00,-6.460016709181719108e+00,-5.177531214880369603e+00
2.440655282991094133e+00,-3.492055521659440220e+00,-8.190628368118995084e+00
-5.689199722390124059e+00,7.147082664997494561e+00,1.534194758393708558e+00
-1.854925532177143399e+00,7.903432249550281785e-01,-9.068294794738635645e+00
2.681483388434420689e+00,-1.715306600625043254e+00,-8.781483838405808484e+00
3.705535270926649805e+00,-8.471556032184063056e+00,-1.417466185877640505e+00
2.488013243487774862e+00,2.035374375517525092e+00,8.804815318763473897e+00
-8.850381273614384980e+00,3.060268490805902797e+00,6.947936012075307532e-01
8.898179995227472716e+00,3.959980897613143425e-01,-2.782283867057381066e+00
6.763441018672163629e+00,2.667197460491553596e+00,-5.692302177718053358e+00
6.952876777212657622e+00,-5.900188098291270222e+00,-2.249911498469086446e+00
-2.700955665968314712e+00,-3.695009474227006763e+00,-8.019471178365121133e+00
8.293518765568299145e+00,-2.895264357725164661e+00,2.762256717457600264e+00
-5.945776227678053694e+00,-5.760792744246835184e+00,-4.196909752311102082e+00
6.685859343816937361e+00,-6.767218244910011560e-01,-6.485734914899026649e+00
7.604257331086369476e+00,2.414104883822889083e-02,5.351594715299165195e+00
9.121278466470348789e+00,5.167469347023385673e-01,8.296581391462329869e-01
1.647398164457443359e+00,8.952561485046897971e+00,-1.776004662110552745e+00
2.021473574432158138e+00,2.714847816018757243e+00,-8.815668086823043481e+00
8.459678977909423025e+00,-3.886567862064467693e+00,-1.476346519277462743e+00
-2.067514380714409405e+00,-2.174724017952945232e+00,-8.839729269297714964e+00
-2.529512519971738316e-01,-5.852411167906077516e-01,9.239727128227135822e+00
4.488211686587241012e+00,-4.563042727155941058e+00,-6.782378649137268845e+00
-7.993441176125560155e+00,4.140066485580215172e+00,1.585379771163284435e+00
-4.574870979448507846e+00,-5.995451473418046184e+00,5.485896939024396346e+00
-8.245977355004971088e+00,1.087333521639298528e+00,4.205373698651767356e+00
-4.994159703611702916e+00,-1.900871202818961825e+00,-7.488837637844011574e+00
2.120238400217435704e+00,6.390230279981789607e+00,6.435552426102726820e+00
6.385677877128507873e+00,-1.837819748556991373e+00,-6.535217673097465152e+00
-8.495008121208742935e+00,-1.245730017527336142e-01,3.762384111884081506e+00
5.462645075787216697e+00,3.044420432318343916e+00,6.925752600999994790e+00
-8.333346510569210608e+00,1.806092813073919778e+00,3.943144930105419554e+00
-4.336254267532511086e+00,-7.296249414338128680e+00,3.709031047097232303e+00
2.596979469239415028e+00,6.479513063838001408e+00,6.254493292655205039e+00
-5.096882234394657374e+00,2.235483160354669874e+00,-7.596317258963748209e+00
7.782385032055873175e+00,3.464937905200300428e+00,-4.218228843181795362e+00
-8.247957082857656275e+00,-5.363515852952190910e-01,4.339072809189595148e+00
-3.612384245921087533e+00,-5.325622892821017196e+00,6.698046404198350956e+00
2.952002255757605109e+00,2.052909021850709337e+00,8.668916713103060445e+00
4.890534935906317493e+00,-6.487978296464333994e+00,-4.615977317506202660e+00
-7.473500585977739696e+00,-3.911633910678567361e+00,-3.884798891532509124e+00
8.198691274684904329e+00,-1.969472117514668996e+00,-3.705341246762049678e+00
-1.578911530712686362e-01,5.147245987593938921e+00,7.628468171083689242e+00
-5.212259876273503068e+00,-5.667015514137396792e+00,-5.373204291104287655e+00
6.376378462339963527e+00,2.852446149609184189e+00,5.929984172634041428e+00
-5.640878670125187178e+00,-7.209633284029131950e+00,1.962316594145796289e+00
-5.987211626728446312e+00,-6.028698238676404308e+00,4.025345139224129731e+00
4.768519403210984109e+00,-3.443172434933297610e-01,8.013522179284658264e+00
2.867132675465622782e+00,-8.081311141814614629e+00,-3.573373646529838243e+00
-7.797310439265555004e+00,4.605561738795278970e+00,-2.108632364423588701e+00
3.767119732759602435e+00,-5.046903611485356933e+00,-6.705347106735778162e+00
-9.158889089561709440e+00,-1.672154362383809323e+00,-3.013001287543367601e-01
-7.675296194741868305e+00,-4.434189061466361714e+00,-3.109730620098711373e+00
-7.532324819864739673e+00,-5.424078473442214943e+00,-2.116403015547293709e+00
-8.149482476825641086e+00,2.212583523219171067e+00,4.188852532136666085e+00
-4.089529952865543549e+00,-2.265078681997629850e+00,-8.106403205200484408e+00
2.807507388816209495e-02,9.007067839482225224e+00,1.535743074930965513e+00
-4.079068098673928056e+00,6.099853621161465789e+00,5.794178671927061153e+00
6.936242622988040729e+00,-5.241682794210863472e-01,-6.276926321044526524e+00
-8.688485343982204512e+00,1.920333866922749655e+00,-2.638609564168625354e+00
-1.521850416119648219e+00,-3.611942812843004447e+00,8.584456388163408391e+00
8.427668758518638281e-01,-3.500534471370791767e+00,8.642226994920244820e+00
5.280782050774477376e-01,-3.802561004330597072e+00,-8.409829076622761690e+00
7.224190229582882594e+00,6.492749349123630997e-01,-5.694463826989530908e+00
1.245795483537721404e+00,-3.430748359067212760e+00,8.770504300928614327e+00
-7.131626723748002661e+00,-4.741025166964153215e+00,-3.352235856208289899e+00
-9.399898132461968814e+00,4.907349853349136648e-01,6.570931376812633173e-01
7.272350825219858761e-01,-9.033971826505791114e+00,1.846379106134253822e+00
8.522459567924549617e+00,-3.286783919208775551e+00,-1.283242563301183914e+00
8.158983194896961777e+00,-4.509589346619190531e-01,-4.127836115817625995e+00
7.597002742585597268e+00,-4.701519103544534950e+00,2.336290865647106418e+00
-8.987422649571014333e+00,-2.050842488383976647e+00,1.624354285393198039e+00
-5.971775465288763129e+00,6.741549891463651356e+00,-1.546468532241210836e+00
2.943544230645534832e+00,-2.057934572801741968e+00,-8.575053688099179894e+00
6.433567717515118467e-01,-8.387191437754381695e+00,-4.360334033393794329e+00
-1.129077067359711029e+00,-7.442910447249901473e+00,-5.470311320250805132e+00
-8.349093237519442212e+00,2.094026284580175812e+00,3.752008570270746635e+00
-1.333975643643639408e+00,-8.531585346037864781e+00,-3.458575687619426464e+00
2.224404701576604970e-01,-3.372980940751351131e+00,-8.720013719326967561e+00
-8.189949979038559036e+00,4.493363601760450798e+00,5.153089617196949801e-01
7.181017130644964830e+00,4.369845830939839360e+00,-4.214532706197013923e+00
8.640243920771830233e+00,2.775683119630110163e-01,-3.311427249260457284e+00
8.786167843771893970e+00,1.605892608539815747e+00,-2.090821754317197634e+00
6.642407103969838467e-01,8.611525783611527984e+00,3.696097462507473619e+00
-4.267774508366953157e+00,7.892897109759564600e+00,2.522206612262535952e+00
5.491014198987169692e+00,5.930826684540349447e+00,4.734148968973673988e+00
2.464487774565566336e-01,-5.293948843911604918e+00,7.822528087244323025e+00
-3.435480367034646321e+00,-4.184516600709062395e+00,-7.447794700539501989e+00
4.625648451569413844e+00,-8.102900580433249900e+00,2.670991672919963977e-01
8.124160682865706917e+00,4.267113468092812667e+00,1.776424417342539197e+00
4.648357409678482433e-01,-4.613219681232052949e+00,8.144126605071123848e+00
-3.643796078001819705e+00,6.084966368578374585e+00,-5.935501368309538783e+00
-9.159629302085951608e+00,-1.011030374085560624e+00,-4.114897199850563458e-01
4.649697429818879235e-01,8.032052576841339331e+00,4.419844880199218728e+00
4.538193442146700285e+00,4.035945259296315868e+00,-7.141303065783677795e+00
-3.591200716574936003e+00,2.802077033973085829e+00,8.080166639579800858e+00
-4.236534793414863942e-01,-2.599928426495238032e+00,9.082968963859677558e+00
7.157068633125231116e+00,-2.383023672013149685e+00,5.462608622492580501e+00
-4.315624296875725463e+00,-4.154041869281702049e+00,-7.120776316130071670e+00
3.450999877720237308e+00,-7.772928676380615798e+00,3.776774677771269850e+00
-9.170117726588523865e+00,-1.003892545440411510e+00,1.643237679174235133e+00
-4.081394140994167863e+00,-3.417176785919778137e+00,-7.757843073560957592e+00
-8.020195473561372523e+00,-1.812756027698331218e+00,-4.632127166761876857e+00
4.347554408808631088e+00,-1.714028722131519133e+00,-8.252285491567686648e+00
5.429904396906670705e+00,-7.172690683813647716e+00,2.834074957418586393e+00
-3.760594222866154634e+00,8.308020133577620925e+00,-9.941170773027607765e-01
-4.964916179713684680e-02,3.594778635363092167e+00,8.606240995940549254e+00
4.174407889612907319e+00,-2.936627215272539004e+00,-7.938613086588597767e+00
-5.498819410851433886e+00,-6.571362300159856673e+00,3.063974434556934412e+00
-6.681184851535607372e+00,-3.553215257901245483e+00,5.433242675368594732e+00
8.100386487689743120e+00,3.150844264848896792e+00,3.286645153531129626e+00
-2.949199700305976890e+00,-7.145213395049408334e+00,4.872787849267851357e+00
3.066892408926980562e-01,6.787469263501503036e+00,6.526369219548698197e+00
4.132799778153732007e+00,-6.809244936355174360e+00,4.904278000010705796e+00
-8.841702780048471766e+00,2.823499203571346872e+00,-1.372882282465482273e+00
-1.701431694898223990e+00,8.426606882103685692e+00,3.641171382215719454e+00
-7.691223246379344403e+00,-4.927280510129055990e+00,6.245722379835469962e-01
-2.582798001445437475e+00,-5.084356214272125918e+00,7.418102293385718582e+00
3.470491999368233049e+00,5.840354436860305753e+00,6.254924912268816861e+00
7.685443105860861657e+00,5.177913969121443749e+00,-1.778578956679958356e+00
5.338566012927607574e+00,-7.200193572664896458e+00,-2.924063980554676423e+00
-7.956155884718599580e+00,-4.692652261099935274e+00,4.771224776787535982e-01
4.445223429433117879e+00,5.502958027074852154e+00,6.045531896156919771e+00
-6.928076082121874535e+00,7.341806000637068896e-01,5.960122996033681453e+00
3.604188210003993920e+00,8.459224170882224669e+00,-2.354805886666837544e+00
5.792478015914051426e+00,5.867524870047976293e+00,-4.377880938554661761e+00
-9.018669804311262084e+00,-1.285701402194684151e-01,2.393076112394432631e+00
-8.096613714880199764e-01,-9.257100883401660596e+00,-6.121775264428116481e-01
3.007475190790243946e+00,-2.327097210313339826e+00,-8.622719821935676876e+00
2.462396458106304864e-01,-3.899030138098900977e+00,-8.491347608356335286e+00
6.003770939861365008e+00,3.849668213679747986e+00,6.087156805342112342e+00
-4.283304965374079565e+00,8.259823822902591317e+00,-1.142527201304230910e+00
3.023240894705572224e+00,1.829614411977352972e+00,-8.524986566773206320e+00
-2.459450988423157014e+00,4.105725237993335774e+00,-8.085433624961055443e+00
7.196028878687047659e+00,5.226242154481518298e+00,-2.457661634741652890e+00
8.045701793714400196e+00,1.588084113121636110e+00,4.549438311268518831e+00
-7.233467940424398002e+00,-8.720677544834743999e-01,-5.529403652550374026e+00
-5.851260779167618331e+00,-2.432127352390206720e+00,-6.613147507806320213e+00
5.940576581229867870e+00,-3.538830166770920549e+00,6.113961579101553134e+00
7.908873596292027131e+00,5.056374017992353309e+00,-9.311645795821505978e-01
-8.120356463027228244e+00,-3.302866866454141626e+00,2.881686950577755368e+00
4.661782941087683874e+00,-3.020678291564833806e+00,7.377935472995293509e+00
-4.843270437785801796e+00,-2.114516132671137250e+00,-7.704169137442911541e+00
4.169415961381611524e+00,-7.854760904353404349e+00,-2.735861357399713256e+00
3.201893607505868822e+00,8.359323550816496251e+00,-2.405338771483981120e+00
2.287005876461359666e+00,-8.974859097442728029e+00,1.923235874307796189e+00
-2.613466058898370914e+00,6.583166754001584131e+00,6.000848970868770671e+00
1.875860908769178215e+00,2.851565335419701697e+00,-8.711269291837089312e+00
6.882677041795013828e+00,-2.997101852092164620e+00,-5.471747236371493628e+00
-3.957315102266675044e+00,-2.981012932816272443e+00,-7.805810005247624694e+00
-1.733020603201906429e+00,-6.629396171138566274e+00,6.096556148148432719e+00
-4.999947664821470461e+00,4.743367787419124681e+00,-6.237086022181085987e+00
4.594405789186349232e+00,-4.970706879650911070e+00,6.390679314425007362e+00
4.590921899741400303e+00,4.514375571669705600e+00,6.588890367685598548e+00
-4.199230410993364693e+00,6.217719722552711659e+00,-5.324011899230242761e+00
1.668561412866347016e-01,-9.281689343042412332e+00,1.000157151537861777e+00
4.025371914597177803e-01,6.958378596887769163e+00,6.101286947901461311e+00
5.895113093463910658e+00,-7.171174188810131689e+00,-4.635618237929371999e-01
-7.677529185164420067e-01,3.366026113708849632e+00,-8.506972436296917905e+00
3.253746130595380759e+00,4.665980187460409212e+00,-7.216684839429885479e+00
9.530525311136383015e-01,3.435966195932625311e+00,8.452924480863359236e+00
6.573208492999897068e+00,-5.382889476536023565e+00,-3.573781838350008400e+00
1.277073265532919999e+00,-4.704834765000406982e+00,-7.820739282627165778e+00
1.498838530128448199e-01,8.954950131760247345e+00,-1.947184172961122117e+00
6.598071722126449323e+00,3.699236997501414326e+00,5.366036301167407707e+00
8.162182609147915713e+00,4.237431151184366307e+00,-2.036593961850065249e+00
-4.319986211406541265e+00,9.929731678323664434e-01,8.123889035888886667e+00
-6.948066871797876409e+00,3.947049937032118816e+00,-4.986135036597652004e+00
5.154228565257472638e+00,-4.574099385883140911e+00,6.317213092296152688e+00
-2.259845542785174022e+00,-5.668444518374905705e+00,-7.239533458516808295e+00
2.902356913559576146e+00,-3.871785113023634706e-01,-8.820574477524385060e+00
-6.211304344954553969e+00,-6.977720393491040340e+00,-6.521968510306386246e-01
3.781358460248405717e-01,7.552957889322968299e+00,-5.239138083346422725e+00
-4.865240927650390290e+00,-7.674887426332976936e+00,-2.469813362200180329e+00
-3.647426200114335604e+00,-6.979798449597618415e+00,-5.113031366708904457e+00
-5.993626428567769615e+00,-5.262892791340370024e+00,4.789545101995336118e+00
8.961890505057864331e+00,1.714277679097836182e-01,2.522720547911336819e+00
8.692233812958029660e+00,-1.744824187608618793e+00,2.880528534147755337e+00
-4.143717943256866931e+00,4.210643084289258375e+00,-7.158687960438010478e+00
-6.513163799461833214e+00,2.079886934914176866e+00,-6.390838218051146491e+00
7.850455986322579349e+00,4.690313875242845931e+00,-5.447865452543136922e-01
-8.704051361300384926e+00,-3.035254449214217054e+00,1.533343654398029665e+00
1.807538805908105228e+00,-8.370161751100622993e+00,-3.885071915356103744e+00
7.926329274494181121e+00,-4.991814642656676959e+00,1.435701530405420812e+00
-9.227934032723647206e+00,1.963990723426439100e+00,-1.857345176644853088e-02
7.336495625375040852e+00,1.871146628296790349e-01,5.575312811727617834e+00
-4.771554797267632431e+00,-5.136385517293954095e+00,-6.124192432469092395e+00
5.654994403298835515e+00,-1.111956691455958657e+00,7.460204382135977141e+00
-1.919285179990970258e+00,6.488106577772808414e+00,6.629622277503219863e+00
-9.250900036363614021e+00,1.116061481356130258e+00,-2.243214672355158257e-01
5.610740495906666458e-01,-6.749100298345743099e+00,-6.386520514786822034e+00
-8.704380408284967174e+00,-2.837836611761063832e+00,-1.791572450390020554e+00
-1.548501029123145134e+00,-8.363052300898177194e+00,-3.822783134872313582e+00
-2.051875487724715175e+00,-7.224090983618990158e+00,5.643063455171543730e+00
-4.515434592195195052e+00,-8.029321839656363480e+00,-9.327183215302240482e-01
-1.876686507446602148e+00,-6.111134335037784915e+00,6.716959185178491332e+00
1.968540968173644101e+00,-2.484294943533051470e+00,8.907358483388755133e+00
2.519422540953873302e+00,3.058738549474417923e+00,-8.501639102863554953e+00
8.484522005873960993e+00,7.869589643286395431e-01,-3.800351075092260889e+00
-3.082322862639225836e+00,2.462700233970229302e+00,8.391452361420686401e+00
-6.744959337494636387e+00,5.921801987319975424e+00,-2.717535128117139376e+00
-7.572426096614880642e+00,-4.646099800519555956e+00,-2.579520955752312883e+00
1.296502097089666572e+00,8.495885489840718563e+00,-3.352711726560392957e+00
3.696576732355554284e+00,9.583687588484848252e-01,-8.320389446454894866e+00
1.643047515485497767e+00,-9.065657822164403967e+00,1.057622942904484109e+00
-7.832802381851137419e+00,8.030744640413520208e-02,5.216866681220392543e+00
-1.116746573737978032e+00,7.993762488155486956e-01,9.184647527756501617e+00
1.756161116381026011e+00,7.108836187337956858e+00,5.833798717149456969e+00
-5.226647088949730957e+00,8.769232257896466542e-01,-7.671028222680831732e+00
4.405872508426416090e+00,6.981381951692825716e+00,-4.513081797684066032e+00
1.225904017965346975e-02,4.669897222724892494e+00,7.960414511883292299e+00
-6.920206268625548773e+00,-2.631296882937259052e-02,6.036795470369415995e+00
-5.906608137895446475e+00,-7.190685538551444544e+00,-4.530492288176721227e-01
1.930857157403299995e+00,-1.909259143246157642e+00,8.764665226489425365e+00
-1.230243785533466916e+00,4.898376495665892172e+00,-7.910092405271342386e+00
-4.321145208587295450e+00,8.092798074033861866e+00,-1.997622037963730390e+00
5.575061651233392368e+00,-3.253033208135950094e+00,-6.874569498525223032e+00
-7.668006864333273498e+00,-3.414915197067675656e+00,4.036169891257992859e+00
-8.518465899196259628e+00,3.322156403915521583e+00,-1.335032688322223215e+00
5.911206000382618342e+00,4.199197765559754991e+00,-5.876780372087102577e+00
-1.476364216272878949e+00,-4.655002464840819698e+00,7.897078408583210418e+00
-1.020422325158310661e+00,2.053909528786736605e+00,8.889460803463178351e+00
-4.795549606894320860e+00,3.687324271001528597e+00,-7.135098528995206912e+00
2.510186502935596309e+00,-8.954839650725659794e+00,-2.681995257421064260e-01
6.472254665730194034e+00,-3.425474040973945478e+00,5.695233515729714924e+00
-4.350807430306794288e+00,-4.402954582832092179e+00,-6.867045864003350708e+00
2.246933021194614355e+00,7.217806136137618900e+00,-5.646053588445197668e+00
-4.339654451410154934e+00,2.097090019173099673e+00,-7.902213429472750406e+00
-1.900421664201713323e+00,-1.119928487989921839e+00,9.010979611804380340e+00
3.143106317822267126e+00,2.510932823147414172e+00,-8.491630052239891313e+00
-9.042498122359745594e-01,8.077133085294205372e+00,4.552135607383981153e+00
-9.103352848984725298e+00,1.708236112637873783e+00,1.428164079183367630e+00
-8.776969308842209827e+00,-2.459131523763435467e+00,2.156257978758696847e+00
-6.687497695762925076e+00,-1.749083539275142929e+00,6.142699668448708294e+00
4.152386068263515639e+00,8.120832808647008960e+00,2.375950487544966183e+00
-3.485432598876827548e+00,2.325583250839647897e-01,-8.754588346746908556e+00
-6.326422957366067301e+00,1.123707130490970985e-01,6.908457198553871415e+00
6.193370821360956846e+00,7.031759248911657600e+00,-1.156432993064029136e+00
6.258724343328085027e+00,-1.181995707780015836e+00,6.710498385968736379e+00
-2.106049287438684914e+00,7.352480860126956230e+00,-5.391654991153496113e+00
2.215237368134081120e+00,-4.083396833312881391e+00,7.990927141084072538e+00
8.112581587466603850e+00,-3.053879265949434596e-01,4.742329788005069879e+00
-5.716447967866278290e+00,-4.239088261306317662e+00,-6.003509135117007567e+00
-5.985328947372430264e+00,6.124292065223235326e+00,-3.600880451213719802e+00
-7.781414168652715624e+00,-3.041762162498133026e+00,4.168118416114429792e+00
4.781446545185028540e+00,6.315158925672721857e+00,-5.120316525637807814e+00
6.441490016660479156e+00,-2.819522219483671321e+00,-6.253504021084569153e+00
9.029307632098545255e+00,-1.421116035947437739e+00,-1.852467912094592606e+00
-3.452239410797441010e+00,-8.296550404109197530e+00,2.285557053438318498e+00
3.799069486745480617e+00,-7.790199180867483975e+00,-3.346865947114796125e+00
-4.290835955369573185e+00,-3.739810604515591663e+00,7.444921965231830363e+00
2.657053327698684519e+00,8.550876946255151267e+00,1.822415422790332640e+00
-2.201269690171371085e+00,6.544657038605222077e+00,-6.393719755569436280e+00
6.274400405823873150e+00,4.139495071691313477e+00,5.462901035198409083e+00
-9.012479674715904998e-02,4.856027258874213715e+00,-7.821876370607754758e+00
-5.278317718378251477e+00,6.387038059882503838e+00,4.402205590865299278e+00
5.190020875716990112e+00,-6.571192291033668198e+00,4.125041537749607023e+00
-1.409019955243050459e+00,8.008003505432498059e+00,4.357508486471297182e+00
-6.139051641961355443e+00,-6.040604985000912919e+00,-4.042877065915324586e+00
-6.346700866004608699e+00,-5.141531913963600431e+00,4.424815788297676633e+00
-7.702083084067610663e+00,-3.368413771399645373e+00,-4.186801349353730828e+00
-7.233856589608291365e+00,1.885664918856308381e+00,5.800029245967601277e+00
3.429408129764901503e-01,-8.591001169687846328e+00,-3.534127692591754855e+00
6.992003485657845019e+00,3.781936358057879310e+00,-4.780281716302615003e+00
-7.289720761332322274e-01,-7.480925855877016417e-01,-9.234691325736307022e+00
-7.464545510852362398e+00,5.009737522808158872e+00,2.424601728190272532e+00
2.003580184306359147e-01,-8.772731582255284266e-01,9.252173982773435057e+00
3.607220268789625983e-01,-6.512294726382786614e+00,-6.620609690652448975e+00
-8.002386970402657340e+00,3.774248001850237344e+00,2.576482288173945090e+00
-6.605384568970102954e+00,-4.992980708041474536e+00,3.544056740720859189e+00
-8.804358716377453931e+00,2.339726349658566018e-01,-2.876949658676108523e+00
6.519073219958783305e+00,1.126646729018414561e+00,-6.883979926081863709e+00
2.540220619320809448e+00,2.503738840821016165e+00,-8.506364267109502109e+00
8.999386116034918004e+00,-2.608943157330110285e+00,4.251390940318698353e-01
5.808912343068535655e+00,-2.115831878359479390e+00,6.893723623410346946e+00
4.527848684391190481e+00,5.802421178291925941e+00,5.841713952353657646e+00
2.466176626729075672e+00,-6.960795887636449741e+00,5.519231297541396408e+00
-1.918396564523800585e+00,-7.620039041497687293e+00,4.928988714252525938e+00
5.732306662853651424e+00,-4.189624410440210944e+00,6.244008998394614096e+00
-4.794364964029319331e+00,-2.627625038656236978e+00,-7.562226786419194546e+00
7.870613518146106102e+00,2.912481170536785680e+00,-3.858766004745363798e+00
5.138887874727513072e+00,-3.041473028087359420e+00,-7.196883974627269254e+00
1.933143404706220148e+00,8.905718667746089778e+00,-2.155812729555718121e+00
-4.602326604573701907e+00,3.508596876180301916e+00,-7.245358648252934408e+00
-3.582883860440129187e+00,2.544617901519383718e+00,-8.115328277318267780e+00
5.762179719487025231e+00,5.136103568908439776e+00,-5.310032911736259464e+00
-6.450142877811682052e-01,4.499666613273110904e+00,8.065077276921963190e+00
1.465405224885269808e+00,4.236660650268658124e+00,-8.086526028617656792e+00
-6.460719960277377716e+00,2.280960039371477066e+00,6.543111029540142454e+00
3.487574779886013498e+00,3.282470310517747070e+00,-7.938168088607529427e+00
8.656994457800722742e+00,-3.062499198289339586e-01,-3.675607540751211655e+00
7.704257291497548898e+00,4.167400315241983400e+00,3.208590256674243690e+00
-2.258275674503652741e+00,1.647254608989541014e+00,8.643322550274202598e+00
-6.091029009047745468e+00,-5.778057184895796006e+00,-3.827152324377153025e+00
-7.087441412898424886e+00,-3.503956828477597263e+00,4.834383737367911493e+00
2.099303276970911902e+00,-8.005691240838336498e+00,-4.185822061788186055e+00
-3.459905949015931181e+00,8.436189765238376381e+00,-2.046898787539248588e+00
3.770801345941958704e+00,-7.916052688112195312e+00,2.884570558982034072e+00
-4.091789423070179232e+00,7.034621393393436506e+00,4.898286912424069328e+00
4.908054800023313735e-01,-6.231288008832592595e+00,-6.696652067169514666e+00
1.849543752031037380e+00,5.372330498752155847e+00,7.349261282851538013e+00
8.376542511104435818e+00,-3.176881624566965989e+00,-2.638501406889973921e+00
2.529740108283504263e+00,-6.058643641651087819e+00,6.576506395110875758e+00
1.579303302815855847e+00,-9.219859746680528545e+00,5.248854566078761108e-01
9.235075601541030466e+00,2.026143528772986979e+00,-1.608437111400294328e-01
-1.958716887667762085e+00,5.514748437725121022e+00,-7.186742718848225131e+00
7.337080093506871847e+00,5.832144283171851740e+00,-9.127853011306344966e-01
-6.692586883787490670e+00,-5.050895717484906733e+00,4.313284612214657976e+00
1.629923926930825884e+00,6.879742232182159078e+00,-6.053366817657307664e+00
-4.544771473098231596e+00,5.897258065282019457e-01,-8.135677037685852042e+00
4.438925937875233707e+00,6.858460899113931752e+00,4.294007536747160181e+00
-3.911440208277771280e+00,8.027966205140849354e+00,2.711992744394850163e+00
2.168386867409350938e+00,7.470501841477927840e+00,4.920246333142959116e+00
4.095274548533033965e+00,1.409318950917723301e+00,8.468739800371778870e+00
-6.473541896544158236e-01,-5.076235146214816751e+00,-7.703082187394519664e+00
8.203067327405905829e+00,1.759064277035137902e+00,4.090296104070031191e+00
-6.991092395873294230e+00,-5.322768800831371827e+00,2.744776837524872004e+00
-7.813652859406378326e+00,2.382265838835729177e+00,-4.504124101697073890e+00
-3.478406290217303631e+00,-6.576997042761122181e+00,-5.514255174913141211e+00
7.897652160650872055e+00,-2.221146598538874972e+00,4.188935822696694622e+00
-6.264546640918375431e+00,-4.365584928464151027e+00,-5.406426049820860058e+00
-1.989746772251060059e-01,7.609277206919828451e+00,5.390901816308999450e+00
2.861550868095281697e+00,6.265847978789100825e-01,8.792075131170962621e+00
-2.814839841838805423e-01,-9.059981341982249248e+00,2.204187376284936217e+00
1.344052022073715769e+00,-6.583205543637200563e+00,6.567074516331349976e+00
1.708646818369054410e+00,-1.987185702918239372e+00,-8.809011235561232667e+00
5.490332053212243935e+00,-5.439622928060829032e+00,5.179151877794470948e+00
-4.156690320128704208e-01,-9.277405465682525332e+00,-1.513961157971831950e+00
8.950325047488613350e+00,-3.380001379935778094e-01,-2.600056985890001116e+00
-7.486973647252590958e+00,-4.954309371050177546e+00,2.239376380551405088e+00
-9.250501174228382695e+00,1.637537127374037782e+00,-6.025682324877955631e-01
-8.884382760954533609e+00,-2.616423421985751396e+00,6.324540379243809296e-01
6.449916111539486963e+00,6.750340559976563348e+00,3.068816148346764083e-01
9.225202174270497935e+00,1.417539838540676556e+00,4.778444352765237046e-01
-3.750395971704931775e+00,-4.675947894681963923e+00,7.018963934684325778e+00
-5.118339499957026639e+00,7.549952424459875466e+00,-1.165683798239170565e+00
-4.522060939960012682e+00,-7.611480347606983443e+00,2.262851718042471649e+00
8.826346999422465700e+00,2.482021104203560036e+00,1.917225310691279550e+00
1.796806025475461199e+00,8.450698047893570930e+00,-3.230130573214065492e+00
5.978387965468911602e+00,-4.696250433820079451e+00,-5.350161724072099112e+00
5.958059290639762473e+00,7.030846219509527373e+00,2.357074159338278907e+00
7.918480161875229406e+00,-3.441453038639307738e-01,-4.869565871791898815e+00
5.906147696735503771e+00,5.545541571894785804e+00,-4.388776819084205805e+00
-6.288971371321916415e+00,-1.098219386405601350e+00,6.669207243571312560e+00
-2.647360698844382298e+00,3.373333889719005274e+00,8.230831117437798383e+00
8.771683824229780102e-01,-9.255084723399795266e+00,3.632932045418381384e-02
6.983798737233638754e+00,-4.796063203887966253e+00,-3.987306587568786753e+00
-1.319335256059351869e+00,-9.227933117718029266e+00,6.514956044362627541e-01
-8.320269463882272731e+00,3.713032742767806482e+00,2.034222460682006073e+00
4.938486855715221502e+00,7.787249698731512737e+00,7.370876297576028913e-01
-6.577508924768181053e+00,5.807955421279293873e+00,3.055760703712099957e+00
-2.340066600737125579e+00,-3.433666874977815642e+00,8.264137731190531966e+00
-8.562171661175771220e+00,-3.528994562476828190e+00,2.053667244754629362e+00
-6.012892315320615744e+00,1.894451846829572905e-01,7.220137645708391894e+00
2.171164241631899916e+00,-7.992713414891396972e+00,-4.804670610828044808e+00
5.417529848035007589e-01,7.220614308074788212e+00,6.044922831871524238e+00
6.304560441645649327e+00,5.507998116065428995e+00,3.767318575323130858e+00
2.316272400882737337e+00,-8.184978510561283116e+00,3.652251414623728820e+00
-2.634213686892802997e+00,8.022270826689098300e+00,4.271067991909126782e+00
7.601748753703953199e+00,1.927133067136739486e+00,-5.047056423256573332e+00
7.951073344154586664e+00,3.681112781900940156e+00,2.822681155523779406e+00
1.202250289856600318e+00,-4.466095507303976753e+00,-8.127258398178522469e+00
-3.628635726257364524e+00,7.756993125029581826e+00,3.791042948786507605e+00
4.412974853377267692e+00,-7.496008875910325386e+00,-3.120221898056302567e+00
-1.830620649469041350e+00,-8.971596886477783528e+00,2.009941837048888846e+00
8.819020189936091825e+00,1.056090694390479756e+00,-2.460986735398882796e+00
-6.081383087541187393e+00,5.754130440039449290e+00,4.312967559103356940e+00
2.070261595806645261e+00,-8.607556593621293217e+00,-2.513650555198773340e+00
-3.107611166308180461e+00,2.269121848944334996e+00,-8.572388063493296073e+00
3.718976681387781813e+00,5.439971459342415550e+00,-6.519236999364146357e+00
-6.487477974528095270e-01,-9.110173536935578298e+00,-2.191120901799341159e+00
5.219615532464146668e+00,2.809037484188499523e+00,7.312836918778980788e+00
-7.891363657872729753e+00,5.075948815792968638e+00,1.624775182837607801e-01
-1.312521529926313768e+00,6.987081133091256113e+00,6.020377788677444109e+00
-8.142064304962696397e+00,3.978107903034217685e+00,5.264512834426858801e-01
9.288243765445728384e-01,6.281867759127282014e+00,6.859975858322602704e+00
-6.132435967474283878e+00,-5.218931809793001086e+00,-4.669880369099185025e+00
8.033081346735048811e+00,3.712268903056744840e+00,3.013926318038497421e+00
5.809513700496690802e+00,6.453982530451321864e+00,3.438401662852364815e+00
-3.934349771098846205e+00,-6.025104923418406422e+00,-5.656468243732264867e+00
-9.421838393486579477e+00,-2.414700613926621942e-01,-7.981073576104216194e-01
2.885291744828467841e+00,-8.882410968312848709e+00,-8.263297752991889400e-01
-6.341046415832654937e+00,-5.598397619827674809e+00,3.584384649841388715e+00
7.217186332518765290e+00,5.324106323203682045e+00,2.511738994058986929e+00
5.267999736590395443e+00,1.978695506730225651e+00,7.583555235873207678e+00
-7.576573462960011440e+00,-5.448668434301460195e+00,1.087137228694125823e-01
9.398795017809016272e+00,6.577183743089906054e-01,-1.645391645017225402e-01
-4.859890512881915647e+00,7.779961538357137663e+00,-6.923375141290230017e-01
-6.916173710867107971e+00,-2.067237952523098277e-01,-6.287700691619949822e+00
8.219591823756411841e+00,4.354456855425284267e+00,1.079031077877610878e+00
8.600418118599788553e-01,8.202234604848422705e+00,-4.376532001337150923e+00
-3.565609679863912529e+00,-8.594258393675746177e+00,-7.141668879744113019e-01
6.347867869418168496e+00,5.395059774203884828e+00,-4.278575948546265550e+00
-4.076647774518131762e+00,-2.906059895809998572e+00,-7.723192506750283570e+00
4.543431600103689405e+00,5.358295901984799769e+00,-5.762833595499057715e+00
-2.469462648383500714e+00,2.687302560747392821e+00,8.518385060956481070e+00
-3.745024848267152429e+00,1.915171136848675335e-02,8.552958049053735579e+00
-2.444848545968722586e+00,7.943882497386239194e+00,4.380563283281746045e+00
-2.548053463698941812e+00,6.593570820536906574e+00,6.166314183992016140e+00
-1.235129635982058272e+00,8.986808701648227427e+00,1.613243030559063040e+00
-4.371581295506206999e+00,3.272368386335130719e+00,-7.530757829032504347e+00
-3.485248847531455252e-01,-8.825256156784064387e+00,-3.002040279366442910e+00
2.177380333372999743e+00,3.854660718136091901e+00,7.886033467033841227e+00
3.233602449649303434e+00,7.553186797713033585e+00,-4.425870628045459831e+00
-3.616297916898303377e+00,-8.611588420842272384e+00,-7.837286951431496895e-01
9.282842510442420592e-01,-6.493519121916493830e+00,6.754268105125735389e+00
-1.556861771489899571e+00,-8.172786104918546013e-02,9.210337918857918638e+00
-9.133398681883001302e+00,6.974293783594111007e-01,-1.379754269641526809e+00
2.383717094170920148e-01,-7.478141566594148415e+00,5.370260127461147448e+00
6.379069392816510309e+00,6.296564019553239966e+00,-1.949969867278483537e+00
8.091691404435456647e+00,3.335342728127289380e+00,-2.055177052936155935e+00
2.923212415224309968e+00,-8.114456275532322849e+00,3.380450196983697531e+00
-2.272596292512244265e+00,-4.852734538882496729e+00,7.678973205683581327e+00
-3.402847901903860883e+00,6.381759857799366387e+00,-5.866894615444332217e+00
-4.330577533892766340e+00,-3.709197567339393320e+00,-7.284808110719771967e+00
8.566958204022398604e+00,3.711823250095569016e+00,-2.715736620910835786e-01
-5.263173264587906353e+00,-1.583988929997574457e+00,-7.409311463031707845e+00
2.828540473616022677e+00,8.590518148635402085e+00,-2.972579406328309304e+00
4.856781179855209629e+00,-8.167088672272521777e+00,-1.760451339567798090e+00
-6.480454245889495368e+00,-3.193779742379153408e+00,-5.859290317762397393e+00
1.652691574304092859e+00,-9.176887519445436681e+00,7.489236623249500013e-01
-1.089870515524808070e+00,-4.817255769491736395e+00,-7.852201864879759796e+00
-7.157167629983134383e+00,5.122613335654842004e+00,3.299732300451338141e+00
-7.056373028901230526e+00,1.445263855478371440e+00,-5.591387653154292536e+00
-1.151061512124360364e+00,-1.991702691286538096e+00,8.848610389134083931e+00
-2.134223399900278206e+00,5.843446158960711401e+00,6.793615355472075734e+00
-4.312246855123629707e+00,7.425046732609245081e-01,8.137703479708092047e+00
2.676415552579719304e+00,-3.572262008005064438e+00,8.044268366809903981e+00
-9.554518577241015720e+00,2.941083074523275220e-01,-2.827865368506510269e-01
9.467586160774450754e-02,6.450966639061103791e+00,-6.636226298521065381e+00
-5.002156633225171234e+00,-7.706659890669245172e+00,-1.683180965794151662e+00
4.384726454742447821e+00,7.868191388448748214e+00,-1.935264009386768791e+00
-4.998787730026311493e+00,-6.279803384139125200e+00,4.736771668056700690e+00
-2.752495577880033739e+00,8.369646708331126561e+00,-3.318774348086607429e+00
8.270216276951320111e+00,2.310250187705279734e-01,4.089315459162408573e+00
-8.990348217090151195e+00,2.209306811406413384e+00,-7.232102748562233563e-01
-8.554288294748500832e+00,2.527715771216835883e+00,2.997043269478556038e+00
-3.998246214795028841e+00,-6.809614957159649151e+00,4.742572081846009091e+00
2.541629342749373688e+00,8.737010677702125250e+00,2.065630441776442616e+00
6.728844832670517917e+00,-6.503390271519942978e+00,-5.395164345466156863e-01
-3.211410313177367915e+00,2.828556443490154670e+00,-8.352367876311118877e+00
-5.794227367429520825e+00,-3.716778415463208418e+00,-6.123964075205980961e+00
5.887488949020540652e+00,6.256494661185034722e+00,-3.394169947315766933e+00
7.439150075696421283e+00,-5.442751045862855186e+00,-1.540140463860934616e+00
-5.391022360679367686e+00,6.876038123280281411e+00,-3.283512545106849423e+00
4.651239381601919298e+00,7.855547908181163663e+00,-2.037963792350239167e+00
-6.215451248284402652e+00,-6.817343820446867042e+00,-1.114677135881931180e+00
-9.053563733777762579e+00,9.283672372920175331e-01,1.804919467546342693e+00
-1.472394821064942905e+00,9.108749732816990630e+00,-4.002915358570960369e-01
-7.963306612332710088e-01,-2.776319537174444907e+00,-8.694954781429457213e+00
-5.991781409074409481e+00,6.180280346037420713e+00,-3.108443989810308672e+00
-6.650222352507635826e+00,-9.448996153230365680e-01,6.409637830750411602e+00
-2.074074881565567186e+00,2.355487348921347035e+00,-8.855094309007691677e+00
-8.849504102448973342e+00,-6.002050986852647263e-01,2.743594282821586905e+00
2.877096612955617250e+00,8.034658994909854357e+00,3.221449649699450468e+00
-6.542165996289334373e+00,-3.078907607197874707e+00,5.753897012944344524e+00
-3.116734041098309316e+00,4.022954532596124011e+00,7.696953443887467827e+00
7.771861550823785159e+00,5.011227694153769008e+00,-6.204889671400034556e-01
-7.515747551323453957e-01,8.142831910843547405e+00,-4.614548195313799006e+00
-4.596795785425347169e+00,2.647791775095642119e+00,7.777676673889690306e+00
2.509336849723412755e+00,7.295482402705660618e+00,5.003577447501802666e+00
-5.753254247068528393e+00,6.614018866486674142e+00,-3.560276562903588182e+00
