-4.403328477388345874e+00,-2.935938312232180714e+00,4.370765332549649607e+00
3.743418955297051376e+00,1.159881788696149885e+00,-5.765472791824076459e+00
-7.789499019197627661e-01,-3.155980205049027987e+00,6.202741171646791507e+00
-3.352466719508067516e+00,5.377342379358132973e+00,-2.665458805027226763e+00
-5.578952939633189168e+00,-6.710878434067212017e-02,-4.139293058744369702e+00
6.958208093896638857e+00,7.644735045153653319e-01,-4.400543386016712022e-01
-5.487254099484657921e+00,3.488545093131583563e+00,2.088192734927414751e+00
-5.170253723979833183e+00,3.026023474391434487e+00,-3.787275796787289206e+00
-4.625802282579188685e+00,-5.177560513128182329e+00,-8.794448924049095284e-01
-1.824419334450187558e+00,-6.703047649073486269e+00,1.666323921418945073e-02
1.444896750269025754e+00,-2.248053939472160589e+00,-6.362089698585103648e+00
-6.841164400459904371e+00,-5.328280063310291137e-01,1.482827628658039076e+00
-6.018146462029963395e+00,-5.220802330893871135e-01,-3.373283944344161789e+00
-4.610314145029764887e+00,-3.875630488280133790e+00,3.261772753389745372e+00
1.516695938297792701e+00,-1.851675178361509966e+00,6.722466893513031394e+00
3.653674996378297291e+00,1.980494354154564096e+00,-5.649650234192567844e+00
6.698416891431762998e+00,-8.371605419551659821e-01,-1.496713111520167505e+00
-1.759166786754528422e+00,2.862020119983201827e+00,-6.085277715089842054e+00
-5.275645534993418373e+00,1.243601846307913261e+00,-4.387463335713234436e+00
4.706855022479180306e+00,-4.259526227931962339e+00,-2.909761850359878554e+00
-2.737130200922774037e+00,6.391126434827467229e+00,-7.167812292842896671e-01
-2.443073717055327609e+00,1.772236728442840636e+00,-6.325365248327806000e+00
6.785781698478001722e-01,-1.201351895240431844e+00,-6.729163682811448055e+00
-5.941463367574864485e+00,1.017026848993259680e+00,-3.601713189367532042e+00
4.493305532861479712e+00,1.200171523783910010e-01,-5.352947798043295791e+00
8.097065636748628226e-01,-5.092513309681282685e+00,4.800273070555475918e+00
-1.346460081013795218e+00,6.189759065253417347e+00,-3.050337825437360095e+00
3.101620452290654306e+00,5.874488617159997261e+00,2.003111168684210242e+00
4.288578751555396806e+00,-3.534915325279010645e+00,4.268297416825887147e+00
-4.774804048087156194e-01,-5.690973852587823956e+00,3.854639385594130552e+00
-6.848592784808738898e+00,-2.953908974439165003e-01,6.617483544107218840e-01
1.018365085191518249e+00,2.769547214140131164e-01,6.964119812849463464e+00
2.223266908942783893e+00,2.697384534090367492e+00,6.073403167560726956e+00
5.355623911300648743e+00,-4.325195625401173416e+00,-5.400736078805336016e-01
-1.590595657383108222e-02,-1.318263541045338938e+00,-6.718596786015371691e+00
-4.938309860775681237e+00,-3.579202993918272124e+00,3.397880872796880780e+00
3.835327424649654926e+00,5.685090473504821773e+00,-6.136725287462126976e-01
-5.452414222022812673e+00,1.140432879750986173e+00,4.309597341604965770e+00
6.919792939466035797e+00,-2.443575963271144569e-01,-2.943034590812854678e-01
5.214713870960512310e+00,1.651060848775034229e+00,4.117442563710347336e+00
-4.030161500204902048e+00,3.936494387933422434e+00,3.968762725909938283e+00
4.976425895282627465e+00,3.212903938739497978e+00,3.556086477880854080e+00
3.496293293937744462e+00,5.543038985070508851e+00,2.671150260774857621e+00
-5.128056241888462985e+00,-4.446423251906623797e+00,1.371945102693201912e+00
-4.236874968319889412e+00,1.106677068187873259e+00,5.315635567780311099e+00
-6.881423828118382602e+00,-1.244883052979030014e+00,-3.044322594298723983e-01
-3.981939470491762556e+00,4.006926548762240969e+00,-4.063115957779406706e+00
9.703366275512522732e-01,5.508355823483225500e+00,4.033564333947771807e+00
6.382770699976720863e+00,8.750986907583746532e-01,-2.519402817408805006e+00
-6.481946570680958253e+00,-1.025316770757883633e+00,2.410411122380266224e+00
4.890587981137987761e+00,8.438652766298722074e-01,4.711921012477094273e+00
-4.883234075101774430e+00,-3.307702810537260785e+00,-3.661168178364174963e+00
-2.526234695754919546e+00,5.104595346850350879e+00,-3.720646725095497764e+00
-2.877247201778558860e+00,2.141821152394521199e+00,-6.056472216128359953e+00
5.557292251182150089e+00,3.952963681733521639e+00,1.801472946526731178e+00
-3.296063342958562625e+00,-5.464814591747477301e+00,2.546039262867366926e+00
3.527250597081263539e+00,4.685059184230826901e+00,-3.683535649742348372e+00
4.496651680015462560e+00,5.160255280297122660e+00,-1.491698814490086011e+00
6.334351395769378890e+00,-1.144798524698176667e+00,2.651919964909119631e+00
-4.071718262712709091e-02,6.765216207591800313e+00,1.410913271175103567e+00
5.236301007670573604e+00,9.459788691402818417e-01,-4.427433826039382403e+00
-6.529317224710320389e+00,-1.694151765800412379e+00,-8.435620565371449997e-01
-3.130871619115194626e+00,5.704776518816233377e+00,-2.302674622514033764e+00
4.346677379101426819e-01,5.811201857900145207e+00,-3.920695329734891210e+00
-4.055742200218626081e-01,6.983852723464986312e+00,-3.105419127395275813e-01
-6.043625739608891045e+00,5.627181003329332493e-02,-3.460016387527949266e+00
-1.572931076836005637e+00,2.102221260622543220e+00,-6.210903033994052080e+00
-7.634360643578337324e-01,-6.875638833597936816e-01,6.858152761376491213e+00
-2.307469820359417945e+00,2.969342498970353628e+00,5.859819069923434043e+00
3.675120581629997663e+00,4.430199521243760041e-01,-5.978193781582407773e+00
-3.644133134576638344e+00,3.249367305151064755e+00,-5.052270515942694828e+00
-5.979165231959408189e+00,-2.592709589632808065e+00,-2.463128163979757534e+00
-2.788748591091157358e+00,-4.505231966909229335e+00,4.534107342385340189e+00
4.580481649403678746e-01,-5.937679586202809112e+00,-3.587595031040652582e+00
-6.028436394664251630e+00,1.802934616674128243e+00,-3.118256759493652996e+00
-1.566411587828630880e+00,-5.818841330907461362e+00,-3.307653495193569437e+00
-2.372071690729692151e+00,1.523868705679116919e+00,-6.357599491768920252e+00
5.419406744583790569e+00,-1.796882253199026502e+00,3.928277329645514016e+00
9.791775271045455309e-01,6.977887511223964445e+00,-1.302651118742452763e+00
6.649931881448666537e+00,-1.048375958628597227e+00,1.859669046705220374e+00
7.872442364495775280e-01,-6.810202569843631260e+00,-1.231408633818514176e+00
4.062859611346578137e-02,-4.757230479858628458e-01,-7.019400517608449519e+00
-4.836851548995895755e-01,6.699297071528456549e+00,-1.268680249567774476e+00
-4.811497056319663734e+00,4.633588370841402515e+00,2.217795043635474972e+00
-5.567245356919877430e+00,3.852965749555492092e+00,9.340127878208543954e-01
-4.293686675310611101e+00,5.245745996132206379e+00,-1.596136596354567505e+00
4.114169632305372026e+00,3.957726474745772549e+00,-4.218004420082460015e+00
-2.406667948114634914e+00,6.457497682636934577e+00,7.701742293052029620e-01
1.083680868474771408e+00,-2.968686457568694870e+00,6.209823005294953013e+00
-1.144116801316204635e+00,6.240095021635878147e+00,-2.814994236879324152e+00
-5.374919472462708292e+00,-5.467854991514661256e-01,-4.401592915153217156e+00
-3.644854055646599811e+00,5.560471029511392160e+00,2.353503154709670309e+00
6.517988828351336750e+00,-3.362821667385232360e-01,2.273629929206440803e+00
5.325203387049140424e+00,-4.424376985473950974e+00,1.461993449796989142e-01
3.237858943592910155e+00,5.036344255451911778e+00,3.566909446480641677e+00
2.411147036173009628e+00,1.114153776102650428e-01,6.584468632413368105e+00
-3.675634967590575286e+00,-5.730518343511159962e+00,-1.155838082284626145e+00
2.606445592168197489e+00,5.439822801177640610e-01,6.337039497344862937e+00
-4.381190269019913153e+00,-4.873664470775631585e+00,2.269944141833552642e+00
5.961548434513646910e+00,1.822081841270193348e+00,3.055253114178620777e+00
-2.317194760996491354e+00,6.682866767914856787e+00,-2.606299285494663165e-01
2.493174987356199690e+00,-4.743002498764817609e+00,-4.465070053086740209e+00
-1.528783812508021756e+00,-5.323327480841781423e+00,4.031028954845503165e+00
5.740160889157194468e+00,5.459744567612768718e-01,3.849570547229828055e+00
4.895298423649469655e+00,-2.819009156013890571e+00,-3.859594441886452731e+00
-1.757624743698682268e+00,-9.598119290499039780e-01,-6.586673338479637430e+00
-5.461057593026183987e+00,4.067221131376341781e+00,-1.198762108371641322e+00
9.213261193631457902e-01,-6.849017199070683404e+00,-3.860464782633465375e-01
-8.965648601761129211e-01,-8.800897069996721500e-01,-6.796588571966772463e+00
3.694357464630650956e+00,4.054785053973764875e+00,-4.116971339339810854e+00
4.275665409935309746e-01,-6.457291851672303018e+00,2.120773995497943432e+00
1.903456320523537304e+00,6.492560723501220821e+00,1.360350412826965449e+00
4.807217200526374690e+00,1.429604092892056588e+00,4.904871179529258995e+00
-8.217375220286990967e-01,6.819542555817198703e+00,1.045015188159331476e+00
6.712234707175897874e+00,-6.935721043394321716e-01,-1.470407125686701733e+00
2.725078012788130444e+00,-4.360255944669156891e-01,6.449739147627219893e+00
2.474057192915685821e+00,1.621264999049315536e+00,-6.217162055178940605e+00
-1.548694547383339337e+00,6.202860366395755776e+00,-2.657361154886725085e+00
6.236753539149081149e+00,2.424390812930849570e+00,-1.685872614818047843e+00
-1.479323250036393311e+00,-4.217814850047124864e+00,-5.522648797150006672e+00
9.724349884205701899e-01,-1.567247977516095903e+00,-6.742610031397679116e+00
6.529853334165922618e+00,-2.435881848990041121e+00,-2.062171596439473301e-02
4.498126363522676918e+00,-4.405778128126672577e+00,-3.010267325245892689e+00
-3.336078791464875515e+00,2.685907153936538450e+00,-5.395532565572404238e+00
-1.217069946824367532e+00,6.583101046962182679e+00,1.890809338522104754e+00
4.283230719196559733e+00,-4.258239364230535173e+00,3.249238403200367387e+00
-1.093528892761666649e+00,5.680172777618797575e+00,3.877158031056237686e+00
7.970235540349603909e-01,-5.277737907571850684e+00,-4.307204745024611370e+00
-4.392390181709284747e+00,-1.851199106789448878e+00,4.933620430072941154e+00
1.772750358311218521e+00,1.586324658649967079e+00,6.546676120360847229e+00
1.881817671707578521e+00,-1.304056097383205826e+00,6.611526125405662313e+00
-6.725535931696801306e+00,5.651542109928482382e-01,1.042763398034083133e+00
-1.506972093400418933e+00,-1.395167311844160540e+00,-6.698175727302816185e+00
-4.963727175095819177e+00,-1.623740281468865509e+00,-4.433798881761085831e+00
1.816115956433798972e+00,-7.957672229892014393e-01,6.611382740398009439e+00
-3.696662305149116090e+00,5.098969413472969059e+00,2.590900568308544649e+00
2.338477817757675048e+00,-5.797342083168963711e-01,6.536801201829764096e+00
-5.359431280915289975e+00,-1.373694623450469665e+00,-4.035367080716592447e+00
-2.922974396109711215e+00,-4.045086882914572968e+00,-4.833383007978894419e+00
6.710223625881094556e+00,1.423853945011327893e+00,1.563508157825851841e+00
1.783412791764956706e+00,-4.512139266118539993e+00,5.095090404292190733e+00
1.873560620421674594e+00,6.695191957185200771e+00,-1.484013576092601400e-02
-9.238930668996855333e-01,5.163458537154121508e+00,4.611869490110315439e+00
4.356403125964559919e+00,5.386910926901204988e+00,-9.606873753951000738e-01
6.330906100984490248e-01,-6.855418139161248980e+00,7.967260723914580955e-01
1.900234415646033570e+00,-1.205502440354437876e-01,6.618049821182918180e+00
-4.044970977686486613e+00,-1.165340863330582177e+00,5.435598951698973558e+00
2.246113960758235883e+00,-7.174646339694709107e-01,6.627822573158476338e+00
5.710951034676480020e+00,-3.006638678095963524e+00,2.548294265683576754e+00
1.690412255525516327e+00,-5.326456055857883065e+00,4.092086216974697876e+00
2.557135722563890656e+00,-3.435942329582407417e+00,5.412081353659335292e+00
-2.679376871265913174e+00,5.266923941300474254e+00,3.507211258555632316e+00
6.322983424260556262e+00,-2.649635945049087393e+00,-1.446055215585308362e+00
-5.506980338320078827e-01,6.753819749428374486e+00,-1.312602633144284825e+00
-5.864445263332107139e+00,2.631045057589016967e+00,-2.875057098031125857e+00
1.506116968712229998e+00,-3.765906933750990504e+00,5.701967935472936233e+00
2.025671232877958694e+00,-1.722139969170362939e+00,-6.300486393928767193e+00
-3.115039831253583635e+00,2.015778234075713549e+00,-5.902245291990719345e+00
-1.717681600303095690e+00,6.334023390301650736e+00,1.964570080182191925e+00
4.313363002278583380e+00,-4.584494029712413266e+00,2.729199058437945968e+00
-1.832484684396591845e+00,-3.354879416684397597e+00,-5.847245063290662515e+00
-2.916619234868836230e+00,-6.181032491288600106e+00,-9.634904047082742951e-01
1.233510653234521026e+00,-2.569036633214353493e+00,6.444031760011494470e+00
-6.909855034676910535e+00,-3.356658640877219213e-01,9.689581331127542496e-01
8.599046839507111795e-01,-6.812309965069342610e+00,-8.359508968163112952e-01
-7.038780446201862162e-01,-5.432361653496942999e+00,-4.157405559786294447e+00
-1.729792590971151456e-01,3.578293384624325224e+00,6.010448882195352560e+00
-3.538978370103141646e+00,5.061911341245797225e+00,-3.055470027833303348e+00
2.675331847800384910e+00,-2.613611963017068440e+00,-5.936571051185238090e+00
-3.604943741943944069e+00,-3.913647748671159388e+00,4.295187901505468808e+00
5.549377797173174365e+00,-1.676859574394927055e+00,3.950393864981624592e+00
-1.688093264628427737e-02,5.629527752563332044e+00,-4.099258792467260548e+00
-1.288296421702231909e+00,-3.206909497520738839e+00,5.904687141008893470e+00
6.447913716265796680e+00,-4.576840557140423038e-01,-2.213548744431632187e+00
3.540893508842902548e+00,5.516570407855891034e+00,-2.065348794526621568e+00
-4.800844470355142946e+00,-5.035608440730048763e+00,-5.010210885840982176e-01
6.011380805141897987e+00,-3.250868419378256657e+00,5.686939934899458704e-01
2.780583610103029901e+00,-3.336850804201222598e+00,5.435556952459985602e+00
5.080040890111864327e-01,6.986651976751287130e+00,1.346631524543080161e-01
3.600744314576298954e+00,-3.645982873350344100e+00,-4.620422041946112834e+00
-6.647793267979900556e+00,8.110465411862400886e-01,-1.703319138278422518e+00
-2.903631858118627562e+00,-5.931394261504109089e+00,1.815221954376628588e+00
2.080751821158966397e+00,6.641949670827867358e+00,-3.972065345371647571e-02
4.955902727145616637e+00,-4.534586997409794762e+00,1.817397440265632325e+00
1.856161174306684591e+00,-4.046436431583256166e+00,-5.220371586338814929e+00
4.473171508505234151e+00,-5.257502457730294232e+00,7.291449721482756718e-01
-3.345270090654319795e+00,-3.807066018551829245e+00,-4.714114116718310044e+00
-6.391564716027835047e+00,-2.884650958531024489e+00,-5.603250775280841367e-01
-3.208668372745102637e+00,7.887769152532473349e-01,6.022336157898966036e+00
4.408328716288086868e-01,-5.151060237650367135e+00,4.543373052667055489e+00
2.536449503011515283e+00,-3.136811580901834429e+00,-5.625004950551438121e+00
-1.540360520234425934e+00,6.252145245335976043e+00,-2.715502539941078819e+00
-1.211808232449499201e+00,-6.784948368244684502e+00,-4.235868638255266272e-01
1.844611001847652199e-01,-7.032731965905457905e+00,-9.199880169000289598e-01
5.142400294330658816e+00,-4.386020670883154615e+00,1.304957771073440354e+00
6.792673542025323030e+00,-5.070156615995405902e-01,-1.519672365965530014e+00
-2.884704431222116838e+00,4.165241816072232650e-01,-6.356915793398101755e+00
-4.847170313935835750e+00,-1.922806254078604393e+00,4.682529668841421966e+00
-5.681309999487210050e+00,2.438182589050787552e+00,-3.068054111622048996e+00
-4.125397607138901357e+00,1.618389064082649265e-01,5.553671626299879094e+00
-6.849019693874478953e+00,6.099967879948271499e-01,-9.930774712543780636e-01
-4.709574010978155867e-01,5.986127945515296034e+00,3.579211877926698815e+00
4.253701879840851241e+00,-2.647383229467859422e+00,-4.727126349081066436e+00
1.809849582513432198e+00,1.639569622761427148e+00,6.492151507183727688e+00
1.600111227418762994e+00,-1.330123502816654479e+00,-6.638058066571590921e+00
-3.063888454378818071e+00,4.244068047478861239e+00,4.577242250704063764e+00
4.512405234205968618e+00,-4.679084003745283660e+00,2.558210710688153089e+00
-4.089902073117238857e+00,-5.277840364604903911e+00,-1.954607602005473010e+00
2.541036831292238674e+00,5.946616724876093052e+00,-2.287473767369360367e+00
-3.844707388603273657e+00,-4.436592854662433361e+00,3.720344059578741813e+00
4.579518731173549684e-01,5.666344425009425478e+00,4.088586299217443099e+00
-4.130753216584741594e+00,-4.331054289689723724e+00,3.555591475491654219e+00
-2.252430868273477493e+00,7.970823425266186993e-03,-6.440943480779627528e+00
7.366471716920469648e-01,-3.011048373947988299e+00,6.321465853791611522e+00
-1.635658403608883482e+00,1.545399503341242209e+00,6.511939291007609043e+00
-3.214810693087158278e+00,-6.149254194746545110e+00,-4.543785625769135306e-02
2.689259195210853992e+00,2.600785160466390078e-01,-6.302006296506630356e+00
4.547718016811311825e-01,-1.516460653834487804e+00,-6.639547803788574676e+00
7.553400510868366613e-01,-6.769089088088741768e+00,1.483861424301226473e+00
-6.532165990089702667e+00,2.195282874835223552e+00,5.119569633171218159e-01
4.052843446038727038e+00,-1.059553023975770003e+00,-5.710080842705380633e+00
-2.347889114746425587e+00,-5.972846145769940662e+00,-2.217778804736080911e+00
-5.757935191357715254e+00,-2.291276632382178935e+00,3.137213426160758267e+00
-6.257250864955142156e+00,1.800388034113777014e+00,2.270005536250812028e+00
-3.406630034074716207e+00,6.002577109721486615e+00,-5.798798670944452782e-01
3.554876325600230036e+00,-5.681831077701378518e+00,1.732644818044663193e+00
5.663476573940707581e+00,-3.359811363159699305e+00,-1.992894442544053790e+00
-3.693336328463145524e+00,5.394988267673323179e+00,-2.022685882047678962e+00
4.919936581041611134e+00,2.613084485723254247e+00,4.172592655684091767e+00
-3.514963311133455726e+00,6.041373532760774268e+00,-1.043364277055029099e+00
4.854842278186419335e+00,-4.865819532608242071e+00,-2.056535533376556979e-01
6.763312660805297583e+00,4.918256502839808419e-01,-1.089764753770118277e-01
6.173906616190170560e+00,3.085602972252091458e+00,5.875212130332456706e-01
-6.200621277100088591e+00,-1.173835548730121303e+00,3.241674061223595693e+00
-4.592549614942762481e+00,-5.081279879230770291e+00,7.579923243523757348e-01
-1.279424587375869171e-01,-4.465393042816142355e+00,5.329124823124838706e+00
5.852929705352715173e-01,2.818523247168013501e+00,-6.425536647459463069e+00
-6.250201639106101048e+00,-2.573654234699551679e+00,1.608161299348193074e+00
3.307322623595632560e+00,4.365603578748852520e+00,4.463003060654566312e+00
-2.003106174601052558e+00,-6.555631053282765741e+00,1.040412090451060312e+00
-5.465474536499611347e+00,1.456556343259234776e+00,-4.033116253553218122e+00
-3.944383687437083008e+00,4.730487962079346964e+00,3.395519611393515547e+00
3.591910105050063473e-01,1.615097517347060974e+00,-6.760427033119627005e+00
4.268364544503326918e+00,-5.272196111263331098e+00,1.199385652225060994e+00
1.723341534994699664e+00,2.231980342808959517e+00,-6.337735694586922541e+00
-3.816571034335862200e-01,-6.820751990400232501e+00,-1.476601576446858743e+00
-6.097805367110306740e+00,-3.273957174778921786e+00,-3.998930445869596229e-01
-1.787940210608217839e+00,1.322788239657091358e+00,-6.625915426844438016e+00
-4.236297024303518732e+00,5.322515524569855216e+00,2.124485441860032964e+00
-2.029600223194043096e+00,-8.371241659374720756e-01,-6.553836998086718602e+00
-3.799473237591808328e+00,2.288838033724964749e+00,5.424103220003673620e+00
-5.500707269215031836e+00,4.420406605111385723e+00,-7.800308686515983192e-02
-1.735058675209576462e+00,-6.338290228053897302e+00,-2.212222722529220142e+00
2.979985545992715146e+00,-6.251311607153548167e+00,9.874535085189044548e-01
-5.220649144756872140e+00,-2.727154873389666001e+00,-3.443757235558523533e+00
-1.902241054841481205e+00,6.578252128590102998e+00,6.605117198356221797e-01
-2.414982596464109454e-01,5.543959756609705414e-01,-6.971304715026717780e+00
3.839716777656377644e+00,-3.301578102314235874e+00,4.960619153188235764e+00
3.750466619471537477e+00,5.508665215100820411e+00,2.077030725912851761e+00
-3.595378206399489240e+00,-5.934338730275865892e+00,-7.212821743919834994e-01
-2.762204009626035184e+00,3.960724380085290708e+00,4.946300966497561902e+00
-4.454642746566974232e+00,-4.055146475358978542e+00,-3.367545840775411303e+00
-1.835205149612824105e+00,-3.422273463717744768e+00,-5.723891620257377966e+00
1.094602071657066578e+00,4.073845683943833507e+00,-5.546070085845606457e+00
8.565459516024757081e-01,5.799417103325795075e+00,-3.681879172552472657e+00
5.347975826401019095e-01,3.406188204992789625e+00,6.074238634808390991e+00
6.659111018307871666e-01,-4.991728725148722567e+00,4.813321061510282384e+00
-2.560758089396105497e+00,-4.892436487789494137e+00,4.313468430379676199e+00
4.421128597071509070e+00,8.124012546540028135e-01,-5.190933641153228528e+00
6.442086401688057684e+00,4.794734457777624081e-01,-2.661678650260891565e+00
3.758033052789956141e+00,4.027778338345844311e+00,-4.312648428860808458e+00
-2.041107021912566891e-02,1.755467935753036057e+00,6.809029343110276855e+00
5.429872527355363410e+00,-1.891694353424619335e+00,-3.824041309449776715e+00
-6.983119929326148778e+00,-6.243140752844991148e-01,-1.397542121600488851e+00
-2.636281277479590734e+00,-2.710805510570891030e+00,5.936669797621895839e+00
-7.938645958726681107e-01,-5.975554540367868483e+00,3.516563872689209891e+00
-6.226356458175547282e+00,2.767101485476889167e+00,-9.560437617602951521e-01
-4.488215652041612103e+00,3.520976691842601536e+00,3.918005107330142067e+00
2.545749368845628968e+00,6.192132279562015285e+00,-1.900724158608939396e+00
-1.954920819727013148e+00,4.286243664275446008e+00,5.083863927768303981e+00
2.310539266974215522e+00,-3.237161150107451757e+00,-5.762181061615810229e+00
-5.531760554799244334e-01,-4.183400379081583687e+00,5.677980807771980665e+00
1.232576431166068298e+00,-8.529319556046680573e-01,6.696477460174055985e+00
-3.249868291935355646e+00,-1.354917768141487844e-01,-5.998047632676647645e+00
-3.775110924583247485e+00,-4.200909027693401576e+00,4.002030748266891536e+00
1.593668655367978637e+00,1.518437207093405794e+00,-6.496178393254494310e+00
2.983373680061049527e+00,-4.767587699379715049e-01,6.189709600249895693e+00
-4.415627077022192815e+00,2.431427873051215105e+00,4.752696717329703446e+00
-6.106397923874102851e+00,3.166876563274269696e+00,7.282614865679678529e-01
-6.711928676026467366e-01,-5.328377088828437635e+00,-4.665324196183892269e+00
-3.931292887715713835e+00,5.440468415332293084e+00,2.161400303158750980e+00
-5.115242047725857333e+00,-4.184780618097453164e+00,-2.109850541473726526e+00
-4.727583430488635940e+00,3.571732079317184283e+00,-3.631800663737639212e+00
-6.587133197835141729e+00,1.995988572078799095e+00,-9.917120479441213776e-01
4.933941360767076567e+00,-1.920111325307605421e+00,4.491494218201695254e+00
-1.674723322514124035e+00,1.472184995289947285e+00,-6.542893395097499010e+00
5.230268375916206303e+00,-3.552602994910459611e+00,-2.905905759676041811e+00
-3.257914139736942105e-01,-6.054524780167687581e+00,-3.145995320284103336e+00
2.928969077650607211e+00,-6.002254142044254337e+00,2.264436348898932749e+00
3.587237976024302832e-01,-5.670480724554881391e+00,-3.783471229278209780e+00
-4.013909528261343063e+00,5.660766669259730044e+00,4.233133685381784139e-01
-4.999352758284375753e+00,-6.135336523041062806e-01,-4.561539579932346378e+00
5.154743829277842693e+00,-3.781456016237938034e+00,2.313637207446662902e+00
4.139806267079378266e+00,4.285027596503431901e+00,3.587809158458731940e+00
1.932622631253477774e+00,-6.619663247341089907e+00,-1.491096507600485843e+00
2.705347347238448386e+00,1.264460384045693164e+00,-6.271678418265007160e+00
-6.857056773030704377e+00,8.988763238444239523e-01,-2.922472369494645283e-01
-6.168712833021509745e+00,2.773684178983892856e+00,-1.472586032456666638e+00
3.140290202229893968e+00,2.279563246824007905e+00,-5.681445860630032207e+00
1.634968232663795984e-01,-6.863216459703354921e+00,-6.141312725394011407e-01
2.300911540088165896e+00,-5.013591444013231424e+00,4.150322055930969256e+00
3.810715565944445160e+00,-2.286335295511419563e+00,-5.410283961632134542e+00
6.134364065146458600e+00,-2.832556037470814747e+00,-1.123417090103203897e+00
5.828819347790541450e+00,-2.202438195948958288e+00,-3.186082922868549439e+00
-8.255749136161882884e-01,4.829878636650335899e+00,4.827529721614185476e+00
-2.738145167336053731e+00,9.001954235567641849e-01,-6.331208869820112106e+00
1.369626228402390788e+00,4.806580145199308873e+00,4.924277659305915655e+00
-6.287251258697099665e+00,-8.910885498354321754e-01,-2.531883798751831449e+00
-3.023031104227189125e+00,-6.088212870316903391e+00,-1.594110425586141355e+00
-5.839973889551553832e+00,2.630467378991445671e+00,2.558559384944364634e+00
1.939149718740854400e+00,2.247278385056328709e+00,-6.275061125443205157e+00
2.224477993798723130e+00,-2.709473678193708990e-01,6.656814649061087330e+00
6.499003307610092817e-01,1.909954080271640153e+00,-6.685493985013862606e+00
-4.669201033298311820e+00,8.560407098379894109e-01,4.935723004297157601e+00
3.204438055601534607e+00,5.134657812057302095e+00,-3.255737796888261482e+00
-5.893567873182356642e+00,1.233677205625888895e+00,3.703154249500089090e+00
6.126495882891455302e+00,2.918699186159511516e+00,1.715340245449117118e+00
2.024816944776029359e+00,6.026183112080413018e+00,-2.839040382447656441e+00
-4.353303889767936141e+00,4.324710306652557179e+00,3.365418473310020087e+00
4.838713861575816289e-01,-6.865367361727536810e+00,-2.032281112010091706e-01
-4.635706217539507179e+00,6.851497658438963079e-01,5.060691105002738333e+00
1.075275773962259818e+00,-6.806419732700626390e+00,8.652580926329166144e-02
8.623810812875731813e-01,-4.114246282776168329e+00,5.453962320514593287e+00
-1.085604355123431120e+00,-5.498106389945725425e+00,-4.148073925382662175e+00
-5.326366718091456676e+00,3.902741126247152526e+00,-2.353427612717927886e+00
-5.789985097648548518e+00,1.436671403306740924e+00,-3.354565942373993970e+00
9.891649676977807282e-01,-6.525714310733798484e+00,-2.002417920854774991e+00
-6.298853749987783246e+00,1.604675195896542617e+00,-2.598307910523305786e+00
-3.887700815964756806e+00,-2.565343292140924714e+00,-5.204262811399295252e+00
2.606820977217505497e+00,5.888222246188440145e+00,2.468614682782713121e+00
-7.003039983769292043e+00,-3.268127647819583231e-02,6.681678800950507924e-01
-6.125553173190628975e+00,-3.145566790647563060e+00,7.709461570151218135e-01
2.894617738890291059e-01,-6.515944142034610032e+00,2.375559079353677827e+00
-3.640402647360192034e+00,-5.569865499371989159e+00,1.967763697149460755e+00
6.641828653839104923e+00,-1.799092114568778378e+00,1.211581269842405328e+00
-6.563843745102189153e+00,5.201363379784892382e-01,1.983619936910013148e+00
5.553061523160289781e+00,-4.157219656293984045e+00,-2.755613477167577208e-01
-6.452038966454105129e+00,1.261924407032454010e+00,-2.432307110680684836e+00
-3.370836338501473906e-01,-4.231009035816110320e+00,5.563636426559197545e+00
-6.689114533951594055e+00,2.039837104703284276e-01,1.438938320933854431e+00
-2.812955696952004203e+00,-3.893196182337940847e+00,4.850307976094567763e+00
-6.361639104161941560e+00,-1.545806460247181713e+00,-2.361661289827138965e+00
-6.985457648212479498e+00,1.312862583871834410e-01,-4.960383544178258997e-01
6.572660791337469277e+00,-1.802825746417069386e+00,-1.628838495073581250e+00
1.480679314590286344e+00,-5.179856230340262435e+00,-4.485417495671042865e+00
4.311744221085890949e+00,-1.192359351835045045e+00,-5.182380336016764844e+00
-2.148208838997748504e+00,-1.174355784078829013e+00,-6.561739439470711588e+00
6.391792772119552879e+00,8.692231710115971149e-03,2.777616217066710913e+00
-6.735016662472449234e+00,-1.239317080452478459e+00,1.328573187934998456e+00
4.049792101361881613e+00,-5.697017628204602779e+00,3.293256603452466291e-01
5.837863898220478021e+00,-3.102527464669626589e+00,-2.187366098416239968e+00
-6.879626799963427519e-01,6.644926296989057235e+00,1.803721466003297857e+00
5.651270014742717507e+00,-2.743065419795263526e+00,-2.803786603408120026e+00
1.712446640940593068e-01,-4.769971653179558402e+00,5.169447393095859766e+00
-2.424123058674407596e-02,-4.400139338437952574e+00,-5.433938014464843924e+00
1.532475684750004952e+00,-4.647292847405399385e+00,4.879469409962657878e+00
5.552156656537444945e+00,-4.055921226746799668e+00,-1.044176441658615007e+00
-5.852826968513820560e+00,3.737457039524698377e-02,3.665536289316104757e+00
-4.651676484304265280e+00,5.086207018212856035e+00,-3.910823551760107541e-01
4.719588695308594595e+00,-3.584380887046229702e+00,3.656397381434843830e+00
-1.871672482565189588e+00,4.411875495416487603e+00,-5.158524631193911247e+00
-5.990880900117081076e+00,-1.009683083756421462e+00,3.595674212683634074e+00
2.773975026052896364e+00,-6.314578240856072888e+00,1.022073579929830139e-01
3.521614167088869429e+00,5.935837961169956323e+00,5.379486610453494411e-01
-1.541317456432249045e-01,7.082401297326105905e+00,1.852175158216023687e-01
-3.158576458854152058e+00,2.753705832500807027e+00,5.616235958642075587e+00
-1.553962066227327687e+00,4.395400625095470915e+00,5.331905032938820455e+00
5.825582094380330034e+00,-2.200474029565804734e+00,2.930980049604305471e+00
2.253378139460067597e+00,4.110152959597169087e+00,5.198965866131419311e+00
-4.209238821741817738e+00,1.982601785468592448e+00,-5.161170149731553636e+00
-1.665604149407548640e+00,2.165775333791350121e+00,6.343622801317977178e+00
-5.215183236113996479e+00,3.069793956140263624e+00,3.215990013378224432e+00
-5.906463408370633772e+00,-3.033182583722525916e+00,-1.248078420627178220e+00
2.642459779636656680e+00,-5.102715121980276436e+00,-3.935138070488167550e+00
2.637468470617522875e+00,2.444337732595476265e+00,5.813632447237609746e+00
2.129637455840133864e+00,5.064404138798615840e+00,-4.297248955157359163e+00
1.626246860595693233e+00,3.849467307113168424e+00,-5.522041177364948261e+00
-6.143487774616728236e-01,3.173623704111693256e-01,6.800875261488789292e+00
6.597220075461663669e+00,2.027739713810746469e+00,5.703665081617987909e-01
-6.549368838075908528e+00,1.254617179039222985e-01,2.414630324817625517e+00
3.958662980555732958e+00,2.705661727205773470e+00,4.954928899332005088e+00
-5.863311648103251450e+00,-3.780896430135462172e+00,-1.765672338787113715e-01
-6.696218898141618858e+00,-1.237966311367511674e+00,1.047557786500710408e+00
3.761267179302064445e+00,5.776727147321975009e-02,-5.850428633394618494e+00
4.112561096298272822e+00,5.318591903586242786e+00,1.663199996825551752e+00
-3.818503909853032230e+00,2.285034739675063431e+00,-5.428237400999970319e+00
-5.228355651963720874e+00,4.349814563060817818e+00,-7.047840728413554134e-02
-4.833956644717423146e+00,1.841376802277317815e+00,-4.495550487146905638e+00
7.910889635794190466e-01,-1.306786243574431072e+00,6.702065717523947974e+00
-2.671584708949644504e+00,-6.131129732064237725e-01,6.337742402211778980e+00
7.152593142561521067e-02,6.858305116202075169e+00,1.134192997023656169e+00
5.799340164339134240e+00,-3.057643569895970082e+00,-2.021814441327986156e+00
1.581583060517876671e+00,4.838552989068819699e+00,-4.855196168843172622e+00
-3.013281507682742943e-01,-4.858705262471643138e+00,-4.877204303422400855e+00
-2.712053863370834927e-02,6.748349589177537133e+00,1.397143197444930651e+00
-3.210361234016744891e+00,-5.745505869895697337e+00,-2.057838340501292329e+00
1.810538813494435351e+00,1.545155035362632656e+00,-6.494215694071685085e+00
-1.654367033578544310e-01,4.040452022440724988e+00,-5.547152024364708112e+00
-2.190694102782159369e+00,3.769014977075128670e+00,5.381101688376213055e+00
1.682696598867646554e+00,-1.780462604065612853e+00,6.604111833909247053e+00
-1.776148715496802755e+00,4.992928500860089436e+00,4.645241159792599106e+00
-2.658279300406821921e+00,-6.422382045744793544e+00,-8.228502167385005617e-01
-1.097294660966824376e+00,1.692693079258978495e+00,6.688896215081348906e+00
-3.950657273715898921e+00,3.172721707544897907e+00,-4.680359634820108639e+00
5.427555671439614926e+00,3.898223458896888260e+00,-1.979776037718751880e+00
3.961660673351832251e+00,4.373802501218002625e+00,-3.476249875555726732e+00
-1.717743059430274277e+00,-4.649717763575423213e+00,-5.043161974468173270e+00
-1.643229991428107051e-01,-6.751480033328204122e+00,1.951787385864895974e+00
6.191342007201999564e+00,-2.843550358104988351e+00,-1.087138932742891972e+00
3.096331945843750155e+00,5.484335618188046269e+00,2.687347824459463741e+00
6.280258163193420451e+00,1.002720351109430030e+00,2.554735020719971494e+00
6.748673187987175304e+00,6.193955953424705729e-01,4.914571364549653043e-01
2.483458617349135200e-01,5.050039110543047549e-01,-7.079189469585575267e+00
-4.178652313170926114e+00,-4.507930914379249643e+00,-3.210535302186751316e+00
3.025931763676920294e+00,1.648526114587463287e-01,-6.285019720182634551e+00
-3.453802967306686789e+00,1.666276848800823940e+00,5.885133494543373089e+00
-6.666070397146474313e+00,-1.151347786532910034e+00,1.600087534237891296e+00
3.602255057780009206e+00,-4.371704830622121563e+00,3.986158621063244922e+00
3.430025860405477300e-01,-2.529749955798766159e+00,6.422996512277511449e+00
3.865253500492702443e+00,-9.501597335329432514e-01,5.659873335842736886e+00
-1.418438697203203702e+00,-5.073067496827913914e+00,4.559094917141191416e+00
-9.300272361177700509e-01,-5.264791889400563640e+00,-4.366355745194495874e+00
5.044555517700278990e+00,-4.569106698254532972e+00,-2.044557380516578871e+00
2.465198059595684388e+00,2.925599036479851200e+00,5.888996085315455709e+00
-4.914336871068930357e+00,-4.487206385922022811e+00,2.055470530937031359e+00
-3.665405733746230243e+00,-5.642222861645502796e+00,-1.639869751653433294e+00
-5.955877121958474518e+00,2.883041354411962409e+00,-2.514317795906450659e+00
-2.815129152915951671e+00,-3.733080192552824084e+00,5.210241424994529247e+00
1.099905877756448325e+00,6.293886783224580839e+00,-2.433636484078703255e+00
3.312215459208666779e+00,-5.998795172581321999e+00,1.255557716526239487e+00
-3.615655047041694381e+00,-9.807874745785081227e-01,-5.920177885377531979e+00
1.695193824886066514e+00,1.430704395955781361e-01,6.929066833619146770e+00
8.645377792499769898e-01,-6.875101467147475276e+00,1.165832149725188671e+00
5.712390570977007975e+00,1.193311125254644667e+00,-3.557792634723179859e+00
9.986995967970849764e-01,4.748723713479100716e+00,4.916520834596123102e+00
-6.442212425265517517e+00,2.609848344488721050e+00,-4.826031255831773059e-01
4.942362095299530189e+00,-2.276207649024892810e+00,4.388751937012573379e+00
-3.221430976128279999e-01,-2.804844719252596708e+00,-6.410024437083793991e+00
3.861543742152345970e+00,1.571270700026052181e+00,-5.488445182251939336e+00
1.751182414787786357e+00,-5.775428610687103337e+00,-3.359561622433950401e+00
8.348134101550245267e-01,2.283157532985495397e+00,6.410399134433928836e+00
2.586152523517943447e+00,-2.379758428076602428e+00,-5.997514266236592562e+00
4.722391616187469943e+00,4.961429419790281514e+00,8.191670752560678004e-01
3.527211342747889500e+00,5.937975737950518251e+00,5.158721169276636598e-01
-1.195266954840820794e+00,-7.227727556531142461e-02,-6.717446440639193384e+00
-4.664686884879919226e+00,-4.757740615631935732e+00,1.690425524524046486e+00
-4.566286201103306297e+00,-3.190238260554581373e+00,3.881242793222874354e+00
-3.869780836060909834e+00,-2.872725243894818092e-01,5.907214354259514799e+00
6.393751707149992747e+00,2.369270755028883180e+00,1.066791206265229164e+00
-3.902771367941891612e+00,-4.731572698485849493e+00,2.941756355843497150e+00
-3.621517081057669341e+00,1.726946698583103346e-01,5.943872604585777708e+00
-1.065190510033588778e+00,-2.107797065982250029e+00,6.496303865417580425e+00
4.791225366923728579e+00,-1.368136235132193790e-01,5.037372892013764591e+00
-4.839554417460662172e+00,-5.170179054755414949e-01,-4.926515131800942804e+00
-3.938616485072419682e+00,5.258732743304488366e+00,-2.098842047296808122e+00
2.663856536613624648e+00,6.208912399233769364e+00,-1.873404531074403412e+00
6.173680578241609596e-02,-6.878513006166580901e+00,1.581202111755704687e+00
2.953796844595261817e+00,6.304847196193628989e+00,9.324113285818842745e-02
1.166626725985996593e+00,-6.604996803879598311e+00,-1.597894882262331784e+00
3.753637025116261849e+00,3.989238469801643650e-01,-5.924194201528772297e+00
-4.382468258254935023e+00,-3.282647205703808968e+00,-4.425430796036441627e+00
5.902567938712469875e+00,-3.609398479829146300e+00,-5.667630987904008766e-01
1.477991507051334974e+00,-4.983021183101470797e+00,-4.664452761903576494e+00
-1.660108695159357106e+00,-1.489727831336134400e+00,6.561176621078673499e+00
3.679520687764295861e+00,5.808259761107295027e+00,1.253524567609522133e+00
-1.095532512254392854e+00,6.451586558203904254e+00,-2.322213966823786446e+00
-5.138402969928709929e+00,-4.717039403697255828e+00,-5.681855452739755785e-01
-4.829568413458105725e-01,6.974475826192310990e+00,7.002215905111627281e-01
-2.152088459276642496e+00,-1.690682302306913298e+00,6.508557296222286404e+00
2.707367763642495984e+00,2.261298325569949697e+00,5.960071091994657344e+00
1.187742514660862225e+00,6.035327798245072373e+00,-3.178493028874154636e+00
3.145570990510248688e+00,-1.663154722116199302e+00,5.819020928710191498e+00
-2.350796952702319587e+00,2.151743280970239702e+00,6.196154212644102266e+00
5.541860775619458224e+00,-2.506062803648063664e+00,-3.056382724288538633e+00
-9.980813397351245841e-01,-5.684245693244545095e+00,3.916286320888530792e+00
-4.001178313394719410e+00,-4.136718709587591469e+00,3.801187084706750152e+00
6.568825849034341857e+00,-2.772285926532059783e-02,2.187607447509624770e+00
4.687411035999401454e-01,6.690460454928111922e+00,1.802178278101133957e+00
4.612419339821785869e+00,-2.724089406217084619e+00,4.599637235913222710e+00
1.329315474580488710e+00,-1.842452506948645485e+00,6.615400607258518306e+00
-5.108062765094591562e+00,-1.375072491679026232e+00,4.517169956438603862e+00
-5.788070940254536723e+00,1.650016276181863528e+00,-3.423676435711712873e+00
3.865970832204938201e+00,-5.118353118372804822e+00,-2.362625707673945641e+00
4.104173303568328990e+00,5.216390972179940633e+00,1.603840190863877968e+00
-6.800516985174752449e+00,-8.466653606882088567e-01,-4.415543668259424015e-01
-5.832032686173413971e+00,-1.746963407991349859e+00,-3.433061165193363795e+00
-2.172719958507659754e+00,-3.971506988385607784e+00,5.207345161833313973e+00
4.915841335643401422e+00,2.644359136591424075e+00,-4.212735528570906496e+00
6.070453912470408220e-01,2.241554003463691824e+00,-6.527101033501587324e+00
-5.209768121397857499e+00,1.964911745210161653e+00,4.247910772743689556e+00
