8.194238856801979054e+00,4.794090499708852704e+00,2.965525866700122304e+00
1.904356414501751749e+00,-8.667164614392749655e+00,4.379614666990920391e+00
-4.275288647303810308e+00,-2.627299952938673577e+00,8.529519621988033151e+00
-1.585794448133028389e+00,-4.840511803395692425e+00,-8.586314903708032631e+00
5.860838448407965195e+00,-7.058561841062044095e+00,3.753592907599358153e+00
4.835519120154116557e+00,-6.758647938320786253e+00,5.115781968951727876e+00
7.611508800583393963e+00,-5.561146836734966570e+00,-2.376038190544262463e+00
-9.223620245991920541e+00,-1.974369747478652015e-01,-3.110803512015689609e+00
-2.296730333597994722e+00,-8.713490236244284759e+00,-4.272880730708410901e+00
9.142823212948236744e+00,-8.484348201771138021e-01,3.690612588681316808e+00
5.408480324860806654e+00,7.383314863703160036e+00,-3.775384264696931780e+00
-3.595517283862735169e+00,-7.685143047754363188e+00,5.081280697301445493e+00
1.299527535782623477e+00,-9.495285682293596707e+00,-2.454909552285978069e+00
-2.093947358086631017e+00,-6.869309049103041964e+00,-6.635124808434935240e+00
1.248008208755602968e-03,-6.367511479218254777e+00,7.429557002470017935e+00
6.963344972838000579e+00,-3.324585242216493430e+00,6.627966693529330655e+00
-2.022163650475237440e-01,8.887751936782484208e+00,4.344489648391948400e+00
2.640075620360614383e+00,-3.073655620403429101e+00,8.972866929574850658e+00
-8.350992027458723044e+00,5.282183696074679524e+00,5.632959073632026054e-02
-8.226410890715625257e+00,-3.179478533392739781e+00,4.528739114834292145e+00
-5.299439236221245686e+00,6.162613204084963492e+00,-5.335849533142590140e+00
4.964414865093912610e+00,2.847560447031003861e+00,7.945509264732063315e+00
1.201483267835626867e-01,-4.831721675075291600e+00,-8.665928022543326392e+00
9.844381503636165931e+00,-1.167233688760745736e+00,1.050029476057057432e+00
7.237659691298493847e+00,3.500895059638664542e+00,5.830067586518617340e+00
3.893506766570528743e+00,-5.183525334307265808e+00,-7.327340139138863506e+00
-2.343683959701723385e+00,-6.895558415909024852e+00,-7.126004367028619946e+00
8.316752172813389521e+00,3.824722910977275792e+00,-3.606760970859100635e+00
-2.256510912948540781e+00,-5.243160871208051965e+00,8.041684519403059284e+00
3.896777128696491843e+00,7.483649806127381510e+00,-5.177278915428417783e+00
5.804138663601980941e-01,-9.972743505926572993e+00,2.015767667698770138e-01
8.754075448805331838e-01,6.891357114595667355e+00,-7.003709304114558165e+00
2.698938753306096228e+00,8.611000174885882430e+00,4.027982696855448630e+00
-7.241587668001917777e+00,-5.765235121206086610e+00,-3.962467968833082832e+00
-6.236521773157909898e+00,-6.556324533907154084e+00,-3.961797185202992289e+00
4.645819613532374603e+00,-3.797563591435661134e+00,7.860307177406353318e+00
-1.969150277213228106e+00,5.764036832530499588e+00,7.892607398886960723e+00
8.702748342220363753e+00,1.662392610739695131e+00,4.147494302518877518e+00
4.925419742951202551e+00,-5.939789106545126929e-01,-8.611281007146340372e+00
-2.655561998795337164e+00,9.214982545232684785e+00,-2.195792704048009192e+00
2.360464169784949884e-01,-2.103114548843022735e+00,-9.680501453161388881e+00
7.854089974981024902e+00,-6.315639401874312275e-01,6.036316971849434942e+00
-7.672245953353597159e+00,-1.625607561241262822e+00,-5.810293746544154203e+00
8.136776015899139125e+00,3.221128958205711434e+00,4.635607589247332072e+00
-3.301088438150525661e+00,2.480311669208075942e-01,-9.157058835512270178e+00
-1.769086315497373052e+00,-3.065400453017113946e+00,-9.199346211950636842e+00
9.405893563201672691e+00,-3.143460560697505457e+00,2.271967587493687601e-01
8.058334042044718259e+00,1.320695754149776135e+00,-5.483910140480070972e+00
9.736364162098652741e+00,1.895478955370105245e+00,-1.907483082290195031e-01
1.046553755341711245e+00,-7.367290836529077902e-01,-9.683491187939422318e+00
-2.876434048162227253e+00,2.328425954017104615e+00,9.017040474399591332e+00
4.096369286891556882e+00,3.982091202995648782e+00,-8.150906783420612811e+00
-1.181335483608025871e+00,-5.606147015840178049e+00,-8.138364259050115734e+00
9.565637572361888274e+00,1.003200614670609170e+00,-2.522915970959403786e+00
-3.456357249789582919e+00,8.025531634041211504e+00,-4.859948994064463790e+00
-2.969570092364200331e+00,1.400189977623558457e+00,9.175512398536509906e+00
-6.898291900193591175e+00,-6.048794905364590413e+00,3.852621505414986824e+00
-6.558790493957122436e+00,-4.886855559107313063e+00,-5.398182186249617764e+00
-3.881284338720848659e+00,9.121154714855636669e+00,7.331724203795429995e-01
-5.084693276031207354e+00,6.255384648330092112e+00,5.822917309381443474e+00
5.970326797940348484e+00,-1.461890139498949193e+00,7.785281392789181076e+00
8.532673713345285904e+00,-5.106164694045736141e+00,-5.298283547677220540e-01
-1.925672139522409232e+00,3.978969280173267453e+00,8.988091330192034434e+00
-7.453363832355971219e+00,9.732841973829297055e-01,-6.573916813474182774e+00
-3.672291036327073876e-01,9.014072016486544214e+00,-4.271443629350891058e+00
2.714568557865934650e+00,7.991540926079157892e+00,5.212113518765442599e+00
9.903094903088337730e+00,4.028985128460076393e-01,3.347647537609725887e-01
-9.167562899923154873e+00,-2.014035282271249283e+00,-2.927453733287670889e+00
4.856717167266888069e+00,-8.486463538628255421e+00,6.093913428428545664e-01
7.082820763860362412e+00,-6.958433991957309495e+00,6.778929064440066821e-01
7.743384444322360061e+00,-5.465379571402114500e+00,2.668047479401995936e+00
1.621987916775573746e+00,-8.797951175206115693e+00,4.273345818927764661e+00
1.210976014853505367e+00,6.268500971033174274e+00,7.666393172287063962e+00
-8.123680449808635018e+00,1.634704937391098900e+00,5.023633237214430558e+00
2.559654686283397762e+00,9.621666726295135419e+00,4.124313241395146101e-01
2.638097329831103455e+00,-2.244616620760255810e+00,-9.405887931933094137e+00
1.798460139395271495e-01,3.567502956581559470e+00,9.249724620990326329e+00
8.658199875044685356e+00,4.715460602647722155e+00,-6.769694601291635916e-01
-1.314626051322127509e+00,-1.798547532341322253e+00,-9.556197056918614763e+00
-1.670362467023312592e+00,6.930783767432560083e+00,6.814922974206890416e+00
-7.785036543348657911e-01,3.546260738134377810e+00,-9.196003725799377193e+00
1.572758398828177251e+00,-6.560026949166011256e+00,7.254309713146382066e+00
-3.443010032438420520e+00,-8.239750515804837860e+00,-4.473407648924139224e+00
-9.907695122869455417e+00,7.165449719445724508e-01,-9.937648406979365800e-01
-6.894093004177917372e+00,6.032509723467540219e+00,3.520366523617248333e+00
4.239945687285618936e-01,-6.556864484357642908e+00,7.507914231019417350e+00
-5.254973605839200701e+00,-5.319569330869679646e+00,-6.301051541857165539e+00
-6.275539271054140222e+00,-1.231450465999631039e+00,7.660990568681692814e+00
6.674432913395119016e+00,7.174998687802865760e+00,-1.679158117733176026e+00
3.449187555011393513e+00,-4.697462206880120839e+00,7.909305520185731631e+00
7.627553895879811918e+00,5.300711599598964874e+00,3.647745109836989741e+00
-5.174520829839398317e+00,1.832761942205466954e-01,8.425961186387675994e+00
4.262284351328543330e+00,-6.600976165005365992e+00,5.747138971971414101e+00
-7.177575099452293550e+00,5.195012734996437231e+00,4.449793334156114000e+00
1.242278486366243107e-01,-6.962083900297220573e+00,-7.233255712002542026e+00
-4.099612846101127417e+00,1.687407655046011090e+00,8.800539065047777498e+00
1.265398187963596932e+00,-7.298645497504105073e+00,6.535390835293923395e+00
-6.197326744140187138e+00,5.793095636752948252e+00,-5.068008872311316360e+00
4.604080598588365270e+00,-8.140761929988052259e+00,-2.945080682162687591e+00
-8.359817127940321058e+00,4.267731369873080993e+00,-2.982441051244363095e+00
-9.185078381187945951e+00,3.068366623024878503e+00,1.679756242538493094e+00
9.128258774184697444e+00,-1.196768219889347229e+00,3.532424714661948517e+00
5.026476179356027529e+00,-7.049703857345751778e+00,-4.570552259924373750e+00
8.218078537270962158e+00,5.324870005165669440e+00,2.036366018831462288e+00
5.281458519838748700e+00,-6.061336124496992994e+00,-5.565104898610897521e+00
1.797317732436876536e+00,9.425887431094976066e+00,2.628510631867600367e+00
-9.690748232988259048e+00,-1.403162015673399488e+00,-3.955589939915366560e-01
-3.735736032811018070e+00,9.256445722110553387e-01,9.293201694421183490e+00
1.935653564831883333e+00,8.255970100414542046e+00,5.440074968675159717e+00
6.404775837561154539e+00,-4.036330659200952908e+00,6.315227106285822067e+00
4.869844406116095925e+00,-7.776443069390906793e+00,-3.717027197883857603e+00
7.551336213840740719e+00,-5.450083498538240256e+00,3.723341735300111477e+00
1.644154964838065114e+00,-2.533490335065617050e+00,-9.243299492086297420e+00
8.274730307209232194e+00,2.963663040414269201e+00,4.159578672466869520e+00
-8.786251903694958898e+00,-8.113901235690544889e-01,-4.438640836049122740e+00
-2.509386178941714007e+00,-1.414129840077263500e+00,9.472297570791285537e+00
7.298996474525087486e+00,4.027151013185124029e+00,5.115534367270525351e+00
5.373556966568036053e-01,6.859644013825125342e+00,7.342331956729538867e+00
-9.424771854337685717e-01,9.366470735880033871e+00,-3.353879929564528961e+00
-5.551200295732654943e+00,-7.006797116702464301e+00,4.331910086922166947e+00
2.872414445504093194e+00,5.918555729806609378e-01,-9.487392257700294707e+00
-2.775426068689065051e+00,-9.315827975210726919e+00,-1.320432445261214616e+00
-6.124621079094248799e+00,5.547666155387558362e+00,-5.516100608620698509e+00
4.851225003359545873e+00,6.760210267680001550e+00,4.830952008403336606e+00
-1.965323163508962523e+00,5.875857916219155541e+00,-7.819669937166404239e+00
1.967166145395822019e+00,-8.835657512157023774e+00,3.887241766057157655e+00
-9.741118766867668199e+00,-1.880337867657760620e-01,-1.931181906722097552e-01
9.285037402452857691e+00,-3.005364268098865477e+00,1.440300968181650765e+00
-6.670663752606587060e+00,-4.527861458877791456e+00,5.564178121525467979e+00
4.003911537932420828e+00,5.638676973275987159e+00,-7.052334639478656797e+00
7.423512548279119549e+00,5.748443692158180518e+00,-3.006354689488404563e+00
9.790411186060506976e-01,9.757411146825971215e+00,-8.771898829897200045e-01
-4.272006331249926347e+00,8.462572403493195949e+00,-2.855333541807127506e+00
-7.343888967623925623e+00,-6.430955438153016956e+00,-1.034919358257492261e+00
4.938313215204648277e-01,-8.416151557127040661e+00,5.006407410654875711e+00
-2.439569275859974073e+00,1.843009346421536021e+00,9.406141337080383025e+00
8.659620328992170712e+00,-2.966615273432222200e+00,3.957208516696918643e+00
-2.179774439645321971e-01,9.914951262492149198e+00,3.401479198934637821e-02
7.649001427331287850e+00,-6.418215507074779502e+00,-1.144451242330149832e+00
1.241624132879465714e+00,9.622375550483596163e-01,9.776344743686319561e+00
-7.372044272807048770e+00,5.502839117607127406e+00,-3.635664675255342537e+00
-8.577120430002798557e+00,1.359664826989563036e+00,-4.798718341491800210e+00
-4.281982312413340486e-01,9.538576977051700823e+00,-2.671338467991777321e+00
-3.018856230704224153e+00,-7.901089771645862569e+00,5.438567611241412969e+00
6.288000503215315895e+00,5.832335197031720542e-01,7.834370912119672958e+00
-2.598307584036320117e-01,-6.809591193419194610e+00,7.311208180653770761e+00
7.544072368628176761e+00,-2.845226320911648621e+00,5.548775070656216890e+00
-3.897485430464211031e+00,8.973374226247267771e+00,-9.921996189134291155e-01
6.298587907583200085e+00,-6.464504680290655614e+00,-3.883721064846598292e+00
-6.668171834957169197e-02,-6.474612945881462522e+00,-7.300751178393972474e+00
-9.735753478287918483e+00,2.035552323660271001e-01,2.726983532175657921e+00
-1.020311947565986754e+00,-9.836755325591560961e+00,-2.055235496110240923e-01
-7.002350374938452582e+00,6.560989790114173381e+00,2.581041259514521791e+00
7.654153886383201488e+00,-4.858148007842891580e+00,-3.925698104557591162e+00
-7.699607251752385473e+00,3.614822839550291267e+00,-5.115908782011766576e+00
-3.053617982830365118e+00,-2.656807946418933142e+00,-8.898565795384582700e+00
4.012903122550934398e+00,9.012308723184721870e+00,1.254611268219777864e+00
8.504653663939008013e+00,-3.621902796013795278e+00,3.666087303414900855e+00
2.973685664144102070e+00,-9.458922085449406936e+00,8.642741046957844731e-01
3.390494293406173809e-01,-9.341421252880088844e+00,-3.000351842938500990e+00
1.804336032541762821e-02,-2.219896028710708791e+00,-9.750495241970714488e+00
5.990186505267579342e+00,7.714618781267211567e+00,-3.127016724462888808e-01
-3.079003669887075301e+00,7.431514662293731810e+00,5.799134876557102913e+00
4.154116080597020755e+00,4.013603077089015869e+00,-8.042541573321916104e+00
-4.162032269303391985e+00,8.668941104566679420e-03,8.892089658840712119e+00
-8.426050389690768583e+00,4.899733031176527476e+00,-8.463742699229196420e-01
-7.878300811069466114e+00,4.890172519005357432e-01,-6.028835343777237732e+00
8.684103078185538394e+00,-5.037843210344365552e+00,5.773083301199400941e-01
-3.782184470124382858e-01,-2.647534208032797043e+00,-9.513820305592963322e+00
-2.074871471248300736e+00,1.996285908210744697e+00,-9.610610092582490438e+00
3.708357228813790485e+00,-1.184477715014669030e+00,-9.076240548789686002e+00
-4.748374532115681390e+00,3.485499199684960470e+00,7.697503016464103176e+00
1.310288819895407908e+00,-4.428778736976002328e+00,8.636860586650460192e+00
6.041705078923417460e+00,-6.774221420412758654e+00,-4.012364246106254306e+00
7.763360990028204789e+00,-3.247338074674247732e+00,-4.774255059805740942e+00
-3.050579712143949518e+00,1.752653985146593874e-01,9.395349049998049651e+00
-8.215512368401133969e+00,-2.817502411542440299e+00,-4.344019859941530726e+00
-8.238580819763678065e+00,-2.585132435273638674e+00,-4.882230517696857675e+00
4.604549515323688169e+00,1.695055107509445547e+00,-8.401915036559172378e+00
-6.471068881463798661e+00,5.971439623221355575e+00,-4.536540242952875168e+00
-9.147843649496113727e+00,-2.270422217296248490e+00,2.724050876369402907e+00
-4.221917019556173933e+00,-1.671305499299540420e+00,8.705827934752656816e+00
-7.752753438492792526e+00,6.193593383284690113e+00,8.935644100192831063e-01
8.247479639232064841e+00,5.614920400304273862e+00,1.217382871309649284e+00
7.040901639543114321e+00,-5.294175472688848139e+00,-4.465576842558446558e+00
-6.156848306043106511e+00,2.584451039818237206e+00,-7.488421329719349373e+00
-6.851712442308453888e+00,-1.730294430952482587e+00,7.287577602381601238e+00
4.823923561797733406e+00,-8.716971471667990912e+00,-6.816060175994926862e-01
8.051104930942054594e+00,-5.769784599329141450e+00,1.905271837834643378e-01
-6.615020528541712075e+00,2.907848179335239092e+00,-6.735775478266631033e+00
2.859358542925616309e+00,-8.326014147641144447e+00,4.665469920750400235e+00
6.314266660647549045e+00,2.588464659266915824e+00,-7.322202565535052443e+00
-9.391590272706407561e+00,2.287671758285490853e+00,2.551017249951287091e+00
9.981179997737379850e+00,-1.335556959002565325e+00,6.543822283675235774e-01
-8.411043150766266407e+00,-2.482385936817453675e+00,4.903270853622213821e+00
6.385526908774256327e+00,-1.841945089107803524e+00,7.336957220328074847e+00
-9.573922344450775057e+00,-2.275693498861029784e+00,1.329576264081003545e-01
5.293737732994072687e+00,6.280707586114135488e+00,5.749419429656515312e+00
-9.503628217055407612e-01,9.741596168303569669e+00,-1.704626736285684840e+00
2.988384232425902454e+00,8.216848390102732935e+00,-4.711076994227067161e+00
-6.436745919894449663e+00,-7.012761924771501398e+00,2.506558060281011802e+00
4.371471385837594426e+00,-4.348606313424292935e+00,7.869468216280236739e+00
1.239736970631666768e+00,2.586744045644797652e+00,-9.558721450638635986e+00
-2.700543405316642165e-01,-9.632135997564347241e-01,-9.965210343096101653e+00
-3.183432151027290047e-01,-4.179043416734150362e+00,-9.080879136757786796e+00
-4.067638445759806376e-01,-8.778650915237760088e+00,-4.178057613596398490e+00
-7.378554132829890477e+00,4.101284581924423911e+00,5.320663668960516901e+00
-1.950107312446244912e+00,7.946629623716970237e+00,-5.625646397708012891e+00
1.150158489604252487e+00,8.230492192845639821e+00,5.458893964408535915e+00
-2.606127265359086120e+00,-8.839555531812749223e+00,-3.079163229685876413e+00
-5.580694802776307917e+00,8.140414084787220617e+00,7.395994573396826866e-01
-6.081187462754862771e+00,-1.468373852681852387e+00,7.503349024223440189e+00
4.938702413934071167e+00,-2.902522252905393341e+00,-8.096804416017731043e+00
-5.961078721425168148e+00,-7.053601069964120285e+00,-3.336575597751216371e+00
-7.351142611445456332e+00,-4.391109423375588960e+00,4.918951167425685611e+00
3.060901971175115088e-01,9.770869772180473589e+00,2.352815077344980299e+00
-5.626730228781501530e+00,-6.611840489374909424e+00,4.786577151738279134e+00
1.458611808915093455e+00,-9.427061201399700607e+00,2.884052183399461455e+00
-3.787201804724404375e-01,-5.202825954872978720e+00,-8.413510356260387013e+00
1.937308442034255673e+00,4.790709492854005269e+00,-8.416844014866512680e+00
7.868742790642868634e-01,-1.027827819619753225e+00,-9.739163850887026186e+00
4.449916424662204939e+00,-2.254502445369516384e+00,8.595505053783542238e+00
-7.290558800413498020e+00,6.412336119854443517e+00,1.643636901797859373e+00
3.191800193194090696e+00,-8.584134651301303265e+00,4.037231521086899200e+00
-8.624084006165055882e+00,4.522884917257544046e+00,-2.078378941199292118e+00
-5.406781846387634261e+00,8.253893989659971453e+00,5.512752595302234937e-01
-7.937658336732939190e+00,2.133440616031706760e+00,-5.584403371379350389e+00
-7.848940930150503092e+00,3.376190605215198204e+00,-5.201529401905547800e+00
7.951535783662231793e+00,-3.380746883341825271e+00,4.776377858164908119e+00
2.983885986236309407e+00,-8.559082253927527972e+00,-3.934723318991171670e+00
1.639849956859592339e+00,-1.408932938933798118e+00,-9.567927421389432752e+00
-4.101308529862547125e+00,-1.129447571583778315e-01,-9.020503943447128137e+00
-9.480420090923338705e+00,3.033614016713598094e+00,1.022557691961351489e+00
7.251138077881672750e+00,-5.854900691850419392e+00,-3.432935531006459762e+00
6.158218650959851992e+00,6.773155738830874739e+00,3.773817604741039222e+00
-6.276112149358404224e+00,-5.383692357496431491e+00,-5.367069327086048780e+00
6.408838047882596811e+00,5.359015851074254932e+00,-4.805893184358211556e+00
5.282360075624541018e+00,5.212278274206847861e+00,6.593902513006010935e+00
9.590907264549188849e-01,-1.465202893678503981e+00,-9.570101278663351252e+00
-6.191502088520797642e+00,-7.466920324337767312e+00,2.178839772744839642e+00
4.383140077858239003e+00,8.145686526824659879e+00,3.409564283986093791e+00
-1.025980973709560651e+00,-5.697661725233499119e+00,8.116160335492178746e+00
-1.757346956784715530e+00,-7.486342200806597624e+00,6.064677816010117795e+00
8.313771941034836743e+00,4.715795446862926177e+00,-1.858145913017540618e+00
-9.348624745492735144e+00,-3.487136430319891511e-01,2.907001254530638512e+00
-5.287209895512051006e+00,-2.242019058754156635e+00,8.010632377815728233e+00
-1.355093887671865227e+00,8.852283780981522909e+00,-4.155125848904814845e+00
-3.648627118676112668e-01,6.719511863751443492e+00,-7.427935632513088748e+00
3.014339066830211689e+00,-9.084556542400463286e+00,2.571093448631021960e+00
3.092826243190153424e+00,-6.124674051153098375e+00,-6.858379769086950795e+00
9.553051099475602825e+00,-1.972626648482465717e+00,1.897206128984308071e+00
-6.352559459103498618e+00,6.681706940760597568e+00,4.003239865010744580e+00
1.603957293520492877e+00,7.721287115423853820e+00,-6.017050346399382299e+00
5.592648042277862608e+00,-8.080795488628080392e+00,2.409694797910147956e-01
-7.137015698792270157e+00,5.613781422999485571e+00,-3.665941171886731187e+00
-4.514695758040416784e+00,2.434404379141098529e-01,-8.780247918943835828e+00
8.723973519706019530e+00,-1.586380571921490290e+00,4.079406586767193588e+00
9.224725824426750265e+00,3.292623205201976155e+00,3.896002016198061302e-01
-6.873428547004317046e+00,3.277428461196314036e+00,-6.160730100750776650e+00
-3.843257448408316179e+00,-4.827418858171274252e+00,-7.765609652836100274e+00
-6.494380929067115282e+00,2.371006568433498440e+00,-7.235678069581166660e+00
4.301887626600203518e+00,8.899083023332575948e+00,-1.196509055750553774e+00
6.106236701462478322e+00,-2.701044935168083416e+00,7.005531603494763893e+00
-5.865639161751620811e+00,6.392286079077775796e+00,-4.832875359171021401e+00
-4.911495400291424396e+00,7.240245084282011412e+00,4.801566469075734922e+00
-2.251237513965865522e-01,9.319214999831906709e+00,-3.414192091897863879e+00
-5.937459146731796977e+00,-4.384221035640348596e+00,6.766266153905175607e+00
-5.939459629181675915e+00,1.341536967971461491e+00,7.808128557968942118e+00
-8.501723371438008048e-01,-9.673969651319216823e+00,1.835267012751363724e-01
-2.476142900613335307e+00,-3.062737192557424493e+00,8.957581410675718558e+00
-8.914154775478952075e+00,-9.435524994862135584e-01,3.855404616832143638e+00
1.901188090063944847e+00,7.902342232296448721e-01,9.561717647599829561e+00
-4.533223143289958124e+00,5.568443023275802872e+00,-6.732456205081670753e+00
-9.752572085131674839e+00,-5.657218634558149883e-01,-1.622376487074264517e+00
-1.681731621673768107e+00,-6.239937469640834067e+00,7.672969900011717748e+00
-5.819720337582781511e+00,7.582966216267418957e+00,2.555199723278752000e+00
2.533780070043922361e+00,-8.720786091956830077e+00,-3.785657081902923160e+00
-2.466050553045854077e+00,-7.530099728216386623e+00,5.802130184201889307e+00
5.073141689250516784e+00,-3.339928865515618739e+00,-7.730056399202880790e+00
1.193060507520056213e+00,-7.679561156089946827e+00,-5.989308513057244987e+00
5.456638870122207940e+00,-7.826714884413030759e+00,1.976464249206234758e+00
-5.641667258613608738e+00,-6.519909150757048799e+00,-5.237938825731467851e+00
-3.429593870518071963e+00,-9.380100281499023751e+00,-1.714087039078043162e+00
2.361251495374707243e+00,-7.662731355040079073e+00,-5.900778779812750230e+00
2.277319241053391341e+00,-9.349238968030553210e+00,-2.478338729702132426e+00
9.508443771986989645e+00,-1.357860581478920192e+00,-2.946512988018167967e+00
7.960732178130442982e+00,4.352485900811454478e+00,4.238876672222644970e+00
4.917033821753491907e+00,-4.420888937996007684e+00,7.291405048515135157e+00
-6.592038416373001475e+00,6.512333636228314404e+00,3.168198440935947158e+00
6.663807936976750668e+00,7.300398636121704143e+00,1.207845161066463557e+00
-3.394530341639307558e+00,-3.000569804295921017e+00,-8.586881569365029776e+00
-8.220820690676273301e+00,-5.359203635622437289e+00,-1.562474190734022939e+00
1.630908372144433072e+00,9.739135535780018671e+00,1.311394349968093342e+00
4.853087818383597707e+00,-2.506044599970377096e+00,-8.264724941637510369e+00
-3.926489735345634724e+00,-8.935400346315667264e+00,7.347040007879030998e-01
-4.725421503999919004e+00,3.844458231039437734e+00,7.964585379826176315e+00
-5.277679031798215625e+00,8.146356301589202431e+00,-1.125171662685441776e+00
-6.197808944621984395e+00,5.707015291002456969e+00,-5.194143028459074607e+00
-7.774332697932799796e+00,4.706412044047081800e+00,-3.323109541549243762e+00
8.451816219062129321e+00,3.784691604250375097e+00,3.421312886001518283e+00
-5.954205623493466604e+00,5.520226783786995384e+00,5.399926882983666410e+00
-2.250153268364267323e+00,6.306173580171292592e+00,7.421919240226577230e+00
8.354717389626015844e+00,-4.198739389381622722e+00,2.783954240975788696e+00
-9.774122048653980599e+00,-2.460609338743383390e+00,6.178730136171679543e-01
-4.695868793048844303e+00,4.424595698515568998e+00,7.650404279361104898e+00
-9.813106227580846053e+00,7.465887881645667523e-01,-1.659456675402262826e+00
-2.092074455570271496e+00,7.678621511836386304e+00,5.868142460818019934e+00
6.751411008612700826e+00,-5.637529814935599681e+00,4.264968186223506486e+00
7.237036167577767243e-01,-9.465225318097834517e+00,2.907540482120858361e+00
-7.424212771538014621e+00,-5.384304743563203210e+00,3.743437017921996901e+00
1.843419751886582691e+00,-7.152452354790191258e+00,-6.574078886527127352e+00
3.371177188071679875e+00,-9.217048746984628949e+00,1.639750562314661098e+00
-1.758120222727681981e+00,9.498628867451103019e+00,-2.050386526627840045e+00
-3.508351351730620848e+00,7.585831042545703617e+00,5.217108754710676699e+00
-9.663159597668107281e+00,2.042821077144338915e+00,-2.155992045867289042e-01
3.437658447129862682e-01,7.597059408633136890e+00,-6.336447793260578720e+00
3.385346018931747913e+00,-5.390744329250911626e+00,7.415263862217794433e+00
-1.854663159349108970e+00,9.541918206624428578e+00,-2.446551130523004325e+00
1.282562453730033969e+00,5.227872193360657782e+00,-8.522943496196594637e+00
-5.180876892695608582e+00,-7.650316046382605428e+00,3.566942508198486461e+00
-3.560390629280500097e+00,8.793229326528779310e+00,2.173293534289367113e+00
9.512260531930202823e-02,6.068151110031455353e+00,-7.931384126981840588e+00
7.543716041880938583e+00,-5.809592496270385098e+00,-1.867684153012928672e+00
9.714392811355757829e+00,1.149623492413866188e+00,-1.935984928374191227e+00
-3.681159219077742240e+00,4.710395229466740830e+00,7.882334896814804814e+00
1.480331868636487469e+00,-9.010524934684248421e+00,-3.573298651818125116e+00
-3.513927563230899942e+00,2.269020729549576565e+00,8.968988745179265365e+00
8.106949634511217084e+00,-2.841831395728124932e+00,-5.093497072932514413e+00
2.556296697491348802e+00,2.075738577376565530e+00,9.360410673938289960e+00
6.500353519977680961e+00,-4.567366926509719427e+00,6.293947399400219744e+00
2.985479223053002951e+00,-2.606154122844987597e+00,-8.987215529862258023e+00
-4.772729922238411193e-01,2.500889033350439217e+00,-9.655874748422073495e+00
4.162939367458668438e-01,4.496856751385801765e+00,-8.760921045190789513e+00
4.463365074950423228e+00,-8.545718365484434642e+00,-1.273086367842900080e+00
-6.646959748006905144e+00,6.796076608361514282e+00,-1.964549993734595601e+00
-4.365754162204852129e+00,4.160240315436041669e+00,-7.865284909364549826e+00
7.881069832751324888e+00,-3.227166443202863721e+00,-5.093843195452994799e+00
-8.998048021776451577e+00,-3.825579300230454560e+00,-1.024566920833643202e+00
1.398035897374495962e+00,7.021705647093809510e+00,-6.729521725839532564e+00
-1.483453989878025459e+00,-2.867404002716298916e-01,-9.827790828120798849e+00
7.022245243493298261e+00,6.636885299667593330e+00,2.612603054534888614e+00
1.304334428436660476e+00,9.817659454888831405e+00,-2.398754305259972464e-01
2.150452335964747608e+00,3.782632500536672548e+00,-8.884863417018019405e+00
5.447587517543223790e+00,-8.122837623858563560e+00,1.370089552329480043e+00
2.793260575065310558e+00,-4.694752994863512718e+00,-8.190331713975062655e+00
-7.651571781074984813e+00,-3.964574904714306847e+00,-4.751846944173608200e+00
4.909248601649951915e+00,-7.445615865077335194e+00,3.967651640706244986e+00
8.425108114908741896e+00,4.884886688116568010e+00,-2.355084216339230707e+00
6.991587781427925030e+00,-2.406803132098370490e+00,-6.660345579671794525e+00
-5.410268753035315292e+00,-8.367334387445277244e+00,8.491815984093949998e-01
2.437780315835821998e+00,-4.432543783093789713e+00,8.474739461162872800e+00
-2.213026513230506254e+00,9.326998572501063123e+00,2.646326853925510925e+00
-8.369835374647964787e-01,-2.925118249798771775e+00,9.478946515904789649e+00
-3.692735796446238589e-02,2.339325792349518096e+00,-9.721226307028654645e+00
2.740160736723898927e-01,4.357098483300323011e+00,9.100153401610297621e+00
1.052180096000042975e-01,9.840994065632536092e+00,8.765251137838446782e-01
6.039097396959670405e+00,-7.469751770336145569e+00,2.441601672725716377e+00
5.506230198536854026e+00,-5.139802173778000416e+00,6.396221323683231041e+00
-3.749507630803222691e-01,5.701271183082906369e+00,7.865814231342842966e+00
2.856916539918525455e+00,-8.741985355537538638e+00,3.620354939824827145e+00
-8.113034087529667815e+00,-4.303538918966347993e+00,-3.677657809774866671e+00
-4.908404174870891978e+00,8.612481271913964065e+00,-2.229533641472519478e-01
1.002500862903590217e+01,6.773963472961027632e-01,-7.240696540304687456e-01
-4.147318811100079827e+00,8.709905071629517437e+00,1.782692930383311447e+00
-9.152418507803602665e+00,-1.092774166215972453e+00,3.840009572165885121e+00
8.565877922710910752e+00,-3.691222610373520036e-02,5.002827723690086437e+00
-6.572860874741579096e+00,5.920847979975643049e+00,4.494820531953108933e+00
2.952292766294066340e+00,5.502009136639233189e-01,-9.384994929417926457e+00
-3.663096551627357811e-01,-3.980899876985092511e+00,-9.037286546051159775e+00
5.358763361003314962e+00,4.860843109965653497e-01,-8.171121476458894861e+00
1.270192502622730979e+00,-2.077921325773874006e+00,-9.675592582953669307e+00
-6.686055699185537549e+00,-3.047724210786903587e+00,-6.706807280624916601e+00
5.269947495328722198e+00,1.267353932448050502e+00,8.306246426772368352e+00
5.299021341849135425e+00,-6.570560733048306012e+00,5.362237095360190331e+00
-1.132122357171533311e+00,-2.308495693292218931e+00,9.516122440921826353e+00
5.559043805163314644e+00,-8.214336162787736484e+00,-9.063274770360525423e-01
3.983614914080401803e+00,5.900243953131170116e+00,6.976768880702509001e+00
-8.076331031793474224e+00,-3.184045041956291122e+00,-4.733698943722026264e+00
-2.892325023312249499e+00,-6.777395457681417490e+00,6.499685363434101859e+00
5.209226233969436848e+00,5.670108008411412825e+00,-5.960503329541289474e+00
3.837680607041881409e+00,-7.947230481551536663e+00,4.319149363618598692e+00
-6.756738457715167456e+00,7.311263362201483318e+00,-1.344440003600532729e-01
8.173208688247457943e+00,-5.094552889365696613e-01,-5.562805788434827647e+00
2.723444218100807834e+00,8.727318003043983197e+00,-4.169485461549420791e+00
5.796795442247432817e+00,2.935231163099856655e+00,-7.174263577580727080e+00
9.334507701288870862e+00,-1.318885101347956335e+00,2.713666272832856219e+00
2.177014414746630599e+00,-2.156322838580043033e+00,9.590149468704241897e+00
-3.087712350731932176e+00,-8.743329437898596623e+00,3.363068822562830906e+00
-2.608640963362988341e+00,2.947038808835884538e+00,9.105175874306498329e+00
-5.484685567947143348e+00,6.662091414102989440e+00,-5.424763853547728054e+00
-4.780666238059343875e+00,-3.918040399174854471e+00,-7.809960315006239107e+00
-6.054537416183715770e+00,5.973820640708018104e+00,5.029751286873282545e+00
-4.955843878388706436e+00,7.116230599910409182e+00,4.809461831264655096e+00
-4.420776925553157710e+00,8.867329841890971842e-01,-8.934664094585412997e+00
2.885986760256175732e+00,9.235390427212777809e+00,-1.755369892186529501e+00
-7.615139425785518057e+00,3.310268484885498186e+00,-5.669885934485010992e+00
1.367344170974568618e+00,3.193514341055563754e+00,-9.193842267450584416e+00
-7.215642698059488991e-01,9.563722765138544801e+00,-1.670175144279196999e+00
-5.993400695417082424e+00,-3.864349282795692009e+00,-6.792018114282218910e+00
4.785018872196707407e-01,5.027627029291574345e+00,-8.623079737134860423e+00
-3.000294075146235251e+00,7.607123855398988388e-01,9.468538619916641252e+00
7.644111011490327456e+00,-5.944639168584751943e+00,-1.719634165771796619e+00
-1.842910307963250949e+00,-8.507934297611205565e+00,4.911676665208356773e+00
7.715336975309087464e+00,5.846393050447353801e+00,-2.168449035399663050e+00
-2.961571262944345584e+00,1.073896826288295747e+00,-9.437197543857001492e+00
-1.135363691283764576e+00,3.405058536763486909e+00,-9.147299379637704675e+00
4.900012285654109512e+00,1.770391671021610521e-03,-8.822221268154338603e+00
-5.544243859222639514e+00,6.975583100784883861e+00,4.124666331615850723e+00
-2.459652412623307693e+00,9.475763263329504582e+00,1.808875615465148190e+00
4.216431751872242728e+00,8.604095391604129617e+00,-2.663327054560467033e+00
-1.268692020278619381e+00,-7.949522329591413694e+00,5.721811810414718202e+00
4.570486082645820680e+00,4.459443311613995320e+00,7.857618467678763707e+00
-5.837612189446521604e+00,-2.333384805505057447e+00,-7.599297848557087676e+00
3.207357722736781991e+00,-4.114848718883060918e+00,8.160238793056775464e+00
-6.050855543936914493e+00,7.991274228849586159e+00,7.769517591859997907e-01
-3.786929841744416603e+00,-2.425461043084597090e+00,8.873987326717758251e+00
-7.736639674885697815e+00,5.274818167383115153e+00,3.216152958550031027e+00
4.787929259229589896e+00,2.444771865412767031e+00,-8.217555449039805282e+00
8.897702999520971545e+00,-3.459654263441994448e+00,2.412606560935880218e+00
-7.040486600586058685e+00,-2.378206067816539093e+00,-6.401644199758211862e+00
1.451655942799206400e+00,7.408191658535348445e+00,6.435641144979280526e+00
-6.598085389614805507e+00,-6.452289272469704073e+00,-3.101570250167438481e+00
-1.873033386934233047e-01,9.998495115250261023e+00,-2.259972871782995121e-02
-4.739986766042600941e+00,7.704390147753500173e+00,-3.642140443726844090e+00
8.837700580144902673e+00,1.594588148558058194e+00,3.908530744829520565e+00
-2.708597189874720090e+00,-9.659975173891526268e-01,-9.541334568578607289e+00
-1.601408078845387051e+00,-2.485915219756727357e+00,9.623144673163897878e+00
9.362387151012438125e+00,-2.545452947304831515e+00,2.083553643567240155e+00
-4.728502296853039688e+00,-5.299095591403798267e+00,-6.823744827700923388e+00
2.462228163640376444e+00,-8.933735419057470040e+00,-3.400153526392338144e+00
7.938268575693292917e+00,-3.301957206041575971e-02,-5.916959114101944195e+00
3.717760400937216492e+00,6.315111539778971661e+00,6.568061981200374433e+00
4.726954552337334192e+00,1.032900265168960718e+00,-8.602490383351511838e+00
-3.832555638244339313e+00,9.186505112300894282e+00,2.982568235172576854e-01
2.987342790558639383e+00,-4.911783858626842303e+00,-8.095398860648723272e+00
-4.074235687305646003e+00,6.141398213271281215e+00,-6.560761473995719406e+00
2.838781073540472821e+00,-5.706933842948714641e+00,7.584679163388630130e+00
6.777350545284576810e+00,-5.525340286732385309e+00,4.658177381963793273e+00
-2.983872928083640463e+00,-8.978188007516552105e+00,2.257063755404249861e+00
4.884961105494029177e+00,-8.272474665583793296e+00,-2.506876311643172262e+00
-4.540223528500973771e+00,6.400942776564384484e-01,-8.722695398856238569e+00
2.589534796467502176e+00,-7.782864280634693266e+00,5.760923684432037284e+00
2.007067664334675428e+00,-3.494873804267666362e+00,9.190177887168484716e+00
-4.216229377036516013e+00,5.910787550433781234e+00,6.687537900876466601e+00
2.831809275342400234e+00,6.691119011961739638e+00,6.683371530834043561e+00
6.545488579444591615e+00,-5.575972711553877303e+00,5.026805473602604657e+00
-9.158125698844182594e+00,3.003104174588723918e+00,-1.403896559991514748e+00
7.484037442183645972e+00,3.360253340643306469e-02,6.346164092548061575e+00
8.587319515451949936e-01,-1.710763527021150476e-01,9.911002365552784354e+00
2.254403813448742522e+00,5.763914016042707367e+00,-7.852790643303205087e+00
-9.949443732955298714e-01,-3.722742908528073436e+00,-8.967189835010497490e+00
5.293676261401579097e+00,-7.958225929903291807e+00,-2.630826240224752421e+00
9.668403563225977493e+00,-8.063882664689897561e-01,2.375877045564917189e+00
-3.747211946488718137e+00,8.844239034457066495e+00,-2.532179522751031531e+00
-6.270171061176157856e+00,-6.623904075628009203e+00,-3.496378968766093998e+00
-3.321492374068596209e+00,7.754445297741427545e+00,5.500091826404119644e+00
-7.459564494004871094e+00,3.761503912814454065e+00,-4.994813459068136119e+00
3.840892290893803906e+00,4.389071193007793248e+00,-8.046366410233256161e+00
-1.369733678642086172e+00,9.127345515176660484e+00,3.267155695820530781e+00
-5.780891339810970697e-01,-8.473464551418691926e+00,-4.927263009299285734e+00
5.774131508975482774e+00,-7.159511093885370769e+00,-3.219723983620252916e+00
-9.624617126619142482e+00,-5.808965549609582668e-01,2.125804792025239642e+00
-7.470950774779238301e+00,8.783630064821102978e-01,-6.382514993112949675e+00
-2.736703809147588817e+00,2.599794818844821886e+00,9.234739907697594674e+00
7.080494078757869403e+00,-6.750871568120839328e+00,3.101723467577387483e-01
2.549367652043652566e+00,2.589147702755806524e+00,9.112250857889705458e+00
-6.708765461494885507e+00,7.412236442936897873e+00,2.126187064545042305e-01
9.538870708909611196e+00,2.896621823697818954e+00,1.043947283821642147e+00
-2.196152954857842621e-01,5.305446134015853410e+00,8.355886814069162227e+00
-6.333457180983728563e+00,5.586844775081794445e+00,-5.389902518614760218e+00
-4.950108203430384712e+00,-2.555590418218498527e+00,-8.295187297786151603e+00
5.986704667805351932e+00,-7.024853471379107539e+00,3.534659495502255666e+00
3.204909175885582440e-01,7.883249591386137789e-01,9.736284616151586135e+00
4.042704404282340569e+00,-8.769460449401744739e+00,1.613113986699435121e-01
3.136368647947777255e+00,6.139643282123143919e+00,7.238319309369032339e+00
-1.105509936847469676e+00,9.666276817056630222e+00,-1.880909154857576038e+00
-7.946265082346531727e+00,-8.670671402184888521e-01,5.961915137904878037e+00
-7.444941930108047501e+00,-5.700609710048030188e+00,2.114859002870737914e+00
-1.878628639396362043e+00,8.882396643708668549e+00,-3.724148369407173309e+00
-2.789977830110383028e+00,-4.042466305399805004e-01,-9.601345542837130154e+00
-7.494062410182118050e+00,5.054773668697338795e-01,6.466310077303091930e+00
-9.244379711011250222e+00,9.796836649037887756e-01,-3.645231109822667293e+00
-2.948479352666663278e+00,-7.715394812657160095e+00,5.247677717616419102e+00
-7.244905743420181565e+00,-5.957865450228495341e+00,-3.243255900613755127e+00
-6.504103823488557090e+00,-6.552378859665585864e+00,-2.928368577177065557e+00
8.629144532313128835e+00,-3.782395813362002812e+00,-3.638780848282034075e+00
7.648926179552057114e+00,-6.221097373562576749e+00,1.312105948215553486e+00
-1.700149343151852399e+00,-5.714875020293910701e+00,-8.096776180289243285e+00
-5.233991769676337391e+00,-5.812288650372379628e+00,6.185247031777851845e+00
-9.990320402503581221e+00,1.817898039323970552e-02,1.251288402254250087e+00
5.662805059952393805e+00,6.949733938279168299e+00,-4.069364922205985557e+00
2.643735363197581290e+00,7.276929389686007887e+00,5.818357647043891134e+00
-4.851487503840628435e+00,1.284174404705070049e+00,-8.487891402553662701e+00
7.317028318583970403e+00,-5.368582611543890160e+00,3.731422057771971446e+00
4.156041807643170299e-02,-8.387079268598208515e+00,5.188276679087978849e+00
6.011662249291894966e+00,7.863743529502920104e+00,-1.670796078340438751e+00
3.836793306315987029e-01,-6.771443064907965770e+00,-7.195163966856122251e+00
-6.667469232676248581e+00,-4.668695644604068384e+00,5.439852087365427913e+00
-8.734037060414797438e+00,3.828322508909145494e+00,1.759198585437273810e+00
-5.918609265793493002e+00,-3.056266934251789635e+00,-7.364699771341521206e+00
