-1.068995195624845129e+00,3.369788192783665703e+00,2.505254956482331208e-01
1.401885330044172262e+00,1.044325642067079452e+00,3.084983825982146044e+00
1.918692828848678422e+00,-2.943515867755607029e+00,-5.548223905673652090e-02
8.927689964119754906e-01,-2.333749027147034472e+00,2.525206135003008168e+00
1.092835111726111919e+00,-1.914348806929129787e-01,-3.299204311607495832e+00
3.302396733267994211e+00,9.131060206690430059e-01,-6.174516410987351822e-01
5.329570004893203344e-02,-1.260571752406087986e+00,3.325070388630693152e+00
3.496127568532085839e+00,-3.221125563931809266e-01,2.866928131134788976e-02
-4.934142338755252988e-01,1.774622236112381790e+00,3.068589728230931790e+00
-2.304905563889206199e+00,7.407799835189352589e-01,-2.644677025581829710e+00
-3.437784299788164688e+00,-4.854912723494880233e-01,-5.871692276950606360e-01
-1.342832970424193917e+00,1.669382196449299416e+00,-2.751929855319732443e+00
2.688119643467191455e+00,-2.104138072069228205e+00,-1.123167618077296703e+00
-2.323290877767244300e+00,-3.464495031274660852e-01,2.655680560092577025e+00
-1.409732447849853854e+00,-3.089590299371659743e+00,8.389856457070392626e-01
6.027764602899748914e-01,-3.455437766916169551e+00,-4.707418332935330851e-01
-1.415528086187006984e+00,-2.712683767728529816e+00,1.719229773333131428e+00
1.428314562703115520e+00,-2.831896355434687873e+00,-1.539414739385032593e+00
-1.086898406215218937e+00,-6.387606687690605689e-01,-3.276242876944037263e+00
6.833600162550609869e-02,-1.104727855782669854e+00,3.269308679372957549e+00
2.402955364102169478e-01,2.144922705665340157e+00,-2.901375256984162210e+00
-2.304951255639839047e+00,-2.665037943960140154e+00,-5.675176084342383742e-01
2.470461484163370969e-01,2.458337255952348421e+00,2.568324366066220943e+00
-4.283654273632230836e-01,2.160574161738594068e+00,2.771580494388282023e+00
2.497580955396232760e-01,-2.407335417605566352e+00,-2.545550738013298453e+00
2.135443190407931180e+00,1.220122468188476139e+00,-2.549733614985598251e+00
-2.061194252564416463e+00,-1.641514572702642560e+00,2.381548787020921765e+00
2.598732462243810826e+00,-9.147744486200696246e-01,2.263520015577296096e+00
-1.635119729862977600e+00,5.583621518366088665e-02,3.125100522940231329e+00
-2.909706475897366307e+00,3.899479377753112264e-01,1.913221170890917922e+00
2.259836058857882080e+00,2.132651079987777365e+00,-1.669578120099014740e+00
-1.841575558269062274e+00,-1.670389665359550913e+00,2.509738197499083778e+00
-7.205307202116074672e-01,3.431817077850771280e+00,4.831398475614041566e-01
-2.076873856598116852e+00,-2.907841271427967111e+00,5.765343358533432383e-01
-1.634362513341465428e+00,-2.853528105671780501e+00,1.417972569698777496e+00
-1.174344293330999767e+00,-3.338764812232184909e+00,-4.311083388291378493e-02
-1.091981663054610419e+00,5.410545559698033413e-01,3.253142665090084762e+00
-3.088513769649211316e+00,-1.111530845305264359e+00,-1.176451718355493226e+00
-2.948644168484324091e+00,1.072926547503809447e+00,1.537682561213385979e+00
1.175516439531635982e+00,2.810598970894428561e+00,1.689773560843274680e+00
2.470382184557117222e-01,-1.468876091118407334e+00,3.214021568842263310e+00
2.980100382048264773e+00,7.294624236054583211e-01,1.716388405810898021e+00
-1.017446894707749072e+00,3.328854130259098820e+00,5.401153330099895955e-01
-2.439287543438192873e+00,5.543504606602502882e-01,-2.497392698100965092e+00
-5.401550192410203843e-01,-2.510389663584749353e+00,-2.427039997373392488e+00
-1.024272947270760348e+00,1.468742350481621051e+00,3.015390049647345361e+00
2.598014979749896369e+00,-1.570230917043118346e+00,1.749553874239673901e+00
-2.365633136523554114e+00,-2.579397109787754161e+00,-4.224615754689595160e-01
3.259088583733869005e+00,8.561801226371588969e-02,-1.452412925482501782e+00
1.063068526045850337e+00,-1.210935459332181718e+00,3.223851507293204133e+00
3.092118915142777702e+00,-9.487152935174564261e-01,1.339624965802181489e+00
2.160429099260242847e+00,-1.187534807737871123e+00,-2.596880605998474145e+00
2.384984342862048301e+00,1.950500879754669459e+00,1.670900564877488392e+00
2.659439362305802135e+00,-2.376483727919991296e+00,-2.682238235667352977e-01
1.466335346473292001e+00,2.141367396433229570e-02,-3.261410840496560493e+00
-1.076201304666316583e+00,-2.913791974350306901e+00,1.625135919693976083e+00
2.662284107567403524e+00,-4.286655744735175522e-01,2.222845090600249929e+00
-6.004196764901563732e-01,-4.091580952816518124e-01,3.448005932036749321e+00
-2.026769315398309068e+00,2.586330852038270844e+00,1.144019820288383116e+00
-1.339207974843631632e+00,-1.840440234332273217e+00,2.638947147144854455e+00
-4.997907319338484866e-01,-1.564333551767330244e+00,-3.190997364870037156e+00
2.892964298227936659e+00,-1.452091720393138718e+00,-1.405379945049465507e+00
2.938595154783607999e+00,-6.634857630153656594e-02,-2.000929617438192754e+00
-3.344776629698466230e+00,-9.590823123524075955e-01,-2.870670866318987269e-01
-4.465654438640216384e-01,-2.450078307645990883e+00,2.439064834550489280e+00
1.554913562418533290e+00,-2.533339722164638541e+00,-1.989389473678721876e+00
-3.477614031752300328e+00,8.266249085558464715e-01,4.143727908879440425e-01
2.752219120490898341e+00,-1.143107386985845686e+00,-1.759053976557023224e+00
1.842938917566377066e+00,1.909842745569200861e+00,2.424577570184984321e+00
3.251549698675359146e+00,-1.148649653918354163e+00,7.012002639348511313e-01
6.202884733264495409e-01,1.763207446724575300e+00,-3.001296079451974741e+00
-2.697648588339193410e+00,1.195062345501934686e+00,-1.876222985438835922e+00
-1.868558172041305143e+00,-8.838060182464614334e-01,2.765737330405246386e+00
2.444492491181340377e+00,-7.121729662855934562e-01,-2.499634091707104933e+00
1.885837408673607385e+00,-3.288461245297005231e-01,-2.978669525051678146e+00
-3.021876817314256503e+00,6.771345699516367889e-01,1.676895999645022117e+00
3.525230962173670157e+00,-4.175882556552749925e-02,-2.799904668704767396e-01
6.817107816963856315e-02,-3.343492230400330723e+00,-1.053977501070470613e+00
-4.003220833363543285e-01,2.831828494115567363e+00,-2.155780885628378218e+00
1.347648164896790179e+00,2.630348153276879763e+00,1.980823255317819109e+00
2.332464873949871009e-01,9.453911282402679417e-01,-3.369904188525258526e+00
-2.536540664415344093e+00,-1.380396246450367626e+00,2.031289467740811983e+00
-2.723907354940362069e+00,1.366013738615091233e+00,1.860702149390113025e+00
2.312563648301996899e+00,2.280990906311669841e-01,2.691851379074046591e+00
2.239330947739789579e+00,2.465254894578769118e+00,1.181189872921885486e+00
3.043777405849648066e+00,1.063216988939200414e-01,1.786144935129860389e+00
-1.634647305308917442e+00,3.107440045415271967e+00,9.949897842378491175e-02
9.076454263846647219e-01,3.324825078128829769e+00,7.639520457095220207e-01
1.763425105656739822e+00,-1.688846468885816909e+00,-2.582836371726656921e+00
4.394227951370956453e-01,-2.937981910725071533e+00,1.908098420677347029e+00
2.574034717890053781e+00,2.369638679205217535e+00,1.879041808322042028e-03
4.238087309661718316e-01,-3.321249887223166386e+00,1.049968566321322960e+00
1.614192229989636074e+00,-1.257431213850253471e+00,2.918658819818567007e+00
-1.473915277370825061e+00,3.014054003899340195e+00,-1.075416059029797644e+00
3.082816510224696938e+00,-1.241054841405683451e+00,1.190514702469397168e+00
-1.827431982952784972e+00,2.705480555744318227e+00,-1.368936351875797985e+00
2.313978682905127648e+00,2.661818308552207579e+00,-1.281945599402344593e-01
2.857346009099378303e+00,1.850357300333212551e+00,1.075860891325988833e+00
6.299792480756689628e-01,3.419529631161529970e+00,-2.548492742568196912e-01
1.931192963137889018e+00,2.908263730123989088e+00,6.870825204486438187e-01
-2.851377385034866929e+00,1.899911557084877689e+00,1.000193170997830672e+00
-3.202278388730646519e+00,1.494837624065484594e+00,-2.145510021428655711e-01
-3.360302477849678393e+00,-4.802006014155132396e-01,-9.236865501088131758e-01
3.190256681889616086e+00,2.551782219635561483e-02,-1.576882725592884338e+00
-6.954338954664729400e-01,1.935861281526322752e+00,-2.908238072636216476e+00
1.912903551253983370e+00,-6.999077704981981896e-01,-2.841969048873485004e+00
1.899579385898202855e+00,-2.789577265549004093e+00,-1.234695671536025774e+00
2.867482805244914612e+00,-1.868283474263393362e+00,-9.101411103630230315e-01
1.155003808410254296e+00,3.313966764829187728e+00,4.536195517399723709e-01
2.728629390526777332e+00,-6.485251458194789542e-01,-2.133341374056475725e+00
-3.258972575401145377e+00,-1.259220164182706103e+00,4.901263165588988224e-01
2.035014637552947092e-01,1.676615210790512789e+00,3.089131556084130370e+00
-2.036223497869539489e+00,1.437946524749252442e+00,-2.568826163962704801e+00
2.793174323652932500e+00,1.165029175803119710e+00,-1.840596674198265337e+00
2.697398135763852345e+00,-4.631684969270098429e-01,-2.186924452505715433e+00
-3.137247866439008881e+00,3.918139277537801557e-01,1.621242456234926577e+00
1.829793911709407750e+00,2.229128541671657970e+00,1.982477415103420126e+00
-2.077367819764034618e+00,3.340779429406304235e-01,-2.838360721649987095e+00
1.551801549506605316e+00,2.172644223849169443e+00,-2.217670737054446839e+00
8.983693678360651358e-01,-3.354244575421659658e+00,7.566304097574665377e-01
-4.386198276337909263e-01,-1.478988644677195596e+00,-3.216297299680703325e+00
2.129847821806217123e+00,9.255132236958094061e-02,2.821429424528424157e+00
2.217743986481508500e+00,-1.253463664458596138e+00,-2.409103528246106407e+00
-3.421937832041618832e-01,-1.272046127723103215e+00,-3.272023530913759970e+00
-2.941469105842006826e+00,1.346050452363289462e+00,-1.415420238130432828e+00
3.118433858689936056e+00,-3.558415799404795465e-01,-1.550339330437076724e+00
-9.859178931802059509e-01,-2.713610222167658348e-01,3.362065441008208477e+00
-1.806793266674160181e+00,2.767902587054159813e+00,1.183690586082077223e+00
6.782598710777476558e-01,-3.201786669000733498e-01,-3.465498920502513069e+00
1.096476075314082088e+00,-3.269084511314635844e+00,2.853139434989763190e-01
-2.032358122697980995e+00,-6.655582716825393375e-01,2.795782673885099712e+00
1.740349462714707363e+00,-2.840510514845362877e+00,1.285714566421158445e+00
-1.693807875230032511e+00,1.139435538132839154e+00,2.819433756602748531e+00
2.120988153041755364e+00,-1.226740689118026861e-01,2.828446652656025240e+00
-1.404830988459005336e+00,-2.991798861369126428e+00,1.160996326502417020e+00
-1.132012889804400624e+00,2.659275454178013032e+00,-1.871663675369582336e+00
-6.043197098292121261e-01,-2.268256017739836150e-01,-3.473140398996904743e+00
-2.780038822948641908e+00,1.921656069274249923e+00,-9.022817134900861236e-01
-1.205215985071883988e+00,-1.419059457788314660e+00,2.981483887275260702e+00
-2.315833977066081018e-01,-3.151092138598239334e+00,-1.621267195737026601e+00
3.004060966630391682e+00,7.868935764093085705e-01,-1.744541831357691919e+00
-1.135539925865341360e+00,-3.130447893136407700e+00,1.151388391245035780e+00
-1.725096150094494796e+00,2.537815711733319990e+00,1.780276760237015310e+00
1.223237748582233442e+00,3.083129278861937994e+00,1.086213473252439332e+00
-2.488528420509987793e+00,-2.300825092356796997e+00,-1.090184528286721521e+00
2.480734051025834663e+00,-1.724849079188698342e+00,1.846066429898039818e+00
1.452699526735675484e+00,-2.793350067726620534e+00,-1.641133821297635409e+00
-1.163119547476693327e+00,2.964096855485858661e+00,1.580227240525917676e+00
2.332653341836470329e+00,-8.203250036449765137e-01,-2.451206817922940040e+00
2.512624420994842733e+00,-1.355839360798669901e-01,2.441924440287498665e+00
-1.687659933096731013e+00,1.512196930898297431e+00,2.649295400023587543e+00
-3.082852959421121142e+00,-9.896953427561318017e-01,-1.627906803739977981e+00
2.371573374139207324e+00,-2.470487232715746995e+00,7.133372681558272088e-01
3.099450971998609639e+00,1.602899700893538171e+00,2.956024039802033765e-01
3.024316211288283540e+00,-1.552632619724441387e-01,1.849293214584727618e+00
-2.102970595565766931e+00,2.258737168404536977e+00,1.769147417946318912e+00
1.953495580482505489e-01,-5.020566152189347431e-01,3.515152199802101585e+00
-1.724453861604087423e+00,1.948629047208706444e+00,-2.413282088253571267e+00
6.240872642386604552e-01,3.320404782017593703e+00,-9.048823772050940129e-01
-2.026125164613156837e+00,-2.967180612061756317e+00,-2.384305147773966849e-01
-5.756407191757331732e-02,-2.487489816984032931e+00,2.643055942097270794e+00
3.225579973270860101e-01,-3.476965374407533282e+00,-3.426356067865591881e-01
-1.142358132809133897e+00,-3.280690256227358326e+00,-6.489428759833274496e-01
2.457104389625227370e+00,-1.472421096732776213e+00,-2.071164860225313209e+00
2.290865768716198403e+00,1.647532919214994340e+00,2.103550893991379844e+00
-1.101047786098630299e+00,3.394656846979534404e+00,-3.475343643130683891e-01
1.996171595266754917e+00,2.859607752480560983e+00,7.483219771752162019e-01
-1.733296711404631596e-01,-2.054640615232556478e+00,-2.896957821631050756e+00
2.904496295205762912e+00,1.428791119705353996e+00,1.556330484883747811e+00
7.699511072038023318e-01,2.440945955377894078e-02,3.484975327208698737e+00
-2.567502476042506920e+00,4.047040478732485402e-01,-2.440054293482003978e+00
-1.999028870212091524e+00,2.554591169337482537e+00,1.516784548751993533e+00
-2.160951534406304830e+00,2.176470596460194695e+00,-1.792520461765592765e+00
-3.465892853113882843e+00,8.097519314152542558e-01,1.803331784030690887e-01
1.948972246778715611e+00,-2.872237232286495079e+00,7.534145077796901013e-01
2.392482065740108299e-01,-1.710816446469837881e+00,-3.092002666352497098e+00
3.123130798356763993e+00,-1.181003212266886981e+00,1.112724681010222261e+00
1.774038389025616447e-01,-1.917749086445085238e+00,-2.930459788633259510e+00
9.591546274731577171e-01,1.968233002661631703e+00,2.810523369858273224e+00
-1.451079420058388969e+00,1.021623385802332029e+00,3.059954775295400609e+00
8.765418903499857528e-01,-1.863424535226451795e+00,2.948839775166734789e+00
-2.769213902276154826e+00,1.574907334379532342e+00,-1.660414648553259154e+00
3.033780476325980580e+00,4.834950850695898805e-01,1.602745454548536896e+00
1.567094214954284137e+00,-3.201945827548524637e+00,1.705669107688972397e-01
-2.706435540343814949e+00,2.311906523013569359e+00,-1.527314040809497064e-01
2.277142141112022955e+00,-4.881054093925031312e-01,-2.638935806929390004e+00
-2.279988267160261373e+00,-2.715289700422895525e+00,-1.827474067480797937e-01
3.249972806962159400e+00,-9.650957271767517387e-01,-1.291188044658575507e+00
3.226361324585295343e+00,1.447158159311183745e+00,-2.225832191969664975e-01
-1.866686277643272884e+00,2.043097106476947200e+00,-2.211978944650887069e+00
1.979738707156712740e+00,1.707750419785426077e+00,-2.412628182187054104e+00
-3.155454286681410814e+00,-1.348589978968856906e+00,9.451487498793631481e-01
1.983237960489818930e+00,2.654390390609573380e+00,1.320142673230759733e+00
-8.734916643045116669e-02,-2.590713321090541310e+00,2.383567313569252555e+00
-1.959393161775426107e+00,-2.869049364866176788e+00,3.900223065974273706e-01
-1.900245207296608507e+00,2.074971242488411249e+00,-2.201118548719311008e+00
5.658706541403999563e-02,1.256799360454688763e+00,3.357818185522782883e+00
2.100718900741310069e+00,-1.200067333188136631e+00,2.577277357383227052e+00
2.277396539946193954e+00,-2.136045313893096154e+00,-1.730696474238186733e+00
1.246633545538646137e+00,1.187906013357570734e+00,3.147237511469081817e+00
-1.677782982615148910e+00,-3.078095427471796874e+00,-1.490282897806702866e-01
2.313919389833611340e-01,-3.531913952578933369e+00,5.939415243154905211e-01
6.834408776773251981e-01,5.950875732894469472e-01,-3.421771200034308791e+00
1.270941240947799589e+00,2.389912875544056625e+00,2.282248703759506281e+00
-2.551059856113824242e+00,1.188152314816093735e+00,2.172077521237605779e+00
-1.252936805177940371e+00,5.100760929559473161e-02,3.349810717090297540e+00
-8.554519178289468062e-01,-3.252742734428086369e+00,-1.011561121188311096e+00
2.075493953866061059e+00,5.896138565791626818e-02,2.777491782930519015e+00
-5.804352328263020500e-01,-1.777974448342261482e+00,3.060509772654517402e+00
-1.712361242435959385e-01,-3.407958083393820559e+00,-8.707528520902326763e-01
2.691458793201425559e-01,2.964099826879283306e+00,1.873926996295850245e+00
2.598231289456395476e+00,1.525746063743697478e+00,1.925680086533437141e+00
2.857613974461579165e+00,1.877088219404295044e+00,-4.831334745617026777e-02
-3.564163766667256539e-01,-2.885962152709498074e+00,-2.065989086817872078e+00
1.045970508209239647e+00,1.015403052432040543e+00,-3.211044090950601504e+00
-9.200478995529653981e-01,1.517301016052206464e+00,3.044694352387080194e+00
1.014106277461083616e+00,1.041288590307199557e+00,3.253426250631067163e+00
-1.011040198539499668e+00,3.215487807362300554e+00,-1.039990095392829383e+00
-6.217019259322997815e-01,-1.398881651610577537e+00,3.105058995217811812e+00
-3.082195724304191753e+00,-1.756599704069873535e+00,1.692644643084004474e-01
-8.245398662643023124e-01,6.862982482745765278e-01,-3.364360924020653787e+00
1.022545376831295760e+00,-2.338426139676861748e+00,-2.484503341224981288e+00
2.851478150531345790e-01,-1.233244004769052715e+00,-3.318179582410917927e+00
-2.101550533314577418e+00,-2.524055628780424776e+00,-1.264612986770070391e+00
-1.666411428957347285e-01,-3.647880128553100954e-01,-3.480379250600694530e+00
-7.322075810527124418e-01,-2.999300129656173652e+00,1.650880792793816498e+00
6.596342976351907694e-01,-2.925341077185563687e+00,-1.935648502636793111e+00
-2.023863640266264419e+00,5.456368231511441458e-01,2.814928604387630706e+00
1.740806646167280647e+00,2.534666386358411572e+00,1.746881255492827689e+00
5.776588778431167581e-01,-2.291554267802612954e-01,3.489385875465922382e+00
-1.940195569298153400e+00,-2.960204807455794285e+00,2.204732329519186185e-01
-1.397505237220246110e+00,-2.580675961332766999e+00,1.981395977740416869e+00
-1.777487092920521983e+00,6.681492649070173151e-01,2.962849221838021130e+00
-3.068542843720498681e+00,-1.747362301298027498e+00,4.238873116782909123e-01
-2.005053068248569659e+00,2.482624811294186884e+00,-1.581580602243515710e+00
1.363607699177833865e+00,-3.208759287401715010e+00,7.212207698831201164e-01
2.383013042847506924e+00,-2.437429495192139139e+00,8.767354783186426248e-01
-3.363102451892705957e+00,4.769597792174921635e-01,9.865659477302799463e-01
-2.576988204083138001e+00,2.063357620848245588e+00,1.339102154413653878e+00
2.078950280899976466e+00,1.632984196998996218e+00,2.384497678976142510e+00
-1.015466718593636353e+00,2.520411044413246593e+00,2.319102580517464318e+00
1.268905849866742708e+00,-3.062887023875689341e+00,1.281096771553863478e+00
3.224445169750581819e+00,-8.707670881118595441e-01,1.153857458884512743e+00
-1.375486843796843495e+00,6.547899464902113831e-01,-3.194255519429880064e+00
-5.915194109104785491e-01,-2.944306249479034410e+00,1.986869012168904991e+00
-9.833556868096474668e-01,-3.415775715497392007e+00,5.446520688722973347e-01
2.843636203481164859e+00,-1.539652256597014990e+00,1.485767782177882745e+00
2.831554895543984429e+00,1.139055138674642143e+00,1.735108849286653543e+00
-3.274663803636762793e+00,4.135380156138977470e-01,1.071652235662575947e+00
-2.048553985320007431e+00,-4.438415425565729322e-01,2.797071192006993279e+00
2.144335941861793771e+00,-2.819458210287983047e+00,1.828837492731720527e-01
-1.728695795587869899e+00,4.709641877091634288e-01,-3.036875336472122378e+00
-2.700760502017238718e+00,1.727862660120481841e+00,-1.412461360139940281e+00
-2.836435155953839438e+00,-1.389400259480081612e+00,-1.607838261621110210e+00
9.044065877729480230e-01,-3.261252265884883705e+00,9.957481150942935066e-01
-2.680187162844667181e-01,-2.956683854626562358e+00,-1.887763481549304290e+00
1.218396107125018640e-02,-2.959348134911842898e+00,-2.024202071434562988e+00
-5.420684786291905810e-02,-1.942687461567957907e+00,3.013272518932226696e+00
-3.300644718154187363e+00,8.108672771948032265e-01,-1.027512650383489046e+00
-7.517143083939406001e-01,1.626035069915627407e+00,-3.053787319768175301e+00
-2.386509561797410139e+00,2.584056923858415011e+00,-6.197398240920181101e-01
-2.093777504597801542e+00,-1.309800073069986359e+00,-2.476174234566856480e+00
-4.216827782121676527e-01,2.011646587086808324e+00,-2.870152319776753558e+00
2.018748725812134825e+00,2.861890392812787898e+00,3.267812762489433198e-02
-2.028913418071788488e+00,7.584915538098999654e-01,2.855361893777715210e+00
-6.150837879250421053e-02,4.039095399052572422e-01,3.520857798739002842e+00
-3.403126409375231365e+00,-5.576462924412080302e-02,8.761087082642018409e-01
2.722894218830699042e+00,-7.196743220303334354e-01,2.218508100780086423e+00
-2.728296509294418470e+00,-1.849165798248606940e+00,1.363376223365402762e+00
3.492085294077186930e+00,1.506032263723150189e-01,4.231971182758101357e-01
-5.563353000994060160e-01,3.333437633675391254e+00,-1.127367619583841574e+00
1.969310326138745904e+00,1.137197854741986598e-02,2.992697306748170583e+00
1.398319451515966039e+00,-2.564073145916088592e+00,-2.048153600865842527e+00
-9.609768247750977155e-01,-2.871704480774391222e+00,1.721587857165691959e+00
1.376151430418584010e+00,1.334144326381702994e+00,2.931538847369115519e+00
-4.488998626963736638e-01,1.916114269985871088e+00,-2.954683017980831217e+00
-1.191229678579740270e+00,1.543497509511192911e+00,-2.919724872789771997e+00
-1.288738384714966489e+00,-2.044040377734342329e+00,-2.557247472723475301e+00
3.217376939529386970e+00,1.294884852388997309e+00,-7.409074941212048238e-01
-2.212393515321549931e+00,2.101803891214914177e+00,-1.769146349642884974e+00
8.154083041715258495e-02,-9.437296881850480990e-01,-3.414992974075203414e+00
7.100060246041679790e-02,-6.668124517312623567e-01,-3.465861101043799408e+00
1.309629467235482903e+00,-2.950912505304102318e+00,1.555618207074594972e+00
7.889332900093847245e-01,-3.317793251307919355e+00,7.427272953506248721e-01
3.297003284961344871e+00,1.809776588304360112e-01,1.272461135837119839e+00
8.279268387747755753e-01,-1.353240985142749320e-01,-3.497012697964954953e+00
-9.618728329883594608e-01,-3.075723665510040838e+00,1.555880138629566867e+00
-2.353512022524082425e+00,-2.278336832652267496e+00,1.375414092792097254e+00
1.535319343118738189e+00,8.327032706117764790e-03,-3.190245696128078290e+00
2.171591968918488380e+00,-1.659143815380800024e+00,-2.262667520924579456e+00
9.687498569640714541e-01,2.982225316294444539e-01,-3.460453090834068490e+00
1.617418857473179150e+00,2.737361955909350719e+00,1.703268705058568422e+00
-3.551054902114533007e+00,-1.455129475965777630e-01,-2.792843562237731433e-02
3.445820783109969088e-01,1.894925877518345736e+00,2.968723995843308927e+00
-8.481007267445597742e-02,-2.632029377603397169e+00,-2.397451857797575858e+00
-4.848970358272054471e-01,3.448203617678497146e+00,-4.335715345524011610e-01
1.724285014091530011e+00,-3.816011661944252679e-03,3.135775298042980275e+00
1.835671176112620540e+00,2.995347345596769628e+00,5.428612323648333016e-01
-1.754962299461504172e+00,-1.087963145480606020e+00,-2.931974293215454441e+00
2.951161392651719062e+00,-2.039473805901358627e+00,1.047486229823003760e-02
3.248996865641260001e+00,-1.381254160926306263e+00,8.144434159869433365e-02
-1.757371797874032415e+00,-2.833645723149036844e+00,-1.004090755749603936e+00
2.414888359366065718e+00,2.317063052956184865e+00,1.200429572576235726e+00
1.749134518888690648e+00,1.966667907562928141e-01,3.133750693238566143e+00
3.091403525550540543e+00,-4.445152034570296062e-01,1.535864801053280937e+00
-3.430440620188009770e+00,6.800831995198365343e-01,4.041884277862387576e-01
-3.253508357857490818e+00,3.477118383108669941e-01,-1.256772590716592974e+00
2.772313602527912924e+00,-2.055094267225304971e+00,6.669849599661963335e-01
1.768414370567435556e+00,1.163278688421935714e+00,-2.837582164781413674e+00
-8.942329095470474831e-01,1.899232849097327813e+00,2.879968940972029934e+00
2.798649682574952280e+00,2.071883922080240303e+00,7.419834878677485923e-01
-1.348482723009849060e+00,-3.163794045910126140e+00,-8.781420783170065247e-01
3.085495959534776400e+00,-9.204275158719955607e-01,-1.475243556098130293e+00
1.506025458906667724e+00,2.611613140320501625e+00,-1.924092316978983419e+00
-6.495672820434215122e-01,2.576753673624354146e+00,2.388164628748961960e+00
1.724193316276682042e+00,-2.827529514230480157e+00,1.095459292826414410e+00
3.063211286713453774e+00,1.738088408417950703e-01,1.750400524522877532e+00
-1.117104117142303732e+00,3.154965403327579132e+00,-1.019021737726804266e+00
2.104027097166200289e+00,1.133806115399702996e+00,2.641551631575773218e+00
4.775733886339424833e-02,-3.339363620806884647e+00,-9.948521245410185676e-01
1.318803569052643121e-01,-1.913972451516659623e+00,-3.018508243201842856e+00
1.522499226676617523e+00,7.104343468964174901e-01,-3.128733908037072187e+00
1.256971763011442755e+00,-3.249390979754107178e+00,2.191480600771235354e-02
-3.188756181189693173e+00,-1.441126554925305170e+00,-7.957853101326449741e-01
3.124173147487875557e+00,-5.211147617203573112e-01,-1.628751379400589894e+00
1.658493327419366115e-01,-2.411525541403641615e+00,2.682314249366196002e+00
-1.890276422669084022e+00,-2.930759873933438175e+00,-6.245169708453982560e-01
2.260595083914176406e+00,2.356582781692421857e+00,-1.379216718288004184e+00
-5.090856177555302953e-01,-3.432029356562710021e+00,6.758775993676661153e-01
2.060083601225177752e+00,-7.537778616941841481e-01,-2.869909589201268485e+00
-2.249466018964246139e+00,2.209299508423233416e+00,1.663542973965413729e+00
-3.465763792848063574e+00,2.784692965513040908e-01,-7.686211992173709318e-01
-3.277855624768412302e+00,1.144515632195842292e+00,2.589527118002729056e-01
-1.450007318036643955e+00,-3.135070462674972802e+00,-8.592139052253623399e-01
-2.264980847252602736e+00,8.041519338459744981e-01,-2.620560299670940285e+00
2.343039913754227932e+00,1.923807161771527996e+00,1.750886922946719215e+00
1.535122110146142749e+00,-2.776039472778744965e+00,-1.566097596012905324e+00
1.491259078349319589e+00,-8.400844988800898472e-02,-3.206322786954311166e+00
-2.455675404303358178e+00,2.517819791611501490e+00,-4.451317885299889143e-01
2.996237252260145922e+00,1.470203648122472062e+00,1.139672971309014793e+00
2.101137475600118432e+00,-1.504619344063081288e+00,2.292141759870795603e+00
-3.203765721529293842e+00,-4.406415717943116261e-01,-1.396874955409493246e+00
2.528597922328748027e+00,1.212543541057245378e+00,-2.214059355651049721e+00
2.455348809602879268e+00,-2.520230106012255167e+00,3.053676439775337426e-01
2.675293182493079680e+00,1.380273353099635836e+00,-1.910215973508158527e+00
-2.814843449141873677e+00,-9.904835436351713263e-01,-1.882840622696994481e+00
-3.253251169170035872e+00,-4.528403291817151982e-02,1.434582117458186756e+00
-1.629897372900207531e+00,2.672024741446368257e+00,1.713909369402445648e+00
1.520951688762904430e+00,-3.041993068100714126e+00,-1.025066894880457324e+00
1.178247347822714231e+00,-1.017183326956661471e+00,-3.119525186819194662e+00
-2.880590467574967839e+00,-1.830539891830559762e+00,7.953509682809495329e-01
-3.557337804453200025e+00,-6.907098626658818297e-02,7.801833760242794791e-02
5.613600532185175629e-01,3.422675032659027838e+00,-5.933643108493498186e-01
-1.226767781997506468e+00,-2.435478573289210136e+00,2.265679728113402458e+00
8.061891872405451132e-01,-3.101001807019091672e+00,1.572651027711064353e+00
1.221884914228830166e+00,3.283060392017223439e+00,-3.667567997661352885e-01
3.026021240708763216e+00,2.311301261993143064e-01,-1.867512045664642573e+00
-1.447662771155247441e+00,6.585070140255947502e-01,-3.077859771355163865e+00
-3.130215586868165811e+00,8.615991004829269828e-01,1.133600492892644862e+00
3.851822772163227548e-01,3.110606598498057540e+00,1.653911960006022586e+00
-1.347149687192499945e+00,-2.966677391292292576e+00,1.454605975549223551e+00
-9.051547033571386569e-01,3.388537765826108661e+00,1.555678015202630327e-01
-3.518829120799270571e-01,-3.192279798494713550e+00,1.487652281241253815e+00
1.491330399514827931e+00,2.809519991729471089e-01,-3.243528062857341521e+00
-1.328057678380696105e+00,-2.014179901668452288e+00,2.629178786622542230e+00
-9.881652736339227028e-01,2.558007975016630464e+00,2.245932654297670084e+00
-3.339467991118248769e+00,5.897075591237502801e-01,-8.060259362460568955e-01
-3.339239658373729824e+00,-2.280356972964697748e-01,1.210987056398802331e+00
-9.818818200842459598e-01,-3.280839831510571791e+00,1.031397705577725699e+00
1.136278485223335855e+00,3.253442580414080965e+00,7.724168652262760615e-01
7.255083242538153954e-01,-3.387643570915042979e+00,-8.510297191459487154e-01
3.266312110212735043e+00,9.317891900495562929e-01,-1.094563626043275173e+00
-1.206088580675830579e+00,-3.174622309668471587e+00,8.921853400041860338e-01
-3.608113926573383590e-01,3.167347434271853945e+00,1.663360780905059677e+00
-2.825509794446201095e+00,3.654297667579494147e-01,-2.001290692827243589e+00
3.319305304914944355e+00,-7.916946881092951083e-01,9.458658035964517818e-01
-1.200185328196145873e+00,-3.488919060669025130e-01,-3.276980818550078389e+00
3.131937083157505519e+00,-1.481138112785465255e+00,4.778424416080939152e-01
-7.426456992372262311e-01,-3.391874491333176422e+00,-5.174908540376620403e-01
-2.794358497146458564e+00,4.641331584193474358e-01,-2.187262205412574989e+00
2.678530763128362135e+00,-1.657917307752072800e+00,-1.603849807929010884e+00
5.772272444990805135e-02,1.443059127721872947e+00,-3.195439842033087618e+00
2.957215399482257645e+00,1.003292374253464070e+00,-1.682404779563206443e+00
4.003074263531273269e-01,3.098778683586754568e+00,1.621327251568786876e+00
2.033451871641583253e+00,4.304220903264475706e-01,-2.859317135514037655e+00
-1.685249698558431097e+00,-3.159209705215363595e+00,1.979898881883554174e-01
-1.417789013030181566e+00,-2.858892685291482660e+00,-1.503552242017674345e+00
-1.144563483720905994e+00,2.533981745726671342e+00,-2.125678789858458817e+00
-1.868996683887435006e+00,2.676283124754646803e+00,1.354217967666064837e+00
3.439865468206777077e+00,6.371804985570604929e-01,-4.781137349577922468e-01
-2.110910619232144736e+00,1.254775898367187503e+00,-2.595290368357679345e+00
-1.934528475451493312e+00,-1.221920637790260722e+00,-2.724632707321410052e+00
2.603226626651177877e+00,2.413712357585999335e+00,5.648222401188296611e-03
-3.414325235555436322e+00,-2.510247503287132975e-01,-6.480573553207021886e-01
4.991577521450767940e-01,-3.223300870940028595e+00,-1.310467719593538138e+00
1.736445730963779299e+00,-2.859706759243738627e+00,1.143022507057867010e+00
8.793166771383732483e-01,3.407700097590422139e+00,-1.424833831139936946e-01
-2.999034502903768384e+00,1.445116317625554925e-01,1.780230464404970236e+00
-2.607768578727490016e+00,-1.489271449368060773e+00,1.884905139751038128e+00
-4.883937593171114866e-01,3.468109871297587077e+00,-1.319381470992626593e-01
6.595087925187390621e-01,-1.526440966459918336e+00,-3.021711316044777718e+00
2.523271691863067101e+00,1.660903653091664989e+00,-1.901138248853314172e+00
-1.892978223215689759e+00,-7.880616553831372162e-01,-2.870640704885822903e+00
-3.746359000790020488e-01,-1.282853657144557458e+00,3.303255219162891443e+00
4.167599811138879007e-01,-3.311505029032879577e+00,8.575027427540655722e-01
1.331439535888532033e+00,-3.201015181072776716e+00,-6.109215657596286375e-01
-8.599264687171752630e-01,-2.813083195681751025e+00,-1.961664861806574178e+00
-3.422157032492282092e+00,6.004284433022051282e-01,6.953986725062225038e-02
3.156342032286509891e+00,-1.359879256737539510e+00,-6.535034248217259645e-01
1.666094600001920556e+00,-2.560848078975368924e+00,1.777209701520335194e+00
-1.019810014325646330e+00,-1.060590504199102613e+00,-3.151689731188163979e+00
-7.761872410255100663e-01,1.073184550516768754e+00,3.252006864273675468e+00
2.870298144312270150e+00,1.842057605936890052e+00,-1.021448543453293833e+00
3.352938017898249967e+00,1.060407381762710433e+00,-1.741945976786350159e-01
3.367944902576363031e+00,-1.158098253241050646e+00,-4.059800728943002146e-01
-1.797722875304222478e+00,2.707092467807378444e+00,-1.385242861905002121e+00
-9.993950061903875692e-01,-3.385885894889631320e+00,-5.667854452253869857e-01
2.009176154864628749e+00,2.243968876745339180e+00,-1.922302458392216584e+00
1.430355974477588887e+00,2.986474873839699118e+00,1.268906869168093809e+00
-1.998531290323886989e+00,-4.718144451817511409e-01,2.910063553690435789e+00
-2.882101403155282071e+00,1.632589636704611991e+00,-1.335998347047108847e+00
1.174076450808630295e-02,4.264257258915691434e-02,3.546722529262014589e+00
-1.600251776837002593e+00,-2.533774968102850966e+00,-1.844564852648338249e+00
-3.121869061844968485e+00,-1.033006926741856901e+00,-1.346785090951904795e+00
-3.731472432482043078e-01,3.443307970009661823e+00,8.706243610165315117e-01
9.095935818264896389e-01,-2.445743994601251803e+00,2.425887903315808725e+00
-2.228710007898240253e+00,1.672904930425423320e+00,2.112668860759249423e+00
-3.367994478208630404e+00,-1.132144714064942992e+00,-4.292448267219096114e-01
1.939523195056374050e-01,-3.152090672829297446e+00,1.625970166215078283e+00
1.879257292013394753e+00,-1.614282644732474292e+00,-2.456863895635061024e+00
-1.072478841115056314e+00,-3.373346921915857610e+00,-2.763091302677255778e-01
3.180580348991699058e+00,-1.644512756705611700e+00,-4.697023783029644767e-02
6.091834975973079436e-01,-3.081783319873010907e+00,1.519609983512286266e+00
-9.858710640645984569e-01,-2.942070411699488464e+00,1.723351712223840648e+00
1.155751155263116337e+00,-2.289589250509588281e-02,-3.312402557975782535e+00
-8.723609660987460268e-01,-4.011367207599996210e-01,-3.416532788429565759e+00
1.077095804640514798e+00,-7.595215318555535999e-01,3.279833084789656628e+00
8.119662285201324492e-01,-2.516843007063227944e+00,-2.338745141940294037e+00
-7.591673196019831371e-01,3.407862296765395982e+00,-4.988445563574624986e-01
2.376813563780159289e+00,2.502106983627188530e+00,7.462916854282612977e-01
-2.767429544945772868e+00,-4.194011104784412525e-01,-2.188113538450539242e+00
-3.036059196663880133e+00,-1.554769256547183787e+00,7.819880258181751698e-01
-3.308765941569264957e+00,-9.588676458838512051e-01,-6.577279565120464078e-01
1.820961718627790660e+00,2.972182809646370494e+00,5.186084403456003855e-01
-8.639457379560118166e-01,1.916088190182135831e+00,2.826314990906089175e+00
2.396134753127936445e+00,-1.377874657304426764e-01,2.522500811582558899e+00
1.660144244493200860e+00,3.140261163836265634e+00,2.447074528717239905e-01
3.018209839346668311e-01,-2.816052033654879327e+00,2.227753974071598808e+00
3.353186019452119471e+00,9.590816573909706211e-01,-6.829583415205580099e-01
2.951848410454497307e-01,-3.542408355511077467e+00,-1.142055034268501107e-01
-1.938049854028526031e+00,-4.891601052248181758e-01,-2.959095439862783561e+00
-2.991334127317242242e+00,-1.737450162848683588e+00,-7.872028307537627390e-01
1.037999743584506529e+00,2.991636415373163604e+00,1.532519387778366937e+00
-1.850251449338051524e+00,-3.001628870549895023e+00,-6.082299970509403853e-01
-1.441246408562083303e+00,3.264769391970641976e+00,2.516097160266191346e-01
2.317570046772488845e-01,-3.556970113294977587e+00,-5.350300695997698384e-03
-2.600975689433130178e+00,-1.052814227915730649e+00,2.140162847709030647e+00
-1.033588876905599641e+00,3.395972097759102137e+00,-1.913851051593423447e-01
2.915622708511454331e+00,1.061831661267294447e+00,1.685841519066282990e+00
-2.581416592480140881e+00,1.577754283095245569e+00,1.807841667028776467e+00
1.567029758522548999e+00,2.395281060332667966e+00,-2.002725122070678321e+00
-7.632711009809702851e-01,-1.452650664326686547e+00,-3.074844121141956155e+00
-7.397589631126687271e-02,2.990007654266815695e+00,1.834237559890143254e+00
2.231496579517824319e-01,3.532562536984463097e+00,-1.519235066441502469e-01
-1.532319041050811181e+00,2.906731982611779674e+00,1.256418011015724145e+00
-1.608558472474155066e+00,-3.086470961118780831e+00,6.449590484063649765e-01
1.832421904326336559e+00,1.382974493823847739e+00,2.642071611982415469e+00
1.727456786488005269e-01,-3.331925108105649347e+00,-1.286182704822658840e+00
-1.503236719837384383e+00,-2.138445715736428721e+00,-2.440691685412370138e+00
-8.007362006767418938e-01,-1.797150161397732759e+00,-2.906841979284326083e+00
-5.491629147003052047e-01,-3.529870831144457100e+00,4.460174050713973659e-01
6.428511047910736576e-01,-3.210690488025623068e+00,1.381160105286551865e+00
-3.524169586254584541e+00,1.640137154141466935e-01,1.606844963487733813e-01
2.049765675900223905e-01,2.632383919264839722e+00,2.378171265046017613e+00
1.117447947705466210e-01,-6.421677283038058903e-02,-3.584487849391720271e+00
1.063556611818441189e+00,2.322875873229310884e+00,2.371516725672253134e+00
-2.665792985635071499e+00,-2.360413733705231110e+00,3.379909361790213174e-01
-7.859009525789497630e-01,-2.038758356963278562e+00,2.797119731579040369e+00
-3.203710977461576626e+00,4.091480033232974822e-01,1.380312058049118384e+00
-3.233311164005641114e+00,-1.467167716000921995e+00,3.022395994401426700e-01
4.107418957015205874e-01,-1.026962546899046425e+00,3.415330962411853744e+00
-2.130965403881508013e+00,-2.765872148045088963e+00,-6.881914121848623500e-01
2.660581408131799552e+00,-4.056546026122956339e-01,2.356921473654842725e+00
-1.778178360962046511e+00,-1.423265392391275697e+00,-2.787820021982991836e+00
2.110074543701352834e+00,-2.302164875395840138e+00,-1.739372178531237711e+00
-1.150727473832832803e+00,1.596303139529701154e+00,2.904830149823556251e+00
6.107254620708324477e-01,-1.010935551843278768e+00,-3.330262796726962904e+00
-1.508385018097110120e+00,8.151725796191336970e-01,-3.046889652907488255e+00
-9.402097519265022463e-01,-3.738186974359766213e-01,3.386016581444844853e+00
-1.121269168788890269e+00,2.605949012500799800e+00,-2.092983805915576756e+00
-7.067717071093999603e-01,2.960239495535162302e+00,1.670439073987393996e+00
-8.676358126206684673e-01,-6.614150368357886167e-01,-3.371689834887166004e+00
-1.316362477629323402e-01,-1.375816654145384899e+00,-3.256336635268294977e+00
-7.844032667808165105e-01,2.711151034098596035e+00,-2.237482645632869804e+00
-1.434866014833394710e+00,-3.196735901882962860e+00,2.639030527147848137e-01
-1.301385542237574411e+00,-9.322768270363814835e-01,3.099738768059881799e+00
4.917864171378120708e-01,-2.794281523541851886e+00,2.163782506499743796e+00
-1.037980668006070584e+00,2.579629389605951673e+00,2.269876890406397951e+00
-1.203583655868369240e+00,2.819604949527359850e+00,1.759291185338661911e+00
1.167938701018418790e+00,3.332006085457444033e+00,1.226210588318824429e-01
