-4.803224573035954847e+00,-1.087646204547282058e-01,-4.728115148862499950e+00
-6.588911437970941698e+00,1.395268834920695200e+00,-2.501352932162611786e+00
-2.336774670088553219e+00,3.187409522498578340e+00,-5.582068400200014047e+00
-7.921866854716430595e-01,3.752440599251616771e+00,-4.256345139471429562e+00
-8.626899438597083858e+00,4.275582516947270761e+00,-4.589434235062052281e+00
-2.575147161036637655e+00,2.085944607881581980e+00,-2.838826058702327071e+00
-1.550208339621924170e+00,4.456891887392495200e+00,-3.861072074640572893e+00
-4.894396064423421677e+00,4.498082362081310848e+00,-6.156786638644132559e+00
-3.768481381684988474e+00,4.407406948092018162e+00,-6.053958379384641653e+00
-2.863103348547615834e+00,1.409726016394845294e+00,-5.068092161596148948e+00
-5.795383352364300578e+00,-1.763737816751980381e+00,-3.372024241194099936e+00
-2.137076157056541081e+00,2.074977447407124309e+00,-3.495455448143200083e+00
-6.286901266789874931e+00,3.176838899844718789e+00,-5.841326224626363306e+00
-4.117045091434138548e+00,1.445970668170447393e+00,-5.162620559442238743e+00
-4.342000823165990120e+00,4.971658490841712186e-01,-1.388154501958361653e+00
-9.310981611034232941e+00,4.125645903961387972e+00,-6.335299349658454204e+00
-3.832921134241862315e+00,1.313835291764113844e+00,-1.542910114033061220e+00
-2.711187852744225690e+00,2.041954403466818224e+00,-2.669674385257930993e+00
-2.154758186559778466e+00,4.393882673396534599e+00,-1.977098944951509507e+00
-4.500543315346883233e+00,4.462552212579302235e+00,-1.899888929953595040e+00
-7.809618909428377442e+00,4.689632236263273413e+00,-4.798460966945285122e+00
-6.666035522090933974e+00,1.405705630598440337e+00,-5.319590307787327887e+00
-3.512362477293698326e+00,-1.238341309235249765e+00,-3.889331762292735029e+00
-5.522178523388992843e+00,4.626049647673797338e+00,-4.951794963264092075e+00
-7.447635873399855555e+00,5.641200546540535710e-01,-5.070913800853666942e+00
-2.398877356187874454e+00,4.383259651992436057e-01,-4.308199548249837640e+00
-6.764319428991172778e+00,-5.053609072842493166e-01,-4.456528931135443017e+00
-6.252514937583812937e+00,2.685109064223250908e+00,-6.979427504712520935e-01
-6.723209590252827716e+00,4.571884582801941654e+00,-2.849162804663215809e+00
-7.308456056851489357e+00,2.842199398030505364e+00,-2.883259435724169872e+00
-3.435556466093709904e+00,1.291387716296984678e+00,-2.147691726090922515e+00
-5.392171686437080780e+00,4.313744980875599211e+00,2.169307689474190948e+00
-4.060075923987720437e+00,2.022285500306757744e-01,-2.021871361728361460e+00
-3.608280177931319166e+00,-9.991068306968904356e-01,-4.373759008829175343e+00
-7.087347901552831786e-01,4.501407624536540197e+00,-5.485891904321917423e+00
-3.499353742583185767e+00,-1.454773856023920509e+00,-4.225808096037805939e+00
-4.671669796256238349e+00,4.315560049344242088e+00,1.616517113733114686e+00
-4.385262029722380994e+00,-1.397309834580307664e+00,-2.713551456947598695e+00
-8.763934704558497657e+00,4.008653169658902726e+00,-5.110460027603449085e+00
-3.982294420251196509e+00,4.512877160355689199e+00,-3.429703044821966973e+00
-6.244957142796952354e+00,1.401322869724875853e+00,-5.290252381061914200e+00
-8.205441497670069140e+00,3.342547458069669464e+00,-6.020002235158461446e+00
-3.330686903713504954e+00,7.547974557953471275e-02,-4.687146918911262894e+00
-4.892781292634528434e+00,-2.533923764935268608e+00,-2.795759981437617281e+00
-3.893602146957482635e+00,1.878522898220286175e+00,-1.038915394227968747e+00
-6.452592389373299042e+00,4.483485104474086214e+00,-9.992847195167499086e-01
-4.489162315566569639e+00,4.480052123846649081e+00,-2.312153032982617429e+00
-3.186187252923863955e+00,-4.439806060813048516e-01,-3.789649929874500334e+00
-5.144721546745766538e+00,4.604283587086289486e+00,-4.716699353109484960e+00
-2.144337643095322488e+00,4.489259183599138225e+00,-4.187393463739247146e+00
-6.040705217036065555e+00,2.319378424254165516e+00,-5.357781322188545081e-01
-6.498661020252411546e+00,4.658301558310343538e+00,-5.004345795743754266e+00
-7.513161830447087297e+00,2.933782296986944704e+00,-3.256392538578007478e+00
-5.108742178872220485e+00,-3.104435568211806551e+00,-2.974471703345915152e+00
-8.311123947366434450e+00,4.689053147338374750e+00,-4.429496297010103056e+00
-4.722694805828555609e+00,4.596274328419444721e+00,-4.830945777419183074e+00
-5.485974472076563302e+00,-8.818509264030370901e-03,-1.243462787060001906e+00
-3.800593427856115536e+00,4.517716104617840678e+00,-3.670301992437337457e+00
-3.340003059109212913e+00,3.527278364368111152e+00,-6.493152310526013604e-01
-5.305294620516755266e+00,1.191191138884261647e-01,-4.831853685380804286e+00
-6.803556582809151543e+00,4.342455431119348397e+00,-6.235609629518896746e+00
-6.301097350469633263e+00,9.961274593804502198e-01,-2.200159470612626844e+00
1.384462177264407234e-01,4.116574085780321468e+00,-5.367130344204255721e+00
-2.971178555141169131e+00,1.941458685348829816e+00,-5.239475869763624338e+00
-3.743361553533822494e+00,-1.247954149663788037e+00,-3.554376427023278495e+00
-8.475679900140614009e+00,4.725391483362276546e+00,-5.152123273793212554e+00
-7.035641035913181796e+00,2.745694969306053501e+00,-2.364865139899379631e+00
-1.412440049472938997e+00,2.480853487830635640e+00,-4.270637334790232664e+00
-7.649069804474823986e-01,3.482781539404482096e+00,-5.568815432936271570e+00
-2.450382252199878153e+00,4.457440050340522930e+00,-3.235469427962402111e+00
-4.344581476977798395e+00,4.529095701511957728e+00,-3.547424062132463529e+00
-3.782139510332999333e+00,4.451607668611447188e+00,-2.156483819288860904e+00
-5.539895650106615221e+00,4.649377729201290776e+00,-5.478040114577058972e+00
-6.844368565509097557e+00,3.729717562550069143e+00,-1.132350786965889089e+00
-7.406973173116996101e+00,2.050461704592601020e+00,-3.753513713996600387e+00
-5.265142853261966849e+00,1.503909266662309674e-01,-6.277302453150467310e-01
-2.195128625494190633e+00,3.682262923826435941e-01,-4.661272187265077527e+00
-5.912911223106140923e+00,4.486305483429974927e+00,-1.447084920332213587e+00
-4.602322932517751042e+00,4.625117777214015291e+00,-5.582490328682784053e+00
-5.885379151611016546e+00,4.491602057134967296e+00,-1.588941054250396556e+00
-6.712105413098121254e+00,-6.714074701112877630e-01,-4.479264411517244859e+00
-7.851650981372459093e+00,4.736816777431235970e+00,-5.858477040907406064e+00
-6.201941129316700163e+00,7.152832892050751123e-01,-5.075541875954528770e+00
-6.450490442302600158e+00,3.947048121498855089e+00,-8.918856399108020250e-02
-3.701153216344366115e+00,6.614577442722923140e-01,-2.216466123801013044e+00
-5.488231283014991746e+00,4.558270219112944055e+00,-3.410367427482886793e+00
-4.111583712023322512e+00,-1.603241208135834484e+00,-3.269780072788194936e+00
-4.684338994639211329e+00,-1.666264541239016184e-01,-4.702346154005267564e+00
-7.504054936914146268e+00,4.584146274289058631e+00,-2.578716153718838111e+00
-1.522495526178834879e+00,1.696368122572698534e+00,-5.067512699119420816e+00
-6.451351798700581952e+00,-1.083240432087036575e+00,-4.536726360889828058e+00
-6.589065086354947809e+00,2.475311094535427969e+00,-1.609189959555723970e+00
-5.022982760282227233e+00,-3.675692697470155146e+00,-3.440387000514177895e+00
-5.745812136522556735e+00,4.369313590670881098e+00,1.136589521132296721e+00
-2.146965699279561157e+00,2.547960078621130275e+00,-5.371989375099611941e+00
-1.670946084331886627e+00,1.465588051186329954e+00,-5.006112811886534786e+00
-6.078885788079262831e+00,-7.614834706569757472e-01,-3.165378225711986460e+00
-4.701900266874858403e+00,4.598131210367514932e+00,-4.888578332743712451e+00
-1.910356546615119111e+00,3.219681350790755126e+00,-5.563694678635612512e+00
-6.033373312751239226e+00,-9.675520908350635496e-01,-3.235879180210861517e+00
-3.349809672015763962e+00,2.678858155720847289e+00,-1.257044834083259843e+00
-3.558923936200938165e+00,4.213646168284700622e+00,1.782042085658254726e-01
-5.025854409219080665e+00,2.843516436683419357e+00,1.345186288548135378e+00
-6.280208579654358303e+00,-2.204391977631092736e-01,-3.159678922649335586e+00
-4.251947788715935594e+00,2.359165339710109777e+00,-1.558538749421248537e-01
-6.851813225562975340e+00,4.620176545018198411e+00,-3.873373812680983796e+00
-6.275997545051654747e+00,-2.721245014839345777e-01,-3.193156797476718545e+00
-6.279050812181186103e+00,1.195266082213741893e-01,-2.876207618446368297e+00
-5.044662685429948112e+00,4.611649311044121013e+00,-4.957771269370648604e+00
-3.172405630520462871e+00,2.897146480755779407e+00,-1.359603182399922172e+00
-6.589942040468383055e+00,4.220513835341059838e+00,-1.689531931120783204e-01
-9.371129441773138780e+00,4.800464414866149276e+00,-6.251164801862922005e+00
-5.440323121429134545e+00,-1.149322085218974943e+00,-2.085835575040689616e+00
-2.791331463034976146e+00,-4.547507782066183002e-01,-4.382152576150078360e+00
-6.029839345900251502e+00,3.015692404067868981e+00,6.344858792954494175e-02
-3.887275512339397832e+00,4.354716938608089727e+00,1.559420422252173755e-01
-4.286648391085515541e+00,3.815010333172959900e+00,9.632686616219700015e-01
-6.772513762192261311e+00,2.281860602518611891e+00,-5.597226832913835715e+00
-6.808972811619938170e+00,2.185513644049516646e+00,-5.569897554097658521e+00
-5.947385778130277245e+00,1.301403254488193717e-01,-2.140268107041815249e+00
-5.992054985987437910e+00,4.376724487597694946e+00,1.140017637533574879e+00
-4.356918322777362462e+00,4.493955118518259795e+00,-2.727036619623049329e+00
-4.121151152009806751e+00,2.408700779540679626e+00,-3.131744754880070314e-01
-7.063921344253182077e+00,4.711516005899736292e+00,-5.832642063603774574e+00
-5.508689089550631302e+00,4.604910378976695640e+00,-4.473107075494819895e+00
-4.659463347836663161e+00,4.550227320980648749e+00,-3.812234568142653490e+00
-8.716143598653047775e+00,3.982495939487874725e+00,-5.027294200965919835e+00
-5.477157127430750450e+00,-1.423690647397865883e+00,-4.366849852839276735e+00
-7.986042523589063080e+00,1.973786460690141187e+00,-5.086472490893656051e+00
-6.508284602413015207e+00,4.439368356597547915e+00,5.916559110739698368e-02
-1.335240013526241443e+00,4.493843986562862547e+00,-4.866974780044898807e+00
-3.710499735254317866e+00,1.206051519521063931e+00,-5.061513930282954377e+00
-3.767599227425284081e+00,3.923069573100657959e+00,-5.904334482409204554e+00
-5.569579861170053547e+00,-2.915147989522326011e+00,-3.828429884827807772e+00
-3.997806706078865790e+00,5.134341144160088355e-01,-1.885819484393217227e+00
-7.235029845104436141e+00,2.431496221055185813e+00,-5.674173323150863091e+00
-6.632475288916693579e+00,1.421056892005275740e+00,-2.575555657376825902e+00
-3.117832174835135195e+00,5.503659671836289569e-01,-3.161578845093374834e+00
-6.369627465690567369e+00,4.644799816840603057e+00,-4.783987390054964983e+00
-4.885082608640304969e+00,6.133543955156038896e-01,-4.988799198740599405e-01
-2.627409058169710487e+00,2.828337196595516634e+00,-5.490500781707235767e+00
-3.692581752249036509e+00,4.115137563349168026e+00,3.038430034421104597e-01
-5.514478832590314461e+00,4.343168808066259601e+00,1.576428441901905897e+00
-3.586514819384328590e+00,3.506857849771147784e+00,-5.763771962846429453e+00
-4.925702556993372561e+00,2.975213025779358755e+00,1.293495483134556201e+00
-3.427121765664925768e+00,-7.437774878392201527e-01,-4.440566070475016502e+00
-5.262119185075566641e+00,-3.526769218970394970e+00,-3.659745769065771537e+00
-2.571746481549708196e+00,2.300708475183832480e-01,-4.684446715117379867e+00
-5.997711685992105579e+00,4.618853216666153116e+00,-4.448405136082133282e+00
-4.109958877551977974e-01,3.015856290646917515e+00,-5.401106463654945955e+00
-2.879240622910317349e+00,3.735102919171854552e+00,-5.787250085046736103e+00
-4.770555709069453698e+00,-3.187537668945469527e+00,-3.775206882779585271e+00
-5.803980120105998175e+00,8.610391975719018376e-01,-1.221871169735752050e+00
-2.730197681936993082e+00,2.995651818985593184e+00,-1.942068147976834247e+00
-3.896117682042009811e+00,1.882982125899935522e+00,-1.031920530741660347e+00
-5.402876037733336467e+00,-2.901477427184827373e+00,-3.451638407476426806e+00
-5.118387276940585373e+00,3.123987843258689168e+00,1.687889269992327579e+00
-6.501487997027381560e+00,4.681922648832032685e+00,-5.547916341097110404e+00
-2.290622644043410538e+00,4.463290861897102779e+00,-3.483881995472652537e+00
-8.456498781594300240e+00,4.685154358555267962e+00,-4.236368937239548771e+00
-6.569441290123005039e+00,4.023737292805187771e+00,-6.121629121362673231e+00
-4.475995971031649034e+00,-2.139838632435501431e+00,-4.079164238910800933e+00
-6.464731513558588993e+00,4.431920937996456367e+00,2.002971128349627372e-01
-4.062473348567630538e+00,-2.616084497133761011e-01,-2.358509423387170845e+00
-3.959131148945016943e+00,-5.704694278411147346e-02,-2.361483071356331287e+00
-2.024464244873386942e+00,1.536589845216624450e+00,-4.057047477832306015e+00
-7.537479501421282535e+00,1.659469873243101468e+00,-5.455869125390227836e+00
-5.317321681847490211e+00,2.939904270418508769e+00,1.563000971512289450e+00
-1.898749705821800138e+00,3.142465881460365651e+00,-3.065391670979592753e+00
-1.250918736692764766e+00,1.998504667231502330e+00,-4.863542166271082046e+00
-5.942890508371483360e-01,3.834158478775529399e+00,-5.665982878424929758e+00
-4.340104977405193409e+00,-1.341120162188509157e+00,-2.739198054592933751e+00
-8.276121901656530611e+00,2.840927825600779499e+00,-5.005897764873703970e+00
-3.074552862166321621e+00,9.014679088940291685e-01,-2.968150649882912884e+00
-7.458100750814978808e-01,3.168110118825502752e+00,-4.753567968749168315e+00
-7.765496677003453030e+00,4.655640819450209023e+00,-4.044647760810759607e+00
-8.448553749231458854e-01,4.322040988862879018e+00,-3.760609925743926496e+00
-8.697678304669684834e+00,2.894206084494505671e+00,-5.914266313012311649e+00
-3.989914841563092285e+00,4.338862685908371652e+00,5.949026961241619116e-01
-4.097392748688140962e+00,-1.735284155476420676e+00,-3.387633503280182090e+00
-3.691184131769520871e+00,4.553070832336929108e+00,-4.564464229322145350e+00
-3.488408711251779870e+00,3.434112932001557095e+00,-4.979227410322746850e-01
-9.012475098285635866e+00,3.576114305767240875e+00,-6.145763359142842219e+00
-2.630801748621954150e+00,-3.432514432297791018e-02,-4.311475998680120547e+00
-5.123237222404156910e+00,4.509675619268040947e+00,-2.546777791711461347e+00
-3.742444547182014691e+00,-1.753417004309230975e+00,-3.926450923685861571e+00
-7.943666350388300934e+00,4.639567527816790715e+00,-3.547073587305792586e+00
-7.385096248297995380e-01,4.011839363863260566e+00,-4.145568316516399676e+00
-4.944466621342987089e+00,2.974167722020541138e+00,-5.689523503180465624e+00
-4.731844575225404803e+00,3.104231314173592882e+00,1.101103784594093415e+00
-5.602889160954339864e+00,3.891063029389999706e+00,1.722896255721758196e+00
-3.351569524907114239e+00,4.597133951112163608e+00,-5.822989538158326539e+00
-4.357816201509988829e+00,-1.098747843715482952e+00,-2.535214880085684186e+00
-3.031262544434174533e+00,3.694226292858062255e+00,-9.839778416785032178e-01
-3.663864131414130920e+00,4.571149161801133509e+00,-5.001389488655398452e+00
-6.124233099128767677e+00,3.972215005055304005e-01,-2.307297997548475976e+00
-5.778127344618685157e+00,-1.518207212145355478e-01,-2.002172774281294476e+00
-6.265428191122649260e+00,4.249689803486313089e+00,5.666465272242798834e-01
-4.213913566253494558e+00,-1.953235002809122323e+00,-3.374968274638704635e+00
-4.581187928684212984e+00,-8.151348847004185050e-01,-4.495228889582888243e+00
-4.584870858111904646e+00,1.604377681857790838e+00,-2.165215051557869141e-01
-2.966114778038607902e+00,7.415315066670419286e-01,-4.868597144322812653e+00
-5.476066956194939550e+00,1.752673416433052411e+00,2.338793814326300680e-01
-7.942234038242800942e+00,4.716725300282260669e+00,-5.330197888330960865e+00
-8.518790643638245452e-01,4.103346659263698903e+00,-3.910605911321593631e+00
-2.456513285322130091e+00,3.117236332306170254e+00,-2.258098896051488058e+00
-6.456801949498991888e+00,3.296760546703248806e+00,-6.403957196441560917e-01
-2.944830322215489904e+00,3.455299891751528740e+00,-1.287178555886353326e+00
-1.075244230939749190e+00,3.632525856560912203e+00,-3.925212335603312397e+00
-5.289871353848534241e+00,-1.921367120113405491e+00,-4.200718563537600758e+00
-6.743936351903539794e+00,4.616358772979414660e+00,-3.861684471548906039e+00
-5.676321788158879222e+00,4.425969481979379339e+00,-2.212601741801779043e-01
-7.341498775220555828e+00,1.611030614061774724e+00,-5.427886179930263566e+00
-7.407070610213761341e+00,4.571642125150765956e+00,-2.358674747030629071e+00
-4.892530655980475096e+00,4.389838959289970255e+00,5.750153207615872619e-02
-6.103904270332648707e+00,6.676949904751655618e-01,-2.039219954552254688e+00
-5.289785271485014206e+00,-3.215870456166730396e+00,-3.463489911923030906e+00
-4.181179194452175452e+00,2.444376607777027921e+00,-1.981345973097606850e-01
-2.264620027113050327e+00,3.676168339217939174e+00,-2.132274186384314874e+00
-5.415828909280960168e+00,-2.915619236710770057e+00,-3.491723488146911247e+00
-6.275110611391909288e+00,3.584977899523084766e+00,-3.870923197701485897e-03
-6.237096482421820021e+00,3.644866924152839527e+00,1.289639557892344746e-01
-5.473265396201351329e+00,-2.358964706480652651e-01,-1.403245727151403166e+00
-7.996448754443241214e+00,3.687213808483200239e+00,-3.693386268318640475e+00
-7.424678054093014623e+00,1.196312811668203580e+00,-5.305347730183090249e+00
-7.961766146126022292e+00,2.281870622887846700e+00,-4.778659708195846179e+00
-5.365633846860848877e+00,-3.000646393785629140e+00,-3.872468027125987700e+00
-4.068320094814336763e+00,2.287654231050643805e+00,-4.801714970060363963e-01
-8.961137329515102223e+00,3.547646245629289208e+00,-5.923778772588365271e+00
-4.073403636883016432e+00,4.411229286398009819e+00,-1.017347314886371867e+00
-1.849308793857172617e+00,4.506944585820473748e+00,-4.805060843213270871e+00
-5.485452703201890934e+00,-2.057069018086608470e+00,-4.171811459484517037e+00
-8.398524141759892148e-01,4.521484552103617105e+00,-5.856639314817662978e+00
-1.237509246628722304e+00,2.186817001966152585e+00,-4.745283453328621448e+00
-6.772511253962242961e+00,2.226628731053760912e+00,-2.216892191929889844e+00
-4.806518081087434169e+00,2.785354561571408372e+00,9.777908640536548956e-01
-6.316824174514002799e+00,4.637133222954150646e+00,-6.294259456198679104e+00
-1.340587668240958541e+00,2.481441050321013808e+00,-4.376587418592253087e+00
-6.582495693107778933e+00,4.611518096916094933e+00,-3.864348291322339257e+00
-6.288937003134954296e+00,1.296764089719904867e+00,-5.260887086473418961e+00
-6.291290352776813144e+00,-1.576955657633561714e+00,-4.304941554312383012e+00
-6.211231113048159003e+00,4.692188211569122913e+00,-5.990824568998072586e+00
-6.098168042502935648e+00,-1.860518314193322809e+00,-4.115848660834690698e+00
-6.110279376399883944e+00,4.166063803470861693e+00,-6.135064590184130751e+00
-6.729500242492410855e+00,4.519963363119154920e+00,-1.645480962524179303e+00
-5.436816600272954325e+00,3.672390667695980326e+00,1.906305637975558964e+00
-4.182015889222778782e+00,4.444696979236948842e+00,-1.713337791501001517e+00
-6.056913500950445339e+00,1.407364927212679140e+00,-1.324962661571206457e+00
-3.039188405490216738e+00,4.589331520001780795e+00,-5.864269400869368098e+00
-6.949402736029109739e+00,3.394930146433161600e+00,-1.639289782896616199e+00
-2.526352128279679476e+00,4.449990162176276520e+00,-3.009533742902810616e+00
-1.447989679867746071e+00,4.518024922469916937e+00,-5.345535943081721086e+00
-4.143799744074589064e+00,4.183320415302903328e+00,1.021900321928994604e+00
-4.514275047937384322e+00,3.406043333037783949e+00,-5.794298207418886015e+00
-4.568936017760350410e+00,4.470876146830375930e+00,-2.043652888144182000e+00
-5.818197294102406936e+00,-6.552646265947210946e-02,-2.018715504671021677e+00
-4.546713244097441375e+00,4.545413623331608477e+00,-3.780997727173102785e+00
-5.335516301508663517e+00,2.767123247095566008e+00,1.380330934311774449e+00
-5.722424248841476491e+00,4.514287587105161315e+00,-2.228449772081562141e+00
-8.105019590467582802e+00,2.642855784808509245e+00,-5.797260763423289553e+00
-3.236430156205988506e+00,2.739276432568160669e+00,-5.503473497810538184e+00
-3.709323803990532742e+00,1.223166707138634957e+00,-5.066721015550984752e+00
-3.763125913896450125e+00,4.490097441912770826e+00,-3.058961436424796343e+00
-6.145656554811433026e+00,-2.502858266046771307e-01,-2.889340315429776318e+00
-2.967409929210242048e+00,4.587954529462735742e+00,-5.883359275568405877e+00
-3.844627290005458775e+00,3.809580068164589495e+00,3.048518301874730274e-01
-4.409053033102287245e+00,3.102408794717924412e+00,6.218582233719686103e-01
-7.669216773124549746e+00,4.426974350199004427e+00,-2.364630982553058480e+00
8.624769371597465484e-02,4.043675234899087201e+00,-5.685454572915666027e+00
-3.839779200512950297e+00,2.194997359035633977e+00,-5.375496065221940789e+00
-4.056372625294405232e+00,3.465670783645499853e+00,3.661211794083977789e-01
-5.062931089426180087e+00,-3.046647679049318658e+00,-2.919887001314425135e+00
-9.023575060791284130e+00,4.788215383827577831e+00,-6.214681210761737518e+00
-5.451007483796788122e+00,-1.158065630483568142e+00,-2.116486105497845216e+00
-3.551107029594683606e+00,-7.417749811251619363e-01,-3.467776602668959818e+00
-5.077056086950915592e+00,-1.858923315640107488e+00,-2.027872836753749741e+00
-2.906689079224865857e+00,3.253783613571601840e+00,-5.640441008092396125e+00
-1.485425652877288227e+00,4.420535278694393000e+00,-3.067279350154608064e+00
-8.989690339279851727e+00,3.671690014509369160e+00,-5.883876298585085429e+00
-1.324608660656137804e+00,4.501908937367681496e+00,-5.060788599167840296e+00
-3.039226860872335401e+00,1.158571020186056622e-01,-3.596635623434997875e+00
-5.972252557716439370e+00,4.431486430337788107e+00,-1.388566782531832633e-01
-2.060476639353515882e+00,2.975478893715048923e+00,-2.948418605743269971e+00
-6.563630494902724877e+00,4.552942786835034283e+00,-2.524813920043387228e+00
-2.042293030950740551e+00,1.299464988901174900e+00,-4.204563308177262648e+00
-5.339229189738363246e+00,3.666863644432418190e-01,-6.114259002224416983e-01
-5.134815396641928764e+00,-3.839449768446362987e-01,-8.605779524835320826e-01
-6.066211541426323350e+00,1.465661402946758285e+00,-5.298241089422620398e+00
-1.612177352978335643e+00,1.473768145169593646e+00,-4.713533393198133581e+00
-3.012453598255476539e+00,2.659857586742154778e-01,-4.724826402081567345e+00
-4.016691285982007642e+00,2.032960209703689736e-01,-2.085321565029162549e+00
-5.787030272468439485e+00,-7.131373706313706151e-01,-2.485539872244055815e+00
-7.494517875028289033e+00,3.297514022706927950e+00,-5.958848351842190638e+00
-4.952931303981252142e+00,4.513970375175721195e+00,-2.766728034808396686e+00
-3.712696365900278295e+00,-1.450467977351927340e+00,-4.241316338531130548e+00
-3.831538793292503353e+00,1.396957191949991017e+00,-1.483993432168304816e+00
-3.468889719640518177e+00,4.416519732933803510e+00,-1.568167845571253105e+00
-8.001311210305338761e+00,2.597342299268047938e+00,-5.776313650375226594e+00
-3.228460888258462003e+00,-8.024420716609105275e-01,-4.409247384316092422e+00
-6.724920443614580634e+00,4.686054602259448032e+00,-6.336488301877057694e+00
-5.427124037974974335e+00,-1.360583889737701835e+00,-2.231474400949360781e+00
-3.740916062997726055e+00,1.003466954647194882e-02,-2.635362299088500837e+00
-9.661604263134696780e+00,4.718725428727291060e+00,-6.491809397611550736e+00
-5.784100057963525110e+00,-6.663131857450578233e-01,-4.621130133541014651e+00
-7.490284522443904081e+00,4.649338982319177305e+00,-4.094232300925688683e+00
-6.571396164833354092e+00,1.199658425608008505e+00,-2.624594969797561461e+00
-3.690437860614635746e+00,1.511531822448729745e+00,-1.608868977763222352e+00
-6.801735636680323438e+00,1.788168198649883855e+00,-5.446714754845958240e+00
-8.516942162787598747e+00,3.170252539948911430e+00,-5.261751669497717998e+00
-5.647022841243142466e+00,2.037806366683195147e+00,-5.447062758319679787e+00
-6.082234454573947069e+00,3.512085248616661382e+00,3.587707932846986858e-01
-6.753658224475783456e+00,1.329298428989135639e+00,-2.917071957059533371e+00
-6.029069105647081095e+00,4.596872659104201730e+00,-3.918487623290171307e+00
-7.163656894228806138e+00,8.604551042752403012e-01,-4.203417334368350744e+00
-5.432120264074682403e+00,-2.605093481224526886e-01,-1.333374876235163375e+00
-3.871608297679398181e+00,4.041020059772562512e+00,-5.947670407435903250e+00
-1.610932519759452397e+00,4.375026521481199637e+00,-2.587534040350459641e+00
-4.759342590043973864e+00,3.895056876796725298e+00,1.721823644719151947e+00
-7.329586619131652769e-01,3.451663701630243608e+00,-5.557082865069709499e+00
-6.411196628448412760e+00,4.475521978599830142e+00,-8.447122940088971355e-01
-3.190707406615146624e+00,2.229216810695043627e+00,-1.822379812610063210e+00
-6.540887970778949345e+00,-3.201350087265815436e-02,-3.575506369417900121e+00
-3.672632104773937645e+00,1.350790767571646178e+00,-5.103693323689624251e+00
-8.396761146374894125e+00,2.953656094341724270e+00,-5.177243112113628420e+00
-9.512268158279633568e+00,4.809759741522221965e+00,-6.365784780530496789e+00
-6.189015043492086754e+00,-4.178718440977581272e-01,-3.122888694000451437e+00
-5.789181208397771172e+00,-1.409524515427659885e+00,-3.065719735694691028e+00
-8.263476140029100137e+00,2.850681578261756499e+00,-4.970112115331586367e+00
-5.311735033907496906e+00,3.790719354186640189e+00,2.278326080362909511e+00
-4.449011487895059958e+00,-1.561414861129241993e+00,-2.739525214070066106e+00
-5.405987420319910086e+00,3.185301916857341542e+00,1.571389072813713650e+00
-7.705530137260937273e+00,1.689928166831218048e+00,-5.476443268378751839e+00
-1.983843291113543517e+00,2.014638197907137940e+00,-5.196456521668658013e+00
-4.144375384333589096e+00,5.622771455455892742e-01,-1.632994805986347275e+00
-3.043835552351266127e+00,4.446026284426339181e+00,-2.551061406103673157e+00
-3.006303383607278334e+00,4.410097100308790985e+00,-1.747819047928392600e+00
-4.713276571600885312e+00,-1.199416945558482217e+00,-2.082770955620653730e+00
-5.020502871672123391e+00,-2.752729242893186434e+00,-3.926088697095623914e+00
-6.095984102838481355e+00,3.894512178600664676e+00,-6.050258337894342198e+00
-5.237558463584672808e+00,9.036363532967635059e-01,-5.069613979892883648e+00
-5.577773994968624471e+00,-2.919917680306108654e+00,-3.850336820001091898e+00
-5.104744372834964850e+00,4.557327859861042718e+00,-3.660511167358085238e+00
-5.082410620581332417e+00,2.917555021917305424e+00,1.483221981313430859e+00
-6.687965887759715677e+00,4.522869911171581769e+00,-1.742063053089693003e+00
-2.476850919270488394e+00,4.489817982019210230e-01,-4.745740591348273085e+00
-4.993889728471728184e-01,3.672557789265720629e+00,-4.748434366353754932e+00
-2.934660767508921353e+00,4.526965345747373526e+00,-4.497916151460306544e+00
-1.635742726329856067e+00,1.855759406935044931e+00,-4.398483464155720668e+00
-4.080618679638100765e+00,-1.697216120051135313e+00,-3.384548466623226837e+00
-6.423880963485181894e+00,-7.420292541805704190e-01,-4.640268014470928293e+00
-2.547497348898793312e+00,1.392914450529043169e+00,-5.041925776609061494e+00
-5.889510463157557218e+00,4.590706972855723045e+00,-3.875032429864337491e+00
-4.943039576530133594e+00,4.514900829802349080e-01,-5.317863605503651003e-01
-5.602339291955681588e+00,4.619426951011793570e+00,-4.741993343695684260e+00
-7.672256569360508038e+00,4.591074325555310587e+00,-2.619470489030623739e+00
-2.323721909636239591e+00,4.422464006931029701e+00,-2.517437565710248570e+00
-6.005861236260471081e+00,4.415065321710668123e+00,2.642507985801986203e-01
-3.166117980489739914e+00,-1.774181984283640379e-01,-4.598113936294243587e+00
-5.843118426227793094e+00,3.588572885298097148e+00,9.462338396575049604e-01
-3.618461635236480234e+00,6.424966272414195378e-01,-2.352801583078560466e+00
-4.868526843379243019e+00,4.118520365553989038e+00,2.047369052441354587e+00
-6.277236783015809785e+00,2.310097637519957114e+00,-1.062037986553377111e+00
-3.980187873160619283e+00,4.384575411112681564e+00,-4.678184002380296191e-01
-3.888372172516060044e+00,1.221143089795446723e+00,-1.528794463372558088e+00
-5.992232467317337274e+00,1.468202873085961091e+00,-1.132876992816660211e+00
-7.971159594088251588e+00,2.983258026382303196e+00,-4.219658674296595358e+00
-5.298355244385817286e+00,4.304959991964937949e+00,2.305694033521354935e+00
-4.773801900009310373e+00,-9.146889861174198888e-01,-1.784334880492114195e+00
-5.612258013737786655e+00,2.277528296534517604e+00,3.690004696519050276e-01
-4.662118871343158943e+00,4.462909214281768122e+00,-1.793570287693422971e+00
-5.091272708619443144e+00,4.593465373653993211e+00,-4.504729301399475361e+00
-4.432187196178395405e-01,3.736156871352012132e+00,-4.784952341170439105e+00
-7.407005144270271124e+00,4.709198315195109785e+00,-5.535848744218437645e+00
-6.008876466066579880e+00,4.601344077524093912e+00,-4.036081206785230968e+00
-2.104318021249340198e+00,4.458655131013940398e+00,-3.508909084254931532e+00
-5.998018015822186300e+00,-4.466050724811375106e-01,-2.727875507877639993e+00
-2.902839507492400273e+00,3.971968098799255054e-01,-3.592223553453424589e+00
-4.848720221313243428e+00,1.037364656644093719e+00,-2.417384170120637776e-01
-1.882473955068369564e+00,1.950617679074119870e+00,-3.963614640443984261e+00
-9.688104166584095012e+00,4.751687387312963473e+00,-6.522671567744983356e+00
-7.404163487076510286e+00,1.956683552285858774e+00,-3.824847712076296258e+00
-6.462049568670535926e+00,4.388742064408271304e+00,2.504649087271232921e-01
-7.936262820280762575e+00,3.369698862585811305e+00,-6.010497307414313539e+00
-4.456661437595567321e+00,1.853711892661250360e+00,-2.234750878453811707e-01
-4.918383173439463185e+00,-1.574162730975911417e+00,-4.283247842207139833e+00
-5.761513066406292793e+00,4.561070735671684417e+00,-3.281281802618805976e+00
-3.345417739099774135e+00,1.234241573251220858e+00,-5.045956087983572758e+00
-2.465509815725631437e+00,1.178909660685677263e+00,-3.666387617392845133e+00
-4.239526693449191974e+00,4.371301092158000223e+00,-6.074114023467988233e+00
-6.477651418884350143e+00,-1.479772806257268480e-01,-3.532688936453263651e+00
-4.708989192982744321e+00,2.539925206196578689e+00,6.533915856055564353e-01
-4.943517063760191732e+00,4.589431081254779166e+00,-4.516314832769809939e+00
-4.002590431887750988e+00,4.363213921643976256e+00,4.145113503248394615e-02
-5.382267420819649040e+00,4.362147144955176081e+00,1.044343063139507199e+00
-5.308403135600022971e+00,3.875451106718877936e-01,-5.266036488813733429e-01
-3.330418049320734042e+00,1.977568778676758399e+00,-5.274501560428635827e+00
-3.903018355085640323e+00,4.348943319981229294e+00,3.004573657744535331e-01
-5.135680102973201322e+00,-4.428938128041698952e-01,-9.025319970463073771e-01
-1.207804908986326531e+00,1.996138361116019277e+00,-4.929109824001802309e+00
-8.120758564763553622e+00,3.686313204657910791e+00,-6.120530481866729211e+00
-5.724254214631616655e+00,-1.080597473656829344e+00,-2.651557661725665760e+00
-2.724735960115336919e+00,2.757851898767398779e+00,-2.124561836149735150e+00
-6.074283110939701302e+00,4.578298352137036176e+00,-3.457419150251707762e+00
-1.529120094093057380e+00,1.910300415650618255e+00,-5.134016088491464735e+00
-7.645846631638739233e+00,3.487158861897625695e+00,-3.090014978033935211e+00
-6.736200407056500694e+00,3.540389989717977470e-01,-4.999494650598349743e+00
-4.236223257042714074e+00,4.387148295388739072e+00,-3.457036333977334119e-01
-1.899920937449210312e+00,4.088770096207084315e+00,-5.831379129892180657e+00
-4.899329839344071402e+00,-2.875710997567157090e+00,-3.880058394485929707e+00
-3.664989905189405484e+00,9.692427372833555266e-01,-2.044271873896400304e+00
-4.131979326581070033e+00,-9.377165809939980168e-01,-4.427521159936825157e+00
-7.780887484836900292e-01,3.051486102398587530e+00,-4.791312237096041038e+00
-6.269243896404558924e+00,2.752117136923156959e+00,-6.792480999025447552e-01
-5.513935645906589578e+00,-5.760806702230748533e-01,-4.631039387725751411e+00
-8.833750831965666350e+00,4.669656842514208428e+00,-4.717305836211620473e+00
-4.730098915222186839e+00,-2.568986148877875131e+00,-3.062334781411262696e+00
-7.203051575180882793e+00,2.520196241565581641e+00,-5.699438986528731377e+00
-6.433631732785031865e+00,4.379913740813680789e+00,3.054750904221467112e-01
-3.483105703189318891e+00,4.471211799377278417e+00,-2.821307658105099758e+00
-3.228387789072657998e+00,5.759177993478651336e-01,-4.834885428372159843e+00
-1.619091928294791982e+00,3.726029307631019805e+00,-3.051441497139647296e+00
-3.720460071852974782e+00,3.793882173017064652e+00,-5.861308081158211891e+00
-3.907112377145323112e+00,2.053257247918401779e-02,-2.381601035616339956e+00
-5.593719905850679019e+00,1.406626012283751948e+00,-5.248609335992337144e+00
-4.329487070318973174e+00,3.277968285345641331e+00,-5.742467280587608691e+00
-6.434336623522630028e+00,-7.369164082692469808e-01,-3.924395757067564272e+00
-7.016051203753933763e+00,2.531292199217428873e+00,-2.499087937117486113e+00
-1.251667842797234753e+00,4.502930916840232278e+00,-5.136111501323200379e+00
-4.796777980425939170e+00,-2.877701355870848854e+00,-3.872628254242186152e+00
-1.525280463709957512e+00,2.154711607277632890e+00,-4.342770648288725610e+00
-4.436946756386397794e+00,1.132398665879504218e+00,-5.087048696755502419e+00
-6.237288179520427134e-01,4.506371661922451644e+00,-5.660819029875122865e+00
-6.184141463029339647e+00,2.192947407510397628e+00,-5.530667366084371928e+00
-4.681458306019188775e+00,-4.723180141373623520e-01,-4.607755960301790132e+00
-1.814464324976836851e+00,4.402725592619745498e+00,-2.422626909108480664e+00
-3.774545070815652270e+00,-8.231412358066948487e-01,-3.196641180243211533e+00
-6.518079444529266908e+00,4.684290433273864629e+00,-5.590840847276645320e+00
-6.821650770031315147e+00,3.609531047793647307e+00,-1.181859382182197882e+00
-3.206752728350888759e+00,2.415477068135404970e+00,-5.401510654869224659e+00
-6.358307022763610483e+00,3.754079096372073820e+00,-4.653949430734443532e-02
-4.335845368227516872e+00,4.438505958915833993e+00,-1.461272167908894470e+00
-8.620878757989686392e+00,3.087902335681730559e+00,-5.968976437627913967e+00
-5.138740614553829467e+00,-1.376595659221329537e+00,-4.358902093478014272e+00
-4.618508078496528668e+00,-2.898760618498090746e+00,-3.854277404875384061e+00
-5.119862652092341371e+00,4.663852023439345018e+00,-6.110174241987982313e+00
-1.167000668354434278e+00,4.477134208717141739e+00,-4.600319196513373399e+00
-2.527361026842509961e+00,1.808320032594026294e+00,-3.113191357342689258e+00
-6.088964710461538310e+00,4.663530972881898329e+00,-5.415622283931422309e+00
-7.630938400187886828e+00,3.183010386920468893e+00,-3.308664027416758469e+00
-4.690353410451696625e+00,4.424007269284150112e+00,-8.750347036223954378e-01
-7.146228797595532534e+00,6.701632586540992031e-01,-4.322455475509791256e+00
-5.005535756445909534e+00,2.110614336335312036e+00,7.775780851030932306e-01
-1.666883600668118914e+00,1.385435789173045995e+00,-4.697322841493693169e+00
-3.358537267433720608e+00,4.604044729988087781e+00,-5.977666968012242954e+00
-8.045021168093656527e+00,4.670675911587002460e+00,-4.193717080668959873e+00
-7.511618589493274989e+00,4.740270656710652730e+00,-6.179349259106569292e+00
-4.083285336952776845e+00,-6.485949802020665178e-01,-2.611520099850522136e+00
-3.221562594577023653e+00,3.250105094789522420e-02,-3.387813563375656312e+00
-5.179847922424169582e+00,4.500931207783042787e+00,-2.304669095421442826e+00
-6.037027634896152684e+00,1.855372455726549852e+00,-9.111494146999044030e-01
-3.471528651525241926e+00,4.558045898602195223e+00,-4.835118607364273124e+00
-1.298615786689877982e+00,3.543558259845370539e+00,-5.623053357196535984e+00
-5.890798356694941340e+00,3.285182247860477522e-01,-4.935429030521015115e+00
-4.964074797377832304e+00,4.597622411686928423e+00,-4.690933178780016810e+00
-3.717660194112004657e+00,3.514963305607706090e+00,-9.920722811017405884e-02
-1.553269307119048648e+00,1.374772284817355361e+00,-4.873355270961861940e+00
-5.934981900395058574e+00,3.620402745054608906e-01,-1.921440849789737948e+00
-8.141236237204040549e+00,4.262529301320125974e+00,-6.299829187885094051e+00
-5.928774813572866620e+00,1.459645538996233949e+00,-5.287249438444914240e+00
-4.583088299543234712e+00,-1.807206124488532240e+00,-4.188999719854161974e+00
-4.969761827231529594e+00,4.649084237134935016e+00,-5.875511706214106233e+00
-2.868498335953028278e+00,4.569245364588059743e+00,-5.521367487799095919e+00
-3.487946633246070238e+00,3.146877058033095143e+00,-5.646057732537166807e+00
-4.409209793013030065e+00,3.062808019849899033e+00,-5.681323256475318217e+00
-2.683938915596267183e+00,3.773574611586345551e+00,-5.786150707312199160e+00
-8.034377756666415848e+00,4.398077180988697599e+00,-6.334585177334449924e+00
-6.972314590080903152e+00,2.665959918509297921e+00,-5.729116793328342894e+00
-3.868185775942041271e+00,6.304736496484594221e-01,-1.991890505155362812e+00
-7.152873687308095363e+00,4.386702442011685688e-01,-4.528319996387726754e+00
-6.246049590095253734e+00,4.463174920613798058e+00,-6.766296217759926179e-01
-4.911977367396755056e+00,3.679504086961767229e+00,-5.905174914316228652e+00
-1.912877604880674598e+00,3.489798911484904842e+00,-5.647275581922806431e+00
-1.507174888363238319e+00,3.278565012007633062e+00,-3.545319716367590246e+00
-3.794688377633988807e+00,4.206214950990130319e+00,5.218149505038687241e-01
-5.029919513673717368e+00,-2.318363116462708096e+00,-2.434623443186601399e+00
-3.587250513981356193e+00,4.493734737490928666e+00,-3.267675366591292097e+00
-3.633256753765122138e+00,4.453624831698954623e+00,-2.308638649996572312e+00
-7.711054196329846455e+00,1.893029598629100141e+00,-4.550300162803579518e+00
-4.700525570474517245e+00,4.643788537422135931e+00,-5.944097767023627021e+00
-2.123451542584807505e+00,2.457477688890519207e+00,-3.235093844476494951e+00
-7.320316430880582814e+00,1.859476284087363984e+00,-3.721342606778054396e+00
-7.785534493004886869e+00,4.748699188435696605e+00,-6.179803964251744830e+00
-3.559445593343660619e+00,9.604093473944365078e-01,-4.975619739251701645e+00
-1.134279783527555763e+00,4.463772217484297755e+00,-4.314898606841830464e+00
-5.194624799764435252e+00,1.287166068685997811e+00,4.535999460658116100e-01
-7.683438955452842833e+00,2.188705280144807030e+00,-4.245420817956640391e+00
-5.229545719829733486e+00,-2.525194690770764527e+00,-2.760671582510152877e+00
-1.923911994116382251e+00,2.396297832474572953e+00,-3.575392604168647903e+00
-6.804988375296931125e+00,4.725498822306885671e+00,-6.339197434582075630e+00
-3.378030841081767655e+00,4.551013029747693395e+00,-4.738974957583167225e+00
