-2.006109740643425177e+00,4.522039038479940265e-01,-4.937479544897287020e+00
-4.761963633826226783e+00,4.212207802130430778e+00,-4.578105450095234730e+00
-6.005662933626573441e+00,-8.336795930894419504e-01,-4.057789610985864215e+00
-1.385005609093851842e+00,6.459775010201318501e+00,-3.401205831477728037e+00
-1.968636252458629388e+00,7.022130962232099094e+00,-2.922376622000584234e+00
-1.930035023979979281e+00,7.556366305680716877e+00,5.248145877927279379e-01
2.521810441103991551e-01,4.692145422889124617e+00,-5.859373177172391145e+00
-5.540045238033307839e+00,3.513347520889632314e+00,-6.839216222182987970e+00
-4.179539219497883096e-01,2.249804567025242008e+00,-4.203740306381630099e+00
-6.980987660356593461e-01,4.996665278880315419e+00,-8.204562011662373422e+00
-4.186147316829911702e+00,3.707627929052958127e+00,-2.001536367497014801e+00
1.973830570045857602e+00,1.598640305589475341e+00,-6.432715563257095148e+00
-4.290900062349251698e+00,4.462733701785416507e+00,-3.332057567435164902e+00
2.090552678911017814e+00,1.634819590365381492e+00,-5.951705195127347636e+00
-2.478371517895758824e+00,4.268801213813101292e+00,-7.593267775502136274e+00
7.371752267838761474e-01,4.697480925474670777e+00,-3.485429861916679695e+00
-1.082131757991515286e+00,5.886722144438997439e+00,-5.298898263163144051e+00
2.338021090334024610e+00,3.146919637719081120e+00,-4.846141064928980668e+00
-1.919298661862807620e+00,3.985073844425476963e+00,-2.007038805617954669e+00
-1.795243675369886605e+00,5.926435272739312587e+00,-8.510525428586756647e+00
-4.504029476183686320e+00,7.627643302613650533e+00,-8.155011572337595993e+00
5.051246714867407839e-01,4.880716095926211473e+00,-3.531718545152182642e+00
-1.619477619032776650e+00,7.487721330523718910e-01,-4.877553047970399014e+00
-2.469109556201471989e+00,7.007763060300711722e+00,-5.424058584898098445e+00
-1.934400001953556991e+00,7.453764809880770059e+00,6.435546005567701622e-01
-4.390930093767250852e+00,4.580578314944085960e+00,-3.818878787209331271e+00
-6.659485575157437776e-01,6.015719893973359156e+00,-2.532116267194757242e+00
-1.878844334397753668e+00,6.463301367861661539e+00,-5.765900511495686942e+00
-6.602222282812863163e+00,-9.177302971595485692e-01,-4.052543841725582574e+00
-3.928039609385884035e+00,3.988636307392157132e+00,-7.282667627840947233e+00
-1.744368599585309321e+00,5.908662435725711148e+00,-8.369013410824521770e+00
-5.103672633263617087e+00,4.083467642501420691e+00,-7.223647244237739073e+00
2.282963835782134243e+00,2.861061400166148072e+00,-6.788491535168820867e+00
-3.736333637558795218e+00,4.534681034259991250e+00,-7.628577266137662072e+00
9.899510168179296299e-01,4.127269102810808832e+00,-5.608448278766190676e+00
-5.053402387333082224e+00,1.327356828427244784e+00,-2.706297723440760361e+00
6.162861536419045327e-01,4.104860885063829734e+00,-7.544763341635126075e+00
1.944287816033790861e+00,3.116965328156271031e+00,-6.923645874519067434e+00
-4.255092025026538383e-01,1.554835759489279212e+00,-6.170116264680558515e+00
-5.050271411663416643e+00,4.301115447864273911e+00,-5.655453159973832911e+00
1.055750904946020752e+00,1.682103003874726221e+00,-6.392258764742468458e+00
2.289709695405496070e+00,3.082386740119603896e+00,-5.457949881017894356e+00
-5.385448623134546864e+00,1.596551266269894187e+00,-3.259821471026683515e+00
-4.790019753514849654e+00,2.362073230392452761e+00,-6.223609094984607459e+00
-4.168087994931225282e+00,5.082890038657217779e+00,-3.728059910684392797e+00
-2.952467727127187747e+00,4.823829506206961604e+00,-7.878967813643635409e+00
-3.131257567192005542e+00,1.702933962533183243e-01,-5.074368877344235251e+00
-4.993518167678142383e+00,2.622193960298182080e+00,-3.284822740620044090e+00
-1.932213857110933519e+00,3.530954911092439641e+00,-7.205177646163203775e+00
-5.655274347743307395e+00,9.728029207522462807e-01,-3.349611340986297314e+00
-5.387253162150679842e+00,3.533891459566102178e+00,-5.782878494919419410e+00
-4.032488646110854447e+00,6.959632957283786503e+00,-5.713988126271054568e+00
-5.109315124404439246e+00,6.112163768889293802e-01,-5.143572693621718983e+00
1.677164317821197015e-01,5.426392189395502719e+00,-1.961387018891260769e+00
-4.786098369699917754e+00,4.212838542015212795e+00,-7.332412035674011008e+00
-5.138282372548796495e+00,3.188934030254874763e+00,-6.684504815572465120e+00
-3.787156211522777927e+00,2.909683503652884973e+00,-6.650365478386547125e+00
-1.437661428610541581e+00,6.445324736241732744e+00,-3.740291011236648533e+00
-3.835768329976576574e+00,9.932773572974179510e-01,-3.584692027222120991e+00
-1.596991663842192377e+00,1.943188977073815993e+00,-6.287293954583987876e+00
-1.130389567657172689e+00,6.034667508968277971e+00,-4.664374407264832989e+00
-3.031381653178013558e+00,1.186344979257225374e+00,-5.692717510973896111e+00
-6.179868749359163971e+00,3.533547966317145128e-02,-3.881755683903532539e+00
-4.679493888530664947e+00,7.892361772190555236e+00,-9.084314788128866169e+00
-3.408045153686956041e+00,5.596345508295122784e+00,-1.859539104148703270e+00
-2.049617219273442092e+00,1.812310343216213759e+00,-6.164321948636638737e+00
-1.099781343964903790e+00,1.970998573341691040e+00,-4.103924488393254855e+00
-6.263259261659004373e-02,3.731442877785172918e+00,-7.509426252125560808e+00
4.054268518189039772e-01,2.777854120300806695e+00,-4.163242425043005568e+00
-6.452265505993577399e-01,5.060598678596004873e+00,-8.033309573288283545e+00
-1.890422111269188576e+00,6.112696794935573052e+00,-7.877936699521002950e+00
-5.034826053005525992e+00,4.027320698877519867e+00,-7.196803290711688561e+00
-4.017545108194100045e+00,1.674679982631220865e+00,-2.922107666244327717e+00
-1.332895344748818545e+00,6.773303241345088210e+00,-1.310820087150379454e+00
-5.136945727580688903e+00,4.646630729512446933e+00,-7.557645760294230186e+00
-1.847451200938611260e+00,7.132101704184900193e+00,-1.692099104095428963e+00
5.006977004881726367e-01,4.810376410747141840e+00,-3.965607467700717592e+00
3.525031093717350544e-02,5.209063287526938701e+00,-3.875754598997759537e+00
-5.383689328331477952e-01,5.490882348929401857e+00,-1.417206441438242592e+00
-2.613728051621633242e+00,2.526994768006871173e+00,-6.536771901773676952e+00
2.003359168076205954e+00,1.945630529608939119e+00,-5.647379068232120325e+00
-1.888890651799306264e+00,6.379331537368508442e+00,-6.306866071669452012e+00
-2.796785467640945377e+00,1.925043492516124166e+00,-3.310207793097407869e+00
-6.845291963219332088e-01,6.215438150580565591e+00,-1.450622705655260969e+00
-1.157085443190684904e-01,5.196467094777292850e+00,-4.678796875042521286e+00
-4.351519434850804835e+00,7.909984909464192526e+00,-8.013040490819875572e+00
-1.984837323043995960e+00,7.279356714068337730e+00,-1.492137728748149650e+00
-1.294013752138310602e+00,5.517653928389709250e+00,-8.457875161095195438e+00
-1.894950394893531120e+00,5.163587744567429638e+00,-1.027224958686766332e+00
-3.978448692225090344e+00,4.121524286737788145e+00,-1.846367061236169782e+00
-4.544924684668726123e+00,3.407180848495576786e-01,-3.785996455306873454e+00
2.282104711781188511e-01,2.185022634471600611e+00,-4.575203352682592595e+00
-6.284112622477362464e+00,-1.428393816852269183e-01,-3.998039603640457518e+00
-2.968892517886562832e+00,5.461420601548031328e+00,-8.259200762251532879e+00
-5.974238690134686003e+00,1.324777858567770750e+00,-5.485716311396861222e+00
-5.228430477026561718e+00,-6.278826376260336906e-01,-4.389746437049351968e+00
-2.292705006923963396e+00,7.126131587321727245e+00,-1.261346320785756980e-01
-5.617482466699360799e+00,1.671109610112556654e+00,-4.130788174625624087e+00
-5.698969143704995410e+00,2.541847123792326801e+00,-5.533921781973876186e+00
-2.130731767511833130e+00,7.032137070684034263e+00,-3.646661312786041886e+00
-1.674437335618820910e+00,7.220032964412416376e+00,-3.407243942198800446e-01
-5.972761112257797933e+00,7.928832475881566477e-01,-4.175037793191467728e+00
-6.275745165128511216e-01,5.953115239666707303e+00,-2.713902789268613169e+00
-5.929888862173114283e+00,1.909594802050872953e-01,-4.811045606698233890e+00
-4.784975526402389434e+00,2.852267957064497317e+00,-2.888011443614339147e+00
1.377208071186568628e+00,2.973140396503278993e+00,-4.475566578602461654e+00
-2.232008308683921971e+00,7.276694741935559207e+00,-2.701651671201876326e+00
-4.567189824394860764e+00,3.482224053131387276e+00,-2.979899941937660834e+00
-1.473907466733078486e+00,6.790051519343671238e+00,1.349721096413436516e-01
-6.550007460026182393e+00,-8.130837099682878266e-01,-4.148638358282902061e+00
-1.785306544653581851e+00,2.292722643845279684e+00,-3.496929808626250580e+00
-4.887937468170748367e+00,5.715970499728528331e+00,-6.952095551514208438e+00
-3.599796185376046953e+00,4.165013419899600500e+00,-7.420635315294687118e+00
-1.257717449336914761e+00,3.414714695232762942e+00,-2.811523133518676776e+00
-5.479801188570393222e+00,2.820212319092169295e+00,-6.430034853493928892e+00
-2.642006753603780123e+00,6.888988559195169614e+00,-6.955749227942786383e+00
-5.138147931075121022e+00,4.585800201734689274e+00,-7.521096145691339885e+00
7.458760719602987033e-01,2.241913409275963609e+00,-4.781245633235699621e+00
3.085177865577636291e-01,3.892737648672136341e+00,-3.177498200275764351e+00
-2.502624200403243737e+00,7.101682656299080243e+00,-5.035154109572100189e+00
-4.730359042169420825e+00,7.331646287570378284e+00,-8.525513950639334482e+00
-3.631503908139753101e+00,5.240839161277751401e+00,-8.061819845100707482e+00
1.319928022072049290e+00,4.033743887221405977e+00,-3.554938964474254615e+00
-5.483224429778053022e+00,4.217629851222145732e+00,-7.266605915358319123e+00
-1.186252518185364258e+00,6.171189136195375902e+00,-4.133579685962932793e+00
-3.123066508244155326e+00,2.947211753743701923e+00,-2.289978256786937116e+00
-4.824006149283798228e-01,9.686756593336416366e-01,-5.250239447833760842e+00
-9.222434627191187229e-01,1.910346193301203144e+00,-6.334095650064837990e+00
-1.788919310741617696e+00,3.365657970346473071e+00,-2.592248645403096408e+00
-2.669971200413149948e+00,6.743606481400930441e+00,-8.877643651051816409e-01
-6.208655682701616385e+00,8.921088410539951274e-01,-5.090932702089316919e+00
-4.247983320743215607e+00,7.508264849625593262e-01,-5.312036614500645904e+00
-5.691429601986629727e+00,4.010522441682213279e-01,-3.172856720725754087e+00
-1.754058863798359624e+00,6.874633345135539031e+00,-2.750906017735352815e+00
-1.620239340739503264e+00,6.142622339495405370e+00,-6.397383009337207049e+00
-3.786742537140144194e+00,4.018259595791700889e+00,-1.072643472049421787e+00
-3.781725279025851982e+00,6.545067781232306814e+00,-8.828118957286598345e+00
3.056590854869906337e+00,1.892264362792382748e+00,-6.208904011400783851e+00
1.032698782960841249e-01,5.465138209252938140e+00,-2.045456208779154128e+00
-6.209203298626619016e+00,4.880860944703372950e-01,-4.567844008897263386e+00
-3.422770761827793606e+00,4.970067457268155131e+00,-7.920218473408821680e+00
-5.305996075636518761e+00,2.003470951112473308e+00,-3.523435556255783307e+00
-2.037284879303167706e+00,5.617351690890888705e+00,-8.444362306524059392e+00
-6.015187158020513181e+00,8.327723622825415895e-01,-5.187022068187858714e+00
1.024828630926136519e+00,2.160663088867529780e+00,-6.675820434747444132e+00
-4.756845546701174321e+00,-2.512987856095454942e-01,-4.661738142448728972e+00
-2.227903885285600794e+00,6.774097546721445262e+00,4.913855024371956981e-01
-2.248019264464700573e+00,4.030917539438944708e+00,-1.807220717368695606e+00
-2.938214044874216668e+00,3.432291978286258760e-01,-5.196956698355489124e+00
-4.228965949265132807e+00,4.385354233122449874e-01,-3.858659468458689457e+00
-2.409542859020535222e+00,6.965287340814583672e+00,-5.385433160867773239e+00
-4.208735005313244848e+00,2.108572129972599907e+00,-2.463194033248898851e+00
-8.716246151607044412e-01,4.160508726204052543e+00,-7.686696421648572475e+00
-2.668977117840873881e+00,6.053821121676064898e+00,1.173700131825319848e-02
-1.421435314236040526e+00,6.098297962434990005e+00,-5.697044946955998057e+00
2.625554490756369486e+00,2.568563652049984380e+00,-6.849032055897861682e+00
2.895530951475454362e+00,1.936156952986751945e+00,-6.092966285007121563e+00
2.665330881709523592e+00,2.150135875051718326e+00,-5.799981908313754708e+00
-1.356962161544172041e+00,2.297306667546389569e+00,-6.523019657485174427e+00
2.849015092282165984e+00,2.536679583595626397e+00,-5.956640150453996085e+00
-3.711605290929752332e+00,7.253372867877553531e+00,-9.259227999840438983e+00
-2.528081586376485390e+00,5.103692486392937155e+00,-7.670745730983347110e-01
-8.621635856069479464e-01,6.381066128869963272e+00,-5.092656153890980919e-01
1.405262788125226203e+00,2.944497687212675352e+00,-4.513431310896296900e+00
1.858361218070178733e+00,3.397116940814397523e+00,-5.695752001958437560e+00
-1.859503411766370462e+00,6.158383832306165040e+00,-7.460660427747670020e+00
-3.819294818003479808e+00,4.563906216306192754e+00,-1.890159241108657850e+00
-1.544156040695487730e+00,6.639168611564892686e+00,-3.117895946889986281e+00
-4.120180911273402025e+00,7.427571228421976812e+00,-6.614498466713979674e+00
-1.284007396145249613e+00,5.986260217095418668e+00,-5.690273605173953975e+00
-4.262231251939137877e+00,6.480075255793823708e+00,-5.857390649619641287e+00
-2.807087335124275551e+00,1.128499478265587580e-01,-4.830172976670192853e+00
-1.208485934398472628e+00,5.840798141331463356e+00,-6.178543440979228585e+00
-3.694849457732319653e+00,1.188409402974460960e+00,-5.628594027095742192e+00
-2.800766749630876351e+00,3.263972920369000885e+00,-2.181503404252920664e+00
5.097996951652300490e-02,1.398820131438465175e+00,-5.149885193529445182e+00
-4.777276532637142914e+00,2.921665778090976051e-01,-3.712884296891166169e+00
-1.338912061345259585e-01,1.016589978573999797e+00,-5.380863707939496976e+00
-3.864373044493067955e-01,5.460355283774611657e+00,-4.438924016444618204e+00
1.079234441066477368e+00,3.795866163846008945e+00,-7.120689984884779555e+00
-4.950130512205760169e+00,4.159735113056899358e+00,-5.137683918793645610e+00
-2.774600570548799272e+00,7.390789185326229749e+00,-4.653415175312005658e+00
-4.623983028009972074e+00,7.787950841074501973e+00,-9.489504215092889439e+00
-5.429843771590428858e+00,4.436359826990776689e+00,-7.097474592732632814e+00
-5.488060653638372699e+00,1.210900530871916292e+00,-3.101103910773278294e+00
1.933333310081624679e-01,4.670827136523247880e+00,-6.268644181049498165e+00
2.324853458854777344e+00,1.485319100342374687e+00,-6.399428040070907819e+00
-3.948630897603643941e+00,2.048245422320939202e+00,-2.641543287893640013e+00
-6.136462063417446045e-01,1.874095349090923346e+00,-6.342785832369799870e+00
-3.617254421388159003e+00,3.280236830046789204e-02,-4.944149243096559232e+00
-9.146532809454777091e-01,4.026684496456426565e+00,-7.602310714975858197e+00
5.740780069297814203e-02,4.559923028956667679e+00,-7.575595908670539558e+00
-3.602846954242186595e+00,3.414671974449578151e+00,-6.970958005061778096e+00
-3.056821525901098457e+00,7.526154947470141465e+00,-5.222769526867059753e+00
-4.649721134792065280e-01,2.897214696212948581e+00,-6.970174553992961819e+00
6.500892970151276318e-01,4.895338807792447788e+00,-2.745745549364742466e+00
-8.910827365662528088e-01,3.685944833439392720e+00,-2.763110610143020285e+00
2.358942188092745251e-01,3.588367127498750975e+00,-3.398013402658258464e+00
-4.178893189631493144e+00,7.119265925877355627e+00,-6.409813881820431547e+00
-3.031407653133952884e+00,6.400200987379590423e+00,-8.815274410810133077e+00
-5.410500678499592375e-01,5.601094364511543411e+00,-4.360384504058218091e+00
-1.873978693815586682e+00,7.279947175841355644e+00,-9.531977464619724172e-01
-8.459403073032597531e-01,2.652392214743755083e+00,-3.655020492428981083e+00
-2.816552676284054257e+00,4.946714668033478368e+00,-7.576798119367512685e-01
-3.190212962663622864e+00,5.734871735595920228e+00,-1.312795550323745841e+00
-8.497973995497587474e-01,5.364594888086577029e+00,-7.238663512271498846e+00
1.871499478407649963e+00,3.604577540687875281e+00,-4.186644716199059424e+00
-3.001376650576281779e+00,7.369414007818233081e+00,-2.806444845201830685e+00
-2.311604837192094752e+00,6.608189767935313874e+00,-7.006556399120385414e+00
-4.820430503803461164e+00,2.472399601179782747e-01,-4.954047277978128605e+00
-3.931138242617556955e+00,4.619474803443027966e+00,-2.335481224546304357e+00
2.324885406413259858e-01,1.050305985730747294e+00,-5.932776202714094005e+00
-3.305796993095976966e+00,4.001429143105998953e+00,-7.351627874937189056e+00
1.573293206144955603e+00,3.812133017148206626e+00,-4.638855626440241409e+00
-2.630985121712269503e+00,7.094237326596680049e+00,-5.698835121473028842e+00
-5.760151718109590036e+00,2.651639378900028543e+00,-5.880680402796994777e+00
-6.903140194045422895e-01,1.929095467050132573e+00,-4.340033133592602788e+00
-1.814640864761420280e+00,6.649076225722199140e+00,-4.366308002020250711e+00
-3.062030330999078107e-02,3.674976126175895086e+00,-7.478762129354105781e+00
1.263159616857353340e-01,4.066154152504232400e+00,-7.728497412047710569e+00
-5.440276236734264970e+00,1.624979796049890401e+00,-5.718108129675527174e+00
-1.097806439800204786e-01,7.475295100627072920e-01,-5.717726682425327667e+00
-3.619066831208960888e+00,5.166048772415023471e+00,-8.018253359662809387e+00
2.375938341680488453e+00,1.753536982663209898e+00,-5.991783899373533728e+00
5.169254183724540930e-01,4.957814595311521799e+00,-3.022575376872581376e+00
-4.464982463508569310e+00,2.650701327838273613e+00,-1.881284419585514955e+00
-5.652368793731545438e+00,3.653526551729410876e+00,-6.822775620669362162e+00
-1.677089316101065125e-02,3.992803980618497839e+00,-7.670472418898958367e+00
-1.554541998748757203e+00,6.136668593622620627e+00,-6.114962641590486747e+00
2.638781653634407753e-01,5.125356956638982275e+00,-3.262313917428436127e+00
-4.640321406765263390e+00,3.706549439493584952e+00,-7.043558178004555970e+00
-5.312248674901979939e+00,1.919919930195892910e+00,-3.435743737779301199e+00
-1.620368498521245870e+00,1.412228635259679121e+00,-5.967000820802599748e+00
-2.729470418906189799e+00,1.593202171747622797e+00,-5.966124833404144567e+00
-7.104428701344813746e-01,4.376107986552203677e+00,-7.831696450705535106e+00
-2.649317869777076062e+00,7.084418206018468389e+00,-1.261652247692593320e+00
-4.733651808929979943e+00,3.749260102398932037e+00,-7.059943229669361386e+00
1.065609238602380909e-01,5.447190708453415020e+00,-2.134812268718670136e+00
-1.134155481329952142e+00,6.554082775396739002e+00,-1.636466007105676690e+00
2.042378790925568399e+00,3.386755937265863547e+00,-4.867659102989211561e+00
-2.469378689144235750e+00,7.332789621192286944e+00,-3.519247841361885065e+00
-7.424857446635568792e-01,1.189486508472421766e+00,-5.920083777054294671e+00
-1.168623312223926236e+00,6.816678575252542061e+00,-2.629679961834354707e-01
-6.833993164327657466e-01,5.381551098814334466e-01,-5.535824514411631370e+00
-9.136108716237888172e-02,5.361313119023810358e+00,-3.594456370161744463e+00
-2.000614130550431913e+00,4.537286497035630362e+00,-1.502448696241708737e+00
-6.276279592767413540e+00,-5.836284659332351410e-01,-4.313023883510509471e+00
-1.938597363593486333e+00,6.425799555033651522e+00,-6.274452353158006090e+00
-4.747815388198349140e+00,3.611611737009479572e+00,-3.750596651806687110e+00
-4.779717809606140122e+00,-3.160040075765139234e-01,-4.223481660680896255e+00
-4.161208486245033811e+00,8.020098895704681041e+00,-7.660535114979161619e+00
-4.020184282764622807e+00,5.039469408013250273e+00,-3.178218444725327885e+00
-3.025490984193752286e+00,7.319850341760232304e+00,-6.281303092467259930e+00
-3.377820959111095256e+00,6.346129939594316038e-01,-4.111145024555196592e+00
-2.074229520938979832e+00,6.268607580498483323e+00,-7.851441132170926984e+00
3.249524828548937538e-01,4.620275507764802114e+00,-5.929346850224143317e+00
-1.729309413647031501e+00,6.934829516513585368e+00,-2.278340412907883028e+00
-5.094569707426058969e+00,5.835262680292588655e+00,-7.796438019753363591e+00
-1.580070735213117139e+00,6.898785441564491805e+00,-1.768856779150260961e+00
-1.356518175578670160e+00,4.222496495920468718e+00,-2.083286876267667509e+00
-4.008014374556671200e+00,5.880989768357132164e+00,-4.230940408497537497e+00
1.327783230176836915e-01,1.863069807944682355e+00,-4.799326894903529706e+00
-5.348851811459696126e-01,1.359128473213239596e+00,-4.895917077205814039e+00
-4.154945560928511306e+00,-2.517104421606106146e-01,-4.475830626388350275e+00
-2.695295879064046329e-01,5.658989588897760825e+00,-2.709341776059807305e+00
-5.326259830015309227e+00,3.318487001642006717e+00,-6.743575494676992577e+00
-4.136986761024109782e+00,4.498802892552773436e+00,-2.865442233609680311e+00
-1.666224663378249815e+00,2.302886075578225888e+00,-3.546787241062562490e+00
-5.244535337805061204e+00,5.086776225796960205e+00,-7.324294496122803366e+00
-1.700873198790415097e+00,6.942165540224874754e+00,-2.097963845177667874e+00
-4.192764280299461355e+00,5.355048841818647709e+00,-4.163978562787970183e+00
-5.635261550988682977e+00,2.398956320872742243e+00,-5.135736938720913969e+00
6.131070064415694576e-01,2.794749272442476951e+00,-7.015012632423874628e+00
-3.841094790445723550e+00,7.737074493789810603e-01,-5.365823539912216056e+00
3.053298833262949596e+00,2.245248580890473189e+00,-5.910241850729539337e+00
-2.951594483302600658e+00,7.329945447811704318e-01,-5.429067611413591621e+00
-3.802858614335498544e+00,6.399280406157371814e+00,-4.219885912571261777e+00
-3.213744636569041191e+00,4.861283819135452156e+00,-6.347478557743682082e-01
1.013362502345064531e+00,3.936468240795235385e+00,-6.614311687224470937e+00
-2.165294130806521444e+00,2.328901036844156280e+00,-3.280098656174790239e+00
-6.054389272444522518e+00,1.554642946339284570e+00,-5.437056932190273528e+00
-3.602648030706186777e+00,5.700764465445893769e+00,-2.644426229933952488e+00
7.319418256280600943e-01,4.362499155019113672e+00,-5.475201432499538612e+00
-4.518747655946137698e+00,7.099960881638790688e+00,-7.518536464367642225e+00
-2.219196593699066522e+00,6.836443368723474912e+00,-5.221611582843513233e+00
-1.559188618692253669e+00,6.037632039673199280e+00,-4.563818807814588596e-01
-4.085295860012625013e+00,7.952704294952003927e+00,-7.689090623544518444e+00
-6.002096478578727634e+00,5.511730806675810973e-02,-4.722576870813079530e+00
-2.998089063964580081e+00,2.720635493502956415e+00,-2.541951447530639729e+00
3.281447519021256087e-01,2.095205725963254828e+00,-6.567986199733989672e+00
-3.633830151085098326e+00,1.833695624832193394e+00,-6.021064769282455487e+00
-1.938645690207221550e+00,3.997646076278242866e-01,-5.329285509273867127e+00
-3.702590928641643853e+00,5.976835686513468637e+00,-8.495602537026346823e+00
-5.902319656665125258e+00,2.232968031257942965e+00,-5.811025992488919378e+00
-4.957995875347118719e+00,-4.228392824553706131e-01,-4.225940611668363545e+00
-1.739418061386336589e+00,6.446323852757162243e+00,-5.191998058035337316e+00
-3.209497162115380497e+00,7.350717868030301361e+00,-6.989080923886484165e+00
-1.164936213081087635e+00,1.614212594940325429e+00,-4.372212394817995396e+00
1.105334735928354684e-01,1.913475009576270924e+00,-4.745998105813148626e+00
-1.172163094869428379e+00,5.455242871338559674e+00,-1.136318857224668299e+00
-5.508824641992235982e+00,2.225784305096812687e+00,-6.071174898512512463e+00
-4.510880266628391588e+00,3.430164321215073642e+00,-2.724405834781735702e+00
-4.417573131329792346e+00,7.978546934846225902e+00,-9.142526361928046796e+00
-8.972662850514644406e-01,5.628606301302656156e+00,-5.919662287964670533e+00
-5.313336678800167689e+00,-4.473876924150191337e-01,-4.072302363723623309e+00
-4.225518912737036281e+00,5.125446594576407833e+00,-3.974948294476759347e+00
-2.883726525410685415e+00,6.954627621713149743e+00,-7.738382496030315139e+00
6.883790973238201882e-01,9.070802410826687145e-01,-5.876347484999361548e+00
-8.686669254153269737e-01,6.104929853058449041e+00,-2.988131204860107193e+00
-4.740830382393005138e+00,3.996077754321791242e-01,-3.640346150197192987e+00
-6.159601232246817659e+00,-1.363810518666874749e-01,-4.592373013182819541e+00
-1.305399431067552074e+00,6.447062590913854585e+00,-3.091238098497364195e+00
-4.005491841419437371e-01,4.773289542069183433e+00,-8.100095440356769316e+00
-4.918688433186659381e+00,-4.368769924244936265e-01,-4.534652482829947040e+00
-2.299055265817631533e+00,7.648515881734598842e+00,-8.449701991713971516e-01
-1.149034174378459117e+00,5.457877614545973088e+00,-1.145446493152896705e+00
6.269952361908347482e-01,4.171047737411267775e+00,-7.104884309052092561e+00
-1.680882397388742122e+00,5.473654453944531539e+00,-8.393412645143021322e+00
-1.253267554232727621e+00,5.985517334778817755e+00,-5.546148451292676640e+00
-1.554429144381590300e+00,1.836383875972948054e+00,-6.227521706148540837e+00
-5.042521841072919564e+00,6.682105679318262936e+00,-8.723036584836791008e+00
7.274668490904421247e-01,1.001810111491991284e+00,-5.952493740853875615e+00
-2.599348721484176838e+00,7.096410612484222113e+00,-5.533277547066954405e+00
-5.127872016495155449e+00,1.762400405303686801e+00,-2.615983295289422639e+00
-1.697715310250018872e+00,6.480356246207684912e+00,-4.790980282304029281e+00
-1.896575795492152716e+00,7.286318300346723120e+00,-1.024984561718672138e+00
-7.138224815038338722e-01,5.807494278734589344e+00,-1.064706589347851562e+00
-2.568351040270113739e+00,4.217099375129054195e+00,-1.493418399080995940e+00
-5.945231314687981161e+00,2.339100918517100780e+00,-6.096048303247937561e+00
-2.614370177249814020e+00,6.559250420256329761e+00,-8.755998740689131310e+00
-5.636285320480178385e+00,2.818448422218591709e+00,-5.684166143724991294e+00
-1.278862779792418136e+00,6.549894185919959533e+00,-2.360005374629663422e+00
-5.273601462876447599e+00,4.449328326806008427e+00,-6.593076402510141598e+00
-4.828395167309128766e+00,6.485321088998331263e+00,-8.689226832005628509e+00
-2.493824608112286345e+00,3.480883293044381599e+00,-7.119864266977738332e+00
-2.361288623719297153e+00,3.472155635441880883e-01,-5.256178473153385156e+00
-3.393802110377942327e+00,7.529350434539130887e+00,-4.323426571094022286e+00
-2.176529009830541206e+00,8.760844826111887640e-01,-5.591117279469455248e+00
-6.348902266127329774e+00,-7.067937655996152646e-01,-3.782650487166347997e+00
2.622176899741293643e-01,1.868232867333967651e+00,-4.858472699765242098e+00
-7.394827027265317432e-02,2.975726038588117017e+00,-7.055715441391823717e+00
-1.273483913735239170e+00,6.002320922726394947e+00,-6.262369491603516636e-01
-5.587943901877890696e+00,2.500633458068440618e+00,-6.227986825181771380e+00
1.719904523966040655e+00,3.035058106113405429e+00,-7.267966091566038678e+00
-1.097633028241514985e+00,6.721423100896329217e+00,-4.786891993841418391e-01
-2.349313416889156514e+00,6.434746478784335366e+00,-8.205853208718981051e+00
-6.462953841918260167e+00,-4.798011590472238685e-01,-4.156891562849146737e+00
-5.207252468974438386e+00,4.347568084267988020e+00,-7.371612134713141806e+00
-1.659394067280832052e+00,5.593001482880264774e+00,-7.814012924501206880e-01
-1.394046045166937864e+00,5.908956867319517414e+00,-6.675133813398751670e+00
4.108357836648961481e-01,4.802525338865466509e+00,-2.462070534288810286e+00
-5.142487896255953927e+00,2.927208651320150068e+00,-4.178089596760877988e+00
-4.391348865358987830e+00,4.748744912212687908e+00,-4.038761771010112689e+00
-7.336811013131059322e-01,1.753122194580454929e+00,-6.258510513346122295e+00
1.621990350718891749e+00,3.362718363393724985e+00,-7.039217030872205072e+00
-2.828515026482570693e+00,1.468180112849635455e+00,-3.679109293124977587e+00
-6.124066789944572875e+00,1.082460144021172521e+00,-5.056040579904367505e+00
3.103617901490454134e-01,2.429327455159138616e+00,-6.766338648348653173e+00
9.096092456506330581e-01,3.917873994149167149e+00,-7.224513572767009784e+00
-5.116838744772154612e+00,6.070941086152826571e+00,-8.176929571884747006e+00
-3.393566080957000963e+00,7.125499240556374403e+00,-3.797946407642680544e+00
-1.046865493416246906e+00,6.423835692300212230e+00,-1.978662699435971062e+00
-3.521397200452677456e+00,7.573003125833530191e+00,-7.192055925717167675e+00
1.903208903222829651e+00,3.254646086893632440e+00,-6.314642543234739946e+00
-4.685586541862450716e+00,6.983870422689602897e+00,-9.001874652590833747e+00
-3.791361870040213411e+00,5.482297467575337757e-01,-5.235685074646807990e+00
-5.041431957188726720e+00,6.535905984982516514e+00,-8.529454576576418035e+00
-3.740266177890474886e+00,4.762235765999236925e+00,-1.884182455028547531e+00
-4.990259123647933670e+00,3.920261954854994180e+00,-7.137076595842708038e+00
-5.421345537827348515e+00,-2.625209415542137936e-01,-3.863752226411533375e+00
-2.445908205541386771e+00,7.022574290516663709e+00,-5.026988641357069687e-01
-9.207264151102411143e-01,6.479201957258337252e+00,-1.044682578114538796e+00
-1.675665212940667392e-01,2.713439331603259230e+00,-6.889410317249685001e+00
-4.319420752341372349e+00,6.499525072409904070e+00,-6.073452823963349623e+00
-4.980814907544807157e-01,2.066906818101861276e+00,-6.469644489044567237e+00
-4.287136910518835720e+00,4.881320026122562439e+00,-3.863340097463984435e+00
-2.147940955681334696e+00,3.635497929227982095e+00,-2.189067782888494129e+00
-3.495386726171721747e+00,6.365798038138328785e+00,-3.150613723690316892e+00
-5.336815559256002928e+00,3.536050716389564474e+00,-5.617416640729762989e+00
-1.891267392892797217e+00,6.819704805561622507e+00,-3.735787556925104447e+00
-2.732460625866963699e+00,4.003212087353760218e+00,-7.409176461998084662e+00
-1.995069781792144337e+00,6.796715848862296738e+00,-4.371999439526098818e+00
-3.358549897400539219e+00,5.379716458174260474e+00,-1.412966268898750100e+00
-1.655255538460119302e+00,2.314798001751987577e+00,-3.542143390498531996e+00
-4.914382978794766821e+00,4.913038259606414826e+00,-5.997133653432522138e+00
-6.267830113268560988e-01,5.061959657521757805e+00,-7.936240849217130133e+00
-1.757867654899132548e+00,6.447070241648479083e+00,-5.276737416037464712e+00
8.418334521148972405e-01,3.903306795636988902e+00,-7.637318027385059160e+00
7.320713882240519332e-01,3.984795688615568210e+00,-7.689608829385498723e+00
1.675346037252054554e+00,3.831942221160897333e+00,-3.899095848040144308e+00
2.099540983245815340e-01,5.252943378347223025e+00,-2.774554168790088315e+00
-4.074901687643512460e+00,4.907019716589815950e+00,-3.188682022187095733e+00
-4.359629105435132601e+00,4.533297389733226268e+00,-3.653025655732381249e+00
-4.246565241357900256e+00,4.056465250303766368e+00,-7.291911385450080552e+00
2.385120340466781563e+00,3.068595265122947779e+00,-5.077970384854661567e+00
-4.186745406857174778e+00,3.182396956037098157e+00,-6.774328053160342478e+00
-4.531071189202913629e+00,1.040218837444415900e+00,-3.204139613760878635e+00
-4.079879882976342742e+00,5.630517936105807308e+00,-4.145275491451974936e+00
-9.830610009889159118e-01,7.050656147328490109e-01,-5.226499130836042006e+00
-1.987515583455422341e+00,4.599503460020660128e+00,-1.456516055500003404e+00
3.634243682277577547e-01,4.149340779648996502e+00,-2.988490496819948383e+00
-4.778945122196771145e+00,6.287319645121616674e+00,-7.330791081295709333e+00
-1.691360915197575698e+00,6.044672009182194827e+00,-7.315346935547389684e+00
-5.663687354833062848e+00,-1.379578986803083052e-01,-3.640058555791828354e+00
-4.254130570377835596e+00,3.443605461286697533e+00,-1.885314384668548282e+00
-1.073621480493939684e+00,6.438225935163396585e+00,-2.023510125015696826e+00
-3.023948052265359010e+00,7.468474327757438580e+00,-5.402248393844072183e+00
-5.832121355181437039e+00,1.805274875999442141e+00,-5.021165447750957078e+00
3.027344823665360618e+00,1.782533248418150862e+00,-6.646632683357212912e+00
-3.821612947176228126e+00,2.447366612136264052e+00,-6.370091149592386870e+00
-2.770748832287227348e+00,2.364801664657827374e+00,-6.424166533451101557e+00
-2.512983565623902127e+00,5.879891080182579444e+00,-1.212845134686152404e-01
6.392166360297284466e-01,2.316989056326381302e+00,-4.665750088528508144e+00
-1.924865058891519931e+00,7.388810926662375600e+00,-5.605637430406658073e-01
-3.781598108650916057e+00,7.641225627325785474e+00,-8.048807574853205082e+00
-2.781392751653514850e+00,5.077095275486235515e+00,-6.652065244780039910e-01
-1.799097792897284886e+00,6.018350102815241520e+00,-3.549315435525776108e-01
-3.618204820025885837e+00,4.330112186176742206e-01,-5.183739246522017119e+00
1.324562387405765485e+00,4.201625068123624018e+00,-3.556125811615170385e+00
-1.570349656979486141e+00,6.022275814306899733e+00,-6.862171717693839490e+00
-2.768883921605314935e+00,4.340949992494309129e+00,-7.607858319720982365e+00
-5.664364182266899306e+00,2.803648309248122139e+00,-6.401932969564494869e+00
1.565072173582916504e+00,1.804961470222132602e+00,-5.550774488805711115e+00
-3.333454066451654096e+00,5.325511258030149797e+00,-1.258818271955466805e+00
1.099192095695114224e+00,1.069177973300998286e+00,-5.941443019034661432e+00
2.733426267754185401e-01,4.869175745700925262e+00,-4.718966773407618831e+00
-1.490150110324831023e-01,5.783047185013488800e+00,-1.399690802912505694e+00
-5.218728916431739862e+00,1.262911559994551514e+00,-2.679436936613826870e+00
-8.995061625907183611e-01,5.650368409971078698e+00,-5.802858122111528516e+00
-5.136000812997869147e+00,3.722900222806281967e+00,-5.190228480888112728e+00
-2.394561987972105288e-01,4.840379113121445087e+00,-7.364801304454991815e+00
-3.375177919757278655e+00,5.321655134903274131e+00,-1.393005177159458041e+00
-3.461095416927950197e+00,6.018520315686192390e+00,-2.585021724532622578e+00
8.515970245387013415e-01,4.237854999820648061e+00,-5.628207140796497754e+00
-3.439374583967080845e+00,7.663740742874652234e+00,-4.650065970569836615e+00
-1.671622726020448813e+00,6.948097652523943069e+00,3.649533032044114389e-01
-2.663297515749697197e+00,7.353132461899550165e+00,-4.336628227643482880e+00
-4.080021145231693680e+00,5.477031399175730009e+00,-8.159089974117508248e+00
-5.479542696846158911e+00,9.126140595176319703e-01,-2.846292869200860221e+00
1.590846009368479086e+00,1.208175262779641157e+00,-6.065631197353439141e+00
-2.088720354194343098e+00,6.760480307693271129e+00,-5.036859583710826982e+00
-1.759439217998379990e+00,2.698962306125299193e+00,-6.723920749744190850e+00
-4.580008198812985931e+00,5.527333276325728129e+00,-5.679716725082353257e+00
-5.173177754306483855e+00,3.142576980143139131e+00,-4.560286918746458973e+00
-3.049211016611476754e+00,7.638639398032133876e+00,-4.526346252113603974e+00
-5.686747838623115392e+00,3.259938715544223875e+00,-6.426110790883200252e+00
-5.179329431420536700e+00,1.679881946680443550e+00,-2.680442873096402501e+00
1.268837358442392427e+00,4.219989302311339507e+00,-3.717596183039320046e+00
1.466407381741273941e+00,2.012083837894520055e+00,-5.328078858153762809e+00
-4.110190470191617429e+00,1.582938663614288810e+00,-2.953867861728527444e+00
-4.954216404156966291e+00,3.521099813978767035e+00,-4.321585421443626451e+00
-2.428234901427843706e+00,7.307308045853130984e+00,-8.136707664498150638e-01
-3.131221898176046459e+00,1.095893953472717230e+00,-3.843920599835485508e+00
-4.142381902117215020e+00,6.721189433710604177e+00,-8.898068397575935151e+00
-1.812852814232071896e+00,1.230996144997625441e+00,-5.839499231845810101e+00
-3.406458473168807011e+00,7.184137763531982301e+00,-8.917362612069934968e+00
-3.059504566900162814e+00,7.618476371680737991e+00,-3.323955600398921018e+00
-1.623693010302981188e+00,7.348964664747463793e+00,6.605014203673891249e-01
-3.751642040746200557e+00,6.608377958499842997e+00,-4.320684278691218516e+00
-5.345718259254281790e+00,4.880065677523165668e+00,-7.393292414998912321e+00
2.884748358138972679e-01,5.274457331940631377e+00,-2.269109637854719530e+00
2.959747643602126832e+00,2.322509713403629661e+00,-6.677766144916842173e+00
-2.807562596964618074e+00,6.683369369535456350e+00,-1.268527923166172799e+00
-2.235277129840712806e+00,2.544007500604114291e+00,-6.584242905043042882e+00
-5.271540560584919710e+00,1.421619662436283127e+00,-5.612939053066958728e+00
-5.756903709803662395e+00,5.002725399183814980e-01,-3.074739427066572439e+00
-4.248542334572625201e+00,6.718265844268750620e+00,-6.121185098080803577e+00
3.388492489703505584e+00,1.657812594908874892e+00,-6.569002083539469794e+00
1.400190652923772872e+00,4.101184218450380392e+00,-3.537555026349233245e+00
-5.493411893703063598e+00,4.024252627966565576e+00,-6.774128006918323841e+00
-2.559579022468364329e+00,7.509814842985516492e+00,-1.514955414361553121e+00
-4.275261697711878917e+00,7.273979265676961070e+00,-9.216041905485667485e+00
-5.733317563283311102e+00,1.926583417810420418e+00,-5.869869217093841129e+00
-5.144561911535656673e-01,1.319466469454943391e+00,-6.020392061612152901e+00
3.804643075804453045e-01,4.992376708991865364e+00,-3.479030822417551683e+00
-1.580824992155049236e+00,6.909744783897887821e+00,-1.708229235704072035e+00
-1.389462847091938347e+00,1.808800546066029469e+00,-6.227253389160791741e+00
-3.014279470173629960e+00,7.069225317309212109e+00,-7.696933083924789365e+00
-5.197302026423321619e-01,5.900394655599383142e+00,-2.502164159327639137e+00
-1.953684069892505981e+00,6.730984826894692574e+00,-4.557573285349282521e+00
-2.732167821049287237e-01,5.413582488857170638e+00,-4.166336170553041285e+00
-5.187531829982817477e+00,1.818835669371256625e+00,-5.859106188080249744e+00
-5.612978455802275057e+00,2.905800268579567636e+00,-5.719900561437120778e+00
-3.276163642815352883e+00,6.828939729820412197e+00,-3.020977807296246098e+00
-3.067793278511360633e+00,4.428627267468154827e+00,-1.070431957060181460e+00
-2.394014802720345614e+00,7.217054182401916762e+00,-3.833947635558395461e+00
-2.906310399383470688e+00,1.736750454444152769e+00,-3.414939803472704316e+00
-4.277067816432456482e+00,7.348769775524013781e+00,-7.035515442094779637e+00
-3.280619172960725027e+00,5.592219206948840338e+00,-8.306826606522928813e+00
-1.859630445176206903e+00,5.480332487433585698e+00,-8.379803181455722338e+00
-5.668035777628673166e+00,3.533557791019505956e+00,-6.838711414042512260e+00
-5.810415022607974933e+00,5.728890298602328235e-01,-3.347605991877594445e+00
-4.080570982889480725e+00,6.260062133331998346e+00,-8.627990076162896926e+00
-2.135940360870792976e+00,6.407571039967131732e+00,1.378332431633149668e-01
-3.811962960884728968e+00,4.630009758295146938e+00,-1.951582332913973428e+00
-3.737695845323778965e+00,4.299979455414816853e-01,-4.106814568686228739e+00
-5.855305577144602758e+00,2.119646238522035819e+00,-5.506949883804876933e+00
3.760055488178490890e-01,3.497449263351705806e+00,-7.412499656503608314e+00
-2.391601685762466012e+00,2.639427164827762073e+00,-2.907776044519399861e+00
-3.515596980610898203e+00,2.308917327489543148e+00,-6.317320767161555217e+00
