1.056322360679770078e+01,1.699330424561534381e+00,4.322356385608935092e+00
6.080721642387442394e+00,2.566418281056794370e+00,3.264837973582302988e-01
8.791734946791891048e+00,3.796345070041167613e+00,3.867280418712275125e+00
6.287990049449811991e+00,8.061650486597881082e-01,-5.909439559729702252e-01
1.051249464468906147e+01,1.593892849796568312e+00,5.123189561803953573e+00
1.018353298197034640e+01,2.989719770660512754e+00,6.613176839649574923e+00
7.001044103994431111e+00,-2.561579515730123990e+00,-2.577369866959604017e-01
9.415004502978881362e+00,4.247121128475121132e+00,4.788973696252252665e+00
2.973193053158895705e+00,-3.614780454434250445e-01,4.887782903682469815e+00
3.747980860374311440e+00,-1.076612984785961125e+00,6.258382701250940983e+00
2.770997111215506070e+00,1.887215899101999605e+00,4.197797662351835157e+00
7.642529891307322742e+00,-2.636097774170934382e+00,-1.421200789780824092e+00
4.203902655874656169e+00,4.411182362301104831e+00,5.107692996922077455e-01
2.566673445203790038e+00,6.853113558172853059e-01,5.114754607613895665e+00
7.293629120170846747e+00,8.873430104345721992e-01,6.879733776607890761e+00
9.267205885384743880e+00,2.275959852734149802e+00,6.996116575639994117e+00
2.372942177968864641e+00,-8.067211579498414498e-01,7.863016960920998777e+00
5.306741316328567493e+00,1.341331743728977566e+00,1.901784886100367456e-03
8.032287591998983345e+00,3.884590705867912774e+00,5.248700045036855499e+00
7.865797629931228663e+00,-1.763275238621617280e+00,5.822160185850779879e-01
7.838985955803260630e+00,1.023178435713264056e+00,6.616901840839840787e+00
1.098160118899508042e+01,3.530450547160032038e+00,5.920463069289843006e+00
9.930947706061008518e+00,3.631758813472818481e+00,4.918559845001412967e+00
8.452299438010570043e+00,-1.083457093194104104e+00,1.450242429430741442e+00
7.917946511405387966e+00,3.432900774992814430e+00,5.615793616093680107e+00
6.607403091762718894e+00,-1.913944623424374547e-01,5.253282167766280430e+00
7.591544532583351490e+00,1.276156250159923955e+00,7.414427550631587316e+00
3.457112511533459109e+00,-1.574576848428441977e-01,7.581848786659619144e+00
4.794282739308801666e+00,3.887916814303478574e+00,4.378038193533054567e+00
7.555366921972424876e+00,-2.663593504511196475e+00,-1.042488566065696398e+00
3.026289943891851575e+00,3.960311574528107226e+00,3.840497517168199426e+00
7.202376086431431901e+00,2.011447494088560717e+00,1.109795350632857280e+00
7.850005143448123945e+00,5.694335407639398161e-01,5.627437096271560968e+00
4.665531459025714867e+00,1.685843500775013659e+00,9.669798840185194200e-01
4.647473978328911848e+00,-3.520008276040615947e-01,6.904064202148090246e+00
3.947485489346704846e+00,1.780301130765321038e-01,7.417847372920265414e+00
2.156591358782838697e+00,-1.272412011078662974e+00,6.743926836226860289e+00
3.900207308573122589e+00,9.646945237267352535e-01,6.712480990806207970e+00
8.727899585111662972e+00,1.029478552306042571e+00,2.029589368939534566e+00
6.249046874819313757e+00,-2.098541332699825901e+00,1.506770226654988720e+00
3.828560910733109779e+00,-1.862811997846162582e+00,4.481296181722957073e+00
4.638365358841532782e+00,-4.245893783703155733e-01,6.756850287692111934e+00
4.140825543294213595e+00,-2.035737199097349848e+00,3.616804013694379982e+00
9.698690138659253890e+00,2.505917297507260222e-01,2.516241637647703921e+00
1.124622710229613531e+01,2.292523499129986764e+00,5.881756042962289932e+00
4.314475726739276595e+00,-1.403835742956509813e+00,3.018503907350516879e+00
6.545716847892998125e+00,3.522341983745850502e+00,5.169300838872440629e+00
2.861799993626848782e+00,4.418844036816765630e+00,3.392656544769309779e+00
3.850309097901498223e+00,4.143697731066759982e-01,2.988216573631115924e+00
7.334786790724929340e+00,2.374771135940086708e+00,6.391251260386548338e+00
4.542233682566374497e+00,1.052487772355902296e+00,6.807227437961443250e+00
4.504242425695847984e+00,3.684959859795061465e+00,3.211725640580371244e-01
7.579363056471351889e+00,-1.440754475061536866e+00,-7.194214608839009095e-01
1.115214131756562388e+01,2.855227311485351471e+00,6.991175449458689961e+00
1.026565118707213564e+01,1.532260283415460389e+00,3.913155708843407687e+00
2.880496322519189079e+00,1.847449743598347238e+00,5.661905638770613258e+00
4.962965768558809110e+00,-1.590041122102853199e+00,1.967099194745751456e+00
7.996194559568626126e+00,-7.057264506494220768e-01,2.729339104727899201e+00
3.032093481765905985e+00,-7.745601486236175504e-01,4.976354289128070540e+00
8.568122509969288814e+00,4.814591026771061211e-01,1.516210057272869394e+00
2.593474600857949675e+00,-1.543122190830340079e+00,6.103095401687706811e+00
8.499754383342944308e+00,3.417481043986758671e+00,5.785286566685763354e+00
9.616475575999681169e+00,1.865490332855147093e+00,6.621714852250062400e+00
4.516130660489273474e+00,6.511847956618694866e+00,1.992997873200532011e+00
2.369325196594392224e+00,2.311763392575274800e-01,5.672044794995390049e+00
1.087790686513191751e+01,2.084374415165777261e+00,5.808297223887260330e+00
3.816382940413908464e+00,6.514513621058153348e+00,1.803129527550939581e+00
6.603566091829689455e+00,5.390155743666135812e+00,2.666685427319774870e+00
8.754723641938097600e+00,-7.937774460533817411e-01,1.766618119051004632e+00
1.853221062211439341e+00,-7.203926971429417403e-01,7.647723645069794074e+00
9.937305999203925211e+00,2.260982782574736838e+00,7.147459599250669982e+00
8.321299893651112001e+00,2.515196872687159857e+00,2.568710708896889017e+00
3.958714037863741098e+00,3.568347809416752003e-01,7.263410163872803693e+00
5.365684435889469306e+00,6.026409469255128215e+00,1.817440791734401317e+00
2.387363357022466381e+00,2.313272832078618890e+00,5.119573887589948136e+00
5.097752817679887194e+00,-7.262610333323531453e-01,1.329258157844392052e+00
7.528790915584258947e+00,1.166217824041980433e-01,4.978507672849638688e+00
3.708171581329057442e+00,-1.214145664946032710e+00,3.994265095511742025e+00
1.048455054611543424e+01,3.797780396228557009e+00,5.982307680308553088e+00
7.571385392993393637e+00,1.473423605705985184e-01,2.900534508393735611e-01
8.843230237458342913e+00,1.772768641478245755e+00,7.209699568118643320e+00
7.212464656989881817e+00,5.429922374121875173e+00,3.668260408779888238e+00
3.322124345569648085e+00,-6.944036330373082322e-01,4.430188959925239089e+00
6.353171879254440491e+00,-2.405774158375931115e+00,7.383049572381030767e-01
5.484868211984088582e+00,-1.791392871057077896e+00,1.144857650207488975e+00
5.686074936262709656e+00,-2.312190753422294076e+00,1.619790151823137236e+00
9.336421867411511144e+00,1.619360334697725667e+00,3.025440692066449166e+00
4.617787282313170039e+00,1.025643209474793593e+00,6.851112537617767728e+00
7.752644111562953633e+00,-1.549932843492075163e+00,1.157460638483460258e+00
7.144443101565308929e+00,4.857611976903637371e-03,-2.347541866820301304e-01
3.462235585981847219e+00,4.071674699807434905e+00,1.969929193429867054e+00
2.298553903910514062e+00,1.739339122608373422e+00,5.601151164856482012e+00
3.273475534768143014e+00,2.641277062523009533e+00,2.965738241383192531e+00
5.477325073484967888e+00,-6.343363918263051904e-01,6.205050029119361099e-01
6.369586829963073349e+00,2.201731924462026591e+00,3.861195595850745454e-01
3.587149001959551775e+00,1.862744543664341945e+00,2.777048740688958794e+00
2.957462249592963222e+00,3.678400832628635264e+00,3.038387435182354768e+00
5.065999722386837156e+00,8.132280692481788087e-01,6.697023170790986635e-01
1.134269930951215066e+01,2.760285127241918435e+00,6.791913201519975907e+00
5.925453552659916134e+00,1.507837820115692340e+00,6.776949994600447447e+00
5.741078232835595152e+00,-9.577825881498720495e-01,3.079706139896273287e-01
5.908445966157532148e+00,-2.158094201107646271e+00,5.719728060992027574e-01
2.267389156862928079e+00,2.232793880116315410e+00,4.920927446419836926e+00
4.531019487555992598e+00,-1.660604383881825630e+00,4.201481132024336596e+00
8.711955635537144360e+00,-1.213325303221657991e+00,9.056849359208691830e-01
7.755599361514017076e+00,1.357768297492964793e+00,7.399543113182408760e+00
9.470616407407304038e+00,3.566949165775454400e+00,5.913847911318663719e+00
8.192830408658824837e+00,-1.107628674180522049e-01,3.811673259438911998e+00
6.984292058653091217e+00,-2.308513910171992922e+00,3.049209986100251957e-01
7.711557413809455142e+00,-2.481698795475587360e+00,-8.094860600096714931e-01
4.032745130519437282e+00,6.476803530697604394e+00,1.894316687046486036e+00
1.048052862042338340e+01,1.879534434386092245e+00,4.353855202365208399e+00
3.830429929513180287e+00,3.991713319482895539e+00,4.028343280760934064e+00
8.056132082349895640e+00,1.250297269560646463e+00,6.885294164946833995e+00
3.173748452168975387e+00,-1.685993389013896504e+00,5.529712612012384731e+00
6.342455140088317123e+00,3.446974067337668646e-01,-8.313270263126851800e-01
4.613800802510319876e+00,1.129845830098941795e+00,1.316079022872551851e+00
5.309251527900010537e+00,-1.113613005627947183e+00,4.587783642031757481e+00
4.903220110930718079e+00,6.043596210677360858e+00,2.509050225534290135e+00
2.699219254421020953e+00,-1.392440229751830127e+00,6.646102653884064182e+00
4.829033196378574644e+00,1.248597032248530692e-01,1.405340447613160570e+00
8.157166525035506766e+00,2.204337743470385469e+00,2.202868899056478202e+00
1.061624280870497827e+01,3.176104183586811569e+00,5.322436113466417318e+00
4.042909704594491060e+00,6.056952186962631934e+00,4.938869049745695516e-01
3.211261129871437969e+00,6.855444635779246454e+00,1.340760168832553445e+00
5.050288699254744884e+00,6.424949767635306230e+00,2.212661725053627126e+00
9.391415658505712472e+00,2.007103442168588714e+00,7.156342101636828268e+00
6.531197872693190298e+00,-2.549043513907611747e+00,-3.391410383867994871e-01
7.763237479674214292e+00,2.452627639023674533e+00,6.437512662113294759e+00
8.231263157005059838e+00,-1.163462104633108618e+00,1.502979296579116220e+00
5.417755754337191476e+00,-7.506782647158072308e-01,5.259682773857778493e+00
1.046372604788040128e+01,3.814208428668116380e+00,5.962261362605405957e+00
5.078948095211660352e+00,-9.388669471358993546e-01,1.461035635881005268e+00
5.418014262848647178e+00,2.199416825607157122e+00,6.031995223080459212e+00
3.619876454029125057e+00,3.726370627859770579e+00,4.205565599672792310e+00
1.075732726668946704e+01,2.018434257214435146e+00,5.788998148261294219e+00
3.851059241958916690e+00,4.036218145868664564e+00,1.304125952973205660e+00
4.236826075592327712e+00,5.491893415413438895e+00,3.287242572822112185e-01
8.150000132971493727e+00,4.966963759836732883e+00,3.965748803339425255e+00
5.722639611588332897e+00,3.324370479022768166e+00,4.485520127109648425e-01
6.659021399480334225e+00,-1.358569713499029996e+00,-1.116550670216436947e+00
6.101857896879439913e+00,1.324781302650281267e+00,6.985413753220534261e+00
6.868919696734494096e+00,3.525348965234898380e+00,1.741243616081894929e+00
7.413036833261326564e+00,-1.501878783343673918e-01,4.521233479049119097e+00
4.467086967662595498e+00,6.488711857051015386e+00,2.000227425217252719e+00
3.055057770469936429e+00,4.940204939267983875e+00,2.280878203391249137e+00
7.709744657993830685e+00,1.766133077260569895e+00,1.467783672813851581e+00
4.956759299704380339e+00,6.505566280095526288e+00,2.116610562471742618e+00
7.883927091360622086e+00,-1.176849257487672773e+00,-2.410743978416930444e-01
3.552835155022893154e+00,6.069707574632688285e+00,8.826310957120288014e-01
4.728088191811901098e+00,4.935147500233858509e+00,3.438161146505723575e+00
3.620049389733509315e+00,-1.035271295302075067e+00,6.477865590363349746e+00
5.520323595017596396e+00,-6.012345236670709747e-01,5.296748915017471804e-01
1.082471161430157558e+01,1.775882355253078693e+00,4.636917858960257099e+00
6.030337319399857066e+00,-5.914554737962687270e-01,4.978774600170919662e+00
6.677099992859623079e+00,1.472227069403132527e+00,2.309322048700178098e-01
3.638745292952456634e+00,-1.546732100244133212e+00,5.356148000059198999e+00
7.132185127403324110e+00,4.621201558435303447e+00,2.710728203425587068e+00
2.956858236584477329e+00,4.559211470779795938e+00,2.630207226306528145e+00
1.068248595906830367e+01,3.163934710326820721e+00,6.593483387979390820e+00
8.841658643251461669e+00,2.723637386637344004e+00,3.230633165142444696e+00
7.878635209144913887e+00,4.777066101160336586e+00,3.568532031910282232e+00
1.026260089585682245e+01,2.631935681901945490e+00,4.614677065565809144e+00
2.213132088017672583e+00,1.147049071035422418e+00,5.520589552675927436e+00
4.134932351444149390e+00,3.301022084042230187e+00,1.147592882801201197e+00
1.014138855352621960e+01,7.781981221948063299e-01,3.742750557369785902e+00
7.403844859594976846e+00,1.294929000278308484e+00,7.360611665728757025e+00
1.040249022882335872e+01,1.786689740336475207e+00,5.650931027834460885e+00
6.648835186951115972e+00,-2.626931221830451690e+00,-5.093736907138668446e-01
4.380085228415468990e+00,4.690514390248740284e+00,3.560313418377980987e+00
1.111019255260807981e+01,2.570298218593773054e+00,6.619225726736535975e+00
5.352640139639539107e+00,4.220613997384629279e+00,6.471298100366584816e-01
1.152141549293306433e+01,3.189547295720966069e+00,6.250147584486896335e+00
4.299615574113365923e+00,-1.027375724298804416e+00,5.802455458996360171e+00
4.852648949235923936e+00,3.356773668164035662e+00,4.861376984053919159e+00
3.680556134898760767e+00,1.360503494111782841e+00,6.305088811311214236e+00
8.292547536271730024e+00,-4.537163944183342790e-01,6.371806355415735590e-01
1.202950047782364962e+01,3.159442688817777789e+00,6.952660000625064285e+00
4.097019630220467334e+00,1.934539375913240544e+00,1.849010977044796888e+00
1.070561026079282207e+01,3.379093205650342213e+00,5.543243890417238973e+00
8.053660689428037145e+00,9.826581469757301734e-01,6.310804260832704848e+00
2.597987140334863998e+00,-1.442541904918238860e+00,6.641236265274603312e+00
5.611955472453312055e+00,-2.436115299905253551e+00,1.221404341018717865e+00
5.776085418924721715e+00,-1.390079538935211856e+00,4.473955258273950575e-01
8.981544463810493539e+00,-4.097708237431136324e-01,1.364935215477554697e+00
9.551197727134367099e+00,1.387321694645763159e+00,5.657336072194315335e+00
2.877885932160716642e+00,5.686513068774766033e+00,2.245017466162752218e+00
6.890368509093341309e+00,4.442793696413349203e+00,2.350876409460662675e+00
1.882418793289863945e+00,-8.284564077694550610e-01,7.750703562630183896e+00
2.324269356335432413e+00,1.717570370627621967e+00,5.627210944830363992e+00
2.783546907996219844e+00,-7.224551688623220835e-01,5.388275257197624235e+00
5.443248412141235448e+00,9.986383132528945383e-01,7.096101935696105478e+00
2.979922854024204426e+00,4.494522981281257046e+00,2.619790668768624986e+00
8.649229349084293972e+00,4.083560783252965010e+00,3.906616404096412420e+00
9.147730667402811378e+00,9.640022713320977044e-01,5.155799830059875077e+00
9.371438020315510542e+00,2.354623623490730289e+00,3.532116526771264198e+00
5.259362608485104396e+00,5.238413279130910816e+00,1.204573641149824237e+00
3.386025087204231898e+00,6.505554835592737284e+00,9.728339126727948427e-01
9.163250562802936372e+00,1.566115276580074267e-01,3.399317602104112712e+00
7.540096202668998160e+00,-1.109718620345192086e+00,-5.471806983194095197e-01
6.217992997658141618e+00,-7.411559187393752524e-01,-6.295302225452704681e-01
4.283103252013837015e+00,3.038706592313688226e+00,4.988821586459970980e+00
6.640615662291852850e+00,-2.641882735123110004e-01,5.062503276110027706e+00
2.816033912002688044e+00,-1.549269772588683258e+00,6.188964672417984758e+00
1.069261979270356555e+01,1.682859830582961402e+00,5.131459667611752096e+00
8.549408765167937574e+00,2.848526754082405521e+00,6.299585294245686029e+00
9.200531416275495644e+00,-1.838001816785519646e-02,2.984063434689103733e+00
5.255455919952435551e+00,2.943812311666165638e+00,5.332955478778513836e+00
4.931338457217945503e+00,-1.107159827175415057e+00,1.798241172021689538e+00
3.707043295346174716e+00,1.283489337406412245e+00,2.835799860101528846e+00
6.325304483072632600e+00,-1.850459073126662801e+00,1.963913929735360275e+00
9.553523796780805100e+00,2.860620386927153369e+00,6.558022882839846801e+00
2.747288740618526681e+00,2.522008135501967452e+00,5.032226411093787100e+00
2.661247126111803141e+00,8.301066494624947945e-01,6.498970878242917415e+00
2.310081751271531925e+00,1.140084416396184519e+00,6.131913598944477073e+00
8.636606223198239007e+00,1.479453859707314578e+00,6.787872860841533296e+00
6.963374269002216010e+00,7.080375251652267776e-01,3.195496246345231467e-02
7.780615960803038966e+00,2.906592315617930744e+00,6.042431653891164878e+00
6.412388759096470103e+00,5.378076663374675714e-01,-6.365818818241744115e-01
7.300949225830216882e+00,5.747491922871412751e-01,2.893184528955279888e-01
6.280885628797872045e+00,-1.984977626271547113e-01,-9.920177384364335937e-01
4.791520481105500551e+00,-1.904230673151891207e+00,2.413915796301047578e+00
6.025022444001916888e+00,4.829404130230601666e+00,3.878830820968758530e+00
4.742378027242357241e+00,1.124901803705256498e+00,6.797098786794337322e+00
4.896802171420632455e+00,-2.772657747848852328e-01,6.811138174861484096e+00
1.135221542461792943e+01,3.079705148369903167e+00,6.847128337569857059e+00
8.178040303405548883e+00,3.510702353889272320e+00,3.061118777143218228e+00
4.819744618637278322e+00,-2.248366316546214438e+00,2.640122880526805105e+00
3.449540351658003878e+00,5.629411834594035824e+00,2.484197162856256469e+00
3.332039798912604489e+00,2.763221344273333102e+00,2.806316852020397157e+00
6.447410480689910628e+00,4.545773060398876075e-01,6.808966271614386834e+00
1.014379038878747252e+01,2.578115832526439721e+00,4.459553643624341923e+00
4.570978826161131714e+00,-2.031505311202583375e+00,3.361133143293279169e+00
4.400433699886492356e+00,6.973201030578744408e+00,1.443998764440074911e+00
8.187311042582431142e+00,2.515103381048253262e+00,6.496144579097388849e+00
6.495870933251761237e+00,-2.619906711270789224e+00,-2.442278356954724894e-01
3.626493937134842582e+00,-6.610097343283011240e-01,7.278176384987497194e+00
8.967925414226685987e+00,1.559301391837729200e+00,6.622425596720808549e+00
3.170919308885001175e+00,-4.583674696436945695e-01,7.770119449062120154e+00
7.292867847215831034e+00,9.964485312434693265e-01,7.115732053836178572e+00
7.734376289174520913e+00,7.878893924053060882e-01,6.216228111917273758e+00
7.763906615785165499e+00,5.849521981001941651e-01,7.659355273650698681e-01
1.006010545378222076e+01,2.076180318504988964e+00,6.623916177910259329e+00
4.336163820203237762e+00,5.783594057916486619e+00,6.164978056071153123e-01
5.676396967652629577e+00,-1.238613285179865686e+00,5.519470500662392309e-01
5.490185827877511748e+00,3.640768116037502278e+00,4.782155541014852851e+00
3.736147165592436092e+00,-1.146269110308910877e+00,6.120267524951056082e+00
3.627481722625978566e+00,-8.620620332356378201e-02,7.564764562301878215e+00
5.838256657659540494e+00,1.822348925729188052e+00,6.476640181299087473e+00
8.248705123235065884e+00,2.583589183481135532e+00,2.538821617459174451e+00
1.187558540591119893e+01,2.956851297420229674e+00,6.460665723555088391e+00
5.245494859815199362e+00,-1.775998386740233581e+00,3.224698629885259127e+00
3.137440401166090798e+00,1.043262794051600176e-02,4.426778429982142882e+00
1.088216014126890130e+01,2.302851297723031543e+00,6.274981734633602315e+00
9.085932321753180219e+00,3.898357745864897833e-02,3.224503448227586055e+00
7.957989738665077084e+00,-2.308479069714110210e+00,-6.871364812193810900e-01
6.244620790101501839e+00,5.848553981752521835e+00,3.040268209495786245e+00
3.392581131947884465e+00,-1.185433496188509489e-01,4.039002171958392395e+00
2.885353075649009114e+00,3.286463643034185367e+00,3.347019804330871651e+00
7.016863679854663083e+00,1.570717834957028991e+00,7.014061360183162286e+00
8.480328370452554054e+00,-3.024194981213246258e-02,1.099192124661728887e+00
5.114765161485510525e+00,-1.177515358011415048e+00,1.509066923370561364e+00
1.159715848054939258e+01,3.311988432443618624e+00,6.405510127527477948e+00
1.058080252806430188e+01,1.461664002385690164e+00,4.768513818025533979e+00
6.252005983226134767e+00,-2.328882861756489842e+00,4.847228899784862544e-02
4.741676103540993559e+00,-5.429740749332887528e-01,6.396355835641093002e+00
5.973631270435594054e+00,-9.520810528562034802e-01,4.259074965915084832e+00
3.144527921044232066e+00,8.485013198366270215e-01,4.024960386415924241e+00
1.788812844366892252e+00,4.543448413317483503e-01,6.596049268803909627e+00
7.882941278882943159e+00,1.067682683485659867e+00,6.668061839486813192e+00
3.704247471524837465e+00,-1.139848011857785171e+00,6.166614536268922642e+00
4.706515285400679538e+00,-1.166834055210744570e+00,2.220468773921427719e+00
6.558741091351216745e+00,3.029002877315609243e+00,1.108258790721733389e+00
4.456853818723364391e+00,4.143509221841437107e-01,7.346257803799501218e+00
3.437668008997270430e+00,6.797748976494967899e+00,1.452237416452233365e+00
6.937910946383803790e+00,-1.634976069923383735e+00,-1.477500729329791707e+00
8.656256352901793960e+00,5.919305704585823280e-01,4.854422978233381869e+00
3.535776432959897519e+00,2.132868314453590042e+00,2.741689013537214059e+00
7.306844617055847202e+00,-1.213450028139510861e+00,2.337129872802476083e+00
8.834318071367553316e+00,1.542507759982997717e+00,2.466369180855618737e+00
8.807731080657607237e+00,3.277419593393238739e-01,1.661010266346055309e+00
9.343656563822239747e+00,1.887391621233362127e+00,3.204528113889069108e+00
1.101563059690552393e+01,1.875923254347072078e+00,4.894875269864254363e+00
3.984479463195962801e+00,2.690018451211839690e+00,5.215832238190391656e+00
3.612474729704088450e+00,-6.242836162624754159e-01,7.371639527335505093e+00
4.330446650763397187e+00,-1.900920332807035429e+00,3.221433619529316061e+00
7.120280085054377928e+00,-9.125787735567922332e-02,4.946581227881254428e+00
7.545477288183887410e+00,4.711073663744130613e+00,3.187964092035637798e+00
5.178357537178377434e+00,5.522276128322459954e+00,1.304207919012764449e+00
5.886332592558618515e+00,4.093665286710673201e-01,-5.821117170354830339e-01
5.600507136713278378e+00,5.496606990086181366e-01,-1.457509630649757026e-01
2.514388125187796863e+00,2.943923378240141275e+00,4.157109958640172742e+00
9.149595089064510134e+00,-4.026677518410494705e-01,1.540122419554962097e+00
3.695529874262688086e+00,3.015665013855002297e+00,2.051203476526643144e+00
5.127044599631515709e+00,5.755205178876182437e+00,1.401355207886249010e+00
9.666629834813045719e+00,2.873881264578322270e+00,4.164564616060036251e+00
6.655119641105802231e+00,-1.052998480510810575e+00,-1.251677931877671401e+00
3.538453289791420264e+00,6.095065735062918932e+00,8.960854081166469420e-01
4.544367291270905440e+00,3.588856926673923642e+00,2.954157352537593595e-01
3.130324871079700699e+00,2.757497705992120185e+00,3.162929545316513824e+00
4.653701269264902685e+00,2.958312304507325408e+00,3.965272232127757257e-01
5.869866649867219621e+00,-1.674660847637947203e+00,2.806981133275936902e+00
7.287944375339156622e+00,3.366142407190106045e+00,2.064702703759662139e+00
5.023696514422791637e+00,-2.850462570218619263e-01,1.254210167970978951e+00
7.810579958605074147e+00,5.135613160629554308e+00,4.087699353794401524e+00
5.293082617607018925e+00,-2.033220069750806935e+00,1.593744993444485836e+00
5.957384428868688353e+00,-1.486154378733034687e+00,3.124210939454432623e+00
2.148633136522312359e+00,1.095659283824980790e+00,5.657643805111140622e+00
7.669232373623132482e+00,-2.475702684876690540e+00,-7.534325597177290446e-01
4.770452954500590259e+00,-7.054927402158733818e-01,6.016657187772138649e+00
4.367614262419371229e+00,-8.488227747485831420e-01,6.118114933976267267e+00
6.133667120604282985e+00,3.501272430983121797e+00,9.792529082029167720e-01
1.057169108641933342e+01,2.347497602327900168e+00,6.687582652600647215e+00
2.520755634697783965e+00,-1.391730171834107965e-01,5.578397458921656948e+00
1.050540579430910704e+01,1.127673302158964663e+00,4.125281360516449780e+00
3.102521434227940578e+00,4.210134137634817364e+00,2.536796431934456919e+00
5.916922054625360694e+00,2.325633661455284718e-01,6.870854457332797871e+00
4.791702121207914722e+00,3.376008981858710900e+00,-3.969495760398931983e-02
1.954940725316575145e+00,8.093226076919404210e-01,6.130556964082889415e+00
4.887916728552794687e+00,-2.213015353360534121e+00,2.646873864595792991e+00
5.018488286448786084e+00,3.249602520519751181e+00,5.000188701639774358e+00
3.103400360524370072e+00,5.377451724150920320e+00,1.992897921351170165e+00
9.307404684753661783e+00,1.301645060424252986e-01,3.195416607311231338e+00
9.576903041604889921e+00,1.559510302911744306e+00,6.002368656915769485e+00
9.491092721462436543e+00,9.508510768720407347e-01,4.777584038247696618e+00
9.439731203139668736e+00,3.769646353621713519e+00,5.727086360538300447e+00
9.146941778830617764e+00,3.143732990322319343e-01,3.756056651694801740e+00
7.891803862509033429e+00,5.035953052452042389e-01,5.442905148436433471e+00
2.866795186648032345e+00,4.330660692139740142e+00,3.471644935502285367e+00
5.813895689127875244e+00,-6.411138702344006957e-01,5.092254649803899191e+00
7.690496011419128308e+00,-4.221333725514767599e-01,3.652228923094068325e+00
5.423018815327930398e+00,5.212712617897085288e+00,1.354279784891369687e+00
4.603184766044916110e+00,-1.714844639558349870e+00,2.656400327675548567e+00
5.055842989906548013e+00,-7.186403480837135760e-01,1.399257502506807915e+00
7.400921933414501552e+00,7.353565425412503798e-01,4.937385192189095995e-01
1.034773667345196557e+01,3.592774763413936867e+00,5.316781570220962649e+00
6.827641990306121400e+00,4.344083446112096070e+00,4.521268570869257708e+00
7.971886225867074849e+00,-2.028331459135295667e+00,-9.732070303405172818e-02
4.611766416521962952e+00,2.864667756982042679e+00,5.230147740610146201e+00
5.061497988270041049e+00,5.242478293924004440e+00,1.006269753756649843e+00
4.689193035162589673e+00,2.559237855519037375e+00,5.196660752750819068e-01
9.207983053574348986e+00,4.117312133552353259e+00,5.358844826906489445e+00
3.804548047887800433e+00,5.751899388858526585e+00,5.886044948195267024e-01
7.156663002899083637e+00,-7.525275939987017271e-01,3.483865979310471594e+00
2.986038652740302890e+00,1.905329561407059558e+00,3.812043859453829953e+00
1.026540537509052342e+01,1.127114719169101109e+00,3.653308519634603790e+00
3.774248791463014729e+00,2.678777890738238465e+00,5.169391675336715508e+00
5.608034409869777193e+00,3.080406391462726656e-01,-4.669830534974136332e-02
2.583243041944197849e+00,-1.074582806676003921e+00,7.449549273165869678e+00
2.730081667119522493e+00,4.987112484402057788e+00,2.829326480254769738e+00
5.747313447078301607e+00,1.403412902963556252e+00,-7.572508667776928215e-01
5.800778744379011087e+00,2.771873488292529331e+00,1.738799992916882087e-01
7.183009899217260852e+00,1.051116237877433246e+00,4.747976194909947489e-01
7.475976708367242374e+00,-7.144693330108725648e-01,-3.590300588517960634e-01
5.913209694530542571e+00,5.343096388277965403e+00,3.396535583077470832e+00
4.532650910102040243e+00,2.357332245405733939e+00,8.881626971391688441e-01
5.879958435263697325e+00,-1.684709745002961112e+00,2.775033679267038700e+00
3.860825209617658960e+00,2.738700706125209106e+00,1.889838783311492021e+00
7.263067093383496875e+00,2.395043302838811616e+00,1.417209581711689870e+00
9.221824338190323544e+00,-4.348815410034464479e-01,2.064424112605179662e+00
9.578330673612731161e+00,1.995175449532665457e+00,6.940172466888925307e+00
6.688502652923737024e+00,1.842485496729193262e+00,4.797538955611589384e-01
3.421578418279810574e+00,5.145119917805956788e+00,1.542529683318130562e+00
4.338961257676624328e+00,-1.545671813834571307e+00,3.041438163724220267e+00
3.812130768073993092e+00,5.132416711460096259e+00,8.631214630953767397e-01
3.827715434792732463e+00,4.372434555431985004e+00,1.188875772833689171e+00
5.356486110829886016e+00,5.862474467997979000e-01,7.435981421072357378e+00
2.734094721318580223e+00,4.634097893743596153e+00,3.168892015187286137e+00
5.608910613516313148e+00,-2.151558882048745236e+00,2.044724612700105748e+00
7.679188313031754198e+00,-1.773346571574941632e-01,4.191516744255218363e+00
3.644355216433237565e+00,-8.902314285850878584e-01,3.955748762052224254e+00
4.687109125520716013e+00,5.375000406389784047e+00,7.110350588317720932e-01
3.446142319651022135e+00,6.328042621082246910e+00,1.868107875885336888e+00
5.273909848183754967e+00,4.994913365331333566e+00,3.531805767459485157e+00
6.014812348810038678e+00,-1.567797921710976095e-01,-5.445163066159247611e-01
9.451755899201179645e+00,4.254113275527863003e+00,5.303711901445195664e+00
6.549163519416256740e+00,3.812328575603580738e+00,1.600450931954488620e+00
9.485500161965308763e+00,1.889455209982718653e+00,6.806836327297429712e+00
6.426925078893464871e+00,3.913862925966022477e+00,4.792713171384924919e+00
7.831957254720072648e+00,2.323119021521471150e-01,4.919019966822557599e+00
7.336904429508575021e+00,1.352727847257239935e+00,7.291777991368812550e+00
9.227657154181187593e+00,1.792634970186226251e-01,3.382527403427291190e+00
8.517072818380825083e+00,4.052659639714862649e+00,5.230621724326769417e+00
7.746876717383255340e+00,-6.853078320841110571e-01,3.027398128531897825e+00
3.619743377866799339e+00,-1.509186107168957847e+00,5.456455770681058581e+00
7.185742411753587966e+00,4.474533603962389527e+00,4.502365943844112373e+00
7.596998679863722792e+00,5.247555739804624864e+00,3.584029736229405128e+00
2.350299766174765548e+00,6.425854517002380639e-01,5.514281219528694322e+00
3.793906610300751048e+00,-4.117500260599034068e-01,3.471016954190100812e+00
3.857020534565765768e+00,5.669933400819297198e+00,5.346127649386508418e-01
4.269257000248769529e+00,2.155492377422143058e+00,1.444123829147248683e+00
2.254772955030031056e+00,7.510858988994867369e-02,5.945563817939381046e+00
3.906614739040963347e+00,6.406142813705805850e+00,5.792395801704731673e-01
9.526470088890050647e+00,2.687725441070629273e+00,6.703015404491793561e+00
9.584027715173847994e+00,-5.766148743316789477e-02,2.508618802544725579e+00
3.958276203515345593e+00,8.585460858094324799e-01,6.821511422849876105e+00
1.870676574348013821e+00,-1.407516780302794090e-01,6.719838216578748913e+00
7.222340418179626020e+00,-2.935023971993199865e+00,-1.288338825023434886e+00
2.198355969531731180e+00,6.850720149545419524e-01,6.502633626163840219e+00
9.147031275528954453e+00,2.849407563230138773e+00,3.621291041273103417e+00
2.812833859744965803e+00,-3.916342764301431467e-01,7.615396477695441924e+00
3.784514647073685900e+00,3.429706580327494425e+00,1.702689060628646223e+00
6.631620600485883088e+00,1.516790007624444936e+00,2.133069276464654163e-01
7.992299266510791256e+00,2.480619928659480777e+00,6.474248940890316106e+00
8.519377065061545906e+00,-1.282787449137031688e+00,9.521548627122966568e-01
4.883905240038881601e+00,-6.310649742266145612e-01,1.660271201956216025e+00
6.419444698502820401e+00,-2.205310849173562016e+00,-3.027496425794174995e-01
5.605948447914060218e+00,2.422844636186297418e+00,5.885619407653547519e+00
5.021136458316119544e+00,1.590787631435123695e+00,6.461566229152833074e+00
3.959658395188998536e+00,1.560468539868375082e+00,6.203804683964978750e+00
7.073645549771804930e+00,3.999385358094494913e-01,6.053078035867266671e+00
5.611771750155913452e+00,-1.908331636119921848e+00,2.566187382001233530e+00
3.961486012918977284e+00,-1.172842481747603971e+00,5.833372343247793523e+00
4.212980694976090845e+00,3.345404612304660130e+00,9.900189251003904678e-01
7.853052135470832695e+00,4.094724054261554613e+00,5.015635116488991407e+00
7.529492001517744448e+00,5.241993686517799622e-01,5.856497298529741435e+00
1.011391742355090528e+01,2.727537870637215978e+00,4.524963498557430519e+00
4.704631482878750326e+00,-4.679825111773110446e-01,6.595777504285904591e+00
3.828594361631898479e+00,6.922101307727582586e+00,1.447501044665944647e+00
5.366068239096671633e+00,5.642568418943778141e+00,2.986210692579254200e+00
1.014584878763993459e+01,1.189313963546642983e+00,4.624538052324925097e+00
4.878831920099925945e+00,6.345814888427075751e+00,1.527758057423505678e+00
3.423082000695024885e+00,6.593264313478739425e+00,1.628387375564923634e+00
6.579268973162944789e+00,5.109853218586804857e+00,3.780410771221457189e+00
6.816636864140064311e+00,3.101086650234485820e+00,1.416309788309947582e+00
5.822590107113454039e+00,5.412378692584496775e+00,1.887934365724117214e+00
1.117240162523333424e+01,3.189320415302256073e+00,5.895619145488699253e+00
9.344158379149011040e+00,4.495688076132914546e+00,4.876307306873842506e+00
6.970416765466514342e+00,2.167887797290920293e+00,6.475776898832582340e+00
4.947937043325385531e+00,1.551289108013750084e+00,5.339532485575222420e-01
9.067864378888920385e+00,-6.427472579780159068e-01,1.773157471765693938e+00
5.632822835049454469e+00,-1.708987407130041047e+00,8.469515626498680394e-01
6.188243609976765036e+00,5.795246811988576108e-02,6.217949166276999229e+00
4.687403721217773267e+00,1.738736423819106369e-01,1.631087904796879595e+00
6.840779313333814393e+00,-9.344673874841714911e-02,5.226654751144169886e+00
8.877987545282657322e+00,1.605783160691375722e+00,6.814277146661366302e+00
6.263971238162366006e+00,2.536706473979336351e+00,4.935146055352240824e-01
6.067288763456916811e+00,-4.856676509741575387e-01,-4.837906936810847935e-01
6.831025221723639795e+00,4.464467849097011332e+00,2.304507934511501155e+00
2.325779057525131588e+00,-4.537818792927413858e-01,6.066699724553934026e+00
6.215741624500894957e+00,1.031698634042881979e+00,-5.197928789317736165e-01
6.337082147234469609e+00,4.022587592531121636e+00,4.672899314562418027e+00
1.071712825869336427e+01,2.073627173304368299e+00,5.948949658691175202e+00
6.867876378924125724e+00,3.999147271364887679e+00,4.835783955734029860e+00
4.673764460623591965e+00,-6.233799902219530065e-01,2.025439031467233253e+00
7.954169330404435634e+00,7.846819986032707028e-01,1.087102379473824598e+00
3.561522859591947476e+00,6.299042425210870100e+00,7.608336023024250272e-01
5.241636516885515462e+00,6.587631892283744683e+00,2.051088595518609115e+00
2.260578918691461769e+00,2.718477035189583724e+00,4.707220594459584184e+00
6.016824178405504320e+00,-1.006074626921981574e+00,4.098658555768952105e+00
3.519967363711477226e+00,-1.062088420020289359e+00,6.522026928091488429e+00
6.299009595920812998e+00,-8.298729840418178627e-02,5.801231435155950855e+00
2.129718885016835817e+00,-1.176704648310154422e+00,7.691493604669967787e+00
1.064107850411128808e+01,1.458016481413293874e+00,4.246786743740076808e+00
6.872127600357848642e+00,-3.271717389277688515e-01,4.690820940553161122e+00
3.347406382940588898e+00,3.134090082283415235e+00,2.607040661137038917e+00
5.179041276358077539e+00,4.226204926494599334e+00,4.183267999887017474e+00
5.524751213781901704e+00,-2.262484110933594694e-01,3.476805265973247350e-01
4.059565860506952006e+00,3.322086780173027609e+00,1.270053008596750743e+00
5.293484638969788492e+00,7.483631196388322859e-01,7.276347242958632222e+00
5.281430406747094963e+00,3.251723095474883252e-01,5.184408752409904730e-01
9.822264835622432244e+00,1.839424044815098025e+00,6.355832618872010009e+00
3.865775361327364656e+00,2.667186290905861235e+00,1.914379501457332822e+00
1.078769329568362778e+01,2.388860711908453727e+00,4.992096806500221362e+00
9.503065566685927834e+00,-4.482658389777705379e-03,2.705763010439568905e+00
8.022018248929509099e+00,1.590863774440803180e+00,1.672557197348529145e+00
9.731310951591655822e+00,2.182474420150564143e+00,3.787220863707679186e+00
9.809396620333354022e+00,1.787991788984397701e+00,6.258060724083443382e+00
8.307715095274643247e+00,-1.154232266267090079e+00,1.444978679648589281e+00
9.096559865076457640e+00,1.536510745823328250e+00,6.442220952430480985e+00
4.292141818379151097e+00,4.171351264600935416e+00,3.993894596140493025e+00
5.113147752182385375e+00,-6.045322066059308774e-01,5.885136850555564791e+00
5.740115777304290567e+00,7.066048641556103016e-01,7.432807372723408079e+00
7.989350700579661790e+00,2.433928080097504054e+00,6.514573235285978647e+00
4.975704452345989459e+00,5.882407398758681794e+00,1.329191860689821647e+00
6.524741383421676311e+00,-1.997442225340454458e+00,1.443817441438884908e+00
8.174218330835971713e+00,4.077379109779989186e+00,3.420336943828738985e+00
7.374596464842424481e+00,-2.371590304278493821e+00,-2.287605523842382860e-01
4.624252355375406687e+00,2.862510407625749043e+00,4.927130894242007786e-01
8.072131344665804065e+00,2.239714589286206703e+00,2.139193309465458714e+00
6.485222939422441435e+00,-9.160503030798228252e-01,3.815476740662993915e+00
5.735810048430916908e+00,3.443420732883149871e+00,5.382066815827496464e-01
3.127271852626407167e+00,-7.464230212470801540e-01,7.602706117218552606e+00
5.252964490258565711e+00,1.534354119477550737e+00,6.583519228980710611e-03
2.111224757706873678e+00,-1.901199116453250737e-01,6.320680650666781197e+00
8.901526785092890748e+00,-2.231648572516370665e-01,1.403254590172494209e+00
7.924906648978236490e+00,-2.164054604959758932e-01,4.159413124776671355e-01
8.560871884517855079e+00,-1.596782290772671642e+00,1.772117644947452386e-01
3.709134538820568316e+00,-1.931336196310696085e+00,4.455251065370573471e+00
5.892770744939856087e+00,-6.224121977090648627e-01,-1.140263704935841615e-01
7.975333141321602426e+00,-1.087775249602851657e+00,1.926929484981802165e+00
4.777876017380800810e+00,-1.833757028230689867e+00,2.405114728910275446e+00
8.301086985078475422e+00,4.545544184172551461e+00,4.738731993227184525e+00
4.981219343213161288e+00,-3.588832281830329207e-01,6.549162178824057712e+00
5.572702299767214207e+00,-2.311579739286159008e+00,1.736626556769275354e+00
8.505914630021358391e+00,3.914009449159352894e+00,5.349719802264417901e+00
2.286492151043371557e+00,1.123368151709953855e+00,6.140311457583538690e+00
7.268175831066550963e+00,1.804867142156864945e+00,6.875229013404211997e+00
6.442847470838775514e+00,4.745583085829782277e+00,4.064609726140291812e+00
9.203912145070427542e+00,8.896208423698321877e-01,4.938194389142839924e+00
