-3.443597285651060158e+00,-4.732945642628813232e+00,1.652320656635381413e+00
-7.356054064251651425e+00,-3.615977113258848519e+00,2.082589171874929423e+00
-5.782336125012968786e+00,-4.352195356074278543e+00,8.410981235224209485e+00
-3.658680449134798618e+00,3.191788717849811885e+00,6.432167084559261561e+00
1.534544200487652610e+00,-5.721668588014433787e+00,5.354580404503512803e+00
-4.790772540143510838e+00,-5.105608236598112804e+00,4.659698428909695878e+00
-4.853179858420480386e+00,1.569000939218555768e+00,6.860748839183831826e+00
-2.680361683431551345e+00,-1.590322564713194442e+00,3.630448120301755122e+00
-2.708763766272293427e+00,-3.637129387132139957e+00,2.455082932678238627e+00
-1.779032348460664270e+00,-1.669060833245151754e+00,6.266865894192185316e+00
-2.160614685364929066e+00,-1.703529864833393859e+00,4.025117777030832400e+00
-4.389832731178273661e+00,-4.850852603918848871e+00,7.862027888130046271e+00
-6.780744283553435281e+00,-4.812346921466374106e+00,4.460498968835526767e+00
-6.488045564197491011e+00,-2.006967317392019723e+00,1.461318648507704099e+00
-3.962776685516156139e+00,3.193021965678155105e+00,5.904259621908852118e+00
-1.197948557684633597e+00,-2.697970838502204427e-01,5.679728922758154219e+00
-5.720446107391606638e+00,-5.496757656391882740e+00,7.472097962651377934e+00
-3.035915211309922590e+00,-5.335280290548927162e+00,7.328229256704046790e+00
-4.727725844676983868e+00,-5.615855772530339962e+00,7.421846925848429422e+00
-3.176667979925266838e+00,-5.477587693781049261e+00,5.559029967836734976e+00
2.850880299790532479e-01,-5.869497950533276942e+00,5.255061035245638834e+00
-6.074007583326616277e+00,-9.184183548570223898e-01,5.031858570768243943e+00
-4.397931768340848535e+00,2.317143090630255031e+00,5.381762772735839029e+00
-7.752744325640871459e+00,-4.316138834562626592e+00,2.790175384010331605e+00
-2.212985993910542515e+00,-5.208262952894995301e+00,3.392640164038462025e+00
-5.802582356302820266e+00,-4.513235562523732369e+00,2.119958975199964790e+00
-3.149806571758442697e+00,3.359013421567764723e+00,6.183518829564176755e+00
1.020369909339150061e+00,-4.390401116214812660e+00,5.319945921178184101e+00
-1.138113360130488694e+00,-1.213407771301484805e+00,5.920011745172764961e+00
-7.746671006062953779e+00,-4.084971772508009913e+00,5.434479381235505002e+00
-5.399292367605746712e+00,2.555825762942166013e-01,3.625078022842340708e+00
-2.395170864818173317e+00,-5.314989508815043173e+00,4.109219969035606823e+00
-6.826117502602611076e+00,-5.435421790041669254e+00,7.920371127549449497e+00
-1.611111675152488099e+00,-5.654257218465680523e+00,6.740251561718292983e+00
-3.204657808229731675e+00,-4.923873600543316464e-01,3.785191940897457918e+00
-3.972032604793633848e+00,-3.785922893210254880e+00,1.257557648817671181e+00
-1.259391063983269943e+00,-5.898633463214495443e+00,6.512848217636106440e+00
-5.546974911875187431e+00,-4.229222316156127093e+00,3.759238904612152155e-01
-1.164880683327974564e+00,-9.280452833215622199e-01,5.338946314671331628e+00
1.617003741630374802e-01,-5.002074266629461086e+00,4.219038887106060010e+00
-5.374141441241310879e+00,-1.297862983535291281e+00,1.419540641814359683e+00
-2.477573057073112928e+00,1.233607947182475462e+00,6.177599632452376532e+00
-7.404220011111227961e+00,-3.161869989666130643e+00,8.661832419351213730e+00
-1.001564945205799972e+00,-9.739907770199043302e-01,5.457130166541159788e+00
-4.805617155097927196e+00,1.490297565276537117e+00,4.816881073970438187e+00
-2.335161663708543944e+00,-2.834762731890759113e+00,3.235447273667821033e+00
-5.102439694467562070e+00,7.981691068618519402e-01,3.320068425993112804e+00
-1.859196019848261994e+00,-1.318438779911694780e+00,4.507321413734448612e+00
-7.737770882183637733e-01,-5.038519818485231561e+00,3.373687932375224019e+00
-5.787843853550720397e+00,-5.105632768579194902e+00,5.368353186789579290e+00
-4.824935390282375280e+00,-5.356612432407588109e+00,6.064786955842503602e+00
-5.727491924966430226e-01,-4.270179467754903868e+00,3.982759886502691415e+00
-2.116393557170417772e+00,-5.673735965962094063e+00,5.884639545005719619e+00
9.830614934988538556e-01,-4.242310965777062570e+00,5.395765771633087127e+00
-6.849624464771308929e+00,-5.413147578388417536e+00,9.030119725434628819e+00
-3.803619286119993781e+00,-1.755279699234299384e+00,7.176519775184292627e+00
-5.656967092082538784e+00,-5.566285409117625704e+00,7.809472490015955337e+00
-6.354220833114940348e+00,-1.380786391038541172e+00,5.919637912425431914e+00
-3.210495536799223171e+00,-5.440872704450126385e+00,5.381093103779115872e+00
-5.631524925498731626e+00,-2.990842606792446512e-01,2.295610893787011886e+00
5.230040408213820768e-01,-4.424644732444055428e+00,5.624843488599474028e+00
-2.545426063877288314e+00,-9.556247201695144966e-01,4.106134305909475479e+00
-6.092476733309486470e+00,-4.658659870869406028e+00,8.590642871186553009e+00
-5.535828088503201627e+00,-4.479918985807366028e+00,1.747123572896054133e+00
-2.721171957446717915e+00,-1.453656578533377708e+00,6.655044967809097933e+00
-4.577361472639005946e+00,-3.406065544536288847e+00,9.372845666853076851e-01
-7.693434402405100236e+00,-3.916518960727280785e+00,6.236696847452864567e+00
-4.524754828612234547e+00,2.113260668270976694e+00,5.848400923176271249e+00
-2.369333016352074939e+00,-5.322995506577512970e+00,4.134901784926556800e+00
-5.183006617475380828e+00,9.308663088974077349e-01,6.774737915057967186e+00
-7.457326059641313343e+00,-4.442164253551454500e+00,2.904847278428303703e+00
-3.851063725266719473e+00,-3.605645863634002968e+00,1.465540472769577107e+00
-6.093523697659978922e+00,-7.612713199075532566e-01,7.374275333487601003e+00
-3.221373220713347862e+00,3.088089729993719779e+00,6.252499215289454071e+00
-6.551566777668261787e-01,-2.259114535672167801e+00,5.849599655613610061e+00
-7.148456359971494756e+00,-3.134993754474183714e+00,3.092227105841452328e+00
-4.085833450803295186e+00,-5.298778839047301403e+00,5.221429009404339183e+00
7.683762106263095082e-02,-4.869968260514886182e+00,5.883914771429963331e+00
-6.876328723916816932e-01,-2.559263655465139120e+00,5.905263070584280349e+00
-6.191807436867587278e+00,-4.201312641743543352e+00,6.806071063590413139e-01
-5.109582048894296236e+00,8.166088988904081081e-01,3.706737082922714421e+00
-6.126585041745642002e+00,-8.463662954749080480e-01,7.111165984707654708e+00
-4.794224784274977225e+00,-1.483580954474387870e+00,1.826514044387572477e+00
-6.308741953351955090e+00,-1.284212996920006677e+00,6.034871696436788113e+00
-1.891747401446588261e+00,-3.487489558937823197e+00,3.259595480882748308e+00
-2.918826471113562526e+00,-1.972146701930590496e+00,3.205590856895525587e+00
-2.300387548557594197e+00,1.945476969938612077e+00,6.001165350882429195e+00
-6.199555049387357464e+00,-1.361180492260173569e+00,2.591965407495567142e+00
-2.716468633990543946e+00,1.382169648377503002e+00,5.269174080318543396e+00
-2.969922128278748019e+00,2.657971272673559593e+00,5.762698888722246338e+00
-5.699395289605079462e+00,-3.155401164016287119e+00,8.209676399045132911e+00
-1.799398072035320650e+00,6.573293878214455654e-01,5.670445999958454664e+00
1.670105269193443709e-01,-4.537973148087512953e+00,4.484549606690301005e+00
-9.950257233855104300e-01,-5.338131414516115392e+00,3.241582681559002310e+00
-1.428607727539005223e+00,-1.357720114814713552e+00,6.068670011063293401e+00
-3.844207110936117111e+00,-5.157376239228608661e+00,4.271851833626906902e+00
-5.208707253340074672e+00,8.848606244637011731e-01,6.812826156766520036e+00
-7.706491495465698449e+00,-4.413116752433070111e+00,2.922109734053117691e+00
-7.396353107622378076e+00,-4.645718454710930700e+00,3.981302556324157749e+00
-1.127794609582283059e+00,-3.265547820205212393e-01,5.793519112973330998e+00
-1.997149827076670547e+00,9.147908610070012436e-01,6.008384565354023543e+00
-4.607388702440093908e+00,-5.406086191065352153e+00,6.182360770885440004e+00
-1.765971370555920794e+00,-3.019671799365681419e+00,6.446744196816132089e+00
-5.881563897664801033e+00,-4.094314318194234303e-01,6.727959021306642917e+00
-2.219530638624867880e+00,-5.100575790455034841e+00,2.804887285559721555e+00
-6.098120036853155845e+00,-1.812027808547496788e+00,8.201815313165054633e+00
-4.073497397356629968e+00,-2.646604700938719468e+00,1.808395537448974189e+00
-4.929737610422217031e+00,1.280331456866774520e+00,5.147972009049133213e+00
-7.124087926631475831e+00,-4.782614445138634984e+00,4.540916393101849025e+00
-6.592341091144629850e+00,-1.953144030325332015e+00,4.512761940995565269e+00
-2.845744048908539714e+00,-4.906870713239642967e+00,7.185004023630230385e+00
-1.483403566441541033e+00,-5.628077980846828421e-01,5.263351311273620325e+00
-1.494183194886164134e+00,-4.549403318095148308e+00,3.013348630441663012e+00
-7.138469233741441933e+00,-3.366625568282026304e+00,7.226041054801091157e-02
-1.225880852260018194e+00,-2.797192099062927984e+00,4.234683682968328533e+00
-7.072648006622111794e+00,-2.996914287535519694e+00,3.008520210065316114e+00
-6.581571764983674910e+00,-5.361184115093708513e+00,7.338203923263242778e+00
-5.940546689637995925e+00,-1.870017791459912981e+00,5.985507004224204231e-01
-5.916674241357283037e+00,-5.181963964914367615e+00,5.879809736287388233e+00
-6.614594006880566646e+00,-3.597273224939191660e+00,-9.665294177642622664e-01
-4.991486059262178365e+00,1.095911454389497885e+00,4.349570995054840239e+00
-6.638354156375057435e+00,-2.093882090316137479e+00,3.877904365365471673e+00
1.021009075444745617e+00,-5.932478516377375222e+00,5.078580555989657519e+00
-5.883692721330298525e+00,-4.332692473127912614e+00,1.184400998076647893e+00
-6.972224374448209083e+00,-3.955910479962075232e+00,-1.148226211187905604e-01
-7.650485141242498344e+00,-3.634344570434051569e+00,8.645652303082144385e+00
-6.977211894125932901e+00,-2.856082726403092131e+00,2.505697175452504588e+00
-4.151762023738680973e+00,-2.463236118614997583e+00,1.842439347354382306e+00
-3.342847004382146547e+00,3.085302044660547249e+00,5.674031196154905032e+00
-5.310646834287774176e+00,-5.002495505125763131e+00,4.461882719910390982e+00
-2.989729686053398616e+00,-4.367356562913824902e+00,1.796944584279759116e+00
-8.491631614609897127e+00,-5.270911612891286069e+00,8.316059756161857663e+00
-5.022285030611851830e+00,-1.426545451850071977e+00,7.671744500021155488e+00
-4.416393829606113819e+00,-4.661022361111313295e+00,1.947929842478541174e+00
-1.366121130948891427e+00,-3.170672399518429163e+00,6.290189207614346856e+00
-3.796717363313629079e+00,-5.559979584446530509e+00,6.452887997100988926e+00
-4.132589884316525186e+00,-4.522834752438347650e+00,9.860673777800009754e-01
-4.998072363782579686e+00,1.248043645335387586e+00,6.333658554078963832e+00
-6.180363664318176298e+00,-3.504644978801819466e+00,-5.315839051679825955e-01
-6.411210782060879687e+00,-5.237993032100631829e+00,6.539452308855739027e+00
-7.213527511132659775e+00,-5.035756514884643487e+00,9.139611783341388573e+00
-2.706413741815174578e+00,1.098920747928614272e+00,5.118852019995268954e+00
-2.109885570886277595e+00,-4.792653463495238242e+00,6.842986651740095461e+00
-6.355402110795985493e+00,-1.502563195492244930e+00,4.480140519451920156e+00
-2.248713233256095290e+00,-5.817411205275963226e+00,6.769045440293392168e+00
-3.372487786932614195e+00,-4.815716978920474567e+00,2.057127928993354171e+00
-4.226195443022009002e+00,-5.563915890423964505e+00,6.779729740137685923e+00
-3.816397493661256579e+00,-5.417938809969313319e+00,5.685484746213185225e+00
-9.718864931122779272e-01,-2.384599950331128149e+00,6.007303845914270468e+00
-7.315934889111627371e+00,-3.144305934900999855e+00,6.839111762836190600e+00
-7.839336273429196922e+00,-4.430107842781472627e+00,3.412751669314261438e+00
-3.749456713246927198e+00,-4.954628877335878201e+00,3.089177944325951941e+00
-5.338819815826537862e+00,-1.435452190036100584e+00,7.813335987677962891e+00
-8.044557902211202816e+00,-4.719840930154765246e+00,4.849676532305116972e+00
-9.889139614295600067e-01,-2.271414909069222166e+00,4.739122890854086556e+00
-7.531864751208021680e+00,-3.842249762982917982e+00,3.408326494853868738e+00
-6.780075437687340667e+00,-4.319635062764612954e+00,1.749540584548847644e+00
-5.138423065510980159e+00,-5.348260380388343727e+00,6.241605677428331944e+00
-1.184351539157406652e+00,-3.317216554227011560e-01,5.819309529333838604e+00
-1.769955517375343179e+00,-1.454130710205521426e+00,6.233294068288130596e+00
-5.143890713353117761e+00,-3.820330102532284222e+00,8.054747006106117269e+00
-3.659674091923924788e+00,-2.432359800368638414e+00,7.205766457414198634e+00
-7.222014793078755268e+00,-3.273003877903938097e+00,3.124926491979670207e+00
-4.311702764131926102e+00,2.456996863799744801e+00,5.079313325029698234e+00
-2.113697608752426405e+00,-5.330907158906995846e+00,3.996770232705983084e+00
-3.994950462466819729e+00,-4.970805221776084082e+00,3.352614569702279113e+00
-6.762082257936719021e-01,-4.386233693441425885e+00,3.826310289845618495e+00
-5.112120684529206649e+00,8.178061140469693457e-01,3.779651991009135958e+00
-1.117179949144935014e+00,-5.558179299618570823e+00,4.538902574110894150e+00
-7.188899520799377107e+00,-3.254118768723062605e+00,2.589341705861597287e+00
-5.849719742168368875e+00,-1.573643250257086734e+00,8.452032231297186282e-01
-3.873204653803661746e+00,9.723269314130273955e-01,4.018873682097844124e+00
-7.247667634541863357e+00,-2.917464234426009106e+00,7.998246009377683485e+00
-5.405004896687102267e+00,-3.754243380501010918e+00,1.182158289684559320e-02
-2.815741836757359007e+00,2.984525916115126964e+00,6.082175420451918946e+00
-2.978600308555207299e+00,3.199665724688358637e+00,6.059483286383029466e+00
-6.694206499094364382e+00,-2.265932250253981373e+00,3.092631264954468939e+00
-5.327396405207625918e+00,-5.449853737365061512e+00,6.934770864170726412e+00
-5.940525131013647098e+00,-9.213265415388292023e-01,1.921126370150017637e+00
-6.959778162502166410e+00,-2.648617974981372747e+00,4.602756599387631375e+00
-2.872386060415552222e+00,-1.726704440300233845e+00,3.384480691627361981e+00
-2.436707379956066344e+00,1.352019699735784286e+00,5.498912356386727929e+00
-7.246980476938665872e-01,-5.481012956199701414e+00,3.835500742007996511e+00
-2.365870693274808811e+00,-8.547408814222053897e-01,6.415153248996415591e+00
-2.833441492223679248e+00,4.104179824674593635e-01,4.619899908098365593e+00
-4.682144529155420898e+00,1.693266581075525412e+00,4.416442350089395674e+00
-3.579815328272854202e+00,-5.133196137439396622e+00,3.950956357876127534e+00
-6.874988479050391454e+00,-2.599720055258008866e+00,3.237972384694642880e+00
-3.938148839783664368e+00,-2.983216761354228641e+00,1.738562132494111401e+00
-2.433030928854200692e+00,-4.131358214407787166e+00,2.420453174102478844e+00
-5.534926027615495236e+00,-4.891665844474566427e+00,4.011564852342476506e+00
-5.219017614621087375e+00,-5.614332073242930932e+00,8.334685661710114601e+00
-8.371475378705721226e+00,-5.560503574217599443e+00,9.706597850198908972e+00
-3.101167023140113943e-01,-4.626102149189793344e+00,4.014307869595642231e+00
-5.914744965534069365e+00,-5.941967267101135874e-01,5.267149082867099708e+00
-6.214995427140212136e+00,-1.227026940865125315e+00,4.563528549538595769e+00
-6.324843600302105351e+00,-1.135660883276179867e+00,8.209374665871763455e+00
-5.101599579186986588e+00,-4.419620346274389711e+00,8.118378221121856697e+00
-5.258787745355000709e+00,3.828394342213743418e-01,2.465822922246339921e+00
-7.370025807695358644e+00,-3.642002901261536252e+00,2.091063932883049148e+00
9.901453560580250612e-02,-3.516922264733282066e+00,4.998431859750750661e+00
-4.208821160140939099e+00,-4.525620993119572333e+00,1.055564928412362935e+00
-5.576869048490667780e+00,-2.322517843110127878e-01,1.841179590449644632e+00
-1.324292355484432804e+00,-5.263389673204411423e+00,3.064394135521538498e+00
-5.731524310849340331e+00,-2.035757346248535660e-01,5.750131953198127199e+00
-4.916332037886134709e-01,-5.933140607760778451e+00,6.157107833785671502e+00
-2.851038672918927652e+00,-7.369459971657209563e-01,6.614107145021994150e+00
-2.975377084506130032e+00,1.114524360803487379e+00,4.890459775872651349e+00
-4.223414742437716640e+00,-6.600620974471581581e-01,2.792656510351544608e+00
-8.981642318608341891e-02,-5.959093176623694532e+00,6.014345495929765306e+00
-2.201690244589754319e-01,-5.059154045346676121e+00,3.850241768138544796e+00
-5.985292912862385073e+00,-4.830755722256100171e+00,3.996520105706224513e+00
-5.418086461748317539e+00,-1.180371638553054492e+00,1.446822649898994451e+00
-7.638123922279441480e+00,-5.575284471119299923e+00,9.266789591215866650e+00
-1.178426873763485538e+00,-1.843479481006585763e+00,4.812520679223553977e+00
-4.877202697034672241e+00,4.537413842881193871e-02,2.612631918615135440e+00
-5.076016801919536192e+00,1.111214175499500190e+00,6.481640495513365074e+00
-3.280399705607454308e+00,-3.389816061821984583e+00,7.169200282041773065e+00
-3.605027017242872778e-01,-5.883073090885512890e+00,5.788497328394609731e+00
-1.813222680294652500e+00,-5.147370696369379495e+00,2.773590388411166341e+00
-1.992978796525855856e+00,-2.106016538475365962e-01,6.161244044521543728e+00
-2.319934242970207894e+00,-3.734972845526533636e+00,2.742949162175361000e+00
-4.646168382234715288e+00,-5.692696711073907068e+00,7.786605842714709347e+00
-3.482688806423965833e+00,-4.043038217086246666e-01,6.848483094786868897e+00
-6.841149701380833115e+00,-4.378230555060079965e+00,2.115282755518499425e+00
-3.118808505231430717e-01,-2.023144232619718874e+00,5.475634858052665699e+00
-2.491515135440997231e+00,-5.025291315933527514e+00,7.044200957605627700e+00
-6.586804502666433470e-01,-4.413782206130144381e+00,3.826283134487261428e+00
-4.804404649757207380e-01,-1.669815567485489982e+00,5.691110239982565489e+00
-4.994699639516960943e+00,-4.395702633103395485e+00,8.067685540558091617e+00
-3.944916361544022365e+00,-1.718265688230641963e+00,2.443507109024225965e+00
-1.177176785942012138e+00,-3.639591171055231555e+00,3.804194252041298352e+00
-7.929691282897601834e-01,-1.035581790641661781e+00,5.742511884127140753e+00
-7.144292307695334188e+00,-3.444787581518167219e+00,-7.349709796673165041e-01
-6.741268151246004869e+00,-2.120007310432724612e+00,5.934590532925847484e+00
-5.842099044080332426e+00,-3.251692662194148209e+00,-9.115392699818176958e-02
-2.576889218726825970e+00,-4.708636818875732821e+00,1.969169377308752411e+00
-3.450683333789806628e+00,-7.749614530240039878e-02,3.801428117774024784e+00
-2.472853612476324514e+00,-1.951234856099454573e+00,3.610585297900370527e+00
-5.655516148440867141e+00,-1.875162674473483115e-01,4.192175520985752968e+00
-3.772788183765749537e+00,-2.883379358967743666e+00,1.940480233617173145e+00
-3.235615781593188078e+00,3.561775045183125599e+00,6.036365113479524425e+00
-8.372442342064310150e-01,-4.846810432628696930e+00,6.286080016419231420e+00
-5.370120734553861519e-01,-1.906832590230728375e+00,5.748779896187021343e+00
-6.869459252823255646e+00,-2.346654928134728202e+00,6.158560264889776370e+00
-1.296731959630370135e+00,-2.454837579120347169e+00,4.364615781191607979e+00
-5.723918098439165547e+00,-1.100953287777271666e-01,6.700775556548753009e+00
-1.620815045852516789e+00,-3.995886272615713164e+00,3.212770378817396466e+00
-7.236875090085084672e+00,-4.786092377074287363e+00,9.115643604522189136e+00
-6.363992648341827874e+00,-5.405736956915879077e+00,7.428683980133810039e+00
-7.161709640256439968e+00,-3.158244822076198499e+00,8.858529310283165259e+00
-7.269152074519030782e-01,-5.118931236535543050e+00,6.274563496082818048e+00
-2.987110709922143670e+00,-2.773762349930121385e+00,2.694866210620406211e+00
-8.004646332526746733e+00,-4.623045981141243210e+00,4.898024200309576415e+00
-9.431017460263059204e-01,-2.039332455629509155e+00,4.909950491115652405e+00
-4.317407952353708112e+00,-2.444185814436176329e+00,1.707085517364502092e+00
-7.125733452592589501e+00,-2.832097901888436908e+00,6.216814094834338000e+00
-5.567744834963467504e+00,-4.858823791037989892e+00,3.854216781134077063e+00
-1.359805609893057099e+00,-5.558497051192905936e+00,4.713060594440272588e+00
-3.340382934165682993e+00,7.127198046513165686e-01,6.631819045753861275e+00
-2.660766395331975787e+00,-2.676299973734884929e+00,6.796336494644605430e+00
-3.214111927843917638e+00,-4.409765981795145784e+00,7.280018819634269001e+00
-4.768581864461548747e+00,7.453357842238904629e-01,3.101793493552402303e+00
3.567785148382058846e-01,-3.035533789045405939e+00,5.507593227626228050e+00
-6.074194994470179410e+00,-5.007563232484141480e+00,5.032339094818157221e+00
-9.248207172931068865e-01,-4.450869064421949517e+00,3.570767716935296932e+00
-4.091857553384796731e+00,-4.980608707636079657e+00,3.475407310056401577e+00
-2.140012522653197191e+00,-1.990700426337949525e+00,3.881891892799508526e+00
-2.008434988319844905e+00,-3.379384593835823125e+00,3.217460655885739484e+00
-8.275280950774606126e+00,-4.820246167301588613e+00,8.758853780580093229e+00
-6.403499703934772747e+00,-5.301870057176334861e+00,6.885370069443818686e+00
-1.843768039695159011e+00,-5.872890661040162108e+00,6.786491958679309988e+00
1.562650570638624004e-01,-4.775891578485771838e+00,4.341362658044204181e+00
-6.930971743724405165e+00,-4.810380429709999461e+00,8.983329948391272524e+00
-3.042215159442867467e+00,-5.463915651337721613e+00,5.388275677150529575e+00
-1.406411078054982111e+00,-4.128624887442650104e-01,5.415510772190152089e+00
-4.466228498273130398e+00,-4.518175652215752791e+00,7.850172005337634040e+00
-2.925946974892199126e+00,-3.133551777118228077e-01,4.131565976917291216e+00
-5.711841979524599822e+00,-8.686150406057026319e-02,6.702352566354208285e+00
-2.071735073585404319e+00,-5.075094427667605768e-01,4.775661179456812455e+00
-3.569759736519577675e+00,-3.145915685521500915e+00,7.263987438474486247e+00
-3.857307554659521021e+00,2.740127065669886175e+00,5.026408529329819075e+00
-6.744774398432453744e+00,-2.115402613402994625e+00,6.070841899519685114e+00
-5.827291372404444836e+00,-4.143836914337554744e-01,5.417763991413511171e+00
-6.333504351125374576e+00,-4.262628907730489303e+00,1.118607199042057188e+00
-2.874032675950762616e+00,2.840338312366725848e+00,6.132530059359049268e+00
-7.009813775369853950e+00,-5.388052932664844086e+00,7.790322559100781419e+00
-4.535337140139262146e+00,-4.380220462090950839e+00,4.877169846435807088e-01
-3.757871682280417569e-01,-4.108352976661208800e+00,5.979930621895795717e+00
-2.744974511449872701e+00,-2.809391203118209557e+00,2.888348963878357267e+00
-8.484765340916053944e-01,-2.378897272832793064e+00,4.802549324222223248e+00
-7.457038205934039432e+00,-3.417099835392193086e+00,6.804805304042897518e+00
-3.932076327934529214e+00,-2.313983007987988394e+00,2.120031203698835576e+00
-3.940938970650484041e+00,3.245379111569389075e+00,6.549967234735777133e+00
-2.837181159920556084e+00,-2.515059428466398739e+00,2.972461406692884722e+00
-6.325235124132987607e+00,-2.545878392742211282e+00,-1.204917603811555549e-01
2.705124854044116400e-01,-4.978226869937932619e+00,4.328387669916800462e+00
-6.962672223124513060e+00,-2.574863723944124771e+00,5.557759953153309063e+00
-5.243154637873360890e+00,4.919861055407714207e-02,7.566816544578015780e+00
-2.827661768634766037e+00,-3.026578175088543876e+00,6.918499281737620521e+00
-3.442970237898381747e+00,-4.700140778317309476e+00,7.421424019461595911e+00
-5.185574836802165244e+00,-4.582935648048565014e+00,8.178068133091819902e+00
-6.195693314489466808e+00,-5.130158190467755119e+00,5.793089480848367501e+00
-5.165889343271217626e+00,-5.610491367147113273e+00,8.310597990651947597e+00
-2.058070349322703940e+00,-1.344405288474949112e+00,4.317368251805562274e+00
-2.603652642726112632e+00,-5.127651597369598413e+00,3.226792883805813528e+00
-3.080579516124435369e+00,1.017395156932805689e+00,4.743108926320013019e+00
-6.595462800018094818e+00,-5.516109972333778089e+00,8.931566331967605521e+00
-8.278627951907104432e+00,-5.221494566231686285e+00,7.775680110839235937e+00
-6.478709209783695577e+00,-1.779882053863733438e+00,3.981273329259640725e+00
-7.287402120236969871e+00,-3.071154531546712363e+00,7.062716653469957251e+00
3.950983369214868812e-01,-4.728106802444031587e+00,4.578812130787643042e+00
-4.268040959053294614e+00,2.518862041098745674e+00,4.818379987550872379e+00
-6.824815689261530594e+00,-2.307114234684092935e+00,5.606122440514470284e+00
-4.875804814453768010e+00,-5.279851413564810025e-01,2.291632153791850701e+00
-7.111342454526181633e+00,-4.561833916768867070e+00,3.317312080386291662e+00
-2.503212277859710344e+00,7.430022499212077802e-01,6.256413501806187050e+00
2.468439397541664360e-01,-4.270726070969779187e+00,4.705138589904356294e+00
-2.462452548874270342e+00,7.441158460985727308e-01,5.134564567620681252e+00
-4.410898529933795942e+00,-4.622895283344366391e+00,1.734282006032701551e+00
-3.416484094494566914e+00,1.060341883138262498e+00,6.617777994552214160e+00
-7.544583776432967959e+00,-5.557081360083762078e+00,9.358085567484334177e+00
-4.062703366455296283e+00,-5.185561798420480706e+00,4.582168537290529642e+00
-7.459462811521709646e+00,-3.933946295628246492e+00,6.356190808821430283e-01
-3.374886502213150674e+00,-1.143540451011484799e-01,6.760818500424019994e+00
-5.658326067470985876e+00,-3.894000312822569754e-01,1.825373028762733885e+00
-1.391680725153906284e+00,-1.656808940947048558e+00,4.729391875759581865e+00
-6.319642669262170998e+00,-1.197521924346631961e+00,7.330179513780545442e+00
-5.038207017777464714e+00,7.950378875002483969e-02,7.471766615064289851e+00
-4.228038457782696824e+00,-1.725645894518292200e+00,2.189713132466097889e+00
-5.487683453692221214e+00,1.602298899657590425e-01,4.513330659239147558e+00
-3.202777333253966408e+00,3.585417533673700974e-01,6.619487265620356276e+00
-1.622605653460460706e+00,-4.511475387016533389e+00,2.921426406428849099e+00
-8.311732221804609466e+00,-4.929921228742684569e+00,8.277805252717692852e+00
-2.004574366935210072e+00,-5.416866869836460374e+00,4.392104639116459097e+00
-2.649877579703152186e+00,-4.985888230103340923e+00,2.479778456613648263e+00
-6.298564728387186840e+00,-1.627963877911190238e+00,1.660129016426855619e+00
-6.255040445617758849e+00,-1.194948008623253344e+00,8.186570794799518325e+00
-5.987429244664374650e+00,-5.505396490611056848e+00,7.709339973555061398e+00
-3.010364406925183811e+00,-1.889943643543232632e+00,6.843264030114911911e+00
-2.603209591402193546e+00,-5.739776163175967838e+00,6.593868672044982837e+00
-8.250522316081696061e+00,-5.254396282155770592e+00,7.936705578565902641e+00
-5.073466803115322499e+00,6.218812560027320302e-01,2.763575204729951551e+00
-6.901987799340809637e+00,-2.379021225435058451e+00,6.518254225676233027e+00
-6.282151051963350774e+00,-1.121692989906732718e+00,7.379603442628042131e+00
2.416665412889353604e-01,-5.852953372916793739e+00,5.194902140066010254e+00
-3.937638442082357582e+00,2.483987135137479374e+00,4.811623194605372689e+00
-3.863654512590125378e+00,3.372490414349180288e+00,5.781856595117243813e+00
-5.059905529028088544e+00,-1.089981265478277672e+00,7.642159376017770178e+00
-5.622287176597004610e+00,1.529143282764932887e-01,7.526761300865967286e+00
-5.421122357122974300e+00,3.724510849330385787e-01,5.535684469484494663e+00
-7.268421334406808931e+00,-4.361360642298357959e+00,2.326098412051624376e+00
-9.872492661466226727e-01,-3.244747819933099464e+00,4.193570106988079971e+00
-1.733017883006767457e-01,-3.131987216004258556e+00,5.755916437065823565e+00
-6.301194527494170750e+00,-1.597227957428324352e+00,2.090917555411011097e+00
-2.800674479862372834e+00,-1.048004947257370034e+00,3.829147603996745808e+00
-7.443927167668112688e+00,-3.611108516351750453e+00,4.166001684200397293e+00
-1.039086019712490927e+00,-5.308425548474597910e+00,6.439045383846644377e+00
-6.401346681087457746e+00,-1.530721027220215635e+00,5.199654770919129199e+00
-1.956935765436337959e+00,1.057020231240491936e+00,5.756164638534576383e+00
-1.879740039610403146e+00,-3.449400082917655208e+00,6.556270096795988600e+00
-4.546127740165428754e+00,1.992458732588094250e+00,4.885901142394414975e+00
-3.598119851397974411e+00,-4.706961316768654591e+00,1.619180795065407352e+00
-6.231790950689218178e+00,-5.651204228764455273e+00,8.788867952555166951e+00
-3.117553595423740997e+00,-5.672290110128968443e+00,7.410760887182240353e+00
-5.149962702748130283e+00,-1.484835648566428246e+00,1.512132796591041162e+00
-4.639016566182801782e+00,1.822261344839156472e+00,4.976338717630419239e+00
-5.270606731923207278e+00,-7.480033140813573400e-01,1.819858992231161876e+00
-7.311788887460796360e+00,-5.193813995188491184e+00,6.936368327193930483e+00
-2.785698986255898402e-01,-3.445307990293009048e+00,4.705740115092588383e+00
-4.663721403772262519e+00,1.911111671327432981e+00,6.615728063949361193e+00
-3.774532908802978870e+00,1.332637381212458338e+00,6.739121617540236642e+00
-5.619228727933249345e+00,-3.245701818267671346e+00,1.087315003085806697e-01
-4.919727432216425278e+00,1.183395242488809229e+00,3.749788412329820630e+00
-6.312385290460343690e+00,-3.359201670148363572e+00,8.509522977192160553e+00
-5.088046902417288742e+00,-4.939399467885720263e+00,3.956602074399217184e+00
-3.870233575643397206e+00,8.093312647959993722e-01,6.853499540029543979e+00
-4.808660318454033522e+00,-2.471316540450044563e+00,1.258670278371708307e+00
-1.613910245000744759e+00,-4.618777238256186024e+00,6.599143854862537850e+00
-4.837112339650289528e+00,-4.579322187294877722e+00,8.023046003632421375e+00
-6.158126258923730667e+00,-8.546441236473865111e-01,7.738238643102536507e+00
-6.788195109692130913e+00,-2.722126882280772708e+00,8.632940946444540131e+00
-2.351415603490380202e-01,-5.366641535500868976e+00,6.090539957555586525e+00
-7.401402486437859807e+00,-3.701405246093156354e+00,2.098586256962647223e+00
-8.032845139685212743e+00,-4.357547725495353852e+00,8.745522382350179313e+00
-6.263800262633378857e+00,-1.629504122697621238e+00,8.405343848331052747e-01
-6.734803085280057999e+00,-5.370759551599287640e+00,8.973375152318876502e+00
-1.160835897752031665e+00,-9.456516467953107741e-01,5.893279264257717642e+00
-6.061912533889742605e+00,-4.789131629825744696e+00,3.821985597208648500e+00
-4.734266281167302637e+00,-5.029410608048663356e+00,4.200370249467926698e+00
-5.234943488970998260e+00,-5.496988317788647826e+00,7.128368253468835292e+00
-5.930196815558041123e+00,-4.870790750732080454e+00,4.177607566965320984e+00
-3.241992565113546831e+00,-5.688764145763614444e+00,6.767163557883541181e+00
-6.065582922283141443e+00,-1.053325613244213255e+00,3.212873829029029515e+00
-7.670749229277470604e+00,-4.091502746168688809e+00,3.606427392427529632e+00
-5.689086938609468014e+00,-5.205280542014892653e+00,5.846354034798992849e+00
-3.351905790919473382e+00,-5.294864003743030567e-01,3.634504349140802670e+00
-7.974482101184179328e+00,-4.467424533076218118e+00,6.077330895509609476e+00
-3.049631307894056675e+00,-2.025688570667735444e+00,6.879337927400927200e+00
-8.937840733230623114e-01,-3.098262546049146415e+00,4.358310002305071151e+00
-7.552426778487783210e+00,-3.549592276285818748e+00,7.406971791686707718e+00
-3.940198394628947831e+00,-2.047481060576334055e+00,2.262645638101481449e+00
-4.683875777992265732e+00,-5.387718799338027331e+00,8.066224682547927571e+00
-8.254809050658508340e+00,-5.257543983586458580e+00,7.957067721924541814e+00
-2.919790063090662802e+00,1.925187931814045461e+00,6.278628001066612896e+00
-1.025553696460072217e+00,-2.769001555817331539e+00,6.083946689498349158e+00
-1.153505543609951722e+00,-5.875723888761958058e+00,6.567771832874127469e+00
-5.402635282650384951e+00,-2.335833351692195414e+00,8.110684604148012955e-01
-3.446527006728633324e+00,1.156083133679732144e+00,6.617938827434969973e+00
-2.317332985660535805e+00,-4.850372653775240295e+00,2.118379504201620467e+00
-2.894559805599566715e+00,-1.848588672238825614e+00,3.296428846501170629e+00
-2.697991532836667261e+00,-2.302286578265892114e+00,3.214773492776117791e+00
-3.832845014809867834e+00,-6.602228615905054998e-02,3.470900951782844412e+00
-3.791488263571809458e+00,-1.783709451406710667e+00,7.175048557741281918e+00
-6.789136728717785729e+00,-2.533230553761800952e+00,2.060594300809977408e+00
9.715876939391485667e-01,-4.948819098067231970e+00,5.497978375852581756e+00
-4.342964825955223596e+00,-5.693783036905922579e+00,7.577125157430278257e+00
-3.151712206678644268e+00,-5.371075502303299665e+00,4.955356557538174833e+00
-2.516930087330812693e+00,9.246198973125143716e-01,6.237529446617254614e+00
-6.108101062456746888e+00,-1.134107910206843206e+00,3.219611346679512653e+00
-6.651467723998893966e+00,-1.929385339707201164e+00,6.161315712076136819e+00
-4.843102178478742026e+00,1.497173637123905277e+00,5.763429148577405847e+00
-8.243105372070971271e+00,-4.846213420955378659e+00,7.704706099347231607e+00
-6.075223253152033820e+00,-1.072843488552328362e+00,3.199927357146220341e+00
-3.256861778706772625e+00,1.094937852898891784e+00,4.631249561624860789e+00
-5.480627549215850713e+00,3.917874440024534666e-01,7.139697119860282548e+00
-2.229394336552848355e+00,-5.630069420903047295e+00,5.724721678008164005e+00
-4.553625034344618072e+00,1.953815908947058810e+00,4.593228156674489249e+00
-7.032143982216987332e+00,-4.707947375222733655e+00,4.064825997932493884e+00
-7.323724537239510113e+00,-3.021961816946757917e+00,8.492150287878068582e+00
-4.209236818884210862e+00,-2.381190298848645082e+00,1.837870657066316582e+00
-7.344033991969111774e+00,-3.643179826013326128e+00,1.477984800565007806e+00
-7.183006120030128727e+00,-3.314976796067704345e+00,1.720553493376439036e+00
-2.933191242685282862e+00,-5.616285103362251618e+00,6.149010781133654291e+00
-5.734777095721733886e+00,-2.237298851099175090e-01,5.582340039355718098e+00
-3.897024461626124481e+00,3.317815859953279767e-01,6.931029287069191192e+00
-5.168981452019489886e+00,-5.274876451256834464e+00,5.859624305886525164e+00
-5.007435414668438334e+00,2.784112518035286588e-01,7.430776917065300857e+00
-2.771265655169712794e+00,6.740641407542644625e-01,4.822895371548072241e+00
-3.073695068738027558e+00,-2.469675758237238894e-01,6.645485977029975011e+00
-3.299584257467040427e+00,-2.026760821893486497e+00,2.839159634492234296e+00
-7.021876513710425094e+00,-4.460298464797320506e+00,2.695175488210217907e+00
-1.378854704813808452e+00,-5.508522810087288946e+00,4.451680974742210140e+00
-6.741546844953349549e+00,-2.059682005906110724e+00,6.667588288145973152e+00
-8.172508002433644947e+00,-5.157280643314851254e+00,9.581576898089396721e+00
-7.059037465083030760e+00,-2.554195072498881114e+00,8.027149081551227638e+00
-4.929352637370949530e+00,-4.341604375183568898e+00,8.031270515651380393e+00
-5.465430594380987550e+00,-4.538237291647133631e+00,8.296025179261299343e+00
-8.329603402647979493e+00,-5.526270935202738599e+00,9.701966270416104265e+00
-7.094938222454007182e+00,-2.571467569076669069e+00,8.646339857119722083e+00
-3.342940302199004510e+00,-1.547496531409326526e+00,6.943667879683522948e+00
-4.842482489772804044e+00,-2.272182786671989252e+00,1.340761895221252331e+00
-2.015487765594403236e+00,-1.270304302877675040e+00,6.316904277488744057e+00
-7.273982866853594409e+00,-3.276728231723666340e+00,4.277518569578222518e+00
-7.173909959510400114e+00,-4.760805490994460598e+00,4.456345592181611082e+00
-6.706924525295861805e+00,-2.727528263722145851e+00,-5.591395229295952340e-01
-5.800917739736082268e+00,-6.602968318256813296e-01,1.848210525180912445e+00
-6.782725539570225060e+00,-2.065381836563330520e+00,7.547778055841273925e+00
-2.506622953153377242e+00,-5.436886472335388909e+00,4.858991719449773150e+00
-3.092006944304819704e+00,-5.105873934732601427e+00,3.454015660708596336e+00
-2.381853544559572988e+00,-4.857778893501164319e+00,6.972543480703298435e+00
1.182606736504315581e+00,-5.060363942700301543e+00,5.086475847476361167e+00
-6.739531663961392027e+00,-2.051390250946649285e+00,6.721022838192485693e+00
-2.093234492342782360e+00,-5.355354292308585507e+00,4.116716533576296300e+00
-5.246604450613481241e+00,-5.362014229258911691e+00,8.312232569318776854e+00
-3.543656412111659382e+00,-3.213047390835747752e+00,1.957243880311472672e+00
-3.261913307808872009e+00,-5.213370475977778362e+00,4.166106153652738620e+00
-7.980275008733502595e+00,-4.477353043173200042e+00,6.091229219866324485e+00
-1.381868991345286179e+00,-2.063840311573754416e-02,5.657584025846282394e+00
-6.904567917045477010e+00,-3.691380386759248289e+00,8.817790857271434746e+00
-7.462868864267724334e+00,-3.853814409259291196e+00,1.679233922400576340e+00
-2.743180070925823610e+00,4.239078943028571911e-01,4.707070414677365200e+00
-1.337345468051074071e-01,-5.244352817372420539e+00,6.028759924873445364e+00
-5.809664003398320453e+00,-4.493276587282584167e+00,2.015193832519591499e+00
-3.365796536944628325e+00,-2.324587328206503933e+00,2.613395369573567439e+00
-5.481046027745259508e+00,-5.104428372610527731e-01,1.767812495636356784e+00
-5.687993518340320520e+00,-4.427601199878949956e+00,1.567444347141642602e+00
-6.372711993593345170e+00,-1.479821520637417231e+00,5.152902721571190447e+00
-7.510429189131878402e+00,-3.560908005913115293e+00,6.302972516712237017e+00
-7.151300581617679342e+00,-4.174662386299334393e+00,1.215816707525692486e+00
-5.919826067024287930e+00,-5.656159504152428186e-01,5.728463372535031795e+00
-1.479576743310816678e+00,-4.857220392449157487e+00,2.853232456860903099e+00
-2.103566512186368698e+00,-5.157951951211902752e+00,6.890402511575211442e+00
-2.522976350095000875e+00,-4.093912344317109486e+00,2.362187608977788233e+00
-3.571718982130030362e+00,-5.148425642981703909e+00,7.540143816824955714e+00
-7.707096578123715958e+00,-3.795200149429014846e+00,8.012701160114213295e+00
-2.480269092891897120e+00,1.454099348625873311e+00,5.517870857645597482e+00
-7.302679056473974306e+00,-5.431970563588014222e+00,8.240030488237504613e+00
-8.508625022930646153e+00,-5.394985785287809144e+00,9.763305313667716590e+00
-8.423755199120861903e+00,-5.421088445905414055e+00,9.729258231716153560e+00
-5.829713500450668384e+00,-2.500401954047518416e+00,3.419983796549961319e-01
-4.371285715158408358e+00,-2.007501217499777280e+00,1.904998297324221657e+00
-4.270090527125441682e+00,-4.690123557115431829e+00,2.004056698343703591e+00
-2.415264188275632495e+00,-4.961882544468134704e+00,2.181003023274269648e+00
-6.854795694971869580e+00,-2.420581838381273609e+00,4.930284379648687931e+00
-2.184288878761700303e+00,-2.160029995184851170e-01,6.246822859019792951e+00
-6.924736136919996454e+00,-2.973438549854483970e+00,-1.169189811405172003e-01
-2.664792543810425851e+00,2.322421952449993832e+00,6.110941320888747086e+00
-3.681756429031007638e+00,-4.865991373941909615e+00,2.553461630805211158e+00
-7.351807122553930540e+00,-3.209055464851321648e+00,6.885817637287134474e+00
