4.678954542647419945e-01,-5.107687732813636083e-01,1.674290063953874919e+00
5.697020332725740710e-01,1.317507521703640938e+00,6.781562036545080163e-01
1.847293525745743681e+00,2.682196207444722535e-01,1.397744235079298791e+00
5.110794982713954271e-01,1.566585994352341027e+00,1.250741012738642466e+00
7.809688785575966685e-01,-5.932028967528364394e-01,1.377107031939843962e+00
1.219105220598704298e+00,-2.754142217185113206e-01,7.511812471692272952e-01
2.083318228653125714e-01,1.846401799424502777e+00,1.018058675829730753e+00
5.418530195505752989e-01,-7.625796037506301639e-01,1.716742304062981672e+00
3.457559827740251945e-01,4.141960482549411071e-01,1.357326004532491304e+00
1.610555776280961915e+00,1.172202541119098523e-01,1.392408150346803319e-01
2.280232916542387134e+00,5.083589154858562109e-01,6.976768205310108772e-01
1.598467444700627516e+00,1.373940262633842613e-01,1.833417741465417361e+00
1.753415124886257725e+00,1.939414117567676565e-01,1.446656963109201000e+00
5.738657896782349832e-01,1.598521203961452031e+00,7.902237893613353048e-01
1.276546700177982219e+00,-2.918286241682134796e-01,1.192570902765256902e+00
6.654447808883984239e-01,-5.471846981328343240e-01,1.933861294203009118e+00
1.541270903280166360e+00,-8.339576323011982373e-02,1.049910836637667710e+00
1.594458321613713148e+00,1.306247538549875298e+00,1.443088638539761881e+00
1.906076737370145935e+00,4.675812962496308511e-01,2.075324698311152183e+00
1.804490607717801121e+00,6.559135388975957381e-01,3.283310128453338361e-01
3.770431125105327963e-01,1.249506577233235882e+00,1.274007197972462757e+00
1.522323080198838108e+00,-1.548720096234547546e-02,1.443886337677135145e+00
3.546155051250421408e-01,1.598513916722736017e+00,7.735316250209141042e-01
1.032998234749869404e+00,1.603089445191508533e+00,1.371879890817951475e+00
1.783997189534096917e+00,1.565495097793543899e-01,1.145362304138996201e+00
1.066863685137505291e+00,9.023789064068500343e-01,3.440429008354299323e-01
3.520174685108998780e-01,1.229163321791868491e+00,1.267223095295122448e+00
1.364059870216692838e+00,9.260302358458006866e-01,1.863983878535786509e+00
2.682780369105309815e-01,6.929370534626830835e-01,1.378591949636850611e+00
2.782651714551498401e-01,1.497009421277371022e+00,1.153355284452052487e+00
1.511496429676916664e+00,1.000734431432937166e+00,6.931236374124312150e-01
1.656386843576146184e+00,1.298333956779611775e-01,1.555879821713019417e+00
8.393986590797087866e-01,1.173472800311111008e+00,1.528754293378587592e+00
2.027555504539607867e+00,7.998551700242279017e-01,2.234441238211708924e+00
2.357756031846704570e+00,8.368241681917354402e-01,1.894970611250368586e+00
2.450740126038644107e+00,1.131952680844599657e+00,2.140954325073664677e+00
1.205731428800566052e+00,-7.076370551260482977e-02,2.069665328804547233e+00
1.991761950568383899e+00,1.714771140588461640e-01,3.446202968472191763e-01
7.077721307968715125e-01,1.618019180560712256e+00,9.983113959717987429e-01
9.087709872115569132e-01,6.284552689130094016e-01,1.719791043154535570e+00
6.322630217758017368e-01,-6.429442721344507117e-01,1.944565080384001554e+00
1.858296004868675855e+00,1.270551433634190541e+00,1.696227881611020338e+00
2.295208489152837483e+00,5.663251574955707746e-01,7.500560855358155976e-01
2.511314405021593643e+00,1.192599644386094671e+00,2.365725107739931943e+00
1.207005371431218110e+00,3.164135542406132373e-02,6.153263051200025258e-01
1.054912182570451940e+00,6.281063569209803799e-01,1.793528888871257276e+00
1.332492312427212333e+00,-2.432823338322291085e-01,1.183257927783652574e+00
7.182888924885110216e-01,3.365116631987395968e-01,9.938070416411685093e-01
1.738797750259963637e+00,7.781049030268973876e-01,5.051058363240772398e-01
1.389190876887550052e+00,-1.026020545983042792e-01,1.597677672289781414e+00
1.583926007991203866e+00,1.050064988630179164e+00,1.939249597400597214e+00
5.981091847358225300e-01,-1.226720078872314407e-01,1.778360807426270007e+00
2.168385658139251770e+00,1.100602047258146809e+00,1.722844076710021488e+00
4.179832406571826753e-01,-2.118604971005937643e-01,1.583106335529922415e+00
1.987529429904743461e+00,6.746585471302508907e-02,-1.195746239173766934e-01
1.286321948666994786e+00,1.106796173369612335e+00,6.370781887002769928e-01
7.310987054366405724e-01,-6.301514710139528574e-01,1.908794412039608979e+00
2.286949240426138452e+00,5.799756363246115765e-01,1.001378182526563965e+00
1.315640749018723410e+00,1.395176643876324452e+00,1.283953781493890389e+00
3.948303927441204619e-01,1.690162224303870087e+00,7.611373403809859051e-01
1.107149441278645785e+00,-1.599398366653227432e-01,8.157568657321427885e-01
1.250239108753473882e+00,2.015973942393291807e-01,4.863587202252051545e-01
1.742767965854038925e+00,1.173000105354432776e+00,1.984081239580469669e+00
9.429926008228327605e-01,1.386541427760979772e+00,8.014322265161479830e-01
2.324475694187307373e-01,1.128980800669624918e+00,1.132763992192276525e+00
1.344138257654831525e+00,1.447917331693141962e+00,1.431080373663188299e+00
1.576057953009783352e+00,1.338007727027156202e-01,1.910597105080598768e+00
6.690790298556694715e-01,1.145339736708647527e+00,6.546164390391377985e-01
2.197440583546929282e+00,3.211012608269340207e-01,1.767036683901995475e-01
1.158381617999634239e+00,5.316342133487543808e-01,1.873292823415890762e+00
9.099963055710739157e-01,9.458984795200118256e-01,4.918740735033395595e-01
1.485069518464819271e+00,6.507437437195276453e-02,1.973132870041925502e+00
1.887464178292680650e+00,7.506151491448145308e-01,6.321331878951953476e-01
4.197847959840875776e-01,-3.984761336480884819e-01,1.767490708804535959e+00
2.116146327006131145e+00,7.168296739117514527e-01,2.302857276648463625e+00
5.809969694151828623e-01,2.140192785025007982e-01,1.673317138665862291e+00
5.168766337038293024e-01,-1.832824613204437625e-01,1.754786711289944678e+00
1.634738439235842611e+00,1.187929415482757767e+00,1.242852225419616596e+00
1.821359698875959054e+00,2.844296650749809086e-01,-1.688539982823425711e-01
1.133231175606064900e+00,6.496959080802103825e-01,3.950919118459492729e-01
1.191595032051204983e+00,1.141382018868992709e+00,1.715409831581783395e+00
2.310243482413269156e+00,1.153409748361184706e+00,2.275632221332940741e+00
3.134183096771866461e-01,3.798598529279583746e-01,1.490995887948579846e+00
1.407300612476763968e+00,-1.943347868987580773e-01,5.091967251655667992e-01
1.946811501356467078e+00,8.940141043544405086e-01,1.009568505949817840e+00
5.005004351423815168e-01,1.700443860605340474e+00,9.145419869645919908e-01
1.527937474220049552e+00,3.437293315400138938e-02,1.651396448090095559e+00
2.473493786449213694e+00,9.091765554274936489e-01,1.745610348712426374e+00
1.494907487777222821e+00,1.234828895462768417e+00,1.167912327327129018e+00
1.071788062440696576e+00,-3.400487977683275820e-01,1.826471554312460777e+00
2.321851660926468774e+00,7.150282722389000867e-01,1.480983259973996935e+00
1.364662230296523227e+00,5.742710726423500001e-01,1.824321836429887433e-01
2.129787524315317759e-01,1.421091393221641130e+00,1.012091351033198139e+00
1.953798278014953427e+00,2.704026429810500454e-01,9.619259326655996700e-01
6.416937175413010008e-01,1.718475729019467879e+00,1.128604688165389947e+00
9.607555592805894218e-01,4.694066885142467171e-01,1.791533222643395762e+00
7.972633995275838492e-01,9.020195051649754214e-01,6.345540335192496606e-01
9.039270140498685269e-01,-4.523780108459926619e-01,2.008845817081403862e+00
1.988987981879699607e+00,1.318200131852739876e+00,2.066564926194240037e+00
3.809164080672073349e-01,1.164466094823882303e+00,9.556693713321697814e-01
1.268928624354983992e+00,1.079294294198246851e+00,1.772157427175399924e+00
2.376191341533329116e+00,8.115084820469423699e-01,1.700486981860304558e+00
1.306726776327372441e+00,1.485021531391624627e+00,1.675011697770906860e+00
1.344484495594730822e+00,-9.659680375238964556e-02,1.812686438548671397e+00
6.026622530130953947e-01,1.124880697612755887e+00,7.360619323687200843e-01
2.614234057904994413e-01,1.317068601277568307e+00,1.196400195229521790e+00
2.231584088493847595e+00,5.404257482441133797e-01,1.049943902319137479e+00
1.314068574070583972e+00,1.326271358405993750e+00,1.724173727242388265e+00
2.946284066479788466e-01,1.547695139607180081e+00,8.627737596224501759e-01
1.723452258484247768e+00,9.024092196753015216e-01,7.490754565318576974e-01
1.026819251062774940e+00,-4.629021500729409988e-01,1.445537281547536024e+00
2.167157676121839405e+00,1.283375914657000960e+00,2.108150674365601773e+00
1.948940469025949529e+00,5.210826766129149634e-01,2.229205328678201259e-01
1.090862834709775520e+00,6.134405139412448804e-01,4.582986142235077054e-01
2.945643791935006472e-01,1.762369450983313879e+00,7.890506971231264766e-01
1.806684058678374116e+00,1.284796709501720979e-01,9.203166515807081893e-01
2.241231439314922191e+00,1.107762572618866015e+00,1.828750480084068819e+00
4.157566901098601608e-01,-3.151991460120891486e-01,1.741612283448875642e+00
9.586250836805277897e-01,8.744351515054293866e-01,1.674468288474065369e+00
2.046774472852957327e+00,9.344191278654240262e-01,1.219618691513782105e+00
2.208938420576604500e+00,9.530951034192394200e-01,1.461169899677916773e+00
1.092344376602653933e+00,1.331213227300407143e+00,8.703939937263736049e-01
8.081375175689572421e-01,-5.500138817986240936e-01,1.957536974144028719e+00
1.141638801245246970e+00,1.501827003291144491e+00,1.587014105668014929e+00
1.353484495392427434e+00,1.099058929582625188e+00,7.043736505972678641e-01
1.271055006605565252e+00,-2.214462319199431428e-01,1.541667923177740818e+00
7.780653353017139562e-01,-6.382505633609816265e-01,1.674620621247610242e+00
1.595226514498802262e+00,1.647458863808499985e-02,1.286730226521649811e+00
1.688330185122983940e+00,2.208393805376847874e-01,1.843792714307366021e+00
1.866262372721443130e+00,7.748151606940439917e-01,2.160339443799218273e+00
2.301487540437324064e+00,1.141473003723598723e+00,2.274638685852278019e+00
2.219264975434544485e-01,1.070710687640255010e+00,1.247050011071380693e+00
1.245949965415792837e+00,1.348958602560628384e+00,1.099313599444500245e+00
1.705070512338494604e-01,1.111013327135527584e+00,1.209598867488471674e+00
4.240644566544418126e-01,-6.806818254124331613e-01,1.803880004586100316e+00
7.563460037127568425e-01,8.925504830410990742e-01,6.832099828515885154e-01
4.482789999901280464e-01,5.397031002472667954e-02,1.652277512837928120e+00
1.006462266296078933e+00,2.443551645767214064e-01,7.281534693309533735e-01
1.846525127057116800e+00,7.347472350322147294e-01,5.475472363992988090e-01
1.249704157988750897e+00,7.430730768036730716e-01,1.858757076710850997e+00
1.342020312568198648e+00,5.874693715573027220e-01,2.004160210583464941e-01
2.391772500197483442e+00,1.106142430490564266e+00,2.330249571297784428e+00
1.086164356027059075e+00,-3.283707274492922434e-01,1.820386464977086005e+00
9.488560889974722024e-01,1.850155368423134494e-01,1.866980792025707547e+00
1.748156635373674161e+00,5.273602954335340209e-01,-1.392968502417335670e-02
1.971612560356463817e+00,1.235436336651031253e+00,2.081511531070004750e+00
5.723958794323555921e-01,1.586603543977813224e+00,1.275904641514963078e+00
1.364344464090192055e+00,4.352117452175975898e-01,2.004687121672267924e+00
6.419876289243328094e-01,-7.433959129352730733e-01,1.757203835317640683e+00
1.310182724919017216e+00,4.734953178711552857e-01,1.966432403189750433e+00
7.861968708532670602e-01,-2.847807373311900259e-01,1.919559263541861238e+00
2.912413842997072511e-01,1.849295136561713626e+00,9.688869944626803399e-01
1.897618830441298199e+00,4.666674492119744083e-02,1.605102458892688766e-01
5.272415401631103116e-01,1.285456807743464491e+00,7.394233760377151299e-01
1.331341302356229050e+00,3.242509544164374202e-01,2.019834200858559914e+00
1.247733027093197222e+00,1.455138078054740047e+00,1.326261201023294589e+00
1.842873288764578898e+00,6.715053024995861763e-01,2.178139821922242092e+00
1.441605403909267114e-01,1.657344033451044973e+00,9.716483323766444968e-01
1.429353442625951320e+00,-1.598133658617134911e-01,1.164440214966796727e+00
2.117443932101736426e+00,8.652343946774772032e-01,2.261011201804983273e+00
2.421323734417991869e+00,1.214814362976873285e+00,2.279682086120426110e+00
4.172529541156564936e-01,9.701251602405034369e-01,1.010770220044691969e+00
1.707819536900182955e+00,1.182184004672047761e+00,1.963841282714713588e+00
1.948994132575059712e+00,7.632378149674629020e-01,7.355028126267307842e-01
3.275222011574220327e-01,9.335093048384214276e-01,1.125157043455494055e+00
1.776621668019037426e+00,-5.455569370745000368e-02,4.369271659978853778e-02
1.313977573688372980e+00,-2.406170048713958676e-01,1.273128003048306756e+00
1.680284124306704818e+00,1.409786438389140972e+00,1.769148033621265270e+00
1.579215163983766823e+00,3.007456059206572441e-01,2.151464815346669113e+00
7.915381168858026673e-01,-6.771519200944224881e-01,1.437968361045429910e+00
2.201345020472723402e+00,4.623730955392282294e-01,8.149120568143544130e-01
1.964285900622299241e+00,3.612021429312874954e-01,1.338716712900400951e+00
6.557885544993536930e-01,1.722316123212449812e-01,1.140770957792840878e+00
2.165674934927233952e+00,1.108441767132662736e+00,1.736059631085620669e+00
6.868568450393442992e-01,1.479364091776918633e+00,1.364290536015604127e+00
1.014821357933901602e+00,1.519550938258429906e-01,7.639544828443584068e-01
1.589665684659262723e+00,1.312929908941120827e+00,1.451261041410784491e+00
1.335998129790329836e+00,8.971520338150282825e-01,2.552581187755841308e-01
3.869400684384416422e-01,-3.981075156894139377e-01,1.706844894723692940e+00
1.209264612289130403e-01,1.872980828645170570e+00,8.921112656840093358e-01
2.157580999729510118e+00,5.404831479567742125e-01,1.360059064499576476e+00
1.986682083471111415e+00,3.696826600645363725e-01,1.284237279261384090e+00
6.751414611479660266e-01,-4.345461740524134142e-01,1.414144617574403462e+00
6.833205827441467539e-01,9.957444206633466743e-01,7.118154325089012247e-01
1.828195673432199575e+00,1.995236907545716032e-01,1.159416973494640679e+00
1.257939743200786387e+00,8.279331261228799477e-01,1.743673894756608000e-01
2.394913004141504764e+00,7.781632680063431673e-01,1.467601109227398171e+00
9.577779900304393967e-01,5.244771151896185923e-01,1.774261895203069983e+00
1.362131334403902994e+00,2.447133848997069538e-01,2.058126591601089128e+00
8.109905686421946536e-01,-3.913035843026475002e-01,1.246879020864702037e+00
1.815935393229839212e+00,3.370090577266632859e-01,1.847762778527938909e+00
9.198857743659452080e-01,4.512615588445215153e-01,1.776136045926331342e+00
1.647111999591096776e+00,1.290644187140071120e+00,1.475660516974933723e+00
5.650978137151150271e-01,8.019514506631884032e-01,9.330979855227815589e-01
5.219661042470550294e-01,-8.356733654050103599e-01,1.832181143685498670e+00
1.575973618432839674e+00,8.784878235223471110e-01,5.147174108780371293e-01
7.142127585473727613e-01,5.237643499123657564e-01,9.074013962375425679e-01
3.178559870176300151e-01,1.325457029442343559e+00,9.455186782075490903e-01
1.781537265711799822e+00,-3.677053176077135777e-02,2.599503066247590977e-01
4.234928898926508811e-01,1.739590226793457761e+00,1.157063008194396003e+00
2.357898745954490227e+00,8.602736187125482603e-01,1.450290378913115852e+00
6.921058261348325136e-01,-6.632115403092103678e-01,1.918879148028643344e+00
2.315447721394372049e+00,7.392195412093554019e-01,1.141196868667958553e+00
1.503531850962902094e+00,4.632266409018229170e-01,2.066798284685289921e+00
1.013276635664799530e+00,1.622523183217328135e+00,1.388441739536209418e+00
7.775291432467902331e-01,9.474515259728613081e-01,1.562306978529884427e+00
2.856734696204648594e-01,6.161980744418412703e-01,1.324082849179051280e+00
1.341361238998053595e+00,-2.898918901880105925e-01,9.301674246633515608e-01
1.889154041094966319e+00,2.279220947711660672e-01,1.035764309220553292e+00
9.473554863146460558e-01,7.818443613590875252e-01,1.695305748168761451e+00
1.480435003066975952e+00,1.070930695567472002e+00,1.881126848941809593e+00
2.011088837189494605e+00,2.418876949648598174e-01,5.899331059913598407e-01
8.014599206141709287e-01,1.605428281693346282e-01,9.895628015680195677e-01
1.649847204350540331e+00,-7.601100279507932815e-03,9.464845432557155158e-01
3.376718461740251809e-01,-7.701479030980777629e-02,1.604210820318677122e+00
1.858059080027332222e+00,3.514698116863458899e-01,-2.408826534983614653e-01
1.859288999010864751e+00,1.975638987019927989e-02,1.963123470840814067e-01
6.275604439106153842e-01,3.413536546601766974e-01,1.660313815558372985e+00
1.857901814730937406e+00,1.397408149871038896e+00,1.964225935445843563e+00
1.205271420937605864e+00,-1.679313700672641907e-01,7.139626781656163157e-01
8.051163977286970308e-01,-6.582794580537764118e-01,1.468558378114262819e+00
1.601081474642743974e+00,9.784186482612243774e-01,1.968411897388236298e+00
1.936865046158919412e+00,6.024133216487158604e-01,3.800112827181725828e-01
5.052683164089839529e-01,-2.658900832943388859e-01,1.515305567647885709e+00
1.599660308542982134e+00,8.938999993248271103e-01,5.768457994784801368e-01
1.878459210822512881e+00,6.635284943080980158e-01,4.365980186691651443e-01
2.132182262618568469e+00,1.647009676320796423e-01,-2.747122694693287515e-01
5.690022641790185576e-01,-1.809949172743109402e-01,1.405505392160140588e+00
2.135295027741423102e+00,1.227042152698671895e+00,1.949227135168791758e+00
6.754928399077725354e-01,4.932260337068845035e-01,1.640973112046756555e+00
1.675501643999360413e+00,8.521903602708078562e-01,5.830515592239449152e-01
8.360556736992427185e-01,5.555909410974757545e-01,7.607546949893685406e-01
8.211557102841731126e-01,5.335868411569149039e-01,7.874700776773637667e-01
1.174939047253652502e+00,3.427066421389541317e-01,4.990293471990532859e-01
1.411584637787340668e+00,8.981885558722417784e-01,3.516176184373212554e-01
1.175535474137148650e+00,-3.005592579849821200e-01,8.102945592662834651e-01
1.697835893640392779e+00,4.591292757728619722e-02,9.935040865433187873e-01
7.044081601197822451e-01,1.725109915648405379e-01,1.088276260023258502e+00
5.863628385426306044e-01,-5.134101639193553446e-01,1.884341024169420953e+00
1.489237151723372676e+00,-2.466931192322520394e-01,5.111677057527221901e-01
1.652256116527049512e+00,-1.205971057761715676e-01,4.128529853383454684e-01
1.388239183197534921e+00,-2.386153149765306847e-01,9.714708205618053372e-01
3.774512172260792719e-01,4.578416581570838306e-01,1.302029965069510409e+00
1.730851538971239778e+00,2.481021866632723005e-01,1.792073821248339138e+00
1.453506702424936403e+00,5.846587291331548641e-01,2.006815976475594177e+00
2.172535286012128863e-01,9.120920240938360513e-01,1.254291978979280575e+00
1.973575312535920778e+00,2.234007595496002863e-01,6.613456623722629990e-01
1.879849284277206989e+00,3.325086070482232703e-01,1.559304820995432550e+00
1.924332219944138833e+00,1.019042239351616752e+00,1.246182789717702466e+00
2.065104947168471927e+00,1.257800990949042852e+00,1.926884610851594015e+00
7.314423122919512243e-01,2.877454514208949155e-01,1.728010258624376183e+00
1.656426905109374292e+00,2.622546539620970382e-02,1.075664447161420734e+00
8.524010137181504687e-01,1.626020298769987216e+00,1.405706092709137156e+00
7.701848039107973554e-01,9.783739491234837160e-02,1.053648158693559100e+00
1.997167958127506804e+00,8.949419000867259166e-01,1.074266273021159179e+00
6.724754734504549969e-01,1.480831507339200215e+00,1.356623784841271441e+00
1.586571861228421643e+00,9.335649779981768370e-01,6.444901592940653900e-01
2.218057652571761018e+00,4.429140251757550106e-01,3.927448756390714002e-01
6.360468639414387226e-01,8.348186693574060069e-01,8.407551219158292399e-01
3.985901132749777864e-01,9.404699729335900260e-01,1.373365770354664450e+00
1.627445330131598533e+00,3.371994068235373843e-01,2.165327547040492018e+00
1.436687559879770593e+00,-1.512170710266617091e-01,1.173561733627479287e+00
1.416664242248296013e+00,8.763816082232045446e-01,3.117919221698784438e-01
5.937098207052986520e-01,1.114630554183632327e+00,1.421807249864314615e+00
1.820029776305554181e+00,7.185421036441369536e-01,4.802415452532674545e-01
1.131719737601164510e+00,4.317481201003393609e-01,5.023983791827221213e-01
5.908583139341432311e-01,1.061377314750741707e+00,1.435621007263810034e+00
1.294185397210347310e-01,1.889487286360479468e+00,9.659569338779351311e-01
3.540104041446098249e-01,7.080180946110208318e-01,1.417472065158159600e+00
1.080929500263515530e+00,1.410003623429674890e+00,1.582720016471607982e+00
2.153970734790379815e+00,5.926360213995719439e-01,1.616815579007450099e+00
1.914491145085509105e+00,1.336608894782213230e+00,2.023755434388550434e+00
1.828760067627453134e+00,9.390043578185276463e-01,9.577207155177646092e-01
2.184081061144143909e+00,5.181895442727262324e-01,5.097356080244485055e-01
1.760088130503600024e+00,6.294886715928733611e-01,2.170867896306335199e-01
5.913697841794994803e-01,-5.120537602697370350e-01,1.541941646342586791e+00
2.395347174466504026e+00,7.313567937908319605e-01,1.248914352889537893e+00
5.126614979691856977e-01,-3.024644440024932268e-01,1.786793932214661762e+00
1.893882722718051248e+00,1.520987592344498485e-01,6.646524262812303352e-01
2.420171461990173523e+00,8.066137764301172242e-01,1.493664552914392596e+00
4.196203771009440753e-01,1.104107095090003599e+00,1.337100396420640047e+00
1.553590958844546011e+00,2.300513499315484933e-01,1.458774670892787895e-01
1.359824300248970497e+00,1.155980174622538659e+00,1.795996942501899563e+00
1.470744381650289423e+00,-9.780357010953909247e-02,3.940669458996018948e-01
1.526126694905087344e+00,1.126627949837818887e+00,9.778005839148260492e-01
1.542810620927161036e+00,9.606845697751061897e-01,1.944128918280241258e+00
3.618210343716837252e-01,1.320599723114651014e-01,1.586349699147016290e+00
1.575252747259992203e+00,6.841963311228917988e-01,1.026061589954627429e-01
1.891799382527431517e+00,3.898693612253702478e-01,1.775040181523596106e+00
1.135207752213861276e+00,-3.399066555557080926e-01,1.561593377120906068e+00
1.730091378333775021e+00,8.922934513162810166e-01,2.058082072795136330e+00
1.882117860510460039e+00,7.458175073380005071e-02,3.547513162351547122e-01
2.323334191473881982e-01,1.592465644595401741e+00,1.102874493199067052e+00
1.998379748039306403e+00,5.787530895961094934e-01,2.203947498018781648e+00
1.041069670549865656e+00,3.386256736834580283e-01,1.869454926593386856e+00
2.436226312023774820e+00,1.072215819052394714e+00,2.362364899641726357e+00
1.134483097663290030e+00,-4.662427756134358559e-01,9.792731067963994507e-01
1.318604344288405450e+00,1.003712751433340822e+00,1.818833056178837282e+00
2.331542660961220648e+00,7.942271177100544977e-01,1.807360054407931127e+00
9.766176204760387281e-01,2.116333433157449317e-01,7.761598409829133516e-01
5.856515407823756902e-01,5.524326867029861754e-01,1.578748184379017871e+00
2.070166310045161495e+00,2.991655961723806434e-01,6.079633616358434134e-01
2.035261753258333250e+00,3.324797423920767270e-01,9.084626889823812501e-01
1.546813729483564659e+00,1.301515532994452773e+00,1.848539367905033037e+00
1.289000345481661203e+00,6.626615363995197461e-02,2.072380641636820453e+00
3.872845874403988975e-01,7.143448517415502685e-01,1.167066685975618689e+00
1.175475133141036244e+00,-3.425366651156812603e-01,1.380809140651511058e+00
3.695160968094987064e-01,-3.561486032672616653e-01,1.730039520920104490e+00
1.160178868996415202e+00,1.185396885687182600e+00,6.462855337655147858e-01
1.378442481813156650e+00,4.865491580847545738e-01,2.101267134652050617e-01
1.669860632134391398e+00,1.447589950291336525e+00,1.868707927185575768e+00
3.907468325661052622e-01,-2.520040424338967910e-01,1.710912549032544749e+00
2.347648825875644274e+00,8.446404837210217398e-01,1.404433873375054320e+00
6.962937433911620122e-01,7.191767594207415515e-01,8.319468755103036628e-01
1.540643097664225136e+00,1.583529123623100832e-01,2.172635949836825286e+00
1.174746782404647361e+00,4.813360315827853175e-01,4.320176215854600321e-01
1.555077982935120673e+00,8.901222933635566381e-01,5.133096838951043406e-01
3.408631081080895631e-01,-2.151602096199442815e-01,1.675225755837716379e+00
2.123953170703548832e+00,6.637902617413272699e-01,2.072178060182488402e+00
4.871739203174331179e-01,3.026727183615463002e-01,1.259106323683726103e+00
9.312006326698776260e-01,-3.681269651614153815e-02,9.455369257771677471e-01
2.230646061074660569e+00,1.097777405449165578e+00,1.794429846236612169e+00
9.913797241559391127e-01,-3.820186400928198833e-01,1.968680115227508409e+00
2.259107309479402304e+00,6.907690697198888286e-01,9.684637054368306908e-01
8.956172089746905485e-01,1.501173336773308442e+00,9.850275600379914120e-01
8.560742897246712557e-01,-1.132699758361756098e-01,1.905652253464536594e+00
3.702755506752944403e-01,1.706499981914716413e+00,7.651253647090816568e-01
7.452956334835058039e-01,1.280853725977425528e-01,1.780713905296321231e+00
6.487205671803706331e-01,-2.592434947863194172e-01,1.357596735575993030e+00
5.892911508263806164e-01,6.759731524711652673e-02,1.263118275903244658e+00
1.562855984657896213e+00,2.207362631506294970e-01,1.404165224451212612e-01
1.093758629513259251e-01,1.783001412095092331e+00,9.481796135543423265e-01
1.213147706071556531e+00,7.307298194505734701e-01,1.843871779824564072e+00
1.272632728394270885e+00,1.397631288423731633e+00,1.235569553561038036e+00
2.393211367830456737e+00,1.207516884706439475e+00,2.229214745367211314e+00
1.899515209647441694e+00,8.540253179945471729e-01,8.660114637333790055e-01
1.529831107328565531e+00,1.841486127603658707e-02,2.740833771748759085e-01
1.398394003425116328e+00,-2.308829446080799264e-01,9.647792917836801596e-01
1.290722565881244455e+00,-1.932228418380802781e-01,1.590088019522152507e+00
2.221755684058679847e+00,3.699547586999776816e-01,2.429353834804294510e-01
2.060935445248349929e+00,6.140356796021310126e-01,2.105503418435119567e+00
1.504892374581893844e+00,-1.627736716253134208e-01,8.344444500335731485e-01
1.004214624441211123e+00,1.297254784355548862e+00,1.576353606137295804e+00
2.059906261441946995e+00,6.029142940734295575e-01,2.058283762631945901e+00
1.071955163019218116e+00,-4.008066537565410647e-01,9.704499285875971548e-01
5.034391086465833665e-01,1.049611155556911424e+00,1.394941613554106397e+00
1.006252009181200835e+00,9.976534096584247502e-01,3.631197741547512181e-01
1.199149176726716615e+00,-3.965851418967675790e-01,1.031263134075832477e+00
1.308426465491484558e+00,1.323772417411845925e+00,1.123840923571100880e+00
4.107346169741770692e-01,-5.155184913959428572e-01,1.738150533997671277e+00
1.939264848006773123e+00,3.764687759067432693e-01,1.514214318321846608e+00
2.043879983085483243e+00,2.860925446392175164e-01,-1.561546171244805603e-01
1.552614415912717982e+00,-1.487311753724746832e-01,6.996966082609216153e-01
1.126421151471894921e+00,5.300055684776135978e-01,1.857654926884606317e+00
2.218021362493231230e+00,1.149214715016344091e+00,2.230364517832231108e+00
6.376132779488590252e-01,2.126361125515105754e-01,1.140752823417311435e+00
2.067906962541596894e+00,1.240826725565847388e+00,1.894449746236063659e+00
1.820568432181511875e+00,1.287753646484161907e+00,1.685634907013498163e+00
1.912631818465166278e+00,3.027512354387318916e-01,1.284169991544779954e+00
2.389076861275159225e-01,1.378122002970521898e+00,1.005003114677652132e+00
6.483593875899440473e-01,8.380798403586562362e-01,1.528542351915467945e+00
2.216638361818092928e+00,5.603777102380159691e-01,1.204964933174830000e+00
1.513463432862675484e+00,-3.744988861465461255e-02,1.379221539274984698e+00
1.072595731587195900e+00,7.899729622982065713e-01,1.756084203285603218e+00
2.181026859721434619e+00,6.854553228305209078e-01,1.933592791332070293e+00
7.017061378909582592e-01,1.640261412525790385e+00,1.037829517409353697e+00
6.956319298229094450e-01,1.458100175062350123e+00,6.447224623569507429e-01
5.033144440491420513e-01,1.091864816033100372e+00,1.382778259265064147e+00
2.514931910508396484e+00,1.023502403031212538e+00,2.101816956138890635e+00
1.456016847223124522e+00,6.393278048781935174e-01,1.992424747889345760e+00
1.225288229150135022e+00,-9.657137841365598385e-02,2.086910410931847704e+00
1.824764385682867474e+00,2.213600721440710239e-01,1.274958415199190176e+00
1.784424022491905459e+00,6.119315580597890075e-02,7.017596359323030608e-01
2.073055344734716421e+00,1.504767611495196333e-01,-9.305439460458991840e-02
5.944350027650044943e-01,1.400625838972853199e+00,1.340269768080240009e+00
1.832628444718154670e+00,1.254757488894020945e+00,1.630823719071857747e+00
1.402666370397840367e+00,-1.053370546481699477e-01,1.528583991857841884e+00
6.250463102124351744e-01,-6.128856168049215958e-01,1.932320557685649032e+00
8.698264556119346125e-01,2.412813034480024502e-02,1.873233865509455809e+00
1.385725174822510786e+00,1.144684677669762118e+00,8.411048917757739662e-01
2.182433998025761657e+00,3.609529348446403607e-01,1.748962587597562013e-01
1.150650179542955343e+00,1.012865501506812205e+00,2.692562321819080839e-01
1.654248346581665752e+00,-1.319276797214135044e-01,3.520135052309982804e-01
1.583422654592353984e+00,-5.951550419906403988e-02,9.840670722280779881e-01
1.855306795074408210e+00,1.101494497882230750e+00,1.334699053587085738e+00
1.446347877476582999e+00,1.259786784127296944e+00,1.160239490579592081e+00
5.571374417894955355e-01,2.518894653251433913e-01,1.208385329270551756e+00
2.116338500917009480e+00,1.090688048075398653e+00,2.195889125775456030e+00
5.544991507661545249e-01,-3.606578956921753787e-01,1.824540525225385679e+00
8.862434297286233553e-01,5.760856085598793364e-01,6.967692185921506853e-01
3.438882768517598221e-01,1.787115315922353842e+00,9.028724620427486247e-01
1.326567473688815779e+00,1.147104018761300415e+00,7.725266613355796785e-01
3.390507390898754303e-01,7.148956364999020652e-01,1.218743424680986731e+00
1.952361725896775368e+00,3.631091522704391061e-01,1.397478720193153334e+00
9.053380269022738291e-01,-5.151108132669681705e-01,1.205306524280304492e+00
1.146032549305120218e+00,7.108283008617245491e-01,3.516639621432671725e-01
1.051914209945608691e+00,7.764086531109305744e-02,1.949659721707701632e+00
1.458514019954604723e+00,7.296309707804998768e-01,5.333427167722847723e-02
2.522146170286371003e+00,1.093943690089569820e+00,2.397987323282184668e+00
2.062928965394639658e+00,2.155158120566997570e-01,-2.817973090024296634e-01
1.677217423624049353e+00,-1.179010056437099219e-01,3.208324402031026978e-01
5.539931602023068224e-01,-7.204839277183238133e-01,1.683256992057534207e+00
3.703035222079573696e-01,-1.577134059032092306e-01,1.673608725057944335e+00
1.685287364428399659e+00,1.825117564815192384e-01,1.678949177965717965e+00
1.028788325114736280e+00,8.361003146807217679e-01,1.720800557644824424e+00
1.978791232814261614e+00,1.003032861464005165e+00,1.280144410555866141e+00
1.943347417275251399e+00,9.141035915441488025e-02,1.763567422784334815e-01
1.780410477820692172e+00,2.429274407021430882e-01,1.560595495772667762e+00
4.815971889978277187e-01,-2.156931772561914429e-01,1.516457850036710742e+00
4.420597115429104051e-01,4.843480552984960052e-01,1.219599590191165372e+00
2.087119465393939333e+00,3.363509664078953576e-01,7.092722344884231367e-01
1.288386050470942124e+00,-2.751984802302983035e-01,1.220052427182621857e+00
1.655919190724677303e+00,8.581987270212492191e-01,2.030472033477857874e+00
1.103693989766062478e+00,-4.422259194623543999e-01,1.219463920248586630e+00
1.925104833004919413e+00,2.864832162747750835e-02,-3.805794466185059843e-02
8.637551035108353981e-01,-5.298918395334224485e-01,1.817899090781989857e+00
1.772553421284950970e+00,5.172478171963901250e-01,-4.938964342681653567e-03
8.397964341687793599e-01,5.114313030789403580e-01,7.781383864863056221e-01
2.237580340596237338e+00,1.063369014668993584e+00,1.730244059419613789e+00
4.286013435616540801e-01,1.649795660643865958e+00,7.177743708625042851e-01
1.415013080712582028e+00,-4.854558641523813028e-02,1.740021068756622435e+00
1.159127114160611649e+00,-2.633223558432459255e-01,1.816282350681493574e+00
6.296613779090430851e-01,8.200094610614734325e-01,8.548124601498738873e-01
2.385099962552311048e+00,7.151982485561089176e-01,1.177129202667717811e+00
6.813438601565559027e-01,4.686804759646404639e-01,9.695075718961949640e-01
1.028965742751545065e+00,7.551685400767761680e-02,1.938704672132663065e+00
1.099513679573239783e-01,1.718268784768709034e+00,1.005181065576808308e+00
2.238431315810532674e+00,6.953891753309201507e-01,1.739268284827596434e+00
1.025030393048932398e+00,-1.903838259625608154e-01,9.189539008271567777e-01
1.282537222752359707e+00,1.052890276526982749e+00,5.182726626447492491e-01
3.377743638224014466e-01,7.168846262578350004e-01,1.219153549995855235e+00
2.205404883340388089e+00,1.164310447809974614e+00,1.903799925175519769e+00
8.662039111447351614e-01,1.120444590723372214e+00,4.544006841877845093e-01
1.137317547887840563e+00,1.448271951621011189e+00,1.174173528918485809e+00
1.160714795943304845e+00,-3.348062513502252369e-01,1.478427731001180412e+00
1.659601847515812523e-01,1.492189058043387195e+00,1.028252481710949073e+00
9.877604482634789740e-01,-4.661560209636899099e-01,1.092807242227423981e+00
1.991652383999461096e+00,2.008778385862264038e-01,4.813017143507473117e-01
4.739188544355057431e-01,5.117190786320227058e-01,1.534107589741959377e+00
1.249348761451554601e+00,1.357496468333101225e+00,1.121618006009980739e+00
1.974261058895963317e-01,1.789442620867213840e+00,1.028875362418466777e+00
6.382476865375305008e-01,-7.148686665659639283e-01,1.905038457034795352e+00
2.048377458107137006e+00,5.396223088937792678e-01,3.860378835882246618e-01
8.012345421307863758e-01,-5.828875244448605830e-01,1.834125801405117606e+00
1.423315113537095389e+00,-2.170581209513646470e-01,9.244898741608243986e-01
3.896789744593864846e-01,-1.081044792710391528e-01,1.563278315209274405e+00
1.916313098183016317e+00,4.824062362566876039e-01,2.101153833351767641e+00
2.102437973804938576e+00,4.186674994891719792e-01,1.026531994763343780e+00
1.932382682754890446e+00,1.028171030580972367e+00,2.121100618274638361e+00
1.528173555564911468e-01,1.877690906669632565e+00,8.565371924763593992e-01
1.637520172814245445e+00,2.455151558023436209e-01,2.170863565275142015e+00
6.495602510771593119e-01,1.354470146661987062e+00,5.742331294567121214e-01
9.812792052634706774e-01,3.353451079045786098e-01,7.111542021463576058e-01
7.342235867158551921e-01,-5.669209546954537826e-01,1.974169738430348264e+00
1.201942366520710737e+00,1.287687501965990355e+00,9.148101157267292116e-01
8.817711443557998408e-01,1.240899616944189709e+00,4.169151627002862792e-01
1.978564383575788899e+00,9.943944690945294429e-01,2.154043627790732440e+00
1.266824790212770502e+00,1.010418792515763275e+00,4.088082460866253598e-01
1.365661075401785496e+00,1.520328534701950396e+00,1.611150055038554685e+00
6.426987308733040916e-01,1.415521083333963093e+00,1.360323317173765867e+00
8.467562033179925063e-01,4.213922287315235438e-01,1.747841300516611796e+00
4.547322937332540227e-01,1.714148620354995378e+00,8.865297921469132980e-01
7.944234903117601831e-01,5.901326906046813203e-01,1.673148153009453409e+00
7.145575856156358707e-01,2.950372410535230527e-02,1.146687710407419791e+00
3.966281011670206302e-01,1.515156336168148599e+00,1.207799354439726303e+00
1.058865041173032262e+00,7.398555423427850553e-01,4.314612853975572371e-01
1.287255019102371278e+00,5.809530347581424170e-01,1.924105968804076472e+00
2.770700790882301146e-01,5.823861936726133504e-01,1.414681486363863261e+00
1.784011546349030475e+00,-3.651981534804839974e-02,2.507521979521857847e-01
2.398988340829474541e+00,1.084688244269336410e+00,2.340029520573791100e+00
1.655646725292699850e+00,9.973246984162014162e-01,8.654895629776292454e-01
7.179291131698679607e-01,1.435546890602740877e+00,1.392495596529377710e+00
1.238825141628778548e+00,4.632069081896303953e-01,3.718010805073156955e-01
1.042411364725290390e+00,8.127513266888696242e-01,1.734351609870169897e+00
2.104098177563083816e+00,1.014674401225568401e+00,2.211490117373322573e+00
1.978323173210362107e+00,1.796380027283442649e-01,4.387000704720562805e-01
1.554974747262607870e+00,8.969935117074847586e-01,1.968497950025903664e+00
4.553414621943582263e-01,1.821672792054983780e+00,1.149604253754611616e+00
1.002712848908548615e+00,-1.205933537310082682e-01,1.981638048658901141e+00
2.203617908008470017e-01,1.673669068370986279e+00,1.073587293486598648e+00
2.131187129679384396e-01,1.527041739116657526e+00,1.111928544713604694e+00
8.381823077664861676e-01,-5.256332902393446860e-01,1.944702969945902638e+00
5.460013228357408765e-01,-6.622090134042117882e-01,1.663607121863392102e+00
1.364857200801586901e+00,1.442707846670814975e+00,1.445866300361191348e+00
1.533325061719615690e+00,-9.518929910267810712e-02,1.028536785217471605e+00
1.710887533920529835e+00,9.369788914963117499e-02,1.160259702574863994e+00
1.138062609517925594e+00,8.937101123744315423e-01,2.715709736461257573e-01
1.394228606983078267e+00,4.889420281933620216e-01,2.004358009336062008e+00
1.591689055643559669e+00,5.263896794354082642e-01,2.093130584105784120e+00
1.900164214983557143e+00,6.689546031432948014e-01,4.751223550738680190e-01
7.800385379595211610e-01,2.184238284529421009e-02,1.079885064024110886e+00
1.077190519875299568e+00,-5.076524032690514776e-01,1.016619379548256319e+00
1.377617149305650157e+00,-1.809682288390843941e-01,1.283041838072961127e+00
1.110345090118465272e+00,4.308548839620434667e-01,1.877949108080056773e+00
1.090829036965582866e+00,7.234088866797636630e-01,1.784334155727630211e+00
1.546609218097964478e+00,-9.027161356605303832e-02,9.957014919655313712e-01
3.882804904716763428e-01,-5.514043365999645729e-01,1.795411597416596949e+00
1.608016283406958014e+00,1.269950464918215172e+00,1.383157288820122677e+00
7.993183329323249042e-01,-6.277423784643093585e-01,1.634322490431602493e+00
8.497009691942317700e-01,6.021207218848817488e-01,7.234984437822946646e-01
