7.013920291596522638e+00,3.580198101207327177e+00,-3.066429581227394952e+00
3.997942519799100314e+00,4.083323043290793208e+00,-4.341065894721165108e+00
5.431955509812419258e+00,-2.689509099625481681e-01,-2.403456538858008251e+00
6.323701040738690438e+00,3.210618163512080070e+00,-3.201211991914222565e+00
2.510957926522143335e+00,6.158052033559892280e+00,1.199238236645615352e+00
1.782837931440821366e+00,3.865796440387154309e+00,-6.797168553276772274e-01
1.349954179053223680e+00,5.410451295734001853e+00,1.505324427295462675e+00
2.809565074235924165e+00,5.907046480052083659e+00,-2.876492796704272603e+00
2.954350070873380751e+00,2.655682595640183052e+00,-9.774971307030356771e-01
2.354903970838624794e+00,6.110191752223578021e+00,1.581030809160681949e+00
-1.119916838522281716e-01,3.273305059911972403e+00,-5.018792157201922954e+00
3.235832567051200037e+00,2.322882136559716315e+00,-1.128534519888529930e+00
1.104626432182474138e+00,4.418156148445612885e+00,-7.875194425909137763e-01
2.917030749047687443e+00,1.501387647181402718e+00,-3.903640289553108822e+00
4.187839369871063866e+00,6.786294208150894569e+00,-1.790576236917580610e+00
2.869207079628337098e+00,3.223158040610783370e+00,-4.478673400401033788e+00
5.650752912785635296e+00,3.695250855041126936e+00,-3.606169851834888362e+00
4.473277643119446090e+00,5.733684886035549155e+00,-1.347785592224327866e-01
5.610600757217861556e+00,3.759429865895392187e+00,-1.197508870056128494e+00
3.541978985815403380e+00,5.200758027106957115e+00,1.126002881650462806e+00
6.480761857699802952e+00,6.537036500431989694e+00,-4.220207372438966154e+00
3.889439326886927173e+00,2.371399528370716325e+00,7.352213218564537800e-02
2.286789738680761630e+00,5.674174828345316612e+00,-2.305831008989327024e+00
1.153400281398614835e+00,3.624942027139062883e+00,-2.204358895665346374e+00
4.421384953455755884e+00,6.242967609263971873e+00,-4.884137005824086053e+00
5.344809789588369497e+00,4.486528644845646507e-01,-1.089391844260589659e+00
5.334344717935050717e+00,6.526857086932212226e+00,-4.639506241672071596e+00
6.121846950542395582e+00,-3.273832597876782935e-01,-1.236602414438738640e+00
9.835569424381028769e-01,4.983608712059040435e+00,-1.957683759851280625e+00
1.004137975570095653e+00,4.384622400851880819e+00,-1.021626904137559411e+00
1.179645360500768847e+00,5.038405265292182023e+00,5.125980475848714857e-01
5.484332721047775472e+00,7.356651997749177774e+00,-3.275826660143511759e+00
5.514949709227521701e+00,-1.254953994861361111e-01,-1.885880212443129755e+00
1.921049663441296351e+00,5.767620295960063537e+00,5.966900048757382002e-01
4.622746141129062458e+00,5.003566458556952590e+00,-1.889273215060220668e-01
2.605032226361085890e+00,5.178383326681690768e+00,-5.209036731477369564e+00
5.334200825011947700e+00,5.618798594257160772e+00,-4.345585315001969207e+00
4.973748768288663413e+00,4.837161341250819646e+00,-5.973806190745194478e-01
2.700949057497977979e+00,6.060177349100286825e+00,-7.902428498964041426e-01
5.857264906675194283e+00,6.149864479780341453e-01,-2.532843242185804922e+00
7.222399655668914065e+00,6.581332828432438831e+00,-3.724686318256278827e+00
1.491346325276199369e+00,3.281152642223569948e+00,-5.005358019036570738e+00
6.356125077490411002e+00,7.205445055455395931e+00,-4.482541138138907755e+00
2.050688165691011644e+00,3.552951915017352746e+00,-4.887164457298383446e+00
1.492822258836175919e+00,3.460771753037173770e+00,-1.938148830582415716e+00
6.236364675695120319e+00,-1.265290064750576038e-01,-1.273536887791485217e+00
5.873353768969066913e+00,4.309660499319118543e+00,-1.625875942698312038e+00
6.082804565873877856e+00,3.984069551177348956e+00,-1.828492293163969329e+00
2.400320864309083646e+00,2.619118994159264524e+00,-1.987794009243867510e+00
3.464683266752634161e+00,3.850016897292038554e+00,1.468031776100925612e+00
5.177983673612857274e+00,5.908913315151732348e+00,-4.497091817725439533e+00
1.261095423647907499e+00,2.940069898918595825e+00,-3.316267248833553172e+00
7.100391130499674297e+00,7.988760936082207387e+00,-3.827921542890271756e+00
1.511836812745332548e+00,3.714473439856609716e+00,-1.426184902533645715e+00
5.477756237222648927e+00,7.509342900756853290e+00,-1.749092503742679883e+00
2.936515475310520262e+00,2.460346883160444253e+00,-1.377106608098434881e+00
6.121733689711522430e+00,1.072658577897787735e+00,-2.583520612893086099e+00
3.154859505365462891e+00,5.957338191426732266e+00,1.472363432282387530e+00
1.461277393920291878e+00,5.013289754329266934e+00,-4.267246266226580431e+00
6.393305332492092319e+00,5.126572147301016180e+00,-3.795823402778591760e+00
2.956660325249596433e+00,3.489101451089021033e+00,6.021357363220460890e-01
6.401298019691678221e+00,6.307208109860177103e+00,-2.648653945674271259e+00
5.382615940867682802e+00,3.855788422416654537e+00,-9.300779367115654672e-01
4.667742795590807958e+00,6.365075579442641462e+00,-4.925448552617469611e-01
3.962885845935256057e+00,1.820695098546759372e+00,-8.429017724618190766e-01
4.244001812542498975e+00,1.504720308757565572e+00,-3.415568748285755962e+00
5.772428836923277906e-01,4.666110758244099266e+00,-2.847046998998307377e+00
2.291979589471043521e+00,5.660175350696789565e+00,-2.470768013233717308e+00
6.215245032248096102e+00,1.750218690370746843e+00,-2.768402942514778253e+00
5.818038802718342062e+00,4.190117374404085382e+00,-3.704712230212252599e+00
1.732358980572266782e+00,5.902715868691134737e+00,2.942538361428201465e+00
5.930565161920392292e+00,5.532851230824570976e+00,-1.919627815270343651e+00
3.845905424575319032e+00,1.350233675200748440e+00,-1.931105163036290095e+00
1.012814212023926297e+00,4.832978876707398008e+00,-3.587703813377890238e+00
2.959936951461200394e+00,5.252718271125770499e+00,1.844006814286570872e+00
5.708521144766583788e+00,6.836427954431912646e+00,-1.878967854025593631e+00
4.949984445210937167e+00,7.375923523818851413e-01,-1.213823785922188092e+00
4.305948856127246316e+00,2.281063397538157123e+00,6.102811060663428933e-01
4.797703816095435059e+00,4.396593389667174279e+00,-2.973077936437608648e-01
6.278511456791355805e+00,-1.691971500832102626e-01,-1.318459959216939481e+00
5.682922529146253510e+00,3.121505582592343786e-01,-2.499069847244401288e+00
4.009403089049075497e+00,6.662385385125443094e+00,-2.029572315213181710e+00
1.926348267903849942e+00,5.444359328908653595e+00,-2.588622010672194218e+00
4.558173862395208609e+00,2.891097636825968209e+00,2.756020970573828666e-01
2.327745108858277234e+00,4.417010621257815295e+00,1.288110957731746886e+00
3.098639592065003612e+00,3.338697105673679832e+00,5.589628624077858099e-01
8.550057561945797469e-01,3.324270506099517242e+00,-3.279728676874036353e+00
3.348805447759771070e+00,1.784518177590651122e+00,-3.836139126694501744e+00
-7.450886672010297307e-01,3.482801154971324475e+00,-5.698192713116896790e+00
4.989871638169254275e+00,6.366302538335196104e+00,-8.953692521811940086e-01
6.783658880007277681e+00,7.022176856902770936e+00,-4.265611793461816070e+00
6.999730445644019916e+00,6.549544604818493099e+00,-3.440615220083088843e+00
4.181261818218302118e+00,6.450632350615090438e+00,-5.032355924418672188e+00
2.459753705105026000e+00,5.466549205035006409e+00,-5.274326360111451173e+00
1.097525545986040907e+00,3.790145172920834860e+00,-1.986934866263029287e+00
2.395795468073620427e+00,1.571822295980903617e+00,-3.975559296553434763e+00
6.691354267319700178e+00,-5.765778060727606569e-01,-1.760417882736339035e+00
6.180614217937073995e+00,-6.838507534347100236e-01,-1.810727768154524853e+00
9.487724028711455038e-01,3.124929601867668438e+00,-5.154787097264979856e+00
-6.341791533407286074e-01,3.387729339987293642e+00,-5.823376069876333716e+00
3.005457402220461205e+00,1.241428782021566368e+00,-3.786885469151076489e+00
8.758046283977873880e-01,4.753866900947378404e+00,-3.614693009612392594e+00
6.255154393203027574e+00,7.701221838014375543e+00,-4.105486848989985837e+00
3.853886176749000914e+00,1.551168328153034404e+00,-1.537649420329578742e+00
2.783561537065786684e+00,5.672092507786573812e+00,-5.029209421021377580e+00
5.052203190855169446e+00,3.485456270972239867e+00,-4.498354465220418263e-01
6.293956554277365889e+00,2.648519490255340614e+00,-1.849729822792882672e+00
4.712924163866526683e+00,2.693054861405582701e-01,-2.501903791422818824e+00
5.264193736136247637e+00,1.709946788460291023e+00,-3.105943591214460398e+00
6.270502329551113974e+00,-9.233574831826189128e-03,-1.337514688701663124e+00
3.544064244070276981e+00,3.553543416251659259e+00,1.422688127218661780e+00
1.282386338815939775e+00,5.495218994383061606e+00,1.411936863292905242e+00
3.973557967208324548e+00,6.698928167622420382e+00,3.143982631988357923e-01
4.992850949199205246e+00,6.350806247207116506e+00,-4.708393760553939877e+00
6.866642902589789266e+00,6.304960849782746735e+00,-3.229840650249482970e+00
6.054890242049379090e+00,3.619681273927759513e+00,-1.727396852890951573e+00
2.376639583648931797e+00,2.068568633163945680e+00,-3.068924326415339632e+00
4.149875567433231716e+00,6.887193034239961875e+00,5.982700572903687508e-02
2.366213996259473262e+00,5.615483621133181558e+00,-3.311086207523339819e+00
6.273315994154169850e+00,4.601421417782758816e+00,-2.178766374114514459e+00
3.850842792004142368e+00,4.138220084546176736e+00,-4.413062374732859006e+00
3.316729093479616974e+00,2.483347984927608110e+00,-6.877242981542985856e-01
1.451328103687250959e+00,2.398017668653628753e+00,-4.017940101196804115e+00
2.185185753864582914e+00,5.894598476389750097e+00,3.993451358303593546e-01
3.701821087396726995e+00,2.117602736371979599e+00,-7.250403361051832585e-01
7.255740024924331344e+00,5.327191751040520451e+00,-3.538483860039058015e+00
4.428512457804860691e-01,3.673946321987024088e+00,-3.318767373097108564e+00
5.270329986594420868e-01,4.347733644013503707e+00,-5.682636632867284376e+00
-1.213099208862700035e-01,3.467656334437693832e+00,-4.667170305883746373e+00
7.283156057726684729e+00,5.836732162006409652e+00,-3.697711541083735121e+00
2.591211244594698648e+00,5.872198296116843075e+00,-2.028656182912161210e+00
4.066598947655784002e+00,5.690249621061374441e+00,3.813865713084079179e-01
6.988806814117515032e+00,6.022824306297954955e+00,-3.331260009275615719e+00
4.687877490648811651e+00,8.610374854339412076e-01,-1.425690708464720124e+00
5.544533532561798594e+00,2.384375040677263691e+00,-3.220942975635848526e+00
4.904153047033888768e+00,2.739568091370860881e+00,-3.571991029993788924e+00
6.380370688176490113e+00,6.124984346773556076e+00,-2.589389420284126775e+00
3.501859582532667048e+00,1.738559438457955908e+00,-1.781369207725627124e+00
4.015009482180164291e+00,6.510889839006535951e+00,-3.539355932673187599e+00
6.542650432646763825e+00,4.261916885780991038e+00,-3.460848894937954334e+00
5.358617144188627890e+00,6.571199053199488382e+00,-4.644914121176832111e+00
2.287384522746971349e+00,5.519112425266373911e+00,2.636170326710165490e+00
1.958602915566042046e+00,2.239328749184156919e+00,-3.456223474256452821e+00
2.478769936851664024e+00,2.495729762935066098e+00,-2.087813728198173013e+00
6.267060278765972825e+00,4.837876412541438853e+00,-2.213910688464458154e+00
6.843635422308208760e+00,6.628088567845662027e+00,-3.259796398499822168e+00
6.980352967361403316e+00,5.118783186871437962e+00,-3.156434088722319675e+00
7.243471162090014737e+00,5.661406323505730143e+00,-3.583875324829244313e+00
8.853062396791786526e-01,4.724038555493657476e+00,-3.957652210823724648e+00
4.729759695593458879e+00,7.094575106439392265e+00,-7.026012673403080333e-01
3.289831610277540896e+00,1.249323425514409447e+00,-3.066532728225952020e+00
2.373723910355295619e+00,5.021254171752445039e+00,2.508634959675562826e+00
6.733106060644981739e+00,3.619056686619469776e+00,-3.182523867245888649e+00
5.271124234109795026e+00,7.225491120296991809e+00,-3.396432120888900563e+00
3.789259033421116918e+00,1.571478878897027975e+00,-3.604809201521368411e+00
7.181664584671216822e+00,8.159251402863500147e+00,-3.960475671656164209e+00
5.444619750421577642e+00,4.863890925944705401e+00,-4.060489422065432841e+00
6.445298098293157807e+00,2.943141228044577229e+00,-3.069795944812845345e+00
8.719813218434336877e-01,4.683174257087786785e+00,-4.284167744336491168e+00
5.733141589771668656e+00,5.123126083440442180e+00,-1.598439667430817224e+00
2.397742876996303174e+00,1.866085141052062912e+00,-3.415901313555764762e+00
6.510076808737415455e+00,-8.796412706332614739e-01,-1.808333231237713834e+00
3.046393769998227974e+00,3.854226977871094917e+00,1.444898870722814532e+00
3.195940337636608675e+00,3.377223832483493560e+00,7.970951446049828748e-01
1.558441712718138250e+00,3.986211395800692614e+00,-8.332509688039200224e-01
3.195864817575468031e+00,6.232047075572235251e+00,-1.804967694462884076e+00
5.405724493952320131e+00,2.006298538455023039e-01,-1.454837996543718370e+00
5.954332104791585145e+00,5.949317723806832880e+00,-4.223993350099441990e+00
4.712390643435688808e+00,6.953695348187732606e+00,-3.010187991193739698e+00
2.555619312832508427e+00,3.435336967279569720e+00,-1.807904769790578126e-01
9.770110964279894450e-01,5.206381637660465245e+00,2.531994732838417916e-01
4.580504435910391692e+00,1.746891086026745255e+00,6.675160404373201017e-02
5.446149760236298931e+00,1.683518104619487199e-01,-1.447191477077957922e+00
2.209306966862031041e-01,4.438444157224439302e+00,-3.131323435295021440e+00
6.101080619725385290e+00,4.943976467245506434e+00,-2.025744717788983795e+00
2.139665126478613288e+00,5.269067990518939482e+00,2.579553792181202176e+00
2.537489287146949213e+00,2.551200083019854237e+00,-1.883187823007251627e+00
6.548442215025001012e+00,4.381921372255616731e+00,-2.482741091930456001e+00
1.643857982037201682e+00,5.609432208854637558e+00,2.380803560326543611e+00
7.405893474477097449e+00,8.258736820705259163e+00,-4.258796354549357233e+00
1.592786807789654535e+00,5.231751843721609951e+00,-2.849645491209926274e+00
4.824272004645824730e+00,6.047333364219441343e+00,-4.672289619031942287e+00
4.147146820991760019e-01,4.263631654286019312e+00,-5.720294701638851897e+00
4.630765873555844792e+00,6.341466002130690782e+00,-4.420407896713413609e-01
6.016620718192916328e+00,4.548995066448078717e+00,-3.747693321493596130e+00
3.463133522141371934e+00,1.228244355295320611e+00,-2.811986066106935134e+00
9.235623437904273425e-01,3.750810898663610171e+00,-2.356825754279168184e+00
5.534574610543715245e+00,7.079277851918495124e+00,-1.705691590063637575e+00
5.574140444668423733e+00,7.428775664948200408e+00,-3.060238995172923193e+00
6.155233790604166089e+00,1.083644570836747700e+00,-1.392021346183715425e+00
7.106591508427734460e+00,7.822858483177872024e+00,-3.805527144192310640e+00
4.994079540771100945e+00,7.146674495141128070e+00,-2.658575258687845722e+00
3.369276300795232881e+00,6.184926022163318216e+00,-3.208651498934368185e+00
3.832037117205552068e+00,9.733293308067392235e-01,-2.667260638294935760e+00
5.269379879418782053e+00,2.341441037466452268e+00,-5.134037473265553597e-01
5.550119361154139952e+00,6.484575197071483998e+00,-1.617064874486046966e+00
5.759255608434754592e+00,1.177755057841499697e+00,-2.751161765138763204e+00
5.440438568019688503e+00,3.122338259068699884e-01,-1.184862092103132314e+00
4.165623987746233325e+00,3.334119209355148161e+00,6.857218115510149703e-01
2.430590025666067966e+00,3.262380010239446015e+00,-7.201884567330650855e-01
2.045086416308393495e+00,3.102487420224327330e+00,-4.743396449016224814e+00
-2.141048538066645524e-01,3.424435147270570301e+00,-5.680410630181971676e+00
4.974860448768340326e+00,1.009941976989037649e+00,-6.566457747563401171e-01
3.186855144744691781e+00,4.785625011529910822e+00,-4.867412930572692531e+00
4.916137044984437487e+00,4.375223626790913478e+00,-4.097098991257776213e+00
2.297897125841589006e+00,3.790060854862289386e+00,-4.872799263338854381e+00
5.570825077300933792e+00,1.742982954771516102e+00,-7.814173591643480687e-01
1.995709019374223292e+00,3.294481703376379578e+00,-1.398257611275168788e+00
2.178378039271174682e+00,5.990129225555512527e+00,1.369197250515051589e+00
7.382808438470179979e+00,7.577662176876009958e+00,-4.106196152532794130e+00
3.914960096635400344e+00,6.560489013907602640e+00,-2.510653969017658582e+00
1.201784365514609876e+00,4.002152697300358497e+00,-5.345512721096961073e+00
3.344659465971564938e+00,6.557758669055670175e+00,5.658178739066540563e-01
5.309549298091111424e+00,6.815001174889362190e+00,-1.376433700925381309e+00
5.657734994998023126e+00,6.230487119457215783e+00,-1.705397856812889357e+00
3.598186176793856550e+00,5.049274307201508272e+00,-4.801140912903195890e+00
3.453168872815889578e+00,3.841411147644171020e+00,-4.463565013123767855e+00
2.653333411281773913e+00,5.006553511589749483e+00,-5.135603845680778434e+00
6.630672696158332435e+00,1.995535073316751784e-01,-1.825596687642875748e+00
6.344103235709916966e+00,6.721914815952480637e+00,-2.652521375713358331e+00
2.384410701421162848e+00,5.145936248259365797e+00,-5.279858248322399028e+00
3.190058129291724054e+00,6.532423242966081567e+00,1.159650332708734410e+00
3.630287166361280349e+00,9.104935570048231508e-01,-3.449422954378318806e+00
2.716640515172934034e+00,2.011695482650140754e+00,-2.598868811994588413e+00
6.793021113110437881e+00,1.935877021500258088e+00,-2.615526933747279958e+00
2.614431692176351962e+00,2.329103530877707939e+00,-2.172388601071032266e+00
3.148343211842737688e+00,6.424446348379293958e+00,3.322902622855112842e-01
2.095294531670848226e+00,2.829003727094245413e+00,-4.636351299995993713e+00
6.193815108052219465e+00,7.786656158741297240e+00,-2.937502914846521485e+00
2.718132500617829628e+00,5.768350920933231762e+00,-3.733280411475108362e+00
7.002774859537940877e+00,8.080359530831536574e+00,-4.471366394020324542e+00
6.293781599675749128e+00,3.185476418361721684e+00,-3.204101585953659015e+00
6.320876170420420159e+00,1.002373499934883894e+00,-1.584277094098103467e+00
2.852703193786070734e+00,1.708037161904682799e+00,-3.994253340254676043e+00
4.604985891100172424e+00,3.111385816031972951e+00,1.770703565036198524e-01
5.423161567109115566e+00,1.697504005276454286e+00,-5.886019679416429895e-01
1.685063422517434795e+00,3.022185080422108427e+00,-2.440791965746428538e+00
4.422995302941516549e+00,5.837099637256711659e+00,-4.752148095410256623e+00
2.440035964843441540e+00,5.412495608772705857e+00,-5.345649230728960255e+00
1.825228196027289806e+00,3.046777912659881071e+00,-4.806405639058569434e+00
4.549779452371201849e+00,3.948217299721213713e+00,9.401970291771069577e-02
3.226972515681219011e+00,2.071615159858833266e+00,-3.973993897057571889e+00
2.531890409124418984e+00,5.165404950541083728e+00,2.394850244595990940e+00
2.001487317992860948e+00,5.237066464558401080e+00,2.284317728625640420e+00
1.928427407868448018e+00,5.884710715166483475e+00,1.699875248480340106e+00
-4.062082385487079117e-01,3.865586667935426046e+00,-5.312587242874104554e+00
3.033520833233515734e+00,2.792668871196206659e+00,-4.278737626908416303e+00
-1.462989740501154656e-01,4.128886023864087207e+00,-4.155825140472123813e+00
3.787139239745366481e+00,6.532594960384326299e+00,-2.087523756757408755e+00
8.303419420417834651e-01,4.665381610144405222e+00,-4.231334907544454182e+00
5.110193582581792349e+00,2.172213603835067897e+00,-3.312365210993516218e+00
1.821001549328668201e+00,5.490083550945803914e+00,-1.568933052722484733e+00
2.465315727134747892e+00,4.204339546109878256e+00,1.119723847864541932e+00
3.203260974388620674e+00,6.330230822788008638e+00,-8.864968014693291876e-01
3.101281156470134803e+00,4.730966822552066020e+00,1.762152579246201611e+00
5.714678099552370050e+00,6.475388654011718259e+00,-4.482644728103077902e+00
1.770586424699062134e+00,5.038321888805300297e+00,1.516312823626413397e+00
5.268609964428690340e+00,7.092535762887609785e+00,-4.680993770490154304e+00
5.946571670673969079e-01,4.278503713711234724e+00,-1.917874165680857113e+00
6.694300189002996504e+00,-9.309014370951542716e-01,-1.699720741274068914e+00
3.797235765054717493e+00,2.106764068507495757e+00,-3.775161508408643396e+00
4.441436234327282406e+00,2.564607592599909225e+00,4.808242993530297826e-01
1.262495228341435460e+00,2.193250069907501043e+00,-4.725868621713773976e+00
5.091129303986447141e+00,3.626993260944956443e+00,-5.242025170609188045e-01
6.765345860456601912e+00,6.502194148988541533e-01,-2.075797184244063232e+00
5.227622823710285971e+00,1.579052407417504300e+00,-3.226925918059318499e-01
1.007931015948827058e+00,3.660558192150273005e+00,-5.306383819397476387e+00
2.374799576220876229e+00,5.542718686836115793e+00,-4.068315323770236525e+00
5.426261588577750317e+00,7.180810994063478780e+00,-4.676847906473399874e+00
5.317021600113135404e-01,2.726574709952801712e+00,-5.179565255073948826e+00
4.363860967650806444e+00,3.810218247262316393e-01,-2.883664403723130931e+00
4.507388627628722944e+00,2.834561527658946645e+00,3.493466008996421457e-01
4.547981424633733560e+00,5.796645947471763982e+00,-4.692979049035379546e+00
4.860511748164081602e+00,7.223515466343747526e+00,-1.181489732819569261e+00
3.617523355626298454e+00,6.476992766396730161e+00,-1.707533614208197381e+00
3.984558136039972887e+00,5.844481529657989505e+00,4.558991703682502283e-01
7.284019618876442337e+00,8.245717061221727207e+00,-4.387048233488201276e+00
5.899222724503178306e+00,1.027366483517226925e+00,-2.650880185689758584e+00
3.861647031806721309e+00,6.743166270122151751e+00,-4.368140116858404975e-01
6.076409221021025431e+00,8.769144034199704008e-01,-1.255943280711330878e+00
4.491656924263819128e+00,3.296595880290748681e+00,2.850587711852619055e-01
4.809823796746827362e+00,6.887226604935784202e+00,-4.189377324579112383e+00
3.228504573872093886e+00,1.521227027414158606e+00,-2.656637052046486147e+00
1.249935129892821406e+00,2.970709503114139949e+00,-3.277297062347625189e+00
3.819665175257940692e+00,5.322713885329615202e+00,7.567876858160982323e-01
2.887096696452380873e-01,4.074920275256902258e+00,-2.822514546209209829e+00
4.784458235584727603e+00,2.392097875931069872e-01,-2.437284531796259923e+00
3.914175281230932946e+00,2.789988308993306632e+00,9.069501555738843646e-01
4.369105056051396652e+00,4.687573159848154036e-01,-2.708878284050486585e+00
3.105216785034227378e+00,5.601471411771250075e+00,-5.161627925255409366e+00
5.936898923213463242e+00,-4.571152977625093650e-01,-2.156407237031697566e+00
6.624549279867171236e+00,2.934514837330494674e-01,-2.145912085109372036e+00
4.191082143540251437e+00,6.575408970905033179e+00,-3.867409408820188688e+00
4.008156851453028580e+00,1.282506136830111609e+00,-1.783526924864782703e+00
6.629214212558363073e+00,3.721804361469944755e+00,-2.463750876772955678e+00
7.022857045888415861e+00,5.796867273493099049e+00,-3.332761130950133488e+00
2.014001377884838018e+00,4.746939056899659448e+00,1.378913950461293725e+00
3.109940042253632075e+00,6.360610666622297238e+00,-8.207296968931465653e-02
1.744582464795284116e+00,5.255783779104653775e+00,-3.440939556944642597e+00
1.343042086181911898e+00,4.380602230926920804e+00,-5.415960928762875604e+00
6.040783316603468123e+00,6.483897180562044227e+00,-2.230180860535493803e+00
6.685329154469311419e+00,1.897441191155337714e+00,-2.202405650322780239e+00
2.556060956529747852e+00,3.861871419011901008e+00,-4.800882330791278463e+00
2.853336372531948495e+00,6.276691096286118210e+00,4.947320477612303646e-01
1.798704710614478008e+00,5.870165864434808256e+00,2.263702062918995228e+00
3.663770832289730439e+00,8.066407493834868436e-01,-3.268256951895049056e+00
2.061829162502756496e+00,6.045114651740712830e+00,2.540270648421813160e+00
9.267886981213842024e-01,5.167534404190587516e+00,1.471469461066853002e-01
9.805954587616405593e-01,3.553410794521498328e+00,-5.281772507759454172e+00
1.573852560002674039e+00,5.149888861239294791e+00,1.393042170807101243e+00
4.509583488707137988e+00,1.170232961210879052e+00,-1.143988796114836282e+00
4.155504138048254248e+00,5.979879263792539312e+00,-4.896974505182602577e+00
1.298176113128432396e+00,2.378774078683516091e+00,-4.784429615133117153e+00
5.314459043539507377e+00,2.694746769560580901e+00,-3.406232886609913191e+00
5.570236414756687182e+00,2.161081785503479846e+00,-8.566483033668625957e-01
5.199142961700539800e+00,4.492465021483007526e+00,-4.030732457063050944e+00
5.081880170472317104e+00,7.012890639158872119e+00,-4.442650190986799252e+00
3.301063815875584506e+00,6.067963513360506767e+00,-3.979572438404492374e+00
3.918413808745803362e+00,1.794382389023057245e+00,-3.629362501018261078e+00
4.923872183780922285e+00,6.015861544163108476e+00,-7.492086020533503810e-01
4.579636353593913967e+00,1.645604847909059698e+00,-1.262204912997019202e-01
2.625587623513240931e+00,2.574265417596197203e+00,-4.358404977897471611e+00
4.288099969754910035e+00,1.925812639190920939e+00,-9.169697348194255637e-02
7.451227860712057449e+00,7.550840873716117230e+00,-4.186834464452442894e+00
1.260608515375335914e+00,5.254013792284832896e+00,-8.248129296669574062e-01
4.350011122296664201e-01,3.573712210213916496e+00,-3.521611152359984231e+00
2.607710362647273072e+00,5.199665079224418562e+00,2.293864418109192282e+00
2.067605850937155321e+00,4.458385457864931567e+00,9.244200070228441035e-01
5.084157092547986423e+00,1.466583427337384282e-01,-2.103148313589678242e+00
4.298058655754057433e+00,6.720003553694878562e+00,-3.037598807346658880e+00
5.321384138639138506e+00,3.930908935685737959e-01,-1.234235184210215275e+00
2.427152905777649305e+00,5.475504855295392659e+00,2.469409000965227641e+00
6.943545686370651282e+00,5.777934561740411645e+00,-3.230196615049925057e+00
5.599452501617554034e+00,6.316845149900571776e+00,-1.648246384421216071e+00
5.602605771143818636e+00,7.486410463662067194e+00,-2.652350264798895463e+00
2.832012320640298064e+00,3.337848308967870103e+00,1.044199133729068890e-01
6.523358081115099516e+00,3.740210170159891323e+00,-2.334794546379589164e+00
4.417349533585360533e+00,1.960736263744983443e+00,1.938967470026800588e-01
4.960267184112503003e+00,9.597520262513366263e-02,-2.409433038274332084e+00
1.682451447978661641e+00,4.698944117500699846e+00,7.249452631686144066e-01
5.643456556961925941e+00,6.344586245270351199e+00,-4.466552696957705848e+00
3.271658836077132815e+00,5.083276397446172545e+00,-4.932513810449703939e+00
-6.916999396351936058e-02,4.176664810395186223e+00,-4.108965161921041442e+00
2.454615145648041175e+00,4.084226948158543813e+00,-4.910262629221521458e+00
8.106220817081287722e-01,4.731483044846128472e+00,-6.945715986237979145e-01
5.760012374444878347e+00,7.139277228524307795e+00,-4.680860164489629938e+00
2.274219114995660984e+00,5.699192587131252985e+00,-1.993145595113201329e+00
2.323513045373652552e+00,6.147749257589556038e+00,2.118565994532687569e+00
6.145612831995301839e+00,7.706108484107689449e+00,-3.461731258411719914e+00
6.630577945355629943e+00,-5.443224089418745582e-01,-1.872469686581369253e+00
1.439858452068877970e+00,3.301635279060736394e+00,-2.328994422091704930e+00
4.728910790641314144e+00,1.298891310865621707e+00,-5.281536874032469742e-01
3.256898808282429503e+00,6.081769238086423002e+00,-3.604454856846170063e+00
4.038553914486697316e+00,5.725122075609664130e+00,4.101015078307486128e-01
3.422305404449930588e+00,6.551966716509761923e+00,8.677358151880364134e-02
1.702766604113805426e+00,3.416038901965265495e+00,-1.666076295681582442e+00
3.295283038920445051e+00,1.858491441067947836e+00,-1.905544905546767476e+00
2.458882421622089254e+00,1.624552786019308748e+00,-3.768693917819358585e+00
4.374769299762845343e+00,6.944026132670242824e+00,-1.267530374231908619e+00
5.813747573149364634e+00,-2.161716930378790869e-01,-1.549729307475362194e+00
3.620256401772993460e+00,2.134685004873541292e+00,-8.313032108893098071e-01
5.804325259642405754e+00,9.132364298272648284e-01,-9.224882082385928994e-01
5.435747942046092795e+00,1.942570968041731572e+00,-3.118014496576019479e+00
2.912011917317247178e+00,2.136294402033283468e+00,-2.031404231108753677e+00
3.345902556270938355e+00,1.870745431829074823e+00,-3.865124322757476971e+00
3.482333410409392815e+00,4.363797500561129361e+00,1.352620753446353463e+00
3.214494224602771677e+00,6.098906956924512457e+00,-3.206380881937102689e+00
1.053085009248335924e+00,5.272680967423289289e+00,4.866441181260715565e-01
6.760917257478947562e+00,4.988125140686328507e+00,-3.615492936952598324e+00
1.717483863918304765e+00,3.816500641592070142e+00,-5.095311831857123330e+00
6.673318586939264385e+00,2.527239039922312358e+00,-2.301826078726456171e+00
1.099195408477434022e+00,4.586066954053303668e+00,-5.572365077143860645e+00
7.032302876021442550e+00,4.953379030339582378e+00,-3.504205611611721505e+00
2.461555716328252263e-01,4.354781870316052128e+00,-2.365682155870620029e+00
3.853257280878218172e+00,6.509621118803228690e+00,-2.671614726120961514e+00
4.927160377665165569e+00,9.315235992017479871e-01,-2.978175470079805098e+00
1.925160850079119301e+00,2.487229357959694909e+00,-3.044339072107646427e+00
2.843539974492603206e-01,4.296106525303684975e+00,-4.866279240925155847e+00
5.680028742778993944e+00,2.599554183653701500e+00,-1.073536851795395375e+00
3.833225045807203024e+00,6.371442532439230533e+00,-3.911859448273706796e+00
2.174146301363363509e+00,4.182834771544722940e+00,-5.045572758080577813e+00
2.092321365863281102e+00,4.059905180083227094e+00,2.130168705398107210e-01
6.957330695770151507e+00,2.070438844230519493e+00,-2.598521753582148097e+00
4.771905129590417793e+00,6.793770284403352733e+00,-4.895607515990422876e+00
3.149626815897498044e+00,5.792536759731533813e+00,1.508846999707399883e+00
5.248703794563207126e+00,5.747138822209894471e+00,-4.418650123675645247e+00
3.794270896858547459e+00,1.156763002125605455e+00,-2.384606772569607180e+00
1.949635931410535816e+00,2.711975560963591381e+00,-4.652157650418579315e+00
3.675429847885085533e+00,1.773760627726625794e+00,-1.419960070201109037e+00
6.963173501106916241e-01,4.910738753949954294e+00,-1.106287970130860998e+00
4.344596104478982035e+00,5.747884407050836586e+00,2.346957121261064941e-02
5.556578974842086183e+00,6.044728915016476911e+00,-1.545220119786195001e+00
1.834124035027494770e+00,5.159554454498884724e+00,-4.867786178765117100e+00
6.788833513203464065e+00,1.281983838526568942e+00,-2.405379834500587233e+00
5.835999936070347616e+00,-2.745515171492927120e-01,-2.252703822543062895e+00
2.091047885506905679e+00,5.908031843883804868e+00,1.042740261068233476e+00
8.212699692705617283e-01,2.732013981052881402e+00,-4.456791283708984253e+00
3.947316939063446384e+00,5.197350667021929382e+00,-4.720381800987353493e+00
2.793570050106368274e+00,4.148776273305661455e+00,1.572301114818829948e+00
7.144158257874776652e+00,4.702144174963419410e+00,-3.285458979233173427e+00
6.515627415594839711e+00,7.920324098974261595e+00,-3.383354732921995733e+00
5.159055484537428349e+00,7.333252410683091860e+00,-1.734406257961979891e+00
2.789006739705248261e+00,4.031469259406025074e+00,1.342761905939875655e+00
1.611812920666925164e+00,5.634686229747941866e+00,9.812812958868177837e-01
5.871444171428975345e+00,4.775843659246628015e+00,-1.708192667294941236e+00
3.966513996817143006e+00,1.731269829806096228e+00,-3.591199725180238111e+00
1.261626416432296116e+00,3.032479649567069391e+00,-3.140650174193999611e+00
5.652044388527512453e+00,-3.746639642483640675e-01,-2.124080026896624229e+00
6.063133607289096005e+00,7.538743382507461455e+00,-4.647179727628705237e+00
2.175830507873366848e+00,6.097579022817395611e+00,2.432252286780242301e+00
5.028466390757475146e+00,2.151364605279903197e-01,-2.068285398642999429e+00
5.617161638555506542e+00,2.162457691633058676e+00,-3.122327367275284260e+00
4.782709282218895908e+00,3.376818483751787614e+00,-9.327891941015060973e-02
6.815347361044580055e+00,8.067198601455508822e+00,-3.580041652819450970e+00
2.848131893860196051e+00,1.742693417564912473e+00,-2.884085664768815782e+00
3.630159662009325938e+00,6.710595569720996245e+00,5.047235925225902475e-01
1.373160780585898522e+00,2.261872075856834030e+00,-4.408132801940268131e+00
7.189350396077222705e+00,5.294801711436560865e+00,-3.556846318059879053e+00
3.754582132279965290e+00,4.633245042857316420e+00,9.634028153890904500e-01
5.460643793102251564e+00,-1.279612413861511422e-01,-1.982795482558270761e+00
4.167678230596236766e+00,1.869654710731882385e+00,-3.561846790529171081e+00
5.540388291341601601e+00,3.685542204611164330e+00,-1.096331222669012950e+00
5.848989189044610626e+00,1.421189344308959601e-02,-1.054285852186529704e+00
4.410094433443799922e+00,5.112266709018991939e+00,-4.522246933446801620e+00
3.483228474655598816e+00,2.748325555110412211e+00,9.610111074104431272e-02
5.133749648494028150e+00,7.293075503154627270e+00,-1.989018929759061471e+00
6.119153081645771763e+00,7.398945174563742455e+00,-2.494388644760417328e+00
2.525381564236270027e+00,6.103117647384133981e+00,5.843493077484425147e-01
4.637269818658397824e+00,2.594730246390353656e+00,-3.623480342050834579e+00
5.118914833439279555e+00,4.688185853104633871e+00,-4.123668764323763725e+00
6.347176380517439931e+00,6.839744887872963197e+00,-2.677771428514123198e+00
9.309878471899830643e-01,3.541680126716025612e+00,-2.739605867022731456e+00
5.010888835443279454e+00,6.439801387049475245e+00,-9.349912687459872584e-01
5.111453274306453354e-01,3.308098122001749797e+00,-3.894444557063025947e+00
3.838004963996227481e+00,6.448582818567956565e+00,-3.184631858371893554e+00
1.140618384298768273e+00,2.324567729630623969e+00,-4.824960117323386477e+00
5.763404047762438864e+00,7.350149330956213589e+00,-2.040902177100933912e+00
4.720891454941100740e+00,6.853933624569958027e+00,-4.030565964348121533e+00
2.542475878100698861e+00,2.575656644182407806e+00,-1.828477814727139661e+00
3.467832011857816088e+00,2.493416181371487461e+00,-4.119998363753121784e-01
7.135099138349922043e+00,5.911901481870230235e+00,-3.776623790432752426e+00
1.790229226073892344e+00,5.361749393101224115e+00,-2.654612667052631103e+00
5.021723849306247267e+00,1.627903179948159584e+00,-7.423292619961374683e-02
6.615204009857729162e+00,6.709604205934648347e-01,-1.891916191840536943e+00
2.184750059978609382e+00,3.483562691991282989e+00,-7.196334480866600769e-01
5.467867063917735138e+00,7.485265972579963289e+00,-1.930382439211504986e+00
1.353218728860962061e+00,5.452053330472247161e+00,1.589525276126630526e+00
1.435976752785441457e+00,3.745216345165644167e+00,-5.176003979715795289e+00
7.673232174625039814e-01,3.598833339538499043e+00,-5.375094354255065099e+00
1.835976798667971810e+00,5.848564657361962738e+00,1.849971412834799711e+00
1.334212793851879075e+00,3.193085289885593703e+00,-2.713692678230421151e+00
4.699056440881802743e+00,7.077775574586155471e+00,-1.726052487964727211e+00
2.469563594385032701e+00,4.352449092371637462e+00,1.406964181292364113e+00
9.142277706259280823e-01,4.821060272226286969e+00,-3.167652299886030587e+00
7.130237307390052681e-01,4.844729916495491118e+00,-1.841734269444125660e+00
2.457831995260623792e+00,1.895231674349615814e+00,-3.258717711747610934e+00
6.822473703664875266e+00,4.175670814170493017e+00,-2.787754968813223488e+00
3.898280582884819268e+00,1.475409075856546570e+00,-3.533519938262788873e+00
2.667416887987642315e+00,6.057909171814150007e+00,-6.299344873036725190e-01
2.633224790225101586e-01,3.192190353491785704e+00,-5.429233807796568279e+00
4.559179966639832493e+00,4.820516212721205562e+00,-7.622196179605879307e-02
6.456348725273669764e+00,-4.143161425055946756e-01,-1.496186637003177333e+00
6.779998695962338395e+00,1.866960324055259024e+00,-2.315186829224513687e+00
4.803684295328630505e+00,2.062404804992074681e+00,1.193292052010708482e-01
-9.223212314472976903e-02,4.139731020585030841e+00,-4.344118923527913623e+00
3.876617434617828817e+00,7.100586068988322674e-01,-3.089283321283234685e+00
2.181713829721417253e-01,3.041849660336942929e+00,-5.397206336783844094e+00
6.263047085109071155e+00,3.944034090682980054e+00,-3.461005717149759686e+00
1.283151023250350242e+00,4.954059910402702549e+00,-3.876370859060898511e+00
5.934631997174147244e+00,1.292872885604525457e-01,-9.429075177398491547e-01
4.396181487884798678e+00,5.176874040423696144e+00,-4.548291462708538901e+00
-2.111030212667570904e-01,3.761270957137964555e+00,-4.264583829597029307e+00
1.493228964593540375e+00,3.796272639514235436e+00,-5.171428481516668008e+00
3.014308310159198978e+00,6.027491831687665780e+00,-2.814457759224271438e+00
-3.730921043196785275e-02,4.145013192344490172e+00,-3.243823754152450611e+00
6.039620887382065817e+00,3.214241456482240356e+00,-1.634646406044546252e+00
4.834373661375272135e+00,1.799619821422051791e+00,1.287200157878007345e-01
2.091184417707562915e+00,4.803997078987142011e+00,1.617907198822124082e+00
3.771182174335329318e+00,9.051594024104285818e-01,-2.899525011548855336e+00
1.448072099286889181e+00,2.279855983967561173e+00,-4.697151040533152688e+00
2.667196233143957596e+00,3.002748640248468437e+00,-8.091227277482955227e-01
1.818586216780190057e+00,5.902274092314815590e+00,2.469043109375093970e+00
2.172823279600513580e+00,3.777393658582258062e+00,-1.843610425825125687e-01
1.128812565885395136e+00,4.911429150771535745e+00,-3.452849038286006422e+00
6.949064256611880097e+00,3.634968341202986508e+00,-2.847726552707237513e+00
2.557699931147206840e+00,2.026543357530484535e+00,-2.840799940576166804e+00
6.344269358657321334e+00,7.604939116645344832e+00,-2.813170513860466571e+00
6.387980157422305183e+00,3.829635883862588130e+00,-3.377917500272227702e+00
4.041638130275905461e+00,3.905618917472529095e+00,-4.267428980425927776e+00
6.268467181162327151e+00,7.750781360466119096e+00,-3.694000814531576360e+00
7.145876898580327818e+00,7.060979350938080046e+00,-3.716196627761714666e+00
6.667113007673501457e+00,7.733760874827414256e+00,-3.240071683604084818e+00
6.280761769572619002e+00,1.433321818567984574e+00,-1.612442870852376142e+00
-1.630231000997042767e-01,3.686145606080386550e+00,-5.746306670592948862e+00
5.573848802709719941e+00,7.430841599037341538e+00,-1.818654605324659501e+00
2.295354933469392122e+00,6.171635759580429870e+00,2.505020235977988730e+00
1.352360584936033172e+00,5.253057518771351297e+00,-1.333393832414742519e+00
4.689000931099553071e+00,3.271630200557464896e+00,4.295141933612105223e-02
4.771874781742381444e+00,7.025023526428309850e+00,-2.637370519745773301e+00
6.070125208681449003e+00,6.349327084808123800e+00,-2.242402021033165660e+00
