-4.320706080687539696e+00,-2.173029730800888348e+00,-2.986876459265851436e-01
-3.035937994067904100e+00,-9.583823220209679583e-01,1.590285662728403882e+00
-2.851749365409585568e+00,4.079355937697622947e-01,9.170513543846268156e-01
-2.440138281191359670e+00,-1.215921503589887376e+00,1.404337292309397300e+00
-3.328841134211657060e+00,-2.103760565182136943e+00,1.458773364959353169e-01
-2.285380502334958486e+00,1.831350632939522938e-01,-1.194389203585572989e+00
-2.085525664761092912e+00,-1.531275902497676977e+00,1.097976328617446207e+00
-2.739271544886092258e+00,1.409800279474339835e+00,-1.449167437525644475e+00
-4.219582726019980967e+00,-1.058021561851770098e+00,-6.607687373876048875e-01
-4.101124478844724308e+00,-2.748626713819050105e-01,4.642111338168513623e-01
-3.074377846526220814e+00,-2.488547529373638656e-01,-1.269564256389662082e+00
-4.074818098261547838e+00,-1.999785441409646314e+00,-4.292571297346856052e-01
-3.172988237668201705e+00,2.690972143974185160e-01,7.066242399835882537e-01
-1.900701718432153964e+00,-1.273158054292366836e+00,-8.141397048564099626e-01
-3.522559363914373076e+00,6.103127127728660284e-01,-1.378715758027234672e+00
-1.981523249892220617e+00,-2.169974488196442231e+00,3.486207858008424365e-01
-5.215235311056353851e+00,-9.024944362080959959e-01,1.084074730104700457e-01
-2.973161268815749381e+00,-1.517008388386901441e+00,9.289613511248355771e-01
-4.108507256290277354e+00,8.975203164294623392e-02,-4.820418297075828029e-01
-2.794774411404371772e+00,2.884592581706125203e-01,1.323205838887590247e+00
-4.975061682439543276e+00,-7.275845626492426499e-01,8.372932812783905054e-02
-2.244936194221069936e+00,-2.110660599275088867e+00,-9.872669221346980217e-01
-4.489584703006792132e+00,-1.092301161905653739e+00,-5.634718793797585112e-01
-1.930971175007299534e+00,-1.018642600332245296e+00,1.749368063344001412e+00
-2.195951540165726357e+00,1.554486097068115136e-01,2.348690195555785287e+00
-3.890978333299005332e+00,-1.003254315621037451e-01,-1.049812445543931716e+00
-2.802295143265909783e+00,-9.895618442165614592e-01,-1.138559745349708052e+00
-2.461331746393755626e+00,-1.831864925217296047e+00,6.561884392564008017e-01
-5.788318166690242350e+00,-1.468327781331823179e+00,3.970689129064099432e-01
-3.119058323628331131e+00,-1.422152886343397649e+00,1.012879915969958855e+00
-2.136059946098857854e+00,-6.955789589096618430e-02,2.427088593861677079e+00
-3.639609992903785063e+00,-1.774971879709739353e+00,4.776583252980204919e-01
-2.609608864438472509e+00,6.737333811322161470e-01,6.632051901232407509e-01
-2.089590095195063224e+00,-5.337381178637248258e-01,-7.303846223430230378e-01
-2.035411620235215935e+00,-7.755492106950404585e-01,-1.084739306493730959e+00
-3.378220299923220260e+00,-3.246576117778818271e-01,-1.149073943998546232e+00
-3.540044157058100271e+00,-4.157608787783934057e-01,1.813065735383796895e+00
-2.908003223274502336e+00,-2.357636667450161649e+00,-7.235828115503523117e-02
-4.056304629270516493e+00,3.812082973296307409e-01,-1.138708860528649502e+00
-3.044710677529341769e+00,-2.697831844861052542e+00,-5.118002375920533975e-01
-4.237115874522793035e+00,-1.232602489857273387e+00,1.007158252236653340e+00
-2.482809366632009684e+00,5.146459152471748455e-01,1.293726813609798576e+00
-3.126132981643327202e+00,2.043378334319456424e-01,9.549042992982578193e-01
-3.708502374030933524e+00,-9.671360887173597876e-01,-8.526210039569669386e-01
-2.285430012540566214e+00,2.167507885525638556e-01,-8.229492986078222883e-01
-2.753154674362226828e+00,1.124090863937125873e+00,-1.778912204726595059e+00
-3.993991810433841216e+00,-1.361526109126447004e+00,9.025051474787901817e-01
-1.632340045419793384e+00,-2.318285577811924902e+00,-8.731513439654290387e-01
-2.879443424805295138e+00,5.782824522716392517e-03,1.897604838873061972e+00
-3.655688978329257655e+00,-1.554291423671241290e+00,7.407385470418470508e-01
-1.470558709907993089e+00,-2.937907406301826008e+00,-7.928026758453530221e-01
-2.161985216070450910e+00,-2.043662331086537054e-01,-1.873644444764517025e-01
-3.515549724137618348e+00,-1.070454502637202987e+00,-8.843889477270806543e-01
-1.625116498462936709e+00,-2.844988529551156109e+00,-3.916237938202423718e-01
-2.977065158140106860e+00,-2.574565839240519072e+00,-3.487732196279204611e-01
-2.475113842447098200e+00,9.849224992216250030e-01,-4.539273016644010950e-01
-2.129216170089067273e+00,-3.308009317556563911e-01,-1.814180394710894206e-01
-2.917244794901790783e+00,1.392971627029406356e+00,-1.719554036650470463e+00
-3.569360013304630375e+00,5.603564800443598948e-01,-1.348846617744184684e+00
-1.758338160896799840e+00,-1.774125966241126173e+00,-2.513074842284798716e-01
-4.446819784446950585e+00,-1.655286786807455890e+00,-4.109418194777880728e-01
-2.287363999809539639e+00,2.305038665467693815e-01,2.365236455605696619e+00
-4.572426438533113924e+00,-3.523495152112515738e-01,-1.675511806941214765e-01
-2.923277089939134932e+00,-1.472623657025782462e+00,9.930189346928066652e-01
-1.940102365468581169e+00,-9.853503111227911448e-01,6.877007540709302313e-01
-3.139061788810979081e+00,-2.381876135972968087e-02,1.516111459226051617e+00
-2.542225152148652967e+00,6.366391920645598779e-01,-1.702990084508204438e+00
-3.041614442556602960e+00,-2.002785482971050524e+00,-7.619354493509460369e-01
-1.951359001425773565e+00,-1.099564017217378176e+00,-1.066261149758082061e+00
-1.493155452804237004e+00,-3.074966383444808216e+00,-6.416157425345981880e-01
-4.069665496984806730e+00,-8.475992032700916390e-01,-7.713389567110472411e-01
-3.467147481525299391e+00,-4.648362559241098202e-01,2.067067972950741073e+00
-2.674811864244661663e+00,-5.078556655829117306e-01,2.210031054580846366e+00
-4.890144305203492081e+00,-1.141826149792119161e+00,9.797463094244291959e-01
-3.087969376652886400e+00,-7.191414193748928430e-01,-1.126228097910454862e+00
-2.379882268642305565e+00,-2.832874944024129427e+00,-7.303189423327564045e-01
-2.251342908361650963e+00,3.059127900423074670e-02,-1.423970307200196572e+00
-4.356593168822360695e+00,-8.340959614703953307e-01,1.445645713750974837e+00
-2.901772383534834354e+00,-9.241640469498519916e-01,-1.125766067847092655e+00
-2.580030289344277250e+00,1.272024011401366117e+00,-1.781007466398695671e+00
-3.091298099788552634e+00,6.221118622333828840e-01,-5.305561763444635592e-02
-1.914785913578270993e+00,-1.253486058073610909e+00,-1.201981935096539278e+00
-3.426504285459213595e+00,-2.153887019688744520e+00,6.486220019245016177e-02
-3.093899965431281096e+00,-1.878824845939102373e+00,4.667639713514172839e-01
-4.126216314620174686e+00,-1.539252896399804893e+00,6.601712930243354149e-01
-3.254845095495655816e+00,-1.984325033265310845e+00,-6.985492052769085580e-01
-4.433465396143721371e+00,-1.365838096242123267e+00,-5.007720671192426032e-01
-3.693618258431459633e+00,-1.812060794995060897e+00,-6.077896612673970855e-01
-3.616286592188196369e+00,-6.000452293047496832e-01,1.901181315053406262e+00
-3.171820996478836197e+00,5.137755986858247859e-01,8.241333255389120260e-02
-4.930295840239208971e+00,-1.596137538106491727e+00,4.227773789072118427e-01
-2.732314736054970439e+00,-3.713602692996240129e-01,-1.343802864330739588e+00
-1.873417305304404978e+00,-1.312058443602329261e+00,-7.158902283787757503e-02
-2.081232555183386790e+00,-6.227832486278498392e-01,-1.360072955338711198e+00
-3.519534137387585471e+00,4.497624893008219660e-01,-3.661614081278148358e-01
-4.329698525023983002e+00,-5.405900837666999074e-03,-6.280596110841594193e-01
-3.036240156070904916e+00,-2.169428679805326166e+00,-7.144350683843211369e-01
-2.533065567663904449e+00,1.112390508761792685e+00,-1.532742051011766415e+00
-2.262758915770533452e+00,3.102675478714365664e-01,1.192507343750246029e+00
-1.909766528958674492e+00,-2.657997944011180724e+00,-9.337616408655720068e-01
-2.780480266266784017e+00,-9.253784950384688068e-01,-1.164565814679555666e+00
-5.927855649120530757e+00,-1.582516063339750589e+00,4.570287048890472187e-02
-2.455120245004109414e+00,-1.452957042042550162e+00,1.114992481886849740e+00
-4.133036338588770953e+00,9.381308891243002324e-02,-5.356388476021323175e-01
-2.904036016282471877e+00,-9.028114486168773434e-01,1.685058415656983888e+00
-4.247425827116518171e+00,-1.838705385679936688e+00,2.731745976359870598e-01
-1.812779973549772716e+00,-2.348234589700703090e+00,1.687914296183062879e-01
-1.866032047535362892e+00,-1.557834135041830104e+00,1.111963094525835194e+00
-2.751905503788744323e+00,-3.672461678475259506e-01,2.363630074154367655e+00
-3.805534529515677278e+00,-2.213558671402791944e+00,-4.530337872587518744e-01
-3.307057791075321607e+00,-1.560982195365310687e+00,-8.067710404235683974e-01
-2.935014026781879171e+00,1.308809666393826010e+00,-1.535433785698767206e+00
-1.939065012295332346e+00,-9.241924695946948098e-01,1.412016091871494572e+00
-2.505910187952537616e+00,-2.383556523986369857e+00,-8.223844937153431678e-01
-2.502690382717435824e+00,9.731704735299917530e-01,-1.771957444481869093e+00
-2.177893949337634805e+00,-9.729201803456830611e-01,-1.345061435863439847e+00
-3.877780468471647257e+00,-1.875639480894790934e+00,-5.295492080452213202e-01
-2.495144655720351157e+00,1.213969464789997066e-01,2.278541634763215473e+00
-2.786802736917272760e+00,9.342884464431835956e-02,1.836436417278558331e+00
-4.687129738789917788e+00,-1.657259323101812232e+00,-3.327761439505764196e-01
-3.280779637130168069e+00,8.279246071115995420e-01,-9.135734684083636203e-01
-4.655277979551542877e+00,-1.338160386362226895e+00,-4.373384680067864405e-01
-2.728975213410720357e+00,-4.113387232242602942e-01,-1.333069208098773384e+00
-3.809776061042863482e+00,-2.542248259335280203e-01,9.245331112269373763e-01
-3.409708568698514242e+00,-1.769476122559578701e-01,1.431368276814993790e+00
-2.031471791182968278e+00,-5.089468754490588109e-01,2.047661025789882849e+00
-1.959014131120727642e+00,-8.025344656200220639e-01,1.905004860441176007e+00
-2.163047899248205397e+00,-2.405272844392343234e-01,2.640185797112378552e+00
-2.231681559512947999e+00,-2.752044960377733940e+00,-4.066701346442614384e-01
-3.858479669906930365e+00,-1.049081514476691623e+00,1.308189711541037692e+00
-2.193965346176428355e+00,-2.356749641867685388e-02,4.448073378407170764e-01
-2.021096981041545781e+00,-6.031123884900571053e-01,1.447932329030934273e+00
-5.668051962013582745e+00,-1.344245363009016758e+00,4.415553375084735888e-01
-2.028847000522358890e+00,-4.973932232906615458e-01,2.289078802275815061e+00
-3.044609008562020325e+00,7.068127549967889722e-01,-1.876193775408659947e-01
-2.305302833755475067e+00,-1.288820326677957651e+00,1.344608725899431256e+00
-2.386929153225517464e+00,-5.490651642111040731e-01,2.220676853532191242e+00
-3.598526425859830180e+00,-1.790395390952576937e+00,4.676557457979350074e-01
-2.186234885438617770e+00,-1.960346368894962665e-01,-1.138952031112510754e+00
-4.213050817124345926e+00,-4.550091134362733158e-01,-8.410401300507057698e-01
-2.640576729497571939e+00,-5.454395823343948652e-02,2.472724982763750301e+00
-2.132924773440055599e+00,-3.334355000710171879e-01,-3.703863206499558580e-01
-3.326136311922871514e+00,-1.852591355602297707e+00,4.497114524877752206e-01
-2.312837021775348667e+00,4.303406009746115757e-01,1.808879114720069126e+00
-4.819301403053004584e+00,-1.419464831812655481e+00,-3.603625712899021227e-01
-3.047035316908886404e+00,-5.619360879707047118e-01,-1.185890442056189098e+00
-5.131614728307710038e+00,-7.106787562524590207e-01,-2.352753940156644408e-01
-4.982655301500371614e+00,-1.280961364182680029e+00,7.923412771714239966e-01
-2.315890656238814405e+00,-2.817146983567400120e+00,-5.029441625925582526e-01
-2.923111660212257323e+00,5.352150653025626870e-01,4.655842390011365461e-01
-5.828600999354437207e+00,-1.376126769632140201e+00,2.403859110890125272e-01
-1.642906234987682623e+00,-3.132806935186767561e+00,-8.796318278277871494e-01
-3.590265433505213988e+00,-1.895378548945354513e+00,-6.165400245416241543e-01
-5.376531092394109201e+00,-1.139878765054517240e+00,4.319179829269004234e-01
-3.864016709011941941e+00,-2.025090722681500033e+00,-4.898367633692656820e-01
-2.803188518216662484e+00,-2.166185454975809499e+00,-7.906328626438902107e-01
-2.102732768915012596e+00,-4.160783885698777218e-01,1.125286357149582472e-02
-2.612909110894864995e+00,-1.636014931501019287e+00,-1.008704769984371641e+00
-1.854144611470306847e+00,-1.390130842548234824e+00,-1.093371304742416505e-01
-2.245396607532559763e+00,1.055126642380955215e-01,-3.353241799734126283e-01
-5.738842294821995260e+00,-1.527716284553374049e+00,3.357430016612497070e-01
-3.177831889409951316e+00,-2.628938261883388527e+00,-5.329588123192641191e-01
-2.109856311113580407e+00,-2.301816226799657528e-01,1.770389311686007883e+00
-2.506300966154499932e+00,1.001743489200495496e+00,-1.609894949961374166e+00
-5.066810134253430853e+00,-6.380877911688754844e-01,-5.113167776680566101e-01
-3.705584865979243858e+00,4.156460598587261024e-01,-6.065257507400931836e-01
-3.114175601770262869e+00,4.487874073565109034e-01,3.502834786648569843e-01
-2.645303973086349458e+00,3.404292150529607541e-01,1.453445107342419718e+00
-3.323337850183464948e+00,-2.237037561616502135e+00,-6.017716642233678082e-01
-3.184072292975096641e+00,-1.256224696072153479e+00,1.199583749275912048e+00
-4.334309104526659517e+00,-1.860425242795180623e+00,-3.866563053201604316e-01
-2.448751822373967268e+00,-2.073488669020073782e+00,-9.324486589724099161e-01
-2.032166276601188759e+00,-8.066114812958955493e-01,-1.290191921845704304e+00
-2.236113662657293055e+00,-8.473518478117120223e-02,-1.588683531832945084e+00
-2.951046406701134384e+00,1.267094510148711883e+00,-1.456899205729759839e+00
-2.485339491418562918e+00,1.046188021103629628e+00,-2.133936392962623718e-01
-3.573947491516779262e+00,-2.419566369844995180e+00,-4.669346655044221972e-01
-3.161512035835848167e+00,-8.824732821247361914e-01,1.655592032373667477e+00
-5.069470215953755243e+00,-1.666871752782711047e+00,3.081702330090745345e-01
-3.078359942545592975e+00,-2.458591922217852499e+00,-2.299975138097336280e-01
-4.290728924546458600e+00,-2.662643732544238140e-01,1.082571937573588577e-01
-2.067562148517489096e+00,-5.799622419214397473e-01,-2.955630459302761026e-01
-1.914184653895294463e+00,-1.003786607761423921e+00,1.598819663679615255e+00
-3.269479091861750231e+00,-8.580608401353646553e-01,-1.026584248291742885e+00
-3.566007963633182065e+00,3.298069559012082319e-01,-1.409824645863949899e-01
-3.261287147865937985e+00,-3.514404184779392759e-01,-1.178912139918628421e+00
-3.686791738728450785e+00,-1.163154676049607206e+00,-8.017156481482531349e-01
-2.505192109781758880e+00,-9.062450197386183737e-01,-1.259094302499675910e+00
-4.521981173994500836e+00,-2.144671732736737890e-01,-4.316198932771071473e-01
-3.241459778121337454e+00,-6.987557441248647416e-01,-1.082697514911188597e+00
-5.093903374985296217e+00,-1.966372729525959206e+00,-1.101224120838546899e-01
-5.181178109754818628e+00,-1.912315444913432083e+00,-9.791765038194034931e-02
-3.114842915570352755e+00,1.567311056344000697e-01,1.096641081705007625e+00
-1.874348315471759729e+00,-1.224031391596810625e+00,8.665674538071057587e-01
-2.487545515578216015e+00,-6.171355069769638435e-01,2.117376280443431735e+00
-3.979185272230156389e+00,2.642670015830847138e-02,-9.218545002128168686e-02
-4.306132651832991876e+00,-5.782597302548126983e-01,-7.745741995974154692e-01
-3.361159035254838834e+00,-2.327227447611217581e+00,-5.629142952750895157e-01
-2.196478029891968831e+00,-6.093653025954892666e-01,-1.446475495530338939e+00
-3.048268020154222935e+00,-5.256918139577106963e-01,2.110137549565087589e+00
-3.162560093877365919e+00,-5.808293658966247053e-01,2.019582870771372551e+00
-5.724098744029644692e+00,-1.408078424492877012e+00,-7.161738337486525663e-02
-3.043113638382800801e+00,3.861283205364526849e-01,-1.467266207095081043e+00
-3.119085992847592248e+00,-1.812593879246442441e-01,1.954271666309227662e+00
-3.012508955634992436e+00,-1.733271272797059837e+00,6.595854825901947827e-01
-2.734794484911525103e+00,-6.769056187869985086e-01,-1.252727613809145435e+00
-3.945643669028181755e+00,-5.123378953208175268e-01,1.345885969767813162e+00
-4.296333226658646254e+00,-1.139998012397300808e+00,1.106545840663480496e+00
-3.249634325725221373e+00,-1.571201397163065394e+00,-8.222906157253127013e-01
-2.714585165499735275e+00,2.015235403819311544e-01,1.686957784570390695e+00
-3.785537598323138742e+00,3.043753762912264627e-01,-4.625417855858635630e-01
-3.511372528217279854e+00,7.952453848955465254e-01,-1.236067551593440506e+00
-2.738189959902003867e+00,1.109615438357986761e-01,1.877181203759481276e+00
-4.837717185781290397e+00,-1.399816886708200148e+00,6.792434175322712431e-01
-2.166931923175804631e+00,-1.078339108248155265e-01,2.799587423158656385e+00
-2.983654093175672983e+00,-1.109992729259498878e+00,-1.044427086245744762e+00
-3.289785478532023522e+00,-1.690538019658256674e+00,6.530048627943504380e-01
-3.067078969028695923e+00,9.092837162484886937e-01,-7.454299292099376695e-01
-1.955639508561487050e+00,-1.058482548699667625e+00,-7.940386580440713660e-01
-5.967177296122408769e+00,-1.588790695813093956e+00,2.140917939768652578e-01
-4.241107312232287541e+00,9.601805755996632719e-02,-7.316256168661625647e-01
-4.569274112309483549e+00,-8.405847512574968761e-01,-6.121152338078665878e-01
-2.508487292023540594e+00,2.923546099810731547e-01,1.817466724454720906e+00
-2.326951443397430097e+00,-3.912140427392725162e-01,2.423853770193462598e+00
-3.066875469145087241e+00,8.484883433722762991e-01,-5.894626666380721192e-01
-4.078943344544733840e+00,-1.097002919094636431e+00,1.204071245615276453e+00
-3.473596903674287972e+00,4.424005142499406462e-01,-2.664098151860770924e-01
-2.371769365425202114e+00,4.886658930531770917e-01,-1.518877242281361672e+00
-3.595986593029617762e+00,-5.678981738646211586e-01,1.944255599441680804e+00
-1.713616013042784658e+00,-1.897849085480445952e+00,2.994663426011343055e-01
-3.434627612445988021e+00,-7.323989834145026023e-01,-1.010394195687186913e+00
-2.394379630901901646e+00,5.671153503048278477e-01,-1.620652778726529908e+00
-2.994283931660885134e+00,-1.428610586008965067e+00,1.031262666410027951e+00
-5.192050927914144687e+00,-1.060088968376651231e+00,5.526128236567463548e-01
-2.043422720740188048e+00,-5.762568417630689055e-01,7.850448252698367657e-01
-4.518426209954973238e+00,-1.745597531085275600e+00,-3.611413445089449170e-01
-2.989428538366675880e+00,-2.242537957259707060e+00,-7.079475201976448417e-01
-2.083195683888175775e+00,-3.536501462871022849e-01,1.546273877965786969e+00
-2.666442771168554327e+00,8.809573300166805288e-01,3.270465906831153402e-02
-2.354555423404103731e+00,-7.845454448703894634e-01,-1.343683270452457501e+00
-2.175712989638882711e+00,-9.523306304607412343e-02,4.343232706413935884e-01
-2.149818295997287798e+00,-2.206699663491624719e-01,1.553525647712377666e-01
-4.462547264916991274e+00,-1.933413952873679342e-01,-3.810127513308700919e-01
-2.013103660774629322e+00,-7.339724738664109571e-01,3.378710276769184562e-01
-2.967652710264804483e+00,-3.573292078755783696e-01,2.330336375703468299e+00
-2.415207576755555419e+00,-1.335109817097311691e+00,1.265657909509104728e+00
-1.994697675616995181e+00,-7.123294256341875519e-01,1.370941397346791213e+00
-3.799907486671559642e+00,4.274009464766291289e-01,-8.027413466894715022e-01
-5.744743352042346096e+00,-1.538934199425063598e+00,3.209601252235728674e-01
-2.585452226454779456e+00,2.303425577995236312e-02,2.371249186817528720e+00
-2.313549903932890395e+00,5.025180879704267412e-01,1.141958478206425820e+00
-3.151365296093170176e+00,-2.150185115956149140e+00,1.270610400106645388e-01
-2.110898566649914709e+00,-2.603296253646379954e-01,1.390475433014125795e+00
-2.056327400403632044e+00,-6.865331788335786722e-01,-9.961248739434219734e-01
-2.943795324158665849e+00,-2.095517904766374340e+00,2.366191943625191585e-01
-2.704561985274663627e+00,-1.570888169806286871e+00,9.202627952955547697e-01
-2.145015487451724656e+00,-2.078098545015752974e-01,5.050732213368216428e-01
-2.518987139549659471e+00,1.123159039587463326e+00,-8.068623597106233669e-01
-4.581193409172662712e+00,-4.873906356935121531e-01,1.626523480247499542e-01
-1.918931062897494932e+00,-1.109009185300649181e+00,2.251028231271220148e-01
-3.568640676107232235e+00,-9.057882217508941292e-01,1.542018237617938992e+00
-2.546888155842501611e+00,1.164807987704606695e+00,-4.832565799592823397e-01
-4.261577035132612323e+00,-7.584880723355549859e-02,-3.277765277811759415e-01
-2.211139172695169908e+00,-2.008674889621000700e-02,-2.560060820228066136e-01
-2.237347951245373778e+00,2.917548717973805772e-01,2.080957214723318405e+00
-4.758844580575035010e+00,-4.735507247244788998e-01,-1.856647257985837018e-01
-1.991109723086328165e+00,-8.920367873591105168e-01,-4.716525965081656002e-01
-1.787716837548299686e+00,-1.569722175556705235e+00,7.552044994086852814e-01
-4.101635307519027052e+00,-1.425788183180048074e+00,8.023283334495048269e-01
-2.581911627693428191e+00,-2.987983045321170872e-01,2.481943118205169441e+00
-3.466089618191162902e+00,-2.126374476224058618e+00,-5.883808415954399074e-01
-5.598625802467171120e+00,-1.423009484959266491e+00,4.915879630342905315e-01
-2.349883476810914029e+00,3.968143118478726361e-01,-1.597230848169244100e+00
-2.345240085288294640e+00,5.672661169181129059e-01,4.969429731009403772e-01
-2.324721976937432100e+00,3.490532674783132783e-01,1.996005459371153590e+00
-2.621397703975310467e+00,-1.142400153971494525e+00,1.455076927653167207e+00
-3.813792204139728970e+00,-6.792987528967027178e-01,-9.036714703353256883e-01
-2.392810976975918713e+00,6.362834251580442579e-01,-7.844421612731115045e-01
-2.724920770835012274e+00,-1.157870738064781246e+00,-1.113812099060465188e+00
-1.724886079345292922e+00,-1.844755307960141311e+00,4.042153503438332129e-01
-3.770078432408781044e+00,-1.586641116783025884e+00,6.776779407052692106e-01
-2.823873840521622824e+00,-8.693933145570229559e-01,1.742227582224092686e+00
-2.648516836379582795e+00,6.576247114723953180e-01,-1.674874600650457790e+00
-2.410252766207801045e+00,-5.953602197715156530e-01,2.159885589880759849e+00
-5.356338364239570105e+00,-1.529416513990423221e+00,4.139462888047147349e-01
-3.487710042365184115e+00,2.007238576150711246e-02,7.897033036630762837e-01
-2.014347835874050752e+00,-6.158669594852871354e-01,1.596804963263940946e+00
-2.546132355600778219e+00,1.228463622601747796e+00,-6.448552340420339313e-01
-3.005147510859479620e+00,2.136387959382997637e-01,1.144187074866174880e+00
-3.177373325291300343e+00,-5.643736998283682693e-01,2.036343681165845521e+00
-4.715932383895184543e+00,-8.720218204569677445e-01,9.098225816394349685e-01
-1.869498656525932612e+00,-2.722455830020977796e+00,-2.949511806897677779e-01
-4.556501534500044137e+00,-7.666045235438833094e-01,9.208037244327905713e-01
-3.544664511591503864e+00,-1.284322295271200343e+00,1.089999453171102584e+00
-1.687410055423563593e+00,-2.927962363803855883e+00,-5.048783216812080532e-01
-4.651556633418063136e+00,-6.525555164120948604e-01,4.614710369971920523e-01
-3.006285610399003883e+00,3.966662383713281392e-01,-1.482269426685404179e+00
-2.598030386102313738e+00,9.873907140852060671e-01,-1.192237535203001936e-01
-2.894270436454218220e+00,4.612026853654874747e-01,7.058200981545498243e-01
-3.040196811859126491e+00,-5.937022302152911157e-01,2.029713932394396458e+00
-2.150559382949611908e+00,-1.862788516619513779e-01,5.056304849236308296e-01
-5.281703398529269400e+00,-8.791870651238206102e-01,-3.707057410415865450e-01
-3.131871978731228356e+00,-1.025767783860570992e+00,1.488794474934942214e+00
-2.205185192962299645e+00,-9.819463516423355687e-01,-1.333583771935934026e+00
-2.087150254941408267e+00,-3.116591165115656370e-01,1.842638948509981001e+00
-4.149425873508023166e+00,-1.358276992399821692e-01,2.327187653605053766e-02
-5.906587518976479600e+00,-1.499868891419575467e+00,1.441810055047089596e-02
-2.141047820511543076e+00,-3.888720281374046239e-01,-1.336226524749209332e+00
-4.519820546448474197e+00,-9.538687572621660227e-01,1.284390285144702881e+00
-2.188066121483279947e+00,-1.196100554965974228e+00,1.481158746779769997e+00
-3.621400046024298991e+00,-1.857804030362227854e-01,1.081128688277356531e+00
-2.388396193915631738e+00,-2.533851126613678950e+00,-1.761001877434462126e-01
-3.634915414854146043e+00,7.261561025372014200e-01,-1.276823408367824708e+00
-4.927179995253274214e+00,-1.066609987197262077e+00,-4.297869687221929080e-01
-2.014320035106788254e+00,-7.217462360486844863e-01,4.213649205477555393e-01
-4.316048595208058281e+00,-8.156676791642867297e-01,1.469887859763909121e+00
-2.122513403761949746e+00,-2.700493174786428585e-01,7.823322905959686491e-01
-2.966236901467093734e+00,6.074158615450413468e-01,2.048270929398824103e-01
-3.448245440027999376e+00,4.784682678893109053e-01,-3.140760833751320980e-01
-1.707424170872900104e+00,-1.991821302411604711e+00,-4.782304234880737637e-01
-2.412709046419275083e+00,6.599054821503987922e-01,-1.378729388075541573e+00
-3.138948120475969272e+00,4.630556927817837398e-02,1.336824877191337579e+00
-2.005303785022751750e+00,-2.372308994989347664e+00,9.932857900592845235e-02
-2.140279124001482902e+00,-3.217646426951643601e-01,-5.573620643838116395e-01
-3.778691895045545479e+00,2.326300050159634814e-01,-2.668486788868885684e-01
-2.767957501926147756e+00,6.018770941936729679e-01,5.682290149778518318e-01
-3.131546037411178318e+00,-2.028164352804893156e+00,-7.254031830810324655e-01
-2.322031611283538854e+00,3.472480199113170407e-01,-9.487762446829968166e-01
-4.423988181539322717e+00,-2.522645459896132314e-01,-1.622826868775367748e-01
-5.658729966890594376e+00,-1.377704179066855161e+00,5.336795413310899683e-01
-2.813052775254870408e+00,-1.778281918908760861e+00,-9.020559891270705233e-01
-4.556068904028445665e+00,-6.877397443900067353e-01,7.197073018092192687e-01
-3.502934480943372009e+00,-2.175806973041099379e+00,2.235919728978676135e-02
-2.618547032082994441e+00,4.650068062029450444e-01,-1.627640422749380589e+00
-4.425827693701035237e+00,-1.357748083798880678e+00,8.164599040974467314e-01
-4.080238122123259537e+00,-1.816851580734748506e+00,-4.815558906842118958e-01
-4.783119383954276493e+00,-8.774827559191717974e-01,-5.321746718201044724e-01
-3.089291199439146762e+00,-2.965051497679128678e-01,2.301725960694625428e+00
-1.998861437972019539e+00,-7.688872695648057976e-01,5.631245016822346017e-01
-1.886517554865160706e+00,-1.113464695831053008e+00,1.571295525894599088e+00
-2.774405193752382814e+00,-1.290012502621886270e+00,-1.058794450071163684e+00
-2.500126901102059929e+00,1.015181085279023954e+00,-1.194711198758517057e+00
-4.292221768556778727e+00,-7.530319040492648719e-02,-9.276659130140212373e-01
-5.382569942321959289e+00,-1.085579685056305088e+00,2.823006374190861756e-01
-3.079698061808564979e+00,-2.320372537467000118e+00,-6.338949787482840714e-02
-2.097528896752735239e+00,-3.979985848640873458e-01,4.362495579010980951e-01
-2.593848793723088075e+00,-4.789555942518035070e-01,2.261913066277297268e+00
-3.076896318270987862e+00,-1.979295442519642512e+00,3.490214859132446112e-01
-2.062476865832377104e+00,-6.664462485927233892e-01,-1.037691088418469132e+00
-2.444492632983470859e+00,9.243974766613587413e-01,1.919891938969146561e-01
-1.687023952067412846e+00,-2.054015827575222719e+00,-2.909770406209988280e-01
-1.624421194591286310e+00,-3.225791540687502845e+00,-8.581269337451370438e-01
-5.397410728737606078e+00,-1.655146616399874926e+00,-1.040896443898115392e-01
-2.010786039926375501e+00,-6.361168891826025629e-01,1.525136219379357838e+00
-2.445536010278661632e+00,8.660343551633714609e-01,-5.015277962061115424e-01
-5.131465402787041441e+00,-1.965048077839561147e+00,-6.486137047709612802e-02
-3.019774459483978823e+00,9.480683625213055521e-01,-7.613848028303136228e-01
-4.521649301434905510e+00,-1.000139301111597545e+00,1.228138623703394661e+00
-2.258871100162206602e+00,-2.435727773357907605e-02,-1.599175315580930290e+00
-3.429639174166751570e+00,-1.032399594176705460e+00,-9.233682291685845200e-01
-2.202494042756699244e+00,4.754178577829416830e-02,8.678045601382537999e-01
-3.014156490917696996e+00,5.048516940580245471e-01,-1.511692205814113343e+00
-2.872245150305083428e+00,-1.826539983184015448e+00,5.764008842356432849e-01
-2.309136735365301174e+00,3.629761793989622620e-01,-2.187432358528679233e-01
-3.450937066686801558e+00,-1.745073956366436363e-01,1.352507567547050815e+00
-1.475069863688421634e+00,-2.901487638190149987e+00,-5.823172032623712413e-01
-2.124930509150984026e+00,-4.618993514966022729e-01,-1.453777608606898530e+00
-1.675470869529498197e+00,-2.878514811227853354e+00,-9.442501883973629662e-01
-1.922925144096817363e+00,-1.154154705762640454e+00,-4.485824714829376170e-01
-3.217543649899141212e+00,-4.236777894354759599e-02,-1.284351340815271136e+00
-4.979018992239208963e+00,-5.490157589790330972e-01,-3.802965116453132510e-01
-1.913825465474466858e+00,-1.023524115196671413e+00,1.747071504245857776e+00
-3.998327865393631164e+00,-1.252588983670466005e+00,-6.747140017160971892e-01
-2.331291881716246461e+00,5.523341377604797930e-01,9.316053273335128670e-01
-2.102771736462484942e+00,-6.704895711408508374e-01,-1.458668683639026575e+00
-4.000269923550566098e+00,-1.389716470584840824e+00,-6.335721173382639071e-01
-1.931765407276566426e+00,-1.081541017819233508e+00,-2.228265453009433544e-02
-3.497040574352110465e+00,-1.311144494943495387e+00,1.067606162081525811e+00
-4.318820725777124281e+00,-1.788845691666864357e-01,-1.648733245113339074e-01
-2.236538807409895302e+00,-4.787728382884374190e-01,2.337103765806251676e+00
-4.629316884217152150e+00,-9.448400352068706542e-01,-5.619280535793558240e-01
-3.340383740916806676e+00,3.860953777816817922e-01,1.123314668878333394e-01
-4.324022352196711161e+00,3.720321103187344478e-03,-6.414213204202082741e-01
-4.685900823522739955e+00,-2.643848189153430450e-01,-7.447036023963712337e-01
-2.167356230149402929e+00,-2.914621641512462474e-02,1.528584059011625529e+00
-4.118362701831340900e+00,-1.492480302336206988e+00,-5.650844353145320076e-01
-4.671274394079184766e+00,-1.747742926207433767e+00,-3.111611974282771920e-01
-2.579495984583332291e+00,-6.690496010794237947e-01,2.035401336351480683e+00
-2.464449111370293988e+00,-1.145590719234930610e+00,-1.201532271106984906e+00
-4.156555925097539905e+00,-1.751123948724830681e+00,3.979882638898844527e-01
-1.854504363643233900e+00,-1.414431067763968652e+00,-3.948764197154215894e-01
-2.909330136141875744e+00,1.902326141217378086e-02,-1.401994795244162484e+00
-5.499024004372787822e+00,-1.182417585891466061e+00,3.250541696409167680e-01
-2.853345374334617990e+00,1.062446834212461999e+00,-7.610144022906188965e-01
-2.464061795341295991e+00,8.504606552142918163e-01,-1.472307971021831863e+00
-2.735437760729113155e+00,6.348305596963689235e-01,5.411592556763649142e-01
-4.981388223855601538e+00,-9.156695995914386765e-01,5.539997279562477450e-01
-2.137441074677837616e+00,-7.507951712013512247e-02,2.306256185119520019e+00
-3.219094461267758334e+00,-1.655487113898974072e-01,1.737916666148771272e+00
-3.497394917879465659e+00,-7.352659799602427881e-01,1.762858750179000955e+00
-1.755286316323187323e+00,-1.834762036790288819e+00,-7.937458986194461108e-01
-3.030568431851942357e+00,-1.118698683637934455e+00,1.397843195485212853e+00
-2.348829744815835507e+00,6.313414758185343922e-01,1.054444223142670278e+00
-2.451055167279701408e+00,9.282662101470495752e-01,-4.759645791952198113e-02
-2.057497749267099163e+00,-2.759549938953109294e+00,-3.791849080224577451e-01
-2.666962088978755308e+00,1.152858861605388752e+00,-6.641557750936027960e-01
-4.008442150590392217e+00,-6.982522146973453303e-01,-8.352298159078365147e-01
-2.124964840264526256e+00,-1.990011685775959105e+00,5.358147632362019186e-01
-1.804538370239461731e+00,-2.006885837458815214e+00,-1.160107879093706940e+00
-2.906478821419828940e+00,1.250972060234876171e+00,-1.337137064519055230e+00
-3.091086100291128513e+00,-2.171357834470866610e+00,-6.961583493445625548e-01
-4.148656011351014250e+00,-2.039668556855936288e+00,5.125142731096878762e-02
-3.848232388794568859e+00,-2.406812841235920875e+00,-3.290114745654038053e-01
-3.817003632231203092e+00,-2.562150525307065885e-01,9.168974343058272636e-01
-2.704280414332613347e+00,-2.168936480273208733e+00,1.982266953247270591e-01
-3.761988642908295155e+00,-2.524863988829339490e-01,-1.046499523322782288e+00
-4.710798256279335128e+00,-8.013917699195163280e-01,-5.780045966585283246e-01
-4.169817103126612245e+00,-8.539413856004102188e-02,-9.642022407433049613e-01
-5.177472258890034595e+00,-6.966761536375589703e-01,-3.518836308876024943e-01
-2.073728348428516721e+00,-6.375622970669139189e-01,-1.201185839621392804e+00
-1.450592385153052666e+00,-3.013971904575703853e+00,-7.783696251089227136e-01
-2.420653765502869259e+00,-8.206268152724057741e-01,1.885711998833696779e+00
-3.552801661270140965e+00,-1.701599821372350441e+00,5.844631208135923073e-01
-4.416564806960227685e+00,-5.348890075079378859e-01,5.741835947555877784e-01
-2.370463646334732832e+00,6.767384547257158101e-01,6.273979325627625503e-01
-1.602311382737168444e+00,-2.759674961092768886e+00,-1.002981107454876897e+00
-3.854374489713170426e+00,-1.545418331323348937e+00,7.097643117841626603e-01
-3.184205957311842639e+00,8.732385940366911292e-01,-1.565634055690043436e+00
-3.567604182763556508e+00,4.658759477097614843e-01,-4.920693414176032787e-01
-3.078194194716262544e+00,5.489583782364835240e-01,1.572640588699318054e-01
-3.685686001122761901e+00,-1.384114368003220186e+00,9.399197259090669165e-01
-1.808599646459906785e+00,-1.454654423604582636e+00,1.134751599403162725e+00
-4.577754570825513625e+00,-3.633160687972953329e-01,-1.488660529269655308e-01
-3.278452416975753181e+00,-3.882407636523107497e-01,2.203362409165993352e+00
-1.807440474444200529e+00,-1.618621467699972394e+00,-6.375020142571753423e-01
-4.103191389807522071e+00,-9.718462807251188051e-01,1.350100134227153248e+00
-2.265690005986411570e+00,2.425961534086749083e-01,3.142636307601789358e-01
-3.465992815360265933e+00,-5.502791684540796480e-01,1.992804153173643122e+00
-2.068171397627344366e+00,-5.985304583372793585e-01,-5.281456751453337262e-01
-2.141731051196916535e+00,-2.128717673788370623e-01,5.902460654668498785e-01
-2.912040460007510490e+00,6.938482862149191188e-01,7.905392085285878334e-02
-2.276208240211892164e+00,-1.402416053582694611e-01,-1.559339587047192444e+00
-3.058500937532260711e+00,7.468889029217941067e-01,-3.146638626959146756e-01
-4.344037888692760419e+00,-9.958083178814036707e-02,-4.122697025835913576e-01
-1.704528994423939681e+00,-1.909514073783521226e+00,5.611149891607004614e-01
-2.380994757403464668e+00,-2.817870914382143432e-01,-1.483689560589820156e+00
-3.476513803624655008e+00,8.888539149698853059e-01,-1.414267427097531504e+00
-3.517845809497603504e+00,6.109250132769158403e-01,-7.756914534553415175e-01
-1.564741083007524569e+00,-2.530692010947958703e+00,-3.228534512982773608e-01
-2.720652077984688333e+00,-2.726449990683772917e+00,-4.783610445021255764e-01
-2.238648515665828231e+00,-1.569015111678657926e+00,1.020281355032477855e+00
-1.689395091642567737e+00,-2.558635545347964335e+00,-5.936242364152810591e-02
-2.158271184429316758e+00,-9.736217144531747469e-02,1.161696472080971931e+00
-4.310525774241345864e+00,-2.022045025678762542e+00,-3.465833822396470754e-01
-2.982702991193430631e+00,-1.610984099880781173e+00,-8.967141089544311550e-01
-2.626880924274102025e+00,-1.744498800143060580e+00,7.269408169818747378e-01
-2.302344947436703482e+00,-2.254947266892206148e+00,-9.261026788912789520e-01
-3.152535696976984880e+00,3.771229040991772030e-01,4.661496162987263103e-01
-1.689258775418486680e+00,-1.989289135124694186e+00,3.321009421626891500e-01
-2.402110187109701034e+00,-5.990970288297190471e-01,2.157082152810801290e+00
-2.297535280543227643e+00,3.762771009726468274e-01,4.286219005157677064e-01
-4.452275414129749365e+00,-3.306795056425860246e-01,-1.139730104386436210e-02
-5.336398599375232088e+00,-1.286788631141104089e+00,7.110836402579596704e-01
-4.610543400474798048e+00,-5.880479835437869562e-01,3.685964417574985608e-01
-2.500428783300181479e+00,9.923882156181563774e-01,-1.461007387876765540e+00
-4.075578882319532248e+00,-6.130836103562037342e-01,1.374897694221424382e+00
-2.836901690793605546e+00,8.262672309270464588e-01,-1.275388200065059041e-01
-3.774330726110392664e+00,-2.816516117590693313e-01,1.057162454136614471e+00
-2.505949442630565294e+00,1.116784008060606403e+00,-3.163124751134620549e-01
-4.325349270388421985e+00,-5.576191642848364882e-01,7.930185125071255170e-01
-3.745814906234562258e+00,-2.033914731399318665e+00,-5.253905403164131904e-01
-4.180813694432730543e+00,1.032002012546952840e-01,-6.438148490580868355e-01
-3.761928444633866331e+00,-1.580073935708262933e+00,6.873172964918971006e-01
-2.073904882159777419e+00,-2.973885960578183663e-01,2.571565396026031181e+00
-4.384849542984944115e+00,-2.453759028691257782e-01,-1.109804912924912262e-01
-4.211876828869216105e+00,-1.713984143956413408e+00,-4.694496073585339713e-01
-2.869472502509624157e+00,-6.230973383779818686e-01,2.030042724919649100e+00
-5.425040294201392221e+00,-1.399983311845984790e+00,5.558115624041646274e-01
-2.712874370372674981e+00,1.306800920850474723e+00,-1.139042585556286014e+00
-3.820402945306175635e+00,-3.600899958349217944e-01,-9.958488130800371430e-01
-2.470395010408796832e+00,7.584819869745560439e-01,6.914811454315967776e-01
-5.392482521491523073e+00,-9.903489678440458022e-01,-3.020979906335810594e-01
-2.361731594981649973e+00,-1.115042234599300741e+00,-1.243719793690778452e+00
-4.647426665613396679e+00,-1.751723736992675473e+00,2.942705924303519183e-01
-3.304576102218416356e+00,-1.752907576547106494e+00,5.745953071711256133e-01
-2.041843685726730140e+00,-6.909887630915114709e-01,-4.219794742268673238e-01
-4.873705429964553026e+00,-6.074044940135369108e-01,-4.536110886258318264e-02
-1.706314449796067390e+00,-1.929389303196434646e+00,2.633607573182238926e-01
-2.376037048697614118e+00,5.558786687422835326e-01,-9.557051664060963736e-01
-1.829591927301700727e+00,-1.559992905555777964e+00,-9.397910893682852596e-01
-4.049369973773918829e+00,4.151779586295605007e-02,-1.040584673239373092e+00
-4.148760555671125339e+00,-4.019577529389353754e-01,7.056170667458041557e-01
-2.319108748550884780e+00,-1.015746032819883515e+00,1.671427218873192677e+00
-3.207220932575719274e+00,-1.598715779768459466e+00,7.811963446179104320e-01
-1.770666872423662275e+00,-1.802715725814344250e+00,-1.099892833418944837e+00
-2.040036518184839665e+00,-8.959857631395504729e-01,1.874582454700948642e+00
-4.479202234741085142e+00,-2.115647376816300884e+00,-2.644718068671631506e-01
-2.603334919202158204e+00,2.722307525164144870e-01,-1.575595071475739406e+00
-2.312391180027045134e+00,2.734029341807645563e-01,-1.354305821257156817e+00
-1.841124401624763207e+00,-1.458660704381985695e+00,-3.102672851672292342e-01
