-1.042327043375728790e+00,-4.137522799697516129e-01,-2.469196896438781152e+00
-1.976550072635557598e+00,2.172376062277399988e+00,-4.496514730557173323e+00
-5.296006454847289602e-01,2.155450570748738581e+00,-4.448307581449216563e+00
-2.970968110230636672e+00,2.013209869245085493e+00,-6.329710816089602510e+00
-2.147849913836301639e+00,1.867709720855851518e+00,-1.241554555112455160e+00
-2.845420596667342372e-01,4.161394517850964259e-01,-3.668211351769398387e+00
-2.424011261576237253e+00,2.106192910386072370e+00,-4.325179070872388287e+00
-1.010269809454486634e+00,3.894063596155827867e-02,-2.343450155425947035e+00
-1.261207453163644576e+00,1.140432764123206377e+00,-1.883302315890011291e+00
-3.554873443693721269e-01,5.428133295429549143e-01,-3.768679561849445303e+00
4.260982296466869768e-01,6.618410142568434962e-01,-3.165702192796951309e+00
-1.370369290021690611e+00,-1.807422984546353639e+00,-2.748822320531116858e+00
-3.625291974647050219e-01,8.588003912351718783e-02,-2.632463550329850577e+00
1.172609027281354965e+00,2.652963201256091086e+00,-2.990537312668884784e+00
-1.662606298068330268e+00,2.231770093380590403e+00,-2.242348414164363923e+00
-7.387661966634436750e-01,-8.058941364596023949e-01,-2.733425683670967388e+00
-1.099894171799508658e-01,1.239448682560407189e+00,-3.798597560978286936e+00
-1.232728986731167209e-01,2.165693554870727677e+00,-4.117655824685541255e+00
7.781603288116970552e-01,2.474297461363183626e+00,-3.479213631814459973e+00
-3.221772498058242729e+00,1.135545716867096600e+00,-1.511539384208389514e+00
-3.880123474777751325e-01,2.411591980567204363e+00,-4.324579322888514099e+00
-1.722214796038354923e-01,2.214172810255645718e+00,-4.174026311013758317e+00
-2.278300713161298674e+00,-1.973292507572091681e-01,-1.822568882215305663e+00
-5.667147266619081414e-01,2.395545045318933752e+00,-2.353491053917339038e+00
5.436572644334021209e-01,2.403860405286512680e+00,-2.336396794886977268e+00
-8.907783405680491651e-01,1.156487878716933926e+00,-2.051937824806275401e+00
-2.074602566284847460e-01,-5.155383927138563749e-01,-3.294894366308458000e+00
-2.489150057301549257e+00,-6.048059839366846935e-02,-2.191936687173669629e+00
-1.818338498699825778e-01,1.183316894651990969e+00,-2.375892470423238922e+00
-2.057260631721673061e+00,-6.770371096931885324e-01,-2.944753467139762382e+00
-1.164414869271954256e+00,1.627284063429949246e+00,-1.777276293557432219e+00
-3.313220771652654939e+00,1.411456080793547230e+00,-1.929729971109098052e+00
-1.274055018865680511e+00,-7.555728087408135341e-02,-4.318157463842977606e+00
-2.995540297387121242e+00,2.034804352441934139e+00,-1.697872322934969480e+00
-3.529770107746635244e+00,1.956994932310935020e+00,-1.272071671300690099e+00
-2.492549326196340953e+00,9.134659532071590093e-02,-2.770015923705674066e+00
-8.305516344008064822e-01,1.232490097721682942e-01,-2.401470803674658150e+00
-1.582074988660849169e+00,-1.306304361129042135e+00,-3.968130494596760371e+00
-1.673221926487953537e+00,-1.216951710590087776e+00,-3.647266832766001610e+00
-6.838252676873831648e-01,9.201305091043454620e-01,-4.164143656700441731e+00
-2.033470864928654365e+00,-6.505388715609350392e-01,-2.078259255406185613e+00
-8.382799529107547443e-01,1.368816453212786222e+00,-2.010517725562107394e+00
-8.611079973361258910e-02,1.214988088633012220e+00,-3.770828536282735843e+00
1.413297848072907037e+00,2.690575702135364455e+00,-2.713938920594161530e+00
-3.343855350272928018e+00,1.487586040104669438e+00,-2.005059962112444083e+00
-1.580502001029003400e+00,2.231915540664695996e+00,-4.472136712603449915e+00
-3.676477128663112381e+00,1.916744855513785373e+00,-1.243743691202801260e+00
-4.183122325658072960e-01,2.166103694416535053e+00,-1.959435464996850618e+00
-1.600581611929326131e+00,-5.175494294907857507e-01,-2.239808437723639134e+00
6.193637042052640984e-01,2.033990143064668299e+00,-2.486899565986152361e+00
-2.995046890977596910e+00,2.038330311270893702e+00,-1.065407785070793922e+00
-1.550320198863138321e+00,-1.573257092757395892e+00,-3.142871437875589535e+00
9.651163721114038863e-01,2.213070847843238376e+00,-3.238605878989683440e+00
-2.277897843195140215e+00,-3.987597924004621097e-01,-2.414338474961352787e+00
-2.668900595666798825e+00,1.026219692101145720e+00,-5.176996305729469228e+00
-2.385769172898520196e+00,-2.960992790928489993e-01,-2.022332692651064967e+00
-2.656519493065417237e+00,1.094223569737929225e+00,-5.539023389106431772e+00
-1.167688816203351188e+00,-5.824676933034683701e-01,-4.062073498928569393e+00
3.607501079945922839e-01,1.504493773005869839e+00,-3.499756111081255838e+00
-3.313235973495559872e+00,1.431917960508652943e+00,-8.308298994708480656e-01
-2.444210992831497897e+00,-2.141873063516545883e-01,-1.750045454555957836e+00
-1.486229193762261591e+00,-1.786900982794913384e-01,-4.458285300003496765e+00
-3.092041196833029026e+00,2.007303867336521108e+00,-4.084406298540224967e+00
-2.645284690966490437e+00,4.506648312568690695e-01,-3.065149247711306035e+00
-1.376607830111126640e+00,-1.835613008616841624e+00,-3.388575420639340141e+00
4.381301433083109598e-01,2.103204220548565928e+00,-3.635313937196118061e+00
-1.790130589563832197e+00,-2.375941856500592420e-01,-4.688539724335446301e+00
-2.223222512558979069e+00,2.130679874839976673e+00,-5.356879132764991169e+00
-6.632971729711613085e-01,-1.248468180892565060e+00,-2.906425665948902726e+00
4.020960619842916528e-01,2.386630263369080573e+00,-3.759227491056145620e+00
-1.878416638291404261e+00,2.196787129308424458e+00,-2.720888819897237632e+00
-1.934454678803475991e+00,-1.072834362538959585e+00,-2.282726528057922533e+00
-2.573948636890484032e+00,2.060347314345893910e+00,-9.819289059718151469e-01
-9.645975946386193822e-01,1.746255873170786677e+00,-4.669808749539980042e+00
-4.062424896293473364e-01,2.416865312253291265e+00,-2.857390671767949364e+00
-2.683540768439598434e+00,2.073186305443884159e+00,-3.240096777980578491e+00
-2.667473956068456165e+00,2.401679172562678488e-01,-2.064191547485275002e+00
-1.408189292015338490e+00,-1.564640511395148037e+00,-3.933056065186603334e+00
-1.267963161106536729e+00,2.283730561914440571e+00,-3.567982008091959312e+00
-8.005286224854660793e-01,2.354215146478112697e+00,-3.500130059277141825e+00
-2.328008661432696691e+00,2.139510519299363533e-01,-4.477350075457755985e+00
-2.732147891325469757e+00,7.945621146251515832e-01,-3.787487467875942926e+00
1.289357977700633207e+00,2.316975327902681236e+00,-2.712941231417221211e+00
-6.118661868405494975e-02,2.462300439184519352e+00,-4.015808956050815226e+00
-2.077541068984839701e+00,2.159749112815739114e+00,-4.034526694950010040e+00
-2.696882664243915873e+00,1.671366866438870780e+00,-6.069080402412409647e+00
-9.359162516935884968e-01,-2.104300605157044313e+00,-3.365249561777031495e+00
-7.161563943703015411e-01,2.074908539650722528e+00,-1.848188179349883109e+00
-1.618370746934423288e+00,1.716221323158243051e+00,-5.197311767880122169e+00
-2.709084029011902928e+00,8.930014363267240185e-01,-4.349668915944822523e+00
-2.537107874966951115e+00,4.858973588071147098e-01,-4.007339681580394775e+00
-9.200259267311147182e-01,-3.126947752938567526e-01,-2.495096498967961374e+00
-3.309839268595310191e+00,1.992874959460076978e+00,-7.424136661254555625e-01
-1.762369479503292702e+00,-1.052646519474467413e+00,-3.639054390163808606e+00
-2.290386927991781452e+00,-7.613090292326206432e-02,-3.603693613095089621e+00
-2.451589571393756994e+00,3.331988508735558296e-01,-4.034758405322881103e+00
1.027484164816086620e+00,1.410478840042594495e+00,-2.872086016050040769e+00
-1.660746720518910369e+00,4.907551157766107952e-01,-4.824470428870522909e+00
-3.195307428542391026e+00,1.994909388983944432e+00,-3.517295694449578569e+00
-2.974609312156352381e+00,1.264515073319062655e+00,-3.856858304117994685e+00
1.959853096151030760e-01,1.866104960208980978e+00,-3.755514809133479570e+00
-1.148425675386285594e+00,-6.438310171198189380e-01,-2.491013122608252583e+00
-1.121485725267500566e+00,-5.301281600350697953e-01,-2.468282597250041732e+00
-3.511684454852210813e+00,1.960943140070327662e+00,-1.045723015874110651e+00
-2.808928297416204867e+00,1.509390015647387173e+00,-6.058491734769893000e+00
-9.114753874775931575e-01,-2.342586070548434041e+00,-3.265884369801184572e+00
-1.157787856771547830e+00,1.095250774105059666e+00,-1.945827431679589825e+00
-1.997255927169832468e+00,1.127989604384138866e+00,-5.313120147425425266e+00
-1.956986752576103994e+00,1.323363744673390796e+00,-1.500289996184345220e+00
-2.436670322700173141e+00,2.109676014922437393e+00,-3.339102668694941212e+00
-2.013115149649985280e+00,-6.074888868237648953e-01,-3.548468265450506198e+00
-6.172824895777715426e-01,2.377482275791988897e+00,-4.273211600843807467e+00
-3.309874008547053936e+00,1.512748009896910606e+00,-2.357032587531846080e+00
-1.085485098625294409e+00,2.303951459169901295e+00,-4.878084288173394789e+00
-8.905540191033692876e-01,-1.338941750588907631e+00,-3.582570135061535765e+00
-2.783794432693778464e+00,9.139994664634879529e-01,-3.879083934158697566e+00
-2.279967049521122835e+00,2.079418307024911261e+00,-1.113793969942378892e+00
-2.078635999079148977e+00,1.071778187927020065e+00,-1.521505229530543568e+00
-2.959931784512945807e+00,2.024293115959730383e+00,-4.602349858230545543e+00
-3.075844181049878667e+00,2.012998145575935816e+00,-3.486238782088082910e+00
-3.186470788198850213e-01,2.430477869336187702e+00,-2.770650999387560987e+00
-3.195142823683262634e+00,1.961608613943263357e+00,-7.214662773349912461e-01
-1.854378225425840077e+00,-7.390823526758329987e-01,-4.202706490248675486e+00
-3.506471038546603580e+00,1.599455420839624553e+00,-1.243684620999422341e+00
-1.010959686469425023e+00,-1.058695090627768787e+00,-3.774791462358299654e+00
-2.299694101108236063e-02,1.557570602841676255e+00,-3.832908154941989221e+00
-2.465030423199663812e+00,1.769171142349214243e+00,-5.911001724988998340e+00
-2.361440687622478940e+00,-3.518286779857658919e-01,-1.981301190964107395e+00
-3.239416340853552789e+00,1.682556494443836703e+00,-7.874903864332760683e-01
-2.671451900587827666e+00,4.837207042530615175e-01,-3.002452076681559223e+00
-2.333310180449719606e+00,1.717786581132946910e+00,-5.785614614839002634e+00
-3.374470230303146856e+00,1.859442977794458107e+00,-3.255609957872265703e+00
-2.459471563347686462e+00,1.834267077202049290e+00,-5.928087258079760780e+00
-1.290739672538881999e+00,-1.667804368805861914e+00,-2.742729628442857059e+00
-2.604011196445406462e+00,9.604931005470060956e-01,-5.397023500258578466e+00
-1.849224694309105743e+00,2.187034837508297969e+00,-5.309969043573138592e+00
-1.690409370715055815e+00,5.116266601604156916e-01,-1.877664197545310776e+00
-2.348218456082243222e+00,4.523373763577903661e-01,-1.587771899854230950e+00
-3.203919070557440740e+00,1.287913634093458493e+00,-2.249368225924239351e+00
-5.656007290530216114e-01,1.955564086055115558e+00,-1.955869083712322487e+00
-2.360752419700952398e+00,3.963302659145668816e-01,-4.959221691682913047e+00
-1.583559509302586432e-01,9.207009364754668024e-01,-3.732322740526795357e+00
-1.297068258914912064e+00,-1.369279945684944266e+00,-3.906690066608481171e+00
-8.019849992199591382e-01,-2.077898827287790073e+00,-3.099345431654265237e+00
-2.523793491358878871e+00,1.620508880922015393e+00,-5.909857312588528089e+00
-1.773039437260965689e+00,-9.038164415194133161e-01,-4.151308196148113971e+00
-5.643661478486945021e-02,-4.600114168714912466e-02,-2.816946477425466888e+00
-2.271089150305062587e-01,2.437458730212148872e+00,-4.007324751539399266e+00
-1.175481033034354805e+00,2.307892881341410796e+00,-1.682619103362362090e+00
-3.222320903850314888e+00,1.394660998048576905e+00,-2.537069643459136437e+00
-4.232655276626596241e-01,2.407312527541388469e+00,-4.139810819852420387e+00
-1.968634914250995571e+00,-6.666963206132517361e-02,-1.927085069687409558e+00
-2.942964975115671677e+00,2.037053425451814004e+00,-2.730703133998089616e+00
-1.254808721079679001e+00,2.107151560035799065e+00,-5.028464183065140425e+00
-1.784921995502750658e+00,2.214133416278019961e+00,-2.112182867809509812e+00
-2.017280525952174663e+00,2.179088874490514360e+00,-2.147218720058411190e+00
-1.532720739951669131e+00,4.541313921273905652e-01,-1.969455407375939382e+00
-1.145122142662387210e+00,1.814709455801272631e+00,-1.728036057387229318e+00
-1.384649578322956431e+00,1.300060514903869979e+00,-4.866713877379995168e+00
-1.229301327339895167e+00,2.284478145640002733e+00,-4.493536599525585373e+00
-3.186177815852238027e+00,1.142891385701461537e+00,-1.804682623036929723e+00
-7.057321181078085592e-01,-5.070071832352617269e-01,-2.655965423861412766e+00
-4.356329001727403116e-01,7.745543983457827686e-01,-3.911664801932349000e+00
-2.591296955296215732e+00,1.977368881865341765e-01,-2.460487972176943039e+00
-3.608511649492760487e+00,1.758214882193035455e+00,-1.117826687828720189e+00
1.077845761673253688e-01,5.718028492471450841e-01,-3.397448057226130746e+00
-8.645630779846112945e-01,-9.269940392530885420e-01,-3.698246063493778824e+00
-2.090683389812841853e+00,6.944133580127966887e-01,-1.633206450407014509e+00
-2.963923963837205022e+00,1.170730217023822739e+00,-3.563441333719370441e+00
2.287902777102165247e-02,2.484601968920646886e+00,-2.240072569167955496e+00
-1.878518439247271132e+00,1.502364996120797658e+00,-1.481406266922829840e+00
-2.741097919315847786e+00,1.091282027821387945e+00,-4.900137198246524939e+00
9.523157602633349761e-01,1.781042777978189218e+00,-2.721619723265176649e+00
-1.457217745039050827e-01,5.793145327364855879e-01,-2.580643916757883183e+00
-5.321143746198924163e-01,2.402018798560836998e+00,-2.118279448731651193e+00
-3.079922672395505323e+00,1.868197339077105612e+00,-5.474635987573667428e+00
-1.698516118985265555e+00,9.678716291427365004e-01,-5.014246394562573705e+00
9.559394810151312649e-01,1.521790533182102667e+00,-2.803937189922732109e+00
-1.440309912035910633e+00,1.975218831077047765e+00,-5.137082049908099357e+00
-3.030768862060644775e+00,1.375421089303073385e+00,-3.881088858808507513e+00
2.786625787032411816e-01,5.879137810098969963e-01,-3.262321664985894376e+00
-2.791233354842428405e+00,1.450942770557820838e+00,-5.957469290040717347e+00
-4.719229027821863487e-01,-5.631477697656380732e-01,-3.496481970114784232e+00
-2.361566128507558648e+00,6.339045247132904515e-02,-3.630248092039737084e+00
-2.631037580359164352e+00,1.841966293661935428e+00,-1.023079424969392193e+00
-1.695757732067141754e+00,2.216147805363367418e+00,-4.193570497922774365e+00
-3.653525340312889780e-01,1.839525591130510396e+00,-4.208172275372942472e+00
-1.791558024803715732e+00,-7.798891299132643118e-01,-2.231872717482162649e+00
-3.517899185125440420e-01,7.626053134931444211e-01,-3.838758772672122177e+00
9.992639398665620343e-01,1.833422518174358196e+00,-3.084232679895289930e+00
-2.138900153897381529e+00,-6.188081888710406098e-01,-2.570722358376325456e+00
-2.574296858427122636e+00,1.265798556757506299e+00,-5.833375468273581888e+00
-2.241839707604615928e+00,6.622252591278234013e-02,-4.529342017003398446e+00
-5.473315792562796211e-01,-1.158463116133181314e+00,-3.360432867037762783e+00
-3.423157291156650572e+00,1.963401128973550902e+00,-3.028325345787478806e+00
-6.203425539013707191e-01,-1.398615977850161007e+00,-3.340565744335716847e+00
-2.632033709689001189e+00,1.235133162833207621e+00,-5.870641818847853521e+00
-1.847568596101754723e+00,2.194923754863022936e+00,-3.910078936825266194e+00
-2.968097436055329830e+00,2.036897854654214246e+00,-2.068502131168025393e+00
-3.055287196315729648e-01,7.405086308382838878e-01,-2.455612870080540855e+00
-4.291944073987945529e-01,1.680508494476185277e-01,-2.575663698351751130e+00
-3.035562609238844800e+00,1.877670213104415176e+00,-5.841232065420441266e+00
-2.455312783644757690e+00,1.736645841030901305e-01,-3.373237724590416597e+00
-2.522400072307152019e+00,6.447639941496988714e-01,-4.747664613355083496e+00
-2.701767314237971007e+00,2.678205196969162261e-01,-1.919764338888240829e+00
-1.066213218397638052e+00,-6.923808308139491885e-01,-3.942080877666976679e+00
-9.993431243005846953e-01,-2.410475420058669993e+00,-3.110259836441613412e+00
-2.903716681897773544e+00,2.026939087901896031e+00,-5.662491540662171197e+00
-2.622810298615210645e+00,2.082730728187101032e+00,-3.160401256984679996e+00
-1.503821749441593525e+00,-1.244552563757114622e-01,-4.490791396380848788e+00
2.104152048710365430e-01,2.301575236170501082e+00,-3.888520904869685602e+00
-2.111794782417509286e-01,2.447095824771571948e+00,-2.679402417871509012e+00
9.520444199661967644e-02,7.311400668446624840e-01,-2.646358471814437507e+00
4.947245692892264235e-01,1.478963564911784045e+00,-2.601073585704045232e+00
1.409802758371574649e+00,2.439332025294219441e+00,-2.948281433578262334e+00
-2.066948040119743979e+00,2.171379425053005630e+00,-2.194749697729225790e+00
-1.613009077150441950e+00,-8.339077009877904345e-01,-2.332360469454338947e+00
-9.212948331088410825e-02,2.457368299082479002e+00,-4.069084038632553302e+00
5.967649918204209758e-01,1.184760547032314149e+00,-2.740389630311364400e+00
-8.545913106790035130e-01,3.902182013767971358e-01,-4.128249775448689540e+00
-2.671968361101877409e+00,6.775344694296955295e-01,-3.768743040987485138e+00
-2.887124954191102155e+00,7.138447444403590580e-01,-2.317511686918559466e+00
-2.043593144038962528e+00,2.157268149672542545e+00,-5.422063884026560032e+00
-1.312028933544475029e+00,2.280376948082757149e+00,-2.971388975310856218e+00
-1.201483614142109246e+00,-1.500095400107902321e+00,-3.784586996476851262e+00
8.746967128265927816e-01,1.390812123082658003e+00,-3.039399840462855718e+00
-1.487203019430773043e+00,6.786417166680244195e-01,-4.744297707200728631e+00
1.260187893632519263e+00,2.451332913284715698e+00,-3.075278559849316196e+00
-2.697295063508160062e+00,1.736835587441979412e+00,-6.091199177844886847e+00
-3.609569311503739719e+00,1.944268740046618094e+00,-1.410671779983483587e+00
-1.437156419765130089e+00,1.305119907866364004e+00,-4.911565112924527909e+00
-3.376431931087120919e+00,1.607156547797266910e+00,-2.238600311014782296e+00
-2.872779270792822803e+00,1.587463627181629588e+00,-9.889118623437629374e-01
-6.906427928704911290e-01,-2.100023852197013596e+00,-3.158414085394501747e+00
-2.410058874406583396e+00,4.102338969129084578e-01,-4.648832022215652948e+00
-1.452056331466857086e+00,-5.821288539095705872e-01,-4.295976855144550299e+00
-2.421808223188205211e+00,-1.163248388551634677e-01,-2.469417719744540829e+00
-2.830412941979751906e+00,9.594953662778552550e-01,-3.714159111642709288e+00
1.176850715691317273e+00,2.384033028560930578e+00,-2.639353901555107740e+00
-1.652325504960486802e+00,2.220570936656711236e+00,-4.576795561489141129e+00
-2.067897605284901186e+00,2.167594452589294285e+00,-2.862134184060418196e+00
-1.108584184059738936e-01,1.607373654645951166e+00,-3.921710981384960881e+00
-3.151376905385262273e+00,2.013302586077673428e+00,-1.354625949327565415e+00
-2.843450824921249787e+00,2.057036833264070719e+00,-1.804256603082807109e+00
9.584302523663558171e-01,2.360315574926560078e+00,-2.544350864983517813e+00
-1.368280802523605288e+00,2.264339820744333931e+00,-4.363758415769541266e+00
7.910819514038489042e-02,2.490629224269251818e+00,-2.681083539967177742e+00
-3.149425526482288351e+00,1.961086780295944854e+00,-5.328329195499642346e+00
-1.256241693750228539e+00,2.214531738899963464e+00,-1.551620299639870915e+00
-1.984236580782441584e+00,-3.826796438913394049e-01,-4.655901195384843483e+00
1.339427129827054141e+00,2.679083331867834428e+00,-2.789408727499835372e+00
-2.927185753006934288e+00,1.681432219039478149e+00,-5.865155619924944830e+00
-2.353339256588187656e+00,-1.831938536231226267e-01,-2.711450047243065153e+00
-2.327564223832745416e+00,-3.921914111050742169e-01,-2.072133062902585809e+00
-2.173161349501072648e-01,4.321936671467640489e-01,-3.618282874718737663e+00
-2.009751211430979456e+00,-4.132737586904439153e-01,-4.345129450063696552e+00
-1.601053308781362983e+00,-1.602148646203945370e+00,-2.651855227252190250e+00
-6.773439774570230165e-01,2.373670017941850841e+00,-3.321047753582295758e+00
-3.026650371147904472e+00,1.236245025527877406e+00,-3.358612453229755879e+00
8.946107241886330774e-02,1.152538367237528893e+00,-2.512625371432230192e+00
6.653203153712083928e-01,2.578549157602612496e+00,-2.683047909843076617e+00
-1.583434883222658129e+00,-3.724207466567588942e-01,-4.473753133220363054e+00
-2.528480570436663299e+00,2.092123504086540020e+00,-4.031884370992789179e+00
-1.980518344548670262e+00,2.187247442333723146e+00,-1.662728756906933780e+00
5.291465979287521826e-01,1.666285604617864902e+00,-3.415134086135751978e+00
-2.177047886407258215e+00,2.140760184063185800e+00,-4.778966736695354101e+00
1.932876005081574644e-01,2.503821257982561832e+00,-3.401988462605780583e+00
-1.669866532218791333e+00,2.219907615978079285e+00,-4.216256373896184684e+00
-2.544136163614501012e+00,2.091472880887063290e+00,-3.720835330871178570e+00
-3.628036971840337688e-01,1.445837641924053507e+00,-4.075107124606363485e+00
3.641781564694729911e-01,1.604956512778153321e+00,-3.530359082227169765e+00
-2.393398734420632223e+00,3.022961182775144584e-01,-4.343484817583636470e+00
-6.468598226579986843e-01,1.185301035495429423e+00,-2.157307753457508692e+00
-2.390643581896726211e+00,1.515291089052434315e-01,-3.764841738086892153e+00
-1.995847713128610090e+00,2.187329022269576928e+00,-1.226491273151577577e+00
-2.766657627116019480e+00,9.459990114549051698e-01,-4.133313751361898269e+00
-3.240923099333942847e+00,1.998758151605288580e+00,-1.558491249971800885e+00
-5.074341842033062155e-01,5.173062987315946160e-01,-3.885116004332591633e+00
-1.980107674897017486e-02,1.749554141004845964e-01,-3.370320929296757306e+00
-3.405364682880627214e+00,1.743653295383925883e+00,-2.566418332826339022e+00
-1.099205292720919491e+00,-1.023904104074804033e+00,-2.632274050928889331e+00
-2.438889428715241281e-01,2.434846169366834623e+00,-4.024838703135333873e+00
-1.353070543178733556e-02,2.651902406435757142e-01,-2.740287083717368066e+00
3.132311461251347656e-02,-5.459912203811887466e-01,-3.088449541167236578e+00
-1.642839939518533132e+00,1.156621078975227146e+00,-5.031264624498860805e+00
-1.677953930369502578e+00,-1.142061793085709542e+00,-3.909752078382523699e+00
-1.494111648463263275e+00,-3.102023588832716339e-01,-4.421015125430630022e+00
-2.126661883678747422e+00,1.569928726675410724e+00,-5.566531831983172474e+00
-1.713219752945490892e+00,2.207611514031253552e+00,-5.277684802709039502e+00
-1.920399136010310315e+00,2.183556230270427001e+00,-3.991261348398213116e+00
-2.617154463512039619e+00,1.031877108277376554e+00,-5.583203599279653595e+00
-3.070113601552663773e+00,1.674406625126148240e+00,-4.777346697479627480e+00
-3.746117509035331028e-01,1.299899270047789157e+00,-4.036265163577803960e+00
-1.135782013637228527e+00,-2.357641861832278973e+00,-3.100151575765228262e+00
-1.092962260111471240e+00,2.320491082370645941e+00,-1.642210241841107976e+00
-2.261456867010656957e+00,1.187395784697575368e-01,-4.592546436441187652e+00
-1.941346092963560199e+00,9.934796682073664398e-01,-1.610204246069897538e+00
-5.057636694419376244e-01,-1.412284677026006685e+00,-3.241818351134654996e+00
-1.850336178347415705e+00,2.189070568920459703e+00,-4.906436798610005923e+00
-1.696394409525870950e+00,6.217209515755428573e-01,-4.897346805472215792e+00
6.243642780161092753e-01,6.490603960573337883e-01,-2.998447462740662761e+00
8.087594506839242969e-01,2.174622376518737354e+00,-3.354362759733607646e+00
-3.425059992652231156e+00,1.970708605088186571e+00,-1.637161683646112031e+00
-2.049166751368880046e+00,-2.757609482138450585e-01,-4.599248870529514477e+00
-1.934389983746019448e+00,2.187642747783542063e+00,-2.858026969341975754e+00
-1.994876980061177196e+00,-8.275923025866103178e-01,-2.809131849529848068e+00
-2.622970920494722691e+00,9.627273144956802753e-01,-5.265303851241545985e+00
-3.202937647818127509e+00,1.942723900939896442e+00,-4.858540793443610006e+00
1.936460771227095090e-01,-5.830217161548456421e-03,-3.134694309997392736e+00
-1.963908343296149939e+00,-6.786222688961018878e-01,-2.119597727344621596e+00
-2.277874216668929641e+00,2.136522325880895412e+00,-2.784458561997347203e+00
-2.999861024612791915e+00,8.338504115536438110e-01,-1.958352170354529687e+00
-2.693682416675526881e+00,6.670871970080803903e-01,-3.566208425461659726e+00
-1.809563793970719203e+00,1.562784593101299135e+00,-5.303455335247122093e+00
-2.834657422614556221e+00,1.010918748786387766e+00,-3.887015126708632806e+00
-5.588474135953411803e-01,-5.304848122878963457e-01,-3.578812417134722423e+00
-3.240369189696923335e+00,1.994952055910099720e+00,-2.271065276809939082e+00
-2.074439331995023839e+00,1.878311562046386163e+00,-1.272666854780144297e+00
-1.016092581350756863e+00,2.238382788435677728e+00,-1.656766479247181456e+00
-2.348981815638975679e+00,2.119005983723072362e+00,-4.039575447697802524e+00
-1.425450302784425638e+00,-9.891529292086861380e-01,-4.138696684430578365e+00
-1.296783114693855543e+00,2.144004821052537313e+00,-1.554549220037408475e+00
-1.962478934605238701e+00,-5.720617453938542374e-01,-4.064735164832258718e+00
6.107742779150371337e-01,2.570061758289597265e+00,-2.739040161474976198e+00
-1.465915388769120531e+00,2.248405168921132180e+00,-4.600048916356858086e+00
-3.462605209569531883e+00,1.850125444123176921e+00,-2.565014806304396267e+00
-2.041132121241055586e+00,2.160036598639935690e+00,-4.982465122287833559e+00
-1.459062001679790055e-01,1.278381895598551532e+00,-3.841078334119343296e+00
-1.613626503130818790e+00,-3.918589225772500240e-01,-4.492108377769609362e+00
3.567857693447532702e-02,1.875665359689857592e+00,-3.890490288498141602e+00
-2.722534849588042150e+00,5.325147839900405966e-01,-1.387389178288404912e+00
-6.260014040385003531e-01,2.925644559512667886e-01,-2.444696359225860149e+00
-1.289191037543879537e+00,-9.055483351148779780e-01,-4.054485198301395421e+00
-8.247676613878962559e-01,1.372510059703175189e+00,-4.430513193474015843e+00
-4.993316182018623928e-01,-3.436144985177685962e-01,-3.592048796226924523e+00
8.299612752940891403e-01,9.810864518403445977e-01,-2.913029731188327531e+00
-1.284805167744394572e+00,-1.506587911759323051e+00,-3.850929302613714800e+00
-8.889641289956038417e-01,2.346078832670530634e+00,-2.560426876849553945e+00
-8.653082809614681681e-01,-1.427042026610332526e+00,-2.867269310667305060e+00
-8.217509662553188488e-01,-1.718616454899220436e+00,-2.978355654676679176e+00
-2.906791602710458111e+00,6.160838607478539286e-01,-1.783218323711442954e+00
2.121471073845593025e-01,1.616669819799599006e+00,-2.425801296342994462e+00
-3.559187703903843758e+00,1.954406141781999562e+00,-9.379175810018105519e-01
-4.226312085188249079e-01,2.417469787598108155e+00,-2.296234853949306931e+00
-1.968375585579966502e+00,1.743446080890631134e+00,-1.364319966923184912e+00
1.172026900824833850e+00,2.655191214983516623e+00,-2.566323293880328205e+00
-1.732226248600841512e+00,-1.254617936024309932e+00,-3.060048558458802415e+00
-2.188992842835534081e+00,-5.117420414837871023e-01,-2.624684441924622469e+00
-1.018045678061339165e+00,-2.223890200025929964e+00,-3.392987339421781545e+00
-1.618380109683425161e+00,2.227331869089224092e+00,-4.270967217173629926e+00
-1.034114176136128327e+00,6.114869972899841244e-01,-2.154230634168158076e+00
-1.879592923823649508e+00,-8.978501922813327818e-01,-3.384859415725150367e+00
-6.760363766283085107e-01,6.835476288863611138e-01,-4.079035165728319257e+00
-1.482413635248934547e+00,2.244493447024634936e+00,-4.863338655958775902e+00
-2.817234491479265676e-02,2.466904855318572398e+00,-4.079506960265703697e+00
-1.128987389761029858e+00,3.936567936733064571e-02,-4.237123045096817364e+00
-2.818058479245763248e+00,7.509923595079454062e-01,-2.977285940737107506e+00
-2.709007318200164605e+00,4.177123652322781711e-01,-2.461672179433324281e+00
-2.751705857445735148e+00,1.226360462550007746e+00,-5.358208632018881978e+00
-1.410738761691819665e+00,2.266079629891160074e+00,-2.878137522778610347e+00
-3.369971319431858792e+00,1.353517286800700603e+00,-1.278671495229090072e+00
4.307203659463412770e-01,1.278675915535862240e+00,-2.633356327663764596e+00
-1.049920703713865366e+00,6.689061579390563894e-01,-4.381550545694413046e+00
-8.837700613221983748e-01,1.337263937352361376e+00,-4.467296117386722720e+00
-1.967435464962937086e+00,-3.866854495734792785e-01,-4.764574079545932150e+00
-2.775360040266261485e+00,1.073577367104734392e+00,-4.575714120197046597e+00
9.025314169925531538e-02,-7.569959138720518121e-02,-3.196454335025819660e+00
8.497564638834115280e-01,1.768367737417966490e+00,-3.185507119576710622e+00
-7.475787615677128573e-01,-1.183168068237179016e+00,-2.846614870918350970e+00
-7.161906227690779669e-01,7.182119547596645948e-01,-4.123579590947420215e+00
2.407020456458443536e-01,2.493720303516900216e+00,-2.166451659520109985e+00
4.000197628236074748e-02,1.759879636316778795e+00,-2.300579597589150538e+00
-2.664876507872211420e+00,2.077240626862585149e+00,-3.010207650759785469e+00
-1.378799040404942833e+00,-1.435932058406428902e-01,-2.227474589468729782e+00
4.525504725810075568e-01,2.291792944155822909e+00,-3.686196887489419094e+00
-1.723484545681350788e+00,9.848489947531114952e-01,-5.040421924238025930e+00
-2.252779304329129317e+00,2.135242505914359157e+00,-3.708619292479628626e+00
1.794375351371552130e-01,9.683918817178829297e-01,-3.470473868824761610e+00
-7.563895977610410881e-01,2.369372300940509213e+00,-1.936096769835162990e+00
-5.278264175448347251e-01,2.395865764910096729e+00,-3.363479627536315242e+00
-1.855868795251290893e+00,-8.712474219910114615e-01,-2.230138305129756304e+00
-8.874122869696242644e-01,2.339387956055774875e+00,-3.828974931974404416e+00
-4.607564174114562316e-01,8.018805567834876857e-01,-2.363769639131636513e+00
-1.864744107452330324e+00,4.760719244039680609e-01,-1.807006099659821841e+00
-2.868622839709253469e+00,1.608681107489000617e+00,-6.010356266186156482e+00
-4.155203714870663312e-01,2.408465950347307594e+00,-4.141338000777305517e+00
-5.915962507179005625e-01,2.382459802600103149e+00,-4.067155200825155248e+00
7.699946133303745555e-01,2.595399088795791176e+00,-2.472529698213742133e+00
-1.835557804262909265e+00,-8.609847795608451815e-01,-3.857890358855411428e+00
3.247887467148111162e-01,2.528643367347774618e+00,-2.468082032482900701e+00
-3.223109045463927735e+00,1.990576652971231653e+00,-3.547077785171461883e+00
-2.992939289567288608e+00,1.820743383895300438e+00,-5.931109340939070940e+00
-2.619951987165530127e+00,2.071403646983076108e+00,-5.314297799604559280e+00
9.841402664174918602e-01,2.624566876495010526e+00,-3.013693449749244468e+00
-8.896480253206886513e-01,-1.906236680236331082e+00,-3.004874577435527438e+00
-1.419158977841246783e+00,2.129587811683147702e+00,-5.171047473547734974e+00
-3.587341891410072425e-01,1.273346624716890085e+00,-2.264979166704997660e+00
-4.003162354977873177e-02,2.470530612444343799e+00,-3.089273892063113980e+00
-1.233663032769155565e+00,2.296404749084569374e+00,-2.188478727503619492e+00
-8.291876904025721196e-01,9.694763532058636724e-02,-2.410288979038539114e+00
-8.744264526296460782e-02,1.737433286136812471e+00,-2.247823630882071377e+00
-2.430375619101261542e-01,3.318848611368605539e-01,-3.606059448259864020e+00
-1.462007730749393719e+00,-1.755983998934754542e+00,-3.071692385007287918e+00
-3.240398942264401810e-02,-3.946192293222755554e-01,-2.936619886275702918e+00
1.382514593939516256e+00,2.534635316233374791e+00,-3.002421097079780221e+00
-2.434410732858441229e+00,-2.558908049788158889e-01,-1.767607469148493538e+00
-2.364995879389916400e+00,1.145142701288087844e-01,-3.807955475665852241e+00
-2.624916397805057144e-01,2.431327412140931177e+00,-4.158293923848553675e+00
-3.393400788888037312e+00,1.702589853847846779e+00,-2.491971555149067097e+00
-2.173710068636523385e+00,1.110817439878045709e+00,-1.464802032558888190e+00
-2.897251058382896538e+00,2.035245424538667969e+00,-4.318300173667709352e+00
-1.338946955446165266e+00,-1.201734620135686882e+00,-2.575201418813203524e+00
-1.651091903063139466e+00,2.225893284663674976e+00,-3.635539868808145059e+00
-2.044228746277318098e+00,-2.324463621874775787e-01,-4.807977948886336783e+00
-9.429962447690517502e-01,-1.911415675704690731e+00,-2.981479612931704271e+00
-3.102649913553590544e+00,1.214414215522399365e+00,-2.708286963354429755e+00
-2.917696631370976679e+00,1.081475773109314975e+00,-1.125203763207613727e+00
-1.557925375310807325e+00,2.241114352968887502e+00,-3.407198094129495480e+00
-2.368858849691259483e+00,1.439878419506127383e+00,-5.722387940030013276e+00
-1.362157849143633470e+00,7.620441602559412386e-01,-4.669238555492013276e+00
-1.514037213488341305e+00,-1.488941893932280269e+00,-2.582444882575604339e+00
-2.804498602147795339e+00,5.752861253315059153e-01,-2.379669898667752026e+00
8.615765626967823998e-01,1.953204635530851441e+00,-3.237279696132830953e+00
-2.125953641121591353e+00,-2.610027401650313883e-01,-4.088471551878082089e+00
-1.196235157093312518e+00,1.578553392180881199e+00,-4.804457633063675459e+00
-2.795150177548476833e+00,8.330788592711237950e-01,-3.473335725185050293e+00
-2.721869187041442650e+00,2.062260149967622969e+00,-4.188618697391824242e+00
-1.703732687696563719e+00,7.669748856132785342e-01,-1.792014342754903122e+00
5.630553707690982845e-01,2.050222286904609170e+00,-3.514981894357858572e+00
-1.047849000946993625e+00,-2.258965927391627382e+00,-3.405821145700828279e+00
-8.511088734280859436e-01,1.765828179484042915e+00,-1.881046899686226404e+00
-1.050878406852800762e+00,2.313637645867431480e+00,-4.054466281008639150e+00
-1.161340945006023473e+00,-7.836176550785084460e-01,-2.528428519426022092e+00
-8.056559943320715789e-01,-1.087615403349633469e+00,-2.789679071123809084e+00
-9.171431292644040278e-02,1.215375071178855126e+00,-2.408164401118778830e+00
-1.912225585329074162e+00,-9.548351587619970937e-01,-2.916439057680224600e+00
-3.272543272964062222e+00,1.775770007661854999e+00,-3.678981962468034883e+00
-2.376064699674159453e+00,2.173463966774729500e-02,-3.357213037895493635e+00
-1.155466989967582236e+00,-2.186867578596598083e+00,-3.518283700825350024e+00
-1.471035040560479290e+00,-1.003115564006482385e+00,-4.171528834867073599e+00
-2.955270153705769620e-01,-9.661546640367142391e-01,-2.991017229421046419e+00
-1.741868350964202339e+00,-4.651279529228134757e-02,-2.027107338655619984e+00
-1.615058237738085767e+00,1.081842342724069983e+00,-4.983547183371684675e+00
-1.635837476984573158e+00,1.364830213366925005e+00,-5.094773314135625952e+00
-7.660408304436476801e-01,1.916402691081038112e+00,-1.874096390551227120e+00
-3.028659189813978525e+00,2.020093803510057295e+00,-3.482940301564530827e+00
-8.003347452567798337e-01,-1.099330536553552173e+00,-3.588109390869199000e+00
-1.692231701152873358e+00,2.229474966712549744e+00,-1.848678293003740425e+00
-9.854545434941305859e-02,2.466276323518982405e+00,-2.260632376432730961e+00
-3.014416808906960288e+00,8.192560219232907226e-01,-1.792421667127086282e+00
-1.142129326493425356e+00,-9.149307367180968820e-01,-2.578267484115617680e+00
-2.438078196616702442e+00,2.096993958836626426e+00,-5.624011370978998059e+00
-4.999284120325845904e-01,-1.612927267059390157e+00,-3.096334961378723882e+00
-7.073234348242157798e-01,2.363841102046001286e+00,-4.297984834359915851e+00
-3.268680659171479874e+00,1.486143916906703444e+00,-2.556793483674419054e+00
6.871048982583569664e-01,1.951185554674179867e+00,-2.544400839158277527e+00
-8.985419418928919030e-03,9.454817367622062596e-01,-3.617762792902778468e+00
1.052799423234354270e+00,2.093162436999070231e+00,-3.126627532195703107e+00
-1.445308615150727949e+00,2.250512625860723315e+00,-4.780248686968975314e+00
-1.511140358831438935e+00,2.240190946934675686e+00,-4.862156625805742927e+00
2.107285637028107061e-01,2.900643532784750733e-01,-3.219086425189710443e+00
-1.093140290690626681e+00,-2.111627382793562546e+00,-3.492072707088826000e+00
-8.262339905100059001e-01,1.037058095733254387e-02,-3.978570686451906813e+00
-1.878778273972487645e+00,-9.962001526170719545e-01,-3.000106023673021038e+00
-2.198373864756855589e+00,2.136790523749573456e+00,-4.920193448663821023e+00
-2.281265623652419361e+00,1.406756329504810887e+00,-5.639354972436249724e+00
-1.207125385111364579e+00,2.298660749973945983e+00,-2.504458002032559083e+00
-2.029971658085507613e+00,-8.648751404536393350e-01,-2.400740808334520526e+00
-2.640747593839726459e+00,3.804137504495053168e-01,-2.819651117003174612e+00
-3.422766133668812660e+00,1.337567010656645738e+00,-8.237888417048543355e-01
-6.710603291634347212e-01,3.260830279870111648e-01,-3.956025058700079811e+00
-3.738957131377957932e+00,1.919803485372525653e+00,-7.925718303854730751e-01
-2.662735673710806328e+00,2.069651105991134887e+00,-4.459591925891587039e+00
-2.131742396199721057e+00,-7.452375944431998134e-01,-2.061645465670817856e+00
1.386995649753901327e+00,2.254059213492310754e+00,-2.905396728206710133e+00
-2.317344091267616424e+00,2.118676464397108106e+00,-4.969435805196289913e+00
7.546662863053030801e-01,2.459443258170306734e+00,-3.493587480384831689e+00
-2.935386088347072597e+00,1.380686285081229148e+00,-4.609328595240310911e+00
-3.115736508764311630e+00,1.622838938241386808e+00,-4.234121766036150980e+00
-1.168713482707169904e-01,2.463880330752208803e+00,-2.195982447994133224e+00
-1.586250701600904423e+00,1.212809448496941611e+00,-5.003432599501100420e+00
-7.259676420070625413e-01,-1.804213410399820194e+00,-3.049869214396156991e+00
9.949589450552669412e-01,1.899108694706490352e+00,-3.109624065489494438e+00
8.288979135841145762e-01,2.603580133905823768e+00,-2.592416307444306955e+00
-1.093764555614846312e+00,2.307657556690504652e+00,-3.971513987161325865e+00
-2.756159171293692811e+00,8.302112413310615002e-01,-1.279054892199089632e+00
-2.195389197445391627e+00,-1.553787029920060681e-01,-3.993264848362833241e+00
-2.378543500197357885e-01,1.106285353516429870e+00,-3.859420819444957740e+00
-2.198235498658954956e+00,1.474841014817208418e+00,-5.593742361095752180e+00
-1.833485770398899165e-02,2.475629987047105462e+00,-2.751251621994568186e+00
-2.552324377449313619e+00,2.092166946647002757e+00,-3.368635750567887666e+00
-2.095610354235001083e+00,1.581064294491584032e+00,-5.544707559505369865e+00
6.178299514588883601e-02,1.867080295383246158e+00,-2.277452940219008681e+00
-2.041368910628009292e+00,-8.349714129430094722e-01,-2.435046331502551453e+00
-7.883513119053110474e-01,-2.476946987963134228e-01,-2.536602340777604603e+00
-3.681212598376274681e+00,1.934476288015437584e+00,-1.235898859482250867e+00
-2.466600412597785397e+00,3.509966353937623018e-01,-1.563797369501150669e+00
-5.616231462476967140e-01,-6.160538813270169944e-01,-2.757422359377383003e+00
-2.719524533719769988e+00,1.245541142780121291e+00,-5.673066372635108046e+00
-1.951274121297140285e+00,-5.283590220649255764e-01,-4.321478517730366953e+00
