-5.546910029138230058e-01,-5.843775877545633435e+00,-9.418429997802773013e-01
1.565176277916778380e+00,-5.620940328427047383e+00,1.556690252424750120e+00
-4.338431300543276414e+00,-1.046369938434644986e+01,2.490449707161335180e+00
-5.392591448252916031e+00,-1.058956367715804525e+01,3.079158900724444425e+00
-4.978874938410529971e+00,-9.688233515110201921e+00,1.890349563016546997e+00
-4.959026545175271750e+00,-4.326063593075669900e+00,3.896079073355150246e+00
-8.216695815176224826e-01,-7.853980472750754060e+00,2.448413125713998717e+00
-5.745174021521601837e+00,-3.238312519062445549e+00,3.093434510386921410e+00
-3.887790236570254798e+00,-6.283756892775724801e+00,-1.371264527487610518e+00
-2.453059806616761040e+00,-9.245123129895398861e+00,2.805333821430421981e+00
-4.646108594374806167e+00,-5.249526487093873151e+00,4.772773331325377288e-01
-1.248315033068903457e+00,-7.854659727090171906e+00,1.862999061775534093e+00
-4.786179461521637535e+00,-1.008726624858431009e+01,1.437377315729903016e+00
-2.701153599044382680e+00,-3.939167156929108682e+00,-7.339114568250193482e-01
-5.371189672428115180e+00,-1.133764357183003746e+01,3.115427703205309484e+00
1.196481296272024597e+00,-4.577484265465882274e+00,3.533708712036306654e+00
2.385744489367894960e+00,-5.373117294150975276e+00,2.644776380011932382e+00
-2.611291991609459906e+00,-2.816154928663062496e+00,3.513257355976346918e+00
-2.922370741967998953e+00,-5.934793515819382748e+00,-3.929565658407562889e+00
-4.443643171821857862e+00,-4.272043624144558294e+00,-1.704922552713708794e-01
-1.110744832847739394e+00,-8.536024001148684093e+00,3.325747274334180936e+00
2.623789379277234324e-01,-4.131775070822410356e+00,3.578391897832322588e+00
-5.070788279168231938e+00,-8.468493729838590056e+00,1.979771817888225316e+00
-3.720191706080495653e+00,-1.020173005852876180e+01,2.850935261093390682e+00
-2.119793063792470900e+00,-5.861006388581326831e+00,3.804287819033379314e+00
-3.368907300265525651e-01,-3.835375043298467013e+00,3.645190331848279452e+00
-4.834922303253875064e+00,-1.098535011622384694e+01,3.252836180091408735e+00
-4.516019728762977969e+00,-1.095325186897803960e+01,3.161295037396365082e+00
-4.287673795045564340e+00,-4.052568127656330788e+00,-6.038660504288035913e-01
-5.740138472746434850e+00,-1.713170341686406362e+00,4.133750739581056877e+00
-6.097416589903927431e+00,-1.314921302258721170e+00,3.774571796855995309e+00
-5.140755450168104090e+00,-3.354116593255384249e+00,1.532886946326584399e+00
-5.933665426798862441e+00,-1.437422293509540649e+00,4.156600884555414765e+00
-5.266061588403731619e+00,-1.857420770277679711e+00,2.517130417988289626e+00
-5.812977954703206329e+00,-2.753852147634654912e+00,3.210496172323408892e+00
-4.969327249277349701e+00,-6.372611367394944715e+00,3.697422816531547252e+00
1.520351380102697325e+00,-6.309227712347919237e+00,2.781565808591951683e+00
1.812274221542054808e-01,-4.666910198064728732e+00,1.489680585903682797e+00
-5.784286345840124355e+00,-5.933410869583467750e+00,3.526897537545989447e+00
-3.671934218626262236e+00,-5.922249813551339948e+00,-1.978144173721589238e+00
-9.753498900964195917e-01,-7.825515790671288663e+00,3.636788950084668404e+00
-5.618451432423564817e+00,-5.179994937486404716e+00,3.002132834993497923e+00
-1.192942361689693920e+00,-4.003884297995281116e+00,1.582170987807198559e+00
-1.717217248599036683e+00,-4.105294850550913033e+00,3.982624315148195482e+00
-1.854480786399947512e+00,-4.906032813637212442e+00,-2.826955342415445216e+00
-6.697079608098894798e-01,-5.179731452288690363e+00,-1.820229864326426972e+00
-8.864665747956174124e-01,-3.625486142601876960e+00,4.045842621197473399e+00
-5.547229215789839074e+00,-6.423250578733648908e+00,3.680900639819333797e+00
-3.204112915164180064e-01,-5.158561845629152209e+00,-1.151981676817871447e+00
-3.044520519002329006e+00,-9.214568790534183762e+00,3.460519592023737712e+00
-3.068819785898321495e+00,-6.941628954449424072e+00,-2.346986597740159830e+00
-2.973802215416709860e+00,-6.518035889882491496e+00,-3.008087529820778983e+00
1.215663314099014958e+00,-6.921683019390568070e+00,3.507359591887644346e+00
-3.130700340904282730e-01,-6.253350058595255057e+00,1.559689335778110530e-01
1.423981852330856723e+00,-4.688138136966895075e+00,3.515163163588846729e+00
-4.843524563810126971e+00,-4.139760107364240049e+00,8.551126257508120387e-01
2.578649373725744098e+00,-5.240049294309346628e+00,3.456432979231068625e+00
1.021398222181630233e+00,-4.553870739548873559e+00,3.323554655383390788e+00
-3.434917375714050092e+00,-8.294089817204856274e+00,-3.224537226772587473e-01
2.219139455930119187e+00,-5.782757512830275282e+00,3.899057751252204884e+00
-2.226294587488045540e+00,-7.181832138976708357e+00,-7.394466402366762781e-01
-2.320024286850705497e+00,-4.027626452501978704e+00,-4.115650548325601732e-01
-1.942438440100463959e+00,-4.712894795120327274e+00,3.919181294084605138e+00
-4.141631337501348931e+00,-2.430426212584251289e+00,2.330313894559951748e+00
-2.419604401943318717e+00,-6.558425791885236222e+00,-2.170510606786884900e+00
-2.297543246087677016e+00,-4.876041747289174388e+00,-3.467307034880187100e+00
6.058483733672800353e-01,-5.875832857599025516e+00,3.857616528608911022e+00
5.292731548254138163e-01,-4.314400713658448794e+00,3.364057059863633015e+00
-4.975523150105084724e+00,-4.768866389417465435e+00,1.276424963213374841e+00
-5.613221823833574931e+00,-8.421684671068593531e+00,3.387307218950217358e+00
-9.285546721152541094e-01,-3.480491428363005735e+00,3.938121476717672209e+00
1.014820861943299235e+00,-6.417259114659844776e+00,3.813333099798708936e+00
-3.411716645597339115e-01,-4.555440442906556697e+00,1.012197222414063180e+00
-2.490964288287262463e+00,-8.970305837264342941e+00,2.239535401524363589e+00
-3.600374650342581528e+00,-6.224235150501484348e+00,3.739316943495423207e+00
-2.412622487099135071e+00,-3.824360767843387521e+00,1.729645689646663320e-01
-3.942976723410156925e+00,-6.559014249706889288e+00,-1.193615049637194225e+00
-2.479223214995951441e+00,-3.616347973320364950e+00,8.187956068151173161e-01
1.169358115532093123e+00,-6.002399938552413161e+00,1.725403912985935539e+00
-2.445282254261490207e-01,-4.722368049397643652e+00,5.670209880650818324e-01
-2.634246833665901733e+00,-5.994241521769642311e+00,-3.520214090619893099e+00
-4.416940224062497755e+00,-7.413364993389333968e+00,3.607602332119554056e+00
-5.395587939207026729e+00,-4.543948472172310460e+00,2.343220973634752013e+00
-8.311950044784394143e-01,-4.616181122246650226e+00,-3.847516057135659528e-02
-3.056175993210869191e+00,-2.632532015676509296e+00,3.430048487452141082e+00
-5.448126760635529031e+00,-2.951241013435967009e+00,2.284170803733967414e+00
1.775280600893284655e+00,-5.542776403744871239e+00,3.913409727128953630e+00
-5.721608426421036953e+00,-2.787338801368457464e+00,2.976555273451234829e+00
-5.470012200273755454e+00,-7.590979862367718489e+00,3.569219996076103296e+00
-2.768027940109231810e+00,-8.816469381938095040e+00,3.504677999597121119e+00
-4.049672576441914806e+00,-8.088344960360389635e+00,3.549530513973608414e+00
-3.176513969568956153e+00,-4.912193998491262370e+00,-3.393205771589900888e+00
-4.877859355141535680e+00,-7.588183398553070447e+00,1.368803667379813627e+00
-1.075798310195956287e+00,-6.063599806644752732e+00,3.805619795881834744e+00
-8.842665648275114254e-01,-7.114317698317542238e+00,9.797923695914713127e-01
9.185485197287569514e-01,-6.100308490062686495e+00,1.563519653775831353e+00
-3.520850552623843832e+00,-9.738614048713762017e+00,2.259416108021381930e+00
-2.846478068008042150e+00,-4.588165474608140393e+00,-3.346418175184359356e+00
-5.113655196544582893e+00,-7.226121968234870963e+00,1.938620884880173811e+00
-1.894982203392593378e+00,-8.128245210983088498e+00,3.588955735631445876e+00
-4.435151483953441165e+00,-1.064612751094238163e+01,2.698435119139275251e+00
-9.127382661377962947e-01,-7.363486598236236524e+00,1.406375572240438521e+00
-4.527336272100643377e+00,-4.186302827457923925e+00,3.918305337057289783e+00
-2.659119831678327106e+00,-4.006703873429917628e+00,-9.090607490531373847e-01
-5.921867850209040718e+00,-4.031871452530244149e+00,3.651430265885827975e+00
-4.292895084269536810e+00,-8.280538995326370610e+00,-7.012764746952550310e-02
-4.138572525717005846e+00,-5.766953843300836269e+00,-7.814372425691786805e-01
-2.491300199699062468e+00,-5.962942924256017463e+00,-3.382148867447174911e+00
-3.314270238645268485e+00,-9.243036069485530248e+00,1.617175186848217150e+00
-5.102475433757784451e+00,-5.056179094764561732e+00,3.822399038789055847e+00
-7.124864669753872004e-01,-3.671252612526798575e+00,3.608116265752479457e+00
4.669894419097672111e-01,-4.746101543394217082e+00,3.964374018963126023e+00
-3.637595624577600883e+00,-3.310017474224715706e+00,-2.426369315342752353e-02
-2.956326550335053316e+00,-4.086960976120493250e+00,-1.704631504020270638e+00
-1.376523853991656887e+00,-4.955300679666208019e+00,-2.197851645361917683e+00
-1.993128293044070354e+00,-8.610309219861605357e+00,3.540238985149097850e+00
-2.274702992727811512e+00,-7.377007673921826658e+00,-4.412004413610098874e-01
-1.472854309651158822e+00,-5.119859616923116974e+00,-2.960925651746772136e+00
-5.334680150505707985e+00,-1.066219051055832878e+01,2.937207507908810911e+00
-1.980308875079533015e+00,-8.439516969150599124e+00,1.949616118391006792e+00
-2.946233723483637768e+00,-7.453790015243791700e+00,3.633233358167258675e+00
1.062350968742139801e-01,-4.730925344295693336e+00,3.958596973447645162e+00
-1.887404835175346518e+00,-7.430891933967840757e+00,1.920944063980364047e-01
-3.483094786588424974e+00,-3.365510602912095806e+00,3.481239091480592407e-02
-4.414094052681166502e+00,-1.960852218996508967e+00,3.581595581095213809e+00
-2.196124073402224042e+00,-6.493832809944676043e+00,-1.983935142104478855e+00
-1.538613077448508504e+00,-8.822080085823269968e+00,3.272064785624425820e+00
-1.420045356390477465e-01,-7.846912649135160400e+00,3.369815314203235435e+00
-4.356092425565705639e+00,-8.213283953453757391e+00,8.625721950507328484e-02
-3.009230475038565000e+00,-2.917427689308381034e+00,4.071848746192955559e+00
-5.915260665468828449e+00,-3.002773108924170931e+00,3.507613453853745344e+00
-4.631569357139768250e+00,-9.852761800060132913e+00,1.005696167576420441e+00
-2.229455334692459267e+00,-3.115430316008875877e+00,3.068050783844761042e+00
1.340112835494295274e+00,-5.655209657717635174e+00,1.311258278895948592e+00
-3.430753515627531502e+00,-1.013906417831127982e+01,3.131811976607641768e+00
-3.013998562399657910e+00,-9.806677252985695148e+00,3.083613041966158708e+00
-2.407990426430224318e+00,-8.457395943257791870e+00,3.546730814816722255e+00
-5.191416044608527791e+00,-1.042711053101667140e+01,2.535017207550466001e+00
-2.070010628951209242e+00,-6.965889179546348231e+00,-9.281697725076967220e-01
3.212132709861126312e+00,-5.619617687708886145e+00,3.818961465857205972e+00
4.526396853617981608e-01,-5.947232997962357715e+00,6.367229930912750024e-01
4.019318064339951757e-01,-4.841353314491382953e+00,1.227024883420986701e+00
-2.260706538245880637e+00,-4.128431071260632912e+00,3.969460498601439014e+00
-2.706695371885279755e+00,-7.811124676648245391e+00,3.603396445311335849e+00
-2.891766705131528337e+00,-9.276020759082205913e+00,3.457630015587714212e+00
-3.231975440685074918e+00,-8.123306572203695453e+00,-3.626066551224220724e-01
-5.005529242589604522e+00,-4.077983626546587637e+00,1.269610963694186134e+00
2.089262587140369387e+00,-5.917553187228430822e+00,2.831780585294907393e+00
-5.794593167813556711e+00,-4.224124340822022816e+00,3.889174834127508973e+00
-2.643163705463103419e+00,-5.288270437213203223e+00,-4.736567749537149652e+00
2.165303579258535560e+00,-6.112126222428218902e+00,3.866037858198197785e+00
1.559955717240566253e+00,-6.550364411819203703e+00,3.286747521518881054e+00
-2.213933270994131064e+00,-3.134695136980971242e+00,3.024066004583956246e+00
1.480721486903357809e+00,-5.343947483773567875e+00,1.219736697350097820e+00
-5.427381993745012068e+00,-3.062921462920439541e+00,4.009152536244804388e+00
-2.706294755188777046e+00,-3.324123228065809954e+00,1.500173052071203994e+00
-3.299177651075424489e+00,-8.272109029370071198e+00,3.546791030452031368e+00
-4.591698320292607605e+00,-4.794483636651214908e+00,3.858038138693479002e+00
-1.083405853709373812e+00,-5.549381177438827528e+00,-2.219151999831068256e+00
-2.107540234161712878e+00,-5.012263628648838676e+00,-3.642537814610545155e+00
-3.455207768958155956e+00,-3.493748265599620595e+00,-3.856235110959136958e-01
-3.104437338775981603e-01,-4.290050975297991620e+00,2.031946640641235646e+00
-1.174265830613027806e+00,-5.992552724432484546e+00,-1.515738741077511831e+00
-4.409504342696391355e+00,-1.027816383225871988e+01,2.045922186183457114e+00
-5.494453182197732488e+00,-8.008256026828316720e+00,3.026998244889969936e+00
-3.046962272056706222e+00,-3.114939369427996319e+00,4.051938322154736483e+00
-1.852597154227014986e+00,-6.208364450193062822e+00,-2.045132560620117612e+00
-5.511739506886669027e+00,-3.217888387188569954e+00,3.992430732609608235e+00
1.193851086182747601e+00,-5.327135846704433852e+00,7.956215529110324258e-01
-5.502812689828918025e+00,-5.145865354436494954e+00,2.696640941229482724e+00
-3.332183998965276839e+00,-6.690310944566501661e+00,-2.768864336924389491e+00
-3.508161571497355080e+00,-7.004932472784452635e+00,-2.271654722632498125e+00
-9.496187854979694087e-01,-3.725005741598800491e+00,3.010846551424215090e+00
-1.299054843531762149e+00,-5.896005634536924944e+00,3.817385137452082855e+00
-1.252523653288312167e+00,-5.466287610300335054e+00,-2.607021903242267680e+00
-3.567171004503919995e+00,-2.554976148163301986e+00,4.095784166664858006e+00
-4.411754840709273817e-01,-7.193589103282910457e+00,1.737260994246953238e+00
-1.844368930500527304e+00,-7.097647721852548663e+00,3.689907505703637458e+00
-4.642661046696564320e+00,-2.242268770848293791e+00,2.168635034687764307e+00
-3.478701715228690095e+00,-5.390245773790866224e+00,3.822631856770860370e+00
-3.098307128319512493e+00,-6.208652079040186678e+00,3.750916058701794675e+00
2.332058375239708603e+00,-5.195448993606597732e+00,3.201808016130260448e+00
-4.295395842567604761e-01,-6.046744118592377149e+00,-3.903674869924858015e-01
-3.154282021398074232e+00,-4.919664416368498827e+00,-3.450211402769847169e+00
-3.069009027234745890e+00,-3.209574780955423812e+00,4.042318746070348467e+00
6.818640114754761505e-01,-5.734483464307665201e+00,5.542697668289623403e-01
-1.020276283224145208e+00,-5.996385718914750029e+00,-1.296821984591599808e+00
-3.737355378929304806e+00,-2.979688374161030939e+00,1.011489886747689138e+00
1.626728993911747079e+00,-6.148334025247108592e+00,2.627111578091792854e+00
1.005267968609813156e-01,-4.789870149492825746e+00,9.047466268310084825e-01
-4.564260752035925073e+00,-8.267253281356010675e+00,6.352728349970363508e-01
-5.346377438488273626e+00,-2.220227046462399212e+00,4.092494407233782994e+00
-1.171426174658089625e+00,-4.099554640498510594e+00,1.269712992746252267e+00
-5.082329459444299147e+00,-1.139364975565428040e+01,3.205729005089054340e+00
-6.047886490089640965e+00,-3.671002484654998899e+00,3.935373052586057963e+00
-2.924774624276747836e+00,-9.267031861698237449e+00,2.197625646984472603e+00
-2.765568964062111945e+00,-3.724402418939071424e+00,3.998494061096943053e+00
-2.464442218501624815e+00,-4.974389490336325714e+00,3.883336083986156595e+00
-2.335648912049758330e+00,-8.979010583632687670e+00,3.497604538504857530e+00
-4.873650875570447738e+00,-1.054608448720989244e+01,1.908455224203841727e+00
-2.867113810974544208e+00,-3.739800395239951669e+00,3.994960609004609253e+00
-2.209502250721341099e+00,-6.036599848655938239e+00,-2.856970089285384429e+00
-6.064718377681780126e+00,-2.851143398871306633e+00,4.016882174076719991e+00
-4.711353196951030498e+00,-8.968941973195930117e+00,1.104841009410020503e+00
-3.747215058443260638e+00,-2.739089489063145866e+00,1.872160229326929715e+00
-3.474768037781796881e+00,-6.994224358389647733e+00,3.667176583137891299e+00
-1.632544988776139627e+00,-8.936339241605308459e+00,3.356466115949370721e+00
-2.655724199528809448e-01,-4.805543232012056798e+00,2.281098019759435214e-01
-2.818843648108183775e+00,-6.264999009996562229e+00,-3.267967442886767770e+00
-5.182665810454669675e+00,-5.984113096287335232e+00,1.965631194512221791e+00
-2.648619836053215604e+00,-4.270013497097495225e+00,-1.851463277802010365e+00
-1.396624269585430733e+00,-3.682417987778583868e+00,2.409757142777189998e+00
-4.754114327740628809e+00,-2.232883890140389127e+00,2.014264939403371812e+00
-2.210873470370427363e+00,-3.160441063597848821e+00,2.935359936628803013e+00
1.963785102521430126e+00,-5.926453756825712738e+00,3.879992996012841644e+00
-5.057079268397057348e+00,-3.316480711880652965e+00,1.310241171350906342e+00
-3.998020024690157381e+00,-5.935122788901787239e+00,-1.126953949079711581e+00
-3.074057454036618342e+00,-3.862987093345176870e+00,-1.087116132159297477e+00
-2.082212180713038929e+00,-6.141936571387940802e+00,-2.485041975290994909e+00
-1.460218992168770269e+00,-6.616900043606552373e+00,-7.419544416073775572e-01
1.271248258640878204e+00,-6.830997194196493538e+00,3.778366222338555236e+00
-6.115020196888374393e+00,-1.708663250799895561e+00,3.868876475609403620e+00
-5.029881500195415356e+00,-8.480844750001036658e+00,3.491775294385251360e+00
-1.262407459915649621e+00,-5.111512478946642624e+00,-2.574385872678321974e+00
-5.092801420457641726e+00,-2.390413899639979523e+00,1.289387318471501009e+00
1.053038568648742457e+00,-5.119591340970178983e+00,1.314169610382714515e+00
-2.409926885949951192e+00,-4.508010868568496754e+00,-2.315433452819295468e+00
-3.714809767174594324e+00,-7.147244771482678338e+00,-1.715731610134792806e+00
-1.676677099785751635e+00,-4.692904794655379241e+00,-1.748909519721336459e+00
-4.836444719802165615e+00,-8.743747623794918766e+00,1.403059218130841224e+00
-1.789802165670787204e+00,-7.629833299827045501e+00,6.981605589323971461e-01
-5.163904611528207234e+00,-3.469307694994211211e+00,1.607372444604889594e+00
-3.801431608075100943e+00,-2.635354090709609576e+00,2.158694817156703749e+00
-4.519927026462617903e-01,-3.867970525669070181e+00,3.331563020207972681e+00
-2.779799546059199322e+00,-3.329924452459151141e+00,1.354639621753613854e+00
-5.539140003690134151e+00,-7.725691939607103542e+00,3.108666717024295867e+00
7.960391740129394433e-01,-4.449052623025162134e+00,3.999789813125634641e+00
-6.163412917808506336e-02,-5.844112282658095125e+00,3.847280656602529270e+00
-3.288915889480472199e+00,-8.987063230978886708e+00,3.477669667142906373e+00
-5.042707218490882326e+00,-8.266462605511950557e+00,1.881753152195046797e+00
-5.227142364263643870e+00,-1.466241476958476175e+00,4.009438472486731797e+00
-2.676744254008644130e+00,-3.883788662583703921e+00,-4.906678396620741123e-01
-4.086350415123100710e+00,-9.075809096339970239e+00,3.453041296422022732e+00
-4.463405355846043143e+00,-7.735530802537616601e+00,3.070834984732347395e-01
-5.536744150494069316e+00,-7.424503747774559237e+00,3.065371545645009910e+00
-5.709553842916709421e+00,-6.290049414226588809e+00,3.376058770858325619e+00
2.035293690403177091e+00,-5.157674145010221700e+00,2.837393790036220942e+00
-2.241117118600164382e-01,-6.118014156077808963e+00,2.533270868490216862e-02
-6.169954027976748634e+00,-1.201962143990033649e+00,3.949669376107432406e+00
-3.278396398776754594e+00,-5.401376608867680673e+00,3.825577265002740202e+00
-5.677149029030612581e+00,-3.561676303507910646e+00,2.955978420413596375e+00
-3.790274808115710048e+00,-8.045904686616454526e+00,-1.275004730741406744e+00
-1.028236562599552650e+00,-4.751353182735330805e+00,-8.648040603761976142e-01
-1.884435282503180042e+00,-5.626669093746499151e+00,-3.176191237613112950e+00
2.817903023073110358e+00,-5.461593105043887952e+00,3.053410187624409744e+00
-4.350236747518299474e+00,-7.331858190952142529e+00,3.616846144469466839e+00
-3.060558985985397662e+00,-8.664223596690792562e+00,8.841663803873093253e-01
-1.112072273732124250e+00,-5.542952508746131990e+00,-2.270587598845144495e+00
-4.249128731407465942e+00,-3.894510436314094548e+00,3.952189843251179724e+00
1.189413987511293902e+00,-4.476650047596376858e+00,3.889446253057537994e+00
-3.406925177709807073e+00,-4.108457423281357990e+00,-2.545486724028205749e+00
-3.319308060529475135e+00,-4.467232205887134988e+00,-3.075900350437875908e+00
3.770075637634178189e-01,-6.948170319210085211e+00,2.403625947037535848e+00
-2.509101743319968936e+00,-4.226448505308744608e+00,-1.456520145948589473e+00
-5.396547058979897393e+00,-9.623900045789570257e+00,2.970667009281117821e+00
-8.480381751669568979e-01,-7.864124809280548689e+00,2.431114774409372625e+00
-5.447350689411694979e+00,-1.046146151136174574e+01,3.291330975113631485e+00
-4.876228766663851744e+00,-6.901980471883963908e+00,3.647961677130355351e+00
-6.554743763663344325e-01,-7.729225443319754696e+00,3.652553284405028133e+00
-1.706188963671902981e+00,-8.428604151191160909e+00,2.306162949319683353e+00
-1.237193703147840829e+00,-3.939117155778648627e+00,1.743468504843399769e+00
-4.032602156341963173e+00,-6.559715299409774936e+00,-9.600124894456899538e-01
-1.457300758244265859e+00,-3.483350609424372912e+00,3.032992869345567666e+00
-5.259577247388062204e+00,-6.049633151071761361e+00,2.174082008165016511e+00
7.189987969156795833e-01,-5.704271129418239994e+00,3.876526031133523453e+00
1.781917758550318975e+00,-5.799905811187498372e+00,3.888609808614897023e+00
-1.715847232376609632e+00,-3.395039116653874256e+00,4.051523795948363649e+00
2.766987537442800460e-01,-4.780117181162440332e+00,1.238415552258460561e+00
-4.681114280843742925e+00,-6.786094244065989045e+00,7.575155996932767533e-01
-3.653082929975540738e-01,-5.809293905901041555e+00,-7.458733582337168100e-01
-3.268964403882107295e+00,-7.914939896944493292e+00,3.582032019769938902e+00
1.605944527989029424e-01,-6.785897264329343592e+00,1.802721267289241425e+00
-2.774983605817316068e+00,-3.730332776844841991e+00,-9.731728843416871666e-02
-2.540323405321267991e+00,-2.940117879917890864e+00,3.181308609130429677e+00
-4.458873525029969365e+00,-8.781351185003506643e+00,4.239351301227415325e-01
-1.506714190985795621e-01,-4.820024000786390594e+00,3.697314835818191203e-01
-3.155716698923344943e+00,-6.131266473534425110e+00,-3.297419381883376577e+00
-2.037572389724017885e+00,-3.433478908927627415e+00,2.232962205299286129e+00
-4.312646105296574106e+00,-7.050795062260397650e+00,-1.699528352440203560e-01
-3.395722189614313713e+00,-6.777518061344812494e+00,-2.592589114938917305e+00
-2.764379781357315213e+00,-9.522626831181231211e+00,3.436276750891327225e+00
-5.023679715990548189e+00,-5.087771346514990967e+00,1.441127823751191306e+00
-5.257329591324137574e+00,-5.839454950407919398e+00,2.142369213860388921e+00
-4.038873228329237897e+00,-5.285622426143909536e+00,-1.100415177291969471e+00
-4.599338620258397015e+00,-2.803962730462213671e+00,1.937008067167830250e-01
-3.536196762013801731e+00,-6.075522696978633341e+00,3.755026794869345430e+00
2.556996222588844847e-01,-5.860416340051347817e+00,3.852075884786328785e+00
-5.901807567241318608e+00,-1.469920872875163376e+00,3.283986886394780758e+00
-4.930244394203970870e+00,-7.470083111059550696e+00,1.490762316065613824e+00
2.281342163820192059e+00,-4.999686434457096595e+00,3.829846574894153477e+00
-2.072640456496338324e+00,-7.752969630092944264e+00,5.393879621545175640e-01
-1.110339151973247951e+00,-8.437747384839203946e+00,3.574709841067244209e+00
3.797644772998017837e-01,-5.566915225686384971e+00,-1.743605334741950841e-01
-1.572728370827710886e+00,-3.340602089792287455e+00,4.059678127823017846e+00
-2.503954555436247009e+00,-5.995373721055332616e+00,-3.338931845536526222e+00
-3.379125611783662553e+00,-9.556852647277887414e+00,2.114563322313242288e+00
-4.012017317968720853e+00,-6.918158573017035629e+00,-9.695491557695937734e-01
-4.615754696272368562e+00,-2.898560049614224088e+00,1.089699993876535461e-01
-1.721985381732442200e+00,-3.751596173725062044e+00,1.606945483989951962e+00
-3.722563531883522625e+00,-6.104626878505818866e+00,-1.823794614420438220e+00
-3.279852212822623514e+00,-9.912886272935613974e+00,3.388076738070845195e+00
-5.487747620048683217e+00,-8.252047913960202763e+00,3.039518935237053299e+00
-4.624612691415001642e+00,-3.391343576182979103e+00,1.926725727235550634e-01
-4.538535616808239581e+00,-2.871958288378725133e+00,4.863815264426080837e-02
-4.458249644558806679e+00,-6.027671593676153350e+00,8.354576632519723767e-02
-5.392928109413926308e+00,-5.497903452629523180e+00,2.453648557948700848e+00
-4.112357303680799769e-01,-5.059616583855825134e+00,3.916326941393510452e+00
1.092518448361512018e+00,-4.486155713655434418e+00,3.690824435990508690e+00
-1.848949837627548443e-01,-5.599131076381524963e+00,-8.906120715140084521e-01
-4.234566238033628416e+00,-5.584454345874239500e+00,-5.537800695684005348e-01
-4.621479819912596376e+00,-5.831381197367004887e+00,3.756894037870795788e+00
-3.199943228673921780e+00,-5.615218739483337274e+00,-3.245673869607363038e+00
-2.066109422786465366e+00,-4.725022029930523892e+00,-2.524993094795190185e+00
-1.303364367141556013e+00,-7.655665486636741512e+00,1.415349522550370054e+00
-4.282843485930079019e+00,-2.893124730615740603e+00,4.041159014096967206e-01
-2.205575140444900328e-01,-3.829991156190531321e+00,3.861672811610772360e+00
-3.103180390768341290e+00,-8.360673116150142192e+00,2.581749470429442472e-01
-2.445414490560300635e-01,-5.970284919082988750e+00,-2.788889850200212406e-01
-5.359538835675709656e+00,-8.382662286806526808e+00,2.721543355636708572e+00
-4.357343798973663418e+00,-9.588471567373666460e+00,8.285079995586246415e-01
-2.067428192277049881e+00,-5.702086966822935921e+00,-3.286858736244139489e+00
-3.416933286446266038e+00,-6.261460565107087817e+00,3.739393169196810529e+00
-4.873855096328150616e+00,-2.538015232810096222e+00,7.370876372837252832e-01
-4.781868626053102922e+00,-3.283016738527193112e+00,4.000780696900599231e+00
8.217068343769996508e-01,-5.123226412952746500e+00,3.934932388813824566e+00
-9.289494263202182633e-01,-6.739450193167254355e+00,2.176637571762356504e-01
1.201673424136647128e+00,-6.931715611221804352e+00,3.506874430585229518e+00
-3.845333616236415342e+00,-1.030841853334120195e+01,2.878268700087985188e+00
-2.169339694705024524e+00,-5.848894903634782594e+00,-3.152591545818804075e+00
-1.525154885327368648e+00,-5.783597895825012714e+00,-2.388817797025277301e+00
-6.864225218439400367e-01,-8.307661126598441470e+00,3.482391175265933114e+00
2.798258615606356248e+00,-5.226795842794279778e+00,3.876367718605262525e+00
-1.743344869704864797e+00,-3.481061899171281393e+00,2.557317433289338471e+00
-4.696768789522712595e+00,-7.844014692606272376e+00,3.560220563609024058e+00
-3.833085282444760544e+00,-5.105627147618813311e+00,-1.658732780359873482e+00
-4.263300905376310013e+00,-7.340716098053057692e+00,3.617734017131300828e+00
2.263722135777813005e+00,-5.021639596278800965e+00,3.719978208566711686e+00
2.474182078178842392e+00,-5.365813818833253812e+00,2.821055937045624074e+00
-4.377784263368016404e+00,-3.351030095015956611e+00,4.002304869657634434e+00
-5.368741285113441286e+00,-1.068440026459020409e+01,3.028685042952615980e+00
-2.063367860072401694e+00,-8.185326748529575980e+00,3.580037284792541907e+00
-3.492203765797105230e+00,-2.828189950647173934e+00,1.978761612784728063e+00
-5.606548387620384766e+00,-2.806793139564641493e+00,2.679163189284914814e+00
-1.189110680780821161e+00,-7.291321599369487316e+00,8.914461288374794234e-01
-2.345108392961433363e+00,-6.973871012862288055e+00,-1.291539716308845787e+00
-5.430818070674694020e+00,-1.370400927168202054e+00,4.014281144382926492e+00
-4.202351705627613399e+00,-9.981925864725377906e+00,3.362846307458311035e+00
-5.806238097831633915e+00,-6.554627075842343942e+00,3.660515569970370642e+00
-6.339275698115561797e-01,-4.756495773488760292e+00,-2.163381165722196298e-01
-3.979464939112592248e+00,-2.800798342756554149e+00,1.254141301987176327e+00
-2.232670523835663889e+00,-4.513437118730432296e+00,-2.035281251134774649e+00
-5.918944167213491703e+00,-2.702120467753477584e+00,3.480223739884480416e+00
-4.595252205579458682e+00,-5.333173847642201260e+00,3.550630591804672664e-01
-4.762165921338780805e+00,-2.382619296634787887e+00,4.088486164674840495e+00
-6.205452452528815721e-01,-6.561834961595946147e+00,3.097628024913789968e-01
-3.586398674429022826e+00,-6.970524881159423813e+00,-2.072043250914426871e+00
-6.425284316949461116e-01,-3.984686806483838772e+00,2.583542561167889939e+00
-6.383014449648857225e-01,-4.521611908677906300e+00,3.963933645444114084e+00
6.176009254949006433e-01,-5.904343765639460173e+00,7.833960100937762405e-01
-2.369688748557942315e+00,-3.757009324093447233e+00,4.912135774120209852e-01
-4.721326276006097444e+00,-1.091242020736051188e+01,2.802655668060422212e+00
-5.081214565403956662e+00,-7.282933014334507682e+00,1.861086838619920636e+00
-2.715398287175842196e+00,-4.890694611674632597e+00,-4.227800720121128286e+00
-3.081095095168367770e+00,-3.946059400018379293e+00,-1.401951390272363485e+00
-2.590643496487206487e+00,-4.489286666135934745e+00,3.927839682990492687e+00
-2.408024321287407510e+00,-5.252513943867561430e+00,-4.595536200104103131e+00
-2.472269217347908832e+00,-7.291970268314056369e+00,-8.718233418078260577e-01
-1.931048313603224154e+00,-5.125463068948343803e+00,-3.756678683871402580e+00
-3.310998213941221735e+00,-4.382048827075735176e+00,3.923764192668068418e+00
-5.399397403426783981e+00,-9.916446886118007953e+00,3.014083265153689961e+00
-7.580058628161950862e-01,-5.582125374525380934e+00,-1.710487852495926386e+00
-5.382772934512469298e+00,-1.013378983114151488e+01,2.997506739871292680e+00
-4.541545229219657309e-01,-5.344044834782937237e+00,-1.737668387923383184e+00
-2.417225677671957396e+00,-5.498560354623770685e+00,3.833457099311763816e+00
-3.501387413423373118e+00,-6.653839840697272301e+00,3.699648065191252222e+00
-2.699034938686737384e+00,-4.200064560598817387e+00,-1.681699957676356494e+00
-8.856570125528828719e-01,-4.801422203990592052e+00,-8.061210012790701596e-01
-2.402360801871131546e+00,-9.080493570183575613e+00,2.567332555736971944e+00
-5.420392029707800319e+00,-3.484259461754130260e+00,2.277481942737610066e+00
-4.060254231031460215e+00,-6.834200958040524299e+00,-8.541980136622548958e-01
-5.481843393391913288e+00,-5.513617986017591122e+00,3.770419532408899599e+00
4.428911161795998641e-01,-4.213320221428542567e+00,3.586482511998039691e+00
-3.733701818919955784e+00,-5.962793936695073072e+00,-1.812222757103045589e+00
-4.339053853439936326e+00,-4.892806244710474317e+00,3.853580402638224989e+00
3.473441494399536755e-01,-5.015423748357325628e+00,4.999006743344179826e-01
-4.514559815345955407e+00,-2.380486571162165443e+00,1.881380733666664806e+00
2.604219318768341118e+00,-5.302002853846667918e+00,3.273784124047445676e+00
-4.481948498336018716e+00,-1.064197601689354578e+01,2.626324378172294249e+00
-5.337512920932669935e-01,-7.956743886099418184e+00,3.036412524989530848e+00
5.022020665622323188e-01,-7.059536565852831735e+00,2.783942533801972097e+00
-1.473134808600551793e+00,-5.507143654693432033e+00,-2.834019919525996745e+00
-2.568455385007267111e+00,-4.952997050189219763e+00,-4.206344019022156822e+00
-3.707923815113482124e+00,-3.522900508909298178e+00,-9.195546007403770927e-01
-4.252039389614142850e-01,-4.111966338945546973e+00,2.487151696722277538e+00
1.611746957113910250e+00,-5.430717329597261944e+00,1.265174030536803995e+00
-2.158607961929072339e+00,-3.801095982364036008e+00,6.876239759675015772e-01
-4.737008056218652285e+00,-6.823324427226282296e+00,9.077252573585697926e-01
-1.248107245457491965e+00,-6.608365386769830430e+00,-4.662304038385165494e-01
-2.973024984801957427e+00,-4.619159636888161558e+00,-3.673572437783812372e+00
-9.631090279243390562e-01,-5.524619886131763913e+00,-2.100013487944309976e+00
-4.868332785574393529e-01,-7.715727965743823802e+00,2.650434167844321287e+00
-5.914822200096151228e+00,-4.856229627567263840e+00,3.734487439179595025e+00
-3.919296731354125818e+00,-8.222042512217294430e+00,3.539185799290460288e+00
-2.002776096861344612e+00,-5.770888614211663104e+00,-3.069354277102722683e+00
-1.574919081637543128e+00,-5.877695440653423198e+00,-2.281366217851634293e+00
-4.641973442692633789e+00,-8.464924563969201898e+00,8.620688321852550962e-01
-2.881162226744984789e+00,-4.133300985829461816e+00,-1.746425181374667623e+00
-3.080583910177018048e+00,-6.075341071937224058e+00,-3.500055626425530253e+00
-4.978985917025684493e+00,-1.616352801505700487e+00,3.881961907566013892e+00
-2.891211173114450528e+00,-9.014755178552510628e+00,1.772235228416097153e+00
-2.175918553181882764e+00,-7.723055478334365453e+00,3.414552600375804214e-01
-4.318765341824341242e+00,-8.977330950098382445e+00,8.299742968365315943e-02
-3.841533476226532517e+00,-6.943071708660086827e+00,-1.410674704351294162e+00
-2.829947843446277922e+00,-3.162800183780541730e+00,1.879208409951536929e+00
-8.226002224517148242e-01,-4.884663017403778618e+00,-1.002962450717491905e+00
-5.197621039122936715e+00,-3.597259791634554560e+00,3.961955505376414610e+00
1.035529919601381188e+00,-5.321766038341222860e+00,5.473041802884541784e-01
2.288309539055023212e+00,-5.372733669159330816e+00,2.481303536261534326e+00
-3.713127820753499897e+00,-5.875833565886519949e+00,-1.876525738623712858e+00
-5.270945539153180981e+00,-8.017254137352193055e+00,3.531884959938961455e+00
-4.650998503391827299e+00,-3.337194190803645544e+00,3.998156804775391038e+00
-5.249189810903086340e+00,-3.680596252778529642e+00,1.855573608753565695e+00
-3.746247908537053473e+00,-7.420118681265869043e+00,3.620423683711580409e+00
-5.189440387497519680e+00,-9.148271434032491101e+00,2.372544028950933193e+00
1.701044224094889312e+00,-5.084368842348476747e+00,2.539114088161370741e+00
-3.254066539361951893e+00,-3.062059781004966119e+00,1.528902340992212672e+00
-3.515231768993966721e+00,-9.219463429465701410e+00,3.450586953432459136e+00
-1.185397528722994531e+00,-7.497776555598105297e+00,3.664348616680933368e+00
-5.107991218497744512e+00,-7.624235336062534785e+00,3.573269384246221314e+00
-6.147237057689677542e+00,-1.543960328331850151e+00,3.932554393600981690e+00
-4.547157598754845154e+00,-1.072411788829900026e+01,2.690190555175905107e+00
-4.350093971466420406e+00,-5.205819050179838925e+00,-2.993566713634982501e-01
-1.467939140704127343e+00,-8.705124639800668973e+00,3.150641441960615907e+00
-2.023564493983736057e+00,-6.271215398006649622e+00,3.766444267703180415e+00
-1.424806674236688941e+00,-7.944474811158922734e+00,3.616222803272380659e+00
6.039429431177220642e-02,-5.893543263241252994e+00,-3.011238773766942729e-03
-8.863453543252249878e-01,-3.538668991237321038e+00,3.797397790720500765e+00
-5.047479786422448100e+00,-7.781863105922200319e+00,1.834571410137868730e+00
-3.860370228915167345e+00,-5.336584889019711397e+00,-1.559229748253588399e+00
-4.235985964791019853e+00,-9.023095376542782375e+00,-6.138661800957345011e-02
-3.613255955921523821e+00,-9.514704876635342146e+00,3.419988429633996407e+00
-4.947867753395006396e+00,-7.975024635922308036e+00,1.598798480797342547e+00
-9.589267341735076000e-01,-5.995405082042303491e+00,-1.214292672178287402e+00
-4.830188657388516660e+00,-1.630236218841527140e+00,4.083118436068161827e+00
1.226386593626787036e+00,-5.164271216217194649e+00,3.939083606816347505e+00
2.925660781060120952e-01,-4.830111141253407681e+00,1.082959876997289461e+00
-6.519972388981852829e-01,-4.488513582676757707e+00,7.302943227116013292e-01
-2.771688764053994003e+00,-3.046334553063947403e+00,4.064121861259656576e+00
-5.081227146111252146e+00,-2.032298449442371258e+00,2.192193773295949999e+00
-2.721750654854029783e+00,-7.828140445954272941e+00,3.601443956908409127e+00
-4.085649003711654181e+00,-6.547813473360451830e+00,-8.232647457224889775e-01
-3.715469040777979792e+00,-3.635587785713277675e+00,-1.343241007497031791e+00
5.051230356730675997e-01,-6.388449268223839184e+00,3.805885353297452589e+00
-6.906226313154845142e-01,-6.983087854766261593e+00,1.000785049631626400e+00
-4.190664407140817005e+00,-1.058256597788456865e+01,3.304838375920164495e+00
-7.649255434998757375e-01,-7.775303326547065019e+00,3.645886006553146430e+00
-8.993988577971654408e-01,-3.898909073478550091e+00,4.019069545777195884e+00
-2.058536905200748279e+00,-9.054524390994636462e+00,3.495850149280644636e+00
-3.574162957862742296e+00,-1.022218404237377598e+01,3.352171211238253790e+00
-5.056479421552423581e+00,-8.446010083879386343e+00,1.939724539675752091e+00
6.617896909393963800e-02,-4.030203914536969911e+00,3.616781325509591749e+00
2.781690599802371988e+00,-5.418171463319560566e+00,3.150473249178162849e+00
-4.826296805885188945e+00,-4.333508542827151366e+00,8.340615997804753379e-01
-2.555203156835804013e+00,-3.536402113121236646e+00,9.817543290506548503e-01
2.164169774563110327e+00,-6.146602091112582045e+00,3.362913596893545964e+00
-5.665483452102061390e-01,-3.887178158378505888e+00,3.067679531130850901e+00
-4.321147586436389076e+00,-4.487285716935438984e+00,3.893262637007920191e+00
-2.032880892525603223e+00,-7.975160554956014280e+00,3.601029218875746007e+00
3.661440559782577070e-02,-7.409902033372186558e+00,2.798595859258896645e+00
-2.229820280372897034e+00,-8.346682545809738230e+00,3.561046430464953172e+00
-2.239304127833879221e+00,-7.638596609291117723e+00,9.642665635005730207e-02
-2.477808996397548924e+00,-6.337653436106886140e+00,-2.663205607124700780e+00
-5.214119715776742936e+00,-3.441147435671907395e+00,1.734742019451785744e+00
6.310755335429267809e-01,-4.261357639483143167e+00,3.729742863488695548e+00
-3.209447314771856519e+00,-8.486083624343542908e+00,3.464578865754733839e-01
-3.812698257171386995e+00,-6.320191795179795236e+00,-1.562432072008581363e+00
-6.830621291317602317e-01,-7.634200322351867740e+00,2.228210585201712224e+00
-3.246889760508077760e+00,-7.666618471137180535e+00,-1.236735537294786580e+00
-4.564452096650116530e+00,-5.930509421978198858e+00,3.748427649486092417e+00
-5.169763759939681513e+00,-5.667441246464916205e+00,1.893057613923212479e+00
-9.508734795514245386e-01,-7.151164915906432107e+00,9.570737482907083482e-01
-5.586671143185667709e+00,-1.405684347574861714e+00,3.621896350266812448e+00
-4.247478717482061406e+00,-1.976710132542299325e+00,3.805702368859777973e+00
-4.579984323683572001e+00,-8.630258226813232625e+00,3.486326792922852746e+00
-5.420676472194219109e+00,-5.791077853589536417e+00,2.562013040551442966e+00
1.576188181320788084e+00,-6.415228261002995147e+00,3.056478733231689393e+00
-5.180282526265877152e+00,-1.069970005305041205e+01,2.539543743774951068e+00
-4.500026220526662790e+00,-6.340967083691986694e+00,2.309356696249687535e-01
-2.845465024484632011e+00,-7.510067224198150981e+00,-9.773513396717018464e-01
-3.640070473927160766e+00,-2.507220452122326471e+00,2.898982207576004555e+00
