2.697889541245862555e-01,-4.368223634472826605e-02,-1.533425055498697454e+00
-1.985683203965033297e-02,7.267172460703242853e-01,-2.590831069915543239e+00
1.952312857755536257e-01,2.958864167802668921e-01,-3.361100973620299470e+00
-5.825495612028010195e-02,1.323923928622059654e+00,-1.466256343992294209e+00
7.862505405496197364e-01,1.162561478637912149e+00,-2.361513536951132419e+00
6.054864498322112265e-01,1.217067717200423616e+00,-3.145864320113483714e+00
1.549943255425636490e+00,-5.399266528082928840e-01,-2.049460893353033164e+00
5.291463854222780983e-01,7.900207451848443307e-01,-1.392132679325646993e+00
1.743224015270060878e+00,-6.080630064837064808e-01,-1.268833557326666694e+00
1.407640609177078117e+00,-1.465955793303574950e-01,-2.986929248847487006e+00
8.946860810815999987e-02,-6.436506149853764569e-01,-1.633723487935597074e+00
2.871963030044308862e-01,2.051157476879306607e+00,-1.612738370299491075e+00
-6.123854638098757963e-01,-7.536173758049974358e-01,-1.798212906030478342e+00
1.030109428545798789e+00,9.866934101415593406e-02,-3.679343902956228263e+00
-2.170014793122746477e-01,-8.098699062867872334e-01,-2.102394347646002526e+00
5.370430527381706565e-01,-6.449945053291941122e-01,-2.191493817294525304e+00
3.412600137323376082e-01,-8.142652537529140311e-01,-1.596037437975140083e+00
1.163244531485355004e+00,-2.330679047278070848e-01,-2.883780576044182808e+00
3.300405003620479616e-01,1.230473019878345564e+00,-2.679697075782469184e+00
-3.095303444271433335e-01,-3.930761516651153364e-01,-3.074026381689006993e+00
1.403482464273555275e+00,3.856812503232072697e-01,-1.609131280217554805e+00
3.879390017470230601e-01,-2.038244114606889146e-01,-3.239058635371594885e+00
1.545768899030368404e+00,-1.733809770037568754e-01,-2.875125008011769623e+00
8.586030290475548110e-01,-6.886210192598021251e-01,-1.973324992950280299e+00
4.736049928897350103e-01,1.613540904151536726e+00,-2.443187950323673086e+00
1.198398626769678454e+00,6.332742937318676102e-01,-1.914018265884407821e+00
6.111191787062432157e-01,1.180904009195139936e+00,-3.190082084178027522e+00
1.490447531474172971e+00,2.378644481847242975e-01,-1.702985007641765414e+00
6.823002569652236726e-01,2.377613546561368474e-01,-4.121950458560269759e+00
9.365649997797879101e-01,-3.336235562984211644e-01,-2.742352276260061839e+00
-1.971853476230407409e-01,-8.431656434991400273e-01,-2.020135356748763211e+00
1.128936522145413068e+00,-7.808356646078767893e-01,-1.665045395617140933e+00
1.347541444923457954e+00,3.918017713393384116e-01,-2.012296776392058728e+00
-8.608617067552586377e-01,-9.630439234236685131e-01,-1.998455924638282699e+00
2.166456688852770540e+00,-7.168670997956965163e-01,-1.420166480689174282e+00
3.314716909722781324e-01,-2.129796734930323732e-01,-1.537136181388986556e+00
7.964485390342491700e-01,-2.464038286917185350e-01,-1.438951004133033784e+00
2.173827334591005744e+00,-7.043073242332639206e-01,-1.297403143666875369e+00
9.705949695579457748e-01,9.086332628511808451e-01,-2.250926681327330758e+00
4.862508155480808059e-01,9.007515155186036626e-01,-3.255375487937319345e+00
-1.585447157015265895e-01,-4.489068109801987866e-02,-3.108345080609149491e+00
1.813689029454015778e+00,-3.316225050857621315e-01,-2.156377329658265563e+00
8.270161214125599791e-01,1.229421431834714085e+00,-1.696110471838541134e+00
6.469400223589308885e-01,2.801280957104959057e-01,-1.418161468043573015e+00
2.097128578944276456e-01,9.934264372318035718e-01,-2.710802680055728331e+00
3.719514574991613087e-01,7.060154803355986330e-02,-3.862021354064554490e+00
1.224916527369670050e+00,-1.501546895230202461e-01,-3.047163722092227633e+00
7.752500890005911138e-01,1.311768178155984010e+00,-1.669637582719504465e+00
2.190873930168729444e+00,-7.206226726884351619e-01,-1.249840521126095449e+00
-5.439759657754289490e-01,-1.175742625485246551e-01,-2.544409924056057370e+00
5.998437360364042986e-02,1.552458359919678399e+00,-1.924176084196391079e+00
-6.369105510837299589e-01,6.732283866888230661e-02,-1.720232748852690063e+00
1.447774015677081083e+00,-5.456795338919280258e-01,-1.327044310729502463e+00
1.502026007457735846e+00,1.432166482421757536e-01,-2.106091808716614722e+00
1.234879149212797511e-01,-8.150350505352003116e-01,-1.963629287681296631e+00
8.942180161843636954e-01,4.711228229477349427e-01,-4.341842051487417642e+00
1.122123773379870793e+00,-3.009067075121905632e-01,-1.373337285651919704e+00
3.841402625173285235e-01,-8.396914454705531328e-02,-1.512533749699894736e+00
7.964155176723998197e-01,-4.554828636562046618e-01,-2.520713176344488105e+00
3.128841043282311052e-01,-8.920037041979496095e-01,-1.610128033222441912e+00
1.803935305568409087e+00,-5.373797862452522889e-01,-1.960336302287986054e+00
-1.217764495519293860e-01,-9.230350970024239210e-01,-1.708233567552284615e+00
7.614645593579286720e-01,3.455557023327549548e-01,-1.386500693252295635e+00
7.331916372613975774e-01,1.086217645239337726e+00,-3.171937168487666714e+00
4.332363899355871906e-02,9.414018861181112641e-01,-2.487308257600673311e+00
1.418866444551668993e+00,-5.150107313167147094e-01,-2.154428685618427153e+00
4.053452518004344030e-01,1.627934763077762970e+00,-1.334117139386611139e+00
5.794086588082435485e-01,1.235509286852321642e+00,-3.085134024239781780e+00
7.059114896643927661e-01,5.115697092458396655e-01,-3.992917958784777621e+00
-7.532769467364908156e-01,-1.214396295557141348e-01,-2.203766915989469943e+00
8.247245311984260918e-02,-2.425118102918984442e-01,-3.266151029785631543e+00
6.568960758852250281e-01,1.310142992067886425e+00,-1.311424356419352844e+00
9.712092790617732341e-01,-4.216231660884947607e-02,-1.380039391433024676e+00
1.520512582175228999e+00,-6.656986509129912966e-01,-1.323337698032973631e+00
-3.524870518425392563e-01,8.384578295720278573e-01,-1.579816071642835107e+00
7.314358418379527382e-01,9.433847893707468790e-01,-3.617594614932720276e+00
2.544594840442961914e-01,1.549396878944578893e+00,-1.375052233111014655e+00
2.941865314550588528e-01,2.067222827823676390e+00,-1.474668096998312361e+00
9.444103351257656653e-01,1.794565384251082252e-01,-1.363396180635395583e+00
-1.372946274905295812e-02,1.302480516715744718e+00,-1.458706194146695001e+00
1.485355659751737667e+00,3.269753689381448836e-01,-1.278280957119583006e+00
1.303387065480267948e+00,3.401988345054858809e-01,-2.624559486295708677e+00
2.056290040362183102e+00,-6.863028488509689273e-01,-1.208384091859975751e+00
1.254547356721611884e+00,3.417325150449018190e-01,-2.996397049533803258e+00
7.250022730087094525e-01,-5.928284881195817757e-01,-2.238587324294869507e+00
-2.317571542137652485e-01,1.017933022890360029e+00,-1.535222123056845467e+00
1.886784462213454416e+00,-2.644121037775529759e-01,-1.202585753608019781e+00
6.034668280949542218e-01,1.629776172094541842e+00,-1.290648827353996886e+00
1.164729021557892041e+00,6.275607197574506468e-01,-2.205638351234140870e+00
1.086014829744997190e+00,9.130949203342092479e-01,-1.330054100432485953e+00
6.256671522137907671e-01,-3.054451736026456143e-01,-1.482253274580492164e+00
1.563835874433857631e+00,-2.056439652966167431e-02,-2.478758813511699355e+00
-5.960918454574003489e-01,5.247512970875709559e-01,-1.837894934201481201e+00
-2.915428171568471560e-01,5.624279659024642442e-01,-2.302580341588560842e+00
-4.881958207630347490e-01,5.890047933168872374e-02,-1.688599720007848415e+00
1.672083902565481228e+00,-2.217958800646722128e-01,-2.685405970366082862e+00
1.831445533487807920e+00,-7.337666341030814054e-01,-1.508526018766997767e+00
2.728976795818262024e-01,1.197012540405717029e+00,-1.406796600843000400e+00
1.716424430186542560e+00,-6.146790378467335003e-01,-1.275359787194097372e+00
-8.631473674766003690e-01,-5.826863554800203460e-01,-2.468753059735843802e+00
1.029542559811715385e+00,1.857908739785096852e-01,-3.875431079739262152e+00
1.239975829677612412e-01,7.276224200376014695e-01,-2.826650755573123952e+00
1.547596499152807725e+00,-5.771925473191649725e-02,-2.798644948986796166e+00
1.700264060365765051e+00,-9.882901548749797871e-02,-1.825540722663600679e+00
8.674483124977365733e-01,1.130503112334859228e+00,-1.897071732554975076e+00
9.096825479913952517e-01,7.577100244749657154e-01,-3.511016208329504451e+00
9.705004402467362068e-01,5.254680665580089283e-01,-4.248106763894837989e+00
-1.074607742045049497e-01,1.655919863525950220e+00,-1.548677359781166052e+00
-1.724419943234763719e-01,3.393873184188294090e-01,-2.714099784344025323e+00
9.261517698438294088e-01,7.449190011555519852e-01,-1.309981911624469975e+00
-1.244979122553944162e-01,6.515510331545866229e-01,-2.491300371663211610e+00
1.702584788100461877e+00,-6.830446952560920160e-01,-1.670685955355637020e+00
-3.897866417013754609e-02,-2.807846412841306649e-01,-3.225456830039635125e+00
1.088237851440796877e+00,8.732057638874296535e-01,-1.520604121984249435e+00
3.619688876773008435e-01,5.883584637626692038e-01,-3.352792147049616034e+00
-3.850605450208753888e-01,1.072223749839262608e+00,-1.656024970689708109e+00
2.521293647030551921e-01,1.809103125759829345e+00,-1.992296621745132335e+00
2.835104539594951456e-01,1.109966212688849430e+00,-1.413314669726430717e+00
1.355621595357538567e+00,3.595984635743220137e-01,-2.117249273233785534e+00
1.820993327753577695e+00,-3.618198313286742906e-01,-2.256911692874298048e+00
6.519831191578968621e-01,1.323680358462903772e+00,-2.566223208995726424e+00
-8.472565427054095100e-01,-1.108889566505886770e-01,-2.038938704859948992e+00
8.198409754551644335e-01,-6.156016439438576349e-01,-2.151969863981342712e+00
1.224564979883203897e+00,-7.612736949773917239e-01,-1.673315141336988665e+00
-6.069409618584490351e-01,-9.568709607199710199e-01,-1.917510519684875181e+00
1.188199631543476631e+00,4.466293436129937788e-01,-2.965831647700257090e+00
8.508830959942208227e-02,2.039307531236505433e+00,-1.362319481558774248e+00
2.121615230065052315e-01,1.906235000158708337e-01,-3.490687154063214948e+00
1.270553776564389059e+00,3.443806602649485127e-01,-2.858116485222032210e+00
-2.789690948183145558e-01,1.328053860670170283e-01,-1.635389854097667683e+00
3.872213263764059388e-01,1.511605631080641610e+00,-1.349885638730533799e+00
-2.191020008485519976e-01,6.902362986253148813e-01,-2.298254428435015040e+00
3.169933521531607123e-01,2.014650557233551353e+00,-1.571221099658790976e+00
-4.634992913162711697e-02,2.809497798918138556e-01,-2.978044515638770040e+00
4.188770659639735050e-01,-5.044844576368218148e-01,-1.547633871470107447e+00
1.938293287490333805e+00,-4.045524826346538205e-01,-1.567318839341490966e+00
1.276326912529004654e+00,4.209722637591227223e-01,-1.266368611059050853e+00
7.017559523219799589e-01,-2.909071022104685045e-01,-2.926078770609515267e+00
-5.149992221552907035e-01,4.811648230174262603e-02,-2.431958481901472791e+00
1.838172385110662943e-01,-4.342130842736085516e-01,-1.591851125152312418e+00
-2.341182608398633958e-01,5.557629348311365902e-01,-2.403506586111556764e+00
1.366343715999240205e+00,-7.074348016334802702e-01,-1.741415404702930880e+00
4.246262682001386568e-01,4.296435253962713752e-01,-3.609274445816954557e+00
-9.801457278323503219e-01,-4.637767563518912506e-01,-1.849130117222031799e+00
-9.309855662683694799e-01,-2.547142251939975566e-01,-2.040170582932097965e+00
8.025684599433934308e-01,9.368889827744525389e-01,-3.410452881586481855e+00
1.150273416748160082e+00,7.657016433470497097e-01,-1.598290429812217806e+00
1.399820659471603834e+00,1.971893526137759312e-01,-2.619727972587103437e+00
7.316719905748941821e-01,1.246602474221406576e+00,-2.348086005272350452e+00
1.611375997035023877e+00,-4.733042387806131179e-01,-2.176306751433431774e+00
-1.449254683507906205e-01,1.471323043853831614e+00,-1.665434399789605502e+00
-2.455413577817942006e-01,1.137394018681307184e+00,-1.822603651946693493e+00
-7.698969126025100307e-01,-2.907242459123601241e-01,-2.340023130015763009e+00
-6.859097407314646011e-01,-3.928412026867287854e-01,-2.576902762076024089e+00
1.059140841322668558e-01,1.696941340583198343e+00,-1.392525268030536001e+00
1.268427801504287133e+00,3.657136645686323573e-01,-2.763496750360046494e+00
9.955834466494406509e-01,1.002751271678850919e+00,-1.566197433122410221e+00
6.856132229404602318e-01,-3.214423644785342482e-01,-2.863454626395484315e+00
-2.727490636669566704e-01,4.093914991252241009e-01,-2.481402655482999986e+00
6.565450837513563398e-01,3.451842366779307447e-01,-4.072492165824582067e+00
-9.088091152575606957e-01,-7.823482071612991584e-01,-2.422619865863100852e+00
-6.583778165227031909e-02,-4.601434553212455092e-01,-1.649022760898006146e+00
1.522190757874223754e+00,3.381124879710885323e-02,-2.519315793889270516e+00
2.820358420008444167e-01,1.092265937471043280e+00,-2.734279333444832538e+00
-2.622280220269500584e-01,-7.174947069180135362e-01,-1.718050969636925496e+00
-3.083334125085247512e-01,-7.697967002567499550e-01,-2.226597972357688970e+00
-5.895905224448589887e-01,-7.724040335430272242e-01,-1.795140283408640069e+00
6.803246729460050712e-01,1.295853563044336410e+00,-2.490798450979550882e+00
8.386102342214033500e-01,4.630962254654329424e-01,-4.258103561531455306e+00
-1.497430640307993999e-01,1.378715533827037598e+00,-1.747006630313915565e+00
-2.076101617677362232e-01,-2.286404888874833397e-01,-3.205195951489810291e+00
7.352576859750391547e-01,3.461423581268613936e-01,-1.392166258168539894e+00
9.573834800032127168e-01,2.890229886471227805e-01,-4.134475077717235436e+00
1.685144616022080433e+00,-3.944884033036578641e-01,-1.259840447490304438e+00
7.000382074320136150e-01,-3.993164516660088759e-01,-1.475535628519233367e+00
7.467721967207119338e-01,-8.956646198038421547e-01,-1.515713044998334702e+00
4.127360859664374049e-01,1.828303988766168509e+00,-1.797566104559817246e+00
8.227593367655521295e-01,1.057939136138125180e+00,-2.622707475711993919e+00
1.034437243010305929e+00,8.357751167671707559e-01,-2.134042662629517029e+00
-8.159952111565658139e-01,-9.966132880041101982e-01,-1.906226936464746169e+00
1.675189104380142346e+00,-4.270276301672776831e-01,-1.265318540339473774e+00
2.116863743734071490e-01,-8.726807141773452736e-01,-1.630273980905566189e+00
3.524829074667250040e-01,1.539569410766036039e+00,-2.417902205441103902e+00
1.905515557561454854e+00,-6.347826501473023963e-01,-1.703411184619350260e+00
-4.121664682443180183e-01,1.116130873139923985e+00,-1.568992252320924541e+00
4.465312471749834922e-01,1.559889307472718811e-01,-3.909785269513053052e+00
1.016850639933812639e+00,1.126589825866763650e-01,-3.715748195113459218e+00
1.520013334532033911e+00,-8.077871746516799289e-01,-1.458406663368260414e+00
1.320265345715030403e+00,1.357047649874663087e-01,-3.558792751881731942e+00
2.242980105623110898e+00,-7.874154151894382503e-01,-1.192625480705074903e+00
6.503822530716927286e-01,8.852493332324516961e-01,-3.540415097674155298e+00
-6.540639612101101230e-01,2.324506867638053472e-03,-1.730578376387993389e+00
-7.821606971675790776e-01,2.802058526736863481e-02,-2.011798981146550425e+00
1.124367797764060928e+00,-8.285458488728398851e-01,-1.426410429923429257e+00
2.433085392844004380e-01,2.006852226022909580e+00,-1.331049602025675904e+00
1.826253126424558573e-02,4.592307860709642364e-01,-1.537319894682464883e+00
4.391081301586020058e-01,1.766135199170894454e+00,-1.916393927793764940e+00
9.554144134804992694e-01,1.035522349486058369e+00,-1.707843339376529102e+00
-7.589837545162234633e-01,-9.796161310102812214e-01,-1.923151331080660276e+00
1.150917794225148727e+00,3.740265375016550431e-01,-3.634064054987071746e+00
1.712638525365494102e+00,-4.165903916068325330e-01,-1.256077850760601855e+00
-1.114699660904976852e+00,-7.845830691839723592e-01,-2.249974883409171955e+00
2.290088588431890837e-01,-4.296415119457422938e-01,-1.581514538839537742e+00
1.093734639493384453e+00,7.213394219160965681e-01,-2.269140127665700835e+00
9.432512503544429050e-01,6.218465343158438019e-01,-3.957854347981172527e+00
-1.512841769412297255e-01,5.003877076820478775e-01,-2.593316191344688271e+00
-6.871057403002974739e-01,-8.771381148621985868e-02,-1.746936894476906810e+00
7.763308139942217689e-01,1.798473104005587631e-01,-3.956627474719030868e+00
-7.623722709087743521e-01,-8.463591685624988203e-01,-2.224018584918204589e+00
3.797474098504636797e-01,1.786888659089251652e+00,-2.223744979200318106e+00
1.964260269803288272e+00,-5.092559711606772233e-01,-1.910919752051854825e+00
1.756367098027512563e+00,-3.705930399991743673e-01,-2.353087074712846061e+00
1.563141819355200246e+00,-3.695995726076393151e-01,-2.427478679429425412e+00
4.800168881283795597e-01,1.803155210900657890e+00,-1.405355475480905891e+00
-8.483967861096272101e-01,-3.344145386100059736e-01,-1.807216189281610763e+00
1.998471072632276968e+00,-7.730686693454981162e-01,-1.357789221006908909e+00
5.368820394737670032e-01,1.595381843597093230e+00,-2.045695471059752801e+00
6.330622461741799434e-01,1.543358358476602188e+00,-1.568760890464301339e+00
1.898120302832373651e+00,-4.429524769297422671e-01,-2.079825413549728719e+00
-3.420946886401932674e-01,3.052553938391465160e-01,-1.631673899154097551e+00
-1.265100052250568985e-01,1.283488874690793091e+00,-1.877263942889319859e+00
1.134583989378362912e+00,6.427636265514259373e-01,-2.360864385203821136e+00
1.816990683641518667e-01,-2.149505238967680254e-01,-1.570055384334028581e+00
-1.735189443114413810e-01,-1.489329752075541635e-01,-1.640954066096723674e+00
9.303757084289193680e-01,7.862864191518241785e-01,-1.304859735528875797e+00
9.690945111419931868e-01,-4.473545403883921190e-01,-1.421634533575021786e+00
4.052054747992421824e-01,7.551353967549871982e-01,-3.262753768261835496e+00
9.766239786733595107e-02,-1.797181897367954029e-01,-1.584837309767528568e+00
-6.761143129268157859e-01,-9.827849789580399287e-02,-1.745608197403635264e+00
1.429483129165328048e+00,-4.840985420173782305e-01,-2.219963920002698821e+00
1.277642583291904721e+00,4.786535498980654113e-01,-2.103370700675450067e+00
1.367087530701808662e+00,4.381675742751136582e-01,-1.618701471516692747e+00
1.421992349561669977e+00,4.055788116715947772e-02,-3.263410742782036689e+00
-3.177932646876041600e-01,-9.377278073017520921e-01,-1.752546678090683985e+00
-3.589648081649810529e-01,1.015202321558273724e+00,-1.563288948772618037e+00
7.013966023470908917e-01,1.125666481078066328e+00,-3.213664298419830256e+00
2.491379073974121228e-01,1.374729076269699535e+00,-2.407168103523300129e+00
1.726688437778712615e+00,-4.887991445462268603e-01,-2.098407285953093560e+00
8.312305226007619119e-01,1.022319388132642004e+00,-2.742419901306220265e+00
9.655857730831582941e-01,4.473515223764321092e-01,-1.331574820404354931e+00
7.326485513558638196e-01,-7.406478554397019076e-01,-1.903389374339756079e+00
1.707321968532819145e+00,-1.677096498283833226e-01,-2.129546881204582576e+00
-5.572422357194047882e-01,7.985680142208319010e-01,-1.628596042922795695e+00
3.637493858221459986e-01,1.845362359904371807e+00,-2.089656938743859715e+00
1.738985379673264164e+00,-5.801159733962503451e-02,-1.311728065045546954e+00
8.218971419861589300e-01,6.979397814305873249e-01,-4.003643619773430196e+00
5.103536868735631948e-01,3.609068146911549313e-01,-3.816757654917724896e+00
8.777951911134743712e-01,1.374124276818866897e-01,-3.823330231601792306e+00
-1.134445141569444537e+00,-5.469662621831820060e-01,-1.891283161706885929e+00
-1.307593104073574430e+00,-8.589209839021746395e-01,-1.960776972650155381e+00
-1.006471259454049694e+00,-2.858417107079310737e-01,-1.946050940059126155e+00
-2.264204053098851088e-01,9.008507088155378595e-01,-2.082668125831660166e+00
7.501630334390790855e-01,-8.475345890337472321e-01,-1.656535152888098050e+00
1.087979217241235697e+00,-5.671149797171123330e-01,-2.160849045789073664e+00
-3.101821046295724638e-01,7.934981653196072626e-01,-2.048597783568131714e+00
1.717465623269729624e+00,-2.194228640233777672e-01,-2.320105877006542361e+00
2.842115467812393881e-01,1.278190829279934215e+00,-1.396084161335721774e+00
5.809457480077969693e-01,1.018427346870021788e+00,-3.297458330763523904e+00
5.926069223832963750e-01,1.437092578210540816e+00,-2.437071294752862105e+00
4.117600590151285211e-01,2.268554794983835554e-01,-3.784085828076336089e+00
8.112924488750730689e-02,-5.662985349383790057e-01,-2.538682412850810977e+00
1.209085262368952751e+00,-7.913918792518860323e-01,-1.611381119306478871e+00
-3.037452495117032858e-01,-3.914864503953655039e-01,-3.075440125544599557e+00
-5.503565850652994973e-01,-9.428815357972778477e-01,-1.803875339241890474e+00
2.825108746510960889e-01,8.660109697309242849e-01,-1.438298191602335185e+00
1.371194502339792454e+00,1.859538898080618230e-01,-2.900896194537583739e+00
-5.165631334663504104e-01,4.741214383597864845e-01,-2.017679880603100884e+00
2.468345212487996210e-01,1.176099608970121446e+00,-1.414613303955925661e+00
1.065769723640588085e+00,4.688401345566147738e-01,-3.802247497521646036e+00
1.215799225155391738e+00,7.166089232908222639e-01,-1.344486045643777272e+00
7.176721503376690681e-01,1.209350614941567370e+00,-2.651060588603681989e+00
-2.528783311799722155e-01,-1.417882182700052340e-01,-1.657565513095738963e+00
5.050760153306740330e-01,1.235826984538428430e+00,-2.962521908132772275e+00
9.344124533964904833e-01,-2.140297250865485224e-01,-3.012039129453586650e+00
1.978066108105746901e+00,-6.312554422794449671e-01,-1.684248155931102442e+00
1.744221289593507196e-01,1.534579215446761014e+00,-2.129748120911790554e+00
7.646110525253898560e-01,-6.580668662586393047e-01,-1.487696218289651817e+00
-6.291481006524846098e-01,3.538050146232130794e-02,-2.256449232930085369e+00
-2.671235141154023052e-01,1.339909925017695569e+00,-1.510262675746784300e+00
8.208606390277748410e-01,6.552502227019635361e-02,-3.682967282203059689e+00
1.979874016871566500e+00,-7.858003192915362645e-01,-1.235178338118883445e+00
9.171047453149716588e-02,-2.327965552331543453e-01,-3.284544009716173996e+00
-2.739750974738395795e-01,-8.948354328021677073e-01,-1.932642425938036812e+00
2.173623440480854541e+00,-6.871071086893730806e-01,-1.209368790231375002e+00
8.376790502661696225e-01,1.116630216768961903e+00,-2.200872021756937524e+00
1.433854757642978317e+00,-6.925325132412600837e-01,-1.749708940917672262e+00
1.384400020451563573e-01,-2.567911904578206728e-01,-3.213146171179363186e+00
-5.974685049622999733e-01,-1.644717554172368534e-01,-1.735146955799741653e+00
7.363142276665852748e-01,1.307869500895435744e+00,-1.992757241095951093e+00
-1.265267245266546547e+00,-7.405506203013775268e-01,-1.959680300217271132e+00
5.984996530839633566e-01,-5.166106261409302292e-01,-2.457189169019772468e+00
1.372732401646070910e+00,2.237090553733436515e-01,-2.692216269339379409e+00
-3.966484239873589029e-02,8.390138150202716139e-01,-2.449712317379236559e+00
-3.484659691555287431e-01,8.667101605900739969e-01,-1.914851954172550608e+00
-5.271519862947808832e-01,3.094708687713654260e-01,-2.159381040826247489e+00
3.366146352843724099e-01,-2.655542891346027168e-01,-3.119437806206501129e+00
1.231335568390117041e+00,1.635124297117903913e-01,-1.302333437192908949e+00
1.035092205109918950e+00,-8.678596543945167330e-01,-1.504434410333437055e+00
7.560799850444888115e-01,2.357214135749580164e-01,-1.398826845532293639e+00
1.022194129231600357e+00,-2.734871915503104267e-01,-2.845579647256086808e+00
9.077387600249248178e-02,8.123457994532984339e-01,-2.690105798448479302e+00
1.320903048099215882e+00,3.020934218131307025e-01,-1.268698571080111970e+00
1.734987179369683330e-01,1.040962372438408501e+00,-2.605276523740481132e+00
-8.321395242588529584e-01,1.782292051213114348e-01,-1.784398448375279056e+00
-1.152071544702149009e+00,-9.242556640052996819e-01,-1.933434396056941562e+00
-8.733962611965657985e-02,3.719444501909716649e-01,-2.822660807299516073e+00
8.168462539037796288e-01,9.792121363380612564e-02,-3.757302823175519890e+00
-9.912473824826965041e-01,-5.524328339989731385e-01,-1.860555305962986905e+00
1.985422396438570880e-01,1.284882750631707093e+00,-2.410749732459164463e+00
-2.410792666550259644e-01,-6.655107848686292460e-01,-2.435948798874144394e+00
-2.655926134619062129e-01,1.049960924214273117e+00,-1.539362455875451507e+00
4.734646677077014587e-02,1.636778367574672322e+00,-1.411427327040186919e+00
1.117272397826088337e+00,-5.405047949512000738e-01,-2.209737531246379838e+00
9.440610609503377049e-01,1.086906336514551263e+00,-1.528407624900232742e+00
1.356071547043035341e+00,2.849848479445566962e-01,-2.502516953015485157e+00
2.115702596311583861e+00,-7.855524159182939448e-01,-1.285943087921545658e+00
1.361892283594510200e+00,-7.836395046928505692e-02,-1.298366306502880096e+00
6.361309503977308211e-02,2.045002474191864206e+00,-1.454135652610385687e+00
1.064343119358291512e+00,5.273182379333827274e-01,-3.508647804326606501e+00
8.058014135516260446e-01,7.237359833770903306e-01,-1.338423890862423304e+00
2.058656866876407421e-01,1.922315573391339738e+00,-1.347811070425376512e+00
1.258977931286718199e+00,1.430846457656762272e-01,-1.298368452373459991e+00
4.648118300296384953e-01,-3.584890599456132254e-02,-3.588010873854155847e+00
3.338628441313564732e-01,-8.098219933511776603e-01,-1.896787461975987465e+00
5.543036198297474071e-01,1.649221017048578597e+00,-1.629683273400412746e+00
-7.146157014255080098e-01,-3.968586459620454532e-01,-1.784329571477700771e+00
1.217480098511944941e+00,2.354737004733039596e-01,-3.838322018247061873e+00
1.803064813924213361e+00,-2.786567064882861100e-01,-1.963029208204753129e+00
4.778698187623012239e-01,-1.855686055900284681e-01,-3.246519456216892419e+00
-1.171857680441249633e-01,-1.961303574095914493e-01,-1.633438843617944336e+00
1.061463331457194625e+00,6.383532508924980586e-01,-2.952506930024413556e+00
-3.482537479449702295e-02,-3.205594751696785316e-01,-3.134480002617715755e+00
1.933144095758505099e+00,-6.131037676243747958e-01,-1.227855577961219247e+00
1.738143435403242565e+00,-3.902746628738367751e-01,-2.315642288841696761e+00
1.594206746565200727e-01,-1.657963597758336238e-01,-3.409894982171628453e+00
9.559346008093808633e-01,-6.068142147184047985e-01,-2.120903892724626871e+00
5.118271090613064622e-01,3.771460180063332945e-01,-1.437829269095181717e+00
6.813993513963466642e-01,9.265216386973488261e-01,-3.551562928820077403e+00
1.175465409929887128e+00,7.761180883247247031e-02,-1.323258974245325792e+00
1.213761154774921858e+00,-7.736954712833498116e-01,-1.649421818510867999e+00
9.632145328258828743e-01,8.051218989218564825e-01,-1.295773722081069224e+00
-8.397698035511125259e-01,7.589519879401837588e-02,-1.870742769284282847e+00
2.292978066046380270e-01,1.537344942378272794e+00,-1.381772474587947164e+00
-4.152974692466303991e-02,6.293571611388238951e-01,-2.649263024217437312e+00
1.265844842828014738e-01,-2.920019030226130852e-01,-3.138409189366364593e+00
-7.072757670186803347e-01,6.784494906758997690e-02,-2.096525190578742759e+00
-3.506901837724292204e-01,8.387006474059627292e-01,-1.579398880497451474e+00
4.314984297913910805e-01,7.909723401985681024e-01,-3.271381526405336526e+00
2.053043841174353457e+00,-5.744678929146379565e-01,-1.560226207982084112e+00
7.045590834363751886e-02,1.938361821476426439e+00,-1.568455726576270859e+00
9.973309120005102724e-02,1.582393515126302441e+00,-1.960647304155008319e+00
-7.099802122270675309e-01,-6.964770876882555584e-01,-2.541433438494665520e+00
7.838042151682802494e-01,1.034619203770386520e+00,-1.311670010823655641e+00
8.707892850691837383e-01,1.023269914224765043e-01,-3.747063871160309478e+00
-4.475649662158324299e-02,3.828270314734535940e-01,-2.882208740208361597e+00
9.482505779095906639e-01,7.192575536980437834e-01,-3.411423722360914734e+00
1.117349555487334944e+00,4.017578482468959211e-01,-3.750634495296301552e+00
-1.129572564273500085e-01,6.498814238501182672e-01,-1.546632068667232573e+00
1.563851338919863165e+00,-2.161499766725472060e-01,-2.772214694940053459e+00
6.866354200429768406e-01,1.322200603010773134e+00,-2.304440796435140104e+00
1.640481341053438014e+00,-8.275238348054726467e-01,-1.369045161594059978e+00
1.574334183230279072e+00,-5.037399024797057923e-01,-1.295138633307396869e+00
8.725846040121419955e-01,5.378743174184801301e-01,-1.342702298618312806e+00
1.016052184960358984e+00,9.675022106935790012e-01,-1.267746814484110196e+00
-2.515412083536118157e-02,6.393134873319431533e-01,-2.666584946728617567e+00
6.062054789908606356e-01,1.496501986923318928e+00,-2.021767760098013511e+00
1.644692476049520513e+00,-7.798685689736554183e-01,-1.474615968950244493e+00
2.962608971812537018e-01,8.405881822217717847e-01,-3.000914651891043228e+00
3.055566158603521543e-01,2.038392022405252746e+00,-1.536462531474874993e+00
7.952147730088602318e-01,9.596253894738743240e-01,-3.349177010420394396e+00
6.002334766554171669e-02,9.459897831855161865e-01,-2.510351646270706727e+00
1.701769251362835467e-01,2.492319429087465343e-01,-3.364965589570854121e+00
-5.419036047565990027e-02,-8.246975782755049389e-01,-2.008257132801894773e+00
1.191237441312509082e+00,2.628608921239518059e-01,-3.899714073777534207e+00
8.379980471935856157e-01,8.933103369647702463e-01,-3.361977643838289787e+00
1.403352048820045717e+00,3.241927218451761683e-01,-1.930525514035956069e+00
2.141217961449377594e-01,-9.323458262127378715e-01,-1.666032988738008980e+00
-1.821810270107838969e-01,1.397600104155404255e+00,-1.675383335108449279e+00
7.300245464728164491e-01,1.373934321255431801e+00,-1.697448070534600228e+00
8.000626299710869027e-01,1.301770026086480625e+00,-1.528763710193387082e+00
1.742455244959612681e+00,-2.173472933967302012e-01,-2.114945883825354311e+00
1.150633005731424990e-01,5.909461615578152083e-01,-2.944038998698645937e+00
8.901804125471101115e-01,8.530877343646943167e-01,-3.165728945831116636e+00
1.225673456875625122e+00,-2.214720615057678421e-01,-2.886538090134018741e+00
6.004709598265366433e-01,-1.760658423108951154e-01,-3.222100400989617697e+00
-2.160766239599800909e-01,3.800032449083287078e-01,-1.596556117209496639e+00
1.846768359162237472e+00,-6.319485248267960875e-01,-1.731721689449227775e+00
-2.204926880411844925e-01,7.111405121934091245e-01,-2.275763697973561595e+00
1.493505318910172797e+00,3.225408167133367310e-01,-1.238006486169870524e+00
5.914602933277057772e-01,7.836561983168900680e-02,-3.797504015341974348e+00
5.355197600559573612e-01,1.632441690475041174e+00,-1.863193259163525628e+00
-3.096725848029360535e-03,8.572592975256488890e-01,-2.492247544600494802e+00
-9.652367226303711911e-01,-2.828278309682434322e-01,-2.010984507420750855e+00
1.014029704356089745e+00,4.128667480465054718e-01,-1.324492549696066224e+00
7.751124079618371132e-01,-2.585836332658206227e-01,-1.444848502282096492e+00
2.495957821149311084e-01,-3.863177779472952711e-01,-2.880421350723329610e+00
-1.531958713961839233e-02,-6.839868620109217368e-01,-2.310101377040867376e+00
-1.181923660871892379e+00,-7.005328843811827744e-01,-2.058137287669733695e+00
-5.457708402980716578e-01,-6.764694249601366227e-01,-2.525094400626899827e+00
1.629393937108631896e+00,-1.077906422612813914e-01,-2.423394606634111881e+00
6.835977919817834980e-01,1.343931239956099200e+00,-2.214839202660052742e+00
2.657409134836951070e-01,-1.241084167184514642e-01,-1.542473861600956564e+00
1.191418108281976224e-01,-6.466051646257012786e-01,-2.343933484306141235e+00
1.357453533974171123e-01,-1.163903873824216062e-01,-1.570089025107302749e+00
5.810590785644689088e-02,8.031518033356969122e-01,-2.645240120425657704e+00
4.005845515393376410e-01,9.945074955301170805e-01,-3.023813445905666697e+00
1.269825555282634078e+00,1.800552960724593476e-01,-3.719981195571220312e+00
3.377943867647059673e-01,6.128453454021702829e-01,-1.451921176070261943e+00
5.521162574454753225e-01,1.594402451439261847e+00,-1.932321286214599310e+00
6.215114935176354466e-02,-6.778351035858470874e-01,-2.295001736905752932e+00
4.213040604347026985e-01,1.908244049606099946e+00,-1.314412675433118460e+00
2.815608299772895742e-02,1.576672942053299886e+00,-1.848404827788078020e+00
-1.670193232428544838e-02,1.072625310556257316e+00,-1.482689343590318787e+00
2.692587990599174530e-01,1.287628751268846683e+00,-2.524451173688105676e+00
-6.306950414444801867e-01,-6.207606584415141793e-01,-1.788725821793497595e+00
-6.051558834274409771e-01,-4.482680894099695390e-01,-2.763339539751409113e+00
-3.099840005987151148e-01,-8.036775900073763745e-01,-2.151039907470914336e+00
6.630893266430125665e-01,1.442737991543505682e+00,-1.859511526254727265e+00
-4.726967722087483392e-01,-7.777025455982924385e-01,-2.270203051256804105e+00
1.659043796659490422e+00,-5.741451340625456368e-01,-1.283780279885208930e+00
1.234560628122560733e+00,3.142175960889720399e-01,-3.295198559497863666e+00
9.499362133919803108e-01,6.592484092233916737e-01,-3.710986258498223389e+00
1.576064035458146328e+00,1.421398925492289300e-01,-1.535904997993456034e+00
2.162695827023231043e-01,-5.803415097057906813e-01,-2.456642802256137070e+00
-9.416177291265850346e-01,-1.162152951305693155e-01,-1.888826706987289716e+00
1.417894605372553407e+00,-2.712885850374127661e-01,-2.702752510272986353e+00
8.359212959977833091e-01,5.512818974206915579e-01,-1.349350644454246018e+00
5.746886327608298206e-01,1.640409346316620276e+00,-1.517060444204183511e+00
1.553224556373400844e+00,-8.655702303582395174e-02,-2.905131671815997851e+00
9.622799850906117447e-01,-2.494216436601154607e-01,-2.922060578150162957e+00
8.741455333953334073e-01,6.912559268807343393e-01,-4.096071322956020389e+00
1.485375962606267031e+00,9.701424348037547551e-02,-2.476313100138987533e+00
3.356458209972343898e-01,1.198295821824627794e+00,-2.720017046997565302e+00
1.879865993246882194e+00,-3.005276671944123179e-01,-1.479699422104517215e+00
8.834498773198884436e-02,1.692507147369026521e+00,-1.396813527736665117e+00
1.573059851827630418e+00,4.277931390264394507e-02,-2.076977286357906571e+00
5.615684604450115192e-01,1.101557118560636983e+00,-1.353424130880933829e+00
-4.199454289586077027e-01,3.046767383793088646e-01,-2.340409250710236755e+00
8.230234894526167189e-01,6.195662935664427717e-01,-4.081239633310442372e+00
5.836078395685753151e-01,4.292390305509407589e-01,-1.416859913937609239e+00
6.559441344062193480e-01,1.207692823392029435e+00,-3.139759962543831051e+00
-9.468963068208507972e-01,-3.028487337695296433e-01,-2.060510238757467416e+00
4.752652315274847328e-01,-4.894277887248146830e-01,-2.564325012553152039e+00
1.603526235727590066e-01,2.133095238007807648e+00,-1.528172684886031529e+00
9.620589397713563695e-01,-8.607171685285656959e-02,-3.289403033675108556e+00
-2.050365946445916188e-01,1.509932148262157270e+00,-1.529215923270034194e+00
-6.624096602163351832e-01,-3.599947930326870965e-02,-2.270705481446151364e+00
1.739515942231688150e+00,-5.786523773208467336e-01,-1.266657993452979136e+00
-3.833218300007563140e-01,5.735345444654774832e-02,-2.639690269766351793e+00
8.799129263070548657e-01,-3.824088550726538749e-01,-2.653824342385986856e+00
1.058164066826025707e+00,2.284759674871604807e-01,-3.960711638472353080e+00
1.271176887624691831e+00,-2.848764321768727792e-02,-3.303432486787709177e+00
3.565435753028219357e-01,-1.110784806721709927e-01,-3.459303762392559101e+00
7.361502970115882949e-01,1.201821328317131732e+00,-2.546585808344745683e+00
9.563944529492686419e-02,-3.136313194795288251e-01,-3.101335842978059532e+00
1.783832208198344038e-01,-1.403468218021090008e-01,-1.563206353442067709e+00
-1.587167283656270855e-01,9.188230934180373621e-01,-2.176696960507378265e+00
7.181574892302650115e-01,-8.946431152083960114e-01,-1.562573117074206097e+00
-8.740810556133034037e-01,-8.569977381328949262e-01,-1.865877257467473793e+00
-1.287040867004516365e-01,-3.241349124541456628e-01,-1.648949523142287488e+00
1.992495076245096364e+00,-6.723461759754113531e-01,-1.586475442398461499e+00
-8.890154420095908172e-01,4.259937066493032359e-02,-1.777817061215855032e+00
3.598414028919555419e-01,1.115086366038407384e+00,-2.840244245487593133e+00
-2.562528734292490173e-01,-6.897342607490284383e-01,-1.713927540384211357e+00
-1.900954866048123471e-01,1.109558831388056110e-01,-1.618192697330690599e+00
-8.376317269708691837e-01,-8.884435724855966887e-01,-1.861106813530149839e+00
4.197096556001518874e-01,1.877234519070137608e+00,-1.488384572619820601e+00
-9.680916715619770629e-01,-8.239688470315285063e-01,-2.351182573079915628e+00
1.800651536587016377e+00,-8.102326164087880755e-01,-1.348107126306015591e+00
6.541570452792956625e-02,2.075249423509909263e+00,-1.362968486319133365e+00
-3.158131416279162940e-01,-8.864684076524363965e-01,-1.967078009020560403e+00
-7.306995427043057045e-01,-1.350112730412821038e-01,-2.254031303309275813e+00
1.588692835838755757e+00,1.799445991509335818e-01,-1.240712497436780248e+00
-3.145300182620697216e-02,1.243702678619777569e+00,-2.072119076878208954e+00
-4.468839901714204144e-02,3.973722149708867057e-01,-2.868263836454394866e+00
1.201309953565866673e+00,-8.791953410972505045e-01,-1.414743438155312560e+00
-8.840810062360986432e-01,-5.424034915015257807e-01,-2.395378669621944567e+00
8.381759510676859426e-01,1.165108869829877936e+00,-1.944414302887212731e+00
1.207173236598190480e-01,1.068677824758515138e+00,-2.491646194212117305e+00
8.330737761554765086e-01,5.876052938500175848e-01,-4.128664299845249630e+00
1.614249063541898010e+00,4.350142918556029054e-02,-1.752884385362541764e+00
1.914336236279334358e+00,-4.638868298460740447e-01,-2.062789761237456609e+00
1.266250967602770672e+00,5.677391790350139189e-01,-1.727791827580119399e+00
4.389103728611142285e-01,-2.812943012355209049e-01,-3.045848221492917673e+00
8.441306162264107238e-01,9.299668542579881958e-01,-3.123289161109080059e+00
4.614093505320703281e-01,1.556085367168322131e+00,-2.581165494764384505e+00
1.068542619069340338e+00,9.518023530796863030e-01,-1.264254977571328098e+00
9.247283326604562870e-01,8.993458136527180402e-01,-2.656024970471622559e+00
1.033716298878463613e+00,-5.839905963206266648e-01,-2.143171497318721475e+00
-8.556804279262493484e-02,-6.534227179770207838e-01,-2.405052354510362811e+00
1.419620798053977229e+00,4.299963074697906729e-01,-1.252723430143229955e+00
6.153137454652171101e-01,1.397314249631838701e+00,-2.467740395117300256e+00
1.534982238070922600e+00,-1.240375770474354822e-01,-2.990092022531310789e+00
5.513885893957473083e-01,4.169135169857908774e-01,-3.830148719961789627e+00
4.934494146795857517e-01,6.683064898166496404e-01,-1.412286834876578689e+00
6.661795432795440952e-01,5.791277939947627740e-01,-3.862253618991059234e+00
1.818207197981851930e+00,-5.472649987008547656e-01,-1.932781671666906842e+00
9.959697849582687113e-01,6.971121052939522889e-01,-3.155695960610168882e+00
1.494584926464558983e+00,2.180604648526568712e-01,-1.773995022600964644e+00
4.473106968954328883e-02,3.487017064762164553e-01,-1.542757989308119582e+00
