-1.941958355014531623e+00,6.938233241393957362e-01,-6.529343889893143071e+00
-5.117123208030700532e+00,4.687712854294232123e+00,-6.249051868410017141e-01
-6.584717787765305808e+00,-8.334423675625557415e-01,-2.032025691066920992e-01
-3.860738059481909179e+00,3.643454076443077838e+00,-3.161320165333388221e+00
-5.205950453370117081e+00,3.540084253182899765e+00,-3.632995095699115495e+00
-8.175670824250477864e+00,1.478372934640117098e+00,-4.971432540981761683e+00
-4.794461855777321091e+00,1.487316821905229292e+00,-6.208251791252020091e+00
-5.808215277954473343e+00,-1.423565461977744473e+00,7.705417859098968592e-01
-6.189934668954620633e+00,2.907255320226580064e+00,-1.085442636191326526e+00
-2.697975185661805941e+00,1.823640252678851770e+00,-5.244538391883017070e+00
-4.030225992031932769e+00,-1.806527494947387291e+00,-2.559590078301959615e+00
-1.354156600713969372e+00,2.107105767056947354e-01,-6.551445836576052173e+00
-5.740825871435244920e+00,3.363164975674411750e+00,-7.939917242146778964e-01
-2.951185721214221402e+00,7.143284872496877824e-01,-3.254310676983054762e+00
-3.672445996384957834e+00,2.863201995386094545e+00,-7.357294903393321039e-01
-4.351237066804597653e+00,5.814761520537416573e+00,-4.511843364830267489e-01
-7.284664385765557526e+00,1.169806138949044172e+00,-5.060422681956390889e+00
-8.485106000089592371e+00,2.601090579363678934e+00,-5.679133018869042537e+00
-5.494023269259363573e+00,-2.732981073350599033e+00,-5.189780264430504664e-01
-5.835802418796816937e+00,4.983821868271706812e+00,-1.907023172192601868e+00
-5.640176610640416754e+00,3.450429425617464130e+00,-7.235931951770524506e-01
-5.195714984871623088e+00,-1.891494276412088171e-01,-4.355208278378940534e+00
-5.838276321871572527e+00,1.626992692781332739e+00,-2.991680094690134517e-01
-3.854790383356173411e+00,-9.239541948052217846e-01,-2.419255601987326809e+00
-3.625389048805660153e+00,4.013501390050388196e+00,-2.619587422812629462e+00
-4.773718201221647917e+00,-2.573780062511703548e-01,-4.509391878972639489e+00
-7.805837236629581177e+00,2.859496296564123075e+00,-2.676940098771992460e+00
-9.222984851845689391e+00,3.049711741177776325e+00,-5.278554683569350203e+00
-3.168991850328278570e+00,5.517144001048525759e+00,-2.680731752759303865e-01
-5.089679158779907731e+00,-1.852980790016544255e+00,-5.762029779300428256e-01
-8.379451902141164865e+00,2.176185765112271575e+00,-3.014759885144840723e+00
-3.406497511927769395e+00,-1.158818697480900717e+00,-3.394871460840158228e+00
-7.529314593293920943e+00,1.037663684547773357e+00,-1.780826148875879644e+00
-5.476805036144162031e+00,-6.890768041949049127e-01,7.812492985440494531e-01
-7.173291306073779516e+00,2.106671645246301350e-01,-1.144706837808909805e+00
-6.668716059754343561e+00,3.066251709771467215e+00,-4.617451730534897436e+00
-2.771689462925792213e+00,4.847854397337324484e-01,-3.717550113938697720e+00
-5.892824373835183316e+00,2.780094227481679336e+00,-4.796543330866065880e+00
-1.799500167956002539e+00,9.164464332439619110e-01,-6.203215638774383756e+00
-3.588950598328684904e+00,3.414935966490138863e+00,-5.983802076439537210e-01
-2.722861140213902242e+00,1.681500333531176006e+00,-5.436221717162119660e+00
-4.426800223068857676e+00,1.781817645478932510e+00,1.147980983151628831e-01
-7.220856245383112437e+00,2.131536312114402421e+00,-5.975233471962031473e+00
-2.907388778556991848e+00,4.011745822286459706e+00,-1.570561111029855850e+00
-5.743575050626001932e+00,4.939884831227375983e+00,-1.334160919383875488e+00
-7.074317399337393120e+00,2.241673694837989839e+00,-1.738510670968504090e+00
-3.276662029097736184e+00,-1.305696064676325152e+00,-3.719682363861002372e+00
-7.871528959717281282e+00,2.956879308077674740e+00,-2.775495014195341614e+00
-8.663192931663941110e+00,3.950582186283521757e+00,-3.963015267450321399e+00
-4.708273782454338807e+00,5.690258024161193084e+00,-7.030190765635699890e-01
-3.435483146299823431e+00,-1.132851278061959066e+00,-4.050580065965240451e+00
-7.116762853490365082e+00,2.918271940238196915e+00,-4.922702962806200233e+00
-2.714325490231211280e+00,8.543306832819203001e-01,-6.513307822603721320e+00
-9.257111931077421474e+00,2.559664081260800472e+00,-5.879724036077230487e+00
-4.194505967878989772e+00,4.447509980970491661e+00,-2.195820742532038850e+00
-2.018365454165897965e+00,1.251391084959934341e+00,-4.734784601579462127e+00
-3.693182921109661176e+00,3.446299569662832241e+00,-3.839948744536592073e-01
-1.955180633705878801e+00,-2.559753057384261954e-01,-6.196482560170869291e+00
-5.162212043675214801e+00,2.906106934719960400e+00,-6.249686644990509049e-02
-4.158641823332757781e+00,9.416202866375908420e-02,-5.382612301938849875e+00
-5.325041327103298805e+00,2.632245238120105135e+00,-1.311600002737887127e-01
-4.567330184024983808e+00,1.251241105164462075e+00,-6.459396144824030905e+00
-1.057978678028228359e+01,2.946727015316437104e+00,-5.466672877010271492e+00
-6.636986353293580443e+00,-3.330161371243829382e-01,-3.286666409358353746e+00
-9.776769863154218143e+00,1.675609567165517566e+00,-4.297824315498997017e+00
-5.901259442462298388e+00,4.201144615128598936e+00,-1.239248573538246356e+00
-6.049512205556887068e+00,5.084299071836988482e+00,-1.687783961536827082e+00
-7.234093972659615623e+00,5.554223582926234304e-01,-4.207207405677669598e+00
-6.611353890893364671e+00,4.248600964219273024e+00,-3.060457255458640446e+00
-2.603442024075034666e+00,9.623778079583277245e-01,-3.780580387463777114e+00
-6.160977305198252374e+00,-8.223954903417405315e-01,2.146415849933919207e-01
-7.763171959662049204e+00,1.896448417503187489e+00,-5.819215404139636227e+00
-2.445169023611331482e+00,3.703488039794510245e-01,-6.804159600496671345e+00
-4.619731359236440404e+00,-1.177801214387382611e+00,-1.105262002322857429e+00
-9.090156955598944322e+00,2.774617703119248269e+00,-5.604218177622528607e+00
-7.206233587648605443e+00,3.184962444755197741e-01,-1.214237605834357803e+00
-5.782084895384426382e+00,1.577951367569523589e+00,-2.265431508242082004e-01
-7.204588753446111049e+00,2.603149412479190072e+00,-1.991337940470940593e+00
-3.979717317416766154e+00,1.793266441899240338e+00,-5.605082788875268562e+00
-4.645214783459262975e+00,8.965636612286995155e-02,-5.085233873087572576e+00
-8.133555511869701604e+00,2.871007730866303120e+00,-3.006934056786116027e+00
-3.708931938926169458e+00,4.770664823492695383e+00,-1.652619571641637197e+00
-7.605180642575575689e+00,2.558017374636264218e+00,-2.374531793598248619e+00
-2.356279271508024298e+00,-1.669556727344036762e-01,-6.084689353386477428e+00
-6.734448252847519356e+00,2.764111138973445403e+00,-1.578426428800336456e+00
-5.398239868364956173e+00,1.661878356371215837e+00,1.267645805906049417e-01
-6.931522197083171299e+00,-3.006720265447265783e-01,-3.157086001089433935e+00
-4.591159142634660739e+00,1.497858197777572009e+00,2.742067129821835758e-01
-5.855740430291402454e+00,3.940751910904421784e+00,-1.105202151312242531e+00
-4.709451060487140239e+00,-9.267306475751765360e-01,-8.006665687429311840e-01
-4.292948061918951730e+00,4.700072445412031286e+00,1.909124487826628080e-01
-6.176679773621625458e+00,-2.457928551956279239e+00,7.564987360510426750e-01
-9.217343846568924803e+00,3.331795638481765298e+00,-4.242334307807075433e+00
-3.559710330355151164e+00,2.853825950039009296e+00,-9.544525545320807769e-01
-7.720987170161895286e+00,-5.533950677127137396e-01,-2.321699903024868394e+00
-6.870529799737672860e+00,4.725769435836756571e+00,-2.382465915087160546e+00
-3.216250591021365679e+00,4.356584019442878208e+00,-8.003234432863590708e-01
-5.675374440126378595e+00,4.668134800666883244e+00,-1.173675753130177801e+00
-3.995041039413044448e+00,3.726081598000163364e+00,-3.087140541259483673e+00
-7.274089510751644561e+00,4.290539212921619772e+00,-3.171671551421798352e+00
-6.742668790868372675e+00,-4.022866731645182575e-02,-6.307306125758417314e-01
-7.956396923025942591e+00,-4.153209121235515444e-01,-1.710502753196189163e+00
-4.227614769911231640e+00,5.839946050727966131e+00,-1.326151491942775540e-01
-3.979721644304538675e+00,4.231047865644262274e+00,5.796333055773464915e-01
-4.548119382923522025e+00,4.833191378560354190e-01,-5.709347452561384983e+00
-4.753574188635501407e+00,2.327777858352927165e+00,-5.101449851161789617e+00
-6.508686571972777557e+00,3.744157601266334012e+00,-1.687854430631585689e+00
-8.037166411528778198e+00,2.569857162226280245e+00,-5.607731315842425346e+00
-2.078607070597787043e+00,7.773541387187206109e-01,-4.874582866165848571e+00
-7.190564600695402930e+00,4.636419675084813896e+00,-2.670435931772467519e+00
-5.345385179440119927e+00,3.218597904726747227e+00,-3.512631540672725983e-01
-4.986203621068101555e+00,-7.341278960093382544e-01,-3.696817367959333467e+00
-8.160061026540050833e+00,4.116188154074409411e+00,-3.620974925689229629e+00
-6.423546536606716373e+00,-2.616591945499272320e+00,5.649547464207889114e-01
-4.977243218545683412e+00,6.543767913623231569e-02,2.385625473994988088e-01
-6.413287220740443217e+00,2.270383979419245968e+00,-5.591881974641482955e+00
-2.533851612437474810e+00,-1.884959349179846644e-01,-5.947553362727400206e+00
-5.575306070073041020e+00,3.218220217772136849e+00,-5.798990644247001836e-01
-2.879164687595318739e+00,1.294762277097216918e+00,-5.979940230769549281e+00
-8.602237624980441311e+00,1.515765699315600790e+00,-4.770176588116413541e+00
-7.632396380181899254e+00,3.946079032308016377e+00,-2.874739298824899425e+00
-6.441929101780508482e+00,1.391765365565087453e+00,-8.196065356151298609e-01
-7.041300396059705591e+00,2.066088082864856901e+00,-1.645810361530224197e+00
-6.668967936958097198e+00,1.892597530325868416e+00,-1.216215084280207526e+00
-3.339798331545929422e+00,1.956871718909477753e+00,-1.851904941244336467e+00
-7.780117435141851168e+00,-5.407228479123370457e-01,-2.304570576097383139e+00
-6.943261638072415920e+00,-1.626048304385481480e-01,-7.886020990116983098e-01
-2.769718620124829389e+00,3.065906445401979763e+00,-3.641693912818765533e+00
-7.504699178487271638e+00,9.773525311583109998e-01,-4.652136661493128322e+00
-5.189780582877041581e+00,3.304457678438230239e+00,-2.257068610037125389e-01
-3.224416356053692478e+00,3.143904642845287700e+00,-1.434603319302321989e+00
-6.224048396039553843e+00,6.900271209922070881e-01,-3.636300926892565566e-01
-2.510423176544515300e+00,1.954122249500357400e+00,-5.027337988657575529e+00
-8.138425822672591181e+00,1.213134123721741009e+00,-2.446684320937532409e+00
-8.790354175414982763e+00,7.494339800758209602e-01,-2.937279402060051670e+00
-6.343078119085683753e+00,-1.129093665776189193e+00,1.379963335515562439e-01
-7.049213219182888679e+00,3.514798020892281993e+00,-2.147484332097907345e+00
-5.191901676505824348e+00,-1.604076589415400322e+00,-2.490682185457341602e-01
-2.130829659413227883e+00,1.424154185016472951e+00,-4.429032639329622434e+00
-6.262201315006217683e+00,-2.148951738798342781e+00,5.660907852466119383e-01
-8.124245293774523091e+00,1.493020574106189935e+00,-5.023239968878320916e+00
-2.084826784960887025e+00,2.407370272303185121e+00,-3.989423384807198047e+00
-8.543728024633074014e+00,9.806286022175718653e-01,-2.770697492314637245e+00
-4.683779927604026838e+00,4.462652377405640358e+00,-1.170280049905986081e-01
-3.312272037936709879e+00,6.078973223029511708e+00,1.536674712637092766e-01
-4.061897947182935731e+00,1.529763748642315013e+00,-7.119544646934292675e-01
-9.840799600489390286e+00,3.180137977573083585e+00,-5.263070074302016899e+00
-7.102540223521988771e+00,2.460756937737125505e-02,-1.010892092942207166e+00
-6.214323849818146783e+00,1.352583429978240881e+00,-5.797904987664346255e-01
-4.187957853070811254e+00,4.900841081499615726e+00,-1.602711972941806007e+00
-4.001014872870690020e+00,1.106152269652391107e+00,-1.054335948151343683e+00
-3.451179458776337139e+00,3.768826096608578480e-01,-2.487338068631559818e+00
-6.776207530095015308e+00,1.732785366386768500e+00,-6.173937762132863050e+00
-5.172393189847992900e+00,-1.318471876185361547e+00,-2.745249740690524742e+00
-4.743540544449109220e+00,1.636537016970080805e+00,6.373623656409805882e-01
-7.224165006367025299e+00,7.298023939851192576e-01,-4.463892067811567443e+00
-5.827310017674816045e+00,-1.602632567668654362e+00,8.125791025594528705e-01
-4.109131468479194638e+00,-3.657282955244205991e-01,-1.638032238398625440e+00
-3.763243846476516108e+00,4.177353421735080730e+00,-2.440321993927851096e+00
-6.074210657396302615e+00,-2.656620868210068043e+00,8.594603224780918982e-01
-7.108971473179865441e+00,7.560803632811583519e-01,-4.570547198819031820e+00
-9.900045495373404947e+00,2.758475800519320398e+00,-5.781223661888355458e+00
-2.347518654279741046e+00,6.389182637284546162e-01,-4.439014292658193028e+00
-2.816710701224572233e+00,4.463667434118623767e+00,-1.500307046241161402e+00
-6.121210791445108157e+00,3.875745097985224596e+00,-3.424209874575283141e+00
-2.053953489134442201e+00,1.064188511177623253e+00,-4.767628605621599291e+00
-4.881264623941373060e+00,4.432989540413597163e-01,-5.452628518715340711e+00
-6.217061896584231917e+00,2.672192912680716237e+00,-1.032311099122583453e+00
-3.783104841671046437e+00,5.830468571061416805e-01,-6.310117177978892933e+00
-5.179162459735556112e+00,-9.570656039748762778e-01,-3.260884406909402955e+00
-3.304296692710701588e+00,4.161145361688962652e+00,-7.381419762437285703e-01
-4.019317212575301390e+00,3.931119998891193124e+00,4.939872090939150251e-01
-4.902884846036385191e+00,-1.761131762500341758e+00,-8.810732222644291900e-01
-5.343352966406308191e+00,5.404304320959798069e+00,-1.235115478487459173e+00
-7.068896807077747368e+00,4.133417683116234476e-01,-1.109920105718075867e+00
-4.083944205382976200e+00,4.234857564118514439e+00,5.574363628392765557e-01
-4.357665186859000173e+00,-7.436012530910364182e-01,-1.369382913734009444e+00
-7.328842367693743753e+00,7.808392805248038915e-01,-4.474698444311817624e+00
-8.059893034136221601e+00,1.116124041831676017e+00,-4.519757403151424491e+00
-8.102791750869174692e+00,3.973903750113741751e+00,-3.352253321468394720e+00
-2.076154582864800258e+00,2.748310017684228779e+00,-3.882417191795263900e+00
-3.575502620008118360e+00,6.090043560453473503e+00,4.309704653619187975e-01
-4.477340117618568094e+00,1.298825745856390934e-01,-5.243441400728467983e+00
-4.715005023452672361e+00,-1.896953553809315407e+00,-1.309988121486323154e+00
-2.476747566868954920e+00,8.992696233953394458e-01,-4.054553347335283497e+00
-5.661022084454842229e+00,-2.083676882635122407e+00,-1.352799695503677402e+00
-6.196563502449754957e+00,2.328264625056985171e+00,-8.946858953684257987e-01
-2.625308097495141268e+00,-9.008820835244264469e-01,-4.737474034379136612e+00
-3.823998935252090448e+00,-3.976142999205552475e-01,-2.195608081812860046e+00
-4.512786490107443704e+00,1.534413726588062854e+00,1.452317802470923236e-01
-3.907137018406521278e+00,-1.048183316076887639e+00,-3.890347681315432293e+00
-4.630502607337903420e+00,-3.201008040960927614e-01,-6.252847535719082694e-01
-5.377291923771650772e+00,4.779628369575277702e+00,-2.058638935554631288e+00
-5.484663008703979159e+00,7.905446617940857790e-01,3.377750477385243477e-01
-2.457114305674210186e+00,3.702150288134575806e+00,-2.589974453617539307e+00
-6.596394914119533048e+00,-1.394373777382948765e+00,-1.784762131397070073e+00
-3.030947393825732306e+00,-8.046441215379634970e-01,-4.764376600480568769e+00
-9.113688125227819015e+00,2.472941168142151369e+00,-5.840767892403649242e+00
-5.142816819240220383e+00,2.152070223527168480e+00,2.138184807977523971e-01
-7.594831436209622311e+00,3.292711335852174237e+00,-4.553861137014603599e+00
-5.553708651223918658e+00,3.857789175196252085e+00,-3.305549408450329185e+00
-2.670833686577138710e+00,3.425056449829467553e+00,-3.148346168328631567e+00
-5.789480135670454608e+00,-1.213959494779105336e-01,-4.097649122091927332e+00
-4.171780107547265359e+00,3.382987306979792663e+00,-3.579032771089060372e+00
-4.175689090171738727e+00,4.250177615144849597e+00,4.609309260010539533e-01
-6.484606429999439037e+00,2.954583729332959319e+00,-1.394764684365132901e+00
-2.386198985476532641e+00,1.902783278365124842e+00,-3.688508468500162341e+00
-2.755305219440175257e+00,-9.666875079089437550e-01,-4.526313068871282930e+00
-3.034591072330429906e+00,-1.338388587691676790e-01,-5.726778096014450092e+00
-4.054337006017587619e+00,4.654989788043176091e+00,4.436902369980876282e-01
-4.557817700870790745e+00,5.824388525195570487e+00,-4.903462663373185371e-01
-3.801638421068280316e+00,4.107324319956098257e+00,-2.541303240487938542e+00
-8.481006824864261162e+00,2.606484750248502791e-01,-3.037867585449926189e+00
-3.014734680525199106e+00,1.680474958298545429e+00,-2.616183260314230985e+00
-1.292221532673332174e+00,1.227509867455982978e-01,-6.715977758547558629e+00
-1.025776821947196638e+01,2.462252566765439799e+00,-4.981137863614715222e+00
-5.411127123262549077e+00,2.854608011150200575e+00,-2.926064849854830285e-01
-7.782120714706364240e+00,1.789089363746080075e+00,-5.653510593033307607e+00
-5.333461382746615520e+00,-2.562650807805622044e+00,-8.598958278770094665e-01
-6.935786074806644663e+00,-2.315199525557618099e+00,-2.577606562423263581e-01
-4.513645827915084396e+00,-2.784739883975990149e-01,-4.634542337075345131e+00
-2.058719540515406177e+00,1.772030116526310151e+00,-5.151821961943160666e+00
-5.302261579782015843e+00,2.000642406266809559e+00,-5.665646551751429172e+00
-5.659974989473001372e+00,-2.633426057137835397e+00,-5.629176043590933265e-01
-8.314037852752106161e+00,2.188628466975232278e+00,-5.910016404126791301e+00
-2.127888195095553048e+00,-4.138677146804087825e-01,-5.419428306584697985e+00
-4.596773845694285932e+00,-7.544163803664671875e-01,-9.219283978567532900e-01
-4.776631096846699620e+00,-2.064840604114626554e+00,-1.283125632678837613e+00
-3.689073607356256446e+00,4.837397413089115972e+00,3.535716920517906758e-01
-3.879959538001327868e+00,2.368666990577556142e+00,-6.073451606795181590e-01
-5.836022936822018004e+00,-3.095491644338314585e-01,-3.799269686178117222e+00
-5.161246301992771457e+00,-1.159853580620993529e+00,-2.979998054548199438e+00
-5.134174728029510248e+00,2.393270690914326704e-01,6.292092601285140807e-01
-2.977759356960987258e+00,2.740709561101527747e+00,-2.118194726020634189e+00
-6.364625465732594911e+00,-2.582944470923112412e+00,-2.142292237627923257e-01
-7.159095189299476303e+00,-1.184668141989644985e+00,-1.749894374929714225e+00
-7.139817913034973706e+00,4.338562644692810499e-01,-4.088765574605043085e+00
-5.767384603257688980e+00,6.435106844324249842e-01,-5.210751334362626608e+00
-1.003123590020930500e+01,2.995066734301201627e+00,-4.937357456474192219e+00
-4.215738529421227732e+00,3.258149362461259191e+00,-3.752917150342907515e+00
-4.365923448646956473e+00,-7.346165195354362187e-02,-9.946651015879255375e-01
-3.678303314127216783e+00,1.057376965035358607e+00,-1.692195154319622752e+00
-6.100474714508487217e+00,6.461507075356789365e-01,-2.257223252322208273e-01
-3.574496899431800934e+00,5.514535682620432588e+00,-6.484187371444138925e-01
-8.080279848791427355e+00,-1.070796378320167108e-01,-2.748671622446295260e+00
-2.570385313889126611e+00,7.409481378906183080e-01,-3.961884938380894283e+00
-5.257849638500612599e+00,3.435763552500784801e+00,-3.782098417719157890e+00
-3.272441246042317786e+00,2.910193941580111243e+00,-1.468791535476656529e+00
-5.721181807614798664e+00,1.630449321017319653e+00,-1.838405601530067046e-01
-3.483109721857620578e+00,4.255925178710892709e+00,-3.484043615344887823e-01
-4.622615882914987040e+00,4.656200373943756965e+00,-2.030726279513045629e+00
-8.276939996495707774e+00,4.409704452371232541e-01,-3.419162490082029215e+00
-4.451795224578892984e+00,1.335283529584857520e+00,-7.707677004720517311e-02
-1.801208994431894750e+00,1.446454527552811564e+00,-5.512132332701491499e+00
-7.953554471638855539e+00,3.842817713321370121e+00,-3.925942377333846878e+00
-4.538230520619914721e+00,1.918432447406403230e-01,-5.258919841696850783e-01
-4.378729628369113946e+00,4.356420328439601697e+00,-2.360791908724254373e+00
-6.353050358293058864e+00,-2.193206469538292236e+00,-7.815705655334839186e-01
-2.386440640365000920e+00,2.831300248813262588e+00,-3.851825952882475423e+00
-1.848082238925296661e+00,2.098685122237811562e+00,-4.603586135366029453e+00
-4.698356866127705089e+00,5.361341918703683262e+00,-1.129678931884633863e+00
-8.660538439787412557e+00,3.467944800558202090e+00,-3.734736214682047528e+00
-5.235599725420907902e+00,4.688595982942413976e+00,-2.141934469684669384e+00
-3.270399341598386300e+00,1.407869997360608472e-01,-5.980695595207876636e+00
-5.645882269490877015e+00,1.520244840092042526e+00,-7.135587615321765942e-02
-5.726037962504852530e+00,-1.533624327796331954e+00,8.011778253146474293e-01
-7.753928660806503892e+00,4.085626738442450723e+00,-3.043226030159951190e+00
-4.070266091119076890e+00,1.748613296592717248e+00,-5.686013630686050924e+00
-3.820912579397070630e+00,4.534147040540460694e+00,4.410000243886590399e-01
-6.433884436137247143e+00,2.936089224001240172e+00,-1.337993808814122554e+00
-5.719673577735942871e+00,4.708890312331898365e+00,-1.231643861533669115e+00
-1.640668819066716910e+00,9.534224612010547828e-01,-5.610391185218974286e+00
-8.361221112076892226e+00,6.608861688741483054e-01,-3.685001021311567815e+00
-4.779713536076375391e+00,-2.746263660158592135e-01,-3.180782831880388795e-01
-3.341259162266781768e+00,3.368560125850442954e+00,-3.389915173976463691e+00
-4.886610945934640959e+00,4.576457913322120596e+00,-2.200865258643046829e+00
-5.990463829047825151e+00,-1.068828259482906162e+00,-2.615136365753895742e+00
-7.438099451328223033e+00,5.106582597946518476e-01,-1.510436949920128669e+00
-5.743298495462708431e+00,2.410853045876294232e+00,-5.240861563270204471e+00
-3.110571699829737025e+00,-1.216656188871949817e+00,-3.986811731200817555e+00
-9.907973527706737116e+00,2.399496913553387678e+00,-5.260292598381854923e+00
-2.839486727006244049e+00,-7.598414034845297760e-01,-4.943265871756273633e+00
-2.822064995446501356e+00,1.063413843682586291e-01,-6.199203193380973254e+00
-1.954443182619379105e+00,1.588605636284398326e+00,-5.365031093014945185e+00
-3.915936788990994177e+00,-1.229182685905201966e+00,-3.624819886564612403e+00
-4.058922825519679201e+00,-5.714637695287171359e-01,-4.485097586760025123e+00
-4.304620156169264078e+00,3.494646968082273375e+00,-3.466608108932798693e+00
-6.144128342574529000e+00,-2.108556202241291255e-01,-3.756983380941615547e+00
-7.984866566789737163e+00,8.940754924128142545e-01,-4.245319061996877252e+00
-5.484887410944584651e+00,-1.563491995164185022e+00,-2.206098831737954846e+00
-2.848665655975799460e+00,9.933458784628171889e-01,-6.365567490683229579e+00
-7.834770238014733934e+00,-7.566398811624230891e-01,-1.473147221089561087e+00
-9.950287576618146446e+00,2.981184175817736648e+00,-4.852084263698455580e+00
-5.650592687225311828e+00,3.644788775051968965e+00,-8.002053692991083489e-01
-1.785513081754530607e+00,1.247617833377901997e+00,-5.178196348440197383e+00
-6.162463257102393399e+00,-2.195974955867690426e+00,6.813554011928408816e-01
-8.073021779168975343e+00,3.583199752884396183e+00,-4.294582157844168968e+00
-6.962247282739105536e+00,-1.042915185180678161e+00,-5.074335258013104033e-01
-8.475722824461996652e+00,1.829905975670029994e+00,-2.992515256846853600e+00
-3.565093743137347726e+00,4.094963673299977652e-02,-5.660950938152216949e+00
-6.962909836841825850e+00,2.287835049080474636e+00,-5.706724560571560190e+00
-3.596448963395721510e+00,4.372609471955618332e+00,-7.104096036246895784e-02
-5.500571802839523627e+00,-2.568370343591720228e+00,-1.806323306866870482e-01
-4.374078768800425010e+00,-2.047303334476067160e-01,-1.049540362989250353e+00
-6.906065797752163782e+00,2.106563810194381325e+00,-1.525052220769194555e+00
-3.250455137298760011e+00,-5.219369266811775265e-01,-3.349418139206235434e+00
-6.743207357748435271e+00,-1.840655376932967213e+00,-1.055262136835071196e+00
-1.872818485690507018e+00,1.791963154947268322e+00,-5.079270141655451987e+00
-3.140371050820918164e+00,2.956739459777331547e+00,-1.694201713763351380e+00
-6.065474552260323726e+00,2.918666049557574915e+00,-4.658973313905538483e+00
-7.827879297021768323e+00,3.197620395512516644e+00,-4.736277174986560645e+00
-5.264361177005169701e+00,-1.046173457117678396e+00,1.872113275928694032e-01
-8.603235696367312002e+00,1.263128654594563249e+00,-2.926197640979764980e+00
-5.873768406428745870e+00,7.127880741780476814e-01,-2.286981662144511873e-02
-3.927390040549292749e+00,5.721299954976949209e+00,2.065409771919163029e-01
-4.289718447617637764e+00,1.841902088030799578e-01,-5.433703042586359722e+00
-2.959538587431935319e+00,-3.817043429337335647e-03,-3.623262566510728533e+00
-4.761634008445873256e+00,-1.360539822087780903e+00,-2.930332401517167451e+00
-4.601200302154106581e+00,-1.615398943710633528e+00,-1.374855791353235546e+00
-6.663261488360149087e+00,-1.288973523003189792e+00,-1.896345270902586755e+00
-5.380784836330509080e+00,2.769863360603306290e+00,-2.335310943038114984e-01
-5.006341603935277718e+00,4.135088873671122656e+00,-2.806704897477557470e+00
-3.607107794592914640e+00,2.762295642320953704e+00,-9.136492508374202126e-01
-3.077044484537811542e+00,5.574670799629060092e+00,-4.115435519734504943e-01
-6.443374368602658109e+00,1.255092279212035589e+00,-5.686027827470021556e+00
-5.608758120557044258e+00,-1.238124197732861420e+00,-2.599902664851934109e+00
-9.571758345231492271e+00,3.171674259016235897e+00,-5.206751857148459450e+00
-1.030900934462760965e+01,2.983410076999738259e+00,-5.636972157519158699e+00
-2.439061730597298361e+00,1.892590035041947116e+00,-3.593764551855263445e+00
-5.984333228104220304e+00,4.926891100428366421e+00,-1.569279367634347055e+00
-5.524400924131922075e+00,1.271237778359866955e+00,-6.258655996509324027e+00
-2.219720480744738822e+00,1.583962017273074618e+00,-5.437508293010625771e+00
-4.586507013341019068e+00,-2.246669124979361776e+00,-1.740945305178311253e+00
-3.439767042888065784e+00,3.501025101845062437e+00,-8.350424719741896817e-01
-2.200390064502857790e+00,2.568731119128769169e+00,-3.683906258392947386e+00
-6.317004442164898315e+00,-4.215981012890140378e-01,-7.721495786028086117e-02
-1.364476015565135425e+00,2.499401939318620647e-01,-6.510865178015651011e+00
-7.872885270577494765e+00,1.277279062788143627e+00,-2.204343302918363889e+00
-6.160143537063832220e+00,-2.611373275900259472e-01,-3.675106394002611854e+00
-5.910789215678837749e+00,1.457956966813961142e+00,-3.136994659215856518e-01
-4.720132859812770754e+00,2.875565435863460251e-01,-1.297981753030708341e-01
-3.144815740194048637e+00,2.022499785696501018e+00,-5.096960098277476980e+00
-3.228104795922684733e+00,-3.491366465849123912e-01,-3.299197853442618289e+00
-3.095337825007721033e+00,1.932846785516770138e+00,-5.201543997556756338e+00
-6.501014701879422653e+00,-5.636108440840676970e-01,-3.036375494858704727e+00
-5.582721196521553075e+00,2.917930740154541791e+00,-4.849215417520389981e-01
-4.606269712490488111e+00,-1.795781748890675766e+00,-2.397364371888289547e+00
-5.350996341058581685e+00,1.444011889999442966e+00,2.480315379432506684e-01
-2.206323016507882873e+00,1.859606101293699298e+00,-4.052612057175520199e+00
-5.773380202132222472e+00,-1.139182268155117583e+00,-2.643755588640581689e+00
-5.880803439897293927e+00,-2.873149506032925515e+00,-8.618574477686094526e-02
-8.939696160415362414e+00,8.577457409947462086e-01,-3.122789038411905249e+00
-2.695832928877885948e+00,2.713646334049466535e+00,-4.082794985457518067e+00
-6.674047299970057523e+00,-2.459416837743190420e+00,-2.068658966077587258e-01
-3.769068091583397617e+00,2.098978236402281983e+00,-9.620490090984967768e-01
-2.342067569778658598e+00,1.552589479278981610e+00,-3.959798360179266563e+00
-7.272665042838408311e+00,2.103835547565418462e+00,-6.024346745992375851e+00
-7.598264890567272722e+00,4.240904492071329912e+00,-2.941272370344065301e+00
-8.354330547984716304e+00,7.902135574263667861e-01,-3.875086014112905985e+00
-2.314835783985361051e+00,-4.431033981200784011e-02,-4.867044017823962676e+00
-1.928091862074175600e+00,1.082528900420277607e+00,-4.996382380780642229e+00
-7.899396485379061694e+00,1.111394379114087005e+00,-2.174178467594198416e+00
-5.026083542858537534e+00,-8.732827136737916218e-01,-1.718271164353120939e-01
-6.059223373438127780e+00,-4.086117806449655054e-01,-3.523382016790395976e+00
-7.044706476754866387e+00,3.866397035709005170e+00,-3.667625936397076014e+00
-3.991559929828521813e+00,3.440763900796509400e+00,-3.458528124181165175e+00
-5.171153347393994792e+00,-1.775891805154837355e+00,-2.088247097464144275e+00
-3.389907778441184405e+00,5.046215562266938903e+00,-1.016350680940827506e-01
-8.835788518127756674e+00,1.733120279868725522e+00,-3.317780275528500855e+00
-6.366878450447156723e+00,4.677202730842802580e+00,-1.864793130887798966e+00
-5.023347523003713455e+00,4.734090945143123313e-02,-4.798318515734695922e+00
-6.589959050287708564e+00,4.383357538656271757e+00,-1.986593097753322601e+00
-2.474802419754441818e+00,3.535224978090278025e+00,-2.645884524900674162e+00
-4.447930507519432197e+00,-3.658608748246981457e-01,-4.548173116376738712e+00
-2.238689109551749379e+00,2.821450541714236593e-01,-4.836469862594805491e+00
-5.848960175608322487e+00,-3.460826586997953203e-01,3.627357084846503654e-01
-5.262660732874772762e+00,-2.091247442999518036e+00,-1.580075547234619959e+00
-6.971187173851218333e+00,4.751167601642526384e-01,-1.033758195906485211e+00
-7.920288732627628114e+00,1.880881183629685635e-02,-3.025343378551437645e+00
-8.018147553553504281e+00,4.746141411526452747e-01,-3.622260286036092847e+00
-3.203574680346243486e+00,1.388911076052021354e+00,-5.938326475199841248e+00
-4.701261607225376338e+00,-1.629566827138876794e+00,-2.579580717775366239e+00
-7.390356252974803475e+00,1.435117783623371279e+00,-5.378737468920985698e+00
-6.240900823595201707e+00,1.590434980423442113e+00,-6.873068605581797996e-01
-6.655373203295580353e+00,1.851066847213705957e+00,-1.188532749644077624e+00
-6.828998723308659535e+00,-2.422301888983234175e+00,-1.675967729469044210e-01
-2.386851328913043524e+00,5.479690107919593656e-01,-4.413187101631983467e+00
-3.163007021236905469e+00,2.261219720624518814e+00,-4.790052506197998383e+00
-5.107069421557711486e+00,-1.254368125231039466e+00,-2.876481364722565548e+00
-6.705441054708062509e+00,3.703473527594378090e-01,-7.336372384606996144e-01
-6.105762132625485172e+00,3.523435918943507161e+00,-1.211722019853197274e+00
-5.153622549885893633e+00,-2.183834769725711222e+00,-1.512129131008199900e+00
-8.828370915330735258e+00,2.733972482988533681e+00,-5.591704266465514550e+00
-5.939719147971875834e+00,2.010551366684430796e+00,-5.308388260340619613e-01
-6.195443255046629183e+00,-8.932793703148065312e-01,-2.745017952314670495e+00
-6.231705080405599340e+00,4.947353782196735494e+00,-1.822382037976529423e+00
-2.863816004785847635e+00,4.795483390237524901e+00,-1.233226841559722953e+00
-3.472368386351085245e+00,3.203101285042003088e+00,-3.638618682449139552e+00
-7.148806703640620874e+00,1.453489633779132761e+00,-5.549566486536829935e+00
-5.754955677953981663e+00,-2.491432676827057158e+00,3.427958788108921850e-01
-9.054012041612081063e+00,3.392073128480451505e+00,-4.789563156944212530e+00
-2.615784485423547245e+00,3.230492946698335199e+00,-2.541918617094832467e+00
-4.012837472789572146e+00,2.013559625313734891e+00,-5.457325880950808505e-01
-4.062211611845883752e+00,5.165766387922340108e+00,-1.225575519196888230e+00
-8.606006703939041103e+00,1.792066858180858813e-01,-2.846027251197649210e+00
-1.021136162177904616e+01,2.483315071215306702e+00,-4.942143912171768960e+00
-5.842365028283826867e+00,-2.174277880977135258e+00,6.784200689206697499e-01
-6.480677707682152899e+00,-2.047955425186644085e+00,3.142879209609851787e-01
-4.364243199809164864e+00,5.189247129823971072e+00,-4.676210044968000940e-02
-5.655012677077643879e+00,1.678272931045636351e+00,-6.174567606989420199e+00
-3.470813317905583784e+00,1.407443502146461523e+00,-5.981056538487780294e+00
-1.030026493361964413e+01,3.037221753487453491e+00,-5.564573714641972479e+00
-7.973948469387880600e+00,-1.785633735164798008e-01,-2.709452698902485857e+00
-8.376249875707461712e+00,1.495576864835144848e+00,-2.779584585142472974e+00
-7.936491023324228955e+00,-4.426246954870461520e-02,-2.924963854102906602e+00
-3.757896918935769381e+00,4.349462598631007815e+00,2.225941704955582134e-01
-6.702183987579965141e+00,1.582183223819805917e+00,-1.143457631204169100e+00
-9.227060144340558878e+00,1.333943345858639606e+00,-3.571022539699904463e+00
-3.933592243355009899e+00,-1.377052423069636600e+00,-3.401636217565613851e+00
-6.556467453974755166e+00,1.031987369134634402e+00,-8.109365326985186195e-01
-7.114586025410109649e+00,4.191041654057120702e+00,-2.443029836902033125e+00
-7.020400916820733528e+00,-1.148387308827325759e+00,-5.293439452357130426e-01
-6.023279405129948749e+00,-7.754260172550607733e-01,-3.017413212038569714e+00
-5.729565115642174966e+00,-7.612064206531194976e-01,-3.213458418139818473e+00
-2.885642552074467737e+00,1.976080481174217196e+00,-2.702500876864470936e+00
-7.754198370168180254e+00,2.173392502382376801e+00,-6.054158040703158328e+00
-3.433270855709373404e+00,5.935902676314804838e-01,-6.534427616630158475e+00
-3.136842507557584536e+00,8.044694921536238441e-01,-6.684149973138649337e+00
-2.271706951379727890e+00,2.453066203603702977e+00,-4.316588403093660098e+00
-7.774144704698713326e+00,-8.687425916224590372e-01,-1.374615725927527565e+00
-3.366494845311761797e+00,-1.070449047650914753e+00,-3.423350836700618682e+00
-7.839797678275633785e+00,9.719748700728448876e-01,-2.067357450749369718e+00
-6.742101474872388422e+00,3.109326614598779681e+00,-1.703709802495608772e+00
-6.671588941807438111e+00,4.574441994603319017e+00,-2.650407867968132436e+00
-1.844854890433948125e+00,1.322766510023176245e+00,-5.025444295372524905e+00
-2.097160891672514182e+00,3.960971056742154106e-01,-5.043691763222623692e+00
-4.765399669948711114e+00,7.614015015661261820e-01,-5.979312236442569706e+00
-5.480212651926232859e+00,5.302245495112115847e+00,-1.402539607174519753e+00
-5.416729372470207693e+00,-4.688530174030036690e-01,7.853679778038236137e-01
-8.737343143999755313e+00,9.570403200243111641e-01,-3.885987852811098708e+00
-7.614545305405925113e+00,-9.101532065722038878e-01,-1.872338638248850717e+00
-6.244146746867669684e+00,-2.695102666868558483e+00,-1.249807777273077986e-01
-4.292263747900823212e+00,1.407125994815455083e+00,-6.187140774631337159e+00
-8.346009565163782895e+00,2.910876528382049688e+00,-5.240123529081836651e+00
-6.248415004055100752e+00,-1.713791309989838751e+00,4.314808840120884503e-01
-9.170992060160157777e+00,8.622512887671736070e-01,-3.354457521185626234e+00
-2.510777217979204057e+00,3.746264376445577415e+00,-2.464615659562380934e+00
-4.012498173417952785e+00,-1.132725510573565852e+00,-2.232168609099378198e+00
-7.908712813004225239e+00,3.213374039830095175e+00,-2.899919548147849024e+00
-5.489006993772499676e+00,2.037354534742963352e+00,-9.152925793779571884e-02
-5.140676587837629263e+00,2.995341217448432403e+00,-4.327388301916045954e+00
-4.268401079951122057e+00,6.369455223747724215e-01,-6.097484149751322136e+00
-4.593718916219526882e+00,3.319695468504388458e+00,3.621633991513988904e-01
-6.180766608886872682e+00,1.121541148836078666e-01,-4.199548710760943493e+00
-5.133376975433252554e+00,1.692028870812654906e-01,5.901242245856339608e-01
-2.359826925192940905e+00,-1.523196448418336346e-01,-6.103614151944555033e+00
-7.016690630431085651e+00,1.759722157621507188e-01,-3.791555080034697767e+00
-6.396450685575488571e+00,4.151727074004425866e+00,-3.133044159120387029e+00
-7.049929952381255305e+00,6.350482642789985199e-01,-1.166618540551310979e+00
-2.455290588390726558e+00,1.220652960544242660e+00,-3.923028192843575290e+00
-6.535109861721880797e+00,-4.975667653369156979e-02,-3.754884689472575143e+00
-3.549006975143645271e+00,2.139243418637068128e+00,-5.045841617080960795e+00
-7.723402573266334059e+00,2.814712274928716784e+00,-5.209706055192611984e+00
-3.401278152120027709e+00,4.982999571822900320e-01,-2.516874000913484899e+00
-5.791180251822061642e+00,-9.527636156689670566e-01,-2.901173197879297838e+00
-2.900785237255608884e+00,3.041109683293513388e+00,-2.103149583086409979e+00
-4.955447837880646134e+00,1.967720853562419769e+00,4.630817276860160203e-01
-9.632358328224347233e+00,3.441237900393063320e+00,-4.870219967107376924e+00
-1.657410521945557047e+00,1.497717576269491646e-01,-6.009255406187207882e+00
-2.954363634991159504e+00,2.400803028502098979e-01,-3.502390869375092475e+00
-4.182361964535213694e+00,-1.123891727415059716e+00,-3.616938976685418083e+00
-4.569023209282089049e+00,-1.575203288901709353e+00,-2.736811641236152504e+00
-7.341680403356512841e+00,-9.217229722699842309e-01,-9.262675726701694590e-01
-8.357242926793853499e+00,4.032943485065954015e+00,-3.625548920200953429e+00
-4.634215563966941787e+00,-1.223569090847222984e+00,-1.102328672107811380e+00
-2.085066319546506897e+00,-2.767062660362430981e-01,-6.089019952406108160e+00
-7.164981631760984016e+00,-7.745619404313963674e-01,-2.336084576435375038e+00
-2.396812081601290334e+00,5.656717176028925875e-01,-6.810429239313140037e+00
-4.069370082179840864e+00,-6.848342017880564292e-01,-1.884381370798657862e+00
-3.290588687717975525e+00,-5.608277687381600929e-01,-4.959743112952817334e+00
-1.942336692734458969e+00,6.541620841059068159e-01,-5.198900929421623296e+00
-3.444709591846409680e+00,-9.252228107879552077e-01,-4.343621947358622393e+00
-2.774803806901609438e+00,1.324077710323484647e+00,-3.261950289319566210e+00
-3.527516872189390362e+00,1.078209862737194769e+00,-1.966860383825723257e+00
-6.880831075829263455e+00,4.284003078704545220e-01,-9.279329216343970010e-01
-4.092938116216574329e+00,-1.784016537478473108e+00,-2.428652838635386946e+00
-2.743365550195702607e+00,3.738181045460442498e-01,-3.830697089141069878e+00
-3.193266889483160842e+00,1.870623931871740364e+00,-2.175878765891317013e+00
-4.106980763296648185e+00,4.764883773381638932e+00,-1.759823360711183504e+00
-9.498694154251820621e+00,2.781248337607094001e+00,-4.334612592171336765e+00
-9.525544866974570368e+00,3.502179702045269849e+00,-4.763964762766866201e+00
-8.530129644957057167e+00,1.935259155250614427e+00,-3.082558696714121194e+00
-4.679497664817118263e+00,2.710205675530247826e-01,-5.325529143475403515e+00
-5.903708179539226109e+00,6.507600476002090018e-02,-4.297493523818599392e+00
-5.105714928129940766e+00,-2.449035142748024807e+00,-8.651743507523884658e-01
-4.159802498137951332e+00,1.222623853034217722e+00,-6.909355247264986621e-01
-7.105057305911208765e+00,1.157044678355437561e+00,-1.399394082574172193e+00
-8.000146388289644861e+00,2.902333910698221331e+00,-2.884873535881741002e+00
-3.235051925309255338e+00,4.661214273965363475e+00,-6.014618565986878940e-01
-6.453212795313263861e+00,8.607599024240446539e-01,-5.113118316062049473e+00
