-1.435713082000865115e-01,-6.490794331747017365e-01,-4.433980000406331001e+00
-5.083686454837372359e+00,-1.918591193904756187e+00,-2.589365916334711137e+00
3.494033594043136848e+00,1.211828676282772355e+00,1.884199816488668189e+00
-5.563952052366165191e+00,-1.323812432633387326e+00,-2.084955717121308449e+00
3.491321648895961971e+00,1.551125640083191204e+00,1.826150923615226240e+00
-3.176354763390902836e+00,-4.552183626462038002e-01,-2.741798201095194010e+00
3.322736364213899396e+00,2.550713630267770204e-01,-4.390161361654270067e+00
3.219362943063116544e-01,1.229816074982315044e+00,-5.632432491840217992e+00
-4.011429498727493659e+00,-1.796727176274909521e+00,5.359000960433688565e-01
3.264078160538961271e+00,2.270747164830745124e+00,-2.978923793893445193e+00
-3.111450823399530830e+00,-2.278286245091232676e+00,4.326988607477721516e+00
3.003844525838030299e-01,8.085695714299028225e-01,-6.053261405579872800e+00
-3.077271119724692472e+00,-1.311678495234273267e+00,-2.683514478240484724e+00
2.611812390532772366e+00,1.455415506386443791e+00,-3.052116849456634196e+00
-3.839935258160630305e+00,-2.251744620219226167e+00,2.204097676624368063e+00
-4.052345079891955137e+00,-6.322120231296015636e-01,-1.303398216077092941e+00
-2.780451647596515752e+00,-2.090477434330438866e-01,3.595099311039745338e+00
-3.851770062539791262e+00,-1.874596137229720627e+00,-3.889283596098892293e+00
-3.745609683199721207e+00,-1.805053278570900366e+00,1.369485565352455136e+00
3.281532799787286514e+00,2.086080076716895437e+00,-4.096664515179221588e+00
-5.066124271179107907e+00,-7.444157186018952599e-01,2.424539380395010824e+00
3.276827801800965556e-01,1.511073358951745549e+00,-5.111278156207045065e+00
-2.767914915580638624e+00,3.378978015388564571e-01,-5.110674370817958945e+00
-4.172032680189748710e+00,-2.045833376124990721e+00,-2.512781411338356641e+00
-5.498380923072134330e+00,-8.836044245002403486e-01,1.926859186798849821e+00
9.363052946402544707e-01,-1.056853198119083848e+00,5.697598630354058002e+00
-4.148521673037615543e+00,-9.580872075771573737e-01,-4.455992380938720437e-02
1.505646334847662748e+00,3.446237167753700148e-01,6.072759448681824601e+00
2.642464919791980726e+00,6.364125070724686584e-01,-5.361360247512334531e+00
1.171034953950167878e+00,-1.253348452895113041e-01,6.021376631907574328e+00
4.541138213092875020e+00,2.528128373214737046e+00,-9.573947143081230626e-01
-3.949872421460368099e-01,-8.267374595901856305e-01,-4.624483582886051103e+00
3.624732419041388098e+00,2.390633164979325098e+00,-2.619569415765471643e+00
3.850214613993686363e+00,7.574851588596311913e-01,1.398021464311739903e+00
-3.028556015480949437e+00,4.460773893076199204e-01,-4.130106323537775737e+00
-2.616133187838241891e+00,-1.296647385540298902e+00,2.950762173507724739e+00
-1.269667559606521889e+00,1.026304564120106705e-01,-6.104489153121280154e+00
-2.651221074460101246e+00,-5.505197444060344614e-01,3.315965775979515584e+00
-4.424399347112211167e+00,-3.727571061078423509e-01,2.652864513567070759e+00
-3.918348773031264276e+00,-7.020018431710377538e-01,1.826616044986936638e+00
-1.999208465721993566e-01,1.928075444218004530e-01,-4.039316181980772136e+00
-5.689202025609288782e+00,-2.281975203691463339e+00,6.922791051995751122e-02
-4.684109454862012356e+00,-1.050241480192160015e+00,-3.897209534448865753e+00
-3.482116726158585251e+00,-1.869954585733569097e+00,-3.553468634631243628e+00
-5.516712023409254151e+00,-1.689555890265937110e+00,-1.960719157410911739e+00
-3.074948430757725504e+00,-1.566373507928049191e+00,-2.793046990226958126e+00
5.524638071750151092e+00,1.751143104675530804e+00,2.110657672541352614e+00
6.622184222475220317e-01,-1.141735898404198091e+00,4.994192471370809017e+00
-3.860921700522525146e+00,-5.904000212311037998e-01,4.435581995418095502e+00
1.179647932440054392e+00,-3.659719421804517592e-01,-4.985690819840002952e+00
-3.827366551257682215e+00,-2.362334150037114000e+00,2.824812716730662476e+00
3.092312660202083952e-01,3.657825797399191781e-01,-6.125339331720422109e+00
-9.030419201294289655e-01,-1.000835167096155165e-01,-3.991918376624825626e+00
5.001057221614167325e+00,2.477752739858003928e+00,2.042689136069583411e-01
3.924078945768358917e+00,2.068759523914639686e+00,2.323291397333976160e+00
2.327146685737513099e-01,-1.021857389278284955e+00,5.743975376069549554e+00
-1.006141221751142290e+00,-1.084163464629513962e+00,-4.583596260548301160e+00
2.113645909946698875e+00,3.207145182887145007e-01,-5.615840453983405922e+00
-2.948626793217878461e+00,-5.179706308030052747e-02,4.163293547464336442e+00
3.072149645235918491e+00,1.865549475770559518e+00,3.921063942494249943e+00
-2.722381379773928245e+00,-4.913210641285531421e-01,-3.000458482076825195e+00
-4.441593335827175082e+00,-2.220384998518821984e+00,-8.672908885695066461e-01
5.919693708026244616e-01,8.238666689770089979e-01,5.497662245881612009e+00
-2.230847398697521633e-01,1.085125929601645778e+00,-5.761597098718882926e+00
-5.417478107993988878e+00,-1.850124634462210427e+00,-2.471414419565627352e+00
-4.970459984474775439e+00,-4.849421437393415246e-01,-7.901012608757791433e-01
-1.458142926123054295e+00,1.334456489126600587e-01,-3.833933854464003144e+00
3.606872896269325057e+00,3.906239891255664509e-01,-3.984169602397639398e+00
-4.542383181109968859e+00,-4.082761138023046077e-01,-1.282773407634785201e+00
5.862461294616065466e+00,1.350403546106964114e+00,1.249587927931063103e+00
3.183881281023455578e+00,1.850954113941172707e+00,3.469433683852525707e+00
-5.175059064720339386e+00,-4.467247822807187685e-01,-2.472844838935464473e+00
-3.700352206388624055e+00,-8.951299310637330642e-01,1.764922659059801280e+00
-3.165858267189731290e+00,1.343574721129534577e-01,-3.388172373145539318e+00
-4.958507049576929226e+00,-8.317667428356017023e-01,-3.514934301476109191e+00
-1.778567778993728421e+00,1.465785484344505341e-01,5.313502286323450008e+00
5.421989253150236721e+00,2.358154871587920809e+00,-3.506082412135783175e-03
-3.939574432563968553e+00,4.915257671887013173e-03,-3.571977512793773180e+00
-5.885959043360024623e+00,-1.009690243540920296e+00,-8.558289716262068580e-01
3.767731567280498073e+00,2.391159809332052522e+00,-3.129597012957825442e+00
-1.388007832941042574e+00,-3.562818517813912678e-01,3.850355219852044097e+00
1.126100367595299856e+00,1.663776302907901350e+00,-4.804327196425670188e+00
-5.268341196003030191e+00,-2.403864449903918121e+00,1.494125290630692549e+00
5.684747685769953485e+00,1.799433393803478110e+00,-1.577610674736663610e+00
4.952573193500316329e+00,3.765410687191937389e-01,9.508786953866087410e-01
3.521112707007492570e+00,2.316223091336847839e-01,2.590843439562509509e+00
4.110407462837920356e+00,6.370222454038796389e-01,-1.468790208578801604e+00
9.892006595876065012e-01,1.562036316117632717e+00,-5.268132577616206014e+00
2.865306805648876409e+00,1.214348376903029214e+00,2.991567896760090939e+00
2.176708579678397815e+00,-5.022969881711510098e-02,3.671377746690608124e+00
4.578741688641974505e+00,1.487153796701587316e+00,3.968483027997997237e+00
4.231897728008395809e+00,4.960686950832537967e-01,-3.373267737269391109e+00
-6.941743391410273301e-01,-1.412357573967963020e+00,5.536825512100607583e+00
-5.059982461418839783e+00,-1.313918998588140541e+00,-3.229430782423487134e+00
-1.755530637826079765e+00,9.157354817757824561e-01,-4.876561386538497800e+00
-2.505429871331622760e+00,4.606692950415330889e-01,-4.282711951109900994e+00
-1.713461477503850805e+00,7.971190300892657676e-01,-4.785747031833998300e+00
5.291232122201275700e+00,1.766628728621031819e+00,2.553589556069833399e+00
-2.332007115165331879e+00,-1.488455418129041918e+00,-4.083839412814340264e+00
-3.982095459808700166e+00,-1.993116299481357379e+00,3.786095487378330349e-01
-4.001455787147452980e+00,-1.913296626353759855e+00,-6.286943380834888462e-01
-3.760588093514573238e+00,-3.730438456848512718e-01,4.274874747805347042e+00
-5.192387813690607423e+00,-5.123488714263998434e-01,-1.803603335608389813e+00
-4.694462612456633543e+00,-2.420619529309075535e+00,-3.262283581803321897e-01
-3.926591024285750020e+00,-1.373744796113094191e+00,-1.876560285355795554e-01
-4.442246461734432827e+00,-5.859458404322047675e-01,-2.321189011799068835e-01
-6.000382884073243023e-02,-6.490578239571624941e-01,4.250916695540604806e+00
3.186704642988578584e+00,1.731805373959396155e+00,2.891538402165930499e+00
-1.161726513285533807e-01,-2.952238878126399180e-01,-5.924768169510777227e+00
2.459331939057538108e+00,2.155821114310763509e+00,-4.221570260246503281e+00
-1.632397530221336268e+00,3.303128916716878138e-01,-4.042648977379651676e+00
2.907226668267458014e-01,9.332675516304490826e-02,-4.088203929419832683e+00
-2.289215203843876001e+00,-1.992278449784196770e+00,4.118019418624663253e+00
-5.190804206843737667e+00,-7.316334499621475196e-01,-3.086821375076071572e+00
-1.957018976465305427e+00,-1.198272934195979911e+00,3.574106204682401700e+00
-2.108641973897982247e+00,-3.242587130326370914e-01,-5.669263114878004828e+00
3.894166410486200824e+00,1.700143435186931784e+00,7.976801788300016405e-01
-3.156366903371967680e+00,-6.193188161400493552e-01,-2.408724797209039536e+00
1.571477703732321984e+00,5.765824369445692321e-01,5.902289428187708964e+00
-9.762074113359751060e-01,-4.482714629202531054e-01,-6.022268625258584862e+00
-2.239461390184722234e+00,-1.936655018884454904e+00,4.253704717553103087e+00
3.507280452879512733e+00,1.758660480342934207e+00,2.663663684673259979e+00
4.035185277767333822e+00,2.145902694680892786e+00,2.157100255681874579e+00
-2.834787820352954735e-01,-1.477290161542584412e+00,5.352740283852266856e+00
-3.830716051788304100e+00,-9.727607552497099519e-01,1.311148415383793564e+00
4.968864539731465690e+00,2.213200609884217407e+00,-2.310760121194875172e+00
-4.130863805071854244e+00,-4.615049236145822575e-02,-3.987783860853171269e+00
-3.769705879024213058e+00,-2.242214809296210198e+00,1.896210258285568218e+00
4.735842054327318529e+00,1.592891443086062564e+00,3.671493548559344955e+00
-5.802014751850419039e+00,-9.163659920237438028e-01,2.154258080126533748e-02
3.579125475473912132e+00,1.569927203107967406e+00,1.741651618435508642e+00
-5.433130820958695928e+00,-8.053805646352342196e-01,1.772489981254857350e+00
-3.191424679596643332e-01,2.789104854257202226e-01,4.356614746455201193e+00
-5.479026179905383209e+00,-7.773961360569358048e-01,-2.318581478902594917e+00
2.485025301725854785e+00,7.158496892680156209e-01,5.634570963324619264e+00
-2.292814673592852071e+00,-1.486681908347423420e+00,-4.152843566308615841e+00
-4.771506491253994398e+00,-5.196109289227401895e-01,-4.559680576659204121e-01
2.546784747443902042e+00,1.588104707766044621e+00,-3.229632205314012072e+00
2.291600453466222653e+00,-1.195038867203565731e-02,3.637997664229508654e+00
3.982796215673670481e+00,1.919155769951663704e+00,6.429737643494269905e-01
4.511020785107409559e+00,2.549648646776333738e+00,-1.410497137842879889e+00
2.501665502387788287e+00,5.907182497990852710e-01,3.249858709106526522e+00
-5.876478868988248117e+00,-9.525670665105270274e-01,-9.563373034880645607e-02
4.757312171506746346e+00,4.622187626433992280e-01,7.612580528406249769e-01
-4.694740851311336449e+00,-2.357932927682146129e+00,-1.403686339759342649e+00
4.002432459590028913e+00,2.148560016120138361e+00,-1.069015476350370975e+00
-3.802573788931583043e-01,5.943627305399724614e-01,-4.184220293650861677e+00
1.912893392625050204e+00,9.217113096202165234e-01,-5.905361670796358986e+00
1.542820813073225494e+00,7.298312010114398340e-01,3.880207768948010560e+00
2.563069465413987391e+00,8.927411063108485756e-01,-3.058643889736445853e+00
-5.714147136485017597e+00,-2.104519587548720594e+00,-6.719435434939449170e-01
2.486659909234626209e+00,-4.715818481640189352e-01,4.896856234858224965e+00
9.139289398471726056e-01,1.118548917967953971e+00,4.835185395107488127e+00
1.495061739982096238e+00,1.526416145059611651e+00,-5.572391828847021777e+00
1.044091270831993545e-01,-9.466773466291857064e-02,-4.217053719552710689e+00
5.008855335014127164e+00,3.086251153338077091e-01,-6.159805774147590618e-02
-1.283425231757197860e-01,7.279947699307697251e-01,4.958562840018647222e+00
-1.597300054750713239e+00,-1.191335827286283067e+00,-4.326047373452087896e+00
5.653740754078607544e+00,2.099895214147077027e+00,-7.090531243890889623e-01
-5.314714869682656051e+00,-2.360738901149676661e+00,1.377450311204838407e+00
2.024265787610187994e-01,9.516309166706885536e-01,-6.028921186503467311e+00
-1.983335317501016437e+00,-8.173794070838383830e-01,5.847117717737242870e+00
4.380612413969254604e+00,2.471672096983608125e+00,-1.507267646298023900e+00
-3.711498481458989751e+00,-1.652843048994067754e+00,-1.219217756152048082e+00
3.159213322365518550e+00,1.644018266338131529e+00,4.481580618877977429e+00
1.673065904509793089e+00,-2.177593631518711381e-01,3.890111190132924168e+00
-3.375794204849157598e+00,-2.248494043427114342e+00,2.731605862004470087e+00
-9.019080732719213511e-01,-1.547110219185300117e+00,4.987881261879294037e+00
5.668363048881983168e+00,2.169749930652485226e+00,-2.425504300422468354e-02
1.540949621810468573e+00,-6.698307763900090972e-02,-4.255811737028976083e+00
-3.996023188115862546e+00,7.334513422096168578e-02,-3.793144816618430060e+00
3.492006737902895175e+00,2.299291091368291795e+00,-2.553107311169777294e+00
-1.866088290487253776e+00,-1.733118826227217690e+00,4.070745618823630174e+00
3.211641488762889463e+00,1.564228648885873429e+00,-2.272597604571171104e+00
-3.564762854395008951e+00,-1.797035670745316560e+00,1.619350733143299470e+00
1.545482483018964515e-01,1.358323655940500529e+00,-4.699849464022022971e+00
-2.681867844475110729e+00,-1.629253035304434105e+00,-3.930972178768535663e+00
-3.194137167892181939e+00,-7.828819677265078658e-01,2.583905590905549943e+00
-4.957183805626616646e+00,-5.123263460039487738e-01,8.247091233919181530e-01
-1.720759294658755545e+00,-2.868978068944724735e-01,3.908889686327905899e+00
3.288779179075584480e+00,1.658321999473546526e+00,2.831061098102502616e+00
4.724921708271932808e+00,2.254023496710353403e+00,2.125047911174053006e+00
-4.459364133182767809e+00,-1.383328274109510536e+00,-4.120870349086221296e+00
-5.667468303112192629e+00,-2.256119393910478887e+00,4.836207895891103115e-01
-2.619434430543398085e-01,6.683955740033420412e-01,5.535502301804705816e+00
2.554335049464086627e+00,1.055760614165383471e+00,-3.072022488579242427e+00
-2.242311240839065078e+00,-1.078558669736898068e+00,-3.521715113887497584e+00
3.908018542587228250e+00,7.799449954853227007e-01,1.150074380953268749e+00
4.232506772046137122e+00,2.249634212191968352e+00,1.481733410347522595e+00
2.933254093247924299e+00,-1.601386740416675392e-01,5.292419305648681238e+00
-2.913594781195710581e+00,-1.442967221055701854e+00,2.570315323030622601e+00
1.704731173291109680e+00,8.305795542563247924e-01,-5.840976532759928119e+00
1.894882782043104008e+00,-2.606322032626127716e-01,5.730616285047447356e+00
-5.904360795912432458e+00,-1.256282542164991689e+00,-8.847018351214549492e-01
-1.051762682166583751e-01,2.637248792422106636e-01,4.187472040747386437e+00
-2.789502772713606138e+00,-2.109136719685770434e+00,3.466230449677062175e+00
4.912345102505845773e+00,4.672161109823925740e-01,-1.650428757409100999e+00
3.331132956002063938e+00,6.382920802246464520e-01,-2.694885472175102770e+00
3.860863381549427764e+00,1.285758852530539398e-01,2.599416646604920444e+00
5.467823163379300411e+00,8.488833134482544063e-01,2.043590683388761597e+00
-1.322079312813842833e+00,-3.633525453331136190e-01,-3.851763419962269897e+00
-4.930037595023810226e+00,-1.182415757253975297e+00,-3.621248763431111239e+00
1.002431935934310417e-02,4.270472268986468256e-01,4.253762379312248321e+00
5.426439237039839547e+00,6.101606235037134729e-01,-9.576774228420822932e-02
3.550484268092747531e+00,8.445992393971163414e-01,1.983603279067467806e+00
-3.612023485115957833e+00,-2.300790103808131537e+00,3.571791501505344968e+00
-7.775232686297404161e-01,-7.166992748619396281e-01,-4.250192295916554563e+00
3.134704003874154932e+00,9.266921369310109347e-01,-2.546134069098850095e+00
-4.124192394749938373e+00,-2.426733296330243039e+00,2.250653444702379602e+00
-1.220577187796744401e+00,-9.698936568164902017e-01,5.884175605910902718e+00
1.002094278020717377e+00,1.583223306684175435e+00,-4.504681501814848943e+00
5.876029361226891012e+00,1.506884041732795110e+00,-1.313253351327201557e+00
-1.674322750580614638e+00,-1.041635044672543753e+00,-5.524761258927605390e+00
3.539794156150298132e+00,8.785091062706720244e-01,4.869084401461384992e+00
5.749956800008234836e+00,2.056610314680171303e+00,7.928778605350658149e-01
-5.614484966483072270e+00,-7.602158265604750387e-01,-2.234830992213968776e-02
-4.010405173742628726e+00,-1.997788715920474800e+00,-3.334484169653945340e+00
-4.269811763317834519e+00,-5.980562341183555120e-01,-7.707552910932925494e-01
5.180470452625264066e+00,4.875637993210696908e-01,2.522546477925287522e+00
2.225060847402080266e-01,2.050201289248222980e-01,6.137261924854086281e+00
-1.324924550444210591e-01,4.897820054117515420e-01,-6.120122009677063879e+00
5.739821078982797253e+00,2.084836444077204920e+00,-7.726381812764212542e-01
2.910688814230587784e+00,1.882903597778276206e+00,-4.715067710764945019e+00
-2.535428195627953851e+00,-1.340718327110482555e+00,-3.293844532516317258e+00
-3.793420591420209043e+00,-1.870358072783683712e+00,1.048447468293001839e+00
-1.435858333633308836e+00,-1.792665835600042890e+00,4.679890740963291051e+00
5.292159097983109461e+00,1.046390359478079457e+00,2.974521076899629524e+00
1.317113346014975761e+00,9.511632475277899124e-01,-5.936047413787513882e+00
-1.734517608327784954e-01,-5.637507220959334653e-01,-4.538819704273276301e+00
1.478900943971998228e+00,1.185995115102479458e+00,5.116152052430793518e+00
-5.396180148309561719e-01,5.678602667150248751e-01,4.983151575767045038e+00
3.352653041526114652e+00,1.896519442319211934e-01,-4.108664347604395140e+00
-1.184467761905572791e+00,8.179161025624293035e-01,-5.780612937694878717e+00
3.899317274288059298e+00,2.024187392728346246e+00,3.504939138744303406e+00
-3.800454938621607770e+00,-1.162156196534711583e+00,-1.016157195159970605e+00
1.930850759273676331e+00,1.414985140996457780e+00,4.212873833746452412e+00
-2.550240246027087210e+00,-6.166260583348606161e-01,-3.205785300819383732e+00
-2.753806694467613170e+00,-6.235884851127829892e-02,4.316486029137749370e+00
1.702088295271529939e+00,1.710422479794795336e+00,-5.297805858261411593e+00
5.602191676569301393e+00,1.652282626210542782e+00,-1.979117847408411901e+00
5.723871122039782655e+00,1.699896845667945744e+00,-1.646584907534669462e+00
-3.635109735071286874e+00,-5.750784844868686019e-01,-4.949959317668347403e+00
3.990090707541591897e+00,8.103908821878096358e-01,8.706767033770986819e-01
1.323304626483436053e+00,1.703718620759891111e+00,-5.131398658678699931e+00
3.571984126466257070e+00,1.289671925862736712e+00,-1.676895257053258925e+00
-2.648708559279219443e+00,-1.066430917137703327e+00,2.957484669397266952e+00
-3.389450864227595339e+00,-7.342848836448073735e-01,2.383111115725140561e+00
-3.195231217600732698e+00,-8.456271759814267819e-01,-2.555919120863121119e+00
4.155378148369718083e+00,4.363296312618683559e-01,-2.963692360406749327e+00
-4.521551801466061171e+00,-9.122415871450080260e-01,3.832163852027648421e+00
5.653737346747305992e+00,1.411520894152899830e+00,1.786255664699293089e+00
-2.671296747703050478e+00,3.349123406498949462e-01,-3.884164080077682435e+00
-1.287915691924619521e+00,-1.339007238241257669e+00,5.781761133065570490e+00
-3.502805388857577196e+00,-2.315259266700185670e+00,3.570722924569697199e+00
-3.017471293921503595e+00,-1.037129134105154504e+00,2.611697065845336230e+00
-3.349627723250116151e+00,-6.361080533766859564e-03,-2.964508202370204515e+00
-2.575216946334873622e-02,3.957271069507024008e-01,-4.143876795922586176e+00
-1.013200969891909997e+00,-9.760545170109944380e-01,-4.388701284079833620e+00
1.739647696487400363e+00,3.290862054514828716e-01,3.734126364069840331e+00
-3.646597229957687425e+00,-2.278117807363856162e+00,2.158260779613842217e+00
4.683204716831840919e+00,2.246527968714879364e+00,2.190911953818312163e+00
-5.678053223843251729e+00,-2.048874700284883943e+00,8.332748326908245851e-01
2.656213671709896362e-02,1.111323831780574173e-01,4.215347475755941709e+00
5.383979704498396579e+00,1.608313511341199931e+00,-2.404865650720780845e+00
2.317197020025713705e+00,-6.154519658691016692e-01,4.261936816753499890e+00
-5.413178930047331860e+00,-5.835006966531826045e-01,-1.911718415628799184e-01
-2.724275349223930665e+00,-7.010058203503918284e-01,3.129229974483799026e+00
-3.678388889342699919e+00,-8.600216585961527604e-01,1.892829853017169883e+00
-4.425216854155780588e+00,-6.158493595199217019e-01,-4.243888546258526850e-01
3.351628472650445723e+00,2.150034234821065482e-01,-3.483674924008997476e+00
1.766285815608339194e+00,-4.721185597586471938e-01,3.997141604209798249e+00
-3.667052187493636151e+00,-1.079097935238328698e-01,-2.809201296385452906e+00
2.724243229119498455e+00,1.608574775039840477e+00,-3.068764661897854573e+00
4.792744210011360417e-01,3.741809265298750020e-01,-6.042597993569814641e+00
5.803425521829992384e+00,1.354491306276471185e+00,-1.293852029429760186e+00
-2.647502593089181122e+00,-1.883352514103709074e+00,4.834894414562500131e+00
-4.826057702584285458e+00,-3.157611190156979775e-01,-2.891782628964142177e+00
-4.705829934635470835e+00,-1.585508930045773646e+00,3.651362738352362136e+00
-3.145307693961710616e+00,-1.554976242531277419e-01,3.835246058171518868e+00
3.792798230499303092e+00,6.385787756727476783e-01,-1.970150914361439076e+00
-2.612706723323900970e+00,-3.450205386855144385e-02,-3.553233798764071860e+00
-3.299502677499897896e+00,-1.575074451066381664e+00,2.144644100928313701e+00
-5.837705166623728736e+00,-1.862915079050252443e+00,-6.398827513744758111e-01
-1.462999631357144947e+00,1.043886807980606568e-01,-3.894884846267002931e+00
-1.302104203114087699e+00,-8.296738123440171586e-01,-4.191082985292498897e+00
-3.077414344461182338e+00,-1.252178550342726959e+00,-5.109060525233635630e+00
3.689438800559586618e+00,2.159470562010777250e+00,-3.932569038494507563e+00
5.592433902847923299e+00,9.027699953846717307e-01,-1.400058870808960076e+00
3.393126252467710824e+00,1.954598481877996230e+00,3.393507731487232615e+00
-4.552474719276944803e+00,-2.469793186918924910e+00,2.576325392226058053e+00
-3.507983937493183380e+00,-1.029773225446591667e+00,1.781938554984275891e+00
2.180614866703493249e+00,-3.837541126154982440e-01,3.948188829013003609e+00
1.263938800288108844e-01,7.594906695973981936e-01,-6.047339338995517899e+00
-1.791703953268973804e+00,-5.823396596588588103e-01,-3.677231832497136033e+00
1.065429720816650327e+00,-1.327929949483132865e-01,4.055170303909378937e+00
-1.834708788957525316e-01,-1.170152835445545936e+00,4.366302652482255908e+00
-2.917616785718579298e+00,-1.560459560503103749e+00,5.183683951383326161e+00
-5.905881057956806401e+00,-9.412940338767685766e-01,-8.978373597611742918e-01
4.105212513757316550e+00,5.899393224505742328e-01,-1.926573368747301451e+00
2.480865686996736930e+00,1.688993178063988188e+00,4.135253604026694951e+00
3.286275646180995658e+00,1.370901320082415609e+00,2.162579496771139365e+00
3.033905082290486721e-01,1.408803071438882615e+00,-5.227116018348122672e+00
2.119705590410123186e+00,2.033640512527940647e+00,-4.497820258477275068e+00
2.982524548092367667e+00,1.523859761213532282e+00,-2.730535224146638296e+00
2.901391549341810983e+00,1.245891851524187910e+00,2.908839129194026096e+00
3.886932525540149896e+00,1.830083742986040152e+00,1.342477146205950600e+00
-2.062675704896568263e+00,-1.257836793743369430e+00,5.618399770044057995e+00
3.089303477058592318e+00,3.017904256439862265e-01,-3.314346850301641112e+00
4.057257225996028893e+00,5.911654798313566994e-01,-1.661494604054737145e+00
-3.899234970424423796e+00,-1.503473842389575266e+00,-4.072480915030640691e-01
2.483252596282520930e+00,1.093048827996859901e-01,-4.025339932772046936e+00
4.317664931817257745e+00,7.250603106210249393e-01,-3.374033850979109572e-01
-5.255665504134445776e+00,-3.794772946186164564e-01,-1.603272514705132101e+00
2.627801409212091599e+00,1.554649772078771530e+00,3.411383387886696816e+00
-5.206155533748162867e+00,-3.809012072630809098e-01,-1.620024314607914073e+00
-2.798087495981236739e+00,-8.165904680856737041e-01,3.008326625574855751e+00
2.386612587638765159e+00,6.787846033158425607e-01,-3.367691252027181559e+00
1.290930300191282187e+00,2.279696193232172430e-01,3.994705677693563217e+00
-7.854526940085684306e-01,4.940504325051433554e-01,-4.201440941285928155e+00
5.305895716353015601e+00,5.337708353545053130e-01,1.261754680294906228e+00
-8.631096694378924683e-01,6.646880187339258006e-01,-4.210908400989278988e+00
5.948378063854781850e+00,1.737172018869615142e+00,-6.744097863836013840e-01
3.547511408671522481e+00,2.684045811675843662e-01,4.961722058627233700e+00
1.726929436950600083e+00,1.872286330534002730e+00,-4.653006977191806115e+00
3.639853960747606365e+00,2.890491856663146564e-01,-3.736226769839923190e+00
-3.241813682295028531e+00,-1.056953111361333741e+00,2.358011308564312181e+00
4.270728353448264514e+00,6.175094326185166516e-01,4.211619903281243471e-01
-4.471848528035201831e+00,-1.822122731943068619e+00,3.881465408835449438e+00
2.957063540466001172e-01,1.153843895733620561e+00,-4.398101597084495218e+00
-5.470951664877715004e+00,-2.371926601033320203e+00,2.821970394888644873e-01
-1.341078244819467746e-01,-4.415002499523470458e-01,6.143282034205012287e+00
8.004275937405267438e-01,1.644840673369610151e+00,-4.975687827050863987e+00
-5.069146653177321049e+00,-9.568946656512162807e-01,-3.337023100029667955e+00
4.125294336677431062e+00,6.699021139312657525e-01,-1.064869722595954915e+00
1.724799929424214673e+00,1.639850502145488331e+00,-3.795543364333211933e+00
3.521312710686186787e+00,9.520066397803281788e-01,-4.907656473856060408e+00
1.763279216489310741e+00,1.162478618257644536e+00,3.957563000451772783e+00
-4.907101006622143657e+00,-3.930231810878283549e-01,-2.337310799821044061e-01
5.268006748784705984e+00,2.417235712887229493e+00,-1.018867746076573155e+00
-1.528069964146033577e+00,-4.995905831769103522e-01,5.944499028794726136e+00
3.435553159615094998e+00,2.029562139066776627e+00,-4.444496850004264310e+00
1.416250447934286208e-03,-1.374403753207646073e+00,5.585132957934542119e+00
4.671336630372891818e+00,2.137225355088981260e+00,2.623378171675942117e+00
-1.718674317330021850e+00,-9.691351127365533946e-01,3.719728460358746158e+00
-1.368069038889026534e-01,-8.155997501972711561e-01,-5.348777236288182912e+00
-9.909746803890790989e-01,4.311215009213724692e-01,5.412008079047761377e+00
-1.593966118652205277e-01,6.350090951089545910e-02,4.199386087221715691e+00
2.060172073147365612e+00,-7.647276829587594804e-01,4.773855379600244753e+00
-1.402948005395942666e+00,-8.512762089772355489e-01,-4.099548674558483263e+00
3.525096521967464369e+00,5.041647499802058841e-01,-4.362619750576276267e+00
3.477018065083683940e+00,1.309624877826465639e+00,-1.743447360446758188e+00
4.575201440841035527e+00,2.526057581244335104e+00,-3.180054301743080736e-02
2.946630037547381398e-01,-7.396177606800263815e-01,-5.092171245191142503e+00
1.989983425228065705e+00,1.888264623225509309e-01,3.560214820790194690e+00
4.251364421144351979e+00,1.355016471485317453e-01,2.621055770350181557e+00
2.302125594732585601e+00,1.622600056980676220e+00,-3.366956581390166292e+00
-2.364318644067567199e+00,-1.964367817339568889e+00,3.929378801655486253e+00
-6.247186074219542862e-01,-1.171060580584686317e+00,5.940320498654231507e+00
-4.069032112619159314e+00,-7.061372382689903304e-01,1.526108985166383825e+00
-1.523479202774519758e-01,1.372124164897096987e+00,-5.144036521212126623e+00
-3.702369423696841189e+00,-1.492233012209518872e+00,-1.157940912043394333e+00
3.396798072772886812e+00,1.888441675598903080e+00,-2.128779573947336079e+00
1.868867901716971813e+00,6.963102145862846148e-01,5.814625361515910917e+00
-5.218821945806561224e+00,-1.005674624452618904e+00,2.673220765917212915e+00
-3.877436328442050772e+00,-1.855839023830806234e+00,-5.524893378100482685e-03
-4.897369747800874862e+00,-1.959504601244830280e+00,-2.669482582867443110e+00
-4.902605699951250173e+00,-4.728038674756294690e-01,7.771273574708181808e-01
4.125699266870129556e+00,2.414779827024739145e+00,-1.433296943742821794e+00
3.849368285934870126e+00,8.325854484337501527e-01,1.242011847351169207e+00
2.272991799123925460e+00,1.357411670115496127e+00,-3.415221300460404397e+00
-1.339674862458167137e+00,6.679644122229072556e-01,-4.385681206082820971e+00
-3.779629537209514112e+00,-1.989017007197963149e+00,1.146525695634780906e+00
-4.271693992733336387e+00,-1.171989915034849172e+00,4.281314327490162164e+00
-4.735281730470958017e+00,-1.838126628249528993e-01,-2.139875073109227532e+00
-2.387999127633354812e-01,1.070991097212710796e+00,-5.848913204930488163e+00
4.127005533826283212e+00,9.020310406124193436e-01,-7.583628716272665660e-01
-4.074279803295361546e+00,-3.987708125885607302e-01,3.091663244582270487e+00
2.768185569344237429e+00,3.096007310825876213e-01,-3.403789657874730423e+00
2.015454927497715598e+00,1.634166287760142611e-01,-4.009291248998114732e+00
-3.990508384471384229e+00,-8.993972039978241906e-01,1.847360023655545552e-02
-9.458000185791980430e-01,2.670813335062469651e-01,-4.081481280829344804e+00
3.734714232850933069e+00,1.290842763125029657e+00,1.047637338431991916e+00
5.078813815272454235e+00,2.245567472984809410e+00,1.983178752540784240e+00
3.498446096529504334e+00,1.837282345615166790e+00,2.459592467009442451e+00
-4.518699120004046499e+00,-3.764683056042097409e-01,-3.736680745463294873e+00
-4.880582920478858000e+00,-4.916394201557018340e-01,1.042083940352952487e+00
4.616965212161309395e+00,9.051049309386935970e-01,-3.672749341767392650e+00
-2.923644650464676698e+00,4.382452869394247164e-01,-4.449527461623098645e+00
-3.220470315662742777e+00,-3.676950810261961355e-01,3.121066939476994762e+00
-4.014334110345363804e+00,-1.845342984057568803e+00,-7.930158984684299028e-02
-1.377991203388340358e+00,-5.574793056651362599e-01,-3.988312575610682753e+00
-2.958808901550729065e+00,1.792124924568936073e-01,-3.638209092173280812e+00
4.000750236860191045e+00,1.959102047295158577e+00,-1.863250720564035567e-01
5.404659431495240973e+00,1.315594521510770276e+00,2.890538300639304836e+00
-1.381536088543872776e+00,-3.574616847737767389e-02,4.057479419565703793e+00
-4.382855466454707027e+00,-6.169083961338053257e-01,-4.878078103036022628e-01
-5.441553118539979472e+00,-1.094067729539648592e+00,2.206339031807146966e+00
-4.280865041696279683e+00,-2.283181084456873844e+00,-1.503611230845931068e+00
-2.945596029076344990e+00,-2.913280934876013029e-01,5.036550600557933244e+00
-4.816842052264593832e+00,-6.120884976383601517e-01,2.592907428416900473e+00
-5.642693001061922509e+00,-6.701792377208702911e-01,-4.385837401235110899e-01
2.662898766231553083e+00,-2.386327251969024010e-01,3.548565601358236510e+00
4.127788530745340800e+00,9.300395738995037576e-02,2.450566987047750001e+00
-5.344892727908149510e+00,-2.080903550367607213e+00,-1.462689824738569788e+00
-5.035209597725700981e+00,-2.369343583063018954e+00,2.256547529131218255e+00
-5.907231343882247465e+00,-1.693794331272443054e+00,-3.231360891948447667e-01
-2.044433053774747489e+00,7.256104377431342733e-01,-4.917542097929034739e+00
5.016013190552453871e+00,5.829000692139585382e-01,-2.097111021452838564e+00
-5.913487908943974247e+00,-1.785577724042657799e+00,-1.290931417424288075e+00
-4.194345728089055036e+00,-1.093720209701959600e+00,-4.367444702409374102e+00
-3.711352890641248070e+00,-2.146051865811827497e+00,1.880464717547090769e+00
-2.247148068768827223e+00,-1.351910368466524792e+00,-4.977249887237634063e+00
2.324136185602301286e+00,7.932495597363501405e-01,3.396350780371609090e+00
2.281346441617317922e+00,1.484432494451782381e+00,4.639512333353196460e+00
-5.234724483499206826e+00,-5.910244145999764553e-01,-2.169693890784761603e+00
-1.128000882862357113e+00,9.510112606482270525e-01,-5.419857687271658619e+00
5.467637675732319735e+00,6.235437909435208592e-01,1.942495218107642474e+00
-3.135492523046633284e+00,-6.096901531693633691e-01,5.100384420464325608e+00
4.316306852895380075e+00,1.067608923501282003e+00,4.276205926859049988e+00
1.512221145150784984e+00,7.977784146003633614e-01,-5.978547085116829862e+00
3.617929711865081610e-01,1.467993074306278289e-01,-6.156057421391303741e+00
-4.929444995400310781e+00,-3.626398011094432716e-01,-1.335840070091543819e+00
9.076825420243377351e-01,-5.485716229730858151e-01,-5.270076734621757630e+00
-2.612734008382683548e+00,-6.794090736067963654e-01,-3.164439917166672611e+00
-5.210868036176981022e+00,-2.291672675567243189e+00,2.078736544211827741e+00
2.089582316716591670e+00,5.829653757890053134e-01,-3.558474680448911798e+00
3.973936593460612787e+00,2.239145916166827455e+00,-8.033430319904584227e-01
-2.532026594051595580e+00,8.911799364871982043e-02,4.885757735521527145e+00
-5.027730669059669033e+00,-2.078667647449632394e+00,2.892654425083327041e+00
-3.451048695772130692e+00,-6.304686279734119658e-01,-2.272370020180281003e+00
-3.061406101181971540e+00,-1.481604121525350370e+00,2.408682449132060199e+00
-3.745006904124375868e+00,1.899761880637305250e-02,-4.404690545832171900e+00
-5.540102648198662827e+00,-7.087802621844889739e-01,7.350441719326820111e-01
-2.317374015925504960e+00,6.222647974072923471e-01,-4.828602817659708002e+00
-4.324970505278209032e+00,-1.531032618931536193e+00,-4.103264045385809133e+00
-3.659915842501381800e+00,1.651849466933665283e-03,-3.111763176805104170e+00
-6.031548098821978066e+00,-1.540707472485044027e+00,-7.477912315339400040e-01
-3.080831320501049575e+00,-7.156620881356345887e-01,-2.696930595594407176e+00
-1.605554380091456013e+00,-2.975976548418713188e-02,-3.869415183989628026e+00
4.051757108566079957e+00,8.389447695240012104e-01,1.071779206889944325e+00
-8.320698758746535306e-01,-1.296151013599222468e+00,4.218608323276857419e+00
-1.997567995993548839e+00,7.130858385349759798e-01,-4.430128296580200242e+00
-5.746502363433440230e+00,-2.152529018048384479e+00,7.388798919293970702e-01
-3.319237563808391744e+00,-1.251657830911395430e-01,4.128708932611073301e+00
-4.994633133061572750e+00,-9.299257438192838343e-01,3.085672747164226237e+00
3.985095745424140024e+00,4.857606288105968950e-01,-2.106074495531071289e+00
2.968776592425899530e+00,1.946620637161859735e+00,-2.833947904539251272e+00
-4.261840559783346194e+00,-5.600629055888752816e-01,-7.733440601788856839e-01
4.032226312030782189e+00,2.436216175495449665e+00,-1.855789535058206097e+00
-3.461349398558531298e+00,-6.959145907087318506e-01,-2.066858731206991706e+00
3.548979407624682558e+00,1.930596539363174102e-01,2.719734632714799538e+00
4.843897122162236890e+00,5.295531760239196029e-01,8.995590374289432756e-01
3.358102719700627237e+00,1.084315141263419324e+00,2.189106745889777272e+00
-4.414725794744918552e+00,-4.495196741703478271e-01,1.954935714193373641e+00
-3.063597936816932599e+00,-1.567704994228854565e-01,4.385877006969312930e+00
-4.027190542818084751e+00,-2.140835894906649717e+00,-2.585004827784945114e+00
-3.944637279879309233e+00,-4.650351365710463925e-01,3.906274839460326831e+00
3.818081717309661727e+00,2.140165817835548434e-01,4.496684771750524057e+00
4.893131659532347300e+00,8.304534452757221796e-01,3.653420645679673395e+00
5.970353352276850600e+00,1.563777871280334519e+00,-5.306057178807299657e-01
4.994728690116153835e+00,2.533955018531570236e+00,-1.430670962421694836e-01
-2.787169932827380681e+00,-6.806655769834411840e-02,-3.239774020903579910e+00
4.225032998162747688e+00,8.844048144910743314e-01,-4.257776322988600981e+00
3.724816794691951927e+00,4.006238686997123377e-01,-3.308168274326488856e+00
5.058611195938008009e+00,2.164333398352766835e+00,2.087095985380535534e+00
-3.824005987747796098e+00,-2.287093557904652741e+00,3.597177916794907393e+00
2.063262046993493914e+00,1.639310925186663104e+00,-3.514517839757647533e+00
4.814526164296744071e+00,1.164908201317362835e+00,3.760700262380848091e+00
4.821050325065832531e+00,3.384421829204242171e-01,1.225135349395081175e+00
-3.553349704731424641e+00,-6.527721212332383560e-01,-1.925113455433794751e+00
-3.758315908735430089e+00,-1.430832567113214486e-02,-4.515066997724685116e+00
5.513832777219502823e+00,2.240946543421642012e+00,1.179107116202548822e+00
-1.153997848506153945e+00,-3.696870374070015397e-01,-4.007904540434925167e+00
-5.257661301853744362e+00,-2.351093479858900714e+00,-1.027843883256303492e+00
5.668234374572906908e+00,2.242392643721494938e+00,-1.016292149021540636e+00
3.700239370205142375e+00,2.376802139783947276e-01,4.882505663990757583e+00
1.133107762992390910e+00,1.715007547306305113e+00,-5.014404475582360909e+00
4.378049442570463690e+00,4.911980541308581527e-01,4.085449476004902714e+00
-4.515594320652743576e+00,-5.273344223523450669e-01,2.096734914445576303e-01
-1.973889246147013665e+00,4.062692736433130836e-02,5.504165953187800220e+00
5.230358171128426825e+00,5.874108776276534272e-01,8.248382131720212174e-01
-1.588864214556837240e+00,-1.052771868805218114e+00,3.787386741076182783e+00
-5.194306063518470573e+00,-2.458245994788999855e+00,-2.321737479823113015e-01
1.417326489588836891e+00,1.386590059775951511e+00,-3.954210568211493193e+00
-5.671112791899961536e+00,-1.014704046852474617e+00,1.301395616980228320e+00
1.951513505475861887e+00,9.064967887145800596e-01,5.606364448252822541e+00
-3.533144944590772329e+00,-3.317401565344424430e-02,-3.025257074659771117e+00
-2.494598005004473595e+00,1.226494284866537082e-01,-3.455994018518250055e+00
2.427626317258049227e+00,1.567454916328723469e+00,-3.170108621544924343e+00
5.581213698275547586e+00,2.339032244001717498e+00,1.608422455250239358e-01
-3.413033162004741161e+00,-1.939944730838623954e+00,-3.270623597281040684e+00
4.181226618336550516e+00,1.094598469444153066e+00,4.384017669451533372e+00
2.083223726829173561e+00,2.918367113213526376e-01,-5.496533116374012984e+00
-3.672818745670083235e-02,-7.062478322221941163e-01,4.268233834481964806e+00
-5.710504228338161070e+00,-2.114080486157010164e+00,-1.459783303683158451e+00
-3.087905777322271561e+00,-1.100485798449574032e-01,4.592640235852237574e+00
-8.164936454566438240e-01,7.676675849730619783e-01,-4.521040875413973481e+00
3.151531847787310436e+00,1.725705776591791363e+00,3.483946716639328312e+00
3.086044404117266993e+00,1.144470743743681157e-01,-4.564197455105611034e+00
-8.128988300719149906e-01,9.099996317451595207e-01,-4.649236975447981202e+00
