7.413216138683853096e+00,-1.536667470626229104e+00,5.508386228066630252e+00
1.054598003910610693e+01,3.688614613276217646e+00,-5.864405613105765358e-01
-7.380719419174446294e+00,-3.283949682191739772e+00,-1.513888778415321879e+00
-1.977805697132860141e+00,3.042615340337162522e+00,-7.615273230752606537e+00
1.169803800697260421e+01,2.721501468669981438e+00,6.692271391454114315e+00
1.216445107863985875e+01,4.169307561198622558e+00,4.071589505210502224e+00
-1.159682814618367308e+00,6.805027934121864241e+00,-6.657579241788015523e+00
-1.017606157770696562e+01,-4.568593250244144532e-01,-9.309904496765698312e+00
-1.044895622130373880e+01,-3.505684381240079084e+00,1.573965535534179727e-01
9.821674811729931065e+00,2.981828589801641005e+00,3.031356147552870528e-01
8.274316279661483975e+00,6.446361552316706600e+00,4.201568624789806528e+00
-1.176004584772687345e+01,-2.189307765381601101e+00,-6.026554869360508881e+00
-6.119542665541119142e+00,1.798329137275901157e+00,-1.183493488451154363e+01
6.264834635713287803e+00,1.003355900697788350e+01,-6.345271939706608855e+00
1.237359415511936334e+01,5.591262729300835232e+00,1.696145882600685662e+00
-9.872949861026379281e+00,-7.733192940506707913e+00,-3.065806301425595848e+00
-7.593073016115937435e+00,-4.414624340869234054e+00,3.207329290225105822e+00
-1.002828005330214012e+01,-7.981145971474611578e+00,-2.357394043792788718e+00
-1.026876334451266182e+01,-3.964532337257187677e+00,1.310917920492176370e+00
-9.998429137975309189e+00,-5.129305064952315973e+00,3.192781793023143688e+00
-5.398849861286317164e+00,-6.125181941366776961e+00,9.282216261710585670e+00
3.365812086597725350e-01,6.087316983267323067e+00,-1.202797571817566791e+01
-9.391736007129669161e+00,-7.677765848496730605e+00,5.656094536997666289e+00
6.381263451281157906e+00,4.890569790128757255e+00,-4.128610963809511425e+00
3.150238263022321128e+00,5.422515461016788052e+00,-1.020059329891069666e+01
3.807587768849166387e+00,6.018575635014939529e+00,-3.962032495799802767e+00
8.464959625386054398e+00,9.631422160523635867e+00,-1.076198129457135888e+00
-4.001808058548855129e+00,6.561479834717098392e+00,-1.071455352781525683e+01
1.889706554457303289e+00,-4.302844455305333327e+00,1.232320543897011511e+01
-6.781386589954350619e+00,-6.004659195208049027e+00,-2.099364023193118545e+00
-3.676579873602125126e+00,-9.315304540915763098e+00,4.472649123524627512e+00
8.601421946379359085e+00,-3.282976391919937065e+00,8.328882265237744775e+00
8.522061976650350701e+00,6.839490780098414824e+00,3.959885138266560300e+00
4.086928471802140805e+00,8.707401367748058618e+00,-3.607522179448460431e+00
-4.955237622766146544e+00,5.341553378655967244e+00,-7.521358408718985089e+00
-1.203877114877989030e+01,-3.868734108044979525e+00,-1.796416396274565397e+00
1.122228836572463528e+01,2.224191529868759343e+00,2.583536609664435435e+00
8.303536555403512764e+00,7.332429983159236109e+00,3.002530533588752437e+00
7.798668471929956603e+00,9.803107485922046394e+00,-2.333241136130728588e+00
4.775012323462971331e+00,5.308331186938312740e+00,-3.965913055304180368e+00
-5.849930005630106677e+00,-7.405628818417366865e+00,8.223566743735235551e-01
3.145888090834031647e+00,7.226843263405856810e+00,-4.186116419979320824e+00
1.106290890574033403e+00,-8.678009473109467464e+00,9.381759383220440895e+00
2.940010888572617720e+00,-6.222330315994399008e+00,7.150631155187952004e+00
4.163622844389486488e+00,5.114300767432186312e+00,-9.316278354603607426e+00
1.224207693598702207e+01,4.704213909944046534e+00,4.306704998356557290e+00
5.997697017565435829e+00,1.996800932071291834e+00,9.033506869259479544e+00
-4.259591840074754110e+00,-7.062791483494436307e+00,2.812067926107975957e+00
8.966894350617021558e+00,2.784518679467265834e+00,6.043579170983217619e-01
1.062934234738371408e+01,2.221755776046415054e+00,8.259288999006979992e+00
2.064081187145489604e+00,-3.027698152477187321e+00,1.181261185588039098e+01
-1.017528254806025600e+00,5.649663103230315286e+00,-1.214494669700428986e+01
6.251318922709911519e+00,6.522308695893797470e+00,-8.632320001094971218e+00
-2.486573940253113957e+00,2.397934200786125292e+00,-7.610589249640813847e+00
2.437777487290480494e+00,6.304897024950632201e+00,-1.117818092901640092e+01
4.134681950255592930e+00,4.646191033576012153e+00,-6.832892102773801213e+00
-6.964748684576743898e+00,-2.042382500289317893e+00,-9.582349014069816207e+00
4.537569900968716929e+00,-4.456280200866030050e+00,1.210282496960022769e+01
-6.917682675168360440e+00,-4.272714615615492484e+00,-1.730615059517159660e+00
-9.279781143889456629e+00,2.695706669067651884e+00,-7.710365309162909853e+00
-1.316163967475512342e+00,-7.412351325481551179e+00,5.351134056645766357e+00
-1.113959445977541129e+01,-6.785316407657166593e+00,-3.592740112756787063e+00
-1.204106179898566253e+01,-3.612655872939504409e+00,-2.302606654772171524e+00
-1.031976527509793584e+01,8.718776608674754236e-01,-7.539912496506018691e+00
4.196249285391877137e+00,5.016287484950425757e+00,-5.117083899822998383e+00
9.660989618885157171e+00,6.586156756792998834e+00,4.748257034943604182e+00
-4.641932653274622567e+00,-1.795009144490112285e-01,-9.973338712519122851e+00
-5.068762910352321960e+00,-8.331439336168799059e+00,2.456837694289391916e+00
6.069862829936181647e+00,6.889124187507262853e+00,1.987167356868750345e-01
-6.587475328179102085e+00,-2.180495676826503360e+00,-4.550874937931951969e+00
-9.156658352523033173e+00,-9.348942975992926563e+00,8.528383300019889424e-01
6.833443297265816341e+00,4.173090104108711174e+00,4.008775555681474145e+00
-6.329154657689157304e+00,-4.732861608631359296e+00,2.382864091117350647e+00
-6.536169502130091402e+00,2.040829885661330501e+00,-5.855734141214248289e+00
-8.192602707653925620e+00,-6.920422847581375159e+00,6.708952005997745438e+00
3.838409282689181357e+00,-3.332224415434233755e+00,6.720615231562479863e+00
4.924966415903524464e+00,6.808660588568582916e+00,-2.196012149069523911e+00
4.250478484449209837e+00,5.181638285677410138e+00,-8.608203608218259362e+00
4.379180109799672316e+00,4.765850455363844773e+00,-7.645196188102669765e+00
-1.232500372406964084e+00,7.675354345405724921e+00,-7.085176886821053621e+00
-7.840739713410552092e+00,-7.098355081104839925e+00,-3.117516360889222682e+00
-7.155145423980640906e+00,-2.826650684253792623e+00,-2.912446762117154808e+00
-6.755210804166460470e-01,8.365460052298361759e+00,-1.031986199735808363e+01
-1.018084705872367834e+01,-1.856996127822015508e+00,-8.899890691962236033e+00
1.522784608187793154e+00,-4.763005621133411971e+00,6.741385575479806214e+00
4.544309277813156633e+00,5.766420568638251254e+00,-3.629080107963084778e+00
-9.693043491736945683e+00,-2.325683865365683278e+00,-9.130785478756582307e-01
-5.326020741423630689e+00,-1.296431762280478628e+00,-8.247389514282273737e+00
9.057025932280051705e+00,9.053571825418989860e+00,9.440642959271701093e-03
1.138263771682214198e+01,7.026226936901683651e+00,-1.361692719000996199e+00
4.920910071470551150e-01,-4.573242259106691243e+00,1.189649487401268146e+01
-1.051002217227881808e+01,-5.471906309095269982e+00,-6.084528035570317073e+00
1.020421558425941910e+01,-1.052096410350966238e+00,6.202390235666555895e+00
-6.533150631982937107e+00,-4.841332188996085861e+00,1.313657767180250735e+00
5.978238913834622359e+00,7.901518653585299923e+00,-9.045431948148650037e+00
5.977066066279113077e-01,-7.689517334070701260e+00,1.142620925578898117e+01
1.072901466149777683e+01,7.321316105381685091e+00,-3.250657266238436538e+00
-9.487727779976820486e+00,-2.551315380047142423e+00,-9.238524721591030442e+00
7.736748003085102132e-01,-8.453540966382593780e+00,1.011416758911344616e+01
-5.833198954214429577e+00,2.221774363997440105e+00,-6.217048681760987350e+00
7.200399213966878875e+00,9.429150177229930208e+00,-6.954658627549701322e+00
1.149474558005695535e+01,2.667528870073865299e+00,2.259784889968972532e+00
9.779830378506817468e+00,4.654686959833874482e+00,-2.903655784164452136e+00
5.474700818507903577e+00,6.890099762336053146e+00,-1.483786368205318951e+00
1.066676699764648539e+01,4.303242328684468987e+00,-1.216285150566042361e+00
-6.845358441846682851e+00,-3.426699078296845169e+00,-3.456037621323456932e+00
5.883402819750890522e+00,-2.002381979429418646e+00,6.126835147286455729e+00
5.375250920799362397e+00,5.582020772830897926e+00,-2.523116491527882754e+00
-4.470079854380837325e+00,-1.002823124942761090e+01,5.061632806903247683e+00
-5.631651732038518432e+00,-1.038628737928581991e+01,5.973359100876840522e+00
6.852552288737324027e+00,8.728784606858795980e-01,4.322196236133125424e+00
-7.117585269237942214e+00,-4.476916023510449705e+00,-6.364728287793639083e+00
-8.437002188483180731e+00,-9.288535941088152725e+00,5.616049050426084044e+00
-7.359776453440114441e-01,8.346259581052088095e+00,-7.477450701551954459e+00
-8.150629363402183358e+00,2.241318807983418093e+00,-1.078211581021150778e+01
-3.958581179853350562e+00,1.126420882752184660e+00,-1.117352784163395363e+01
-1.197957202042949731e+01,-2.076620454036226970e+00,-4.855024802689143826e+00
-5.035493921127856431e+00,2.315732666821165964e+00,-1.213595524700311579e+01
4.510564298743957035e-01,-5.882946090501319780e+00,6.368497594523870653e+00
-4.470005828131003334e+00,1.591635332732244779e+00,-1.204799386065061562e+01
-6.987024683066088926e+00,-4.197887075238989851e+00,3.561595151124554715e-01
-9.484283884245275686e+00,-6.273859366057726206e+00,-5.345251966272804189e+00
-1.215778397062527771e+00,2.437042059114384873e+00,-1.038722562154465834e+01
-1.146806693084742435e+01,-1.564186104089018148e+00,-6.859092653285993713e+00
-5.805447400997532093e+00,-5.204761351210696496e+00,2.473935422929405714e+00
5.514808336976535053e+00,7.640563373163709038e-01,1.012587230542868610e+01
5.573954597985586012e+00,-3.537521940528876918e+00,1.184414817330763370e+01
-5.283405825961893676e+00,-9.197059299951453326e+00,2.755903302191090365e+00
1.241245032703182716e+01,4.381623951433565090e+00,2.386043044923564782e+00
9.137467732118468078e+00,3.026869207989882682e+00,-1.105507480594649233e-01
2.582106036035611840e+00,-3.011334650070839114e+00,7.269329547292501026e+00
1.374060936546036116e+00,-7.579713960165393338e+00,7.063343320502668554e+00
-9.933713907520541397e+00,-8.873050388444864822e+00,3.291258670432547273e+00
7.762659569566250362e+00,1.398540323320666801e+00,3.327974359791459058e+00
-1.081286007199010335e+01,-4.764675351121407942e+00,1.849422969628419899e+00
-1.029307553487732996e+01,-8.738632606086660815e+00,1.028929771687993044e+00
1.065795906744336641e+01,7.413379467869022577e+00,-3.493990686112299127e+00
-6.623035581507347835e+00,-3.653724602040142155e+00,-5.229659263550002990e+00
6.278012045231690763e+00,1.734883766014954087e-01,5.233071396959187105e+00
9.984318004551075987e+00,3.961789133123050366e+00,-1.272359486703912079e+00
5.156846583316357702e+00,7.379393895094499278e+00,-9.495032264946658529e+00
2.506947370485073545e+00,4.895127086970222585e+00,-5.914469986643760002e+00
5.536249676325404323e+00,-6.049633571436896951e+00,9.344438940023332307e+00
-2.711898319006398883e-01,-9.273622869611635622e+00,8.219076917247726044e+00
4.417197049811639076e+00,-6.387979602400591261e+00,1.105788259933904172e+01
2.598949315299640350e+00,8.394406196110683283e+00,-4.846675527238394565e+00
-2.520999299265003213e+00,4.432212288168910774e+00,-1.239420130222919703e+01
5.853373936912539044e+00,9.071826266318804954e+00,-1.764909250043873445e+00
-3.045257295249490070e+00,4.649318134613139364e+00,-6.729155229881055966e+00
-1.322812932629337634e+00,-8.595832969209942220e+00,5.698448054887389702e+00
1.215647877987059466e+01,3.418885550209687985e+00,4.208475997411808223e+00
6.345573363251712173e+00,-1.356324051071472025e+00,1.183069632744260424e+01
5.906913309154598224e+00,4.841994972274854092e+00,-4.309046528143192667e+00
-3.826099456485404282e+00,-4.805399199985339820e+00,6.178768873349609336e+00
8.617533204903763178e+00,-2.939373774946004048e+00,7.450264758354244954e+00
-5.856874227809020006e+00,-2.307535996211853568e+00,-6.573180426056692838e+00
-5.562920349166257772e+00,3.615656221890405586e+00,-6.775211494650128508e+00
6.748071356643045249e+00,2.502095984525339212e+00,8.742350214697156119e+00
-1.980636520947211432e+00,5.685012848180110545e+00,-1.226883759769060589e+01
2.865151490214718599e+00,5.129264482043698337e+00,-5.982728538018110775e+00
8.496999898936529405e+00,5.278223035686437470e+00,-4.848194359774079309e+00
7.412034221790362309e+00,3.029970612423911192e+00,8.336501837367572776e+00
6.746126722392133068e+00,4.242558021589762696e+00,4.477639142405516637e+00
-6.618630348708407496e+00,-3.376866224824791818e+00,-3.853030604982593754e+00
6.554770858499748165e+00,7.371386336130926198e-01,1.064442834073489941e+01
8.817345874659787697e+00,-2.881832823297389989e+00,9.412076902463022421e+00
6.570821722095738338e+00,3.566174788552201935e+00,6.717808400332073937e+00
1.214055282211734088e+01,4.097138959681160486e+00,5.257860103786036632e+00
5.600622642872701284e+00,1.375574930016991049e+00,6.362300926108592769e+00
2.028644493168486385e+00,-2.047764511859039072e+00,8.390205994643215703e+00
1.056570917628376627e+01,1.196194625246215670e+00,8.502266106391365597e+00
-7.878360982333534324e+00,-5.743338486272834054e+00,-5.113601281058069326e+00
-4.623655104880337596e+00,-8.472992615052064025e+00,2.872256169692734673e+00
1.194803268475778246e+01,6.103808023084120293e+00,2.160698454947012515e+00
-6.558612048854681298e+00,-1.026495857708271942e+01,3.723890536457381106e+00
-4.425244388500658488e+00,2.112499180945492494e+00,-1.195610073416079011e+01
-7.722782813236277910e+00,-7.931706219150489900e+00,7.379791592967329450e+00
-1.222692192534172051e+01,-3.432962429540388882e+00,-3.736161096800060477e+00
-4.949080785333665133e+00,-9.618250743054742813e+00,3.951707530435030868e+00
-1.215694861851091169e+01,-2.897784553203102575e+00,-4.265274740877704751e+00
8.535819229951462361e+00,7.206385718308451871e+00,3.598149256523384576e+00
2.981653105617301791e-01,6.825611080021326771e+00,-1.175149659072449815e+01
6.099432498739028041e+00,4.667456874439586123e+00,-4.280781424551457270e+00
-4.384015722103121959e+00,-1.004928733168865307e+01,7.549480501855502901e+00
-7.118274722968598311e+00,-5.633936145677636453e+00,-3.660202668818608451e+00
-3.695143485947703699e+00,7.114810152040747404e+00,-1.001157714558475220e+01
6.737655814940428645e-01,3.307777870444388313e+00,-9.518435552664236354e+00
1.702145099443529874e+00,-8.135825108499206593e+00,8.015238837528315230e+00
-5.636832703728155813e+00,5.893999203299506995e+00,-8.737026549046039037e+00
1.094435069422398144e+01,1.863690241734845765e+00,8.154469143445830071e+00
-3.152665636163112239e+00,3.281048754300389447e+00,-6.898381323410168520e+00
1.057171635314746361e+01,8.170650016611842759e+00,1.551887353425286387e+00
-3.192834234381152658e+00,2.603225488401269327e+00,-7.108454760437836306e+00
1.133396405308700494e+01,5.299233586038627486e+00,5.460447972816469431e+00
-1.024280690130630944e+01,-1.880818517531664069e+00,-1.774846371408253409e+00
8.995940713109773057e+00,9.661293947694593598e+00,-2.735164466498681612e+00
-8.089438399031141813e+00,-6.867094389987196124e+00,-3.980483017430358483e+00
-8.660221276545291502e+00,6.045777824523612676e-01,-1.069715271971146286e+01
8.245513804652683021e+00,3.957025818034327624e+00,7.674482226472497892e+00
8.477855763195627503e+00,9.274267816154202038e+00,-5.661301623776846093e+00
-1.850661494913323324e+00,5.830152543269279342e+00,-1.247060939553192149e+01
-9.833534359193397023e+00,-3.017892826144370488e+00,-2.146882818300567264e-01
-6.180011126601914206e+00,-8.966040444527461517e+00,8.253712687201407050e+00
6.753485306239357833e+00,4.471134725684023259e+00,2.173511395959440318e+00
5.723533482927172678e+00,-2.866375702538711323e+00,6.271491265461667020e+00
-1.045241082402449351e+01,-4.107402004596568901e+00,-7.294949266051365733e+00
8.114507305258241487e+00,5.835312212767255424e+00,5.450550984783319564e+00
-2.944292262469228039e+00,-5.077953820988956757e+00,1.024541829937088799e+01
-1.132481186211543189e+01,-6.804477166534501631e-01,-6.414000262460793245e+00
-4.275679631685237680e+00,2.097390568446367176e+00,-1.205055521217636461e+01
5.770762363971896569e+00,-1.863465743667518604e+00,6.040558122935397733e+00
-7.465073570261503200e+00,-1.022376738318003220e+01,3.907885661168239100e+00
-3.396378078202692663e+00,-4.453903146644147881e+00,8.264760618812191595e+00
6.073680917049872008e+00,-3.703175277124191478e+00,6.764832889680936212e+00
-1.077548529566860402e+01,-4.552122985889971218e+00,-6.796868185755982950e+00
-6.114357792167472994e-01,-6.363189148409475138e+00,1.188395501009657451e+01
-6.624687705790856640e+00,-4.657245212025263648e+00,-2.647616891041890685e+00
-6.794885798783055542e+00,-9.634573978287995999e+00,7.143020143024648050e+00
7.328877991589799912e+00,7.765302665185933151e+00,1.700880720797857126e+00
-1.814521190973177101e+00,-6.693738108344421178e+00,5.204991207710500944e+00
6.355780200356805132e+00,6.124912337110376193e+00,9.621718266443644030e-01
-1.898003888218349422e+00,8.182314655753865296e+00,-1.012259630461336712e+01
4.735226934738415494e+00,6.912608540161808257e+00,-2.320029097820535569e+00
-1.201608092295964880e+01,-3.506204576278265428e+00,-4.948448707970852567e+00
-6.578800712446493115e+00,-4.702482165545068149e+00,1.530533104125151977e+00
6.079648268108254427e+00,-2.185585754675475056e-01,1.130854219353131640e+01
-1.215897386754630638e+01,-4.181892784515072847e+00,-1.446658169955907347e+00
9.033002735743046685e+00,3.802587745310370249e+00,-1.769408625182004924e+00
6.563980315635092211e+00,-5.185713229365696897e+00,9.917072721467516061e+00
-8.250529958705707045e+00,-7.611729020980185112e+00,-2.791074265929138321e+00
-6.878532460294253248e+00,1.016209996765348178e+00,-5.338436241602212640e+00
9.190731416982425017e+00,-2.600011131596898561e+00,7.997812737947545436e+00
9.764418004676663543e+00,4.917189196532903317e+00,-3.137850254117323434e+00
1.054166527710717816e+01,3.540967124705930669e+00,-1.925189847821729139e-01
-1.339058734298759656e+00,-5.680365005851705007e+00,1.164647009780370013e+01
-6.001036848313514582e+00,2.567724201118055660e+00,-1.185090713869222334e+01
-5.346673543060913580e+00,-9.397904901821210188e+00,8.263436783918589157e+00
-1.050525338058323221e+01,-6.983264260808302870e-01,-4.035572594253030942e+00
-4.505736420619117943e+00,1.638639544038503315e+00,-6.650695495881578267e+00
-1.427726773510977321e+00,-3.688534220395907504e+00,8.430608042836114535e+00
7.728401438689461500e+00,7.372449219543216969e+00,-7.332661955842491253e+00
4.992629248822657573e-01,4.023490172282056854e+00,-7.339741370584422775e+00
8.273553264688368714e+00,9.743806547192358281e+00,-2.078634351322733220e+00
-2.275366794594197550e+00,7.375181107235920130e+00,-7.784670642661539297e+00
2.541782223092111437e+00,4.772623246500825367e+00,-6.225751469607978095e+00
5.504896602852658027e+00,4.811622411234687924e+00,-4.968850296462587579e+00
5.249176181109972639e+00,9.729922472351001161e+00,-8.243099786160234643e+00
-7.013516705230823156e+00,-4.422272410104849172e+00,-5.442911193466829722e+00
-6.971567935955194084e-01,2.882792841587973776e+00,-1.078518080927465128e+01
5.497077528678536495e+00,1.409464906090252656e+00,6.745084178332226621e+00
-4.110316723468345756e+00,4.681795870143324656e+00,-6.768399880093408427e+00
-1.020430442748654620e+01,-6.989233699828339752e+00,-4.025562088625302515e+00
-8.154475994491359181e-01,-4.214908789046091009e+00,7.164809773098903989e+00
7.842284020759752394e+00,5.651099247794975078e+00,-6.478242701737357834e+00
7.156651281054504210e+00,8.145889118535309947e+00,1.090178373677709978e+00
3.819480544279845180e-01,3.046996824744152566e+00,-9.173774528454135435e+00
3.033396403466340541e+00,5.730024011106753079e+00,-5.144183449340832048e+00
6.598446551680405392e+00,5.027637650036510308e+00,4.486627720479078874e-01
-1.198257083555622771e+01,-5.621711451788447889e+00,-3.989485643554528949e+00
-6.636482356020125373e+00,-4.787005562957931559e+00,3.725924175073184408e+00
4.692837008549826550e+00,-3.449050840064978196e+00,1.219495537477838631e+01
-4.729950167576330244e+00,-9.464070792812089294e+00,3.588193434537394033e+00
-5.012912766280607890e+00,3.244607907528938906e+00,-6.618048305254077945e+00
-9.685783783954425630e+00,-5.380859973279702224e+00,3.781427935076740798e+00
1.095659544692837351e+01,1.848918593854086412e+00,2.734252311875154717e+00
7.355124134232692290e-01,4.220917140660543687e+00,-7.320828819409104682e+00
-1.135844824102633766e+01,-3.413726919393894388e+00,-9.742693178368815321e-01
-1.326226397220652053e+00,7.515660938395891222e+00,-1.150780057231959752e+01
-7.340511741046760186e+00,-3.363962299950314261e+00,-1.461499795351284936e+00
7.317142337910740757e+00,1.017928032787552262e+01,-4.668876606443491895e+00
1.045710750031670777e+01,8.353460441828916672e+00,-2.767936453450319245e+00
-8.687493466372060880e+00,2.660993960395878766e+00,-1.021689636351564445e+01
3.166010402603544271e+00,4.935011626503982285e+00,-6.113525447465571361e+00
-4.124781760495221938e+00,-4.624863862419187122e+00,7.850976708685365679e+00
-6.642462835365035900e+00,-4.716839232980745145e+00,-3.709985784846923984e+00
-4.628951857214587129e+00,-9.307329236215345247e+00,3.309458106401389710e+00
-9.672319713604103697e+00,5.726891361557496785e-01,-5.146477649171516511e+00
-5.389062394763018737e+00,1.784841677926177539e+00,-6.190291188634349240e+00
-2.264885161063410646e+00,5.811932876442109652e+00,-6.755575131755546359e+00
-4.504345232185021253e+00,-1.002787809249005235e+01,7.938503527049608266e+00
-6.305823236905273577e-01,-6.071123136780919083e+00,5.940408240843067844e+00
-5.956306836547261341e+00,-7.329868586542535036e-01,-1.058639133090915863e+01
4.857882628649973888e+00,4.912903117470902359e+00,-5.828725165877816750e+00
1.092797545307891838e+01,2.619946386855469100e+00,1.524016960669729137e+00
-8.045094431328559281e+00,-5.639638189947057678e-02,-4.174584150566361451e+00
4.270135791598137054e+00,4.675453200465129022e+00,-7.873682797397116850e+00
-1.025064172453638811e+01,-8.564509033467521348e+00,3.108484825037913790e+00
-5.596008877009460036e+00,-5.388188160635360546e+00,2.749011514097190023e+00
1.097608190409299667e+01,8.050228444117353277e+00,1.095290578115580005e-01
-3.053511326806698789e-01,-7.391158016107953976e+00,1.152855000994884094e+01
-2.039446749329569819e+00,-3.939746220828103329e+00,8.797614723265384740e+00
-1.112653219127400028e+01,-5.202090916947228472e+00,-6.120497385244563660e+00
-8.548583986793154565e+00,-2.384646161382934171e+00,-1.571182432456231570e+00
5.579862721754937915e+00,9.979134244988902225e+00,-3.658923578297206269e+00
-2.899038680533220003e+00,-4.219763139339285374e+00,7.611215675721153318e+00
-5.528025651904619586e+00,-1.042282642779313262e+00,-6.242216819859942589e+00
6.306891441320694902e+00,-4.716987907873572361e+00,7.940359233964364272e+00
3.040710459711308378e+00,6.965338597692783296e+00,-4.244040332039392460e+00
-4.551202816878067381e+00,2.612710604045129781e+00,-6.607724771677045084e+00
-1.005187959820844767e+01,2.872020273097117826e-01,-9.391022034354794101e+00
1.001712678225487174e+01,3.706749814880699212e+00,-1.119674128807511382e+00
-2.534767696100494572e+00,-7.511892473152276928e+00,1.094609373446995804e+01
9.573750721640706729e+00,4.663098150437710032e+00,-3.012705932521364094e+00
6.461138673978763514e+00,-5.181075579691761135e+00,9.112551191179475651e+00
3.782014253930226388e+00,-7.261005814189436691e+00,9.777902195561416931e+00
-7.747733949701327560e+00,-9.279509444284297359e-01,-3.662532076666564773e+00
2.161569541177449594e+00,8.478593783618627810e+00,-5.230524305340943592e+00
-7.824465807667132289e+00,-5.036402621860317730e+00,-6.289892949890245610e+00
-2.802015232056228822e+00,1.446858856996429576e+00,-8.336337592625877591e+00
-1.209872470005487699e+01,-5.966224741169957824e+00,-9.336025987578544516e-01
5.424318465926278421e+00,-5.288499908473156097e+00,7.620140952075192153e+00
-7.041251717530661480e+00,-3.243049198659865073e+00,-2.429557688437336882e+00
6.536625180622232634e+00,-4.670144878921552056e+00,7.922079463447039949e+00
-8.261376017711247854e+00,-3.762081375330643240e+00,8.216644683760536694e-01
6.945652455667795877e+00,3.801124703982242448e+00,3.512077987724158135e+00
-6.770223997320561793e+00,-1.035285866309876823e+01,5.597701334225549274e+00
8.918932682504969733e+00,7.435040261692185126e+00,3.355202088604798849e+00
3.864278788893363292e-01,-8.102739852268289411e+00,1.116025514110947015e+01
-6.664974826968154353e+00,-7.293266140367482109e+00,-1.299650368321260352e+00
1.809885431148923751e-01,-3.584797128749358297e+00,1.096927914896844136e+01
-1.017887500060672634e+00,-8.701677686528176636e+00,6.338144380044044901e+00
-5.751790951614610847e+00,1.193619301015143463e+00,-1.185099021550026421e+01
2.379177263584034474e+00,9.928614334131097507e+00,-7.466102440063122181e+00
-2.435310050334444087e-01,-4.964076975467786923e+00,6.389300855468849072e+00
-5.925837275688333960e+00,-4.663272237216649962e+00,5.343022950392676051e+00
1.931663435400070128e+00,3.879948610812203214e+00,-8.114022942941382155e+00
5.366669793672697253e+00,-4.086886445202167373e+00,1.189073759137810171e+01
6.008223204252749916e+00,-2.199103190951175790e+00,1.171275976280841036e+01
1.607405937458009415e+00,-2.413644814768585611e+00,1.105493466551962278e+01
-8.560657117846210085e+00,-2.427001996164677156e+00,-1.477476361959731754e+00
1.199069666151686775e+01,4.379930632054087170e+00,7.398260184831926267e-01
1.071185726257876780e+01,5.843069646046912258e-01,8.755334126840146780e+00
5.598750791649587555e+00,1.994142854220679384e+00,7.854953058614005279e+00
-6.020765357546784102e+00,-2.078990103449045446e+00,-8.891370319652738274e+00
-8.165770604451620951e-01,-4.846127345851589219e+00,6.670634580572300187e+00
-4.361093409758241890e+00,-6.129448983769177239e+00,9.986791335300413408e+00
-6.735655473315406150e-01,-8.836418024417032058e+00,6.760684455816734939e+00
1.197020445817413936e+01,3.038921105809508472e+00,2.488807112140019484e+00
-4.140259174204576453e+00,2.896323066473114771e+00,-1.212309018327047916e+01
-2.119894860657829838e+00,-4.437402155017431404e+00,6.984133365563654827e+00
1.465342019156885334e+00,4.613033756534512086e+00,-1.105821008092276259e+01
-1.183153638071027025e+01,-5.626735686690020444e+00,-1.325245100119141761e-01
8.108114606001818103e+00,5.279611802703634282e+00,-5.669345381910261494e+00
3.804852727438070015e-01,6.499689980197454808e+00,-6.019645993915503368e+00
7.029165901623880330e+00,3.103909311229398504e+00,8.060154749164651022e+00
5.192270566823673050e+00,1.005028255483512645e+01,-4.100442048631123271e+00
6.718144634620255573e+00,8.882577401802628225e-01,4.630532643824524008e+00
9.780582380414159616e+00,3.240233947963042205e+00,8.444467369326792650e+00
-4.607426074940716987e+00,4.514402000652726343e+00,-1.212317964581805185e+01
4.545352372073878655e+00,-6.629760036973724624e+00,9.001881178669679073e+00
1.948353579190125862e+00,7.804096109587081109e+00,-5.099943272265223371e+00
-7.504024657516189301e+00,-1.343946404777873971e+00,-1.024051267417512356e+01
-2.103352632180256254e+00,-8.690741829722332668e+00,5.237599998255439537e+00
6.316610307849365391e+00,5.371625227974917927e+00,-2.474959605381889249e-01
-6.881382903850530752e+00,-5.012417473323755424e+00,5.920558287486911375e+00
-7.049388746882098822e+00,3.204760105113356961e+00,-6.498712072914118565e+00
-5.635633476091213012e+00,1.686229300583009516e-01,-6.017797155877959270e+00
-1.067130568345522335e+00,-9.139553252313767473e+00,9.764404291347638321e+00
-6.843023799763750858e+00,1.204742063384922401e+00,-1.141989012536313908e+01
-6.163750295565223247e+00,-5.078418504845358505e+00,1.749604951929304208e+00
-6.918454542665160467e+00,-9.898124722430814870e+00,2.492374806996074277e+00
-1.232227039158088822e+01,-3.910880957781439182e+00,-4.592269177642130273e+00
-3.646946474258838222e+00,3.984315770575220128e+00,-6.598554778555765665e+00
-9.407273148074230207e+00,-1.009891937613415919e-01,-3.952610471207404608e+00
-4.721449214110480241e+00,-4.735319602567561681e+00,5.417803285037813055e+00
-6.367723415284611832e+00,-9.408423470047091453e-01,-5.191052355626487369e+00
1.155311476153038797e+01,4.790689254820615695e+00,-5.164975396613502578e-01
7.756303455274967007e+00,-4.125323681736647430e+00,8.929432883647296038e+00
5.657394068793013986e+00,8.866464638517232544e+00,-1.721375346149750962e+00
1.027556982897331928e+01,8.827009990869093770e+00,-1.970391997820062635e-01
-4.484538752449720000e+00,-6.973736053829637349e+00,2.614709463089359254e+00
9.319981987078778118e+00,4.721334386505914082e+00,-3.748960670064855005e+00
8.534512414191471663e+00,-2.418539096101720798e+00,1.021722798550619338e+01
7.000462363569251778e+00,2.241858861236816658e+00,9.218738789629851382e+00
2.589887820371107097e+00,9.389373387365070656e+00,-5.346228327579294337e+00
4.454018892566783627e+00,4.891876154456503700e-01,9.296146796320639893e+00
6.485610018718762637e-01,-3.436168801599083444e+00,1.138580302960405888e+01
-4.317741460716047364e+00,7.196497281866726103e-02,-1.038887968143779084e+01
9.702857012438693474e+00,8.535515758850415580e+00,1.702981105656011351e+00
1.926901309712032662e+00,-8.285206266929836971e+00,9.809199278584003423e+00
7.661033739291744915e+00,-5.714494651757623389e-01,4.879089994812149556e+00
-3.199204610988614750e+00,6.709655733831870528e+00,-1.130328465143094618e+01
6.684717176574072717e+00,5.282997376593894678e+00,1.806006984165430485e+00
4.702825563999345704e+00,9.177367686306968864e+00,-9.045613878665182739e+00
-8.053997816768816875e+00,5.564814970145649103e-02,-4.188404675363432972e+00
-8.528623743216774855e+00,-2.681541179523235563e+00,-1.029417819908472920e+00
1.246855489003530826e+00,3.529167576605480416e+00,-9.322877422382639168e+00
-4.066942864922479473e+00,-1.028855695426794981e+01,7.154889619561262570e+00
6.984502366382653316e-01,-6.016463741064579374e+00,6.405399195826248615e+00
-1.557586324328505079e+00,3.338720497803851828e+00,-7.376172469278567512e+00
4.315562674963458356e+00,9.992803735653406960e+00,-5.227254304699913590e+00
-6.398891844469130952e+00,2.851670997600317836e+00,-1.162029059758176608e+01
-1.172644195944140222e+01,-4.094204579973218294e+00,-8.823176294111575446e-01
-5.537870743694329967e+00,-1.954564144367528122e+00,-7.609631721333436793e+00
-6.014423192473655755e-01,6.449697526671746672e+00,-1.204561849022537068e+01
3.559781873671392205e+00,5.080807344492823674e+00,-9.461360411691716266e+00
8.011077371998810648e+00,1.003251890655209877e+01,-3.632292304715988962e+00
1.184378654465806768e+01,1.785160981945809189e+00,6.023031543481828010e+00
-2.284030509873617110e+00,8.081317901191473752e+00,-9.336631371389655598e+00
-7.926484217384451192e+00,-4.737105839300240540e+00,3.834361998173685837e+00
-2.881718486943535495e+00,-8.765593361087193003e+00,1.048554396544259681e+01
8.064974186081013130e+00,5.189971998487603599e+00,6.082770827901821775e+00
7.284130851176037424e+00,3.937586107509464917e+00,-5.053833825877205310e-01
6.827115093322740691e+00,2.860736585464688897e+00,8.340770608356370630e+00
4.634755210393356251e+00,6.509454544740040927e-01,8.083638320828519852e+00
5.864766784185447036e-03,-8.746837594111262604e+00,7.669807745736795468e+00
-7.359566106695675458e+00,-1.013530109750282193e+01,4.694791711900277775e+00
-6.290071488711385328e+00,-3.272035566954327290e+00,-6.438974296810491715e+00
-6.431299056086706933e+00,-3.105835947590255497e+00,-4.861508938492716148e+00
-5.183077839108655382e+00,5.219630638657783983e+00,-1.149479697264675870e+01
5.217949708332201730e+00,-6.238644855326139549e+00,9.924734447041265284e+00
-3.692496831371147703e+00,1.980595919906297020e+00,-1.173314080467419807e+01
4.065616199088082361e+00,6.522606473314598752e+00,-3.413969976061216549e+00
5.610607448002620679e+00,5.036290428958974275e+00,-3.210937361854583560e+00
9.545843365257880464e+00,-1.720552549826231514e+00,9.513281514354419599e+00
-5.771637822555195640e+00,-2.038006722215869537e+00,-8.115523098051999895e+00
-2.500329798238016821e+00,-7.386622601404585708e+00,1.104242959893537801e+01
-5.574605053361801232e+00,-4.704718422679352585e+00,5.990292641883035785e+00
-1.065640438890545738e+01,-6.807301349073073382e+00,-4.235702027773649903e+00
9.914274875116825925e+00,9.102720244134482996e+00,-1.772292229487369530e+00
4.308494919021349290e+00,2.663200859437646617e-01,7.626533314888289006e+00
-1.101008561123688878e+01,-4.092801417444839190e-02,-6.550767907454670969e+00
-1.062958152782950805e+01,-1.576380295889630689e+00,-8.736683279735181884e+00
9.060534642381119497e+00,-2.657633763980360886e+00,9.290629937232557367e+00
2.818558872929389558e+00,-4.327541824605683374e+00,1.233451655058648733e+01
-5.790005899740746642e+00,-8.166118017516730276e+00,9.108055532661429865e+00
7.319082208962781166e+00,3.766306264533088477e+00,1.496908592567036900e+00
-4.502915812572987342e+00,-4.612528117936371075e+00,6.533667650917489134e+00
3.967307441036147519e+00,7.314774348738819043e+00,-3.387047775463642552e+00
1.029790344627356724e+01,4.884657228749868629e+00,-2.414644385085758849e+00
5.353146974155704729e-01,8.060529524205083618e+00,-6.198322712098465637e+00
1.065990395856512052e+01,-3.472926614943956936e-01,7.961578226822587645e+00
1.193693866930128067e+01,4.230816636482954252e+00,5.304567986358621035e+00
-6.635821744642972142e+00,-9.741441253209809359e-01,-4.742235730831938056e+00
-4.310161036257547984e+00,-4.766938200607869547e+00,7.298698961893876458e+00
7.338367152022483353e+00,7.231021381837245521e+00,2.196526100463726650e+00
-1.028217258447496008e+01,-5.973844252598916604e+00,-5.442943883460060306e+00
1.226830970259363163e+01,5.004445152865159230e+00,2.663838512126027958e+00
-4.379778292537989337e+00,-5.087013202429103487e+00,4.850570414964688659e+00
-7.792029535010772001e+00,-1.125665372032052858e+00,-3.427030209461296550e+00
-3.262421178199901739e+00,-4.130991624743026946e+00,7.559649256206610879e+00
-1.896714181341373040e+00,2.057053210484595329e+00,-1.123876561012470354e+01
-8.389171119090743645e+00,2.825846557466046516e+00,-7.139085132600343719e+00
-8.107508470789255739e+00,-3.731936325378005570e+00,-8.254630667790641141e+00
3.324142739511878109e+00,-3.311553087778154048e+00,6.918135774138687744e+00
7.856541384019847030e+00,-1.185186211625512964e+00,5.123053044390615263e+00
-2.912378072017142827e+00,-5.973514098404636208e+00,1.077278577970803397e+01
-1.110358328092567248e+01,-7.727677993179506544e+00,2.249331477993838480e+00
-2.510970607584874781e+00,-4.442890905574726546e+00,7.025295769200011975e+00
1.060787531755473445e+01,6.728695158967791246e-01,3.910308170399169114e+00
-6.379989379855145692e+00,7.744157186991166286e-01,-5.517833699804962855e+00
2.820503850175577476e+00,6.190519935059045409e+00,-4.879784554519663864e+00
-3.816180960644213638e+00,-1.016222832621956762e+01,6.369233662715789279e+00
-6.116667980497526358e+00,-4.895661590641493532e+00,3.998854485951264248e+00
7.929943582110427158e+00,8.754107824537062044e+00,4.624422823849815845e-01
-1.121362103708999314e+01,-6.660763257952857508e-01,-4.925787367237426828e+00
-2.208035327703151030e+00,-5.573613649236562217e+00,5.430073893488875925e+00
-6.644910720344365807e+00,-2.480451900546332578e+00,-4.297414321193572029e+00
-9.341726555692662970e+00,-7.074229206554710103e+00,-4.078834316064918752e+00
-5.146776616625455603e+00,1.388266544438320649e+00,-6.225703039603293298e+00
1.201559724435796639e+01,5.432325118502087768e+00,4.398834826133290576e+00
4.372969901864305342e+00,6.214578694085590271e+00,-9.948523320452412833e+00
-8.374388011424070299e+00,-9.794963390544552340e+00,3.884344205894409985e+00
-2.947553945416109933e+00,5.912631192653576839e+00,-6.999323797088149668e+00
3.391303754327004705e-02,3.153149804287563196e+00,-8.782091538965760336e+00
3.287466514689127539e+00,4.267640442770256115e+00,-8.330649695762648577e+00
-5.871437281013093923e+00,-6.567523493433684578e+00,8.709068875009952748e+00
-2.003456930288424420e+00,1.992069075931351296e+00,-8.545658950912434548e+00
8.178026334687196197e+00,4.989206293930643632e+00,6.774447016521813580e+00
7.856132629931440015e+00,7.509243336348802700e+00,-7.297392508260507782e+00
7.764448257112259277e+00,-8.774690481205197345e-01,5.042180942423703627e+00
1.883122803695722602e+00,4.650407706851168221e+00,-1.070417448109577663e+01
-1.302640267076330849e+00,-6.914871378053859097e+00,1.150611922274667087e+01
8.865314547282780566e+00,2.336979578354413611e+00,9.335028110101463383e+00
9.845287283148881130e+00,2.871510472303529404e+00,4.396634919524671226e-01
3.242252324355529236e+00,4.598938670224573144e+00,-9.364679135112725206e+00
2.925570097456213492e-02,7.341306332130383083e+00,-1.157131589040703901e+01
1.042002459238495354e-01,-3.995757288422773890e+00,1.141822018942822758e+01
3.545723047004347261e+00,7.758321506185965610e+00,-3.876883537241716748e+00
8.833789844687153447e+00,9.436526325469575482e+00,-7.315240723939062661e-01
-1.712402358662692636e+00,-6.853601968090384133e+00,1.135010509339205775e+01
-7.253931704800357316e+00,-4.593293500499258109e+00,3.964123896308854089e+00
-2.526679371581943112e+00,7.607196314905231738e+00,-1.037767009380529970e+01
6.434252183225444455e+00,-1.669227234070918664e+00,5.877694105653382906e+00
-7.317258082073771597e+00,4.558166678768635904e+00,-8.647573341632467603e+00
6.795028261636455902e+00,8.983997062252807808e+00,-7.110247852603714946e-01
-5.469963324215449951e+00,-5.119223335986323953e+00,3.603289760588764157e+00
5.855872139664486831e+00,-4.897090120169280247e+00,1.119721332531839408e+01
5.209015940924659915e+00,6.843882471740449169e+00,-1.871333935929957448e+00
-7.649167670042893441e+00,-8.090364278542054421e+00,-1.467629258361412781e+00
-2.841135090617945114e+00,6.720692313679417218e+00,-7.269438627939111441e+00
-1.090215844495129893e+01,2.430531446195508538e-01,-6.683390429718443215e+00
2.000092410679215504e+00,-7.240589691829284469e+00,7.526778583882999030e+00
-3.552214794187088742e+00,-9.369393046816179904e+00,4.715578134117775377e+00
-7.436875452188089319e+00,-7.766011591871454733e+00,-1.763585664705776157e+00
-1.041386299077931810e+01,-4.723024478312879637e+00,-6.912862305183818279e+00
-9.569858039051053922e+00,-2.293610800806957339e+00,-1.298155983819936132e+00
-9.871700397958068862e+00,2.236436921212815732e-01,-9.656676819995837491e+00
1.068533752205253862e+01,3.908625041934198130e+00,7.044188188691628660e+00
-3.930143722574866771e+00,6.778404722717314534e+00,-1.099980933971904662e+01
