-1.219010801518729181e+01,-9.234623789977828068e+00,2.748777332001812179e-01
1.615179909054264229e+00,-4.794063230821419275e+00,-8.528751726871799832e+00
1.727418259878763962e+00,7.181727882412621611e+00,8.960211894777946995e+00
-2.291800530296663752e+00,-1.021544367815358179e+01,-3.754981013293763343e-03
2.525028108699444829e+00,8.509432490113900016e+00,9.525295080020244498e+00
-5.726375423003331910e+00,7.694592384637884974e-01,1.319979303868969289e+01
-9.376951508394726353e-01,6.263633237300638257e+00,6.296815415418952178e+00
1.520504970229440422e+00,-1.422691835305551855e+01,-4.190405040822112070e+00
4.443716511825309134e-01,8.299415161339448233e+00,3.547086026335777742e+00
-5.709744271600827759e+00,7.185351812796208826e+00,5.487063911469338251e+00
4.985597221475403629e+00,-1.319563321378026188e+01,-7.997340772778629869e+00
-8.586019267051081982e+00,-1.374818420105583350e+01,4.245760985139528820e+00
-2.660704903767137530e+00,-1.309023191378978446e+01,-1.020103734763336334e+01
-2.204544311764441655e+00,-1.105650598805390139e+01,-1.107339168141672836e+01
-1.109580401324153875e+01,5.710134930223981442e+00,1.184500458042059812e+01
-1.361195375176835753e+01,-4.907963995921917899e+00,9.789380018599004529e+00
-1.068461125881531970e+01,5.230440330557059703e+00,7.140845549490271615e+00
3.863040058418224731e+00,1.452682330158145518e+01,-1.078872098148312197e+00
-1.383632236170865681e+01,-8.309012162107908495e+00,4.082538491280049087e+00
-2.232296044739373819e+00,-9.740170994703142071e+00,-2.594149681169433674e-01
2.474325147755660037e+00,8.205371482895971624e+00,2.490768129808205167e+00
9.429858430931313151e+00,-8.946043470684241328e+00,-1.069131811577372559e+01
3.739540564912470888e+00,-4.596412102732424287e+00,-1.352638506119713746e+01
-6.385744777873163969e+00,-1.026320494834581076e+01,-7.126316804621053436e+00
-4.506763668736597062e+00,-1.115067531246868704e+01,-9.181007332795271481e+00
-3.433597974049405366e+00,-9.020924081699762453e+00,1.617066718212319953e+00
8.314930786849574318e+00,1.191273256125868762e+00,-1.338045871733975467e+01
-6.845524158608951026e+00,-5.420441822358318618e+00,2.182683872875399445e+00
-1.242896009797943435e+01,-1.163088037313728940e+01,4.301190864586482476e+00
5.451323380691174059e+00,-1.195597454946752691e+01,-1.141782543981773124e+01
7.192388022343399356e+00,8.513411671434196748e+00,4.207935298854822648e+00
-1.049387277443285971e+00,1.467729345109774819e+01,4.238816030005325253e+00
7.432240180428628662e+00,-1.115334476345981329e+01,-9.728435616341922554e+00
6.322627746740307586e+00,1.400639280958216304e+01,6.617651813179962872e+00
8.108653460987843786e+00,-6.742039670910891402e+00,-6.493071467546957187e+00
9.907299531511243984e+00,-8.081315103503996511e+00,-1.013899086330562760e+01
1.258504871785181578e+01,4.229292273384698042e+00,-1.158310222989863014e+01
-2.150751816316587572e-01,6.423164387647083196e+00,6.635401720664432013e+00
-1.232449260411486502e+00,1.326188777464761159e+01,2.965545960522145919e+00
-2.170655621816803826e+00,1.208293883869070307e+01,1.236629388320994138e+01
1.032079243005579627e+01,8.420448008491254299e+00,1.634476857721221199e+00
1.043724147168918037e+00,9.567924526538718055e+00,1.597081347120965722e+00
8.293871820929172856e+00,1.552963964230291261e+01,5.024340947700636217e-01
-1.703434976137158996e+00,1.366538979247162011e+01,1.123518587927193479e+01
-1.133036397002634210e+01,4.329714181296306919e+00,7.229540469113566736e+00
-2.193830982211278702e+00,3.828250601600270642e+00,1.089206107501836307e+01
-1.439461523784809405e+00,5.615788359544276354e+00,7.130999844243675945e+00
3.601933089746543359e+00,1.608642438002708630e+01,6.254943427443938830e+00
-5.403829422930717108e+00,8.195219734948523183e+00,5.382662648498774516e+00
-1.101791501860553701e+01,-8.908226567176297905e+00,-1.476070253632258300e+00
-7.479790406872723452e+00,-1.201910334702328775e+01,-6.240650589741700394e+00
6.609586959965559672e+00,-3.723068116602018751e+00,-1.460500409176660064e+01
-1.947720108684076190e-01,1.146353657683895122e+01,1.724642459724359478e+00
4.402061004066957217e+00,7.598034891219761278e+00,9.894187268052707651e-01
2.281702486818650844e+00,1.348774335884472997e+01,-3.697857619726389600e-01
1.014840795181964772e+01,-2.902274211839986240e+00,-6.015147071486728336e+00
-3.382588191807843092e+00,1.370473760689577958e+01,6.100377610307772258e+00
-1.076828041649990242e+00,-1.598036983659379651e+01,-6.681586443717064228e+00
-1.430240534663137986e+01,-3.489862303406968458e+00,7.619290758859173174e+00
-1.299860712433028453e+01,-1.009857470680972824e+01,1.846896292334089695e+00
3.769946508316054157e+00,-1.593203571566141452e+00,-9.937928247421588424e+00
4.064810036978831143e+00,-5.297121508088655339e+00,-6.169715082452789545e+00
8.613712801056026436e+00,6.712805672528808110e+00,5.545863272532274291e-01
6.896562167879222827e+00,-1.160623137293939600e+01,-8.923066330459915818e+00
1.059491887078456074e+01,8.495894623839234328e+00,-1.004509331761103041e+01
-1.861463883804054920e+00,8.132401059834519330e+00,4.316933344749209311e+00
7.425640269236295055e+00,7.778285481873353113e+00,2.675773814355033586e+00
3.982636011640651841e+00,-1.366558028581829909e+01,-9.316748572721914812e+00
1.325040347287024467e+01,1.013437211840620655e+01,-5.084804111666699988e+00
6.474991576865757104e+00,6.847366267523618433e+00,5.213846797336532113e-01
7.589197889135896880e+00,1.247173627399316764e+01,6.424846224747108536e+00
-6.011271518449450291e+00,-4.142350076339485376e+00,5.113431212461825304e+00
1.566439221214228905e-01,6.058488802775944038e+00,9.157619292737436467e+00
-3.658100533643172891e+00,2.590377815034949016e+00,8.021913308510606910e+00
2.059569815810763149e+00,7.394788830479782860e+00,7.258567328919326656e+00
1.918493709094682975e-01,1.582089426095287976e+01,6.875244326626437363e+00
1.569641304159397510e+00,-5.883437513730269686e+00,-6.369524597112664388e+00
-2.597119903070858715e+00,-1.109860958127271147e+01,1.187400441433554166e+00
1.131810652992045974e+01,6.892265034695714832e+00,-5.559513417611795516e-01
4.590489841449323372e+00,7.652766336997568253e+00,1.359159614135028393e+00
-5.788515289602549352e+00,-1.884490192529603370e+00,6.873746788096087634e+00
5.151344012287645491e+00,1.594009012433732408e+01,4.333825192864311227e+00
7.603998558982328682e+00,1.485096216912724465e+01,4.624412887641633496e+00
1.062675989648315245e+01,1.079260140395712853e+01,2.481878751357679214e+00
-3.728091970481916650e+00,9.775219422605808006e+00,4.449892470556505941e+00
-4.421952304893873809e+00,1.319415370828908962e+01,1.026386679457134576e+01
3.704289811426701551e+00,9.459619252715876669e+00,9.262625433800799613e+00
-9.565445632360312089e+00,4.583416454809231766e+00,1.402438409028796862e+01
-5.248043794552130770e+00,6.569740069126644322e+00,5.661793672122914955e+00
-1.318988921638647582e+01,-1.013305745156711346e+01,4.614896614435521904e+00
-4.641016045978374471e+00,9.737373893360150579e-01,1.211865665238652845e+01
-4.404434817002567115e+00,1.166394482979640834e+01,1.233105592564455222e+01
-4.459867816190944190e+00,1.215447548745241946e+01,5.877398467921823411e+00
5.392663203305043673e+00,1.593740116778363713e+01,4.533470209559646413e+00
6.290987260959108873e+00,5.471367120820243457e+00,-9.542252572845375980e+00
6.735681313454137786e+00,4.790123452956800421e+00,-1.060478823851857655e+01
-1.132722765815626964e+01,6.129967556065078149e+00,1.014672515821685828e+01
1.319497045034016836e+01,8.857768117132726049e-01,-6.317884981290860402e+00
-5.805294911298793714e+00,-3.821293640664941815e+00,6.820683654511591421e+00
4.935674025683067789e+00,-1.297769747818004227e+01,-7.549550045364831874e+00
1.888088164566500193e+00,-5.612763066391394773e+00,-1.236442956619801770e+01
8.088159561354220095e-01,-7.898706954156209825e+00,-4.115581632751091234e+00
-2.706807126694576571e+00,-9.027800428642906994e+00,-2.781715727643606639e-01
-1.453315915864988739e+01,-4.912815297691905947e+00,6.111278932836857081e+00
7.984849798144870725e+00,8.496509665045767434e+00,3.471712455175189227e+00
-3.076833499369206137e+00,-1.221547393700909900e+01,1.621098951501432239e+00
8.566226203347612866e+00,5.073161653528914350e+00,-1.515380188880866008e+00
-1.463210542846465012e+00,-1.291553347242890837e+01,-1.071302041668088023e+01
-5.012965098769117667e+00,-7.919995171398394262e+00,4.024737640093212221e+00
3.748315399409935189e+00,-1.394431200213885447e+01,-9.461165807681600981e+00
-5.511672359075637573e+00,2.041461557418780437e+00,6.542906067884553423e+00
-8.037280279728866716e+00,-6.419348751278344700e+00,-3.163670386404695556e-01
1.243294042870661364e+00,7.660443837161957426e+00,4.536371111802040446e+00
1.218560742037583822e+01,6.357906977696046624e+00,-1.304942824504514265e+00
7.511390561205136152e+00,-7.788408566812826450e+00,-1.389612080696581842e+01
-4.553016303909885210e+00,-7.717533879032944633e+00,-3.758100567612109977e+00
-1.119809415143976317e+01,5.526060427133602460e+00,1.204710074606369119e+01
5.744169660083951356e+00,6.248456373431129585e+00,-3.131044215893009852e+00
-1.334442439494908150e+01,-1.012192928594947006e+01,2.762823772843790771e+00
-4.577720818331584951e+00,6.535982157007723392e-02,9.381687562397786451e+00
4.719891081172837843e+00,1.622589832601200877e-01,-8.594366207824531756e+00
-6.962979519034554698e+00,-1.032156462500939575e+01,-6.331595068579766838e+00
1.328266278342953299e+00,1.347839308613744080e+01,3.870321415235956630e-01
8.319726485665560389e+00,-3.452667689057863143e+00,-1.446522156360339828e+01
-2.805144073935378124e+00,5.668563881490784162e+00,6.059929901200867164e+00
4.130021672895293428e+00,7.936484169670927180e+00,-7.905744269465396490e-02
-7.536011536109049835e+00,6.087987421517080389e-01,1.394494848659200059e+01
-1.235672791595874820e+01,-1.164066682700530642e+01,1.237458710410918927e+00
-1.036221185137099354e+01,-2.678706243779004126e+00,1.320318881676646328e+01
-1.408742399883013441e+01,-7.276105898580222942e+00,5.912180322111366237e+00
-1.142731949900128008e+01,-1.305986333113530584e+01,3.532232322099434718e+00
6.079579041855779131e+00,-6.751021020723728228e+00,-1.434114107316288411e+01
-2.903857708994766806e+00,-7.454148711936005256e+00,-4.948052919839217800e+00
-3.422153881589259150e+00,9.662647162200038053e+00,4.560214055262328259e+00
-4.469241884967640743e+00,1.019233948038943360e+01,4.868596459402668053e+00
-1.351253670417987607e+01,-4.741740245228506012e+00,1.012754526989563963e+01
1.322028838195414657e+01,2.003211048771605274e+00,-5.068789200086833979e+00
1.340991951370169843e+01,3.225154624669699821e+00,-1.098193398036601920e+01
1.033487321403355974e+00,-1.000013699029983805e+01,-2.903665119120306226e+00
-7.167312263825889040e-01,-7.263570674277658235e+00,-5.348507141977917101e+00
-5.586432855362586380e-01,5.632780305624373263e+00,9.421722819199310095e+00
-6.958046642707360618e-01,7.601203725765159014e+00,1.218556364178788698e+01
1.969281500486567360e+00,1.560329811763829788e+01,2.017628271332379875e+00
-1.188960477137465155e+01,-5.278214478486795258e+00,2.080534587306295258e+00
1.371292680141940501e+01,6.137041330646375137e+00,-3.857223780439509309e+00
-5.998895522375001121e+00,-4.964195545261353537e+00,4.487049239994150618e+00
4.178365250567139810e+00,-7.239009441622415331e+00,-1.392889667953784105e+01
-6.863852034847615968e+00,-7.645939395360767499e+00,-2.541091075476408001e+00
-5.590450282749333866e+00,3.247321768898409289e+00,6.208114431697940638e+00
1.385640315940314515e+01,1.368341811435139777e-01,-8.920506628129878379e+00
2.959171167446301265e+00,1.651153457965692795e+01,3.644322659700678813e+00
-3.989050898788754740e+00,-9.173124662032970278e+00,2.222636077208608452e+00
1.197575291488752036e+01,1.219335909166164633e+01,-1.119230933114054444e-01
2.678625552533673737e+00,7.869073075300734743e+00,3.083626703944874148e+00
6.300934331670088540e+00,-4.504594294447967329e+00,-1.451596286039907469e+01
1.195502770246570812e+00,1.095094126841556736e+01,4.827282493984078049e-01
-1.502190936830992252e+00,-8.287104243465288178e+00,-2.966531385397108256e+00
-7.347502873207596708e-02,6.848985448975342116e+00,5.633570534520266015e+00
1.108370373621815830e+01,-6.321426738452619709e+00,-1.009176223660146121e+01
-5.421830719084165473e+00,1.247541398621816100e+01,7.156044417833550497e+00
1.083927522509126362e+01,1.238787349998324405e+00,-4.275678438655421409e+00
-9.767561854337539762e-01,6.091807142000203790e+00,1.161929040880726127e+01
9.237488203763968286e+00,1.227903557559026559e+01,4.456892884213418782e+00
-1.304906681873029228e+01,-5.657373761703943238e+00,2.616180154260244084e+00
4.935660419338432803e+00,-7.668858755619197609e+00,-5.307217062442506794e+00
8.557327495814922358e+00,-6.976980235930167140e+00,-6.572684136640549291e+00
4.353258658521186319e+00,-1.109210721988633885e+01,-1.278567348688605776e+01
-1.205936251038049356e+01,1.522204342844292624e+00,6.457110760562004614e+00
5.622270690577490626e+00,6.497947589027853965e+00,-7.132450481147214028e+00
2.811434342966955935e+00,1.442457829508016154e+01,-1.967318262439256282e-01
-6.816868149127027543e+00,-1.254375931983608439e+01,5.151157622055053231e+00
4.464507783669366958e+00,9.950282706511559994e+00,8.812682743202874036e+00
-6.569154618998461537e+00,4.089408573211458453e+00,1.439976858687733063e+01
3.022777685059975905e+00,8.105999062149830792e+00,8.346423622527415986e+00
2.215631801287522018e-01,6.805088028319855376e+00,6.323244741497082266e+00
4.993516381015644101e-01,-1.242690198608324970e+01,-1.179123012403604065e+01
1.366381445013159990e+01,1.266919313873051678e+00,-6.780256884356711033e+00
2.962948316813579730e+00,-4.809744969805893611e+00,-1.289605185264819553e+01
1.067165465480857378e+01,1.382030387581187725e+01,-7.241426027730222259e-01
5.779260931411283941e+00,2.436393693910813063e+00,-7.296036015544279607e+00
4.871056729918452177e+00,1.454437116367659577e+01,7.974641756458406228e+00
-9.462826209588383053e-01,6.868708525400282205e+00,1.213607705170257312e+01
2.185983121773281412e-01,6.289181311829595167e+00,8.008095629379790026e+00
2.113072997851813906e+00,-1.113757667977034949e+01,-3.433998668501470952e+00
-3.329019832061775874e-01,6.149258986621727985e+00,1.064544568826934068e+01
1.055935121270102783e+01,-8.349451534003164976e-01,-5.245484043870074053e+00
-5.501301131097815045e+00,-1.922772482748489553e+00,7.996878196470819766e+00
6.082869314812275441e+00,-1.040501036184282491e+01,-1.271557782053326235e+01
-6.279893864646822976e+00,-7.299782874694691337e+00,8.243170482667061094e+00
-1.323183495426795275e+01,-5.958201443798534669e+00,2.997904219803809500e+00
-9.302056477594938144e+00,4.947436259351834509e-01,1.413755108357474022e+01
-1.002154836232069357e+01,2.092185929840693903e-01,4.911781268288909708e+00
-1.556539219578415123e+00,9.376706248088696682e+00,3.488328499665710236e+00
1.246467422715860884e+01,9.886254557206980209e+00,-7.240842368815489039e+00
2.173251292354712039e+00,-6.141491783968183071e+00,-5.902053996886472476e+00
5.581087013458287949e+00,6.336721539105033330e+00,-6.106553625753144310e+00
-3.130388902830342879e+00,5.889274564066402817e+00,1.368913513682173466e+01
6.170843519255119425e+00,1.602263882101877712e+01,2.656625503053419712e-01
1.266513798942855473e+01,6.989187473862018329e+00,-9.826456806926332277e+00
1.278187483077581810e+01,3.721944066085018654e-02,-1.172254121999765175e+01
-2.454606632630548013e+00,6.005568988041409817e+00,6.290422845884740433e+00
-9.668434553367076134e+00,-4.528225884621697617e+00,1.797987241402229097e+00
1.032778816465919292e+01,1.049993740297122180e+01,-8.065253253403003697e+00
-2.860781240504475242e+00,-8.073119465564275288e+00,-2.341597090332207198e+00
6.214970036203046888e+00,-8.591302183769339962e+00,-1.356868584833315516e+01
9.595578228840572210e-01,1.601707984272547947e+01,5.229064793893004826e+00
-9.842550699429404304e+00,2.952892290416973431e+00,1.391641726545095281e+01
-1.888498651537828144e+00,-7.373486943377029590e+00,-5.104909509905444231e+00
1.370509050661634376e+01,1.111269164487783012e+00,-1.068796412584896238e+01
9.719466276336271804e+00,-4.896331489817378646e+00,-6.371672245219652808e+00
-2.544454936238560894e+00,-9.272804157724063856e+00,-1.723877641104788194e-01
-2.545864869090284088e+00,1.317091067392088100e+01,1.119289122225906929e+01
4.751333359299054315e+00,1.604587061746426002e+01,5.900414915042070163e+00
-9.524788100813106340e+00,-8.192347493283692828e+00,-2.252150291197902110e+00
5.829016022554197818e+00,-8.207792483658421290e+00,-1.410110532455962584e+01
-1.060970574068626782e+01,7.059179643484325695e+00,9.383446278157961729e+00
2.055832752322271695e+00,7.957451721152055235e+00,9.400624815858366290e+00
1.301394703231489203e+01,1.863013906958709276e+00,-1.139315568476314766e+01
-1.426332208045653971e+01,-1.765696068959773379e+00,8.639878437444675541e+00
-1.178443388284350668e+01,-6.008123022758358189e+00,1.440630713380210759e+00
-5.225565706434969648e+00,-1.607634474438392402e+01,-1.337815732772980049e+00
-8.961774334440461232e+00,-4.986271740963617027e-01,4.676427260915348327e+00
2.211419081219128113e+00,1.164100139708518356e+01,1.087288097912093932e+01
4.790612039321488602e+00,1.358913599242415948e+01,-2.675294399742996987e+00
-4.555921647213579284e+00,1.194277491134232960e+01,1.220190919946819186e+01
5.720734823587359408e+00,3.700910121812401421e+00,-7.767924698789951066e+00
-6.204519787889909210e+00,5.169679986584410969e+00,5.771891237224410887e+00
8.043995395785003666e+00,1.859470924558477511e+00,-1.315627646562127318e+01
4.914536746256224831e+00,7.478668314217998159e+00,2.466233174802240580e+00
3.253207306816377820e+00,-5.121947667326408826e+00,-6.590184569062128794e+00
-1.096987008741498348e+00,1.522305956988148523e+01,8.206875085027164118e+00
-7.017148729620685366e+00,-1.260602842446636007e+00,5.025147623395268326e+00
-8.868783369229797486e+00,9.301882506161799569e+00,1.143870832229750079e+01
-7.758964032003920153e+00,-5.151983770612105218e+00,1.632295388174554551e+00
1.132696096109518891e+01,2.008830706903684260e-01,-5.300881907603272936e+00
6.723061459665870210e+00,-1.914430463219009837e-01,-5.834122368958741589e+00
-9.113983997608452015e+00,-1.017264310724399756e+01,-4.226028980102445765e+00
-1.122695261829905711e+01,-7.794945698153745717e+00,1.028302362001002379e+01
-7.103473650070919021e+00,1.225858757015090950e+00,1.403759671656938757e+01
9.609802223312041036e+00,-8.259031073655433985e+00,-8.870712536672732185e+00
-9.376744396520273028e+00,-3.674066526208093375e+00,1.251606514312167207e+01
-1.293075768971982420e+01,-7.289304997647588102e+00,9.033892845071697764e+00
2.653313076593739606e+00,-7.450576186396071776e+00,-5.134778065889354259e+00
5.679751038640960203e+00,-8.311260219177122321e-01,-7.018140347792867217e+00
7.359214299617153898e+00,-1.127947195486315124e+01,-9.513070507695793765e+00
6.726386626080695486e+00,1.777332427663653514e+00,-5.684487349012816715e+00
1.458317580111999412e+00,8.608159624024223078e+00,2.378979967883444679e+00
1.173498309483452573e+01,-4.699037335758515788e+00,-1.129600873127870386e+01
-3.202032376231910060e+00,-8.426691631051225428e+00,-5.589230265053377611e-01
4.282625240445401715e+00,7.739590098666011997e+00,4.321528063253818885e+00
4.447711534003164324e+00,1.039749594933548416e+01,-4.121464397965379334e+00
-3.885828675450041292e+00,4.125037095724938929e+00,6.788192537567558915e+00
-1.163398949717939601e+01,-3.363451551647068882e+00,1.214993802037598236e+01
-1.249880824582923822e+01,-7.789531958059305872e+00,6.775588960444915987e-01
6.549402299498820135e+00,3.030138307159078170e+00,-1.149778656033809554e+01
4.176964811426385538e+00,-1.738656612628823428e+00,-8.148939566139780766e+00
1.250899303699890908e+01,7.617795441571062476e+00,-9.726058799476454908e+00
-1.153844549956242638e+01,-4.536688483527631099e+00,1.208009842202950068e+01
2.980657238297065970e+00,9.385868626631189926e+00,9.921799129522369753e+00
1.987710019504143055e+00,-4.821897817998098468e+00,-7.737125306429066818e+00
2.791782974146157059e+00,8.708684660574663283e+00,9.239604836303577429e+00
-2.056600016814301712e-01,-9.454848776323318660e+00,-2.337484231534209478e+00
8.351439807398316262e+00,1.156433904364149967e+01,5.282481384117674317e+00
3.593639945255616031e+00,-1.025643050328422490e+01,-4.411794256022369076e+00
1.324246771937876588e+01,1.057594757249922957e+01,-3.157826824288487710e+00
-5.226228108106390380e+00,-1.050240812454289951e+01,5.329767636376580242e+00
-8.758645622110028839e+00,8.047940743527719931e+00,1.282524251053547637e+01
6.905129241134144280e+00,6.497201579969525298e+00,-2.680679265122583033e-01
2.733624986048505789e+00,-6.170388934374171797e+00,-5.951864830725043909e+00
-5.247551338400834098e+00,7.642972203089246186e+00,1.425385135104716205e+01
-8.873872705812704709e+00,3.838983083009206876e+00,5.954472681987152960e+00
7.835769600946560054e+00,1.079416028201081978e+01,-7.415068768878659178e+00
-9.820116018448970863e+00,8.158138072796253581e+00,1.029765179286875743e+01
5.971820870919726687e+00,-7.210799014170331311e+00,-5.710505074488589905e+00
-1.043913254557625514e+01,-4.031582978121672767e+00,1.259303650921829565e+01
8.123260709558259407e+00,1.385412567772770309e+01,-4.352683839526580556e+00
2.723156246916964007e-01,6.551870480668364749e+00,9.595018698571237792e+00
2.412817913321565033e+00,8.709582300864010307e+00,1.005507505863040052e+01
5.403510887137612961e+00,-2.849443416977063270e-01,-7.143895249279797355e+00
5.083017508022067865e+00,1.396232629056731867e+01,7.971741720942183917e+00
-1.037962899703416220e+01,-3.198312148622859397e+00,1.286039728017127359e+01
-1.132451872456799569e+00,-7.462432487844533391e+00,-1.024134766552097808e+01
-3.864056327081524689e+00,8.688806017356947464e+00,4.606579148739862184e+00
3.277264079553935616e+00,1.534523870541469215e+01,7.688858157493197454e-02
-9.006456907652016231e-01,-1.605660353063906953e+01,-5.636981657706610527e+00
6.440839039854883374e+00,4.583252139128088487e+00,-3.872560398235530776e+00
-6.613590291263654608e-01,1.485008782425663831e+01,9.277668533890130576e+00
9.695093318663030146e+00,-4.656708525173305802e+00,-6.520901411207701948e+00
-1.340805136887327009e+01,-9.063599076107406560e+00,2.748647930880438128e+00
6.744874175408399175e+00,4.048216878767343235e-02,-1.349935289108768188e+01
-1.020195465888389208e+01,-2.606962849668507776e+00,3.401525241011845058e+00
4.846281027177173684e+00,2.012838465862046566e-01,-1.002753935357411308e+01
4.820314214323841995e+00,7.287784541046396392e+00,3.397970805799634952e-01
1.322055695340574744e+01,7.453730726362596037e+00,-8.797122213712025740e+00
4.875071993886499477e+00,7.428335735099109272e+00,1.750770057964496362e-01
7.145379403989801759e+00,-1.092461308608703519e+01,-7.625936780557747596e+00
-1.328372770172618722e+01,-2.434161146848483170e+00,5.661551482335638319e+00
8.561148565062167037e+00,-9.894808276007072578e+00,-9.902224973682693943e+00
-1.186890128547715406e+01,-4.354420810002478798e-02,5.442051466865418519e+00
-1.349718343570039458e+01,-7.348245039024615677e-01,1.096742280315387852e+01
4.763044403405961802e+00,1.051616768818829151e+01,-4.659426773010582501e+00
5.190457086848497603e+00,1.747027798978894930e+00,-8.101298379190815524e+00
-6.380749445563600908e+00,-1.571794343697551533e+01,3.609939204700541304e-01
-9.246641802322265846e+00,2.282981013717635843e+00,5.560255300365856357e+00
5.235949286239821809e+00,7.964781472896986791e+00,-5.396257872197313787e+00
-9.481173912577903096e+00,3.419259013559149962e-01,4.991168815962676142e+00
-1.265385166692746211e+01,1.608721663488532183e+00,1.186876203025518350e+01
4.787703541331689294e+00,1.028919829435290950e-02,-8.238548582530071940e+00
5.825886634227592786e+00,1.285764410973625038e+00,-1.177771570082257035e+01
-9.032108658052496963e+00,-6.215765293357808474e+00,1.271806025458332122e-02
6.916733441686904627e+00,8.851892376688546005e-01,-5.612539675169970543e+00
1.063508039608018407e+01,1.328887566621864558e+01,-4.820792659001304159e+00
-4.469900407826154165e+00,7.478281361782436854e+00,5.171832346952005999e+00
-1.134187617285348182e+01,5.811085319266479310e+00,1.083582404536833721e+01
-1.140233938341270381e+01,-5.592540987500691507e+00,1.158783623090780956e+01
-2.757821447018179661e+00,1.386555299799306340e+01,5.349037594779997740e+00
-3.949014105258768392e+00,-7.857397561707945677e+00,-6.239654566050787388e+00
-2.970973897719433876e-01,8.216233738137063369e+00,3.906078832572389636e+00
-1.106662995349313761e+01,-1.945623277775958115e+00,1.330984438299891970e+01
2.121295737391917235e+00,-4.035787880567834662e+00,-9.756595884884202263e+00
6.888886058268158585e+00,6.622931587044975643e+00,-9.655521148172269363e+00
7.951482690179952684e+00,-8.323992034419081421e+00,-1.346221944193232289e+01
8.458099712024331751e+00,5.169550795853549374e+00,-1.166722222658865071e+01
-3.775525604347361952e+00,1.177834149722106893e+01,4.845534023782497535e+00
-2.902909716777270166e+00,-9.662843489321131685e+00,8.641776009623093335e-01
-3.684951769833247681e+00,-9.903196579922777687e+00,2.260925903199493270e+00
3.406463059509759361e+00,-6.854225049576640139e+00,-5.204550763484305342e+00
-3.507769068781760424e+00,1.938213900319989413e+00,1.083573234573314537e+01
-1.027174202578246032e+01,-1.032944840227972172e+01,-2.478811832365352075e+00
1.369044347497567848e+01,5.779021515065708492e+00,-3.879325174339532278e+00
6.879597909194573369e+00,1.604009538781243904e+01,1.084425935990859013e+00
-5.368786717281845977e-01,1.283115358870844780e+01,1.167124058147169841e+01
1.348200984068441244e+01,3.129242794296004604e+00,-1.076768245968795412e+01
8.766332322482260908e-01,-1.023220386375772151e+01,-1.264512638647874709e+01
1.016613156667000517e+01,9.348292855481870944e+00,-8.973515948125156072e+00
1.194543789021380675e+01,1.163379795673481887e+01,2.061164186245514618e-01
-9.496852618236527377e+00,-4.372300402398054509e+00,2.167841597487293548e+00
8.900114371485267739e+00,-6.611477389736106325e+00,-1.364227132705652856e+01
-3.573084650583095989e-01,1.448672120682870990e+01,9.936156929669641258e+00
-5.090144502299895457e+00,-7.210385771241250019e+00,1.364623087398497692e+00
-6.651860045330083571e-01,7.560520775965815510e+00,4.599981638374967652e+00
-8.059001935709053654e+00,-1.119603918169930523e+01,-5.555362503877736557e+00
-1.341289748987034436e+01,-7.333748255299772367e+00,8.625666396141154380e+00
-1.261774116151324243e+01,-4.547889445637132155e+00,1.119591031356138622e+01
-2.882053562751408560e+00,5.045440950102560329e+00,1.324565122964838970e+01
1.329084390306421781e+01,1.049036303977102591e+01,-4.254018443101927005e+00
3.697141335896355407e+00,8.470012928635556548e+00,-1.294892012038107110e+00
-7.934775231479345159e+00,2.545975932983962409e+00,1.444759364664690970e+01
-1.297386850567849770e+01,-4.469901649726049975e+00,3.759552895371016668e+00
-1.376104994627954525e+01,-9.046776454036800530e+00,3.813797227365866238e+00
5.926137529519095004e+00,4.547140179293961637e+00,-8.980358268363216823e+00
-1.303052470057334844e+01,-3.128307596395833556e+00,1.138298229911042725e+01
-7.351146837874861895e+00,-1.055864731317014993e+01,-6.281029578989734574e+00
-5.409935567666185108e+00,-1.120790073451539470e+01,5.156413068418634005e+00
3.299117536972947740e+00,1.533320810065577966e+01,5.879853651033598583e-01
8.433554177610988134e+00,1.507368733320021725e+01,-1.695994544381012270e+00
2.755498386728135518e+00,1.423314402621093322e+01,-3.401510707916693965e-01
1.071786271994480400e-01,-9.148272868107538258e+00,-2.826623387033911250e+00
-7.680384541123776998e+00,8.243138617438880988e-01,5.501674798844242709e+00
7.968654084563293161e+00,-6.168883200039303460e+00,-6.067549288235151828e+00
4.726226350556849143e-01,-1.244705920099172403e+01,-1.961522017251414507e+00
-1.781455473976478521e+00,5.062795752488616685e+00,1.197409218214839122e+01
1.270438311144526367e+01,-2.498677884941975957e+00,-7.752767767020573686e+00
2.374990905925901341e+00,7.351015178603330646e+00,6.193346428413633475e+00
-4.406976334638822657e+00,-7.403949057319051619e+00,-2.172295012957958349e+00
2.082603206118164962e+00,-4.625976587250121952e+00,-7.882984187840595069e+00
5.190960604662020472e+00,-9.319358796454825011e+00,-5.463045117988079014e+00
1.322898590584251721e+01,9.506707202856636840e+00,-6.584589112787821108e+00
6.079490417282996439e+00,7.474278100207295550e-01,-6.554131132041089991e+00
-1.004389015919423578e+01,4.612263807797604365e+00,6.558013867187715285e+00
1.370903702023053405e+01,9.219656554854424257e+00,-4.770992689432653755e+00
-1.098747839521998593e+01,1.829083052804064691e+00,1.374242709269138274e+01
8.171177347749861042e+00,-2.248585856853813514e+00,-5.557533208721807227e+00
7.769369729633434751e+00,1.433970700771859796e+01,4.976448444747556543e+00
7.923116220113665342e+00,1.496149337098089305e+01,4.302462313110132719e+00
-6.124043327880455578e+00,1.206959579063263632e+01,8.056561949070601969e+00
-1.026964482157296565e+01,-6.952995803416712750e-01,4.300878148824685887e+00
3.801496897480282300e+00,-1.790310039741946690e+00,-1.169688713965128457e+01
-7.220347359858886982e+00,-6.576011953673178034e+00,-5.376488692792733004e-02
2.777731489508095120e+00,1.505607389264620011e+01,7.002160778326435020e-01
1.129272697143960169e+00,7.904507468857344676e+00,3.856128237401111658e+00
-9.524052752943296341e+00,3.896689812023685029e+00,1.411215469988361093e+01
-1.653939408274023581e-01,-6.092846608265786834e+00,-8.021012001903416788e+00
3.126568926626895895e+00,-4.121031472327271850e+00,-7.416466871333868838e+00
-5.060512375709755872e+00,6.606852498213972247e+00,1.431241611509027933e+01
-5.024770662210028327e+00,-1.482864380202555310e+01,-7.318326119784240191e+00
6.208410351372275926e+00,2.802731877361808621e+00,-1.120363711537039997e+01
-8.527801096459974417e+00,-5.169504572808913068e+00,1.147597950508098652e+00
-3.918325979276179094e+00,3.664945374318949955e+00,6.910906258372935262e+00
2.978258298539574689e+00,7.705823679450742425e+00,3.099589886453379961e+00
6.214174112034422492e+00,-6.022385067263650527e+00,-5.735037964691700019e+00
-6.038705232502472597e+00,3.805421869971830628e-01,6.586959166344554362e+00
-1.301515191864721288e+01,-6.994784964783220538e-01,1.181604511448187900e+01
-3.743905134659147649e+00,-8.058581136852779991e+00,-4.031429647204582412e-01
-7.843880320553892282e+00,-2.271161005985453230e+00,1.305590642529545420e+01
6.571556088953118824e+00,-7.842545902441750982e+00,-5.742519947451778961e+00
1.057979026150543156e+01,1.029203287461709770e+01,2.180711801574263919e+00
3.536182279595300737e-01,1.005629604518436437e+01,1.852971140015051699e+00
3.004998334043881059e+00,-9.159685184663521440e+00,-1.383343267366288387e+01
4.952050538942132540e+00,-1.492371426700290771e+00,-7.447396463244867704e+00
4.514526696573884834e+00,7.440989115447820268e+00,2.241523991921190451e+00
-1.400799283498714942e+01,-5.826353222224934569e+00,8.703860768380240032e+00
-9.922063137067276273e+00,-8.225490505376034989e+00,1.001554305173099202e+01
9.245673302163126550e+00,-5.595496858612467150e+00,-1.396330682718103766e+01
2.884587351369432007e+00,1.006447363056313726e+01,-1.173878210596869254e+00
-8.108089683601514608e+00,1.424389033402039484e+00,1.432759765108473538e+01
4.845615589922343425e+00,1.179550464148568167e+01,-4.219917526089376203e+00
-5.024723569438595661e+00,-1.327979296017916688e+01,3.229051687142539429e+00
-5.065739892675789058e+00,-8.662989471448266698e+00,5.065621603540927609e+00
-1.424712262860722234e+01,-2.518865804488179094e+00,7.362425228604673855e+00
7.765323394607883678e+00,1.532589621553349879e+01,3.338854360557929279e+00
9.578425464430971203e+00,5.959823685363144996e+00,-1.168223219880273689e+01
-4.528765562478278994e+00,-9.559565388891991589e+00,-8.302851110670422585e+00
-1.196681631894424314e+01,-8.401934423421328901e+00,7.875826029231114411e-02
1.056365078883485076e+01,7.567476720289381120e+00,9.369856395963334084e-01
-1.216192851746691517e+01,6.949409722025284841e-02,5.723017098059973939e+00
-1.112504787071914869e+01,-9.895315130181554508e+00,-1.972117453123478636e+00
5.083473528167600008e+00,-3.391041792366160657e+00,-1.408706873696915984e+01
-8.554778287094110922e+00,-1.131550649816445997e+01,-5.120449320444194541e+00
-5.732056819180009199e+00,-4.834476927680178449e+00,7.179974188331008200e+00
-4.833609874598749023e+00,-1.601510763057880737e+01,-5.897075858673990645e+00
1.346200153429189150e+01,9.310855492490171414e+00,-6.206088246361110450e+00
1.432013151603875478e+01,2.886694479136219016e+00,-8.941325726970909216e+00
-9.894151011721989519e+00,-3.146739513953216161e+00,1.301995480654601067e+01
2.486759042888425864e+00,7.479512016196127711e+00,4.785333998254678534e+00
6.213361274716822535e+00,-7.283554141106903579e+00,-5.489734745092524903e+00
-1.139037461723688516e+01,4.477609374544091025e+00,7.778097753958752136e+00
-5.317626903096686952e+00,-7.315242661782010103e+00,-2.191434379079737926e+00
-2.151784434542115765e+00,-1.458198135913065663e+01,-9.470520901258554503e+00
5.247308261123698081e+00,6.990435427093375509e+00,-2.161504071902474067e+00
1.978880954653359447e+00,1.266809943103464242e+01,1.082219663197140314e+01
3.715391295453720932e+00,-5.541951921789760149e+00,-1.378204375430854789e+01
-7.565325982546792227e-01,1.507386598903620367e+01,4.431894442481845608e+00
1.011820335704108054e+01,1.092353301231837825e+01,3.138167782641034353e+00
5.241708044668654587e+00,-1.642523324434185472e+00,-1.339075789303261921e+01
-7.796494426372430731e+00,-2.984753945065440561e+00,3.683766806708670405e+00
-4.422680611587858301e+00,1.688246518142765940e+00,1.227189151904099873e+01
6.078157847817859505e+00,1.230346346071717711e+01,-4.954008513084897203e+00
-7.967341341773849228e-01,-7.292153179696767573e+00,-1.041259562812131101e+01
-3.959674367410289886e+00,-1.643429032499107834e+01,-4.669037318004684245e+00
6.001480218558325141e+00,1.294058429407157362e+01,7.962375740959042325e+00
8.732537231864151650e+00,1.133801900814827590e+01,4.818499739716558317e+00
-5.990701133990626204e+00,1.027410395895044637e+01,1.292207909352978135e+01
-6.114645636776449678e+00,7.762273517731776984e+00,1.430125189697609756e+01
-1.102398585155692956e+01,-8.803354602883415314e-01,1.339569575807425394e+01
-5.954631600844159309e-03,-7.206149458774326888e+00,-1.112573748603640134e+01
-1.321251711265745143e+01,-8.858449985680382222e-01,1.166753813967649833e+01
-2.633224583750595649e+00,5.754833003868832897e+00,6.334543240954608301e+00
-8.244456804581245635e+00,-1.524480579523257617e+01,-1.882715878676398447e+00
-7.749207769834320025e+00,9.446629466048964474e+00,7.037029899735003369e+00
-5.218320647946235624e+00,8.543378349098684765e+00,5.340297518663081888e+00
-1.837866227349240489e-01,-6.805715474007938859e+00,-1.051957674482278726e+01
1.178165705161756804e+01,-7.106093565561096836e-01,-5.721217975868231775e+00
-5.878464762350062323e+00,-1.474890274550167923e+01,2.357799373963986422e+00
8.738562123825349914e+00,-9.407443629835235299e+00,-1.080095303510793592e+01
5.609349385263759480e+00,7.374851257600452570e+00,-6.701214222229279649e+00
2.019160501035083044e+00,1.524848354221608382e+01,8.504864692991915831e+00
-1.127796495959984213e+01,-7.500366940116001579e+00,-4.775053984784171507e-02
5.895898325774576954e+00,1.587251101658407748e+01,-1.608246567526271792e-02
6.714062393759667735e+00,1.603589858971807658e+01,1.051275025694356602e+00
4.825016169084199724e+00,7.622946392445257402e+00,-8.027188209672496688e-01
-1.080831662939229609e+01,-8.530363670026975598e+00,-1.161165765481224854e+00
-8.198424329238298558e-01,-7.944783632861667222e+00,-3.900137760309225765e+00
6.670549762109821756e+00,1.406990428168431784e+01,-3.663955533819070354e+00
1.284389121743003415e+01,9.545253681603937945e-01,-5.595939112971307416e+00
-1.444562293742736314e-01,-7.660822609586767307e+00,-4.449878684311770805e+00
-1.858595304625287215e+00,-1.505668802951903906e+01,-1.494732928271895300e+00
1.401627219820798587e+01,8.885268846673279874e-01,-8.910145726515327880e+00
-5.446750934114293230e+00,-1.068855440785875821e+01,-7.961470651002898968e+00
-4.631493312449227240e+00,8.092987400256994590e+00,1.418747584888643942e+01
-1.423965234769272392e+01,-7.677863409561790142e+00,6.175404459309656424e+00
1.218020222375943540e+01,7.018928762916651465e+00,-1.043090128494137225e+01
9.924605162462318830e+00,-4.309576650501002248e+00,-6.157464299948641973e+00
-1.122793735219338451e+01,-5.703763008557228176e+00,1.168310797427306724e+01
-1.033406874545404897e+01,-4.024797454050363932e+00,1.267117950749850763e+01
-9.194798522129715934e+00,2.392855106660039866e+00,1.441690469033512834e+01
-1.188887199289361085e+01,3.764935527412568650e+00,7.443348336980387892e+00
-5.611199409901761470e+00,-2.650767223631079084e+00,7.214308523159410846e+00
5.830297159531275142e+00,5.197933944623495783e+00,-4.705898801172093471e+00
-2.156294675119383886e+00,-1.454717491444758259e+01,-9.189020009961428315e+00
-5.860074819650634481e+00,-7.696283111628968499e+00,7.072798519752302226e+00
-1.233408662816217083e+00,-1.131276674089391321e+01,-1.139310689400028132e+01
7.521576331302342044e-01,-9.667200141524467938e+00,-1.271829846605641023e+01
1.266097305925891314e+00,-8.807772781237764192e+00,-3.505297277011431234e+00
7.738330889603989959e+00,-1.105647405027514374e+01,-9.430051114307605786e+00
1.149336250748556765e+01,9.546014797145966568e+00,9.566417405592138046e-01
3.011607942701913565e+00,-9.067896525686657938e+00,-4.391039754767261272e+00
-1.100220898527273761e+01,-7.851576065694323425e-01,1.333463692042049153e+01
1.106489518611780021e+01,1.325930632545798282e+01,-2.369862415672913780e+00
-1.435074938783256471e+01,-3.711505601171138480e+00,8.895125549093544137e+00
-4.964793420344968955e-01,6.595739517641027838e+00,6.340620591699988040e+00
-1.282513137988570584e+01,-5.683702357267490513e+00,1.071973075311266399e+01
-8.312706929679107404e+00,-3.398322507730443309e+00,3.225109096541872056e+00
3.011516068270658764e+00,1.280009797631633184e+01,1.011943693753506501e+01
-5.961092909908725090e+00,9.880414502944468325e+00,5.957829936678279203e+00
-3.655144531678966580e+00,-1.343467629879575753e+01,2.104974512465617842e+00
-1.431754989739930872e+00,-1.148222735427257746e+01,-1.098731647595270466e+01
1.415426871249961316e+01,6.237029347720397077e+00,-7.404496143022477384e+00
1.228056793258103063e+01,3.037920793167075306e+00,-3.931876356862987976e+00
7.330250250999359451e+00,7.240052299376553702e-02,-1.373828275961537138e+01
