-7.034305367711773949e-01,-6.158122944911073038e-01,1.272895606618807740e+00
-5.317748930146514175e-01,-6.594780002874610636e-01,-1.592410336937022164e+00
2.141910393962535242e+00,8.390221636687007489e-01,2.711092919797324259e-03
-1.995172928987891225e+00,-3.524188956174133525e-01,-6.145384395552220269e-01
-1.381288179330986576e+00,-7.008791472251313381e-01,1.634875565613487236e+00
1.886733876268962939e+00,2.098243420912299650e-01,-4.513773381916422883e-02
-1.022797461864031643e+00,-6.988557254229351701e-01,1.796180388938557693e+00
-6.691491193071346100e-01,-6.779146543561085370e-01,1.405552962149839491e+00
-1.275998756848075510e+00,-8.952415930154442036e-02,-9.728421390254770040e-01
-1.268730170843388017e+00,-4.911922011206084626e-01,-3.306475971562600757e-01
5.888435349165815902e-01,3.674268466618870188e-01,-1.253681000172553350e+00
-7.191975277270463707e-01,-6.815421674121436846e-01,-1.354773117034540952e+00
-4.235065035989911131e-01,-6.247692201546092283e-01,-1.687248157958886052e+00
6.765534371973332961e-01,-7.136720463292903216e-02,-1.387817334564779070e+00
4.534334167553430439e-01,-1.916075266386512155e-01,-2.103333282858187214e+00
-1.346641814452040009e+00,-9.670931564240465850e-01,1.021362140427831688e+00
1.836426145663367926e+00,2.362197010318373147e-01,9.389854559937999001e-01
-1.353240910862543833e+00,-9.452919121032449246e-01,-3.871882488431268587e-01
-3.289798522452188623e-01,-5.432160010507872672e-01,-1.954718806807815845e+00
9.859070509758458556e-01,-7.576354267652408991e-02,1.419074642123698382e+00
1.444807622673824232e+00,2.560804566286349337e-01,3.005664145209105964e-01
1.896303059159838433e+00,9.982754865976051217e-01,-5.461177796329068634e-01
1.299501029399737329e+00,8.086920795339255230e-01,-7.235192854965413756e-02
8.946550756573455887e-01,6.219966139479377737e-02,1.191109044345987966e+00
-1.479922073465149479e+00,-9.724720984375984090e-01,-1.120982440234802313e+00
1.862376056612594644e+00,2.075741328898268179e-01,-3.837995745794396951e-01
-1.209582672553506599e+00,-1.450723944867513340e-02,-1.218328018097180721e+00
1.906083876377691944e+00,6.850410933207961017e-01,-1.038654010512019887e+00
-1.768279195699007822e+00,-9.156179077546026113e-01,-9.555855534563160170e-01
-1.477723805283611247e+00,-6.457616920273815397e-01,1.599995308365280255e+00
-2.062044374980114281e+00,-8.119898442417189388e-01,-5.059498974336367194e-01
-4.082395982563844505e-01,-6.285417317453637631e-01,1.613804618467395535e+00
1.785106702336875628e+00,5.710953500496235291e-01,1.330320979682126037e+00
1.431254615902855631e+00,9.851566199322576711e-01,8.433254959874109113e-01
-1.237836818333273303e+00,-8.603223532859579636e-01,-1.459161560179175421e+00
-3.027528778193848691e-01,-5.605901196978333445e-01,-1.611086858538277378e+00
9.767163696647598869e-02,4.290104011599294997e-01,-2.069138732808343484e+00
-6.260009537927803402e-02,-4.736025207122426250e-01,1.725278607934958908e+00
-1.223595004346873294e+00,-7.656725659976132414e-01,-5.252899157412990183e-01
-1.921481643979867204e+00,-7.285209164948185379e-01,9.688660478752528782e-01
-2.003943284813977321e+00,-9.821317037455727927e-01,1.793594363265424985e-01
1.430428599767251674e-01,3.241503127848933963e-02,1.387470183775334931e+00
-9.369031832305324548e-01,-8.111461204784520262e-01,-1.441140703219909058e+00
1.754852873309728611e+00,1.075028482418860731e+00,2.269267394245232661e-01
-1.003575275135769385e+00,-2.875297365027318919e-01,9.434307445070760911e-01
1.356517557870627666e+00,7.954087865002846813e-01,1.541648331276271877e+00
6.202453782466710308e-01,2.655052865510259055e-02,-1.285451760637108531e+00
-1.752289121378977077e+00,-7.246713772211916815e-01,-1.248745441546815549e+00
1.061957540059792038e+00,7.402781498746456856e-01,-1.722030323604634372e+00
-1.233045300866266736e+00,-3.359461721792748601e-01,-5.531998974821406012e-01
1.913973830681763522e+00,1.048643251411859989e+00,-1.074291439063632808e-01
1.570816988367419231e+00,1.043361682413951552e+00,5.014195826546895551e-01
-5.142230362654101050e-01,-2.451255279235412254e-01,2.203178091012805595e+00
9.386526504602301646e-01,5.167442597891193090e-01,9.497985539741073957e-01
1.730592480551484291e+00,1.854126457828110530e-01,-6.640343013267484551e-01
1.590678152880014462e+00,4.990890133730189193e-01,1.550271485905945656e+00
-1.864125553122577328e+00,-7.026179816849592585e-01,-1.066323705480788808e+00
1.797060429894946632e+00,4.544107634862992184e-01,1.291468252695218588e+00
1.351972278298021246e+00,5.697615716521733376e-01,1.756396158576140287e+00
3.473908974154039653e-01,-3.426914636869614617e-01,1.731885942653239807e+00
1.127335086102742689e+00,4.397626213588407551e-01,-1.948234813825723943e+00
-1.084424686490563339e+00,-7.761289868323405505e-01,9.262348242461490022e-01
2.031945995702989505e-01,5.261069114356420329e-01,1.846592631361854808e+00
1.670915577591209233e+00,1.699761428142432529e-01,-5.202895121680966017e-01
9.298739748664245353e-01,5.549172000181596953e-01,-9.483966827421154155e-01
6.224793132607672197e-01,4.007677566252810242e-01,-2.128659639309786300e+00
2.638957368700877160e-01,-2.030309688564341519e-01,-1.488635983973747301e+00
1.401898404469305470e+00,9.664573059493866136e-01,-1.049920292800431865e+00
-2.897087131686675865e-01,2.412097488055401640e-01,-2.138899521358302636e+00
-1.878840021909403246e+00,-1.055136695787101120e+00,-3.897315590859893458e-02
-9.775935735521044945e-02,2.484131999687241299e-01,-1.491952797097221728e+00
-5.623594554724286043e-01,-4.766931819532632120e-01,-2.102129926204685972e+00
9.580936963847043186e-01,8.020112984581140303e-01,1.186328715265274836e+00
5.572073217572579007e-02,4.904090335848463322e-01,-1.784217385263677791e+00
-1.596710735332739883e+00,-1.282408438817369545e-01,-7.386359367362440587e-01
1.724740344694684735e+00,1.532107352026467473e-01,-4.682894071693783355e-01
-1.124446340942795164e+00,-2.895722877418571706e-01,1.967072618903384251e+00
-2.078058396356676329e+00,-7.811217257459108776e-01,-5.148784326608095707e-01
1.638488532396081387e+00,1.935754443836442129e-01,-3.205194542706260585e-01
1.217875570775717176e+00,8.971204733679564169e-01,9.617222972307861717e-01
4.785536451170033234e-01,4.800617222127211425e-01,-1.388360020849316534e+00
-5.977382273135943835e-01,-4.960035505938582556e-01,1.284767962235763061e+00
-7.060558889250507786e-01,-6.214972488860583955e-01,1.262433376980760080e+00
-7.488429955417384987e-01,-4.455304648864994999e-01,-1.153111251153608796e+00
5.132323849520408210e-01,1.795456601948905995e-01,-1.275656798011218118e+00
-1.268042832142371346e+00,-5.359346113757165186e-01,1.540829891778083827e-01
-5.208240001755010118e-01,-3.476337010505767267e-01,2.181885247302328246e+00
1.262085599012342518e+00,6.405771764520050704e-01,-3.316249926493389233e-02
7.073501448933321445e-01,1.791951064622352430e-01,2.187658675157461818e+00
-1.422350597182896692e+00,-9.075816246640058260e-01,-1.244807128758598891e+00
-1.946256711590592214e+00,-9.649270452289681055e-01,4.300396831037575085e-01
1.161965986752152347e+00,5.670303013977198159e-01,-6.011939454089175738e-01
1.668767009071079777e+00,1.646089681643594094e-01,-4.622598253504706101e-01
6.674130328227105835e-01,-2.455302939782566252e-01,1.764476899813297361e+00
-3.191390389018715079e-01,-1.954517598186039928e-01,-1.347322353842739018e+00
2.007359972552994254e+00,7.182502595501569775e-01,-8.626580868810377334e-01
-1.914536079870290397e+00,-2.209645164847031940e-01,-2.948855917471125965e-01
-1.265062883705076580e+00,-5.382250045355596590e-01,2.836962292986001666e-01
1.186697968230996825e+00,6.153598324672927555e-01,-5.636027277275431624e-01
1.631334416537375320e+00,2.824575813535441515e-01,1.387621045452362756e+00
1.070948338691730450e+00,-7.519955841231361349e-02,1.686627197483146601e+00
-1.335779293812455748e+00,-1.433145497861340600e-02,1.313548751558403893e+00
1.696824827264588054e+00,1.490259761331285127e-01,2.038228318267891193e-01
3.439318326620235955e-01,5.317118691447790813e-01,-1.496493827166317292e+00
9.525356499020974643e-02,5.316206176216407009e-01,-1.788507553762283431e+00
-1.406115537019708484e+00,-9.718398846059064233e-01,4.243522858754384397e-01
2.655323287560225343e-02,-4.141411794761677423e-01,1.619840263482113851e+00
1.706156378918609828e+00,1.057902341985223815e+00,2.014615282987717026e-01
1.635052602097471608e+00,1.032560458917646251e-01,8.838718325542729293e-01
3.087411644508444852e-01,-1.345594205785932140e-01,1.384561662261243109e+00
-1.071365228186121676e+00,-5.265961800805403215e-01,7.675800124799524449e-01
3.555021480281126967e-01,2.337324945193499162e-02,2.252276924915307177e+00
-1.338663034575674926e+00,-8.675104715348529449e-01,1.436803161513429405e-01
5.677034813418858628e-01,-2.028668706857687798e-01,1.504054836713662580e+00
2.089366036627180012e+00,4.224892699549708253e-01,4.410133405988614919e-01
1.755910805080693526e+00,1.039952559732158832e+00,-6.013696826039716115e-01
6.510598133066516358e-01,-4.344550295092725056e-02,-1.348585348195955325e+00
-1.950115247473406255e+00,-2.521176217174506129e-01,-2.518423555134930991e-01
6.883376787477518688e-01,-2.377027189050979761e-01,-1.761219142700627849e+00
5.028941192967371077e-01,7.584417111618275975e-02,2.223580687875787554e+00
3.155841174303782859e-01,-2.572872833452639063e-01,-2.092784182451692843e+00
-9.850254913405148693e-01,-6.212428475998391653e-01,9.283063778931929244e-01
-1.011970588065993493e+00,-1.743037645813814429e-01,-1.013141016545227258e+00
-1.153593138732004197e-01,-1.413400479654701170e-01,2.313109458106716865e+00
-2.089038043156346836e-01,2.654852780794587641e-01,-1.534319080159800563e+00
-1.953706912760406533e+00,-2.663865468359322697e-01,4.965965085166266779e-01
3.848366952365628868e-01,8.478641024893583678e-02,1.321887598329663627e+00
1.890624850079805519e+00,9.439495761198997137e-01,-7.615145594273730056e-01
-4.461525795278825091e-01,-2.535258606732998174e-02,1.349567646163647439e+00
-1.825170189462801185e+00,-2.050484846274835959e-01,-8.598290763233557010e-01
-8.717575604374763198e-01,-7.962628275426337776e-01,1.618231730707383687e+00
6.702584190577903778e-01,-2.055670897767634397e-01,-1.532129136107605261e+00
-2.096581827164029743e+00,-8.624190104899027709e-01,1.768102500127990973e-02
6.086921435635087585e-01,5.715475098226170392e-01,1.305963289928749438e+00
1.863003353389501182e+00,1.034883252857639491e+00,3.025406052127162515e-01
2.040508483766548142e+00,3.094866118151686218e-01,-3.014514079537771174e-01
9.005288174786025834e-01,-7.209841799181046507e-02,-1.343461551141599708e+00
-1.147878384331573881e-01,-3.829771474862481151e-01,2.132837286291609846e+00
-1.141776105600450730e+00,-7.127588454140483254e-01,-6.831630001435646804e-01
-7.950249058755565201e-01,-7.198730290409367516e-01,-1.810515432241584843e+00
-1.001896426920174665e+00,1.293079982114393733e-01,-1.714253296540803495e+00
-1.691436596889410060e+00,-1.334870312604666542e-01,5.914569657868889996e-01
2.055788186158696629e+00,4.004282717563409366e-01,3.930924864360671456e-01
-1.528823287803053210e+00,-2.188409732795396634e-01,-2.128321530654659344e-01
1.170701953369812642e+00,1.761455578949896461e-01,8.505235400204509411e-01
-1.745554914718299377e+00,-3.124458638845880043e-01,1.269473304181498952e+00
-1.363864859075595071e+00,-4.358020993767321161e-02,-1.501683787250418733e+00
-1.730907354656738395e+00,-9.060012533860788420e-01,-1.048454119054656353e+00
-1.209208240767998710e+00,-4.640319776977620547e-01,4.985439398041649484e-01
-1.501023738880179037e+00,-2.229583623902079426e-01,1.134556118255625606e-01
5.458676280946841430e-01,5.694761080918543383e-01,-1.386869130026959107e+00
2.093803164400273253e+00,4.890001847800423129e-01,-6.170582774076657229e-01
1.158370995790064084e+00,4.037462077807193461e-01,1.942456395570691052e+00
-6.205632014225663795e-01,2.114485621606506660e-01,-1.934429956488593394e+00
9.826854028069782754e-02,3.482081010042417657e-01,-1.487694845416556610e+00
-1.315767919584348578e+00,-5.842698586623010781e-01,1.718716492216094016e+00
-1.628121512686602879e+00,-6.148461206183569727e-01,1.492691372644322056e+00
7.750928744177527641e-01,5.296402333455406397e-02,1.194276925317001137e+00
9.341123885975683994e-01,4.498289901291129822e-01,-9.175786439279648432e-01
-1.789023899717837818e+00,-1.983759555317053114e-01,9.342372445710308559e-01
-3.002154601364144249e-01,2.568865105076320043e-01,-2.135639465831953743e+00
-1.401320851823776525e+00,-3.199459473047898683e-01,-1.738053484928882231e+00
-4.996847539005620509e-01,-1.763503009676360422e-01,-2.230085964336415039e+00
-2.278608139924891418e-01,3.595157179523493229e-01,1.612115557319420356e+00
-1.311865047823880470e+00,-2.205966414801125985e-01,6.671509852754687886e-01
1.713392090118303068e+00,9.011281929244365774e-01,1.122303791110190074e+00
-1.522840112607776186e+00,-1.037561502410908387e+00,-6.470480226066823715e-01
-1.441162177071550810e+00,-9.713728720065534228e-01,1.024340420009562047e+00
-1.189334429594445908e+00,-4.643319874204544506e-01,5.706949748760552499e-01
-8.098419834876766643e-01,1.952640824574629619e-01,-1.758032907193654459e+00
-8.705178945023950288e-01,1.707347061421022813e-02,1.976719390933971754e+00
-1.523179929972976909e+00,-1.358888222032180459e-01,1.406906335478911529e+00
6.664703280110428896e-01,7.124216886774950019e-01,-1.512676964904549948e+00
1.598096848602892806e+00,1.292262285161998314e-01,7.475628344767031308e-01
-1.104302001677046619e+00,1.868561400825765467e-02,1.285101400228884527e+00
-7.080737430779485697e-01,-6.766638028723600540e-01,-1.331183269948260195e+00
-1.569924452207052956e-01,-2.434135608699611319e-01,-1.407109586934145229e+00
-1.887579572575547537e+00,-3.026385993858771162e-01,9.459541206857708939e-01
-6.652383707581588368e-01,1.736262333653926238e-02,1.318606307161776625e+00
-1.468415164057912392e-01,-3.631277012304213736e-01,2.175523554322559949e+00
-1.648646989234022087e+00,-1.615978052419962119e-01,-4.964386536846178144e-01
-9.579868807866648295e-02,4.340902962839047197e-01,1.797025057974165563e+00
-5.567475606988091519e-01,1.080623222366190461e-01,-2.125658303643904734e+00
5.868177451187180926e-01,-2.507488297292809198e-01,-1.898577396075836088e+00
-6.854936242667788449e-01,-8.746464034770393137e-02,2.158122539458601441e+00
1.705899531404273972e+00,1.001233901622380795e+00,7.745358252630815121e-01
-1.347665167841277878e+00,-2.712842616689538633e-01,-4.808372427570971053e-01
-9.540624981263029492e-01,-2.555692361231277077e-01,-2.063917203988478111e+00
1.086798248576988923e+00,8.143521394844124295e-01,-1.583249665325348943e+00
6.654203105417089148e-02,-4.427939812924398533e-01,1.764288391009594115e+00
1.207508525703688829e+00,2.224728829916180761e-01,-1.891834911886621784e+00
1.731935369589669982e+00,1.084453290542560566e+00,2.020986431601151101e-01
1.265395403528677853e+00,5.010928196485524566e-01,3.577042676956209144e-01
3.790817889765207838e-01,-3.007141238711129039e-01,-1.607176931054335789e+00
-1.427471913442701856e+00,-4.039081244073842308e-02,-1.362535909504287712e+00
1.374100169361660573e+00,3.896241579779301245e-02,-1.151761787971425921e+00
-1.060870697262337403e+00,7.169365077043977907e-02,-1.749251102013837267e+00
9.239745393094993542e-01,-1.170844880064021987e-01,-1.503734836841640110e+00
1.861034304453955013e+00,1.042739452553443913e+00,-3.820589626856645826e-01
-1.448318777006272651e+00,-9.797382191129220264e-01,9.091991207974918776e-01
-1.521579771695739547e+00,-3.887181748985671370e-01,1.597146457620841620e+00
1.486277687538515524e+00,9.425370787806718331e-01,-1.189569894311815812e+00
-1.366271161983703797e+00,-9.838509330702889244e-01,-7.591681248448277630e-01
-1.176398731839947365e+00,-5.876650429183877256e-01,-5.827999708830277070e-01
-8.737386855940562636e-02,1.665553592408138550e-01,1.419179257512431569e+00
-6.368038476828983274e-01,-2.127645830079644140e-01,-1.226030890451265565e+00
-4.249501844938675110e-01,-7.179560041745707000e-02,1.325071223033089440e+00
-1.081014753611892143e+00,-2.756933427971827374e-02,1.809855172922201438e+00
-6.595128413710585336e-02,-1.276625272295889568e-01,1.380226598444368680e+00
-1.021053167553770180e+00,-2.415225278882636994e-01,9.215789579185924563e-01
1.074448861471938299e-01,5.194559692858158328e-01,-1.745654357650745281e+00
2.737243148025627626e-01,2.743435425610267764e-01,-2.243760719362639211e+00
1.831902304426202610e+00,1.890265093909699878e-01,7.131257412816187358e-02
-2.976668842500919121e-01,3.348324446108272290e-01,-1.948008981642006976e+00
-1.231207170551493535e+00,-7.536558362299621283e-01,-4.616844482766654378e-01
-1.469014450216338426e-02,-4.840151196092155605e-01,1.910846418045943684e+00
-3.085916050425532298e-01,-3.485456455277008425e-01,-2.203951753589027618e+00
-1.269095495881304547e+00,-5.134422549352861687e-01,2.298677438117229521e-01
9.225636889752131253e-01,7.089341866072280673e-01,-1.775011185284375514e+00
2.793512688530057630e-01,3.603560681634622731e-01,-2.164910300308151125e+00
1.716897708496376296e-01,-3.061061891002324620e-01,-1.519299000096295815e+00
1.291249159264989510e+00,5.743033133575039528e-01,1.964008007253014443e-01
-1.237618832765579935e+00,-8.023255066337016128e-01,4.341304821360221222e-01
1.924569271765681044e+00,2.245029411703904909e-01,1.451108258036605536e-01
4.319011713605084291e-01,-2.095119940108170487e-01,-1.518702022315048472e+00
5.625181838729490513e-01,-2.844710903075892694e-01,-1.814905294913738976e+00
-1.768666039557222680e+00,-1.063795667148119906e+00,-7.603726895025553212e-02
-1.272854455695362486e-01,2.453489655791798729e-01,-1.500130737814441950e+00
1.432410489112728058e+00,1.019790685367917726e+00,4.851686350811736936e-01
-6.722904692285980310e-01,2.027472712429488344e-01,1.644223133586430130e+00
6.864962398154702550e-01,4.850216189811795142e-01,1.226577883692294479e+00
1.776513304572942653e+00,9.615540420036832181e-01,-8.540780536692040847e-01
1.607640454640875571e+00,8.919156149397455824e-01,-1.150713240232464685e+00
9.449688686241182467e-02,-1.393010187081328011e-01,2.260455689663940060e+00
1.318489033233900098e+00,8.495779352441938936e-01,2.935653246239433578e-01
-1.813933403301215552e+00,-1.049399943050089767e+00,-3.355086908447297844e-01
-3.227102688774921013e-01,-1.063068019603547881e-01,2.241441396166543587e+00
-1.244631346655088011e+00,-3.475466037980369793e-01,5.370203382136435888e-01
1.061455231511400976e+00,7.868305805549788978e-01,9.998796243016835339e-01
3.866843748968528116e-01,6.195493102169942201e-01,1.685305847885077535e+00
1.670138557650607147e+00,1.102091309079980208e+00,-2.325196463420067805e-01
1.995926651069331204e+00,2.778585681727993584e-01,-2.350957375467357391e-01
-1.953169506821401002e+00,-3.117011188836658619e-01,-6.498101991139241251e-01
-1.129170739097797999e-01,-1.838024834148749287e-02,1.391023040152145507e+00
8.956008504372129364e-01,6.439663525382638420e-02,2.017591963538137190e+00
1.855732258241540311e-01,2.206405595657534302e-01,-2.244138918409260164e+00
-1.742717554892811327e+00,-9.650077916590050764e-01,-8.533968785744074914e-01
1.433596736694912721e+00,3.595072664087183845e-01,-1.730310151578607902e+00
1.602866083902182659e+00,1.845976706796414180e-01,-1.795559290595941659e-01
-1.887908052390451896e+00,-1.056355470125721174e+00,-4.901110380810359129e-02
-1.237328077614805233e+00,-7.197951400390323329e-02,-1.009544138182115969e+00
7.519251648610503214e-01,7.382866810518190492e-01,1.675031753639906862e+00
1.758544064368350091e+00,1.546317142266691314e-01,4.985787091402021365e-01
8.048946531955304406e-01,6.268626505847944008e-01,1.179492391448052402e+00
-1.779943689752947200e-01,-5.551062933633796881e-01,1.801171377517292171e+00
-1.221289315466061343e+00,-7.433660162224094980e-01,-1.696900788383551628e+00
-1.348916083681772404e+00,-1.549719971942532248e-01,-8.177165214352321021e-01
1.812430604451570337e+00,2.096537992205146361e-01,-7.873149065712207184e-01
-1.393283322749870878e+00,-1.735203230766714858e-02,1.294318035639695497e+00
1.173990897030008362e+00,2.931256276423273993e-02,1.724511858846774492e+00
-1.418736297025817050e+00,-3.743527192964969663e-02,-1.144251823319445416e+00
1.915027867558793284e+00,2.596459632521318506e-01,6.744064154531652644e-01
-1.998073178066014366e-01,-5.623808418747179294e-01,1.905808129410091034e+00
-1.815052301955067282e+00,-9.976520671634828696e-01,6.784006321961315589e-01
1.110125469914092333e+00,3.562671547899749491e-01,-1.946302782048599411e+00
1.546936684543642526e+00,2.114961726313118184e-01,1.592993848753905539e-01
1.928122790416057608e+00,1.018008441733583513e+00,-1.896213030783123477e-01
-1.287442533481398144e+00,-8.081602798382447883e-01,-1.700779248601017313e-01
1.350186660849298503e+00,9.609979918180814318e-01,-8.063373901533239518e-01
1.407507413053138867e+00,2.735522771980518075e-01,2.453883879528072909e-01
1.950301485765231879e+00,8.715140351546758479e-01,8.089217978704519307e-01
1.408871499656287440e+00,9.714968477642130784e-01,7.792953922718617310e-01
-1.967829081356672560e+00,-5.599179579620261471e-01,1.004968032660907840e+00
-1.892515426580415605e+00,-6.373202488373580499e-01,-1.149529656096907493e+00
1.806836345324003501e+00,1.048701059885936981e+00,2.964207326596857706e-01
-7.620578018839371248e-01,1.587314668064064571e-01,1.647104137936053370e+00
-3.330681475324753782e-01,9.167172408445474485e-02,-1.431913812849668455e+00
-1.433187162286043481e+00,-8.092905706259235776e-01,-1.474451776637614842e+00
1.213329737158134192e+00,3.317310569323645431e-01,-1.877441642774699826e+00
2.053492162261707055e+00,4.173959433600771818e-01,5.833492248937700575e-01
1.786744402722603819e+00,1.040684807826361746e+00,-5.740165736343693093e-01
-1.715815746284326870e+00,-3.288168583343576978e-01,-1.297195848950912334e+00
1.698149470378352621e+00,9.389402257459166234e-01,1.014793664117100258e+00
1.686293421543817228e+00,1.399790642546180908e-01,1.077262306888200794e+00
-1.550366666953348016e+00,-1.055248840504999341e+00,5.325471024847289181e-01
4.697364106708851739e-01,-1.658650662663638808e-01,1.484984634060126041e+00
1.253197406628727029e+00,2.272827635409422897e-01,7.683230536444390912e-01
-1.684732659617865336e+00,-1.664539091911936830e-01,5.748451321653409440e-01
-2.093141707467866208e+00,-6.211792707598070562e-01,-5.348389396642557747e-01
-7.467390366869971485e-01,-1.061437508513424083e-01,-1.199501407658202012e+00
1.306783665055243127e+00,9.592113283535450563e-01,1.003827886556332150e+00
1.206697416153347246e+00,5.871769418985145483e-01,-4.718880483702841411e-01
1.221634374941894752e+00,7.424901754415879074e-01,1.677670919003205308e+00
-1.672402954780362494e+00,-5.142573638572796035e-01,1.459520284588009087e+00
1.277888104869699282e+00,9.304387087710331850e-01,-1.149124973017197515e+00
1.273929033491637552e+00,1.087217531676361662e-02,-1.219678663845604083e+00
-7.568916656551929467e-01,-6.993818889461723698e-01,1.325841589623432126e+00
1.420700592163262721e+00,2.516674991356451785e-01,-1.699120230634812101e+00
-2.611485359133142864e-02,2.270458991548552907e-01,-1.432859713266784185e+00
-7.657417622821539593e-01,-6.450814061101242114e-01,-1.241129776664462447e+00
1.662409082688282247e+00,7.908782237410475480e-01,-1.323773532247727536e+00
1.388721091680501285e+00,9.303045326672999549e-01,3.355199233046372159e-02
1.145886165790503286e+00,1.308833046771351594e-01,-9.743403983290029879e-01
3.882576064276676564e-01,6.115224918073254301e-01,-1.812351202141804452e+00
2.075277162348740490e+00,5.985443418207828659e-01,6.805060662170852037e-01
5.895234606531927213e-01,6.043607440634940486e-01,-1.955684056243908397e+00
5.663180693837700508e-01,6.699308787815212440e-01,1.518809397436376107e+00
-1.551556147160487509e+00,-1.607418201443598926e-01,-3.825911413286938734e-01
-1.400682103154399005e+00,-2.970941731129874697e-01,-3.118061127401024479e-01
2.023643340256087164e+00,8.214632560491059721e-01,-6.810506832818384870e-01
9.893597935912067376e-01,5.932485861357378321e-01,-1.939554936389033646e+00
1.322631972227286568e+00,5.126343716193643152e-01,-1.301606220919360457e-01
-1.519281012608044268e+00,-2.211805003353338461e-01,-1.932719224273700409e-02
1.799632730951004553e-02,2.846448660425111576e-01,-2.215538545164553952e+00
6.657110472767768794e-01,-1.435006320400512292e-01,-1.509354743620171524e+00
6.548756863880853540e-01,6.944849842072482460e-01,-1.512211848388772761e+00
-2.272173434985424317e-02,1.920141787336958339e-02,1.389861574229955821e+00
1.400652514290926520e-01,-1.663241418209568112e-01,2.231831021131204462e+00
-1.358273188934333131e+00,-9.481998315222243123e-01,-1.037785954151298373e+00
-4.051612210546234882e-01,1.901397877320354923e-01,1.493436425855352301e+00
1.050304347465644828e+00,-1.545174189594214487e-02,-1.794072848171953893e+00
1.275882313990328365e+00,4.878348890643481317e-01,-1.520244324238606282e-01
2.781322005546204429e-02,4.644458616213246183e-01,-1.905594654631780793e+00
1.074834494643101213e+00,5.576991645097574279e-01,1.905468399573560401e+00
4.767626054756066156e-01,-1.908521709707306779e-01,1.514810218946900378e+00
-4.290123665674947517e-01,5.786324782340061812e-02,1.402454777730895996e+00
-1.445213976103639775e-01,-5.483996120874907731e-01,1.717741456518051768e+00
2.964096335285242856e-01,3.375684530565750130e-01,1.402006535974387402e+00
-1.748373268839987227e-01,3.929732432671841913e-01,1.979715121966781455e+00
1.810083134130688221e+00,2.721388444976777232e-01,1.047519312684314308e+00
1.499750002239609081e+00,1.150036825716985872e-01,7.247464293401204571e-01
6.764913642587853104e-01,-2.010199994400713175e-01,1.821234620419727612e+00
1.129945713840492916e+00,4.985977313539540212e-01,-6.360037924258555853e-01
1.292901145846190092e+00,8.919304153203502783e-02,1.693932228446330512e+00
-1.843763000127953466e+00,-9.949302911796534810e-01,5.484200958546190385e-01
-1.115573065132721808e+00,-8.510542490525695447e-01,-1.445591350987589285e+00
-9.168108253900097981e-01,-4.877392678177906726e-02,2.008462005909069870e+00
6.991832344811056421e-01,-2.694914619677514847e-02,1.331078885178710314e+00
-1.114110421569476372e+00,-3.024305215461545737e-01,-8.021615538921232913e-01
-1.289769491045884342e+00,-1.652163096671626086e-01,1.786867234115733671e+00
1.008432352556082545e+00,-2.535259721974070582e-02,-1.843522819976411320e+00
1.502280870148594794e+00,9.991860090135264993e-01,9.159959123506027368e-01
7.114244219825612836e-01,-1.731955571330386634e-01,-1.933611361948007978e+00
5.883354704690234582e-01,-2.698411062210627764e-01,-1.785811456417798704e+00
-6.716126134198391329e-01,-2.632346874553578853e-01,-1.174812603593579752e+00
1.350446294272420911e+00,9.517413616446469549e-01,-1.150519531992419520e+00
1.600691597273577571e+00,1.500538009586686317e-01,-4.064106292874490878e-01
3.992638498870514918e-01,3.056757210102479735e-02,1.321309880592398400e+00
-3.248138472248872088e-01,-1.330649186566524311e-01,-1.373051088999789338e+00
-1.541811729934914998e+00,-2.314694018713188695e-01,1.541956967529445777e+00
-1.741384573255473356e+00,-2.006672731553408029e-01,1.495417172557839403e-01
1.438518504653321928e-01,2.851218120370630493e-01,-2.220228313826944522e+00
-8.005342011849336803e-02,4.677917536356808736e-01,1.852963627339308639e+00
-2.028770285684351471e+00,-5.819100761553679391e-01,-8.209191297609416127e-01
4.472859684769673327e-01,4.269508167283058153e-01,1.352435868611778114e+00
3.884150529715822003e-02,1.207594400928863332e-01,2.296949455717272048e+00
-1.333639826809973339e-01,5.202064382944707188e-02,-1.396896247380365885e+00
2.031612020280229025e+00,2.887666525092325576e-01,2.574544614844418433e-01
-8.955502012439340298e-01,-7.402521918195369421e-01,-1.225464254926019070e+00
1.409670582739541711e+00,9.788845737311512307e-01,-3.916047928009406265e-01
-1.393672380047577875e+00,-1.718029540294539192e-01,-6.937262169884038654e-01
3.999666865872638088e-01,-7.967100162516550788e-02,-1.398225624828927316e+00
-1.617298827594699118e+00,-1.867751428839045658e-01,-1.780260864739489080e-01
8.038551226248497050e-01,-1.948062860935032004e-01,-1.669273279420854683e+00
1.551137980769835112e+00,3.598963203153591750e-01,1.586915042302479373e+00
-2.097756024160826627e+00,-7.339429038077459611e-01,-5.566196009600481442e-01
-6.737704363698051591e-01,2.196639159491889093e-01,-1.833571253598581530e+00
1.338926501005982539e+00,8.661650705408099338e-01,-2.703528907074055354e-01
-1.289475040515068116e+00,-9.348055794002885222e-01,-1.075282437429158300e+00
1.488891397244785697e+00,5.763515581635963309e-02,-1.155672374479446374e+00
-1.063074210405658526e+00,-3.389619214194795060e-01,-8.321116409476794207e-01
-3.713143483169512038e-01,2.786583944444576688e-01,2.072623345979325293e+00
7.900407685519396095e-01,5.670131973351048016e-01,-1.156910769717937271e+00
-1.013840670518228348e+00,-3.138177542151368016e-01,-9.210393319722417482e-01
-2.835150031462028708e-01,-5.640987349304372733e-01,-1.820008294549920302e+00
1.103548431513081685e+00,7.878000406779539500e-01,9.736747110064850608e-01
-4.508179247242677379e-01,3.463914303968785441e-02,2.203875093034036947e+00
-1.266239548292722450e+00,-4.875197928747188048e-01,3.728120932845248314e-02
7.546866756761383410e-01,7.507052916704016754e-01,1.453194890382166315e+00
-1.597819688691679563e+00,-1.030543455257266316e+00,6.900855042483270418e-01
-1.023768101039225886e+00,-5.107799960538971229e-01,-1.950244124761357556e+00
2.029413105976758835e+00,8.529375746826205473e-01,-5.973008098442764702e-01
1.524756160237110247e+00,4.259895917603080395e-01,1.643249974574070515e+00
6.372977083044255586e-01,-2.082198086724707797e-01,1.847993332167422231e+00
-1.034313557705035302e+00,-8.192184775355683124e-01,1.179463550314574061e+00
-1.975619945893267726e+00,-9.445814799290832564e-01,3.654807829795518881e-01
4.569205093893557446e-01,6.023552688652394904e-01,-1.863906524276969012e+00
-9.572382518297607445e-01,-2.402886503872949941e-01,-1.008309148656016507e+00
1.689684832350337729e+00,1.001282513381104744e+00,8.141508528079796081e-01
1.289661383982579901e+00,5.419734313572301954e-01,-4.888960556933274332e-02
-1.376407597387867332e+00,-2.729509057226370966e-02,-1.201232272860759176e+00
5.690222784608142126e-01,6.365579842300426172e-01,-1.914458425343349424e+00
1.347048371411278200e+00,2.525150457880935284e-01,-5.568856159655627414e-01
-4.637204941350817067e-01,1.060661334958387103e-01,1.410591355560089299e+00
-1.515866537090830413e+00,-1.040864846665430665e+00,5.169772562676365757e-01
1.346277229033324252e+00,5.739312218210937955e-01,-1.731773396650678531e+00
5.353572588806175814e-01,5.449293034631592647e-01,2.011075640567465239e+00
1.411348664292633615e+00,6.499565379185062719e-02,-1.507797912392870643e+00
-1.106602313252190939e+00,-2.747599299653281646e-01,1.946522209047802043e+00
-1.081256079169014894e+00,-6.100098941720555334e-01,7.566601355809514651e-01
6.507617188600464120e-01,1.544698108099501754e-01,-1.219453629854045262e+00
1.180182564682089152e+00,1.679434233432488544e-01,-8.571677590354880305e-01
-1.914541066448498086e+00,-9.996164430802776391e-01,-4.083141445013384607e-01
-4.866651218865518658e-01,-4.041719592708930553e-01,1.341685578782219501e+00
1.048453408141965415e+00,8.628886538047895183e-01,-1.338699806676429516e+00
-1.629441757422908754e+00,-1.021315191493293639e+00,-6.900007149990377009e-01
1.126480712894322389e+00,-5.779583477479715431e-02,-1.574376793353846171e+00
1.056560789750318419e+00,4.306364065117594953e-01,-8.211260988295382424e-01
-2.021686600882811824e+00,-6.380114009100399386e-01,8.719407117944490970e-01
1.550294803290288126e+00,1.013767256478169815e-01,1.238366841131929075e+00
-7.836249563025085019e-01,-1.807579793881531338e-01,-1.159541124866876993e+00
-1.376564913819164904e+00,-9.335575455020285185e-01,4.517167395931622198e-01
-3.919904966857630790e-01,-7.411607065514444481e-02,1.321283764461889998e+00
-4.798929982773341152e-01,1.308228213203566082e-01,-2.141195180349599880e+00
-1.656184522150232041e+00,-6.182952182045318157e-01,1.452503711339790060e+00
-1.196979547621058737e+00,-7.155688753648999437e-03,-1.170538606211693144e+00
-1.234220497285154039e+00,-4.836370330693551267e-01,-1.846480183420183607e+00
1.308137167173812454e+00,1.494009428750727115e-03,1.465157086534719211e+00
1.620499989237234484e+00,1.186806828714075945e-01,1.071944015352420454e+00
-2.190993096673170992e+00,-5.898592088470305805e-01,-7.858987018251686885e-02
1.247884431266101490e+00,7.411306863575285453e-01,4.018527186152598407e-01
-1.765570487131037369e+00,-9.562289318624731527e-01,8.797865033504211896e-01
-1.514636282294750336e+00,-9.359677433120446866e-01,1.208493639393277697e+00
-7.902823851851167314e-01,-4.565212855167377071e-01,1.073439498355846622e+00
1.577078254584146411e+00,1.016312134953087032e+00,8.247718206435376009e-01
1.408415808141075587e+00,6.632834538168193295e-02,9.184022860616605222e-01
7.548371568532054043e-01,-1.707307717053667406e-01,1.837713498277898427e+00
-1.468499166140328605e+00,-7.279876495551983462e-01,-1.528501974607958447e+00
8.641460745273150668e-01,7.032208655233387340e-01,1.183118719274325104e+00
2.144001143476086391e+00,5.100915977987079408e-01,-2.946250381391222750e-01
2.357688530354614675e-01,3.573954187555592465e-01,1.436452450577267337e+00
7.751390700140552426e-01,5.033158457826857335e-01,1.110284122680283536e+00
5.165727826506615328e-01,6.327326184240691376e-01,-1.497424140953962590e+00
-1.431264425019731057e+00,-2.206666605245320156e-01,4.231968934383645853e-01
-2.327269597591899442e-01,-5.182354330291302213e-01,-1.556353327543800180e+00
-2.545249682809350156e-01,-2.087295481468551261e-01,2.244986548178377284e+00
-2.856857525434904899e-01,-5.305503927834053224e-01,1.990692206221906568e+00
1.411362661137866903e+00,1.325937971734725829e-01,8.553226697555338376e-01
-1.264294111002928878e+00,-9.159777782388729417e-01,1.250226605593216966e+00
-2.726880560870454384e-01,-5.360559006705251095e-01,-1.636476288342618934e+00
1.213538591394017541e+00,7.072353693712304379e-01,1.702290005398684691e+00
-1.385595080674951740e-01,-4.005640645139774692e-01,-2.114466234355170116e+00
-4.657581862973262932e-01,-5.185612017130049045e-01,2.063386750668945613e+00
-1.420804241496331111e+00,-2.246215525422344261e-01,4.850080668497924186e-01
-1.222853349596339845e+00,-8.630336075261484385e-01,6.665418647322171042e-01
-1.316711256479712544e+00,-8.224420349780766637e-01,3.273579973376828378e-01
-1.751092641159250229e+00,-4.141489219304932967e-01,1.330331884644714968e+00
-2.141556516585075287e-01,-1.017609055695651299e-01,2.284859002427737984e+00
-2.004294876845916562e+00,-4.926209381055486891e-01,8.465462495620611483e-01
-3.962286419425324890e-01,-5.740569368644528048e-01,-1.946317797725123144e+00
-2.079682363625264596e+00,-6.401232059193974200e-01,7.280847512041933589e-01
-2.063295574535410626e-01,2.193145918048567677e-01,-2.185293579032512756e+00
-8.181309394860893924e-01,-2.316197023946154621e-01,-1.106201287834339686e+00
-1.500159291235169778e+00,-2.336973115016432456e-01,-1.096669013005157622e-01
1.305874057535715838e-01,4.980928130393023068e-01,-1.719191902467244182e+00
-1.219498589582755477e+00,-1.114140441446450774e-01,9.719252384404886147e-01
4.695926014534295700e-01,4.689801850099534208e-01,-1.352940528652529562e+00
1.075891785329776695e+00,1.980730061500574624e-01,-9.019170114720274078e-01
1.432558910192558876e+00,3.956247246730598133e-01,1.689779934384302740e+00
-1.700030169186102613e+00,-1.799649605463109203e-01,-3.151608987786302385e-01
2.072692933577161833e-01,2.010517856603115383e-02,-2.259477728398125773e+00
2.184235350775170392e+00,7.109214774529885039e-01,-1.744858479677608154e-01
-1.157421483218591396e-01,3.706386348618472687e-02,-2.290994985117647431e+00
1.074351341900068313e+00,6.415261572539128210e-01,7.763760564724780933e-01
1.372517560853391938e+00,1.006205894203283796e-01,1.592226587128808157e+00
-7.533917180136782132e-01,1.643639227808834091e-01,1.568996083551165821e+00
-1.816145078377426003e+00,-1.764115212179546421e-01,4.570036635652678370e-01
-1.668245105705547182e+00,-1.092890941954012485e+00,2.517763668180637016e-01
8.188996845659402002e-01,-6.823462915553606123e-02,-1.989197330212091774e+00
-1.867232083692402567e+00,-5.237864644991577778e-01,1.146138883313176926e+00
5.958296942778926741e-01,5.149005100046762928e-01,1.288809991124325816e+00
-6.246138184854229669e-01,-6.480940002808431855e-01,-1.391421341133175948e+00
5.003184381131781100e-01,6.204261900953421671e-01,1.542661950207246724e+00
-7.427699825482118046e-01,2.143380221038081734e-01,-1.675980039890379025e+00
1.489942481383113693e+00,9.273269147936166745e-02,-9.171560503667351982e-01
-8.336607444506568543e-01,-6.617281158149231901e-01,-1.884211384249803833e+00
1.728967987612908930e+00,3.487194736053343957e-01,1.339380926095529167e+00
2.071159869028665335e-01,3.142394990284305134e-01,1.438519459720740690e+00
1.244571927303792513e+00,7.052426085881197126e-01,-4.222276242611378572e-01
-1.538245326652891487e+00,-1.457990475629865335e-01,6.493455778597714279e-01
-1.175938410502976872e+00,-4.509387882965422145e-01,-5.863008645579833589e-01
1.267879646587331433e+00,7.478176544135104464e-01,1.702407413600303565e+00
1.710596586761973015e+00,1.084027849420339917e+00,-1.900360684632110830e-01
1.017890833736326828e+00,7.627096075246890816e-01,-1.047622885058131725e+00
-1.907735050331317295e+00,-2.050950314467895330e-01,3.509129982180251434e-02
-1.049896990349054926e+00,-4.126970619921155881e-01,2.007460309969108625e+00
-9.651410496031782860e-02,-8.483575442260191113e-02,2.288128785892830752e+00
-2.036153236467266314e+00,-3.051936519700395589e-01,2.086890717288907571e-01
-7.487058399055466218e-01,-9.164454133583115059e-02,1.235920427901918695e+00
5.892459547699402389e-01,6.512311641234922455e-01,1.876069026280141827e+00
-3.805019956037191675e-01,-4.379387078087191298e-01,1.415614928411325746e+00
-1.094468524603357196e+00,-7.569854223577362484e-01,8.165919673431148995e-01
-3.493151779229683451e-01,1.627624978876734407e-01,-2.198005643342868964e+00
1.454394121694861930e+00,9.960055039140186528e-01,8.580414253992174611e-02
-1.470822597352370753e+00,-9.149532718209248128e-02,-1.334635936849082549e+00
-9.188266238650670825e-01,-4.419500578662250989e-01,2.029462500159827876e+00
1.364471991574489174e+00,2.747270555785172874e-01,-2.838607876420833898e-01
-2.036935616226337675e+00,-3.314690410743071913e-01,1.524178058610861364e-01
-4.906866860454280888e-01,-5.699358914189448511e-01,1.428403581929203359e+00
-7.335495314681502732e-01,-2.140935395734810398e-01,2.154300261219903145e+00
