-2.787613179007276121e-01,2.746091381255675312e-01,2.667580013617650181e+00
-5.237718710815693068e-01,-2.043338980969573893e+00,-2.426633390587977779e+00
-2.708090712660556898e-01,-7.662873184761110901e-01,2.351450740745164580e+00
6.635506740169908602e-01,2.889324533759656699e+00,5.444042983708552441e-01
1.194954604151433480e-01,1.981597732129323441e+00,-1.003539384463022710e+00
5.664949013845299586e-01,2.941020794770664359e+00,8.978394771545000763e-01
1.621768124745355533e-01,3.433909129531916848e-01,-2.328706658357974746e+00
6.804574697592025156e-01,-9.830377347987997450e-01,2.778633592636307270e+00
-6.900173686500044035e-01,-1.348060583699047521e-01,-2.425446820355238398e+00
6.729917782172414320e-01,-1.125843460236284121e+00,2.221420811874160073e+00
-7.576059558980161590e-01,-3.188160713172767946e-01,-2.862003597003108357e+00
7.057571083054197114e-01,2.627917338944915304e+00,1.112320255012349657e+00
-2.648076108106569015e-01,3.284996766542210844e-01,-3.226677219851662226e+00
-5.970032660983737305e-01,-2.010546534508283578e+00,-1.162248120707046306e+00
-5.418791627723639204e-01,-2.848595627927542839e+00,7.701072040417034081e-01
-1.792147953268874994e-01,2.054290369429576213e+00,2.149082832893421724e+00
-3.429611833954677169e-01,-2.437218966487392446e+00,-2.154728000152939860e+00
7.427040471927881526e-02,-2.811513955171430545e+00,1.655850293817710428e+00
-4.369072660381289053e-01,2.898045806995879214e+00,-4.924223851146180553e-01
6.924561067782781798e-01,2.583486278670974023e+00,1.422645876130746778e+00
-6.310027714086202666e-01,-2.346990099342392888e+00,-7.678865161740259238e-01
2.200673770330209278e-01,-5.934398376158074306e-01,-2.506909386339589929e+00
2.761660922698397913e-01,-3.065201963944606867e+00,-3.521885730331979492e-01
1.857514097107017537e-01,6.807934473081915794e-01,-2.245825092822744118e+00
4.154903585464241322e-01,-7.799980465071344460e-01,3.148399706534669384e+00
2.624140180125025257e-01,1.995798499977581075e+00,8.692954650531636851e-01
5.742916899058433389e-01,-8.562766530923491270e-01,2.982412925427543104e+00
-1.674164611979592765e-01,1.281863196292383655e+00,-2.983949361788187815e+00
3.952961083584070612e-01,-2.588512279663920168e+00,-4.897285155306894122e-01
-5.654889086130303610e-01,-1.199214788570392098e+00,-1.967833739296628748e+00
2.489833824215008096e-01,2.432172933923087310e+00,-2.014514590579781661e+00
6.291888345154449391e-01,4.849886634676627839e-01,3.101142505530531057e+00
-1.926078657591486498e-01,-8.128257826107094797e-01,2.904448687131345963e+00
5.272983454063090436e-01,3.033598854229883734e+00,1.796954471283046251e-01
3.416673666585263169e-01,-2.560905488472200009e+00,-1.022130119925321656e+00
1.823414322417429151e-02,-2.807045347356253107e+00,-1.542775631112225598e+00
-2.927748764185065800e-01,2.334184251543496569e-01,2.583003635863268865e+00
-7.513927764098847772e-01,-2.316523808330034573e+00,-1.625529600182427759e+00
7.655282850202368983e-02,-2.876264268243188038e+00,1.570719817274956354e+00
7.044282864207458694e-02,-1.598684864505912850e+00,-2.698469300270736504e+00
2.005282417687672680e-01,-3.147404946759714051e+00,6.083215862302323584e-01
2.021799873351835530e-01,-9.392969494159010280e-01,-2.754879723854715134e+00
-2.157095639183743974e-01,2.861667707488111834e+00,1.026395210114328993e+00
-2.811653698159032322e-01,2.376603254267063425e-01,2.907877528560136593e+00
3.022731496745654223e-01,2.211798158281883531e-01,-2.594134492891899679e+00
4.173829522424687966e-01,2.100518443352171971e+00,-1.897275313435451860e+00
4.870656105255965485e-01,1.068256057260652980e+00,1.965860157609655490e+00
2.709563623887530359e-01,-1.495930116494757156e+00,-2.516606326856736242e+00
6.649052925307720185e-01,1.798509823351757797e+00,1.505665115779651453e+00
5.058319650766215370e-01,-3.841999087287956832e-03,2.217485966476936632e+00
2.038457584314395943e-01,1.316692009781454953e+00,1.715405143513928365e+00
1.354056517584630026e-01,2.001765815023027084e+00,8.096956948108473551e-01
2.038435481537708149e-01,1.166181946105427247e+00,-2.863971666199242705e+00
-4.695664936128078892e-01,-2.315250093230330819e+00,1.936786436107969800e-01
2.007867791132485202e-01,2.155934047540456699e+00,-3.766762323168710846e-01
6.459891079860113905e-01,-9.881725431878364274e-01,2.254148229257877833e+00
-2.419523928889627806e-01,1.266511080628708319e-01,2.975453736630159884e+00
-2.911403569985805406e-01,1.745328519447947091e+00,1.978938066677027985e+00
5.149173619975047078e-01,2.379254569869659885e+00,-1.033089427688070661e+00
-5.917244205364404763e-01,2.151078454428095643e+00,-2.059271889426217861e+00
1.927882177153734250e-02,-5.096307571946400161e-01,-2.178430956575043265e+00
-4.962494374041301892e-01,6.234917517681568544e-01,-2.145093136801343725e+00
7.675178865278854401e-01,2.248431378023320271e+00,1.539635177342806749e+00
7.849204256378023992e-01,1.893176484266820975e-02,2.579043569356602283e+00
-1.100811730940729066e-01,-3.002026209292464998e+00,1.241296516221254143e+00
2.737237119420716236e-01,-2.300490396752926880e+00,-1.836975344501933227e+00
-1.308618286659150171e-02,-1.418649387904798553e+00,1.618438319277577753e+00
6.920593170745369394e-01,7.906079702333381753e-01,3.043081802129292246e+00
-5.956145532340786364e-01,-2.744236426654889538e+00,4.312561189928656447e-01
-6.874246233714297327e-01,-1.295466476604876682e+00,-1.992266648588409739e+00
5.387383692728853202e-01,-1.463351050619257743e+00,1.785202291615203718e+00
-6.368242134430596169e-01,-2.506881773576152383e+00,-4.342864135153483018e-01
3.063355199182350441e-01,-7.039218035651381156e-01,-2.585179234429523021e+00
-4.361508204487093976e-01,1.196072074182592315e+00,-1.930992148464491187e+00
4.925324624876822321e-01,2.089282878984626279e+00,-1.604780509084348550e+00
9.447767553203765059e-03,-1.704719618999838815e+00,1.272303553529873454e+00
6.670563606926863121e-02,-4.424740459941153281e-01,2.171403083146415280e+00
7.887506968186840384e-01,2.685929854633104658e-02,2.736447870553392558e+00
-1.273951667390373077e-01,3.150999910255869896e+00,-7.628430759503307401e-01
5.245803907342997396e-01,-6.201105180754520330e-01,2.179336828645363155e+00
-3.761272732059892654e-01,-1.026923301806540234e+00,-1.940555132820701134e+00
-4.658836555017933367e-01,2.522806598547867374e+00,-4.186017108628573569e-01
-1.383858544328707973e-01,1.381081396324969290e+00,-2.962163491139780280e+00
-4.420879414458950274e-01,-4.287274967126508129e-01,-2.177688914863219249e+00
1.980164229511204299e-01,-3.053726355812534710e+00,1.061458437921984910e+00
-3.119303839292426050e-01,2.353155394976856662e+00,-2.691818393591778949e-02
-6.130723212716421289e-01,1.819307854157041104e+00,-2.321508133147463404e+00
-1.530513265263183931e-01,7.211913804336363976e-01,2.990304134049104778e+00
5.603375819338849428e-01,1.467488656474284392e+00,1.729244220381826569e+00
2.195166843751905073e-01,-2.199729200197166890e+00,-5.940720186405955561e-01
-4.199970601695083294e-01,-7.972777828424397126e-03,-3.221171808495672639e+00
-1.955237809389834269e-01,-2.142949039311234927e+00,-4.057191161991899331e-02
2.690575708594438176e-01,2.883392036843112294e+00,-1.297129829656453071e+00
-5.428602476085386125e-02,-3.286993775934688333e+00,3.370988438378906826e-01
6.608070533463832330e-01,2.486878114660700412e+00,6.226253272125017446e-01
2.971088001886943997e-01,-1.743769141864460082e+00,-1.947746473884914620e+00
-2.871389985143013579e-01,4.763280301141828987e-01,2.526978791201175412e+00
3.335885969892799507e-01,2.168693393573009054e+00,-7.113565548223056423e-01
7.110286132130615444e-01,3.955576385047731569e-01,2.378572435387777961e+00
-1.143599232923194764e-01,9.154243892752929046e-01,2.941888033093523980e+00
-4.730209180180255935e-01,2.797288887620401621e+00,-4.886215967442974345e-02
-3.448948073547571970e-03,-1.761900134751759772e+00,-1.336059739047323003e+00
-2.956085224133807587e-01,1.385241766219917237e+00,2.358556422803311126e+00
1.052226505257479044e-01,-3.086776411746647852e+00,-7.320419305704336521e-01
-5.456336800467216364e-01,-8.600071244135931714e-01,-2.020550174846741154e+00
5.017080462916326811e-01,2.333025167376434617e+00,-1.457423580386310036e+00
1.109540796819617620e-01,3.176479658378254189e+00,6.138971004290106892e-01
-2.447488631314720942e-01,2.072692257001782501e+00,1.242332153204692258e+00
3.180312113684305442e-01,-2.355757634482763319e+00,-2.122715373153707605e-02
-4.279145686147806105e-01,3.064130694792421838e-01,-3.199001886636572589e+00
-7.544734264257474399e-02,-2.402214013298237472e+00,2.141767998723663524e+00
-3.913199526902437775e-01,-3.181048722515418259e+00,-8.046996247024281942e-03
-7.672807326187098820e-01,-6.005665194823102127e-01,-2.753307108963746863e+00
3.084012910343559288e-01,1.342740522165156269e+00,1.675556455402686939e+00
1.320675981447141933e-01,-1.560724152052394231e+00,2.849110771850979162e+00
-6.307476265051582542e-01,1.764222501948374155e+00,-2.402941071834727271e+00
1.782546617355570961e-01,-2.183293545659624524e+00,-7.408473607256362836e-01
1.306743088641443007e-01,-9.636750572621975985e-01,-2.135161861016466656e+00
-1.026584773488157659e-01,2.017403754022958573e+00,-8.799781874470272713e-01
-5.931998019822035811e-02,2.174286937878414872e+00,1.931356534217844867e-01
-1.827279017717904847e-03,-1.481543822993826032e+00,-1.618401243436736303e+00
5.884477267945821266e-01,-5.326696561424161258e-01,2.206803672771616043e+00
1.746487670687014160e-01,2.178804857564425213e+00,-2.377812006224324204e+00
1.734534506369117546e-01,1.141100878955614739e+00,1.842593324094865093e+00
-7.607656585260715865e-01,3.772391199021248864e-01,-2.785311355128574196e+00
-6.513463580536605901e-01,2.125497152906505427e+00,-1.947242741782109210e+00
-3.290859702820339017e-01,-3.384700807083828034e-01,-2.103945455333565917e+00
4.721512570010793497e-01,-2.530052215002883020e+00,1.748481968583057489e+00
1.304224493826385833e-01,-9.500375440433149465e-02,3.207092309316619261e+00
4.167189643951749178e-01,-2.965384864328373560e+00,5.952708009215195162e-01
-7.700584021171701377e-01,-1.752162051965520551e+00,-1.833241436929752055e+00
-5.480567262122709726e-01,-1.945472936989511181e+00,-1.155647284624977233e+00
-2.559726959874463192e-01,2.669591271744514049e+00,1.444185165249367797e+00
-7.675226027376077509e-01,2.614271927981474675e-01,-2.859357717420686118e+00
2.154756282547768131e-01,-7.245438882975049344e-01,-2.347147563222213851e+00
-1.284877033369636323e-01,4.233821938783543515e-01,-2.144331413889582372e+00
3.044334652701987665e-01,-1.832964974079124509e+00,2.653986546311699168e+00
4.403392082586449763e-01,-2.088496942484366237e+00,2.395931602004289118e+00
6.286003423137891399e-01,-2.016265124003539189e+00,1.889381828642253680e+00
-2.521199549042241195e-01,1.056915923576924321e+00,2.635641370666332417e+00
-3.799026884622387357e-01,-1.028461290154106672e-01,-3.263541200364909578e+00
-5.707266970810449536e-01,2.265782894380607537e+00,-1.181414201552109855e+00
-6.063940275855149720e-01,-2.744974644258511010e+00,4.512386603004436836e-01
-7.648512880803594316e-02,-2.775085273914319917e+00,-1.651074050895035450e+00
-2.519590821270639158e-01,3.127273068455230121e+00,-2.318983838063219949e-01
-2.630599223660706198e-01,-2.514484151594568173e-01,2.912540431680151976e+00
6.574512239790176737e-01,-1.996490022623568006e+00,1.755128632762667173e+00
7.042048795589613830e-01,2.589151192140489499e+00,1.226920609004799934e+00
-6.258342648667306607e-01,7.748492583553937552e-01,-2.219280105736773034e+00
-2.412276677550207471e-01,1.755058077523834692e+00,-2.755792948579972368e+00
2.366781897105440513e-01,-1.365378013665007328e+00,-2.479185847400808829e+00
1.476553182404674036e-01,8.645396615221744296e-01,3.115092545949742497e+00
4.674980089110379322e-01,-2.791733081370340042e+00,5.104009317584455863e-01
-7.299154563191911915e-01,-1.233399208810394665e+00,-2.762721199242514913e+00
5.889391274743791538e-01,2.847320986677822852e+00,1.111002038188632302e+00
-5.084847683727593548e-01,2.251741913506866144e+00,-1.153965798886558147e+00
-3.491726617673430733e-01,-1.470570865547593808e-01,-3.239728553532188471e+00
3.945070233799222725e-01,2.969793638734258057e+00,-8.617232186971106600e-01
5.897897905044963140e-01,2.436538441436789437e+00,6.209280465611755062e-02
-4.476879192342169689e-01,2.141461998302768510e+00,-1.031499834325926290e+00
-2.725110646055603492e-02,2.859608487375827401e+00,-1.615931300485007105e+00
1.819813692949098088e-02,-1.544075169686871085e+00,-2.773594768577720693e+00
-5.406639830069598536e-03,2.641681715586602586e+00,1.749531886648252543e+00
-9.043739582151484602e-02,-1.371040149449531953e-01,2.336973062027485337e+00
-6.079617910266086472e-02,1.626279051343090254e+00,1.531805556702055870e+00
-3.368661319252586606e-01,1.746092463327300059e+00,-2.708734933588502258e+00
2.917461452727928006e-01,-2.069713092756704675e+00,8.736236216786806841e-01
-2.867845843880613699e-01,1.735632043799091084e+00,2.117903700696693647e+00
6.199921043681604349e-01,2.815248137953978436e+00,2.941937912065422656e-01
-6.625012479137124544e-01,1.570336731081847015e+00,-2.088384259382346286e+00
2.591557062983221860e-01,2.421925077858613218e+00,-1.958570431895241493e+00
-3.831037230638207336e-01,-2.998555885883695815e+00,8.096149855876327850e-01
1.879257515474631046e-01,2.978134402427682126e+00,1.391116467601334783e+00
-2.704307206741290992e-01,1.104333321341283147e+00,2.411005985114996975e+00
-4.002548704138435554e-01,2.497452617681738651e+00,6.765091556088634883e-01
-5.314407245047979567e-01,-2.343982996184178269e+00,6.887989525188092932e-01
6.570464631839469938e-01,2.832740329043806238e+00,1.094327716698837216e+00
-5.635736987915254126e-01,-2.818999945842404209e+00,-1.302681656260268328e+00
-4.093573427025228723e-02,1.673504872350035866e+00,-1.390901879881062619e+00
-3.491366117601898411e-01,-2.080609258993557920e-01,-2.146744602330089791e+00
-1.590176309209484495e-02,-2.918192993411382608e-01,-3.187370323799170180e+00
1.436918264899980369e-01,1.948397265728094574e+00,1.047857978731668416e+00
3.790344486111831002e-02,1.040635974406467629e-01,2.187245758798436412e+00
-6.229444261865535459e-01,-2.205624259642680940e+00,-1.036763687575469772e+00
-7.885310193760625141e-01,-8.052069519849489598e-01,-2.627983449233247892e+00
-5.198394927215544969e-01,-2.930577241884328110e+00,-1.018330990711243889e+00
5.471831517852345783e-01,2.829031907478577246e+00,-7.911794283743972533e-01
-7.025198230050845316e-01,1.088342675337002241e+00,-2.234193038221336636e+00
2.433552965480497154e-01,-2.126595871938451676e+00,7.220012047345804040e-01
7.854317640867680694e-02,-2.718302957789723084e+00,1.852500611828524102e+00
2.606267353247777585e-01,-7.960544927257787728e-01,2.011736882149931738e+00
-2.434032478670800081e-01,-3.263296365490940598e+00,1.705279913464024244e-01
-1.094804697085755979e-01,-8.886031388700497136e-01,3.033440976578173132e+00
-6.502953716685682117e-01,1.169456439657590163e+00,-2.734193487902876196e+00
-6.938962387521724340e-01,-2.558568133196423400e+00,-9.179760039226416701e-01
-6.889384490106275072e-01,1.997422624591603801e+00,-1.889952444848782553e+00
6.713312025458716414e-01,2.611754367208895200e+00,1.593811349340529038e+00
-2.273970880650023063e-01,2.949970841175805880e+00,-1.323091325910308091e+00
-1.496878663675606236e-01,-2.720489557367063327e+00,1.661858474479803061e+00
-1.172589693385943654e-01,-3.154188441265834086e+00,8.589490046085760389e-01
-3.596836996986577661e-01,-1.442714389859125257e+00,-1.583281718784367520e+00
-2.240627357185902557e-01,-2.082455922628518419e+00,-5.084375899114482733e-01
3.433989738783170820e-01,-2.227488647024558510e+00,-1.594125300848909355e+00
7.216795749412783234e-01,-9.947155549113187445e-02,2.461929996368712459e+00
5.805582534665709726e-01,2.920605753820237016e+00,2.248619563693265988e-01
2.901593075391528109e-01,-1.933655180043901467e+00,-1.928392209329118590e+00
-6.365724923866009632e-01,1.769410492281358938e+00,-1.917089942577507200e+00
3.624601005071357296e-01,2.464909128384176196e+00,2.164524247294626669e+00
-2.858995348967702244e-01,-4.239127367097040439e-02,2.610997498668804706e+00
7.705036883274799520e-01,1.732205852349141040e+00,2.011185505517425032e+00
2.641225535317551221e-01,-1.341290312129531204e+00,2.998688132252690597e+00
-3.613237613195817710e-01,-1.780551423891246321e+00,2.350335630088637107e+00
1.382551578999114406e-01,2.472386392055237359e+00,-2.078655650964116752e+00
-1.315722755051089710e-01,1.635173806980602551e+00,-1.408079155707331109e+00
-2.627809226064854453e-01,2.275193860079927521e+00,1.774571071303942649e+00
-3.585429506184981824e-02,3.024220358935810093e+00,1.019106603751037454e+00
-2.744335566742466676e-02,-3.095964586438375132e+00,1.084980150294721168e+00
1.548211254323063613e-01,-1.626834387213008382e-01,-2.315976378935812541e+00
-4.054986740216780516e-01,2.774193381486513843e+00,2.031713648244535819e-01
-2.017133754980775240e-01,-2.857177135547247282e+00,1.511048387840631113e+00
-1.871703631072161034e-01,1.058711179308720940e+00,2.191548203384142468e+00
-1.164649200056949302e-01,-2.647077162000383010e-01,2.274346174037612300e+00
5.458687185142779841e-01,2.978838292939673060e+00,5.314943972081562773e-01
1.331517380558569774e-01,3.075219124255365255e+00,1.086225315050380891e+00
4.124393716291462758e-02,2.258325815181551288e+00,2.290058726885843665e+00
5.534907300222229320e-01,1.967990136054062589e+00,2.442577226310658656e+00
9.704610660103457631e-02,-2.231531496860098329e+00,-2.780573359800100897e-01
3.561091001055483041e-01,2.176600837032104163e+00,-6.708879093710334862e-01
-1.476806030296917704e-01,-8.882496699801371853e-02,-2.174878045841611485e+00
6.597705532956312791e-01,-8.826499840310514378e-01,2.940080748582623471e+00
-7.457596229592895476e-01,-1.909625999917811123e-01,-2.433049605693580641e+00
-6.863315005458860973e-01,-2.548480765838231132e+00,-2.139869832151238827e-01
1.879959499872175810e-01,1.199390155015277459e+00,1.868218150215446682e+00
-6.593732226772097693e-01,1.345471904886734182e-01,-2.356673671946014181e+00
4.996778307254262641e-01,2.114697379953653922e+00,2.415995985776211441e+00
-1.043309339189170265e-01,-2.651314889352100135e+00,-1.892671009000259419e+00
4.981643384402352215e-01,2.211686885282438730e+00,-1.605881756132633953e+00
-5.004268898308528168e-01,-2.216197818249794338e+00,9.107188464304362130e-01
6.964867794010400903e-01,1.830934081635109678e-01,3.050602909830446574e+00
2.909216585346378059e-01,1.543335042500671550e+00,-2.639665219343753755e+00
-2.504610038282621964e-01,-1.826937954961843413e+00,-1.182427556015809289e+00
7.596327464081051861e-01,6.604675105515633859e-01,2.853911140950262215e+00
-6.538573346031434363e-01,1.771111012839804655e+00,-1.866743512718058273e+00
4.111513798206204995e-01,5.077207664882420479e-01,2.106230717430894295e+00
5.328767867001453773e-01,-1.164759378559023562e+00,2.966935045686747152e+00
-6.530710301335029833e-01,-2.750351614123949684e+00,-9.734786172091246526e-01
-1.897708384971148465e-01,2.119101575115984737e+00,8.709771067260989597e-01
2.645667353423372670e-01,-2.147154360725065825e+00,-1.003936660775834655e+00
3.964120353425242826e-01,2.214402383609457736e+00,-8.263162245052186883e-01
4.160407421424189844e-01,6.548837580837131300e-01,2.127490960802840725e+00
4.781643780826040357e-01,-2.842008802534876644e+00,1.575281219269349942e-01
-3.660075395097753814e-01,-1.766854534186746761e+00,-1.259024511010224501e+00
-4.236770400910466750e-01,2.665294826894498481e+00,-1.576017719484444912e+00
6.407444720507984304e-01,2.890867576795495886e+00,5.122068747700626590e-01
5.398088636790939754e-01,2.279186336683113989e+00,2.244961631718606299e+00
3.032924175253240429e-01,-9.799780222051818201e-01,2.008839165684434214e+00
3.911770315633670836e-01,-2.912620922344498098e+00,1.155269405809663946e-01
-5.523437971379091538e-01,1.626810756385139722e+00,-2.666588762208040198e+00
-1.810755693382458398e-01,-9.798096762714980645e-01,2.994556975155996170e+00
5.994438294376007725e-01,-8.810782389652491720e-01,2.148157360211556011e+00
-3.691519826952363026e-01,2.395881215394814578e+00,-2.083509160907594193e+00
-1.545217177776714579e-01,-1.366923677210347465e+00,1.837619196251035536e+00
2.246647642402545553e-01,2.152034513639606406e+00,-3.368208712351927758e-01
1.898823759690733415e-01,2.830159955712688635e+00,1.626561831131275948e+00
-7.716087020006244801e-01,6.964210155497616572e-01,-2.573896603482249912e+00
-4.391709033866745271e-01,-2.177957261425696789e+00,-4.833380581708386914e-01
6.157893267829643580e-02,-2.152823508910203465e+00,2.402372323755114891e+00
-2.149989094026041325e-01,-1.009964544346598353e-01,2.407138897879161021e+00
-5.934197064217963113e-01,-1.770128970094907883e+00,-1.453906351851212309e+00
8.137491554720025499e-01,1.267944873605147293e+00,2.251806305118719820e+00
1.913925190817734601e-01,-1.834227260606694984e-02,-2.400855812744445927e+00
-7.374848158475160176e-01,9.641911293266578475e-01,-2.556009901604246348e+00
-2.730335880371299595e-01,9.276404468506990186e-01,2.748283440591024807e+00
-1.852585914820710500e-01,3.138636552065443563e+00,6.495411383379811054e-01
-3.620059057747950781e-01,-1.143569886055704643e+00,2.492938225452539847e+00
-1.008265828084698931e-02,-7.728132901809792177e-01,2.044255769597541406e+00
4.171639794868973183e-01,-5.890671094030053290e-01,2.100324114775085071e+00
-3.216026221295401610e-01,-7.786217004692647103e-01,2.694779493570870432e+00
-3.261942113800257448e-01,-2.021425041037260062e+00,1.109795314148296352e+00
4.355482724072504697e-01,-2.358893833646341420e+00,7.248419429999507502e-01
4.242986137131973257e-01,3.021974070783711053e+00,-6.654684677183481112e-01
3.477551105926325326e-01,1.399290406912419016e+00,-2.549425152189696231e+00
7.506307886614868030e-01,1.609637404934406657e+00,1.842111827486305975e+00
2.787173727552924585e-01,-3.084344126343331105e+00,-3.552246008098167707e-01
-5.440956230661334603e-01,1.606184772617557099e+00,-1.718398172249447242e+00
5.053823076869554676e-01,2.376560927119674815e+00,-7.487352618286804429e-01
-5.071618327325005948e-01,2.473207888046632164e+00,-7.024163889432668562e-01
-1.545099164650537704e-01,1.704489370831673734e+00,2.594672812996040356e+00
7.202990115452422015e-02,6.205953165164425078e-01,-3.080006638667148966e+00
-5.896164720213803445e-01,2.104953676385836303e+00,-1.438011992060243438e+00
-4.650738203821803696e-01,-1.153556345282388040e+00,-1.878654309847244352e+00
3.471331005363547662e-01,-3.006461033430893881e+00,7.739590530857585193e-01
7.446836624305067653e-01,1.090996244182877106e+00,2.734812119139240494e+00
4.740975866151412310e-01,2.276869915981472037e+00,-9.960496886474405898e-01
-6.251709625563108830e-01,2.196060983773738595e+00,-1.683440368787440855e+00
6.718499664297926388e-02,-2.653656156156947166e+00,-1.748041243436288195e+00
-5.981854112547058122e-01,-1.925036281267498373e+00,-2.444050566721369222e+00
-5.536556627017568122e-01,-2.929013556731305368e+00,6.239969100026129256e-01
-2.239795458552419904e-01,3.131723857580636761e+00,-1.226112695369229316e-01
4.150042205012243191e-01,-2.563954788527556872e+00,1.603912402307664797e-01
-3.016429186225875747e-01,1.022285591307163788e+00,-3.087153340610574226e+00
-5.959124716072039529e-01,2.472586268413959232e+00,-1.285615654287743714e+00
-3.030910830747693963e-01,9.639602278653164324e-01,2.570154373860466634e+00
-1.961617055966560497e-01,-2.135338033181140904e+00,-4.825840507581430350e-01
-4.163447760093204053e-01,-5.534987813830470893e-01,-2.120101083900833849e+00
4.977722117508144306e-01,2.602067967970711937e+00,1.833931698277966982e+00
-7.038967437988025155e-01,-2.647278147875860022e+00,-4.714282972683104811e-01
-3.913532937650746613e-01,-1.687357353140142235e+00,2.065156325883792388e+00
7.233373950008423758e-01,2.070216900833848683e+00,1.424095414873938426e+00
4.912798197494396835e-01,2.815614571104533503e+00,-9.704294656215260995e-01
-5.847899026198368627e-02,-6.338490087457757660e-01,2.137945797511744406e+00
2.657807307017199805e-01,8.035511441155681611e-01,3.155083963882454157e+00
-4.408815471834445221e-01,-3.113814081776451914e+00,-5.823951647510643426e-01
-8.038331041375279540e-01,2.538290750422221853e-01,-2.836687639905137726e+00
2.826910256110670705e-01,-9.511453540141192597e-01,-2.653036410165118042e+00
-7.123088453096974026e-01,-2.084276269228929834e+00,-1.213100163400601117e+00
-3.802339975724158827e-01,2.556647186403967265e+00,9.652705906984055950e-01
7.695073351036392506e-02,-2.326313271964358886e+00,-2.121891473934724992e+00
6.732286361169828037e-01,-1.663392497812448800e+00,2.378595266697234756e+00
-3.702423043580749806e-01,2.630880560771135634e+00,7.023054743730355876e-01
-1.452009372734602496e-02,-3.053599475448879996e+00,1.019797446049182543e+00
3.770746583479385183e-01,2.013778784072499217e+00,8.729390612417775586e-01
-2.992400031414826911e-01,2.358546419623868129e+00,1.202697667468345610e+00
3.946431861101234451e-01,2.887594794418863575e+00,1.362930024507679194e+00
1.663237346353410584e-01,2.254784243412752964e+00,2.344913719921314588e+00
1.318629333923899971e-01,7.045261660148351979e-01,-3.049302386608033100e+00
-4.043657149611967205e-01,-1.810837615918123644e+00,2.123526016598586974e+00
4.277172132472191191e-01,1.356398260333709915e+00,1.675562775794758874e+00
-3.034358610563049341e-01,7.788093831359658159e-01,-3.156785899696425091e+00
-8.006526491948906532e-02,1.814606876138805225e+00,-1.204857239264009117e+00
6.829505045381514261e-01,-8.164652065077372400e-01,2.812105573029896277e+00
1.776460829271925973e-02,-1.805450056256272306e+00,-1.303359736609180919e+00
1.980107352566290169e-01,-8.234997246545313621e-01,3.144962171730944167e+00
-6.178421145335964981e-01,2.251570531350004956e+00,-1.328632545867980408e+00
-4.983320047292842947e-01,2.412377294862339649e+00,-7.796242470935770275e-01
-1.070453290196307222e-01,-1.478767504585954073e+00,-1.585350131713159971e+00
-2.863317398092955490e-01,-2.066631311857063391e+00,2.186580422669367252e+00
-7.212104220891883966e-01,1.130846730554003088e+00,-2.630697324050965680e+00
-4.292117818516720251e-01,9.481579736855707541e-01,-2.018473758672878482e+00
2.962128437788161817e-01,1.933082342332812953e+00,-1.251895200783385897e+00
1.000927252177293697e-01,-2.017950965413144893e+00,-9.671497740960421918e-01
6.254001110325532187e-01,2.491680397861067764e+00,4.914010279087057675e-01
-4.538321431141500994e-01,2.205685148781774796e+00,-9.410352389813666507e-01
-2.212754693068041123e-01,5.829564778779978695e-01,2.385072047062398060e+00
-4.789070278669167735e-02,-2.337179972445204701e+00,-2.229046820249930949e+00
-3.412730582720472361e-01,4.639950401871775765e-01,-3.210494865262204733e+00
5.276683126884070818e-01,-2.035341721102609802e-02,2.236999312163375109e+00
-4.335006198544194000e-01,-2.779157150139369925e+00,1.077201755786499904e+00
5.389506055581981536e-02,-9.104364932797159859e-01,1.983727606823708189e+00
-3.866239111056727351e-01,2.888271019648881222e+00,-1.127476494069810098e+00
7.845635719736866465e-01,3.539135325490300188e-04,2.585105134387478021e+00
7.241072759648233825e-01,4.402155230836876654e-01,2.346328896712102541e+00
-1.080192516502800348e-01,2.395125232602578258e+00,2.075484140341567141e+00
-3.055220449060975785e-01,-3.954534556314378002e-01,2.635805948667524934e+00
-2.982822952750759371e-01,-2.023224269385912599e+00,1.038059176979878595e+00
-3.089555123999592756e-01,-2.003340751278948062e+00,1.100733468044226671e+00
4.310631812091447745e-01,-2.429759191364328608e+00,3.265555834752654762e-01
1.459598296956875485e-01,-1.933790045248064082e+00,-1.138961433811476187e+00
9.499633401246702913e-03,-2.428014491334991920e+00,2.076355048859280128e+00
-1.566306209515249959e-01,-3.011332379293231387e+00,1.215162780677685905e+00
-1.744082667437352463e-01,1.524737499387811335e+00,-2.866345619924056898e+00
-3.012626671937054246e-01,2.895176757200644602e+00,7.601834881554130341e-01
-7.552461423955886266e-01,-2.506227491469015689e+00,-1.252756106452879825e+00
-4.364000449372649193e-01,-1.922612789634648545e+00,2.099601297665603106e+00
7.427740942509497568e-01,9.955252658094740359e-02,3.003680919883695122e+00
6.335022692411018674e-01,1.045367339984651256e+00,2.944275039358749346e+00
6.849603559875925285e-01,-1.366124847758785954e+00,2.554764011933577272e+00
5.340507967732796013e-01,2.306747318784602374e+00,2.140212421951836586e+00
-1.576681025374869760e-01,-2.244076159218364008e+00,-2.369200891961674049e+00
-5.645451453763626892e-01,-3.699286073444353895e-01,-3.154066815999216455e+00
3.834419100209656706e-01,-2.908878033307744637e+00,1.149328236019678151e+00
-5.441414367006133235e-01,-2.476677219806810992e+00,7.108098447054309599e-01
-3.013920467718539942e-01,-1.979098735190980007e-01,-2.148948652014418315e+00
6.400405945790167417e-01,-1.917552446386852072e+00,2.256807235009358870e+00
6.805613370997855016e-01,1.239496567586872988e+00,2.801028904915433326e+00
7.097299209574595702e-01,2.348893363608483220e+00,1.159590877945002818e+00
-4.897977362889690545e-01,-1.876396266757858866e+00,-1.228018021319511766e+00
2.604704593189332007e-01,1.949943620163601121e+00,-1.103496140156982719e+00
-7.920329083037436213e-01,-1.011726483803983889e+00,-2.284503954951376592e+00
2.404335396986376217e-01,4.289041030582597114e-01,-2.437144246020347627e+00
-7.175361309923300457e-01,1.136528487231565299e+00,-2.224248340274557645e+00
-2.316124701519539641e-01,-2.148839810004238959e+00,-3.279314782039995935e-01
3.478350590022538102e-01,-2.357596681881260814e+00,-7.747885149017177397e-01
2.356699899205239590e-01,-2.194651188226129701e+00,-8.887999708475201599e-01
-7.066975986749802763e-01,-1.276824304157517798e+00,-2.714420995193290942e+00
-3.223088166910089702e-01,-2.238401222889113917e+00,3.529725469354654810e-01
8.134431959576949867e-01,1.492553836013806423e+00,2.279243058479861528e+00
1.220232243922720339e-01,2.947293792216008068e+00,-1.470856541205638468e+00
8.571382191325753463e-02,6.933809386286052812e-01,-3.076115912778103478e+00
-6.513613778427281842e-01,1.220533430732634317e-01,-2.326925719685402516e+00
-2.996002560323928754e-01,-2.004412189616951334e+00,1.105205233641132656e+00
-7.532201256909833165e-02,1.898553632262680591e+00,-1.047936172204082306e+00
7.572883032755249877e-01,7.094393116051761483e-01,2.567403144545160831e+00
-1.378968216911628242e-01,4.799964451386504738e-01,2.261627539554801558e+00
-3.670344423733916672e-01,-1.749512345624322451e+00,-1.284963636064831327e+00
3.642700804598542758e-02,1.886623546039349897e+00,-1.094464026712494986e+00
4.049440309827376239e-01,2.122124330319725249e+00,2.446183891755799422e+00
-1.421497988886165353e-01,3.185293242537640346e+00,4.185959045622307251e-01
7.665288680510656816e-01,2.270140449227831425e+00,1.558026113435377003e+00
-3.498333404607007480e-01,-9.447880767844918370e-01,-1.973299538191058966e+00
7.181639276268840799e-01,-7.982808849484183122e-01,2.913172347108844207e+00
-5.796890231158143836e-01,-2.665058657325237057e+00,6.207654254443927266e-01
6.299611804972021778e-02,2.771629672253593579e+00,1.643664080188126375e+00
-1.819990762615695534e-01,-1.725489813875730416e+00,1.376371041120632022e+00
-8.174608148151700782e-01,6.587086674795215868e-02,-2.773176528415817188e+00
-2.640189527399365854e-01,2.165393245367824182e+00,-5.427466022955534930e-01
-4.924524738119716027e-01,-2.157203530154784055e+00,1.442633368785869674e+00
-1.281322359313008530e-01,-7.017670925756048783e-01,-3.176173518590732048e+00
-3.837789420764544102e-01,2.604697305863540979e+00,6.773026435904810905e-01
-8.390405099895960062e-01,-1.770094832005374874e+00,-2.107003813743729914e+00
-3.162231285743546949e-01,-3.198800320901491911e+00,3.227335230090787044e-01
2.518317556478290586e-01,-2.399281905077847998e+00,-1.569649109148351984e+00
2.302994239737841953e-01,-2.815715298728241334e-01,-2.465739121772228426e+00
7.057257244693903968e-03,-2.186859734249294362e+00,-5.768683990400406969e-02
-4.598856694934720934e-01,2.810469447772787177e+00,-2.382052337023818633e-01
-3.740685304446723092e-01,-2.230312687169626606e+00,-2.384781500731117276e+00
-3.431568573960627755e-01,1.935883765074318141e+00,-1.159318058132804419e+00
-6.807811975351879541e-01,-2.304350168613456429e+00,-8.644027160631287954e-01
1.995549967201515063e-01,1.351522859790052156e+00,1.658777051878542741e+00
2.222389734297115782e-01,-1.999892888173052663e+00,-2.310665964894496049e+00
4.288703662122651528e-01,1.823979610323400502e+00,2.635912097146515531e+00
-5.813533313249628909e-02,1.299171541468037372e+00,-3.020229655330213703e+00
-2.208053999024878478e-01,3.088599513737852131e+00,5.191377746823360173e-01
2.680112677390033005e-01,-8.458270305619515206e-01,2.021992343702350148e+00
4.103246444512183566e-01,-2.679661769094691337e+00,-6.175816089464983838e-01
5.240532396510771962e-01,1.469623258339144867e+00,2.833719395257749074e+00
-1.943994001007151118e-04,1.839659614900506668e+00,1.333881700655040525e+00
-1.963149996833624955e-01,-2.178235798406141122e+00,-2.387935719333670548e+00
6.435871262056528375e-01,-2.067498687373448885e+00,1.944689105246206751e+00
-2.778748540021366287e-01,3.063829206012948170e+00,3.885733303761123580e-01
2.328749322967194890e-01,1.384013647893491017e+00,-1.943856833894608949e+00
2.326918898765644450e-01,2.575771437181944012e+00,1.970134368990796192e+00
2.647557425421797131e-02,-8.906970350252561008e-01,3.074989312090284699e+00
-4.993901657795444815e-01,1.267994128969673007e+00,-2.920230966485589441e+00
-3.696159784153246058e-02,-3.214475912785569545e+00,-2.752408995261876323e-01
-1.878291096484061007e-01,-2.123521944469032974e+00,-4.020559492045867600e-01
3.251444028944576736e-01,-8.057762185529789845e-01,1.985072121295351932e+00
2.721103925440281901e-01,2.097780065854142340e+00,2.431752365005690031e+00
4.942249287342525554e-01,-2.658135976051217320e+00,9.609093860294493084e-01
-2.334280432649807058e-01,-8.093163039836147599e-01,-3.158330934574958615e+00
-5.642984189472165513e-01,2.192025648175092378e+00,-1.335952146015728870e+00
1.363096920091571573e-01,-1.521984617793277650e+00,2.901883311716485281e+00
5.882042979570759750e-02,-1.370668168931042930e+00,-2.813292582592778146e+00
-7.353838948630803118e-01,-1.327420015470300640e+00,-2.632287452577370956e+00
-4.550687553176502864e-01,2.749035437696257134e+00,2.307989420259930462e-03
-4.705396336541848301e-01,2.475063461207476667e+00,-3.584038624968778897e-01
5.065418662036017539e-01,2.114451410942703280e+00,2.430985692849581437e+00
5.297890356715494464e-01,2.534771843413119452e+00,-1.287204072172792868e+00
-2.327796755399958173e-01,-3.153378428687512725e-01,-2.180779319060713650e+00
5.597189613923071461e-01,-2.494110547658976440e+00,1.203306698010881526e+00
1.735118130101628853e-02,2.046825647756757682e+00,-7.582514215957675274e-01
4.714561345883896970e-01,-5.537015348553453453e-01,2.137548431363005541e+00
2.132977583948293399e-01,2.668149717739822346e+00,-1.689353360760232681e+00
-1.334586963896537345e-02,3.603142326946032203e-01,-3.178545052318916930e+00
-6.738049837969316558e-01,-2.468159567483960704e-01,-2.403711004348075608e+00
4.194877342135044929e-01,2.226721120703794909e+00,-4.808991361242946905e-01
-1.566658111950272256e-02,1.220730995434630817e+00,-3.043511964501906419e+00
-6.078520747719382694e-02,-2.164478426160724833e+00,2.459106848297495374e-01
-6.081758301558483071e-01,1.338057170741698387e+00,-2.019539275855463778e+00
2.835187278106807152e-01,-1.568719699216750030e+00,-2.078790709533414383e+00
5.700533204140763033e-01,-2.178073941806895952e+00,2.026069507596826025e+00
-2.590015953661358727e-01,1.674914844606390618e+00,2.378067129424318082e+00
-5.507653419299353148e-01,-2.242970767923335718e+00,-5.834741477926684849e-01
6.830356902077103776e-01,1.945278444437535281e+00,1.348725239839835499e+00
-4.085159770903772358e-01,-2.784335678420963411e+00,1.364314864352291323e+00
6.393639057108988499e-01,-4.718068637880142857e-01,2.321822661795976295e+00
-8.167908722201074889e-01,-1.788051991179433031e+00,-2.184359199904552629e+00
-3.040955382833405718e-01,1.314397401509909136e+00,-1.803958163103976720e+00
2.370445360572681626e-01,2.618141617275038802e-01,3.275048625377106060e+00
4.638797426332195717e-01,-2.566601132576382671e+00,1.309103382868279375e-01
-3.790216097494815695e-01,2.437597322699179614e+00,8.836693836889570886e-01
-7.797013498318691171e-01,1.926404107241569963e-01,-2.730825597975668817e+00
-9.451438993720417958e-02,-2.887576042630811468e+00,-1.440159583247497821e+00
-3.992469208153036631e-01,-2.295612264998996732e+00,1.932013972121194634e+00
-7.500531421771697849e-01,-2.477881917921592070e+00,-8.973812994265687459e-01
3.109854086842429588e-01,2.456425821863982950e+00,-1.855324590219347813e+00
4.918541776876295124e-02,1.945449682273214354e+00,2.540108604248034752e+00
-1.254557337212925394e-01,1.762302235544468632e+00,-1.226252285098239359e+00
-2.804704670688173973e-01,1.612074754836952284e+00,2.382120654640025759e+00
-3.860390951827338823e-01,-1.602562565060882127e+00,2.132383355017887894e+00
7.534347433139720884e-01,2.153482480209542693e+00,1.841037686509361837e+00
2.971732359516352506e-01,-2.766744636324319551e+00,-1.082104977595320427e+00
-3.112883836090149514e-01,2.325549837786923923e+00,1.542609985458955668e+00
5.614299478888643558e-01,-8.598466271418767626e-01,2.969385614068355661e+00
2.424361903224595549e-01,-3.128953267857048193e+00,2.041051331979465699e-01
4.252956970974212103e-01,-2.876835834177124962e+00,1.164302186733274569e+00
7.695532703052770929e-01,-4.986591463926562384e-01,2.545782555855355955e+00
-2.017750504785769672e-01,-2.213420813694714440e+00,2.282349245260537618e+00
2.946798955520730789e-01,-3.571816924770582213e-01,3.260987212342277619e+00
1.428971278728312366e-02,1.773058389654680989e+00,1.283491122476509982e+00
1.148436125702056720e-01,2.170397039684833107e+00,-1.513943072245919896e-01
-5.995869408954231927e-01,-2.782781503981740734e+00,2.988611322018747685e-01
-7.944981860420141651e-01,4.208677812316925504e-01,-2.751813652278187750e+00
-4.171339959612054837e-01,2.563406695391987178e+00,-1.390343365416680729e-02
3.329984929454160025e-01,-7.471017611188578433e-01,2.063960866181799414e+00
-5.255111411648324404e-01,-1.002852847488124866e+00,-2.029497536081045883e+00
-1.898769428467654563e-02,6.796603873851581046e-01,2.127510209318613565e+00
-1.647865762754363861e-01,1.007081908252633218e+00,-3.063204940926446795e+00
-3.844661411026653042e-01,-2.157984362781715681e+00,8.170149376428070820e-01
-5.485664412212549745e-01,1.733122847991633020e-01,-3.180787891779501830e+00
