6.189298450679874719e+00,-2.833066767127585983e+00,-4.480027689923629097e-01
5.618319396003322197e+00,-2.313299519421472716e+00,3.624887988954168527e+00
3.726844154453409441e+00,-4.882658220401423499e+00,1.869216117385938403e-01
-3.574707348708606514e+00,3.658795033374843797e+00,-6.917220691577923297e-01
4.386847391547467057e-01,-2.962943641368014358e-01,-4.820362168784646961e+00
-2.709451833753387384e-01,4.060448512195495852e-01,4.865862350745149278e+00
1.096043847157265994e+00,1.218823459918030316e+00,5.652916104184612323e+00
-5.106311565647776440e+00,1.904521642926698455e+00,-2.738303485441243357e+00
-1.977855412689639047e+00,3.403020125553324782e+00,6.551253178567931101e+00
-1.977282402265349459e+00,1.123160237787247606e+00,4.492487434850536587e+00
-4.454684418452214523e+00,5.396590556902844504e+00,-8.447201316432333129e-02
3.804270327920170391e+00,-4.905755574807459496e+00,-4.037706949988284499e+00
4.352964589390814071e-02,1.711931826613354302e+00,5.094408443711294865e+00
-4.119819929084361121e+00,1.818565998196765232e+00,-2.769141343265182353e+00
-1.800647716301323698e+00,-8.277028205704035635e-01,-5.677254046445941782e+00
6.154754522495169411e+00,-3.595431927438400344e+00,3.530718293484965908e+00
4.197681840250298890e+00,-3.616579466745577065e+00,5.683204492527456075e+00
4.924590532083024996e+00,-2.127125014111944878e+00,5.451790542428222253e+00
1.457078241059702961e+00,-1.024179131807264387e+00,-4.673819351958316659e+00
3.505720588403720139e+00,-4.454543702110425052e+00,-6.105118315993488531e-01
-2.002082980481439289e+00,1.119296166202432774e+00,-7.660889980887032102e+00
1.466985041096701414e-01,-1.686639962149708794e+00,-7.716192444043049825e+00
-4.895829407743477191e+00,5.430940219037266203e+00,-1.348529342564557476e+00
6.046808207936250845e+00,-5.286173113151165559e+00,-3.067144847738041413e-01
-1.718125455278392222e+00,1.425018227694277773e+00,4.318435747543595937e+00
3.026202574004207779e+00,-1.068081387122323145e+00,-4.640716748985035167e+00
1.316389222611316079e+00,3.775452332499087404e-01,-5.953306120322490180e+00
-3.546651877211297155e+00,3.908077946916821865e+00,-1.898101065515397368e-01
-1.328161965222276031e+00,-1.929099231346915466e-01,-7.845865976537472086e+00
4.324459870018293906e+00,-1.282828647830760671e+00,5.980212297272152533e+00
6.194777688397687498e+00,-2.875899697233016195e+00,1.895424424651248607e+00
4.419087117073876136e+00,-1.976211769011450237e+00,2.177384152948241614e+00
-4.187127337242347203e+00,1.719494667974023949e+00,4.827066792095960679e+00
-1.876849736783061218e+00,2.678754661739813692e+00,3.729025569292445219e+00
-3.974567168507197490e+00,5.105434323798559326e+00,-9.942951412125838884e-01
4.784105352836604652e+00,-2.038001875416119990e+00,-3.350209979124273652e+00
3.427626279998293501e+00,-3.649053096886968994e+00,1.246057946140136208e+00
2.593165374148449498e+00,2.828964047793220415e-01,6.800546932126676936e+00
5.584157457311904160e+00,-2.670479702266536748e+00,-3.243679432945974384e+00
4.996495402280971554e+00,-2.379500338072391585e+00,3.244056916300497306e-01
1.212803263613420279e+00,-3.301645904078872817e+00,-5.341189033391255059e+00
4.378741598659504852e+00,-3.574690113648876011e+00,5.654763864735739887e+00
-3.110639543677254260e+00,4.132628356448944551e+00,-3.238735055181910294e+00
3.724331204691583963e+00,-2.978200061103240870e+00,-1.029428532886711656e+00
2.100110520631274014e+00,-3.133765563546022204e+00,4.814023810080627186e+00
-2.186927681465569151e+00,-5.547761808636928610e-02,-7.340455743889195972e+00
-5.571241140122782376e+00,2.410123969791652332e+00,-7.643465429501004049e-01
6.398618411900203640e+00,-3.148276091033221480e+00,1.818843464923053821e+00
5.244391204841662990e+00,-1.921825931697060286e+00,4.408425844726936660e+00
-1.860010264867867580e+00,5.053304342456736986e-01,-7.754658188246018824e+00
-4.535236844870500938e+00,3.178167544927540611e+00,-5.880233579810576039e+00
-3.490445060001306388e+00,3.233191191657813768e+00,1.406385219877297255e+00
-3.437126204194461021e+00,1.872323002678272230e+00,3.467520063631382765e+00
6.355728442968521241e-01,-2.837970987838002390e+00,-5.546152782886510479e+00
6.366131435335958599e+00,-4.006309947032165475e+00,2.652533554461438570e+00
-3.892698620790820740e+00,1.981034692975505385e+00,-2.668756995271644339e+00
4.836441082164379068e+00,-4.965404262443439798e+00,3.190480690948103604e+00
-2.843774950131139789e+00,1.937326995957423970e+00,-3.430347386946335675e+00
3.619165545159563013e+00,-2.329334262391128618e+00,2.322927884823179134e+00
3.677071256596017079e+00,-2.029330835445135595e+00,2.682323461703747913e+00
2.093007330659099718e+00,-3.045966351985442078e+00,6.305161155300230469e+00
-4.574131418068184907e+00,2.496414251967860043e+00,7.311024461440392974e-01
-1.561860729967291306e+00,2.594438847416077554e+00,-5.020619014726470652e+00
-4.050531390271311594e+00,1.884824394328037611e+00,-2.499458252469787034e+00
2.042644037344438335e+00,-8.637884336829785292e-01,-4.667874351583949810e+00
-2.220186680290634929e+00,-1.341434591143987887e-01,-4.977378353834698288e+00
3.488338534806485924e+00,-4.403762624998773134e+00,1.734629115858284276e+00
3.263052852557745798e+00,-3.266730424757668505e+00,1.959971388947762572e+00
6.413420281835710002e-01,9.818247477133795753e-01,5.071755121445007397e+00
-7.051617374962072526e-01,-1.206848780712195257e+00,-5.269866842735948076e+00
7.660765752244224069e-01,8.294376956163040937e-01,-5.803739235011225794e+00
5.023789585532727031e+00,-2.133885362866039248e+00,-3.637603661356173745e+00
5.554701640779072136e+00,-2.545150027249621694e+00,-1.933541816706976224e+00
-3.445055756558222715e+00,4.862962742930514892e+00,2.773798961706904542e+00
-9.518747982136166463e-01,-5.268838431880898954e-01,7.253204563797958748e+00
3.680845416546494775e+00,-1.277187158312566462e+00,-6.021310969170057703e+00
6.502585160721048751e+00,-3.811280923284439570e+00,2.056182324055577215e+00
4.695352274628960210e+00,-5.535030342330643727e+00,-6.062255564797982554e-01
2.978370603952464446e+00,-3.993007518355658370e+00,3.908645497603643992e+00
-6.574426403228116556e+00,4.348597260258870278e+00,-1.772362913085849367e+00
8.557766869568262935e-01,-4.551534759677249298e-01,7.952437942969277529e+00
6.587768785662080795e+00,-3.676765777744221975e+00,-7.011542989525189062e-01
5.127853762812441651e+00,-2.386800256286036870e+00,-1.585557022747325018e+00
9.919431592019204436e-01,-1.764936201490504564e+00,-7.796356978644784164e+00
4.565631475802526040e+00,-2.268070091160863111e+00,1.219697443722560726e+00
2.938729179438063888e+00,-2.178896439625294779e+00,-3.169453513065768835e+00
-2.434898600985969885e+00,6.688227814508461710e-01,5.190810809527667935e+00
5.970327898122472554e+00,-4.615865468069497268e+00,-2.485667334202724010e+00
3.575369187851067387e+00,-4.551170728455476322e+00,3.511030785390651499e+00
3.462593531511246159e+00,-4.357307928727428781e+00,-5.329107021582331072e+00
-3.076968751547496606e+00,3.354752562821775808e+00,-2.369732928728055299e+00
-2.365645632593758485e+00,2.739652878877738118e+00,7.141389475906381179e+00
6.354343369411502351e+00,-4.713040723348192351e+00,1.408033034706671405e+00
5.635283543721616439e+00,-5.204687379203714492e+00,-1.853037737467803314e+00
3.714277268554629252e+00,-2.319878525040355299e+00,-2.361977361639013839e+00
1.498294715877156680e+00,-8.083843565525991037e-01,4.607125781824186639e+00
-5.584505843055654672e+00,4.171226943227149597e+00,-3.983278043622543674e+00
3.624259318502552674e+00,-1.861208642006976222e+00,-6.448785966936330993e+00
4.522337053378463700e+00,-2.216545699891258270e+00,1.669222292533419472e+00
7.826795317580548250e-01,-2.220233569561629761e+00,5.844756925405708792e+00
6.736432352742036223e+00,-3.971959939622260904e+00,-1.829896301268917891e-01
2.935813794638570950e+00,-3.791016209696962402e+00,2.941732162243272608e+00
-4.627150661738723691e+00,1.792380580283429836e+00,-5.664814024994904607e+00
-6.059511693082843209e+00,2.895485967538707239e+00,1.752519041354354101e+00
4.201196991932109270e+00,-2.648785572216389106e+00,3.635859000303017785e-01
-1.381778420701057719e+00,2.058417666456956230e+00,4.307850831464280716e+00
-5.672220334654297424e+00,2.342860686713871932e+00,-3.779322538497150941e+00
-4.342367565107979055e-01,-9.151975936712393178e-01,5.478032137424904136e+00
2.688995119612118234e+00,2.763736295403263488e-01,6.470656023568199799e+00
6.374318929702928571e+00,-4.081041132190160070e+00,2.137442538953193250e+00
-1.212483935151486447e+00,-8.575606812857291539e-01,-7.686959225028987319e+00
5.193817068903886280e+00,-4.315279551773683941e+00,-4.288168245363743303e+00
-2.191327964767614045e+00,4.995773228777108943e-01,-4.490892063833634040e+00
7.839325926551121704e-01,-2.727240152882454138e-02,-4.999057570581770804e+00
-4.820953783501143342e+00,1.636401857290727957e+00,-4.701011482730440783e+00
9.616048749224698211e-01,3.356295897263577022e-01,-5.585189404261459600e+00
1.129719939076439861e+00,-1.050376023756328658e+00,-7.827180556026959835e+00
-2.057281582306825563e+00,1.711230673066546304e+00,7.550529269978920155e+00
6.363214359426312861e+00,-4.175708429126995469e+00,-2.002031378797663130e+00
2.269529613642343069e+00,-1.870833605865778848e+00,-7.413603123403358808e+00
-5.180078336021777474e+00,3.327433181827052167e+00,-4.982154204410953469e+00
2.480315592624994014e+00,-4.117386165665311459e+00,-5.594511458524922709e+00
-3.949522233769729773e+00,2.853112371172980222e+00,-7.988924481780354525e-02
-5.125733397996480534e+00,2.321218313833711466e+00,4.163754731457051328e+00
-3.347351223926342545e+00,2.979537077261498190e+00,6.642138151136741442e+00
-2.007264799377204589e+00,3.054073058630561999e+00,-6.104799119028005983e+00
-2.705003089210838763e+00,7.095210464181695986e-01,5.099125003989342098e+00
-2.942908189777339700e+00,8.966576766314854341e-01,6.333025695514377773e+00
-5.488723203647348114e+00,2.548633015503225963e+00,-4.837986974342445734e+00
-6.254903197875499643e+00,4.070880291629312531e+00,-2.402855153427755130e+00
-5.634209722140273158e+00,2.331996477528083034e+00,-4.424339677065566079e+00
3.120385752192377904e+00,-4.410084412545614896e+00,-2.210693885325706987e+00
-6.499567574638004608e+00,3.144064216430335623e+00,-1.201243244176677605e+00
2.583523004967367420e+00,-1.764009416864336544e+00,3.684510289053822607e+00
2.590111469223893348e+00,-3.757489214469039052e+00,-3.134577554653819931e+00
-4.414473951823086217e+00,2.507999727212260499e+00,-4.802895456352262310e-02
5.368034637835433998e+00,-4.666865926420436850e+00,3.472867753943914781e+00
-4.081226293161808627e+00,1.607213273611478144e+00,4.877585896593285675e+00
-4.709294946708512342e+00,5.472786511744190285e+00,2.176805698331608419e+00
2.789167727687337450e+00,-5.769350999417126591e-01,-5.617043783133755852e+00
4.045560112149792609e+00,-2.226156399233170990e+00,-2.281934982738277107e+00
-7.579986565603397120e-01,2.731877342759503335e+00,6.805394599512395892e+00
-6.045866644149228364e+00,3.035654918911352862e+00,2.586089527467331450e+00
-3.335310663930941111e+00,3.076111127863015771e+00,1.664657516538397886e+00
-3.345602101686569463e-01,-2.964276519046770697e-01,-8.003981605317196824e+00
5.650163376486217359e+00,-2.465886562929713754e+00,1.350412326907666494e-01
3.904924021863084072e+00,-1.646836772708875740e+00,-5.831240384885408190e+00
-4.135950557127826777e+00,2.126754436458711872e+00,2.827643643538446216e+00
-3.414192196019259384e+00,3.844975832995323639e+00,-6.836626293989214176e-01
2.182619992742157677e+00,-7.535366914165501084e-01,7.681297596864127719e+00
-6.287860339274421229e+00,2.920139095996041156e+00,1.422344842283464472e-01
4.453956229747854323e+00,-2.032335497119296175e+00,-3.196070234675909116e+00
-2.773416571128413999e+00,1.216852067182492281e+00,-3.892321011224963989e+00
-4.033084912028446212e+00,4.309291109939055175e+00,5.186713831256597906e+00
9.917428889500175260e-02,-1.531382542541385838e+00,-7.762723042333451673e+00
-3.159293364935934267e+00,4.758779210819732874e+00,4.149060080607680945e+00
6.639373985664001054e+00,-3.699328148022948515e+00,9.259869828610093334e-01
7.897663713444170730e-01,-8.622675214503043861e-01,-4.678113499760596206e+00
3.143115976223907371e+00,-3.560181328879088891e+00,-1.714177290843867274e+00
-3.213145442064120783e+00,4.083944542331628291e+00,-3.273815561271248953e+00
-3.110406209421191726e+00,2.572208939731744248e+00,-2.671728378169895279e+00
6.393260208615543227e+00,-3.444925992775972112e+00,-1.393838602082699607e+00
-3.450027640608115398e+00,4.428847432179606081e+00,-4.089317528051933159e+00
-4.771092812406287464e+00,5.283850374285642637e+00,-2.022426407166904916e+00
-5.462400191969913443e+00,5.223491756954152798e+00,2.307692248657608136e+00
-4.613469307122046281e+00,2.043486974318055260e+00,3.525030490924867532e+00
-4.921186313595397266e+00,4.529250854413793270e+00,-4.167653323093826856e+00
-3.438046370931507667e+00,2.504286667253057264e+00,-6.814533860907268092e+00
-2.381625685750739407e+00,7.231022821207497842e-01,4.804441391301986997e+00
3.811584201589189203e+00,-2.925653872687207890e+00,8.452018318402609864e-01
-1.993631416053226912e+00,-6.984141677036340701e-01,-6.993875613654593870e+00
-4.598754830161101204e+00,3.416468510730771957e+00,5.400848474945552979e+00
7.045832069210581361e-01,6.250359983948818865e-01,-7.331768412664281698e+00
-3.796423753545218105e+00,2.703046689914723633e+00,1.464247179355874007e+00
-4.488760640530052193e+00,2.806652888750603481e+00,5.752251303330278454e+00
-2.702183813166141757e+00,1.245320308696357792e+00,-7.515759075735937600e+00
3.926260939969936636e+00,-2.915920195509174029e+00,-3.042049770640422590e-01
2.879499659917194698e+00,-4.056021559668850252e+00,-2.981710402674625726e+00
3.059587496457527589e+00,-3.854276029068659071e+00,2.674877068317826900e+00
-3.193699407649499999e+00,2.573785828565852363e+00,2.617529841511925248e+00
1.110049145319249808e+00,-9.479088514736968563e-01,7.834525832961930725e+00
-2.578414556965134885e+00,1.878109327876993806e+00,3.754890044938137716e+00
4.510169506598331601e+00,-1.882814340847609680e+00,-4.386578237009485903e+00
3.327538534757256805e+00,-4.078975039220894772e+00,1.736950389666646499e+00
4.746543696647825272e-01,-1.936275783117339611e+00,6.271283994003167273e+00
2.207273409020255706e+00,1.733190412451895424e-01,7.315725795006540189e+00
-4.725489699504623609e+00,4.489960995449480130e+00,4.481500815335552446e+00
9.334959555154669353e-01,5.686349487958661242e-02,-5.188576495528852917e+00
4.050991915657662368e+00,-1.773224649205776382e+00,-3.534184156858565018e+00
-3.775007560127854322e+00,5.067675436781033049e+00,3.490727048135089827e+00
-6.808680550579181423e-01,2.719883825746778339e+00,5.379214278532217897e+00
-5.191298059527208686e+00,2.331349942410077425e+00,-8.711854574491703085e-01
-8.273764138941580581e-01,3.031631488053194268e+00,6.601279843248126333e+00
9.819873913649375119e-01,-1.433500596824289319e+00,7.468046307240922665e+00
-1.247755984055858081e+00,3.334304862253449020e+00,5.060762071047444799e+00
-4.816989978946990547e+00,4.212740674209585201e+00,4.885552397544441483e+00
-7.360103626298427626e-01,2.138351971758865488e+00,-5.918567513208561337e+00
-9.771883584336775730e-01,3.215567404281744590e+00,6.205000821082609974e+00
3.831657273673253705e+00,-1.625877940117618436e+00,-3.843424492793686920e+00
6.546122755515529690e+00,-3.689782396310531176e+00,4.160984705693555052e-01
-2.848994031404239013e+00,2.966887768399902647e+00,-3.047315210340726388e+00
-2.306014320748147828e+00,-3.537547150072302693e-01,-5.386675545564205692e+00
-3.151059470790260164e+00,1.518186647623026297e-01,-5.360876163972842612e+00
4.276688624474912714e+00,-2.009619247374954121e+00,-2.911965547427971757e+00
-3.028712941621198862e+00,2.927171006736645431e+00,-6.468762783153053419e+00
1.842623368343859536e+00,-4.397860389756440558e-01,4.556125671239941610e+00
-3.795176029977330057e+00,2.521888919600850709e+00,1.741100859630182685e+00
-3.531235826347627338e+00,4.585291330595733683e+00,-2.580555484729187388e+00
4.779127902064710831e+00,-5.380746137121955819e+00,-2.573029504408273826e+00
3.050756693459967472e+00,-2.839682411028088271e+00,-2.640861446702494675e+00
5.838602943296341330e+00,-2.756317718066797262e+00,-9.743342051117647173e-01
1.951619899277473147e+00,-2.522105130298624598e+00,6.806377669244652928e+00
1.418473025110559949e+00,2.627004758755722147e-01,-5.923368735243629501e+00
5.036472271379042631e+00,-5.019677701063128161e+00,2.746054889188885628e+00
6.504235026945514697e+00,-3.430056551766365036e+00,-2.353436980432904030e-02
-4.990764613995136045e+00,1.650122321921880797e+00,-3.638082993704807588e+00
-4.747978020693961021e+00,3.765531471323632307e+00,-5.239491971905149370e+00
5.735253952589514093e+00,-5.350188678122288266e+00,2.634657871126866446e-01
-4.385034894884801027e+00,2.333705927535449032e+00,-1.310794577110677706e+00
4.218531756641904273e+00,-8.735977515611208499e-01,4.915104109351122297e+00
-2.526651931699316567e+00,1.464349187332679936e+00,4.087216097878524579e+00
-4.023470204623403212e+00,4.990801733679871788e+00,-1.283832369367196913e+00
2.552900416205389877e+00,-1.576714921755319354e+00,-3.957054743304424527e+00
-5.055813370913493365e+00,5.403872535008796163e+00,2.162339529032148988e+00
4.310281325252667273e+00,-5.369653160115713142e+00,1.342713475536437828e-01
-9.812758339614457981e-01,1.953496031483392903e+00,-5.279111428087569280e+00
4.529217603410298665e+00,-1.542588878008519293e+00,3.508945604280246044e+00
3.296019027915720212e+00,-3.543157216724294845e+00,1.900296960415882142e+00
-3.638655484134821982e+00,1.875444096447209663e+00,-2.974444691041007616e+00
5.068200972309218955e+00,-2.440339673561037426e+00,-6.293045385741543596e-01
3.773061198476861389e+00,-2.686574073422498987e+00,1.431080341904969577e+00
-6.778108988162810933e-01,5.491040304906461000e-02,5.061205965689206998e+00
1.057681342333916863e+00,-2.782819884292822898e+00,-4.704540534746925573e+00
-1.521598891838647383e+00,3.120263980102339296e+00,6.666395561557733274e+00
-2.673722772449206531e+00,1.636268179289416036e+00,3.817359692865745835e+00
-3.568318540839867659e+00,3.562324487332003464e+00,1.051764620493286229e+00
-2.373233134513728526e+00,3.149166818561158210e-01,-4.747761705565512358e+00
5.989525816020663918e+00,-4.112722045520111891e+00,3.314852576472023138e+00
6.411966205083377210e-03,-4.432337223425088513e-01,7.907240288604437950e+00
-4.426010130460636738e+00,4.542765461393782012e+00,-4.305048760612577574e+00
3.187616300591360030e+00,-1.804642701974374930e+00,3.324617946099091892e+00
-4.131142365004592421e+00,4.119284938443951383e+00,-5.031164973909375782e+00
-1.119056378606853253e+00,2.326334724510567220e+00,-5.483718082365285795e+00
-6.358369851388878224e+00,3.198277683585251996e+00,1.538357954614824052e+00
-5.841716409725398407e+00,2.445679594079307684e+00,-1.383638875543869329e+00
3.481711733311695589e+00,-4.669423982790046779e+00,-1.881358521009582674e+00
1.854196797406978181e+00,-3.644782439862590095e+00,-6.129048786754800915e+00
-5.505366575228008985e-01,1.142341249569209793e+00,-5.028535794713978824e+00
3.257666965799427050e+00,-1.985783321858368478e+00,-3.417182267461899237e+00
-5.894647515809709581e+00,4.156826778088084318e+00,3.473322325933712040e+00
-2.526129714034897944e+00,4.228049786104786989e+00,4.907247851131156580e+00
2.582334242256679513e+00,-3.702122461314750979e+00,-2.896785915825071278e+00
-8.930681345786800618e-01,-5.609396969383924070e-01,5.754605779368568541e+00
5.552859189865778866e+00,-2.421754661566851485e+00,9.412573708386196003e-01
1.601551228892833745e+00,-3.097665730598739398e+00,-6.693383557494488656e+00
3.389034092818567157e+00,-3.135363533852883577e+00,1.596715123511448953e+00
3.958428671881596639e+00,-4.874074956513584134e+00,2.648143276268421165e+00
-2.972707573861339991e+00,-3.315675260731709012e-02,-5.551683892242107454e+00
5.486288609451401399e+00,-3.686485766783468954e+00,-4.404430538205836854e+00
3.920161334583980750e+00,-2.482080479435447629e+00,-2.001331944123236894e+00
-2.919372698563673652e+00,4.289200516637116323e+00,5.414724919793711067e+00
-6.530239035207500820e+00,4.431380545049391273e+00,2.444634516203058119e-02
1.686126073857357355e+00,1.600412910381847909e-01,-6.655168538915321008e+00
5.478632792178625088e+00,-3.903875941008942085e+00,-4.177795988911272573e+00
6.376039114718008882e+00,-3.047265306190706458e+00,8.476142501932160123e-01
2.844765798023159320e+00,-2.069256771793890337e+00,-3.523962119961838724e+00
-5.107456666997562067e+00,5.081679823921907868e+00,-2.861337125996675557e+00
-6.192642599307825790e+00,4.921492070866468893e+00,1.438968867987272304e+00
-5.730296981476326046e+00,4.992839883580617588e+00,2.614508689096322946e+00
-2.646515520949447531e+00,4.208182037673030784e+00,5.329251547430494895e+00
2.407891235296163224e+00,-2.623315243152574805e+00,3.700577884768492698e+00
3.486249712605737461e+00,-4.200112750644404258e+00,4.882558427849915894e+00
3.207025469740833579e+00,-4.257341081092977042e+00,-1.683962306710677925e+00
-3.160952066819548989e+00,3.455433096903138601e+00,-2.406557155029688477e+00
-8.182676839802363045e-01,2.124899243085992318e+00,-5.978508733068045089e+00
-2.987803405675870660e+00,2.592063468092016820e-01,-4.790528233454895535e+00
3.343698916022122436e+00,-2.787799701177950507e+00,-2.212302929483771941e+00
2.590453115300276110e+00,-3.627584356477804750e+00,-6.511412674043686621e+00
-2.698124067971838347e+00,3.907311437846967550e+00,5.993497646454473582e+00
-4.094645625660406907e+00,1.524748880857398126e+00,4.806790884344030346e+00
5.402244215375826997e+00,-5.109572587823911327e+00,-2.802689296806658792e+00
2.817441249645245449e+00,-1.168372578269510464e+00,4.031627778793017036e+00
3.790503605213650928e-01,-1.747606705478360167e+00,6.788092684012725364e+00
-4.608784982518973727e+00,5.477147401508439373e+00,-5.735656772946927662e-01
-1.594326540463154807e+00,3.557296927505144257e+00,5.581564366015691725e+00
-2.690378956699364110e+00,3.705843453304345836e+00,-3.822696839125212076e+00
5.451396054209742381e+00,-2.500199515237893966e+00,-4.676809806144142656e-01
-2.670930548583049013e+00,-4.394041116424204918e-01,-5.874869460526984000e+00
-2.084230157073444278e+00,3.045697563237040661e+00,-4.399526500391165662e+00
1.191079360556877687e+00,-7.288848795925401136e-01,4.645431395315974044e+00
-2.937591753295606622e+00,7.354597336045695100e-01,-4.336593382953635611e+00
-3.261211754835703136e+00,4.162195860707034178e+00,-2.776099825084221706e+00
-2.851108151827622450e+00,3.373618520727056591e+00,2.415160444000712392e+00
-4.849616922837989286e-01,1.079896746393611329e+00,7.886308635525329791e+00
1.640746764192622553e+00,6.816883092797741683e-02,-5.678765245797230854e+00
-1.783579736042074204e+00,-1.422553922509978419e-01,6.507525384590763018e+00
-5.099575554195458160e+00,2.778903548319290095e+00,4.523058082713537154e+00
-3.477817126278769155e+00,4.579623877526222131e+00,8.266462509751187904e-01
5.111063396249195812e+00,-2.330881767569381147e+00,-3.586577560638366524e+00
-5.137505745235404042e+00,2.062118445589387061e+00,-2.488284036156208856e+00
-7.110465757538535492e-01,1.995166895347628477e+00,7.594318115193946284e+00
-2.862454885410021799e+00,4.554319421537578183e-01,-4.550284676761739533e+00
-4.443968610253717699e+00,1.683529956640859471e+00,-6.175776435988153956e+00
3.040856875179281271e+00,-1.629655974418585229e+00,7.225669461571220253e+00
-6.425159072643994662e+00,3.110175776650190294e+00,-1.511633677472223880e+00
3.895026589231349590e+00,-2.309861682546733075e+00,1.918409366119593340e+00
-1.041275038464193115e+00,-1.638155758148727159e+00,-6.747620245103422398e+00
-4.070752688034207090e+00,1.506415459265409318e+00,-6.498335456702892365e+00
-6.769641646170583282e-01,1.433682634574575232e+00,-7.361676938497264899e+00
3.281846064648147321e-01,-1.827066333142062682e+00,6.039297658844327898e+00
-6.082002301007352507e+00,4.560526964180076526e+00,2.333430489121198992e+00
4.067299727852886071e-01,7.203286449713530715e-01,-5.343281590761712607e+00
-4.631304684946186967e+00,4.394280125593747144e+00,-4.563567645182246224e+00
2.898551463429769104e+00,-8.825258348704443367e-01,-4.753103943839072087e+00
-3.458677396223500122e-01,2.693703938820281252e+00,6.711657425468325222e+00
2.627393812042154053e+00,-4.345557618675348621e+00,-3.804920733279983036e+00
-2.763594798960852028e+00,7.055656288184680713e-01,5.207597584980854677e+00
5.920590663040636414e+00,-3.069304703428897607e+00,3.776854058564075967e+00
-4.454469573053685960e-01,2.508604476178681431e+00,5.138256137654677147e+00
-1.440894967350818234e+00,3.424956567651560757e+00,5.084990815450582069e+00
-4.285105651667398874e+00,1.950220205130963835e+00,3.123484921574498419e+00
-4.243642841989266223e+00,3.004621634316484435e+00,5.902672325946030973e+00
4.533228866404671820e+00,-2.404320790383520645e+00,-1.360984369246508452e+00
3.355532954542594926e+00,-4.546496194869673602e+00,-2.027447225933337815e+00
8.078489597987970061e-01,-2.045296760537841652e-01,-4.906502735218099431e+00
-3.315314544637862237e+00,4.796803006746904074e+00,3.140630387763233777e+00
-8.185821282167161650e-01,-1.602967517066632652e+00,-5.764656233909760452e+00
-5.184570438230747591e+00,4.669511387931957636e+00,-3.537755255740570703e+00
3.046483675398583557e-01,-9.962591497449492239e-01,5.077654900285413220e+00
-3.384355431695671435e+00,3.566949622003298792e+00,-1.117266103440196501e+00
-4.813910365767476662e+00,3.142819224173925008e+00,5.217540930449415804e+00
3.923275590343412444e-01,8.777520817120207930e-01,4.969967822127007828e+00
-3.355526536350063704e+00,3.938198691646724203e+00,4.953075164431834931e-01
6.141581954681671895e+00,-4.077627662007769160e+00,-2.662745215871010540e+00
-1.351394522240086049e+00,2.481049540483056148e+00,-6.587546565074139160e+00
-4.744453128867514025e+00,5.400490811063541230e+00,-1.493792028232864277e+00
-3.901072984064776872e+00,1.909960032237752570e+00,6.087193748026888507e+00
3.516080792783220499e+00,-4.540736164791024265e+00,-1.634733455856083761e+00
-1.985249785282613422e+00,3.924063068704606305e+00,5.248603669848831643e+00
3.387015599173390790e+00,-4.461459652180774782e+00,1.697218607774677146e+00
-4.702702345726429423e-01,1.916158615584186098e+00,4.774252339708807469e+00
-3.075084113466690638e+00,2.216786746414261877e+00,3.057986093713726650e+00
5.754077563181258625e+00,-2.478523300551604969e+00,8.263708391448109092e-01
-5.108950034595916456e+00,5.330955253409486616e+00,2.465404467905593755e+00
2.428088432500960181e+00,-3.502240648625487007e-01,-6.012173034011329520e+00
-4.910416732095362669e+00,4.678864116667335260e+00,4.063378218004213061e+00
3.241068139690518546e+00,-1.366955431047657710e+00,-4.192527528646427193e+00
-9.880900291224255227e-02,-7.325877698892806489e-01,5.217512262916754295e+00
4.403777375221599399e+00,-1.186167613893162720e+00,4.401606426644126380e+00
-3.054094936363490831e+00,7.515311894499258072e-01,5.670283955070740234e+00
-3.517909316189462565e+00,2.577413002998053759e+00,-6.736482221634977563e+00
4.034022544973765889e+00,-1.234753758684565383e+00,6.335511244300461087e+00
1.771203317183993153e+00,-5.216306311078905411e-01,4.437948723034599752e+00
-3.875754025443703288e+00,1.659818000429061913e+00,-6.660606888185649943e+00
-4.324808624190485951e-01,2.425552789614345617e+00,5.186426558136294496e+00
7.298479801376664966e-01,-2.986752806805893723e+00,-5.677169923624360237e+00
4.151415995985508367e+00,-1.973427321685800484e+00,-2.875009877473558628e+00
1.948962221571413522e+00,-3.351291266183570983e+00,-6.683503085284765000e+00
-5.982218172421500668e+00,4.384359233381096566e+00,-3.061417043320916243e+00
-3.090435278092472871e+00,4.118110138933614550e+00,-3.395909828289893628e+00
-2.832068867490524333e+00,4.556234682776098666e+00,4.049299794840993449e+00
3.168166496455533387e+00,-2.783676262863745698e+00,-2.479055975738177153e+00
2.718164154195025883e+00,-3.449201007333812186e+00,-6.511794314143480200e+00
4.637788330481795285e+00,-2.273858152417632450e+00,5.879592551218285834e+00
-2.102190143173395143e+00,4.035432520366627251e+00,4.525137773930159923e+00
4.608310043724518579e+00,-5.346232606882496796e+00,1.537938795031947636e+00
3.490955141969397602e+00,-4.331777201752200490e+00,3.789721623886358692e+00
9.850425872347178258e-01,-1.831977474577010545e+00,-4.557723021989815493e+00
4.355146613886837770e+00,-2.002607840729224264e+00,-3.128837589070674774e+00
1.586984248723044333e+00,-3.506145141085296846e+00,-4.839730942961788074e+00
-5.278531001239165299e+00,2.210020081955597515e+00,-1.622731722596176374e+00
2.558897341224560140e+00,-3.635554337442234107e+00,4.393125276475858598e+00
-5.438377797774081479e+00,2.014130175658398691e+00,-3.630412357463614459e+00
-1.738258917742499854e+00,1.887748344121731314e+00,7.616995230942046113e+00
-1.919457317183447032e+00,2.509527728973202976e+00,3.863323484531907770e+00
-6.589909972867698862e+00,3.673885788840273392e+00,5.939670191735987315e-01
3.146420345665388751e+00,-3.217183499794000312e+00,-2.108256667750024960e+00
-1.330333709547040444e+00,2.304491054344878442e+00,-5.092056403133503828e+00
-2.378592459495797229e+00,8.653674209422959063e-01,-7.563745163860427390e+00
1.099963201686350978e+00,6.996557992652261415e-01,5.108952550727000386e+00
-3.253357252360393304e+00,1.814005014611935307e+00,-3.074727389441011205e+00
-1.706305295616560747e+00,2.931033037510158312e+00,-6.102148684186389893e+00
-5.660466286693867310e+00,2.325297046880386187e+00,-2.521980452475186762e+00
-1.500977166487720060e+00,3.489369615845508754e+00,5.155917270621605653e+00
-5.237795927742429747e+00,5.069486784271095559e+00,3.169918204385140825e+00
4.609910004534716776e+00,-2.082393449864245127e+00,1.990278708263877094e+00
-2.728583944453390142e+00,4.316277469610152906e+00,3.226838578407534186e+00
1.641610022709204086e+00,-2.755466859275618852e+00,5.244572859052399671e+00
1.035213220989699812e+00,-1.772347447449083013e+00,-4.544708279664064321e+00
3.619780859296985176e-02,-1.281807482578825486e+00,7.044959693979139459e+00
9.225537007552746527e-01,-2.535526371484158936e+00,-7.270061050003339354e+00
6.411825230318680902e+00,-4.414959614076375161e+00,-1.354603952058693439e+00
3.571196040636311686e+00,-3.111382335228211282e+00,-1.431168941319591159e+00
1.964523711180624355e-01,-9.337583516604827105e-01,5.150390367820342874e+00
-2.403268483877629258e+00,1.426051333565313106e+00,4.191147565569401046e+00
-3.645017222159708803e-01,-1.694636445177127193e+00,-5.340440169302188345e+00
5.174855344858124262e+00,-4.489304307773631209e+00,3.839167852272222348e+00
-4.362638779821054413e+00,2.139178486934710133e+00,-1.976359397217988700e+00
-2.774450572982605667e+00,2.766142071993589191e+00,3.064083217425110028e+00
-3.761335900509966024e+00,4.800576675290577633e+00,-1.739198279196577213e+00
-5.094900859872851129e+00,1.782702725565847635e+00,-3.195371123196666829e+00
-1.166992339157405079e+00,-1.554597386791134239e+00,-6.557826158473312184e+00
1.306775204413083147e+00,-2.222264219772100535e+00,5.022376246232027164e+00
-3.534451014234721189e+00,3.328436073863670686e+00,6.437212924469008613e+00
4.492684617164889538e+00,-4.523893430590442577e+00,-4.692580052893666753e+00
3.537391574339425304e+00,-5.282149313013059233e-01,4.904400257164969190e+00
-2.713784618469885945e+00,3.676118672671196741e+00,-3.886544457354524251e+00
-3.556922565305574935e+00,1.393622587129019097e+00,4.348272737566202473e+00
2.718386677260808071e+00,-4.308841265885535066e+00,-5.317430101326106495e+00
3.211092671439107260e+00,-1.014129519589226147e+00,-5.716318774548498460e+00
-5.435061231638649293e-01,-1.249002905306129119e+00,-5.087267946527646245e+00
2.860532489583713645e+00,-3.252193154522947438e+00,-2.628697768623835973e+00
1.516275561683887885e+00,-1.143297912762934188e-01,-5.229048385738060745e+00
6.588461016520350100e+00,-3.782372203659373877e+00,9.942977104786111520e-01
3.352283892419307243e+00,-3.146467264730406832e+00,-1.663525934531072004e+00
-4.325467409483072956e+00,2.148197224287880402e+00,2.186310632180793689e+00
-1.385452721840515267e+00,-1.362831670625665792e+00,-6.269614895140382949e+00
3.226638513680941678e+00,-4.128610534693332390e+00,3.327171636618169615e+00
-6.046734063586263197e+00,5.044010336799840566e+00,7.382502407598734440e-01
-5.599433338670871230e+00,4.701802705505595092e+00,-3.223309086425245162e+00
-2.118606130400941367e+00,1.884514745368511823e+00,4.050361963667810983e+00
5.382722171768802077e+00,-2.695181022847962016e+00,-3.748491215018092237e+00
6.255391418619653976e+00,-5.064163801194968784e+00,1.899843831055836874e-01
1.800705770521581206e+00,-1.866637461059508452e+00,7.355597969876405351e+00
5.726688326439680843e+00,-3.319631529011518811e+00,-3.777445363623784580e+00
1.151935044660055363e+00,-2.584241901152998011e+00,-7.362964023397086777e+00
-6.129652221743728369e+00,2.906427684759472552e+00,1.626333206614562155e+00
-9.189865626764343043e-01,3.025064917864686898e+00,5.423736495633552757e+00
4.315069178214924861e+00,-4.996672443063211233e+00,2.768319803558160874e+00
5.942436059729866216e+00,-4.801407288542356433e+00,2.498216188168647989e+00
4.321128598717606017e+00,-2.469333193637650581e+00,-1.604378701109739624e-01
-1.228884429854740556e+00,1.017522826166825101e-01,7.492293385412686746e+00
1.380451177733049928e+00,-2.533880908946170019e-01,7.914238815853924081e+00
5.968465467919743972e+00,-2.581339099044980046e+00,2.738314666872845304e+00
-2.067541970822031505e+00,2.686156168616383511e+00,7.172335873970952846e+00
-5.543611844197008365e-01,-8.309243317067331880e-01,-4.999544172012723386e+00
-3.496964027940645536e+00,4.975822096880596845e+00,1.665365964814283561e+00
6.099643728576428892e+00,-2.598150725375877990e+00,1.869515038090164394e+00
-1.039278311418890155e+00,1.769295121500093826e+00,-5.008910422739845103e+00
-9.578952232309184689e-01,2.287138504060009403e+00,-6.095429833974718825e+00
-4.168051113438469013e-01,2.394217406546370608e+00,5.212863379227819394e+00
-1.129936733350584976e+00,3.280248874622827326e+00,6.198234165666897333e+00
2.930047282252954410e+00,-3.968576231964648482e+00,-2.436972429042844723e+00
-1.707328619533599712e+00,3.553693382201927431e+00,4.483876712606262416e+00
3.991058816220098393e+00,-2.449285919812801637e+00,-6.221076654048667720e+00
2.651757554605655987e+00,-3.129429108379865987e+00,3.263593735130510876e+00
-5.135005377986225028e+00,5.410577490130116907e+00,-1.740381710742111343e+00
1.230180658748164069e+00,-2.430869870608070027e+00,5.138566061831877363e+00
4.090428403225740084e+00,-1.570455411667864176e+00,-4.178240621135356214e+00
4.646432688711841230e-01,1.772279081390610189e+00,5.454468611185787630e+00
1.206729733370383917e+00,3.805481073978987383e-01,-5.530625394377356230e+00
1.121367375010735135e+00,-2.511027344688333329e+00,5.960930411922701566e+00
4.519049940926882947e+00,-1.443512899594471710e+00,3.653991143084411419e+00
4.328179916907451741e+00,-2.345500236218890144e+00,6.237437744402202888e+00
2.930182444417588794e+00,-4.249546960418368435e+00,-2.769115746499782205e+00
-4.296012757857057274e+00,5.093741077428370012e+00,3.517004781215116171e+00
5.958008990126019144e-01,-2.705959480880825829e+00,-5.265761746797624987e+00
-3.893853114716603336e+00,4.548015514376013257e+00,-4.202200335850222679e+00
3.573419981929843559e+00,-1.504561662505307540e+00,3.410473048779746996e+00
-3.782611348645755101e+00,2.949608555001286270e+00,-3.531376703139562506e-02
5.301949745829647398e+00,-5.379834565485039022e+00,1.308978970832688216e+00
-4.482828183127899990e+00,5.414649535603496489e+00,2.454965175988390147e+00
6.261699727859285858e+00,-4.943730106678705383e+00,-6.669412804215705259e-01
-6.006088121891825615e+00,2.768633704974123422e+00,-5.908284393156577607e-01
4.618614114718686103e+00,-4.418375353959618224e+00,4.496878096237054478e+00
-1.831209407265856681e+00,2.940736989618275565e+00,-5.350219520534138518e+00
2.478596501791826778e+00,-1.996738673898889260e+00,3.709864776792702212e+00
4.908745499299723036e+00,-5.456181939636584488e+00,-2.288424379355882277e+00
-4.182880740211547099e+00,1.383955865429989940e+00,-3.608936022345132777e+00
-5.187987060648061366e+00,5.561742769838295075e+00,6.363961832768171289e-01
5.777587605526600001e+00,-5.332193414160115275e+00,6.133305742322824328e-01
-5.089179509284331715e-01,-2.034554776326936043e+00,-6.670086016926330075e+00
7.048830865040127680e-01,-6.709819102685800063e-01,-4.754574413498308338e+00
-2.088541491226261204e+00,2.191665346506032730e+00,3.915564249393675311e+00
5.878689680760849967e+00,-2.466349435561705938e+00,2.814710969043652700e+00
-5.445873769601680792e+00,3.040429407332799094e+00,-4.642429216663647829e+00
2.918205531619013193e+00,-3.553979317375565827e+00,-2.281394337983177589e+00
-5.207084339965828867e+00,5.270732851650963724e+00,2.798386227444835672e+00
-4.952827372714109444e+00,5.556910876967902979e+00,5.516837612190539364e-01
1.400526493895062563e+00,-3.095220424862721753e+00,-6.866512294008471073e+00
-1.836523073073681456e+00,2.146725433552842066e+00,-7.189893499588817960e+00
-5.554211710549266989e+00,4.806511635241841773e+00,3.170064442895035750e+00
-3.065937042054590389e+00,2.634893733033149221e+00,-6.847570172857147419e+00
-1.834741839234909522e+00,3.686129824928611409e+00,5.317813265705242820e+00
6.532333644461095545e+00,-4.432474705875752541e+00,-3.993092120413236912e-01
2.876104634398273685e+00,-2.239398155537446922e+00,7.003321994785054905e+00
3.797405939734602165e-01,-8.443572818905593913e-02,4.759317765758485308e+00
6.554875034161284475e+00,-4.638854608269780577e+00,4.541788697033328215e-01
-4.959818805899331551e+00,2.191412298996131547e+00,-1.440808622706955644e+00
-1.955761774402282382e+00,1.564946511228147763e+00,-4.246519327757877882e+00
7.967487237091400720e-01,1.745373642684090676e+00,6.984290074974556894e+00
2.779653779648036949e+00,-9.416050020027114109e-02,5.085079051316157894e+00
-3.137725069582666254e-02,1.845605596831574102e+00,7.486606032579198988e+00
2.369682316458025628e+00,-2.594633105134828810e+00,3.680518760177061921e+00
-3.766748654769058735e+00,5.139038420429463905e+00,3.295835146169680208e+00
-4.284322227110015646e+00,3.375033586735883606e+00,-5.863677055706025598e+00
-3.955384715309437027e+00,2.032746791610945625e+00,6.166280916978229776e+00
-3.204155403988769191e+00,1.182778588736790093e+00,6.390495894004073918e+00
-3.989262613075708508e+00,2.524618666401138967e+00,-1.541059205949329325e+00
-4.424085205501430806e+00,2.971175422223336415e+00,5.797666179975727196e+00
