5.314123889612946267e-02,-2.450463000688462678e+00,-6.002808502026071302e-01
-8.093496323490394495e-01,1.899673354026884198e+00,1.211537685600037495e+00
-4.827864545661043616e-01,-2.480144773956586945e+00,1.951121946135238705e+00
-1.008589341392904792e+00,-1.875858272517337555e-02,3.077192101297675286e+00
1.632595878656736277e-01,-1.896913259004236352e+00,1.327458448896772891e+00
4.008379845096253224e-01,2.201463195742423995e+00,-1.300460119438778595e+00
1.244057655849544891e-01,-5.612845035597566756e-01,2.625675362449137129e+00
-1.326055820446545019e-01,-2.818641862873174198e+00,-5.535260587950979749e-02
1.230357170695032393e-01,3.124678653795827099e+00,-6.435549899817246677e-01
2.224942100953230806e-01,-2.347815051980620460e+00,2.342349550580520745e+00
-8.089276777286447118e-02,-3.005415755752265827e+00,1.472077849592995813e+00
7.936508317105128718e-01,-2.467098143795654508e+00,6.850364493498800611e-01
-3.860468541967104761e-02,2.599048373941347023e+00,7.892758732308322589e-01
-1.112030504621442262e+00,2.215851224543257114e+00,1.073750922894342930e+00
-6.983809723381095846e-02,-3.160461662828287555e+00,1.082497831985614223e+00
-9.879945765387607715e-01,2.812741155220407130e+00,-1.811235168714719068e-01
-1.576396998234921021e-01,5.642464932271634703e-01,2.392703153011702000e+00
-2.881865606267254853e-01,2.157700639669607678e+00,9.319047339503224725e-01
1.018856664740151574e+00,-2.180176496102941730e+00,-2.431246161601752664e+00
1.176663654112898971e+00,-3.499111899486250232e-01,-2.712217929667573024e+00
2.781206497974959557e-01,2.413154489050393980e+00,-2.328569790148507845e+00
2.278756939592706532e-01,-2.319835593789159933e+00,7.274749122092066811e-02
-1.368199157130330357e-01,2.294824041432980799e+00,-2.452413001360756351e+00
5.391106197159019064e-01,2.428090978609829698e+00,-1.913963630376255498e+00
9.582693384514500146e-01,-7.040396334248136823e-01,-3.096471326793034606e+00
-8.701774767035147518e-02,8.775778598810294318e-01,2.779550826399063368e+00
-9.139662547739041409e-01,7.815746285903223400e-01,3.220387245557565947e+00
-2.776172349421520899e-02,-3.030493171371110073e+00,-1.432449870948091508e-01
7.646836961700892443e-02,-2.432008595344514745e+00,-2.395419770528725654e-03
1.084703976164063333e+00,-1.778514231217180219e+00,-2.534686128308988540e+00
1.104683607266642831e+00,-2.301563250029770857e-01,-2.633709765428704941e+00
2.834225935216360126e-01,2.429923840544279567e+00,-2.241926146653141938e+00
-3.511934991735587985e-01,7.267512457729964452e-03,3.344521886697467306e+00
1.163412933390925108e+00,-2.627690321943917606e+00,-1.450927532706047574e+00
7.243957796792610537e-01,-3.194909235813732540e+00,-9.728417872789264509e-01
3.355281354409326844e-01,-2.158322907732734386e+00,2.330528621640729270e+00
-2.397401695545178513e-01,1.947638201760707455e+00,1.529738198401856764e+00
-1.454558462451951972e-01,1.791107100724208534e+00,2.177278291931979304e+00
1.125353320352156239e-01,1.739016023194248861e+00,-1.459160764225295281e+00
5.037459241520032133e-02,-1.796704437607791194e+00,1.405009328199144925e+00
7.370263496904704004e-02,-2.319956773460154054e+00,4.163079004468938638e-01
8.432442177618069967e-02,-2.114971647463369742e+00,-1.687114120479517920e+00
-1.228749035404976819e+00,1.170521354966656880e+00,2.542973488166506701e+00
1.223460934192327210e-01,-1.368083897904408097e+00,-2.330956248160828803e+00
-2.587884834097484710e-01,1.599696479077994837e+00,-2.692843200870179476e+00
-3.081000431244223514e-01,2.834332339256613320e+00,-1.755654173653846462e+00
1.119285073123389429e+00,-4.875131434381420603e-01,-2.729975437845399977e+00
9.790915746715606049e-01,-2.949674570447792465e+00,4.826765450315769271e-03
-1.182454371721239239e+00,1.801854687925820819e+00,1.772093222510716881e+00
3.648068929151151440e-01,7.189595711330459826e-01,-2.128497887687481605e+00
3.950151595796216886e-01,-1.763882929891288809e+00,-1.433708342435402239e+00
1.401561430424970722e-01,-7.948755578999410210e-01,2.606464175852965415e+00
1.228439769066399651e-01,-7.341254690821558127e-01,-2.974149819381022741e+00
2.543177255280423821e-01,-3.327011951574580628e+00,6.877249021315735567e-01
8.342933151720921536e-01,-1.218487178684804384e+00,-1.881799544338971675e+00
-8.754280557671739738e-01,1.087119334187887087e+00,3.059371911915540476e+00
-1.962586453212797899e-01,-2.983410484832383247e+00,1.364250060041985124e+00
1.834717250217178797e-01,4.772011029898670098e-01,-3.265993364893573503e+00
1.367230733135163800e-01,-2.201952726499842417e+00,-1.108647007474294677e+00
-1.124819481397919763e+00,8.127687816636361973e-01,2.944141099687625829e+00
4.479358950551850377e-02,-3.087831798245502246e-01,2.549023356387215333e+00
-1.211854361709792521e-01,1.741860162962661773e+00,2.187478809471045338e+00
1.159502225022620847e-01,-1.143286113113024083e+00,-2.594843638804531505e+00
-3.097665921665861966e-01,2.112841072920902119e-01,2.261179490189338726e+00
-9.685258626993300535e-01,3.127865034196874561e+00,6.611579441139483482e-01
3.640962101866728751e-01,1.928349538009667130e+00,-2.777852075874054361e+00
9.087626807585912347e-01,-3.105326809225066764e+00,-1.071665228872476838e+00
2.353880403156737300e-01,2.975911616871456999e+00,-1.140724606131722219e+00
-5.848434861531844886e-01,-1.177315767505085597e+00,2.076720683033280501e+00
-4.427064672042654858e-01,1.767728985085541993e+00,-2.196652083239463149e+00
-7.723828840552685593e-01,2.464811618867608356e+00,-2.130139963152874738e-01
-1.753716545633601243e-01,1.295381197110672788e+00,2.561293368484226285e+00
-9.574232137009710542e-01,-7.803195826373284794e-01,2.708859569682167123e+00
8.753777066434486054e-01,4.781186171392333151e-01,-2.408871210501831062e+00
9.424546639956703220e-02,-2.090121218655654367e+00,-1.407101041582891510e+00
8.643227175073122659e-01,-1.827681975773170819e+00,-1.311403036568189684e+00
-7.659764725874470548e-01,1.335809605088578600e+00,1.722913827249117569e+00
6.443183730926345110e-01,-2.249137388506030177e+00,1.225754797048747680e+00
-2.106337356864889931e-01,2.267137718800538604e+00,7.374921164052066214e-01
4.561687790950682553e-01,1.816831466835046038e+00,-2.822897414634824464e+00
3.929088265098297228e-01,-2.200328174345326904e+00,-5.488538278944979920e-01
-8.917486068560880330e-01,3.800192245235777255e-01,2.275899171858011716e+00
-1.043350565991416845e+00,-6.203967869366599358e-02,2.987285877213981866e+00
1.178608041401124185e+00,-1.385238059978303404e+00,-2.726841841552112289e+00
-4.093272232140819922e-01,-2.200918537508777195e+00,1.313368793218927078e+00
9.325594168844982823e-01,1.702368222337026782e-01,-2.410719495286968606e+00
-6.444270214373858108e-02,-2.358530610993536225e+00,6.077836307904235236e-01
8.873163140418498518e-01,-2.253263091302453613e+00,-6.417780707543230267e-01
9.943097627645068881e-01,-1.713130230456494152e+00,-1.490592394379078645e+00
-1.566507239638072480e-01,2.268701925530383967e+00,-4.415186774866707298e-01
1.170345132293483387e-01,-1.446451054013929260e+00,1.893883926400548923e+00
1.092885363521024056e+00,-2.179369683983438666e+00,-1.141030787627669296e+00
9.060354382877314761e-01,-2.563158949745563575e+00,1.968015837526150558e-01
9.773691875082003433e-01,-2.265811662338531041e-01,-2.368965702086061942e+00
-3.052398777038196620e-01,-1.122931785493169521e+00,3.156359342214176689e+00
7.768980434971767268e-01,-2.345420142095537841e+00,-1.204279930849003200e-01
-1.166496770150728501e+00,4.167759941357715991e-01,2.887207733518484254e+00
-7.175287095027801376e-01,2.563533137143981122e+00,-1.407358937428672130e+00
5.333161938239948663e-01,-1.816099637635271824e+00,-2.768167389104971843e+00
-7.799715017464717848e-01,2.146545303285217532e+00,2.603070047902864115e+00
-3.741691166607298280e-01,3.281277162082104404e+00,5.017230914434500644e-01
-2.059975980890676461e-01,1.235217205653923012e+00,-2.232971162502442208e+00
7.055227335431740743e-02,-8.788272835753516143e-02,-3.116957766284958353e+00
-8.108384949036361311e-01,1.671461952808268148e+00,1.491031866796169503e+00
-3.323535741459136550e-01,1.646328714574151419e+00,-1.833532599798091356e+00
3.663241392059508605e-01,-1.917714572970139253e+00,2.425426075512866042e+00
3.132973138156223136e-01,-1.612586283836036083e+00,1.942538730364372634e+00
1.218498805772877169e+00,-1.949141611789903195e+00,-2.167670232614745007e+00
1.012894561239645330e-01,-7.959546209819171603e-01,-2.792755905573024222e+00
8.241904220747246768e-02,2.656780416377101162e+00,-2.173901328874523031e+00
1.130035059873145897e+00,-2.745657062441000384e+00,-1.357556306823592740e+00
-2.117569793666536637e-01,2.236995894239162563e+00,6.678581486577663817e-01
-1.031151777043477491e+00,1.266978044896241995e+00,2.876884005065139416e+00
-6.045980461139754958e-01,2.156112252646397831e+00,-1.597814679518179570e+00
1.065748776976529921e+00,-5.470139091165596712e-01,-2.433751356121712561e+00
-6.955089166236532588e-03,1.105715293029743584e+00,-2.045338746954909581e+00
-4.221815671878507703e-01,3.279496095773186237e+00,-8.981800988817661979e-01
4.741373402481708910e-01,8.625878811435035987e-01,-2.157495310349578865e+00
-4.548767867999355397e-01,-1.802162492216158540e+00,1.641191181458746762e+00
-7.179539556665918143e-01,-1.687725007990044546e+00,2.686155719612298931e+00
-8.474374231733992902e-02,-5.137687454180234203e-01,2.314659102739230701e+00
-1.083358146747642747e+00,1.021196402656723956e+00,3.043971835681835714e+00
1.175585804315220084e+00,-2.486152699380621112e+00,-1.707256966827378930e+00
5.877326379094853781e-01,9.959678032944168091e-01,-3.186709358902664935e+00
8.440743725116083285e-01,-2.644847148815210769e+00,-2.000220514629404089e+00
-3.326862875588151858e-01,3.293606907200990808e+00,-8.483898309017451345e-01
6.332687043501086799e-02,-7.690313310129300861e-01,-2.588305201959435475e+00
-4.241448384811333794e-01,2.944168120369656805e+00,1.468664354143484951e+00
-3.312730762209186719e-01,2.365129457464153262e+00,2.216012499200663122e+00
2.846240311903440179e-01,-1.377429624145135381e-02,-2.277750768175972329e+00
8.199094537554234563e-01,7.695840666146387399e-01,-2.294733900609353228e+00
1.182593200851925319e+00,-1.141442166013523218e+00,-2.186355100419835829e+00
-5.636749247826750020e-02,-1.692031192728205680e+00,2.920320239851609490e+00
-7.574636620106049711e-02,-2.438480007490361201e-01,2.451369590437809443e+00
1.648352306462084749e-01,-2.531279361582389420e+00,-1.695299582803235339e+00
5.632526335428457154e-01,-1.996006750902966920e-01,-2.207144362102005264e+00
6.924690954411746868e-02,-2.653279606018105419e+00,-1.112109371140886260e+00
-3.610421205038092940e-01,1.461943156856523762e+00,-2.340313319126948954e+00
1.596682470015500510e-01,2.194769869359318726e+00,-2.580353429890818617e+00
9.329815867864075241e-01,-2.264018300850384247e+00,-2.380695300309157769e+00
3.971365618555849353e-01,-2.090515775277930199e+00,-2.500201908352666536e+00
1.024678121746893211e+00,2.170365979198251305e-01,-3.003979775552558351e+00
1.267662387988369999e-01,-7.186399886152419203e-01,2.595103814542079057e+00
-8.850817766823000365e-01,-5.185754932905831671e-01,2.433787922564884187e+00
1.380733832757524704e-01,4.726628850492549661e-01,-2.310715552181357157e+00
-3.066026905592966201e-01,1.975967355018801941e+00,-1.134576565113161850e+00
6.628268026648790334e-01,-1.485296203439355089e+00,-1.610731508691061853e+00
1.555530444050679806e-01,-1.040697799742594354e+00,2.160668995317975405e+00
2.983027025739609095e-01,-2.321847755120225010e+00,-2.569745036265556615e-01
1.467493500143525198e-01,-1.068842665965309413e+00,2.271921187036095802e+00
3.613421096332445348e-01,-3.360187455848386406e+00,-6.495352198580321701e-02
-1.818732440547940754e-01,1.587506546956001241e+00,2.032160969794576388e+00
7.604362776176846195e-01,-5.914987494429690962e-01,-2.197495543696314169e+00
-1.334529010009856131e-01,3.264451961134901548e-01,-2.822018226405113239e+00
-5.175324356976943596e-01,2.115481333221680416e+00,7.074863427767349444e-01
-1.571477074925229506e-02,-2.510397107570526476e+00,-7.050170888178421136e-02
3.849401749421913488e-01,2.335436646090778723e+00,-1.248140092359969255e+00
-5.001512868411600587e-01,-1.033330557873365141e+00,2.106391449867205612e+00
-5.724894989662044908e-01,-2.196643627826586620e+00,1.866747639448089302e+00
-1.316826304200064690e-01,2.215610145218762206e+00,1.325983142117946656e+00
6.717241800458344514e-01,-5.556490547497904275e-01,-3.279168655496795370e+00
-6.486729596007987375e-01,-1.916155333932490379e+00,2.236172002808123338e+00
-9.725822926552813927e-03,2.706795194851075781e+00,6.483904440702144001e-01
-1.079847133468814446e+00,2.556505483071887852e+00,5.248378157587146875e-01
2.043040956522537699e-01,-2.015886273054046107e+00,1.005480263819223286e+00
1.618154729418285614e-02,2.807117535424291876e+00,-1.919912547023071347e+00
4.359589431717436625e-01,-2.111305992743571114e+00,-7.423668200968660535e-01
1.890966283950110960e-01,-2.056936447130004897e+00,1.024019884520069645e+00
5.820048245942512910e-01,9.060240384023406923e-01,-2.124113597656856811e+00
-7.497008680010321946e-01,3.026821240689641979e+00,-8.466396492956332898e-01
-1.987707921144070411e-01,-2.515688657625519742e+00,4.704423283278426071e-01
-1.026752865802706832e-01,2.617083230684281503e+00,1.309736788106166783e+00
-1.187763832759017202e+00,1.606366438220636184e+00,1.937239822013141266e+00
-6.539729439361116059e-01,2.761445087637028895e+00,-1.411540453863375344e+00
-9.924028773065717290e-01,1.949434613891731782e+00,2.577526316263647477e+00
-1.196412846509035566e+00,2.251149071219474607e+00,1.296738615117235760e+00
-7.804973536333573714e-01,-1.199407455862118610e+00,2.926118730402089252e+00
6.613456998484553706e-01,2.065481340958447154e-01,-2.283864850105852717e+00
-6.337672622242251919e-01,6.136940387181125112e-02,3.331252496836204724e+00
4.175286546909322549e-01,-2.949719372502323189e+00,-1.531573931679691469e+00
3.572876842971944855e-01,-3.336232164538165623e+00,-1.720906238395421839e-01
-5.100303915488724887e-02,2.448302851367993416e+00,-2.324615220843745167e+00
2.349787929154072419e-01,-1.792052351823594902e+00,-2.517317961885213062e+00
8.092203609141114529e-02,2.655412795891106015e+00,1.082427283265818656e-02
-6.331543370932355419e-01,-1.733766472774545431e+00,1.944581093233353597e+00
-2.660966394918539910e-02,2.778356212877021392e+00,9.309784595969432530e-01
-4.643009556199745314e-01,-1.258754118600047711e+00,1.963650435680891038e+00
9.100971635372232527e-01,-2.876145137349071845e+00,3.818317813800392591e-01
1.247378309402093627e-01,-5.695727020304267585e-01,2.831664891072881662e+00
-2.378507394673700370e-01,1.632824543877066104e+00,1.873623968841398479e+00
3.566613510029214007e-01,3.214287288507971518e-01,-3.338416593858899883e+00
9.475598438725660877e-01,-8.131623257188941301e-01,-3.161596418048155055e+00
1.174376409052561437e-01,-1.142847814724783584e+00,-2.767755473015629075e+00
2.387854430650582227e-01,2.584000693652855674e+00,-8.025884053043585986e-01
4.180712476414598644e-01,-2.149796638057329012e+00,-7.947883117047596091e-01
-1.191515298678097468e+00,2.423888917907597751e+00,1.605534613325384496e+00
8.535139225461374490e-01,-1.007066182451212155e+00,-3.154855922400800150e+00
-5.610933355826583924e-01,2.274544792188478048e+00,-3.463838341145430433e-01
3.619969422522112956e-01,-2.294223369048724148e+00,2.575785665167759086e-01
-5.632423575877214261e-02,-2.969183606670541931e+00,-2.544569669095723269e-03
-8.037324497650434330e-01,-1.388545226571970215e+00,2.515866324968715428e+00
7.195668848017430230e-01,-3.329836976295249773e+00,-1.670713529137835274e-01
1.304515009586213747e-01,2.762564461789807080e+00,-2.066999423584983397e-01
-9.040296327931216513e-01,-5.460411568290306494e-01,2.514908217145841896e+00
5.384115604082762019e-01,-6.258500299246644305e-01,-2.176326275467265425e+00
-3.771326314831182080e-01,-4.226455930440177755e-01,2.214822187422022637e+00
-5.771529893870332995e-01,-2.017983641746350365e+00,1.713062035319099508e+00
-4.098442502036516166e-01,1.498945525563065928e+00,1.800989085747191298e+00
-1.693587763049155537e-01,1.606367655427757724e+00,2.421991275518243114e+00
4.140110373753510542e-01,-2.095903002613074939e+00,9.235847246205810546e-01
-2.403980850459064011e-01,3.170094758025566062e+00,-1.287469817922952897e+00
-8.385502628024759098e-01,2.512540270859046743e+00,-4.420571894112129696e-01
7.177233863552632265e-01,-2.784993682778415636e+00,-1.822868537510523135e+00
-4.940644183338696038e-01,2.069133468209524374e+00,-1.207959568330099209e+00
4.413679714343438643e-01,-2.140440913310286408e+00,7.844662743978536579e-01
-4.319182804932192310e-01,2.199960883912861043e+00,-6.412947411227324368e-01
9.871491302448353045e-01,-8.832532927573005788e-01,-3.076549539589507720e+00
4.019876532983749917e-01,2.308723958227881123e+00,-2.328902269434581562e+00
3.643596356599705377e-01,-2.148585532010010013e+00,-8.251932043192345967e-01
1.368552615474692147e-01,-1.342835779951168096e+00,-2.554952523195228142e+00
5.942855882620292629e-01,-2.254036941542503669e+00,4.282089753072452765e-01
9.087871228899453424e-01,-4.776861501316445047e-01,-3.201850531032271352e+00
-8.217956535365864568e-01,-6.831749243112161807e-01,2.363202936205180738e+00
-9.115494149788129497e-02,6.647731556834497735e-02,2.494008790577044721e+00
6.734301909001505493e-01,-2.342628967217963876e+00,7.719095094664247814e-01
4.117395177927719030e-01,-2.216407705572587261e+00,-3.062435903673651483e-01
-3.077518165211102705e-02,2.476043674401344319e+00,5.972342236468209942e-01
-1.265684206574893222e+00,1.577533855397813989e+00,2.127884517399030617e+00
-1.422692341064419608e-01,2.040539034916829308e+00,1.585807643409649970e+00
-9.239224480193699574e-01,2.456181960780448481e+00,2.377331415140575555e-01
-4.624635633097828880e-01,-2.586937706024210915e+00,1.759382835029474901e+00
-5.836170381075206359e-01,-7.362922817092123484e-01,2.184620300127479098e+00
-9.105993455848498952e-01,2.928548639941086051e+00,-4.544063384690264495e-01
-1.443051522477030169e-01,-1.971459219394520179e+00,2.788444169915822890e+00
-5.598966692831013336e-01,8.511848433212219067e-01,2.013835890668090656e+00
-1.036736871704228680e+00,-1.381430838907014846e-01,2.590978701809943274e+00
-5.752101968994426801e-02,-2.268656496880863127e-01,2.415531681788670060e+00
-2.080343707452842750e-01,1.337657116787153155e+00,-2.748122384451058497e+00
-1.163565828696857984e+00,2.629668116181222981e-01,2.882295446291500696e+00
-7.528348781950513491e-01,2.585182238003805200e+00,-1.257904025059050968e+00
-2.442964413577086435e-01,1.767852941662440891e+00,2.550585478923501626e+00
4.811906890822611332e-02,7.823760961752364018e-01,-2.195375274416108802e+00
-1.150410550395468912e+00,2.420038260251404505e-01,2.989925339886451816e+00
9.197394450426581158e-02,-6.423079323206984936e-01,-2.523193767698520329e+00
4.638185877604882323e-01,-4.348543470999595151e-01,-2.194765750720326647e+00
9.929810234491401877e-01,-2.266463041964310143e+00,-2.331199223790711095e+00
-8.953623306956774996e-01,2.387746831934687730e+00,3.461697200818977804e-01
2.679178273840279734e-01,-2.386363751935527411e+00,2.352726926140617625e+00
1.235812108538762444e-01,-1.066680567359466369e+00,2.876301196879212263e+00
-4.183464157401521888e-01,-2.385789282359415786e+00,1.385346680241938522e+00
-4.581799352215522037e-01,-2.052587349905667047e+00,2.577584398832045043e+00
-1.085851084698813418e-01,1.979019622672949064e+00,1.853139301790507787e+00
-4.873006505348237982e-01,-2.233397987198163792e-01,2.306346291150644490e+00
5.328375399821991820e-01,-3.352657030201535715e+00,-1.366043633122948908e-01
-6.283718584626418746e-01,1.917910657619559922e+00,2.725566357838104192e+00
3.726349669937994435e-01,-4.192563978149899673e-01,-2.272140975359994819e+00
-1.060877664885920613e+00,1.626465067523156449e+00,2.717143254846564826e+00
-2.539416056020797896e-01,-2.897634698034162515e+00,1.279121144625171347e+00
-1.790991359815550521e-01,2.738467181131372996e+00,1.493785063033080451e+00
2.230224450588899898e-01,-7.467279140487975697e-01,-2.290753265561255692e+00
-1.139499838084436639e-01,7.647032518930797496e-01,-2.610234059169135534e+00
-4.654960669859037892e-01,2.159164039464254614e+00,5.763882210791168026e-01
-1.118765339876820475e+00,2.386610898123628477e+00,1.990225520226758027e+00
1.125808850909008951e+00,-2.768503517787168633e+00,-4.737148512979248993e-01
-8.476494903481865961e-01,3.144568605038002840e+00,8.967971549937499010e-01
1.869521666059190124e-01,-2.109471141740655309e+00,2.539149557956461578e+00
-9.826932169031088460e-01,-3.372642127695330561e-01,3.066892364829517881e+00
-9.156064749146750614e-01,-9.025024517146430503e-01,2.634500560772620403e+00
-9.566024560793807696e-01,2.176730024326255286e+00,2.444582881009966346e+00
-4.702322865285070708e-01,-2.077739211977597922e+00,1.507897661948399692e+00
-4.991167298329902691e-01,3.368128996767462802e+00,-2.283762576933051069e-01
1.088701049854214231e+00,-9.591270459049791031e-01,-2.175108517229529692e+00
4.483172838604251309e-01,-2.156427499676129234e+00,9.607660662938530827e-01
-8.191179115594203752e-01,2.998576308701383031e+00,-7.434219209148394958e-01
5.510294363818638574e-01,2.290623029915946685e+00,-2.197302271379332428e+00
-1.410621417030141489e-01,4.068243809066564576e-01,2.377222776761965140e+00
7.831801584175900333e-01,1.383556600594888719e+00,-2.276126114563867375e+00
-2.199108047728581261e-01,2.810726732150832685e+00,1.491809066518450688e+00
-8.500989004119708925e-01,2.091852728714497900e+00,9.031212781817903323e-01
2.959408252058944311e-01,-2.756116280659385076e+00,-1.575973933600441912e+00
5.029739484995721099e-01,-9.525177770562609503e-01,-2.019348598981805409e+00
-2.785766279136391854e-01,6.527722373369216902e-01,3.138101214148080409e+00
-1.954094734095886479e-02,-3.034782169667567864e+00,-1.026909315001654915e-01
-3.152996063564189044e-01,-2.656024152877091371e+00,7.432959448360832999e-01
1.260882502776367320e-01,-1.812620070330729360e+00,-2.349351807653447199e+00
-2.740001585534507234e-01,3.032189742352190187e+00,1.152193214058532034e+00
3.342480831391336227e-01,-2.705046880575233459e+00,-1.750755701144039111e+00
-7.533820320585223052e-02,4.398144535759564433e-01,-2.903554722086808759e+00
6.875634042563822934e-01,1.868201707703411429e+00,-2.477807464244305535e+00
7.299566350357772349e-01,-2.104012170915463553e+00,-2.598036584531207449e+00
6.408760060974802997e-01,-1.072683142701374104e+00,-1.918548725988874271e+00
-4.609730355966323301e-01,2.225482132277516456e+00,-3.671902096206225985e-01
1.315406471226216734e-01,8.292240783945079574e-01,-3.175129022629342934e+00
1.914928587007165284e-01,-1.817353566214117366e+00,2.676788926531090240e+00
-4.564425510302325129e-01,-2.185404290083922785e+00,2.572979587521318390e+00
-1.028149811820801007e+00,-5.606166237571577615e-02,2.595383859802621984e+00
4.468703679762267567e-01,3.712188364419329867e-01,-2.224017935486954922e+00
-7.286085617341607479e-02,3.072490407059912609e+00,4.784727888323669909e-01
5.996862688171706868e-01,2.212021896580874003e+00,-2.123240136049392657e+00
6.980757706003026808e-01,-3.268266169423696965e+00,3.825230623252425660e-02
4.966955155185501930e-02,-2.452446180501083095e+00,-7.955488090791417166e-01
-5.883543143318501478e-01,-1.787671207013849184e+00,2.708173225411731444e+00
1.710147756573285882e-01,-7.764594727026429277e-01,-2.371204969910910343e+00
-2.297919977992227414e-01,3.153673143604028617e+00,-1.124519848319666337e+00
-3.377749858413514050e-01,2.242831611247595891e+00,3.682473604071348494e-01
1.914484754112142362e-01,-2.726850311894438939e+00,1.926370683485287394e+00
5.567308987580510404e-02,2.997862881726128581e+00,2.682002009621800229e-02
5.586766264342043348e-02,-2.978332616271475164e+00,-6.981946032917707434e-01
3.022344290906081032e-01,-1.281443581872005355e+00,-2.906678098341225258e+00
-9.554814482668416709e-01,-7.448696638820218041e-01,2.739821806045916741e+00
4.353199537705257915e-01,2.520000682935008562e+00,-1.418169430702002520e+00
8.122259217773997175e-01,-3.564764213197063603e-01,-3.276738762698837348e+00
-2.967552439638237449e-01,1.840382482804177267e+00,-1.496416709201499495e+00
-6.552978438542038653e-01,2.255562601521714505e+00,-1.307693871561745880e+00
-5.022915430483353427e-01,2.161292150339791718e+00,-2.029308541124899889e+00
1.010973722929591423e+00,-2.372462529456625280e+00,-5.930322912130723267e-01
-1.679397308461653693e-01,3.260879866878853228e+00,2.098486876370982412e-01
1.201372203435740055e-01,-1.771636284634114933e+00,-2.037659643973937840e+00
-9.241285032969869251e-01,-4.954025473320620154e-01,2.455369995087418378e+00
4.078880990316052224e-01,-2.086619446049574833e+00,-8.154680584340329164e-01
6.205503621643774226e-01,-1.787376998621124313e+00,-1.275382433300871199e+00
-9.334109736465239227e-01,-2.592728831295247338e-01,2.369335280523951592e+00
-3.399410444950282106e-01,6.271441174780059136e-01,2.195491553725263056e+00
8.446737655136778988e-01,-2.536192507831261711e+00,7.889787005428768873e-01
-5.184884326521524978e-01,-2.287574493001888420e+00,2.186218305077976876e+00
-1.998394983522490120e-01,-2.803065387809325681e+00,1.817615800786402280e+00
-3.574579650657913610e-01,3.379525864613818875e+00,-6.147175756803346935e-01
1.269618865871441349e+00,-1.928981452093801785e+00,-2.067380578574538941e+00
-4.435333545852772619e-01,2.256891294862948705e+00,3.801991751764590699e-01
-2.678262266413862225e-01,2.130525423206872659e+00,-8.504431816072346439e-01
1.062473813863809902e+00,-1.809653180690459440e+00,-1.423296319958244682e+00
-6.575218514321919949e-01,-1.896075930883360128e+00,2.449294946836546583e+00
1.895071041392704103e-01,2.788441189729982561e+00,-1.846671551056757066e+00
-8.688883878901113578e-01,-2.314490470674195333e-01,2.306294969784583593e+00
-9.103488553554704987e-01,-6.054464806833936841e-01,2.435787479652879561e+00
-7.141194934290855389e-01,-1.727059061885165336e+00,2.110309174719072978e+00
-3.984222984685601987e-01,3.311895779215825009e+00,-5.160506022651679681e-01
-7.912084918710361459e-01,1.516806721071706887e+00,2.972257159818850081e+00
-2.331760057667690844e-01,2.358493239264747743e+00,2.083416834720398292e+00
8.622384514191160365e-01,-2.512765643206096744e+00,6.869554998347744412e-01
1.138191698329433121e+00,-1.108893298803921290e+00,-2.909746600869900668e+00
1.208655606753761269e+00,-1.008779626979958488e+00,-2.697875262718404166e+00
8.069136653622772659e-01,-1.594016896503215985e+00,-1.546460799242514117e+00
1.057894166453213547e+00,6.434317063503644518e-02,-2.901423166142509835e+00
2.575845001255251399e-01,-2.387129799525824048e+00,-2.047379742904296585e+00
7.155200072809358991e-01,-2.770634461785369762e+00,1.246186935033635867e+00
-2.697193506432875656e-02,4.147095208918129550e-01,-2.399030634398934936e+00
-1.205462290973337236e+00,2.307869386161699232e+00,1.657887110919182838e+00
7.639416875455114220e-02,3.140027027206944599e+00,-2.438591814793507895e-01
-2.684185329580428547e-01,2.185310995460580386e-01,3.247117904099658059e+00
5.995061805893099338e-01,-3.005725701806803318e+00,1.143987237853836270e+00
1.336930225403794303e-01,-9.966586604612345246e-01,-2.443822201331926181e+00
3.065246801323003312e-01,2.701050744904381684e+00,-1.770209373668039543e+00
1.008669487781938878e+00,-7.498976680800188976e-01,-2.252756677731832635e+00
2.134001350946138631e-01,-2.268921551325772779e+00,-4.998729955337208875e-01
-5.262419168703427186e-01,2.697029915337520456e-01,2.233344427761404738e+00
4.559070758563738696e-02,-3.158130033698546058e+00,-4.279280858400441034e-01
-4.502726767506419203e-01,1.988939228734291298e+00,-1.377142146419754409e+00
-2.707900633771632148e-01,2.044047184880970203e-01,2.241954614327973605e+00
5.487225691343330380e-01,-1.924136466829880598e+00,-1.027651443529077113e+00
-1.778597725711653366e-01,3.282685989896259926e+00,-6.933562671691338997e-01
1.051028884846266637e-01,-2.395993758179390642e+00,-3.471791574356080101e-01
-4.363996462402182086e-01,1.779664593311174103e+00,1.308422525625520638e+00
-7.205966032975691382e-01,2.216369888622083284e+00,3.453512759419486988e-01
9.769894512190593350e-01,-1.421175116303352359e+00,-2.931745456513349168e+00
6.777336689134521031e-01,-7.193885893230275164e-01,-2.106442663383691016e+00
5.264240478753655361e-02,-2.297682119041017046e+00,2.481396021739528557e+00
-5.312992892482273910e-02,2.913968833344535714e+00,9.213697095488881939e-01
-7.857169093795028925e-01,-1.513156938400790352e+00,2.311559798720272063e+00
1.205915616846876981e+00,-2.475893250723448347e+00,-1.297616001851185974e+00
-2.347874653139874479e-01,-2.920268860064497485e+00,1.453798932204521055e+00
6.486120499522455285e-01,6.240649444828009207e-01,-3.289241932259330259e+00
-9.579615589559575817e-01,-5.931548630884972972e-01,3.054749312810327133e+00
3.711755893474512624e-01,-2.940009099418674943e+00,-1.486628448183531015e+00
-1.044360320604813097e+00,-1.198237956536321175e-01,2.917446308068159411e+00
-5.384744625515152094e-01,2.004090731108133294e+00,2.604277211526255797e+00
-1.264247244419677840e-01,7.737703935724464799e-01,2.541986904901371691e+00
-1.276457932266736650e+00,1.954334431510025949e+00,1.863771390483875301e+00
1.016747712025033445e+00,5.995737659407005538e-01,-2.660990219113158251e+00
1.094056994115142567e+00,-2.200795443061993595e+00,-1.031958926695470957e+00
-3.956071068192006379e-01,-2.582904866904167207e+00,1.317064220119865903e+00
4.455329887403057521e-02,-2.532930089827457820e+00,2.244340643250259948e+00
2.492542343386797699e-01,-2.331284041216408642e+00,-1.975024821539055342e+00
1.194759816844805644e-01,-1.023585453475710283e+00,-2.644477570484036200e+00
-7.046749432422534376e-01,2.694602667968783116e+00,-1.350663701429597019e+00
-8.151198119245561813e-02,1.288808872728578248e+00,2.410984363841905953e+00
1.367643696538533293e-01,-6.871916035686778113e-01,-2.496345827759492764e+00
-1.040433719708437760e-01,3.006518765250147052e+00,6.771572884264934755e-01
-3.006452583461845518e-01,-1.186043692983362652e+00,1.989206770959196069e+00
-5.872974046693322236e-01,1.464787593361249973e+00,1.681540794712607756e+00
1.723302775722773406e-01,2.864027928574666149e+00,-3.897423986804412488e-01
1.245843991452261434e+00,-2.108080217008682755e+00,-1.847126910350989970e+00
-1.739196445602386454e-01,2.310213286136644673e+00,8.173777615400936725e-01
6.811884952253505210e-01,1.961666456346810028e-01,-3.265942214591161630e+00
-2.217536532789308457e-01,2.107372439812815301e+00,1.198494300616342656e+00
7.014123445287722136e-01,-3.242390047024651611e+00,4.456118984799633531e-01
-8.004041239016056186e-02,1.458700730040610738e+00,-2.862402957674205162e+00
3.765637393083894890e-01,-2.135156921969716848e+00,-2.527916692920399111e+00
8.004951723107812944e-03,-1.977852192442450807e-01,3.073465437827444635e+00
8.042972956516514227e-01,9.535715072838665263e-01,-3.042588361166560063e+00
-2.751935442342869353e-01,1.171764499396433568e+00,-2.295512440075633709e+00
-2.764694974120918136e-02,3.772157359050429953e-02,2.605022959110022907e+00
-9.108717039403255722e-01,7.058732175281532406e-01,2.142376330824637964e+00
6.195601511199078093e-01,1.215572437517169702e+00,-3.056252020207479880e+00
1.062402100377136449e+00,-2.222418597612751956e+00,-1.208351501081513568e+00
-9.125387024295602556e-01,1.766195816753726167e+00,1.441521562542267487e+00
5.461275756836006523e-02,-2.306227757469782702e+00,4.302550539271838281e-01
-1.129298732638471137e+00,5.409174131784361128e-01,2.968442388890497163e+00
6.463773221204118791e-01,-1.387939330010429684e+00,-1.639063675081808835e+00
-1.085796190397867456e+00,2.811652816330131976e+00,1.010887405998162070e+00
-5.125102861999761839e-01,5.764590205662745159e-01,2.173226417497664098e+00
1.142081424614865420e-01,-9.179151136835299596e-01,2.971596581868655385e+00
-2.240583798820597675e-02,-2.606291624592740774e+00,2.182599751225310580e+00
-1.245463574951166524e-01,-2.840432529220761282e+00,-2.663881709178688717e-01
-7.701280538005051968e-01,2.438095331116169273e+00,-9.953910220519041063e-01
1.775673741663013339e-01,-4.850883117003422229e-01,-2.393629491328954195e+00
-5.812424360518971822e-01,2.250996110543499018e+00,-7.148084727910344327e-01
-1.072804615413850637e+00,4.611242445491032238e-01,3.031992452896820733e+00
1.383192743134434854e-01,-1.881321541253473173e+00,-1.902167368748254095e+00
8.648659950437465049e-01,-2.830515224310758526e+00,6.628305134207483906e-01
-5.323850777483277869e-02,2.896260833172585425e+00,7.185767303691121821e-01
1.596661442261632091e-01,-7.266743802200436031e-01,-2.352249061479827930e+00
-5.104726285233223554e-02,8.674835994593456112e-01,-3.015636750568843283e+00
6.609786678468201337e-01,1.997836724145988674e+00,-2.279746200555825997e+00
4.540518123313487253e-01,1.580568078992950598e+00,-2.985903595115855680e+00
-3.178867715535108607e-01,2.010591958432337290e+00,-1.192235486808006950e+00
1.004478482798356387e+00,-2.688941917619985578e+00,-9.346910226349570971e-02
5.944681619765687097e-01,-1.592884055606441196e+00,-1.531274145813436682e+00
-3.432397865035762829e-01,2.592636280175310670e+00,-2.016130617200545316e+00
-2.299870981363817402e-01,-3.177202397535142803e-02,3.266858033857411581e+00
-2.887115369672632603e-01,2.390968938455882709e-01,3.268740110579126057e+00
-1.019578692422305588e+00,-4.106857634746042818e-01,2.721071581405868134e+00
-1.089514985849081852e-01,3.073769378188869972e+00,5.337012839066800352e-01
-1.855614045120381472e-01,-2.203133822221296167e+00,1.035889350129543418e+00
1.189125295188961040e+00,-8.881019990002393394e-01,-2.625220459353919011e+00
1.200943243771903646e+00,-1.902841807675335950e+00,-2.188697074983448232e+00
-4.907082432965900742e-01,-1.679769039134218600e+00,1.756338777089735848e+00
2.726158352432557774e-01,-2.116870037515077296e+00,-1.039668060613500256e+00
-1.064325002547488852e+00,3.904927406737149220e-01,2.405412628681737885e+00
1.101314659632533388e+00,-1.233838950610206542e+00,-2.842214386442136309e+00
-6.906861038594863667e-01,-1.771002234596869007e+00,2.638422831476407993e+00
4.396618593143720166e-01,-2.160622573253563772e+00,-5.799062938462612449e-01
-3.980643144604111283e-01,1.973252286627801722e+00,-1.308773777570158003e+00
-7.355959361788192430e-01,2.924809138819830956e+00,-1.008943902454648489e+00
4.155652762930100441e-01,-1.672101373929342216e+00,2.208540231939236431e+00
5.153985871494650706e-01,1.270576953425864408e+00,-3.097506092228303753e+00
-1.039172116057401007e+00,2.827754060654416257e+00,3.195703058309045108e-01
9.633154709818526618e-01,-2.477630326968187191e+00,-1.457429217103192176e-01
-4.300668518551244990e-01,1.860793268359874908e+00,1.302814827642855500e+00
8.492672872595054961e-03,1.620675652473315909e+00,-1.594989491311304963e+00
1.243857289631623494e-02,-6.059914102571545280e-01,3.133965167833604237e+00
-1.108799040310323447e-01,1.374503249279182215e+00,-1.941778613873734516e+00
3.188182272897514130e-02,3.225366976331751623e+00,-5.459925212373269998e-01
5.513210963101174145e-02,2.653574088330253655e+00,-3.194922535576860678e-02
-2.554476351919020560e-01,1.359692235233292967e+00,2.048637829228598939e+00
1.045745021530662677e-01,1.570646271386343384e+00,-1.666748386237782542e+00
-1.052358850751784480e+00,3.331840766521020902e-01,3.043413215280049489e+00
7.003127660628678530e-01,6.930493082587734222e-01,-3.247873403327075525e+00
2.712838439754315378e-01,3.807980462336644223e-01,-2.268235879646117947e+00
5.651967213534481171e-01,-2.179695283275715045e+00,-3.897347516924754007e-01
1.116141919895405676e+00,-2.828897170169689002e+00,-8.428497389810847285e-01
-5.705490659438220424e-01,2.278739759845921586e+00,-9.496525115300173958e-01
-3.193363087025942459e-02,-1.806461263654043803e+00,2.849751165737151926e+00
1.049579968262778218e-01,8.492256054397289144e-01,-2.171338617208979915e+00
-1.949723958046658753e-02,-2.713968133460474608e+00,-6.011283604832333705e-01
-3.884260248922015712e-01,3.307851146036484558e+00,-5.938038433824402995e-01
-1.085113026091462790e-01,2.046360992004177426e+00,1.922610029459511871e+00
-2.191570068426424989e-01,-2.619867878759972957e+00,6.789389368829092941e-01
-1.150650767681785647e+00,5.666660660141168426e-01,2.923711253795921561e+00
3.884128805648892624e-01,1.827213426157046294e+00,-1.569934827881132255e+00
-3.920532569838561243e-02,2.536055957584765430e+00,2.848576403986659011e-01
-3.715278778436310048e-01,1.773023992350426736e+00,-2.429690129611927762e+00
4.827427397100214623e-01,-1.884958574115550567e+00,1.838855839307364404e+00
-9.729646808626510324e-02,3.019726459357630510e+00,7.616725230932411828e-01
5.681962891691283435e-01,-1.582510444791060511e+00,-1.571951157723187942e+00
3.396603895967588715e-01,-2.758307666829550975e+00,1.858591464922886960e+00
-1.483026423195542981e-02,4.080741633549065522e-02,2.863884869743410277e+00
-4.091899901964842767e-01,-2.672566948040143497e+00,1.291557001403218496e+00
-3.759657824803775972e-01,2.199897141135388257e+00,-6.789234961441013017e-01
-9.943480443309083219e-03,1.121455128230009202e-01,2.614439850893409467e+00
-1.123473863202805179e-01,2.360081834272475199e+00,4.727755879850360499e-01
6.926450056443616068e-03,-2.580895497631492841e+00,-5.676941875697968376e-01
1.183371175494410066e+00,-2.388812413063905904e+00,-1.116536743358061745e+00
3.801612864260631719e-01,-2.266037058040007324e+00,2.727053608947873631e-01
1.088966430403633501e+00,-6.219675994073443903e-02,-2.955582972583135515e+00
9.692629345144998521e-01,-3.019240607510253582e+00,2.250073015362245854e-01
3.812370787499301805e-01,1.189417582894606085e+00,-1.994564511602632928e+00
9.692208232878996021e-01,4.263817974930795285e-01,-3.036201314613420355e+00
4.610723189567902947e-02,3.063148368690213896e+00,-1.348674429986735257e+00
-1.193776372854558954e+00,2.015886168282301938e+00,2.062392288304538912e+00
1.231982018178674032e+00,-2.483538611836560772e+00,-1.312059757814841632e+00
-3.193736182708382110e-01,-1.608519638448341782e+00,2.968937383827116250e+00
-2.980534126871621781e-01,3.083464695255712762e+00,-1.422105020731336600e+00
3.305907864152783926e-01,2.773959257389428945e+00,-9.664187632679251960e-01
-6.221776951314623300e-02,2.346249995972990998e+00,-3.951155147132426881e-01
-6.888055385706728928e-02,-4.406312776510125095e-01,2.386201917619653390e+00
-7.074154932370002591e-01,2.497931707413628022e+00,-1.312679442365176197e+00
-1.177626497113271747e-01,1.112099781501492801e+00,2.448832958577339181e+00
3.450474711848177875e-03,2.180614704921029823e+00,-8.863711981340079982e-01
3.794532944038410127e-01,1.898369391083223556e+00,-2.829635032079366397e+00
