1.163790615814019658e+00,1.094029179337248747e+00,4.283348540796203530e-01
-9.065258070057063966e-01,2.232186209928622045e+00,-1.646766265247116001e+00
4.188583856168751618e-01,1.554251973844982482e+00,1.388557146086140115e-01
6.304291030505946303e-01,1.846404925307058686e+00,-3.445103871219798997e-01
-9.408960278664886545e-02,1.953278306893634131e+00,1.120527508348870827e+00
1.777641574109612543e+00,-3.831567352854589603e-01,2.166537134351122607e+00
-1.047941702592360969e+00,1.373258422844068516e+00,-1.428930553084541977e+00
5.957288039820184400e-01,4.005543023423767224e+00,7.217191543116154850e-01
3.125992312651213023e+00,-8.954004375686859252e-01,2.268059994936914237e+00
-7.481965886628256790e-01,1.376587767945817609e+00,-3.740863211769394070e-01
3.610595239595955075e+00,-1.100817282404385145e+00,5.312996639778666541e-01
-9.668435057463999893e-01,1.664989934247909975e+00,5.237588537430785118e-01
-2.554724144306376843e+00,3.130474016614229971e+00,-9.283993748743378793e-01
3.935659101741293409e-01,2.125003462644776686e+00,-7.146406742971860293e-01
6.255682530834643096e-01,-1.497689252659155645e+00,6.069851230349346816e-01
1.172092752172652519e+00,7.345178440563485678e-01,1.385875571931089567e+00
-2.818328532575286705e+00,2.886382235697479093e+00,-6.722510754435097047e-01
-3.141233831948674560e+00,-2.234102882060930995e+00,-8.887999028217601349e-01
2.581145395019053712e+00,-2.685737884417088051e+00,-1.763436911285094777e-01
-6.539845905741649146e-01,1.769426575390881773e+00,6.525988889073079946e-01
2.525447782113269035e+00,1.323126717310800560e+00,-6.396545354543546613e-02
2.152848098781989350e+00,6.014852046121927920e-01,9.189958083340008313e-03
-1.627112626152760866e+00,-3.660629680223020710e+00,-1.054968087395639964e+00
2.403427755444266900e+00,-2.637638267671918335e+00,-3.533098417790113688e-01
-4.584323349132982672e-01,-3.534382355377533536e+00,-1.449235188047904854e+00
2.987440421820923397e+00,2.238038937123988603e+00,1.816292226192502302e+00
3.537150665351168843e+00,5.425998525364557068e-01,1.983205167774277911e+00
-2.730490126982149102e-01,1.860064407746459203e+00,-9.558832300367740009e-01
5.966337190437753790e-01,1.699529633444865295e+00,-1.498620952679225737e-01
6.485409764738809812e-01,-2.715368519548294390e+00,-1.289330281024655411e+00
-2.649535120366779850e+00,4.894460531795193359e-01,1.043517833666704336e-01
4.930233756675245771e-01,3.067354964066832057e+00,1.677037996593201852e+00
-1.858132317198633254e+00,-3.499121975283582042e+00,-4.070681135477806079e-01
-1.177429404598923313e+00,1.017058546181876411e+00,-3.262578282436942034e-01
3.755029398882869351e+00,-2.054963565920025770e-01,1.851913565558783947e+00
-1.020253023743958432e+00,-2.970395738335257274e+00,6.915902660747438313e-01
-3.617980267674716366e+00,-1.294609698318428759e+00,-1.297059806568301665e+00
1.159642726693695725e+00,-9.269684854332430612e-01,1.167045841415811802e+00
-3.685665779674403009e+00,-2.096786746852953298e-01,-1.870126168480787499e+00
2.720261205188932441e-01,-3.407834050585058172e+00,-1.326641968677675365e+00
-1.821318763576142530e+00,2.494245730640308079e+00,-1.898182129820366937e+00
3.260169198918305256e+00,-9.787123797624716071e-01,2.059825570850673859e+00
2.382625356686890239e+00,2.885450891071154711e+00,2.562926739266156995e-01
1.162010926351554563e+00,7.231889334733503372e-01,1.013832688470227117e+00
1.355454678623724041e+00,3.700614545908148312e+00,-6.226918844916682488e-02
-3.785978556995364563e+00,6.202158194854310302e-01,-9.639167428386928860e-01
-3.861357691924323987e+00,3.566765007962692247e-01,-1.279355175475271444e+00
1.833637476416230427e+00,-6.110689372805747643e-01,7.046166079224094880e-02
6.439646029002260574e-01,-1.479480276462900035e+00,3.281838975335548692e-01
-8.394221897865004056e-01,-1.888298861405295348e+00,4.102571035841020564e-01
-2.254682497668529351e+00,3.069957859141961620e+00,-1.489757138328075436e+00
1.265735821685166185e+00,4.492077880801928491e-01,9.737049359051891395e-01
2.980989716481561302e+00,8.367923022677766776e-01,7.079144942331042079e-02
-3.568530498875556733e-01,-1.759611161872410845e+00,3.634132627479794153e-01
1.767046861030987071e+00,-3.088581204908880995e+00,1.527732251821620757e+00
8.993994072112665439e-01,1.423253655412877405e+00,1.658231830824383968e+00
-1.726452939455626501e+00,2.637867353874286724e+00,7.957598799467672235e-01
2.574703908289897036e-01,1.551881634987559266e+00,6.531397200655746360e-01
3.027249771554138658e+00,-2.264778603891255404e+00,1.662708034484337571e-01
-2.338674979874735271e+00,-1.143654443597752035e+00,8.829512621633328617e-02
1.466528229672109385e+00,4.411077987967128577e-01,1.895186952586772833e+00
-3.235656669716703515e+00,-1.985136345530241764e+00,-6.025965600127983768e-01
-3.956079503709211687e-01,-1.535688319463558882e+00,-7.727399339970940639e-01
-3.705861911690118582e+00,8.117236911445595560e-01,-6.065806382510572359e-01
-6.782089255935613847e-01,1.631090040408333497e+00,4.668840879335772187e-01
2.878843337651463052e+00,-4.607709679332153696e-01,2.395292671975486787e+00
2.358782959507879529e+00,1.455000671712163962e+00,2.420932240160714066e+00
-3.560053361145898876e+00,-1.552210632673418411e+00,-9.440800369610687914e-01
5.953677117896563620e-02,-1.989891542377981715e+00,8.880338755797609895e-01
3.081135603418931002e+00,9.998253251125009955e-01,2.331958328134403402e+00
9.264053095059775478e-01,-1.707694179701509718e+00,1.471792102032614569e+00
-2.545863045893734800e+00,-1.002238069424331357e+00,4.152033745695618561e-02
2.582038835168281921e+00,1.950502967550719058e+00,2.181382022860332448e+00
-1.055865203815591125e+00,-1.029942000756450593e+00,-1.446715411181074051e+00
4.612288570121935750e-03,2.092878591822523227e+00,-8.729984802703382174e-01
1.402561863553930976e+00,3.588967466660875960e+00,1.365556348861996172e+00
-2.697326751922072052e+00,-2.256330785244551329e-01,4.848662793368844690e-03
-2.744374282605766435e+00,2.247685119889367478e+00,1.450229369372401100e-01
-3.431536428422865104e+00,-1.860680842840766180e+00,-1.246965977442750395e+00
-2.408467762121673683e+00,2.950332889192408103e+00,-1.443928882641899669e+00
2.871888920915797172e+00,1.171619867331681608e-01,2.460261693837154429e+00
1.279866289678414315e+00,-1.465083724428676293e+00,-3.202831472598648976e-01
8.625000754897312050e-02,1.736034758053375260e+00,-3.814020265911965968e-01
3.162177941447497531e+00,2.090304115549705521e+00,6.789676613128299287e-01
3.167241470969929473e+00,-1.942152363731792786e+00,1.668702591575147443e+00
-1.221439718930134255e+00,-7.057464031076157163e-01,-1.075668811482768605e+00
-3.650230418366309681e+00,-1.144848123063284984e+00,-8.368794729667096144e-01
-1.340261887791494466e+00,2.112418307294829933e-01,-1.087030370073571284e+00
3.220955722195912418e+00,-1.625454795180585776e+00,1.923207736328901962e+00
1.438215610831736546e+00,2.195119154279541629e+00,-4.625156890272236199e-01
2.121089172287613067e+00,-1.912425276976989164e+00,2.125670140590136370e+00
-6.500093078127266999e-01,-1.735915950352172388e+00,2.556172182066603904e-01
1.649474935596723091e+00,-3.305188543616967234e+00,-6.126824599631272017e-01
4.655453437721089327e-01,-3.037305260689610709e+00,-1.390156155266257576e+00
1.092085451742120655e-01,1.698299477235489796e+00,-2.456760187804665208e-01
1.885117725060973637e+00,2.952236051513449366e-01,2.270707579948246568e+00
1.755097226698580259e+00,3.383507256750849734e+00,1.462101087447700953e+00
-4.416783748890318884e-01,2.171218031584365438e+00,1.174512337978971033e+00
2.223169072053568840e+00,-1.757952884418994000e+00,2.196502695299141994e+00
-1.842297666457924699e+00,-1.289863309582223172e+00,8.451156614906202291e-02
1.485178489164758808e+00,8.810234585309054678e-01,2.109622297238328059e+00
1.007942130894448285e+00,-1.620454011295758168e+00,-4.166509847396373534e-01
2.604782975281609403e+00,1.303463384785769064e-01,-3.485699787627401236e-02
3.128055445652088373e+00,-2.543810772523741992e+00,9.821052582923769370e-01
3.256554364890394293e+00,-2.229482131821858726e+00,5.300550782300944563e-01
1.562945417145277238e+00,-7.781406135701915971e-01,1.497857467548335819e-01
1.362943160505574403e+00,1.916531280416580607e+00,2.151239142061811993e+00
9.266925180700370523e-01,3.889929128845406314e+00,1.009864880672606935e+00
1.918002323390868735e+00,2.683647879313178386e+00,2.038073344277657739e+00
-1.339778515475516629e+00,-3.277889166458135772e+00,-1.770067298770937825e+00
6.915757454753240774e-01,2.232657154268331556e+00,-6.531067812055265653e-01
4.830085540512701892e-01,1.585233963405335400e+00,1.257739086589189759e+00
3.787045072926643385e+00,-5.505169917890516684e-01,1.462006602188524296e+00
-2.496547425452911195e+00,-2.450972713057539387e+00,-3.764219032480649318e-02
6.891272465667623859e-01,-2.545995731311928356e+00,1.587846213118720984e+00
-3.761947862846801716e-01,-2.406287682397083572e+00,9.178003850486233794e-01
-2.809522161328481982e+00,-2.733093309226819034e+00,-1.091385797277390379e+00
1.854398391207799257e+00,5.817059946797685788e-01,1.713853029055673882e-01
3.331554562849448953e+00,4.464781974339058213e-01,2.753042468424991007e-01
8.097598906970839838e-01,-1.379664784911483366e+00,6.492407869664327258e-01
-2.752965865084858077e+00,8.388694360885453616e-01,-2.369311037894760830e+00
-3.672776650187703051e+00,1.101868639412403317e+00,-7.330886218878179816e-01
-3.863538798324379187e+00,2.408667078623471791e-01,-1.004594269335481682e+00
-3.273543539303733763e+00,1.960623059883720432e+00,-1.504934672646166094e+00
1.818542478185004141e+00,-1.778160225330039035e+00,-5.359132482431950839e-01
9.348417633474186417e-01,1.078328417957141960e+00,1.129281392413208351e+00
-3.779408272092737775e+00,3.826753606236051319e-01,-8.984155923543605260e-01
3.669963865336793862e+00,4.958927973497026520e-01,1.731400030225643594e+00
-8.829996650453835194e-01,-1.838554872767790505e+00,3.545792009236390374e-01
-2.786647584122939225e+00,-9.940978382464237262e-01,-3.232731175301620241e-02
-3.503501847314092643e+00,-7.143036107428821224e-02,-2.941463115804412998e-01
2.789696419118817827e-01,1.547672101288242397e+00,2.867733197029302961e-01
-1.992570868935641171e+00,7.176582581506730785e-01,-2.285417156019236451e+00
1.809669389940240958e+00,-2.955463511845193736e+00,1.616385400757605062e+00
1.811995366885035819e-01,4.055638318189116021e+00,-1.694033972750128292e-01
-2.709174985167464023e+00,-7.113349401341021450e-01,3.887331748092075906e-02
-1.091197886724502464e+00,-2.333400904912521501e+00,-2.037138664954550205e+00
4.088186778928869503e-01,-1.642832133547554641e+00,-2.903536210981437493e-02
-1.687865685596965148e+00,-2.481805245293528639e+00,-2.136922750734114640e+00
7.595206073462191787e-01,-1.600504408593343975e+00,1.188400736332374974e+00
-2.630370641519820252e-01,1.574677698266854886e+00,-2.135253060624409671e-01
3.950794303299400290e-01,2.330747279215767076e+00,-8.717536490110172620e-01
-1.326750237829255274e+00,3.151331614639670597e+00,-1.488401633871618168e+00
1.614124943161464043e-01,-2.530354308440372346e+00,-1.460980699251496207e+00
-1.214868250605377842e+00,-8.323931038760448153e-01,-1.606124560701417847e+00
-1.179982532720540434e+00,8.780418089643683421e-01,-9.833806388597658987e-01
-1.233611535508840618e+00,-1.191840943189928392e+00,-1.901499191899590768e-01
3.400590830211260851e+00,1.657804623921236065e+00,7.013935287950817665e-01
1.889402485120987629e+00,-1.717874063205968027e-01,2.281868851272264465e+00
-1.242960382432623412e+00,8.383068608829971069e-01,-1.422578183570301968e+00
-1.645323192157730485e+00,-1.915826754794527798e+00,2.700228381518097742e-01
3.422743381341315949e+00,-6.304319909563644853e-01,2.045870851365041709e-01
1.673782063484928306e+00,-1.985200797534875550e+00,-7.261604523217296547e-01
3.249654174345320001e-01,-1.572436562456386744e+00,4.091555575049924398e-01
1.481330264156995202e+00,3.513561740874634465e-01,5.741539824798611580e-01
1.916690196657143463e+00,-1.443696503938414200e+00,-3.975068361972972086e-01
2.792427822787170388e+00,-1.060418319707133961e+00,-1.432108784428198500e-01
-1.903534745578500553e+00,-2.591195634265520020e+00,-2.069542986016159603e+00
-1.373509576883612304e+00,1.403051120734090773e+00,-1.833285560810888892e+00
1.405288664135011745e+00,4.180716333959583197e-01,1.778371144452607799e+00
-1.471234701669275724e+00,1.307758299101048127e+00,9.582747434395189057e-02
8.611551839848233802e-01,3.493753669384938476e+00,-5.708046529240405897e-01
-6.106568231890856513e-01,-1.712304042104213719e+00,2.464656136100712713e-01
5.959443711988108294e-01,1.560980436906704627e+00,3.018373314495076398e-02
3.450641161500612508e+00,-9.266667696892717521e-01,2.783499498427315366e-01
-2.529032216932708410e-01,-3.208380508190993741e+00,1.042372708736783338e+00
-2.505702334986150248e+00,2.000117154464448710e+00,3.294154629225723996e-01
-2.742595238305192584e+00,3.602354578398715979e-01,-2.429956016983785272e+00
-3.587648313712620940e+00,-1.041264615398750371e+00,-1.655193664965014744e+00
5.678007263585251874e-01,-3.684533386441986025e+00,-1.043120122234337810e+00
-1.292011356840617464e-01,-2.719427938252858556e+00,-1.655409256407458729e+00
-7.233218690231959513e-01,-1.721383560920986211e+00,2.020759111876401504e-01
-3.838965377680905622e+00,3.814936307739650312e-01,-1.430703460339633359e+00
1.782517609910894363e+00,3.358583707600597545e+00,2.247197808239259978e-02
-5.128250067223565356e-01,-2.158068908934871466e+00,6.878714449504965689e-01
3.082209455758678995e+00,8.760748356011915927e-01,1.276841274813034777e-01
3.417608653538561025e+00,6.686371958607467691e-01,3.426211497862415856e-01
2.531480015996486088e+00,1.922312201768834328e+00,-7.808157805392691719e-02
-2.145083982827805935e-01,-1.634354670650968622e+00,1.463731471522708438e-02
-7.695949800237199545e-01,-3.424218949032822312e+00,6.601787526667832751e-01
-1.902348537428271369e+00,-3.969433786177411494e-01,-1.840115002200848893e-01
1.100344910598160197e+00,-3.137841945725182047e+00,1.460219399969115761e+00
-1.528317976510326526e+00,8.438743982037724134e-01,-1.299143901083700259e-01
8.911167151318633017e-01,3.388483329845342062e+00,1.643187979361785178e+00
5.351906878982382043e-01,1.716516285658395535e+00,-2.045140540061381185e-01
1.598947001669175361e+00,-1.563058476777099193e+00,-4.934560241511003476e-01
-2.953541124756140501e-01,2.226262993185985639e+00,1.263588144095135757e+00
-1.166807128976184327e+00,2.161715147873056520e+00,-1.754257858415376070e+00
1.419891103654232323e+00,3.416624574343763765e+00,-2.584545491215359814e-01
-9.521270128876079264e-01,1.283129747051158231e+00,-1.073146895495785902e+00
-3.573492567009875387e+00,-7.689379608155899604e-01,-1.931889019033278254e+00
-2.364539974425328428e-01,1.528443968228903938e+00,2.139149486447413165e-02
2.326849057567780044e+00,-6.778042955872274344e-01,-1.235680320301561080e-01
-2.245065940215442701e+00,-2.984609844956750635e+00,-1.639952192803950215e+00
2.287655482357200842e+00,2.283681819175281014e+00,2.140716558872689745e+00
3.600370136697768952e+00,-1.253791988467195084e+00,1.596549327997293988e+00
1.970498294700319564e+00,7.661029412227857716e-01,2.382092412941799964e+00
4.279117192511462942e-01,3.998051509079981081e+00,-1.583133227515639008e-01
3.603118040871786221e+00,4.000093705424950102e-02,3.907512797595341092e-01
4.921748747433691284e-01,1.785253930475286577e+00,-3.001696882601525007e-01
-1.289624742461275897e+00,1.054566285016833360e+00,-1.849586670114802545e-01
2.235655687778120848e-01,4.150203929236125688e+00,3.163909714209108826e-01
3.234787081397954456e+00,-2.022308010338080386e+00,2.381079108653323673e-01
-3.844338182547145433e+00,4.731480758635192019e-01,-1.281607605211292578e+00
-1.241416211064362063e+00,8.386243203491442477e-01,-8.180208502176533614e-01
-1.776050855633616754e+00,-3.739798901573156975e-01,-2.201990619599191401e+00
-8.413193957627410624e-01,2.792589723829832948e+00,1.217367137698875723e+00
1.531217534650992418e+00,-2.528889992342489901e+00,1.862988239186551098e+00
-1.608137421688148105e+00,-1.580196189073336033e+00,1.913455067814096022e-01
6.777435325392091592e-01,-2.225458734702435937e+00,-1.123405503947703110e+00
-2.753319380261031846e+00,-2.073857106487811297e+00,-1.331357018626565247e-01
1.818757503828310806e+00,-3.520152392804563601e-01,2.211931269619067386e+00
3.583800045579553561e+00,-3.428314084351651303e-01,5.027727400909086652e-01
3.218076990557021233e+00,-7.279639361625440952e-02,1.180618033518819610e-01
3.186909677135468577e+00,8.950270709063418151e-01,2.249730978588823760e+00
8.607664895051996279e-01,-1.347257726535950217e+00,9.639052344816332329e-01
9.543974529806793505e-01,-4.000381951766812882e+00,-1.276010249682206672e-02
-2.152964549262715022e-01,-2.020571517599919265e+00,-1.455483758258142579e+00
-1.079560915757549866e+00,1.397297966794224688e+00,1.419186909644627181e-01
-2.190345634075304471e+00,3.383865812648749749e+00,-2.395019163666872730e-01
4.422259076060011118e-01,-2.067123831248474097e+00,1.212482322812386881e+00
-7.749728984703334600e-01,3.962294720030801187e+00,4.215261156479438998e-01
1.784958111363148081e+00,-4.719182103499795500e-01,1.093587970897528933e-01
-2.006274453833396088e+00,-7.094004055806766296e-01,-5.727185618562136843e-02
-1.470986858667130859e+00,3.821160522359528411e+00,1.515955122469304084e-01
1.535293789612692805e+00,1.449526309834742621e+00,-1.006641131237697023e-01
-1.846185467111439271e+00,-1.034753573296687712e+00,-1.480076818642708791e-02
5.349556771350526541e-01,1.784754644793059786e+00,1.599881074236499279e+00
1.271781919122773274e+00,-3.091474361027886530e+00,-9.964891747984755410e-01
-2.318154100480608104e+00,-2.426457555673778577e-01,-2.447418550780958046e+00
-8.805605998905557952e-01,2.105369039485509575e+00,-1.673246339298772201e+00
3.159585646405144388e+00,-1.017341794516242404e+00,3.253483523522988224e-02
4.260618808510887451e-02,1.891572321727779116e+00,-7.036972277015143273e-01
1.198249380874027104e+00,-1.422345737131286869e+00,-7.056199253575608232e-02
1.325397620827756695e+00,-4.896824741342457044e-01,1.048607613940157668e+00
-1.730719969190789742e+00,2.859415648953878453e+00,8.011116949808678722e-01
1.789896634888905602e+00,-2.396565214478386885e+00,-7.420239973260818189e-01
-3.671754580116247890e+00,9.874019032156781117e-01,-6.467636725430383482e-01
7.023859872501563295e-01,1.479247594550234801e+00,2.553983055751981035e-01
1.862197642767859707e+00,-3.395297205692390907e+00,-4.207912075674969388e-01
-5.723909469820308571e-01,-1.901987868701390028e+00,4.594974711648257548e-01
-1.092468156405067337e+00,-2.884125767675890462e+00,-1.940257114108861369e+00
1.652072713028419848e+00,2.730902073779742700e+00,-4.087239373157143252e-01
-9.366437706527744878e-01,2.659743194482849571e+00,1.173838985278039315e+00
-1.388842638745534819e+00,3.744968378088187055e+00,3.289479314757401407e-01
1.079367050010301005e-01,-2.787728748783390387e+00,-1.488531106627222877e+00
-1.265044672082437760e+00,6.896885471916207599e-01,-1.244816619932222812e+00
3.149077644991985281e+00,2.968650462942194479e-01,2.287800237713677909e+00
-3.303198003356867751e+00,1.268688197692903197e+00,-1.572375776326649655e-01
-2.714898781754683910e+00,-5.775842228063768902e-01,1.090588970637484424e-02
1.868617827250043772e+00,-3.585097334954736592e+00,-9.177151018650521463e-02
2.511261646598500263e+00,-3.129459025177450560e+00,7.429677599642449115e-01
-5.537125187459315256e-01,2.545148390905909608e+00,1.272588982727411278e+00
-3.192208560826186758e+00,-4.775761293602134305e-01,-2.291211104602347337e+00
9.312688837639426787e-01,-1.197713901831430894e+00,5.927449534077341431e-01
-4.599559051008287325e-01,1.553937093129207803e+00,4.427899247002137911e-02
1.520786918913769714e+00,2.645178346093676747e-01,1.949454592405114761e+00
-1.414646363850024402e+00,1.220545525561328448e+00,-1.840424861366264375e+00
6.054841172991964893e-01,-2.824631483950810651e+00,-1.347313545208706387e+00
-2.850608040833582990e+00,-2.018312678762728574e+00,-1.982978638551082362e+00
-1.683349571289785684e+00,9.984864751668552918e-01,9.980640318725467197e-02
2.659316240540741560e+00,1.131708948083232913e-01,-7.104309506315240053e-02
1.293782501930945683e+00,-1.605202447124256304e+00,-4.315717934546539625e-01
-1.332269735213335304e-01,4.075075054782892003e+00,-2.304663002443118058e-01
1.905887567482281497e+00,-3.688677797709891681e-01,8.515115751673768552e-02
1.478495824170625417e+00,2.743941052647262069e+00,-4.830881462067743715e-01
1.720120775054424067e+00,2.655482370027019812e+00,-4.525542547960988427e-01
-5.286189498779361728e-02,-3.657265210975341851e+00,-1.292201819446020306e+00
8.547650807996158839e-01,-1.343615491954451402e+00,2.836165079486110407e-01
-5.646961664732791375e-01,-1.459456570649620755e+00,-9.569121196568387555e-01
-3.200912105930978413e+00,1.626164767886385087e+00,-1.536995633036991604e-01
1.646268992421063837e+00,2.879245490286820974e+00,1.961178990713295489e+00
-3.433989004466348138e+00,9.844797148879275150e-01,-2.907813042913900414e-01
9.969660634560902901e-01,-1.972649399212813348e+00,1.632617022211284352e+00
-3.563252688770640386e+00,1.606008839387656373e+00,-7.285046715654456273e-01
1.502282872864162400e+00,-1.722837258883719302e+00,1.939994193140563317e+00
-3.816013769905545860e+00,-5.385173665514825236e-01,-1.014349607855102198e+00
1.096569745193754608e+00,-1.197577028035760938e+00,2.181250356789559974e-01
1.365459564523592295e+00,-9.527800772322682077e-01,2.650795124408786285e-01
-3.105205676882818899e+00,4.278156230814085803e-01,-2.321225350920848918e+00
-2.746843565843806179e+00,-5.953683966955337177e-04,-2.499667140058811299e+00
1.352648177408645624e+00,3.301976681389973134e-01,1.443544188621490587e+00
3.387070466283460757e+00,-1.401974932911901339e+00,3.223565229098457885e-01
4.293522914527990730e-01,-1.522388432813883696e+00,3.830193361915698591e-02
3.805518722156263856e+00,-3.976543294687748253e-01,1.533058079543119456e+00
2.324632421753876077e+00,-1.751617335897361016e+00,-4.295378914930942926e-01
1.397302323648001110e+00,-5.644083893887354986e-01,1.577771187988688872e+00
-3.269031347253378073e+00,-1.294922567582872608e+00,-2.078209406870882514e+00
-2.147188690025014779e+00,3.202042493048455007e+00,-1.264882422822900754e+00
-9.284628437687471036e-01,3.970757085508094253e+00,3.253107388387559418e-01
5.865511178821894989e-01,-3.941915694729246411e+00,-7.299988839464048862e-01
-6.143756293132085489e-02,-1.879146155539386465e+00,-1.215794757237629087e+00
-3.166206030691223638e+00,-1.720586042887853884e-01,-2.342666422168043106e+00
7.998263084349229723e-01,1.782160046101789019e+00,-2.573326368363006988e-01
-1.191810036903083514e+00,-7.999285745833335515e-01,-1.503437622792321626e+00
-1.090606427287077018e+00,-1.829309193228128905e+00,3.111618978811144798e-01
4.848097277268491601e-01,-1.577126342497244149e+00,6.680092635281620339e-01
4.070514670006550872e-01,1.620163543571372378e+00,5.967791052216723374e-02
1.824439337710105136e+00,-2.706058543414619599e+00,1.837630300980344522e+00
1.526836271132989475e+00,1.535197384028689438e+00,-1.635294841102332419e-01
3.841066546487522437e+00,-2.042671069326192079e-01,1.011795970483957863e+00
-2.089967287009848906e+00,-3.053890000899945889e+00,-1.642780187168549455e+00
1.927192452797520383e+00,-1.007444203507100067e+00,2.176921321157805345e+00
2.897513839112761946e+00,-2.465103311705013844e+00,1.171312588885118078e-01
1.310524589311999888e+00,5.188986847751049236e-01,1.708264816263071140e+00
1.864529487436518806e+00,2.535845507066227800e+00,-3.486380039613648507e-01
-3.659694044781300448e+00,9.168680212193909274e-01,-5.753390059281541236e-01
1.149976693023085250e+00,7.434460668377070869e-01,1.159826454349437430e+00
-1.884774691426495119e+00,2.594623722545350564e+00,-1.817257242161676167e+00
-2.251882199403843973e-02,-2.034233874450421364e+00,-1.367414099892603874e+00
-2.577248302016486914e+00,2.777770514386607381e+00,-1.498998137783586815e+00
-1.406765604459234265e+00,-2.458618220475853544e+00,-2.121420529376957020e+00
6.781668133410617694e-01,-1.504931358538045716e+00,9.348428096689012090e-01
-3.692497686588728456e+00,2.184193460201683257e-01,-6.046321639344096610e-01
1.811630068159097107e+00,3.540217878467788459e+00,8.152634148822459625e-01
7.117924650750243609e-01,1.306853746802060678e+00,1.075689597701088962e+00
-9.473171294355446914e-01,2.849483734958653258e+00,-1.565451626141333596e+00
-2.330940608554646687e+00,-2.329817211762301721e+00,8.159144032922450995e-02
-2.039801432317537078e+00,-2.082901813071394326e+00,-2.270260607622861304e+00
2.987404961756832122e-01,-1.673910074015537930e+00,3.043779972410541879e-01
7.569135781323803602e-01,-2.150752056542610369e+00,-9.701857805888326469e-01
4.408704189182277022e-01,-1.703431001219246621e+00,8.687846493890479804e-01
-2.603986684615526848e+00,-2.553513532506527017e+00,-1.652146089139035212e-01
1.337839791403144796e+00,3.277563978510851239e-01,1.205495082066567081e+00
-1.525039047404668002e+00,4.405415184158935071e-01,-1.845699723330039843e+00
-2.070066814578827685e+00,-8.895064943195617468e-01,-2.386663954337011617e+00
2.520447999328879751e-01,2.293436617503792352e+00,-9.068506448248125906e-01
-1.888321149001050525e+00,-3.003378430875927485e+00,-1.851195963646154574e+00
-1.469789999986583551e+00,-5.509334018896440248e-03,-6.885744994829009480e-01
-1.380506380230781316e+00,-2.715392112184871642e+00,-2.064350518427492620e+00
-3.025866156439926069e+00,2.354026162402478750e+00,-2.669883629316761597e-01
2.136344896371934698e+00,3.369700769039330357e+00,7.247232417360979229e-01
-1.697336294398673617e-01,3.248473874408050577e+00,-1.178574778304995574e+00
-4.227304409999069756e-01,1.571067513393054060e+00,-1.994537622519050035e-01
2.519171935709461518e+00,1.199493505025692880e-01,2.473491299297658319e+00
-1.378130400462081795e+00,-4.961388813689925903e-01,-1.823544399097817292e+00
-1.723202337483631830e+00,2.222152254210854494e+00,-1.926242482541774104e+00
1.705295371824362194e+00,-9.014573044241848132e-01,3.529827565942122991e-02
-5.263762303458600078e-01,-1.555087576628980006e+00,-1.288797940555240995e+00
-2.970773968695795464e+00,-2.470514111830272697e+00,-6.888989200872880359e-01
-2.850657181204060198e+00,-2.555976637938015106e+00,-5.833696574301537874e-01
9.520808112385041877e-01,-2.308483770460749707e+00,1.660953131261290183e+00
1.793420810341269434e+00,-3.637482740749215182e+00,-1.054648535489171451e-01
-1.863714449038270382e-01,4.093623664354959502e+00,-2.286554931678692060e-01
1.833379089870735612e+00,-3.694449747522952077e+00,5.908904166404180813e-01
6.724325862117126462e-01,1.439315103890905112e+00,8.991395135145033857e-01
-3.237848514574085179e+00,2.109320575704235701e+00,-5.060373450979125387e-01
1.575034932320903414e+00,-2.832819525503594171e+00,1.730039776063583945e+00
3.300981739594518238e+00,1.969390194425022278e+00,1.283907501091964498e+00
-2.303687157114286510e+00,-6.686331340958214797e-01,-3.145472807025968820e-02
3.866210954466597460e+00,-3.154692274188551915e-01,1.162491171678794899e+00
1.410018173152741472e+00,3.785022907927755753e+00,9.159313056805610254e-01
1.427710676306663595e+00,-3.699913415352120261e+00,9.650405319306701868e-01
2.936539932634521399e+00,-2.199115420169330370e+00,2.081769678358000308e-02
-1.343312615972216961e-01,-1.599127458835719162e+00,-6.782828001172717114e-01
2.754664747440213723e+00,-1.892854397422242541e-01,2.464278239994426745e+00
-3.171764211009926449e+00,2.428176661353745214e+00,-1.211051870825699206e+00
3.792288734111285642e+00,-7.156358659085187979e-01,1.470776490385303115e+00
2.646485094169665597e+00,-6.906756998623641008e-01,-1.201044161381572967e-01
3.043712812040191285e+00,4.697033496296872945e-01,8.097211680012139645e-02
-2.139082894817225799e+00,-5.069750222564519682e-01,-6.444826103416617658e-02
1.998691029018769605e+00,-4.873062846517672297e-01,1.862465385946853250e-02
-1.134191633711918445e+00,2.089594719555159408e+00,-1.718315386759778685e+00
8.377505174851863634e-01,1.319053128699396282e+00,3.465390484640935020e-01
-3.286272148398772686e+00,1.669938083150152242e+00,-1.766181668484890777e+00
-1.361953468897262542e+00,-3.571626248167481865e+00,4.011635058593986808e-02
-7.539694385323558734e-01,2.064993643924266209e+00,9.301965622573395986e-01
2.067959446422877434e+00,6.905547657043460408e-01,2.388218752894819108e+00
5.595616758507377941e-01,1.601391194183771960e+00,-1.799023128769022210e-03
4.894831501814080887e-01,-3.291737999174126461e+00,1.257546291501734137e+00
-2.591768946533933970e+00,-1.669224998892641088e+00,-2.313023781220362451e+00
2.591417803476479431e+00,-3.017907930618155987e+00,2.947398890416750294e-01
1.197708711423852490e+00,-2.518816732012403303e+00,-1.006338995922506196e+00
-3.418706536755405700e+00,-6.514678548522645496e-01,-2.943069771592303208e-01
-6.798492829115266624e-03,2.516868941172812679e+00,1.588818832059308184e+00
2.258964031653795779e+00,8.210645386012207503e-01,-4.371270000378654763e-02
1.367159774733126776e+00,5.252762505721553232e-01,1.760483755379666837e+00
-5.994020892152273072e-01,2.365345679874957696e+00,1.238368236910952991e+00
8.383894949446769607e-01,3.444618673552069410e+00,1.647602485817502016e+00
2.367484744707872291e-01,-2.837742206411770329e+00,1.272002790583316223e+00
3.747790311920807249e-01,-1.635650069748072033e+00,-4.984990817166974897e-01
-3.777354175619685339e+00,-6.656399635624066224e-01,-1.421730136245325404e+00
-1.104049373023726188e+00,1.108486962112104512e+00,-4.688581752906663680e-01
3.608124959383895436e-01,3.350556412285247809e+00,1.584057634072787879e+00
-1.094864852486030049e+00,3.360533489136160235e+00,9.209664186089153715e-01
-3.326728723853506597e+00,-1.868208654013113978e+00,-7.966596446991367486e-01
-8.577013676775596673e-01,-1.304021865984437145e+00,-4.358277414580895015e-01
1.360475966077202115e+00,-3.272598499497354041e+00,-7.621557169513679675e-01
-8.637259939225548910e-01,-1.167378499010327975e+00,-7.898121572258930412e-01
-1.875630493686005096e+00,3.004112120953773335e+00,5.637191937526926377e-01
9.818428304788715533e-01,1.359561981892244198e+00,1.733965710947051209e+00
1.609503038249335827e+00,1.992147348425421516e+00,2.241491946220955267e+00
3.728391858048755170e-01,1.517477451436547664e+00,5.700426839358909703e-01
-3.790652738340021699e+00,-1.145588206969319206e-01,-1.645970703079043362e+00
-2.536945014764805606e+00,-8.497324592047350578e-01,-2.439370653323004401e+00
-2.702662977273377010e+00,2.921109243669941957e+00,-1.120093907425353086e+00
2.032578654072699553e+00,-2.356460606202396557e-01,6.039800843923295165e-02
-2.753150019641678270e+00,2.909335097562553596e+00,-6.501395936602444303e-01
-1.100885854945601039e-01,-1.669876659370601368e+00,-8.590920810322103529e-01
-2.548684607583838524e+00,-1.339963101349940677e+00,9.422345095366617407e-02
3.824334290176228945e-01,1.869290817291117124e+00,1.535013498146557520e+00
-1.938456419241295636e+00,7.640995149198296366e-01,9.634467573804671170e-02
1.560174429160073428e+00,-2.658239945885467609e-02,5.520525959068635080e-01
-1.343560437682531195e+00,8.741437775458029691e-01,-3.473303100658948761e-01
-2.469069580574843048e+00,5.206017691797066860e-01,9.152170504756387825e-02
8.044238301105288702e-01,1.281091508110381749e+00,8.084327193505999043e-01
3.110539106762679307e+00,-2.156631487222174126e+00,2.515767710436956905e-01
-5.006319278613012569e-02,3.262367437097728473e+00,-1.076512743524004501e+00
3.670329022326160207e+00,-2.946466398121797003e-01,1.867696536826153553e+00
1.582087078696765792e+00,-3.727171625651367837e+00,-5.204401902455446649e-02
1.316534466369994938e+00,-2.102425241186864469e+00,1.817301512282203824e+00
-1.064218290644531661e+00,-1.939106442332442226e+00,-1.996417911532868850e+00
2.964118301470152872e+00,2.047562233085598038e+00,3.189081899549207622e-01
-1.327253078796537755e+00,2.120134550034691756e+00,-1.874464205714373444e+00
2.683259687793436932e+00,-1.148644493858370197e+00,-1.807925073636525437e-01
-1.566709535188016700e+00,2.745767538494033655e+00,-1.771604546690509263e+00
-1.501543549646797704e+00,-1.275569610815480592e+00,2.036784455935033902e-04
-6.771249028837919015e-01,-2.013803094410738126e+00,4.684197946240817867e-01
6.848020669817182771e-02,2.619222095074536405e+00,-1.177738051466952651e+00
1.764964351470873716e+00,-1.720528763439361120e+00,-5.605501810297017773e-01
-1.507038228084172093e+00,-2.463210484035742276e+00,4.798640038618856019e-01
9.804613596530876718e-01,-2.571987754409925664e+00,-1.076549042357792363e+00
-2.971027003823249579e+00,2.690931574412914085e+00,-5.732364807221207448e-01
-3.530109908975175959e+00,-2.439596928328657544e-01,-4.219887473799592281e-01
6.341188107403344931e-01,-2.257009809501111075e+00,1.478512337303816260e+00
2.764369465143332150e+00,-1.210648037145674261e+00,2.304657442734395545e+00
-2.764191392464249830e+00,-1.811542208090773709e+00,-9.356418203608364570e-02
1.093433818951474734e+00,-2.881330343956447493e+00,-1.082662056199258593e+00
1.505995609159312132e-01,-2.283610744036663309e+00,-1.362045976936781422e+00
3.729254397479428107e+00,-1.117070214118652594e+00,9.291466256247759015e-01
1.176390759602875313e+00,-2.097255513260277482e+00,-8.908980707698925805e-01
-6.944124249904394253e-01,-2.127177553326624615e+00,5.937177924420189434e-01
-1.231932097092934830e+00,-3.684172931786139138e+00,1.143400648151353949e-01
-3.172987852477679449e-01,1.942783789611591816e+00,-1.036973953102922952e+00
5.120309391750385020e-01,3.650382666991905722e+00,-5.985853089599180166e-01
-7.218199802783099583e-01,2.567610338566590489e+00,1.257654789041562804e+00
1.394837631309643777e+00,-2.310117476909772094e+00,1.864698629606132974e+00
1.323899544749960411e+00,3.297830287478721534e+00,-3.694687948547875078e-01
-3.306909825243159240e+00,3.792080442089300063e-01,-1.234803238298866623e-01
-3.097500527210002463e+00,2.377740714678420186e+00,-1.108705430807097603e+00
5.293419183285953400e-01,-3.387017939659305199e+00,1.221725350120993481e+00
-5.761443328612189108e-01,2.876848316730868937e+00,1.329168832329975292e+00
-1.607608672099828162e+00,1.801773977641360380e+00,6.081658100185776128e-01
-2.019444192604505695e+00,2.564265580867689742e+00,6.789669452849411702e-01
-7.681792236789244388e-01,-1.422956595058155527e+00,-2.145243179710835946e-01
1.110489515986969211e+00,7.316791495585017735e-01,1.040757846049595647e+00
-1.456113172264640099e+00,2.949143217545984186e+00,9.337979032322989426e-01
2.129555084287665601e+00,-3.030429947157720516e+00,1.478896915239459542e+00
-1.592153139646124815e+00,-2.434896647057902985e+00,4.642903824926378764e-01
6.996134184439722903e-01,-1.478227804263015033e+00,-8.684719409476668317e-02
3.306626098443313233e-01,-3.938855066817430917e+00,6.380167766772854021e-01
3.487629243666121148e+00,-1.840827453546666881e+00,8.628856871482393220e-01
2.447442430515118339e+00,-3.013213242075217568e+00,1.364602514965616908e+00
-2.063512828823061418e-01,1.765362889168004434e+00,8.230726259769800546e-01
-2.756428629720218737e+00,-1.280598162020349262e+00,-4.568844233829556095e-02
-4.741472406813581064e-01,-1.462356826563252499e+00,-3.773848009832367900e-01
2.378807674012445306e-01,2.736351651909472604e+00,1.680091221728769346e+00
1.046230761340614324e+00,1.490712235225192916e+00,5.086253761193410688e-02
1.573279064444889075e+00,3.359181303545021091e+00,1.606956755228523104e+00
-1.037122739124135773e+00,3.503368379363730689e+00,8.773173315089415336e-01
2.502726554097023381e+00,-1.198708095990876021e+00,-2.610275955207073117e-01
-1.381798885873600113e+00,1.235234040978399506e+00,1.796658898602622179e-01
1.473467211108252295e+00,3.929177530905946236e-01,5.921339211552613113e-01
-1.460354508622535352e+00,3.078767250180033610e+00,-1.568256566885982251e+00
1.353445354268934420e+00,-1.462889981332946787e+00,-3.344355666676201988e-01
-2.491760424674620111e+00,3.045199520078687317e-03,-2.518080148301811594e+00
-1.433562370435860767e-01,1.797067376702087271e+00,9.263825795195966828e-01
1.734636031446352922e+00,-1.367605947364723518e+00,-3.695645914581661140e-01
-1.893836490631517933e+00,1.484527673955904126e+00,3.948720011568915278e-01
-2.649082344991632532e+00,-1.958166843267689528e+00,-2.213562765459745840e+00
-1.624826220156317280e+00,-3.497846914585311495e+00,-5.298615748646696294e-02
1.497853607474015636e+00,1.307275020116729580e+00,-3.292805202717665608e-02
-1.382058475986707391e+00,-5.149374208655244090e-01,-1.730253071619486605e+00
2.352232254135933509e+00,9.991984157442674874e-01,-7.718741030953329973e-02
-2.589943438219806993e+00,1.787324981793772638e+00,3.674328259225790871e-01
-3.396776667861824972e+00,1.360052112897157439e+00,-1.813270806240130817e+00
-6.716791735794402918e-01,3.134530090614082276e+00,1.215709444222691227e+00
-5.397453503036105937e-01,-1.452345735748325373e+00,-4.367393332554835306e-01
-2.710420953500130570e-01,1.953213377395895067e+00,-9.607266345426879184e-01
3.002798742594702031e+00,-2.365401929227974875e+00,1.334651953744493136e-01
-3.772957151575020873e+00,-3.783112631803758341e-01,-1.004043442413220522e+00
-3.639169216072210666e+00,6.945994488690921953e-01,-1.820051846470192913e+00
1.382573651814692717e+00,6.487485815667523581e-02,1.549195554620838688e+00
1.555146420409119212e+00,2.452437174734027447e+00,-4.630150078034196426e-01
4.959521761952135344e-01,-2.060112267906648587e+00,1.207717608836745837e+00
1.087755185006023417e+00,-3.296389648954425322e+00,-1.008047815808745140e+00
1.574966758238055098e+00,3.400495419032286137e-01,4.369161062916633309e-01
7.526168795447443216e-01,3.497443631908315975e+00,-5.671864331070517462e-01
9.146211382832964976e-01,-1.799041902044111740e+00,1.484925822752785285e+00
8.550195558310511590e-01,2.651607547046386681e+00,-7.725800731700774859e-01
-2.759854040865983849e-01,3.720139338912773930e+00,-9.359889733546175039e-01
3.225082916804863142e+00,5.340882125597132823e-01,2.066225234221752971e-01
3.114044743223550959e+00,-2.034289489989002941e+00,1.619830341772716120e-01
-2.956722765013982901e+00,-4.578231650592650137e-01,-9.433445174752461138e-02
-3.470875596739709801e-01,1.557807568945621890e+00,-3.190650347406790432e-01
3.970423986597295118e-01,1.706581545310613679e+00,-2.678146004791346901e-01
-2.167172587432045217e-01,4.042677657079187803e+00,4.930986868851571225e-01
1.098464315083308440e+00,1.615891695324660926e+00,-1.274219538581686795e-01
-1.274496974096241297e+00,-8.023742610178348222e-01,-5.533557451220562085e-01
1.513955124243050232e+00,-8.559654456607417305e-01,1.916853290641926444e+00
