-5.175463678605698448e+00,-2.773363256295636514e+00,7.204945802558714085e+00
6.671890138283619542e+00,-5.219712697096491993e+00,-3.506797156356582512e+00
4.539540717121177238e+00,1.461092007475852217e+00,-7.403597575108793905e+00
5.017371058966070940e+00,-1.585507058911259648e-01,-4.630625883620087535e+00
1.226753998550409674e+00,-8.560790394183090513e+00,7.967355565245933802e-01
-4.501347474565188023e+00,4.415524680641126132e+00,2.181802516488752008e+00
4.387417411039473691e+00,-3.594673511248025033e+00,-4.943731037614171875e+00
1.061736538814205710e+00,-7.433833149010576236e+00,4.174208413803304651e+00
-5.765432338436942139e+00,4.298199756200752120e+00,2.309048297804490169e+00
1.619190066628496405e+00,4.893407418618917148e+00,-5.905959505397703424e+00
4.046677615255838134e+00,-4.811313045459471027e+00,-3.400855458248455587e+00
1.998122941698852406e+00,6.238213050747407173e+00,-6.418060724551828855e+00
4.748529735889516878e+00,-5.992898231423852806e+00,-2.633133838414282168e-01
-9.726060348292482616e-02,-6.054944080424474073e+00,4.645695367595999770e+00
2.630380983683763052e+00,-7.953382767534959541e+00,-1.093745340081649919e+00
-1.229124853984100207e+00,-5.792675198694596794e+00,3.372766655049499462e+00
3.027840228867934025e-02,6.133554099379574076e+00,-2.820803383152985955e+00
-2.996183582792905309e+00,-6.114689716248639328e+00,6.346554404332570343e+00
-5.734113407201829382e+00,-1.976513568658360365e+00,7.148075666785275395e+00
-2.328476588925204038e-01,-6.839032215890713751e+00,5.396115646125177356e+00
-6.663935877933067076e+00,2.661362673089862074e+00,3.840762588041826575e+00
-3.543361595653458096e+00,-2.321665808549300269e+00,5.329919695194194951e+00
5.747266648618363227e+00,-6.467454939918526602e-01,-4.278386819513440464e+00
9.736793197194392180e-01,-6.501447260495795355e+00,3.512422394600858588e+00
-1.808082820635343424e+00,-7.331067691226150984e+00,3.263345371988815913e+00
4.528421571924778455e+00,4.707027119784267022e+00,-6.828525133066862374e+00
-3.470639841076880727e-01,8.479603949917304817e+00,-4.083291746031521008e+00
-2.719981915058745647e-01,8.888730770934666126e+00,-2.466945767975330384e+00
1.323251848685507825e+00,-6.297357662385902444e+00,2.251019967626266105e+00
4.223152992856264554e+00,1.135064450080120357e+00,-4.994400324154599780e+00
-3.341620094834269139e+00,-2.669790890214340351e+00,6.831104703266026590e+00
-7.854715868026731496e-01,-8.001220759991275244e+00,4.851053696698991224e+00
5.079280138292073810e-01,-6.185349517470029035e+00,3.214960388944146708e+00
-7.125185523461984083e+00,3.157441822824700317e+00,4.868842467855758471e+00
5.067866592974904272e+00,2.788456868884386708e+00,-7.403181876814787010e+00
3.892073699968994660e+00,-7.111155859369561405e+00,-2.881290141211753753e+00
3.940244255841945265e+00,-6.985772263945105642e+00,1.163208233115148760e+00
1.446523317247218721e+00,7.911125607192845521e+00,-3.540922431234807544e+00
-4.445459376040391319e+00,7.626491424333865510e+00,-4.979021978474832966e-01
4.602595345343738487e+00,-4.366853909456598792e+00,-4.766987912615739731e+00
3.917924325002807073e+00,-5.652726737030413062e+00,-3.308469866889042432e+00
5.522606625586546691e+00,-1.728606700697987941e+00,-6.704874088162984691e+00
2.684558923846744882e+00,3.723376512145560646e+00,-4.980354837955291103e+00
-3.404457697301179309e+00,5.684870723957070382e+00,1.035890505814707208e+00
-5.039363384105584487e+00,7.060405346957820072e+00,3.089887543121707658e+00
-6.207803192494584898e+00,4.098631497939897450e+00,5.490248664705432269e+00
2.694954872265741930e+00,4.414848285694304764e+00,-4.295727659193241621e+00
1.375538357882020835e+00,7.468600490917137513e+00,-5.512381673949413141e+00
-6.402442141725241953e+00,1.050611909484754358e+00,4.438358933432970943e+00
2.478443189238237920e+00,-6.476371194685309973e+00,-8.124564407214142081e-01
-2.517604423360684240e+00,-5.744761678922651882e+00,3.712921615994268620e+00
-8.758721884679411263e-01,-8.446068313972045161e+00,3.577234636267923928e+00
6.295795250540128229e+00,-3.306608348631859595e+00,-6.038751425295531661e+00
-3.247665921834094860e+00,-3.839939483677371257e+00,4.686776015761962455e+00
-1.311726597225017388e+00,7.610676968607577919e+00,-3.278573169408416366e-01
4.877132461563843613e+00,4.536161991730370602e+00,-5.168876257210985870e+00
4.428531211286053981e+00,-3.868519114857833063e+00,-4.768548382755405157e+00
-2.894159250401149297e+00,-6.859538906163717975e+00,4.624537407141509071e+00
-4.752382886234579829e+00,-1.750551848453145987e-01,7.017888783466343483e+00
2.011110890087621339e+00,-7.072041130852218416e+00,3.246416350621736946e+00
-6.372959114837375427e-01,-7.183595431083332983e+00,2.159820835790164040e+00
-6.973196658350974131e-01,6.716950117661011355e+00,-1.479124733375335454e+00
5.341672088209985070e+00,3.615407585612350871e+00,-6.477463452615856987e+00
-3.230324502179801716e+00,7.054387416305638148e+00,-1.774910707183121827e+00
-4.674786529818225844e+00,3.378020005627559552e+00,3.585171045715165317e+00
3.941524301082975246e+00,5.638772587798977831e+00,-6.469305978206212338e+00
4.960180829599583063e+00,-2.023808095329131085e+00,-4.012486439278439398e+00
6.809818123825448488e-01,-8.579022072537652477e+00,1.484596557247628290e+00
4.549790043298079567e+00,-3.378225391302831504e+00,-4.473121274591467689e+00
5.080131169846211492e+00,-4.495024077895264369e+00,-2.018950028991450818e+00
-4.945792754740645947e+00,4.829135173485386900e+00,4.848990986776843926e+00
-4.958950237390769011e+00,1.402067170051662703e+00,6.667806401412059714e+00
2.786494474031527169e+00,-6.526140895464052960e+00,1.940720736074426300e+00
4.325705237927566671e+00,-4.105854503961937851e+00,-4.058613372997169400e+00
2.022768999047168670e-01,8.304426515263900299e+00,-4.427156097451234729e+00
-1.017178880615069669e+00,-5.150395961851853777e+00,5.081145994186269554e+00
2.568630551350748359e+00,-7.035517467770157296e+00,2.449895250750853570e+00
-3.439573872805414823e+00,-3.441301772754341126e+00,4.732664158897043727e+00
1.937534791913714693e+00,6.331306210392509293e+00,-6.305746261236904182e+00
2.882462890701321001e+00,-6.151855924587859903e+00,5.955757318613513762e-01
3.941644883983400849e+00,-5.060700983543270581e+00,-2.957627766370155786e+00
-4.650095476533887329e+00,1.752126853076332980e+00,4.899270062774411016e+00
-6.371783954354524937e+00,7.050731907616858418e-01,4.434896638994309193e+00
-5.550772541254808345e+00,6.618372108160280654e+00,1.025807527379604789e+00
3.890269107252452008e-01,-8.695457852773419205e+00,3.721882415711228020e+00
-3.848737703854435033e+00,-2.045427072838768456e+00,6.993302130226988211e+00
-1.687940978912901402e+00,-4.852644051535127900e+00,6.072725214248937853e+00
-5.353934578606111216e+00,5.750221130118305268e+00,1.071535262452828707e+00
-5.629632034475375413e+00,-2.668083990082876777e+00,6.917276486056601392e+00
-1.298903322907624114e+00,8.872139529947100201e+00,-2.307298816321940116e+00
-3.468515135814815853e-01,-8.104130334999718244e+00,2.226306325844807255e+00
-4.660811252124938520e+00,6.447440198280327550e+00,-6.192931288021472774e-02
5.917770274229376959e+00,-5.342983391867099030e+00,-1.854428440632642339e+00
-2.774908731110839355e+00,-6.338872775067728504e+00,4.061755904280037299e+00
4.682060658628335759e+00,-3.040617126864386233e+00,-5.514093758199372530e+00
-2.701214288697355581e+00,6.636262840069210966e+00,1.159016365089698297e+00
-2.059725821321419514e-01,-7.810741895970942927e+00,4.937188907319050024e+00
4.388875450730256311e+00,-3.508832157390326945e+00,-4.248443426623097707e+00
1.645482658170554613e+00,6.101024413802243807e+00,-3.293583584830694466e+00
4.493968226913054309e+00,-1.638393602803216220e+00,-5.307673930549474228e+00
1.584198965164526962e+00,5.055377938113189806e+00,-4.245107523003155414e+00
4.269524743062232730e+00,-7.943404045689272941e+00,-1.643459938941707721e+00
-6.751789502430358247e+00,2.281185145815787685e+00,6.114756594523441002e+00
6.070880071143405221e-01,-7.974446389250537948e+00,4.334121614126440925e+00
9.004686351778008468e-01,7.380862967929203933e+00,-2.511848404335663254e+00
-1.334396597349320812e+00,8.978455361993182393e+00,-1.850901942068192030e+00
1.834760169653964601e+00,4.375319345282353112e+00,-5.608396014022831721e+00
-4.676305256558442203e+00,1.681071247134614088e+00,4.594062609482800319e+00
-5.670740334278474570e+00,-1.764127056396256998e+00,4.914414452655418764e+00
3.323548649606369310e+00,-6.668845531116963876e+00,-2.433579731554310843e+00
3.417985652738749103e+00,3.702781930550896661e+00,-4.689415647331545145e+00
-6.421991702664618273e+00,6.037028885931661648e+00,2.514381144742299234e+00
6.072460100075866229e+00,-5.922163115331216865e+00,-1.603566056861422506e+00
5.910950624701465372e+00,2.863322251163865406e+00,-5.851142658146473607e+00
4.105487408731526067e+00,-7.917899094515891356e+00,8.025363900149672380e-01
4.358392087049912433e+00,-5.742733995962248983e+00,-4.075366947141773721e+00
-4.591844992877972764e+00,-4.856006169768031788e-01,4.762696414673284195e+00
-3.655257027414036131e+00,6.966044620862992254e+00,-1.341108973760019918e+00
-4.766571643275923087e+00,-1.730706649638150685e+00,7.348329799767797432e+00
5.884382095921028899e+00,-5.263565709635827261e+00,-4.851661739731457423e+00
5.261267848024213656e+00,-5.084225519598350118e+00,-5.039579881138236850e+00
4.307673090358169254e+00,2.684456012021401605e+00,-7.465388375964948864e+00
-4.536888616787367212e+00,-6.450767742985950015e-01,4.955440368150596520e+00
-2.825129665852475380e+00,-5.210049591340941255e+00,3.933019920207168951e+00
4.318106815085489991e+00,3.669758506164441658e-01,-5.276737869182546170e+00
6.921250460938854765e+00,-4.444860886223880314e+00,-4.329253274418522146e+00
2.103228609892261236e+00,-7.363860070608017949e+00,-6.620047846792751489e-01
4.170111550295319880e+00,-1.090771728775884707e-02,-6.015991194827494226e+00
-5.665474956452924538e+00,6.516391686612854173e+00,3.575625762838378741e+00
4.914387353107627199e+00,-4.384951353151304687e+00,-2.232134034292139635e+00
2.878414181945993633e+00,-8.538747659757474295e+00,-2.949815989238679381e-01
3.273567312267470886e+00,6.582908517785015512e+00,-5.653064917867525629e+00
-1.854084737553260531e+00,8.144676359155731404e+00,3.642329783496896511e-01
-4.389698526698386338e+00,1.764425849453394590e-01,5.551869414328511887e+00
-1.620805402439075005e+00,8.298783664551411476e+00,-2.884669028712032457e-01
6.772836962748644218e+00,-4.454734887829136625e+00,-3.312537557308188330e+00
5.201451817650613485e+00,-2.813307810161036926e+00,-3.551180256039563776e+00
5.158603654108583569e+00,2.278745785088561071e+00,-4.910515506738414082e+00
4.553866948856073016e+00,-3.161420753378018755e+00,-3.947060202915539051e+00
-4.653054339185636934e+00,-3.701777022228493474e-01,7.104966097645562861e+00
-2.278732788762686479e+00,8.747180587333389212e+00,-2.537605647718329527e-01
2.584940835672917103e+00,5.057376805966335986e+00,-6.890640056276549075e+00
4.791904501992378385e-01,-6.170911731309622894e+00,2.454562354317996409e+00
-4.332186704355532325e-01,-6.099780378365813327e+00,2.915620267086507678e+00
-4.656317646448217218e+00,2.124399516014093159e+00,6.121063418838515346e+00
-5.132752368831180689e+00,6.434172273620419880e+00,5.159495476019488880e-01
-6.982198972105614132e+00,3.912891562686412694e+00,4.344092204041015037e+00
-6.677728636768421211e+00,9.614911780030226396e-01,6.623995257911071910e+00
4.405767758537681544e+00,-3.549283368944186279e+00,-4.708059883755947084e+00
-1.778046056839375000e+00,-4.525713132021627061e+00,4.864365360596806909e+00
5.728506719115392110e-02,-8.141625650454631824e+00,4.544337990093752389e+00
-4.070240053958148252e+00,7.001008538634337697e+00,-1.123897988541714188e+00
-3.109375144137517033e+00,-6.574286305841074096e+00,4.502663483019206048e+00
-2.686250139574842155e+00,-6.315346517764008460e+00,3.923774242843901749e+00
-1.850129013668132982e+00,8.179499943287400043e+00,-3.414071331553131472e+00
-1.965739617152433283e+00,8.748451920244233904e+00,-3.458990123051690069e-01
6.538077174477762377e+00,-4.568828304058741629e+00,-2.956659556414603873e+00
-2.985058556831821086e+00,-2.767626633675325021e+00,6.060199675342653691e+00
2.836601183615495625e+00,4.302732921383681131e+00,-6.929778870740612717e+00
-7.157040112932443243e+00,1.943616402460086379e+00,4.584422123616887390e+00
-3.632646549844780193e+00,-2.313688372035839880e+00,5.201327657671843241e+00
-5.162852580862999474e+00,6.069096448432786950e+00,4.783832476798197675e-01
3.207920056927778596e+00,6.652379123687011564e+00,-4.499360499574103223e+00
4.988423166940936682e+00,-7.641007999595431421e+00,-7.997085421970273611e-01
6.317006459164194787e+00,-2.139263220269593813e+00,-3.815544634605679164e+00
-3.985515930385383765e+00,4.457705816730189952e+00,3.554286731750782913e+00
4.953554805771948288e+00,-5.823180072749454261e-01,-4.537929689708036562e+00
-3.594015741162074562e+00,6.695240940910603733e+00,-1.322482962275707941e+00
-3.482126969906690128e+00,-5.386941117041038396e+00,4.310752354063371428e+00
-3.716669571232808167e+00,5.477663625708932393e+00,1.320422126497386328e+00
4.344558507615651877e+00,1.883460970480121399e-01,-5.402100350254299244e+00
-6.918187821893551970e+00,3.959261085161420723e+00,5.135459265360789338e+00
5.797551999909239528e-01,-8.415940677458618069e+00,1.207136663822475642e+00
-4.968962091822514360e+00,3.823968446691988099e+00,2.810139907155666084e+00
-4.866138299315298177e+00,9.995726307673887812e-01,4.582204319765586398e+00
1.975225490706161491e+00,4.953339161328950802e+00,-4.206558023224108211e+00
-5.646430062829534968e+00,2.933258727392308085e+00,6.371568169532473291e+00
-2.002667223326841217e+00,7.327436678899628575e+00,4.985464180212880181e-01
2.258009431722608706e+00,-6.579737881776251740e+00,2.301219958933877763e+00
-3.452363136672736310e+00,-5.724733823100976338e+00,6.659185703800256206e+00
-2.953493622935720264e+00,8.817304544392547072e+00,-1.009740450703545456e+00
2.293916672064323148e+00,-7.407200762612783151e+00,-1.109769194870513731e+00
-4.644820404793294166e+00,-4.132607733589375165e+00,7.070641280922883354e+00
-5.529995382586395003e+00,-2.995035472146101996e-01,4.605443134307730446e+00
-6.828040680650040883e+00,1.188981009699735969e+00,6.450590051326764218e+00
-1.592043105868175212e+00,6.632051355876771304e+00,-5.455394579464047933e-01
-3.748368471735123553e+00,-2.508154812192841643e+00,7.163997206899090031e+00
-2.103166939781868194e+00,-5.780113050596932034e+00,6.449849862243869580e+00
-1.555074082029164861e+00,-7.686659893767251006e+00,3.263859688424666228e+00
-4.662304090305910975e+00,-8.177337853844325322e-01,7.301231863113182285e+00
-5.711512519399078336e+00,-1.939242096983249564e+00,5.001691577053008153e+00
4.115346826230249278e+00,3.807400273796592405e+00,-4.630312157798661232e+00
6.554273228821664965e+00,1.076475264656438835e+00,-5.891525236310742208e+00
2.125545631153114012e+00,4.697431848914226826e+00,-6.636258115297668958e+00
2.827066763622291479e+00,5.742815605836228521e+00,-6.719355945903719096e+00
-3.366541496979039483e+00,-2.185293476033682847e+00,5.390983874673567655e+00
-7.571398428737865505e-01,6.378520223493824304e+00,-3.884427285643880179e+00
4.026365652573933862e-01,6.370375543441334720e+00,-2.459714394908269597e+00
1.129962686395631112e-02,5.834144826684213747e+00,-4.020818487559261634e+00
-6.501522627169364021e+00,-1.514579928958697197e+00,6.268288950718367225e+00
4.641308366458492429e+00,-4.851902566800878169e+00,-4.596530192069194776e+00
3.747432812077889253e+00,-5.538113751409876606e+00,-2.454279117907200103e+00
4.468948863892578061e+00,-3.662855799574712634e+00,-4.977468551116529305e+00
8.408245554437461244e-01,7.771843350152678909e+00,-2.382629852879809551e+00
-4.837656621925559897e+00,7.831896484272448333e+00,6.678991140038402774e-01
2.735741325625048237e+00,-8.571777462875683540e+00,1.971969392756850015e+00
-4.839650530221867974e+00,7.938646693612210647e+00,1.524435735292415606e+00
3.524508388596395925e+00,1.869517195651508423e+00,-6.504233863318192199e+00
6.169678538765963616e+00,-6.547255397858712911e+00,-2.787953056431271115e+00
-6.142743399380364622e+00,3.551091465927536550e+00,5.852732365093515021e+00
4.500056920792978588e+00,-6.315426361142050915e+00,-3.728229719400033559e+00
-4.045273931104399701e+00,7.651062119707603415e+00,2.069662915209398157e+00
3.137360630761383273e+00,-6.504434898185090574e+00,-1.757515453087097779e+00
2.797922286871650233e+00,4.070376686453554882e+00,-6.811893680182170563e+00
5.947328741698407195e-02,-5.915232294617652542e+00,4.292735969620518510e+00
2.507113006331472604e+00,3.547314143675067921e+00,-6.079019012604727656e+00
1.785822074735699649e+00,4.542098809672093118e+00,-5.646493091106499662e+00
1.653031306214402418e+00,5.004922491329050871e+00,-4.204304825843620641e+00
-5.705499152455129952e+00,-2.276670867557479383e+00,7.152951674465383824e+00
-4.733421623799755729e+00,2.607175259179401738e+00,4.325910529129133764e+00
-2.675370726997826409e+00,-7.136327550047213641e+00,5.242959585855039073e+00
2.810412312394981793e+00,-6.262319683588509989e+00,8.005674255275961881e-01
-3.697816016954763807e+00,-5.849776635547944359e+00,4.633257925904905150e+00
2.037991631712033347e-01,-6.048988485582158958e+00,3.197246136929967175e+00
3.907985851476425410e+00,-6.617519769352215420e+00,-3.142533793787382290e+00
-6.568569073086047538e+00,2.103376386645760654e+00,3.878653528472431056e+00
2.678322792720775780e+00,-6.585313885606699280e+00,-1.336193279473510520e+00
6.581261102526638318e+00,-2.220623970982980921e+00,-6.294914173038459460e+00
3.157548968672441614e+00,-8.309012820807636146e+00,-9.459768997146279501e-01
-5.254676573931634564e+00,2.289306706783834855e+00,6.394954498677764221e+00
3.680500195278300524e+00,4.927676230565736226e+00,-6.942355566702122616e+00
-4.045188850013835768e+00,5.273058305282111391e+00,1.692743307013411247e+00
4.840227770426633214e+00,-4.807226951183849017e+00,-1.521378863831827966e+00
6.148166651239322711e+00,5.747924981237295672e-01,-4.715513266465578113e+00
-2.397987798410311733e+00,-3.810522272676267086e+00,6.131189602706701436e+00
4.012767844906059977e+00,-5.343786705079472732e+00,-1.323863060534904212e+00
6.138653572523820934e+00,-3.086721135419125073e+00,-3.314691492010092499e+00
6.875923125223475374e+00,-2.072161817286253704e+00,-4.490613119433978895e+00
9.022620473066218505e-01,-8.303805306972659395e+00,3.984577691293790913e+00
-3.914149292462363761e+00,5.780235685377202337e+00,3.656950549552197005e-01
-2.724761364741743908e+00,7.450509646641841677e+00,-2.628045890408325036e+00
-6.834647841408547642e-02,-7.187035851988588853e+00,1.622607423516344127e+00
-5.630123593377144076e+00,7.182215551906136142e+00,1.597971454717186379e+00
4.080480920589925731e+00,1.192571593937305385e+00,-6.878544888240995192e+00
-5.006966207661863955e+00,3.473339092139880457e-01,4.593088329380435653e+00
5.746794668141445683e+00,2.465476737130738449e+00,-5.253111090965182584e+00
-5.874280894477598380e+00,4.094476724254526800e+00,2.574900840778278077e+00
-6.203342036846362539e+00,6.076745476496175691e+00,3.151486378120667453e+00
-3.994196742656597188e+00,-1.207189351073000072e+00,5.480514537545554177e+00
-4.812156723321893814e+00,1.364529232995042030e+00,4.510509024204058193e+00
-2.373833249507495857e+00,-4.721180660568836451e+00,4.247845623140480420e+00
6.922876971344735786e+00,-1.793052510664666643e+00,-6.237765790774257191e+00
-3.972581587197833386e+00,5.505952697235536597e+00,8.515792227025876793e-01
-4.571741157574328085e+00,-4.647656198020795770e+00,4.935377785252309302e+00
9.208040972836768479e-01,5.429862204927736968e+00,-5.576595423430056542e+00
1.738543344706101390e+00,-6.865103780191320837e+00,3.355126183853368360e+00
4.787051026710208212e+00,-3.140419166547543384e+00,-5.604194732602302942e+00
2.800705368107012205e+00,-8.915106416504753994e+00,1.336949237244112298e+00
7.053145259241446752e+00,-2.068913453494865440e+00,-5.753425876597945354e+00
3.289460959000714446e+00,2.849323627051263408e+00,-5.073322085141164450e+00
6.214688559770116250e+00,9.739152462149029965e-01,-5.073142319068130845e+00
5.045745911591843935e+00,-6.897556355641128789e+00,-3.336995399474484092e+00
6.121474226653069728e+00,-6.456602145526500358e+00,-3.259060847971178454e+00
-5.469254434625115957e-01,-5.548299099455135774e+00,4.096650365021818452e+00
2.104283674391371761e+00,6.048152256905988899e+00,-6.406917079930255277e+00
-5.359235803369158946e-01,7.418300014151165911e+00,-1.010864496084433295e+00
-1.290977523478495925e+00,-6.092958646932030042e+00,3.086572807194647439e+00
7.095161493930006280e+00,-2.747412562359261567e+00,-5.049608141274351425e+00
-6.022115331350274658e+00,3.976500723908053203e+00,2.586403677110917343e+00
9.659241126006377909e-02,-7.228936923284655869e+00,5.172138866443232175e+00
3.398861121718027012e-01,7.344808104214312294e+00,-1.956146414190288452e+00
-7.060419179712184246e+00,1.204782843900464195e+00,5.908316295595563261e+00
-4.603274365373829724e+00,-1.680117957831830600e+00,7.304278924376743198e+00
5.135511608689488305e+00,3.577285259469284551e+00,-7.019093680865988283e+00
-5.284553409500942323e+00,2.472973442390554055e+00,3.630715123374652187e+00
-1.620745908302324567e+00,9.053707375642957800e+00,-1.787981915069918548e+00
-1.015398504698215021e+00,-8.073049074230018718e+00,4.815990791022517037e+00
1.329915608265301641e+00,4.928413737185520560e+00,-4.579048868646488302e+00
-3.026016684398382672e+00,-5.666361468780556798e+00,6.741737361956201546e+00
2.633525286301969359e+00,-6.208788527365571852e+00,7.270761519207638024e-01
-3.808879358012134730e+00,5.043727568509597248e+00,2.458528489372600934e+00
-8.674295290423154059e-01,-5.652555416227553309e+00,5.697778956537266737e+00
3.364673317554905396e-01,-8.055980367794498775e+00,1.428994854557659178e+00
5.012352381655483136e+00,-4.272252164782792683e+00,-5.311142717054572415e+00
-4.382571871733067503e-01,6.118752432581139544e+00,-3.583217781784925116e+00
4.803426508174862164e+00,9.261470982561782472e-01,-4.849018691574276119e+00
-5.139968848620979358e+00,3.552004088698491380e+00,2.962714036547533070e+00
4.247478362037121258e+00,4.006052445369716608e+00,-4.650572802839000985e+00
-5.152939490494153674e+00,-8.197299885467098646e-01,7.389722266517102511e+00
-4.703553403812955835e+00,5.661761957435952342e-01,6.621746211850340735e+00
-2.749197330741879330e+00,-3.673032372869846629e+00,6.559465284746977431e+00
4.311283366210721724e+00,-6.410317963412117237e+00,3.686746946041845052e-01
-8.189843660809755788e-01,-6.572674111892196080e+00,5.798705717591704278e+00
-3.775369308545487801e+00,5.628311390209885801e+00,9.173866559338421656e-01
-3.821310370655858879e+00,7.945167334411014082e+00,1.930018575409079506e+00
-1.424462923544945747e+00,9.040112076891681170e+00,-1.722811034230445681e+00
5.431320074841021750e-01,-6.208402506568242885e+00,2.289019779747521355e+00
-4.871230200066531402e-01,-6.716060761777936428e+00,5.429110778031276396e+00
-2.919769481524029597e+00,-4.298197267709094049e+00,4.316762486497493612e+00
-6.319288711900739486e+00,6.183894419888185112e+00,2.546555384156621304e+00
-3.895254585310089723e+00,7.414704818996488811e+00,2.360597976734805759e+00
3.953369199641521448e+00,-4.591424811293206787e+00,-3.264599679838491308e+00
-2.555110727365887957e+00,-7.027791917370183938e+00,4.009680614924808317e+00
1.301029781124740659e-01,-6.544312954713871200e+00,2.262789664028027836e+00
-2.504120813910688526e+00,8.612627110715040502e+00,2.944061438039349832e-01
6.124412393858841064e+00,-6.345324558803581816e+00,-2.071083459156189299e+00
4.279875446293194052e+00,-4.272056975524380462e+00,-3.054595827990440604e+00
5.044085102057742631e+00,3.889993240205316560e+00,-6.855604205928911732e+00
-2.537727162099238321e+00,8.159763418885408015e+00,6.683460144352663113e-01
-9.937666688102321511e-02,7.750804020053924326e+00,-1.508194551738518907e+00
-5.099279362636713664e+00,6.980802578801688085e+00,3.348824985705168178e+00
-3.612100431588904481e+00,-2.599828260626876997e+00,5.073965789445783692e+00
1.091791381763611790e+00,-6.465368738788847658e+00,3.816111263537232290e+00
-4.881510554642446209e+00,-1.499357009214437930e+00,4.707675874270870864e+00
3.931092348057228403e+00,4.994628607198245973e+00,-6.878280430835898684e+00
1.103464050393385909e+00,8.208855897022811376e+00,-3.998091357955538605e+00
5.807758832588745257e+00,-1.342041239969674171e+00,-6.903909741856968374e+00
5.913507210467815689e+00,1.187667410520532263e+00,-7.179110556547913191e+00
-6.520385847802639967e-01,-6.215888505665192909e+00,2.808149593350999229e+00
5.596217945312917053e+00,-6.045743977781104839e+00,-1.097530290412928489e+00
2.760073315011885686e+00,5.687597324248231168e+00,-3.826958058938453977e+00
7.050194421480650675e+00,-3.846603572057016418e+00,-4.607201404309568815e+00
1.631373496499561870e+00,7.063806233225901288e+00,-5.801657350273243807e+00
2.294518979564275363e-01,8.591949742161862247e+00,-3.445973456749387154e+00
-5.224622505342781054e+00,-4.043834895995044754e+00,6.310810070297649510e+00
-6.149601279864606695e+00,-1.069254514521186916e+00,4.952215492890812421e+00
-4.152941785720583034e+00,-5.947426890596385629e-01,5.453840897911314656e+00
-2.443151417576387097e+00,-7.296671323760054229e+00,4.923042513269938247e+00
3.395808562856857726e+00,-5.660215274218879600e+00,-1.616298392383474392e+00
3.112883052471984602e+00,-6.674924700115249188e+00,1.763526651706060822e+00
-6.478942477166349079e+00,5.918804962555787696e+00,3.008555880859517639e+00
1.124882930794377955e+00,-7.532990427123655408e+00,6.022688086157947929e-01
4.452393446394163234e+00,-7.138874101333548161e+00,5.762430237680377099e-01
5.291311114535096616e-01,-6.406334681136037545e+00,4.322114811304059501e+00
2.338189884146258724e+00,3.982922572362183278e+00,-6.205856796268073516e+00
-1.823061137950617194e+00,8.028601031540208766e+00,-3.374317912864548408e+00
1.431778396832178002e+00,-7.736805976831415244e+00,1.039911330068924444e-01
-2.090778845889301074e+00,6.527666792367099902e+00,-2.248942245339264456e+00
3.301468283204726628e+00,6.221365983438049696e+00,-6.302560593220534635e+00
-3.376839232088266307e+00,7.462998479611807845e+00,-1.779160933427276214e+00
-4.096094621569621452e+00,-2.171916587356307882e-01,5.939026785230678840e+00
-3.830166811319863918e+00,-6.043280752096234387e+00,4.892174470609077730e+00
-6.876969854383669478e+00,8.764723103913961699e-01,4.907880938183056152e+00
-3.012204076996044755e+00,-6.409476320900726165e+00,6.106196267418563473e+00
1.650721573554852384e+00,5.393726246320754036e+00,-6.286899583137921965e+00
3.298670348913187667e+00,6.454013516146120288e+00,-4.633098572940456350e+00
-4.602838030931668989e+00,-4.658727349598370537e+00,6.706742164373517667e+00
2.759014054797058968e+00,-6.228239312836311825e+00,6.572840185847008687e-01
5.440663475130565807e+00,-1.665102547589404347e+00,-3.928843692278981781e+00
4.075513147786124613e+00,-8.036850792865473991e+00,7.721730312339961655e-01
4.156444996873365660e+00,-8.233580425503202349e+00,-1.531825904271961525e+00
1.284731728689083863e-01,-8.708678135689831734e+00,3.731072001578271458e+00
-9.873110043820554349e-02,6.941818562215325450e+00,-5.139365002329252086e+00
2.049780142845495590e+00,5.751706586699516954e+00,-6.625623033790167149e+00
-6.950474432102514477e+00,1.941386877695328916e+00,6.055751353163586259e+00
-4.412221507826171063e+00,7.626365116485936291e+00,-5.916039214949471159e-01
6.365469632465861061e+00,-3.900452701501526231e+00,-2.961662531682474508e+00
-5.134365050256368690e+00,6.521815210144578323e+00,3.801889279682839184e+00
-3.623439624299453765e+00,8.358121395009865395e+00,-1.217465173326554906e+00
-6.184082982772731718e+00,4.831079545485231108e+00,2.347319603491953455e+00
-7.067896336217976305e+00,2.400670401282286370e+00,5.413929436285132901e+00
-4.606557849592713083e+00,2.558267160705416821e+00,5.402892959142201690e+00
2.374804006092472441e+00,-8.982806885475724812e+00,9.710478713050512134e-01
6.656876512341294294e+00,6.767991347136468328e-01,-6.495877673784947071e+00
6.335487274785768896e+00,-5.681957178883785708e+00,-2.452691012846718976e+00
-5.658803145863702255e+00,-1.365913831934370659e+00,4.829161857921996592e+00
4.789363531068273616e+00,-4.192253564830954460e+00,-2.301873897422932913e+00
-3.520090942457399508e-01,-8.504358678164539498e+00,2.841512231432535618e+00
4.431244243462472809e+00,3.699160412557509048e+00,-7.109074436263567165e+00
2.942186387174972051e+00,4.738185484521896029e+00,-6.958099963857500292e+00
3.077508527882432343e+00,6.494769406524269151e+00,-6.066882358899859717e+00
-3.876679810367686052e+00,7.292239777540161505e+00,2.593519341838378622e+00
-4.876789165582855468e+00,7.904642874197443270e+00,2.364836498616730287e-01
4.855135651596835800e+00,-2.730294874553885087e+00,-5.849568760649519028e+00
3.067241672561242805e+00,-8.338490096369074678e+00,2.090398909201100164e+00
-4.862559136416701122e+00,-3.642284811193736704e+00,4.959429608462593286e+00
-6.124655722755032450e+00,4.489996201090307615e+00,5.336048648515722803e+00
6.943432023257399166e+00,-3.118300068027922922e+00,-4.273788307602998771e+00
3.165085878357909444e+00,2.638142416038576243e+00,-5.368944052373339382e+00
-4.779077078245052568e-01,-5.559194586669618410e+00,4.938356877765708752e+00
3.763830528805467424e+00,5.223249705288114164e+00,-6.745555497507659481e+00
-1.299238539647109558e+00,-8.082385044735646673e+00,4.275024700611842476e+00
-1.202026451695383580e+00,6.516529005600757429e+00,-1.965807759188920256e+00
8.995838997790175373e-01,-7.033996538288096900e+00,8.967617181975627849e-01
2.764220752034654893e+00,-6.503582326383347656e+00,-1.176675314787020143e+00
-5.657092693431177821e+00,6.924337763047738292e+00,2.698425257339051697e+00
-5.061707041754120340e+00,7.112524789714889550e+00,-4.813403383920256823e-02
-4.046032464401339013e+00,8.210412166172778470e+00,-2.420616761490574087e-01
-4.290812026848626282e+00,6.669423314305930717e+00,-6.915829916527874710e-01
-3.569455291699977995e+00,7.614525096447330554e+00,2.232367962384154580e+00
-6.491593842492506816e+00,-1.549135769088560322e+00,5.715817535387420101e+00
-4.547530707320353471e+00,8.005996964616196365e+00,1.585491956184567730e+00
4.210618759082956686e+00,-5.296753390151419438e+00,-3.897579567599849693e+00
4.774095818460930118e+00,-2.910637684403575953e+00,-5.641928479371780547e+00
-5.290884637973753080e+00,-3.918504684961372941e+00,5.806759605471256691e+00
3.274851895419923498e+00,4.643141769254845563e+00,-4.430986134865011472e+00
1.116094465422760723e-01,-6.217252382970865021e+00,4.708901734169654851e+00
1.431399471457496242e+00,-6.422967523894484110e+00,1.743964780932730330e+00
-2.876810362206891014e+00,6.091037223722657323e+00,-1.667805545024754754e-01
4.363239966667594061e+00,5.397176565969706630e+00,-5.601880652966661600e+00
6.600704629014367830e-01,-6.131856473753089176e+00,3.196828274451648966e+00
9.573720802125865736e-01,7.749138474502808016e+00,-5.156078115494508118e+00
3.353294944141040901e+00,5.142724066739592814e+00,-4.192406961135720422e+00
-1.707367941474071005e+00,6.754136294794826689e+00,-3.255413966409609339e-01
1.926845805628989661e+00,-7.506917799430529392e+00,3.399152547651095091e+00
4.438366474668436368e+00,-5.426156285491900988e+00,-4.340899046739297162e+00
5.240254646886221224e+00,-9.445486863867019744e-02,-7.237112439353345472e+00
-4.457722035582065701e+00,7.508640774966721665e+00,-4.523453841553264354e-01
-7.001382938467457073e+00,1.812804576498124876e+00,5.874750780695614516e+00
4.896081423049484904e+00,-7.763134317517869754e+00,-3.830098892992172543e-01
-6.214167403317613747e+00,1.281327100850689904e+00,6.819288323818361697e+00
-2.744417485297449222e+00,6.138436557719066933e+00,-5.223046128318473702e-01
5.995374430386577913e+00,-2.486461876961711059e+00,-6.408267500859682997e+00
-6.415725788131902974e+00,9.071978579642527851e-01,6.720342356543804740e+00
3.411421000853243513e+00,3.463004615525132834e+00,-7.122267493832956653e+00
3.237818195742890648e+00,-7.550584756454550295e+00,2.080864291534990862e+00
5.748948971252006324e+00,-5.487512260335698500e+00,-4.666522847819899233e+00
6.005910910757630283e+00,-1.052895136630661366e+00,-4.135197851617251175e+00
-4.403853834252507982e-01,-8.219239413487962054e+00,2.472942116899630172e+00
-4.310367183759746812e-01,7.432144211427871738e+00,-4.738420148555208655e+00
-3.550527983267278032e+00,-4.141405821955836508e+00,7.273675994199009232e+00
5.224228110339106834e+00,-5.721120596824925464e+00,-8.895126167943346873e-01
7.045763007635173381e+00,-7.784369107975123159e-01,-5.074250804376442936e+00
3.163289782000836770e+00,-7.127666555065979459e+00,1.997750798443496123e+00
-4.087823349201037182e+00,-2.981071279534740492e-01,6.387628272654295891e+00
9.893418681422049277e-01,-6.162635019494068445e+00,2.801622737176821420e+00
-6.439814666240534002e+00,-1.339780102530738537e+00,6.477539528403029934e+00
-2.085265960075733727e+00,6.481293939569957807e+00,-1.958141992539044862e+00
-7.199816860528711615e+00,2.338675791449460029e+00,4.965904772002402545e+00
3.068837789325667309e+00,-8.726389743250440034e+00,7.979199196523493187e-01
6.836037366356468858e+00,-2.847076441840027616e+00,-3.940852283505146936e+00
4.294991310350396496e+00,-4.821572708620538883e+00,-4.002000004646610876e+00
3.554792447023637614e+00,-5.953758693189224793e+00,-4.745588681261641434e-02
-7.070380172289259413e+00,1.411445215815084309e+00,6.088590265305259486e+00
1.798905900637280508e+00,-8.796769102671035512e+00,2.585281822257840645e+00
4.681962343471953503e+00,-7.997505024907997084e-01,-6.491996384079605775e+00
-4.778138121794520465e+00,7.141573320099892541e+00,-1.234431075998412564e-01
-3.405971463662401888e+00,5.738767905743933362e+00,1.008897926579740867e+00
4.876826393138897764e+00,-1.133869133606931479e-01,-4.696218920838968636e+00
3.561778935878578523e+00,4.868259519717006434e+00,-4.377525480930209767e+00
3.690397179861360399e+00,2.037126181484344212e+00,-5.220730197595702116e+00
1.111350313861048766e+00,7.300581451025975888e+00,-2.645610082592538159e+00
-7.039231849630000148e+00,1.760209085998298395e+00,5.233719487421899075e+00
5.978430624904722990e+00,8.277258846980558582e-01,-4.739226941715836361e+00
4.998356194850326339e+00,-5.384904349857708716e+00,-4.756249160275885401e+00
1.604163268557343258e+00,5.579954565477557082e+00,-3.531166793505700507e+00
3.240390876859329250e+00,-8.284735072547434243e+00,-1.135567401127913101e+00
4.718033722375102101e+00,-3.950182375292900172e+00,-5.216050913495672070e+00
6.345060350262561322e+00,-5.974250817594310980e-01,-6.946981875869802536e+00
-5.252985065223016115e+00,-8.146663993111887825e-01,4.633630597224249748e+00
6.499672132797174484e+00,-5.325780974014443281e+00,-2.945381354504865268e+00
1.658693417070554066e+00,-8.143980946037848057e+00,-5.747430826510494667e-02
2.860310063628529686e+00,-7.425410076978129048e+00,-1.742258011361367043e+00
5.273608688136433464e+00,-4.895347997922755212e+00,-5.066597963955036477e+00
1.768061408395216860e+00,4.396863158116069314e+00,-4.962404378760434831e+00
6.068932072188169435e+00,8.315041367445480391e-01,-4.956040602289703223e+00
-8.202142033424619783e-01,-6.321973442136363808e+00,5.631838962145017113e+00
-5.103997590347618463e+00,4.045406061850337132e+00,2.526046143304806701e+00
2.249406977840070709e+00,6.400737228500712028e+00,-3.655137574767234110e+00
-5.199018101024606153e+00,5.947173456201137576e+00,8.212503356693312551e-01
-3.314073342054269400e+00,8.753734867174063794e+00,-4.957984170268239787e-01
6.816865610516431140e+00,-8.691261261609433131e-01,-4.914990756043974507e+00
5.765041313761303243e+00,1.916494164912977638e+00,-7.180315704296152290e+00
-3.632174324256468356e+00,-2.068263147839587646e+00,6.819892274159887968e+00
-5.341099403658361666e+00,7.331133670776083910e+00,1.913638079693974481e+00
3.855630500028628393e+00,3.304545622562823137e+00,-4.642610484259150461e+00
5.424447450648766988e+00,-1.092758659310830271e+00,-7.062868208964478534e+00
-5.643551379821452052e+00,6.877637842652117861e+00,1.483937378277982777e+00
-3.135252077830227524e+00,-4.618070450047275344e+00,7.043736798629523399e+00
5.658087643587932369e+00,-6.916651309381400381e+00,-2.881096265460499684e+00
4.400772230707458377e+00,4.267871912071830920e+00,-4.716444472180466363e+00
-1.837406113500706706e+00,-7.224468691972319334e+00,5.716077788482213151e+00
-4.724630014180439375e+00,9.971596621111927794e-01,4.732022214200355847e+00
4.643192727792102126e+00,-3.301365404949000215e+00,-3.465794911115524624e+00
-3.505228642697766350e+00,-1.962073896139258311e+00,6.323292436581427367e+00
6.561621012627790073e+00,-3.923031349732480244e+00,-3.146720894486709330e+00
-3.469715151631706629e+00,6.822294837976926374e+00,-1.418281225747716423e+00
3.882332238461254192e+00,-5.864123840730719905e+00,9.774672042065507549e-02
1.290242754698995631e+00,8.011396199876696045e+00,-4.476826815206315757e+00
2.577117218010747113e+00,-7.326972243466505219e+00,-1.505433423021145023e+00
-6.199060378629305673e-02,8.587878217312811202e+00,-3.853876181373784515e+00
-1.523443230498605638e+00,7.564579708481526943e+00,3.920601972807028629e-02
6.497332100048671677e+00,9.893414069651108589e-01,-6.574863623249404654e+00
4.709140793836782968e-01,8.404409393643549109e+00,-3.481676218441924320e+00
-2.495113106346965814e+00,-3.546207324838523967e+00,5.568555670882378905e+00
1.335062327355447165e+00,6.971486501142064363e+00,-5.644000662129631252e+00
-1.221138780964315718e+00,7.970337703787344630e+00,-3.552477130550935058e-01
-1.095893108918104764e+00,-7.564964680243345896e+00,5.472657433785784065e+00
-3.020956302520851899e+00,-2.674073756908129429e+00,5.911278719202887721e+00
-4.436604594821356606e+00,1.938776997306815408e+00,4.934306104259357895e+00
4.812458076706668031e+00,2.731161201596459254e-01,-7.131466388810340007e+00
4.373102504744136532e+00,-4.014841722905951649e+00,-4.046998160003347778e+00
1.496053989614721136e+00,-8.928187024314583553e+00,1.618188690903397120e+00
4.149789811676377838e+00,-4.676644099662230047e+00,-2.844908909564245914e+00
-2.194403954972804716e+00,-7.260018677351621541e+00,3.776745599473149806e+00
1.932049793618194178e+00,7.024493734644561727e+00,-3.378167362742094060e+00
4.713745144449625002e+00,-3.632085917511954865e+00,-3.449009454896402982e+00
-3.082074926922852232e+00,-5.875058589691994904e+00,4.037920951971338823e+00
-1.047495365753512209e+00,6.272790367679344392e+00,-2.912847264307472095e+00
4.707223203016829061e+00,-6.951345566267823628e+00,4.673091680335664799e-01
