-3.691753508100694692e+00,-1.933685671669190809e+00,7.315606011501311068e-01
1.407727010461627293e+00,-4.590426018693585242e+00,-8.708398850649091694e-01
1.605242564521859761e+00,1.951798174679949094e+00,-4.951424665512607959e+00
2.025123608574362688e+00,3.717176022835776195e+00,-8.757185198066224086e-01
-1.833446030218441325e-01,-1.838475396454996691e+00,-3.640963864219986412e+00
-1.432745643421946546e+00,-3.928243309049633147e+00,1.592765427902774089e+00
-4.604148099451949250e+00,-1.543763465434147664e+00,-3.589681118353034162e-01
-2.787222286872511390e+00,-3.243157738629517173e+00,-2.832217347244211925e-01
5.067809034124255874e+00,-1.166633084314978808e+00,-4.224757087501430419e+00
-3.844371460223029224e+00,1.286633029229688807e+00,-4.166638246627599962e+00
-9.312678246723491426e-01,-5.292295516754795814e-01,4.496062708852609724e+00
-7.978321968381724139e-01,4.120103623084609090e+00,-5.316159322550210398e+00
-1.872037419494828603e+00,-2.454321638679071604e+00,4.506921988182416960e+00
3.514988545917679730e+00,-2.600128335305832650e+00,-2.417201719953740557e+00
4.726879900803165668e+00,2.298111002389393587e+00,3.048184865475442873e+00
4.660806292847220256e+00,-1.520283214080938361e+00,-3.372214229544594488e+00
-3.278277716300894706e+00,-1.506519867715024219e+00,2.881701206001686000e+00
-3.355793024390234969e+00,-3.235062987832018067e+00,-2.970895383022448932e+00
-2.180896848168421887e+00,-3.046091927369293906e+00,2.079603170225422293e+00
-8.891588315297641598e-01,4.264365292327041423e+00,3.209882304927268670e+00
-4.481357903333627490e+00,-1.171974739491020989e-01,3.656377680752048498e+00
-1.143877177805646544e-01,2.781626527958536599e+00,3.567036798964817734e+00
5.234007555924778288e+00,-7.034581396283950960e-01,-1.635952631658247336e+00
-1.590874978828369146e+00,-2.428585507254851894e+00,-3.499635951598745631e+00
3.391933699835932625e+00,-5.334221169984717514e-01,4.048833351413136938e+00
-5.095966206958093991e+00,1.193068962288406532e+00,3.552452739545552074e+00
-5.652566308651157279e+00,-5.281559815646277301e-01,-4.618310529440248224e-01
2.148211944235828508e+00,-1.298118627058863833e-03,4.023975801655330642e+00
-7.004631316860492063e-02,-5.904355527741550702e+00,2.154424487580943459e-01
3.461790537978258087e+00,-2.251778162065639410e+00,1.779555633821484906e-02
5.835104499815220613e+00,7.629463304209153085e-01,1.456267806634566675e+00
-2.624616593645342277e+00,2.833558443408283001e+00,-2.533822701031373636e+00
5.086014934334247783e+00,-1.662458961534992175e-01,-2.827806140614084640e+00
-8.556945499408048494e-01,-4.856501676206867124e+00,8.392711175649267830e-01
-4.582807030024460104e+00,-2.067240733256525131e-01,3.051683934308629276e+00
-2.845148623544005773e+00,1.506986099692372072e+00,-4.332704159278380374e+00
-5.694645866489764785e+00,3.433529250803447896e-02,8.470993918568046066e-01
-4.434200820337978577e+00,-7.157316401375772852e-01,2.435409914275495247e+00
1.564227026920939512e+00,-4.489488719179379750e+00,-1.693961680482512167e+00
-3.765118461083629242e+00,-3.162054339682339066e+00,-2.521940440626916136e+00
-4.969342808285105662e+00,-1.005172540771176903e+00,-1.710736736946980863e-01
-2.587967481447262852e+00,-3.984470734736661690e+00,-1.427881319601485233e+00
1.550570419666387423e+00,-4.327487193043357827e+00,1.497109666878470857e-01
-1.103843238662292198e-01,5.635428210566959528e+00,-1.018276438105605308e+00
-6.196063127700143225e-01,4.888334548443641125e+00,-2.539018059212896805e+00
-3.272493791687338227e+00,-2.572138239125876691e+00,1.168978499570876711e-01
-5.711107996966094724e+00,-4.486473242530483740e-01,-1.687873144341663245e+00
-2.092991277539007378e+00,-3.424232774855355821e+00,1.146649939547293995e+00
-1.628162433290792466e+00,4.293587306480217691e+00,7.083740675940247700e-01
8.179067216030098120e-01,5.933725386450167782e+00,2.565750277460858264e+00
8.354826075515302264e-02,-3.244454244115981822e+00,5.059478593802356983e+00
-3.108792149966208562e+00,-2.779029637780223272e+00,5.891669689791528830e-02
2.585735167954649860e+00,-2.356876183012854398e+00,4.579379400434472558e+00
-5.397208016227531324e+00,9.192729860665751485e-01,3.780979238834418776e+00
1.962608243667954833e+00,-3.863265334529632611e+00,6.835771147491244148e-01
-1.293573510235465962e+00,4.789393773204925431e+00,9.072920703720986912e-01
-2.046795429775480457e+00,3.961626159773352640e+00,5.147384652643804959e-01
1.957037768421448831e+00,4.815072939596944934e+00,1.770828275408667718e+00
-2.766205681326685983e+00,-2.789050827804353094e+00,1.525160987773226173e+00
-9.849204127336211867e-01,4.343326289248110150e+00,-3.683824548135308685e+00
3.461618327392230299e+00,2.797423574978378458e+00,8.260580384394514697e-01
-1.820084196591572834e+00,3.414996595061793094e+00,-4.769078716385313221e+00
-5.697135075693769979e-01,4.901724610458476405e+00,-3.120742137868618649e+00
2.009073598144223372e+00,-3.204094337707840356e+00,4.307910013775618552e+00
-5.197482531483936796e-01,1.192886866762799203e+00,-4.539760513137274245e+00
-6.101587377990729671e-02,-2.807628650832043604e+00,-3.422663438305099781e+00
3.336008501471873444e+00,5.743137641478642808e-01,-4.801119468066213258e+00
2.041663137256589378e-01,5.247513707821170215e+00,-1.204128665302031553e+00
-5.015740231869216359e+00,1.531144914956554526e-01,2.904877668344232333e+00
3.094375518420303894e+00,1.536537584664196876e+00,3.509997233749601708e+00
-3.635299835147313696e-01,-8.246718482919772608e-01,-4.057095402481236235e+00
2.336461867047066931e+00,3.778065261444982337e+00,3.004519545679946724e+00
4.626194837742715116e+00,2.311140810838614446e+00,2.648279048751968734e+00
-1.375734057788469800e+00,3.777884001834923566e+00,-4.723177555794658922e+00
5.824223373209811427e+00,7.482869109003736918e-01,1.748735925877151098e+00
-1.893846336116403739e-01,5.320940744896665464e+00,-2.045815226893252792e+00
3.609064285709399744e+00,-2.017595563996674723e+00,4.685435594763735501e-01
-2.413857405987377636e+00,3.161526294348114163e+00,-1.103670166860801549e+00
-2.377188928184848393e+00,2.551400166458960062e+00,-4.672756669312084554e+00
-2.385296513266148999e+00,3.485317300297533727e+00,-1.047825452622063447e-01
7.067086124981575290e-01,-2.348986426395642368e+00,4.851094184920996533e+00
2.891405260155974322e+00,2.863291682706100350e+00,-5.663781342373476191e-01
2.058967736077480237e-01,-3.333872460715754826e+00,-3.429816331988969402e+00
2.675038543412476155e+00,1.675615184931122714e+00,-4.175228564428779876e+00
-3.896792376888968068e+00,-2.947944139628245086e+00,-2.940539565797412713e+00
-5.648170186745304022e+00,-4.280588438229174786e-01,-3.239894790365017929e+00
-1.580351600534857903e+00,-4.806186876372645855e+00,-1.124484690798221331e+00
2.556196564655929482e+00,2.352864821503618309e+00,-2.534345038156934571e+00
3.792896666126747807e+00,1.030337713975229885e+00,-2.935343189179748791e+00
8.857791907615411020e-01,-1.114137130491818395e+00,4.405828795715873270e+00
-5.154026204783788145e+00,2.797819746472337554e-01,2.976469432800583625e+00
3.129960813322703927e+00,-2.585000045375738242e+00,4.595829285130018094e-01
-2.386631366341636973e+00,-1.713576145906309911e+00,-3.561423617642102357e+00
-4.146032911423235490e+00,2.130343232264945819e+00,3.323901463604836959e+00
6.219330734080321665e-01,-4.925716336920380023e+00,3.018854395028695237e+00
7.910866353864127731e-01,-4.601418123467868604e+00,2.903750306635066281e+00
4.822402614131237719e+00,-1.407167742221843376e+00,-2.923001482576362164e+00
-1.877047981944570232e+00,3.940561943474087947e+00,-5.447558153721116913e-04
-2.286011582032912770e+00,9.245077151779081959e-01,4.223933851590184752e+00
-7.817605504259279581e-01,-3.887347513811195032e+00,3.319142785880119018e+00
4.488625181286964860e+00,1.589314613002613230e+00,3.093392285542629905e-01
-4.664426714270417662e+00,8.647334481956813201e-01,4.559257132381753230e+00
5.210283501425148955e+00,-1.627902489160701349e-01,1.798299638580952209e+00
5.478507840395132611e+00,-2.774824458308844943e-01,-9.706908709783004241e-01
3.797118124922444160e+00,-1.444465536949452344e+00,3.608743177315353545e+00
-8.909525844910573533e-02,4.376389626627513074e+00,-4.243852765104594305e+00
3.578491866047711412e+00,-2.717335212197811156e+00,-3.439030728270558335e+00
2.257287410444260178e+00,4.345128546353111076e+00,1.778596948801974831e+00
-1.847983744911250614e+00,2.898632899273155150e+00,-4.891021326764477095e+00
-2.445190108642833149e+00,1.949584961549545303e-01,-4.057091159516857282e+00
3.490200967792855824e+00,-2.089281284805818206e+00,1.576440337927077495e+00
1.799854575172455062e+00,3.711651548382660426e+00,2.970650545105224527e+00
-1.299552828297565465e+00,4.122377445242642047e+00,-2.549108237565006707e+00
-9.574751909343723888e-01,5.098540636134411663e+00,2.929115238860680037e+00
-4.353057584986712136e+00,-2.545363677856075757e+00,-3.111305125921630221e+00
1.609038775870015536e+00,-3.756443664882101352e+00,3.032854293328540063e+00
-1.821131790048306165e+00,3.437635522455301018e+00,-4.128740948503004660e+00
7.895830858797265872e-01,5.259772788352438333e+00,2.054965624239671051e-01
1.939662961751192904e+00,2.457291684925185127e+00,-4.034383781550031856e+00
-2.758060442765727927e-01,1.680276648049327415e+00,-4.696574113107722326e+00
-4.372124714300936965e+00,8.406344368241003284e-01,-2.902396901473296875e+00
-3.539149026997323033e-01,-3.541525339836464892e-01,-4.113495281986450536e+00
-1.919094844728095328e+00,3.560096363761610316e+00,3.536573954260080921e+00
-2.033995382732198820e+00,-2.846457664503532214e+00,2.755008116491943770e+00
-8.984271119443250075e-01,4.724780314975874695e+00,3.001480891566079556e+00
-2.189235699005251057e+00,-2.564019130110918532e+00,3.403178176230953866e+00
-3.356515744068327312e+00,-1.633493386707807860e+00,2.623089014456290613e+00
5.119687971822451722e+00,1.688087271522872967e+00,2.386888593635386080e+00
-6.991850995561468274e-01,-5.618580323247771346e+00,-2.552318326425405015e+00
1.043126691560017694e+00,-5.059997491414802262e+00,-2.885617524560039726e+00
2.148512358233251263e+00,-3.990461785270937867e+00,-2.094232708988156055e+00
-5.021384776999868294e+00,-6.264555692978236445e-01,1.033773989939165583e+00
3.796799605400871691e+00,2.749976526236681096e+00,1.755252329732444494e+00
3.097920037183132358e+00,-3.251827364858087321e+00,-3.393884034942585171e+00
-1.913163203435381154e+00,4.182463047504092479e+00,1.878789760479305349e+00
2.234272050429038092e+00,1.888460835171245300e+00,3.522791578147400404e+00
5.355496689707934799e+00,9.014380641328558763e-01,7.695535423161329325e-01
-2.362802257151004781e+00,-4.296331863063873158e+00,-1.893351611886733066e+00
-3.448132403099914089e+00,-3.385111719657665219e-01,4.728206529391530744e+00
-2.829329867979299418e-01,2.419452788155364242e+00,3.587761434517189763e+00
7.452310100032247808e-01,-2.309714484492942699e+00,-3.762559250822318013e+00
1.220183265619978696e+00,-4.757900402506499482e+00,-2.249644074731827204e-01
-4.002769569848534381e+00,-1.847212441393377702e+00,1.013717319026003205e-01
-4.288414810303175506e-01,5.058992695731475031e+00,-3.300389481213487741e+00
-5.094766273061282824e+00,3.976235364181823217e-01,3.228148822462961753e+00
4.707383237372626539e+00,-6.312761861584486045e-01,2.447727550227312143e+00
-6.069448753149483261e-02,6.156642279877844182e+00,1.657631005778572142e+00
-1.681012100006064047e+00,-3.974869859257228910e+00,-2.969683569459716121e+00
-3.138104083650896658e+00,-2.421086346389540456e+00,9.972326357211148684e-01
-2.357460342616464644e+00,-3.643608576187950643e+00,-5.958166625866664207e-02
3.953276166539101411e-01,-4.789573272368713219e+00,-2.972079083558174961e+00
-1.742921153052581884e+00,3.780914612011015752e+00,-2.243941871242655761e+00
3.222781971503987375e+00,-1.134421481348442784e+00,4.226649239736786079e+00
-3.764400870860599380e+00,-1.349243559197706777e+00,2.324841852907991502e+00
4.325504483443435966e+00,-1.761419984711237507e+00,-1.654926053440217926e+00
4.295809490628504257e+00,2.655821960529288983e+00,2.500277038234321125e+00
3.721461007067542237e+00,-1.584158281609666874e+00,2.885772193871323221e+00
-3.367925731921544763e+00,1.051786011870508020e+00,4.368235407634323053e+00
4.843372707627215945e+00,-9.529877660851515664e-01,-8.072466220469599607e-01
3.121470490632539452e+00,-3.088820192466145365e+00,-2.334903939603875322e+00
4.320671674102682935e-01,5.995026848348053328e+00,2.510262246757480220e+00
5.288763240833055157e+00,-6.127884712531989075e-01,-1.420887129509224467e+00
3.387710801730096755e+00,-1.204372147402448467e+00,-4.277455712325515691e+00
-3.780363377794358826e+00,1.977650058143684664e+00,-4.616735613107234709e-02
1.371298483980549321e+00,4.861010872255489446e+00,5.704415659481798517e-01
1.878029015705025007e+00,-3.480645129427951456e+00,3.249242773021101538e+00
-1.312287778460760612e-01,5.424786249962552986e+00,-1.909623864339952348e+00
4.886941855895151399e+00,-1.166255903001155003e+00,-2.128414519168485786e+00
3.671124478126144730e+00,2.873425675593372475e+00,1.446274917974056162e+00
-4.642482156770291191e+00,1.303157979440903391e+00,2.489725323205314034e+00
9.053373308122497631e-01,3.553845528322732150e+00,-3.907453147357694334e+00
4.536858941358627995e+00,8.914939539903717902e-01,-1.252320271247129968e+00
-7.452351054470076619e-01,-3.739901635531889035e+00,3.736249209416097283e+00
5.643649999567650344e-01,1.956604633581742414e+00,-4.870597374115654965e+00
-9.321931891249765068e-01,-3.246127686384055799e+00,4.527710286117848426e+00
-3.525945710463162630e+00,2.062958618236535813e+00,-9.026518783141899149e-01
-2.981047554001979627e+00,-4.445976248050227397e-01,4.663519522248162907e+00
-1.008655964684770812e+00,-3.630127191871523440e+00,-3.154821966467333372e+00
5.575844813652488519e-01,-2.403392885849450877e+00,4.865064444833499202e+00
-3.596790520085357379e+00,-1.736127099980397936e+00,1.420519142329552897e+00
5.674445504440567278e-01,-3.810844491725473571e+00,5.172584925297617708e+00
3.406929776840444402e-01,5.819336614406968700e+00,3.880418744069671910e-01
3.587207057614325123e+00,3.057347824246313017e+00,2.024769536803959991e+00
2.757568931626456887e+00,1.457935421621077587e+00,-4.622512358582810954e+00
1.080513780394588785e+00,3.433621994596836924e+00,-3.716272810256084469e+00
-1.073761648017193204e+00,4.069912475524623652e+00,-4.609239767201635196e+00
-7.133643592194649496e-01,-4.283913790396308485e+00,2.565925368968621889e+00
-1.692568973212865258e+00,3.760546363242224466e+00,-2.405897596208530054e+00
9.419409272693136659e-01,4.090017215455737265e+00,-2.342230987686754418e+00
-1.242870830691922723e+00,4.307980986591221750e+00,3.224434259705595274e+00
-3.018538839579214095e+00,2.454136754249812924e+00,-1.800781079663700490e+00
1.799067591450353998e+00,1.897300388832012130e+00,3.548386517025208686e+00
-4.170557458889798674e+00,1.633939155314835689e+00,7.612619727684452053e-01
-5.870999685692611658e-01,-2.150838288530437570e+00,-3.641099765126557752e+00
4.447937519472650258e+00,-8.810246335135903939e-01,2.254187682548813854e+00
2.868855702483633863e+00,2.332484763560855878e+00,-2.098693672609531102e+00
-4.402935743112431410e+00,1.687204922594417456e+00,3.000355175327818369e+00
-7.200713792629580556e-01,-4.773471581262184849e+00,1.414484435800559714e+00
-4.448243995640488002e+00,-1.545062372295189945e+00,6.647309668402467606e-03
2.696204840749208298e+00,2.969082855273714738e+00,-6.930592777080631928e-01
1.472376167093591426e-01,1.883470215941591475e+00,3.723998973191457118e+00
1.261214444408336632e+00,-4.572554523315311314e+00,2.829298688826669683e-01
1.325635578537472492e+00,-1.298643861195945215e+00,-4.083307877631993321e+00
-3.416130343844656636e-01,-1.594758444913817685e+00,-3.692725652541104076e+00
1.326382299412604659e+00,3.648098788453189467e+00,-2.444170527453871422e+00
2.022851258366603844e+00,-3.259178692255408460e+00,3.402063779795849729e+00
-3.619335033471897223e+00,-2.331090443890357911e+00,1.984662985980798766e-01
-3.352237787382522427e+00,-2.208192549352710810e+00,1.076840180152516702e+00
3.612232926952231526e+00,-2.026425741101417266e+00,1.610533877908214784e+00
-1.386287426735855588e+00,-4.662576760247405971e+00,-3.391023860967879444e-01
-4.233062659256511928e+00,-9.341667125554222739e-01,2.248608772815895662e+00
1.673695214780969831e+00,-3.607120319143133358e+00,3.823708174445247465e+00
-2.703679067900414124e-01,-4.113027650238819000e+00,-3.123618969455869365e+00
4.267850851088946795e-01,-4.481285402440530419e+00,5.072075998811653719e+00
-2.668701262429807208e+00,3.308112591026329152e+00,1.257501616263935640e+00
-1.229426102334923998e+00,-2.667856791728333121e+00,-3.432722631616844211e+00
2.677038573458506932e+00,-1.755764433685130521e-01,-4.556452241471575348e+00
5.385105238258316440e+00,-4.947567137190722608e-01,-2.859436518684588258e+00
3.440969188810989898e+00,-1.754814186226855588e+00,3.486311382999668584e+00
3.295049132963669081e+00,-2.978154919322357319e+00,-2.970081023004608856e+00
3.006303941339135033e+00,8.699215814682633718e-01,-4.753953341465058102e+00
-1.862252696692131781e+00,3.502730289667619346e-01,-4.171499148173944072e+00
5.766586066408464495e-01,-9.691847021226750458e-01,-3.995417357747698794e+00
-4.130626525828161810e+00,1.694229820240188422e+00,3.990360554578331054e-01
1.532912832525989755e+00,-3.071474894494172769e+00,-3.636587448429478453e+00
-2.054160689711967525e+00,-4.811515796657948485e+00,-2.533568969548080752e+00
1.389672008590528696e-01,4.644001566096239486e+00,-3.085289255129979757e+00
-4.752460000609898039e+00,3.942332293853178515e-01,4.318063679502859742e+00
4.441710012487904535e+00,5.994343743183470075e-01,-2.551647087745047671e+00
5.276174474524213842e+00,5.786893631399532278e-01,3.496730892325335294e+00
8.047712882585394967e-01,5.341009261262274599e+00,4.744728403439645859e-01
-1.433717396114809084e+00,4.509033687687605152e+00,7.092274520244946645e-01
-2.357298846807280412e+00,3.009227883959041616e+00,-2.708176846718931774e+00
3.518936831662240916e+00,-2.585731726733026203e+00,-3.942281635368685588e+00
-2.200272018878001834e+00,3.163117743726324260e+00,-1.994246965201609711e+00
3.432326611201231614e+00,3.450146159965455928e-01,-4.698025170222674518e+00
-5.840289601030606903e+00,-4.327374599177858938e-01,-1.484615938859180417e+00
1.144128578516136335e-01,-3.301999699746633321e-01,-4.169938242790679261e+00
-1.199351348376437087e+00,1.183383309681120821e+00,4.098872107694853995e+00
4.352073734189229270e+00,-1.630866585010345426e+00,-1.344389883158699783e+00
3.940991566742269470e+00,1.741217446834602223e+00,-7.153003075118284926e-01
-5.885018783670973974e+00,-5.678919877394472682e-01,-1.235993258137499939e+00
3.066470513547573384e-01,-4.952665635215753426e+00,3.524009184826609076e+00
-2.617977734158549730e+00,-1.289700559556661075e+00,4.860096945297796900e+00
-6.873532517196583036e-02,4.083699673532472652e+00,-5.023175113224007227e+00
-3.998809548011376780e+00,-6.884824599907550802e-01,-3.576058871826564900e+00
1.119756511943891253e+00,4.703943849088503271e+00,2.845989689397229849e+00
1.055257625640254160e+00,-4.003579736992413984e+00,5.207714947418262241e+00
-2.271107149283994264e+00,-1.193902347810898851e-01,-3.983129629246778602e+00
-2.901936745370294335e-01,4.728670800857315726e+00,2.943144738345996103e+00
2.873958582864896805e+00,-2.596257739720402746e+00,1.913144583802367515e+00
-2.601130923200885459e+00,2.746985411821150525e+00,-2.705263945169681605e+00
4.769456889033741653e+00,8.406661997158796362e-01,-8.765676390337650004e-01
5.264430947935706762e+00,-6.106501252524952905e-01,-3.386173303967285442e+00
1.368461632480161505e+00,-4.764085879648509270e+00,-1.679896554431087763e+00
4.738062380820220021e+00,2.094804538048174791e+00,3.111625962499710241e+00
-2.198643524663479010e+00,2.287974870690200113e+00,3.858931257636955880e+00
5.258741522156863191e+00,1.702298749731366856e+00,2.212141055427634839e+00
3.082564480068052504e+00,-2.266219775785005108e+00,3.106954128830718975e+00
-5.329762259939363922e+00,-3.766466228377517850e-02,-2.262380415494737118e+00
4.002052655992208052e+00,1.588679631707424100e+00,3.357320435779623580e+00
1.763432843636469016e+00,-4.605513624380714433e+00,-2.967669673431448718e+00
-4.895796618138592571e+00,-2.230626583150068676e+00,-3.071725274484465640e+00
1.460477576099378449e+00,3.262995657246632764e+00,-3.222479393115206037e+00
-1.157806190357538956e+00,-2.343402868289199414e+00,5.026968599536248306e+00
-3.571014402604035354e+00,2.460567087375600703e+00,2.146461760285033993e+00
-1.192019002224101953e+00,3.736032770805296721e+00,-5.113509685702075203e+00
-1.910885553486248112e+00,3.908556725022636513e+00,-6.068622786513241385e-01
-4.632611999377537204e-01,4.956115550497429467e+00,-3.854989538720885456e+00
-2.900878122452130281e+00,2.104206487708557560e+00,3.958450715277429754e+00
4.875261788922064632e+00,1.078020042401966805e+00,3.756464742702827347e-02
2.302467981354987536e+00,-3.253220100555392236e+00,2.064475548132755911e+00
3.565233020665040442e+00,1.374892652691265704e+00,3.497313838455959001e+00
-1.096666574490190893e+00,-3.643073565673725867e+00,3.299952022569211163e+00
5.025699702973708050e+00,1.940694045031466697e+00,2.731002390054202422e+00
-6.902604730733234994e-01,-5.070836327430968460e+00,6.681129910705110309e-01
3.729121601684787457e+00,2.829948054686243442e+00,3.069215497452976837e+00
-1.867041266625196316e+00,-2.945339197256931385e+00,3.042996080105202950e+00
2.965450477883886382e+00,-6.014988652589264850e-01,-4.403934531540051545e+00
-4.277377606876077709e-01,-6.242492810069109943e+00,-2.060061221946551058e+00
-5.486715260442689424e-01,-6.206893984378003104e+00,-2.202342740797421428e+00
4.415016835706024878e+00,1.267135298820636580e+00,-8.429411016725576467e-01
-1.568278884972041265e+00,4.317522541875928432e+00,-6.482597951916857504e-01
-5.269782428711483391e+00,5.460894658717780903e-01,1.321374122294022069e+00
-2.050540616098056379e+00,-3.119461562949310096e+00,2.262083220746212930e+00
2.550417753284258016e+00,1.830379819660906238e+00,-4.165318182766658772e+00
3.306629809920373475e+00,-2.429340439768809645e+00,-9.074712842885221398e-02
-8.554586395522079112e-02,-5.789118773860877809e+00,3.260254335746585741e-01
9.047201983457542340e-01,3.140970631359334408e+00,3.295699353182409919e+00
-5.092157841775906135e+00,1.747175679577178398e-01,-2.217918702434101608e+00
1.753716025561427305e-01,-4.294204113555232460e+00,4.859300165732849841e+00
1.459488510741739020e+00,-4.346743238264794584e+00,6.528970774285018930e-01
-4.421762007916241188e+00,1.378888144505896918e+00,1.052687243645805903e+00
2.332912608412568201e+00,4.438617609667669051e+00,2.779427316969237172e+00
-2.036801318031473129e-01,5.570977629074022275e+00,-1.539674330681772618e+00
-2.592699587315741905e+00,3.579878302368369791e+00,2.200203372898087650e+00
-4.089470739539023403e-01,-4.832165377435262421e+00,2.133781223355679213e+00
-2.008486375268786261e+00,-9.870449344222257393e-01,-3.744525393313659301e+00
4.783239207305815199e+00,1.297839480682499547e+00,2.944758734155133451e-01
-1.182900044515600158e+00,4.967434628207230141e+00,1.196163484992476933e+00
-1.550122227202022085e+00,4.137020676816970166e+00,-1.504453823937396129e+00
2.891585623104463654e+00,2.999902258512592734e+00,-3.714923021144060367e-01
3.390836964596336323e+00,-1.837183918109082770e+00,3.570146362978599885e+00
-4.752365739243529674e+00,8.987824902936497606e-01,-5.080215882846955688e-01
4.285241846674987087e+00,-9.557134962144238077e-01,2.593391051182739382e+00
-3.044743338778034047e+00,-1.627519735867216655e+00,3.117715364648368404e+00
-5.922104351499448693e-01,3.524918484952904496e+00,3.321973432445322061e+00
-3.840266608201678533e+00,-2.164244596166630785e+00,-3.263011219055456102e+00
-1.650652332173669912e+00,-1.003435024713650314e+00,4.667457154567795641e+00
1.785109177380741929e+00,-3.856424667615085067e+00,1.218667220139564078e+00
1.641395683769133917e+00,3.745139887293942316e+00,-1.696794442103145339e+00
1.266380041519941102e+00,3.481367669651458829e+00,3.154477227602945355e+00
-5.113629102164554574e+00,-9.445795357038727635e-01,-3.023077264187212232e-01
-1.923359144162396284e+00,9.437918605847107623e-01,-4.291654827555369422e+00
-2.060482416470181377e+00,4.286010343278432444e+00,2.894563589318060348e+00
1.883695280786656934e+00,-3.639344788052903734e+00,6.227893597546372284e-01
-1.280385348923264166e+00,-2.377726054058545202e+00,5.089542525262900519e+00
-2.980434378938161988e+00,2.076657761200834784e+00,-4.481533111904560940e+00
4.889184766496718737e+00,-1.633265979094111475e-01,-3.231027169959156620e+00
-4.498543434149979703e+00,-2.143549302772181697e+00,-1.868846422845091393e+00
-2.472146900198278541e+00,3.738734987220132755e+00,2.390534162512230942e+00
2.659577184778448622e+00,1.703864153866154529e+00,-4.325903286065779341e+00
3.585310073399482267e+00,1.985169485110575449e+00,-1.141084261247191867e+00
-2.644196526837847006e-01,5.267580329940461326e+00,-2.341277874759707611e+00
-2.230350728175634067e+00,3.048077600653494645e+00,3.630063094390924228e+00
-5.110951831560314851e+00,-2.484274941784262846e-03,-3.636128987760221420e+00
1.180022819689842573e+00,-2.175953196339318829e+00,-3.829571746225431284e+00
1.700425340054267487e+00,4.298534981104182862e+00,4.615599497549418007e-01
-2.318712325386835804e+00,-2.161539208366397791e+00,3.898150815024943761e+00
-2.016125425102629265e+00,9.655114422841002408e-01,4.160674898410080758e+00
-3.504041834732436911e+00,-1.086093254646723238e+00,3.686816434983701818e+00
3.776258532383029998e+00,-2.585104493084783073e+00,-3.897670869260546844e+00
1.786812682634617788e+00,-4.027581930753199480e+00,2.582034084522349393e-01
7.080415597539525541e-01,-5.193616786991262835e+00,-1.551731750453123337e-01
-3.130354008220276540e+00,2.570310859051738284e+00,-3.315713977372012899e-01
-1.667474878383939485e+00,-2.316640472141633822e+00,-3.412392812336547010e+00
-3.096575783811484350e-01,5.365650027745596518e+00,-1.669116072803489725e+00
4.782986276696801764e-02,-3.376752617374275456e+00,-3.349289762233589318e+00
-3.699841346661172370e+00,1.981994792508098735e+00,9.587482295622999640e-03
1.706060684984049280e-01,3.947309985488399509e+00,3.144273372950478596e+00
4.922018262761620022e+00,-8.677165578534820067e-01,-6.757459082012208240e-01
1.095072148645057197e+00,5.076199525224343923e+00,2.744218195002343652e+00
-1.185637781891567613e-02,-6.081765142983287298e+00,-2.610313899753658795e+00
-1.342720690553448337e+00,4.385567871453251776e+00,-7.526518961013457520e-01
-2.366872249333392464e+00,3.071904109951872908e+00,-2.673855820220479629e+00
-5.977000361408460805e+00,-1.111272427823094766e+00,-2.835205217738618000e+00
-1.411609921924545485e+00,-3.933511475568631344e+00,1.745560453726124006e+00
2.093176399730400483e+00,4.779895364185593465e+00,2.746164693687235481e+00
5.202992450571030325e+00,2.945351303336832260e-01,3.633322449696897216e+00
4.187536092973878077e+00,7.829271439392567755e-01,-2.553993461884073390e+00
4.172884720586472973e+00,1.986889037846684802e+00,3.467083530341869557e-01
-4.363099023407894350e+00,2.038697300568445669e+00,3.952834882914586068e+00
4.898547088486857604e+00,-4.274351555773405753e-01,-3.845277705480035557e+00
-6.313468560051939127e-01,5.067474418238472111e+00,-1.669154534490210118e+00
2.640952784996671632e+00,-7.055334282791599909e-01,4.172424565061749746e+00
-1.062059992260291630e-01,-6.324040630598986468e+00,-1.720710980184254613e+00
-3.301248620556175961e+00,2.175855717698846684e-02,4.581855465516694537e+00
-7.114793331907182106e-01,-8.847872897937585357e-01,4.616052843928552640e+00
5.010962130411145132e+00,-6.999752566824869460e-01,1.500287197339463252e-01
3.933924782963550637e+00,-5.230980116473687991e-01,-4.494749133633950677e+00
5.145600086189540789e+00,-1.190967043215046317e+00,-4.143122612104092717e+00
-2.299497849622614609e+00,3.711211044636467449e+00,1.590926155916246865e+00
1.676970547942631118e-01,3.236345614434673390e+00,3.351894729358049663e+00
-3.878000461523833930e-01,4.742429840753911385e+00,2.929035716135768741e+00
8.121337685920643201e-01,-4.668296182555480733e+00,2.429990684996927719e+00
-1.986121906126248948e+00,7.144080852920183800e-01,4.264039343190630049e+00
1.201291896377290058e+00,-4.252126535248324402e+00,2.922869949071485784e+00
-3.582123693439951850e+00,1.451860833723037203e+00,-4.227919088635799127e+00
-5.241333391560633714e+00,-1.040803928110034304e+00,-8.028979330230634481e-01
3.348856390892722246e+00,-2.489424799901259533e+00,-2.095609963694181621e-01
2.800606218306045392e+00,-9.444103044792389046e-01,-4.229522653017225409e+00
-5.911571042815345400e+00,-6.010504172998674122e-01,-1.451715879543469034e+00
-3.339796263119653164e-01,5.128740116055062970e+00,-2.933431732789176571e+00
-4.462504554033924542e+00,6.458150868693239843e-01,-3.434870880241698288e+00
-6.075785961135796720e-01,-3.622029387187367888e+00,4.672502617098507116e+00
5.338553081058365457e+00,8.424405213350633082e-01,7.356436756600996940e-01
-3.478994800127197529e+00,9.279964090584601477e-01,4.374627978766501890e+00
-4.830905937592999244e+00,1.285651383546754900e+00,2.561159842571029355e+00
7.635559651246658364e-01,8.950392169073450033e-01,3.947053954327943259e+00
2.466652703779905753e+00,3.784077976284732969e+00,8.763599616354978972e-01
2.622003111578477874e+00,1.825340372831713243e+00,-4.083893210441820187e+00
-3.145568522754922380e+00,-1.566343185474798005e+00,3.403580787692169096e+00
-3.187723115161195331e+00,-1.375863017846364889e+00,4.006999849569355732e+00
-5.432281341423843557e+00,7.752878497549137160e-02,1.496651462851274594e+00
-6.317733585314205813e-02,-5.859198127731560568e+00,9.361326141823966829e-02
-3.877332013992631055e+00,2.090327257395370619e+00,1.618407200638394938e+00
4.278298215429077622e+00,3.254503592806655497e-03,-4.483050518715180566e+00
-3.392602663553124565e+00,3.952877350567457482e-01,4.546753801266021355e+00
-8.381867440168075944e-01,5.311075371169303949e+00,1.677377650956295652e+00
6.005621364994133238e+00,6.955040047475395948e-01,1.831028134515469530e+00
-3.497954370017231529e+00,-5.686001230607258261e-01,4.746654745594386604e+00
-4.964396716707749069e-01,5.513925326166015495e+00,6.329590173190594582e-01
9.765918381502556311e-01,-4.165875165009784276e+00,4.969501217044617114e+00
9.287124688857472110e-01,-5.216276714261129932e+00,-8.559489864876542731e-01
-6.666822307097792777e-01,4.681357990845902428e+00,-4.087741257998026789e+00
-2.679112717814622398e-03,-5.182728677193425781e+00,2.079521618206960909e+00
2.481681728733142744e+00,2.907949502362570104e+00,-1.598433535200179723e+00
1.766614125630138199e+00,4.573271856032754989e+00,2.841821808225676094e+00
-3.393596149264977324e+00,2.007035872838425661e+00,-1.970231993983118990e+00
4.095572440465570452e+00,1.048306572105435208e+00,-2.277907967665205646e+00
1.190782539628896020e+00,5.597877606518212978e+00,1.970278829160248657e+00
-4.301232180688871587e+00,1.551773533506733971e+00,5.442792133554619216e-01
1.286842567467262111e+00,2.647540274627722123e+00,3.364734801080865978e+00
2.892655795032133437e+00,-2.409097646987893082e+00,3.805720229832252777e+00
-5.439033626777176611e-01,-5.584651646968490368e+00,-2.652601959053342284e+00
8.234329676298170198e-02,1.504524730755488537e+00,3.821961226752886631e+00
-2.745581444761536094e+00,-4.089664476748689381e+00,-2.462393195307924998e+00
-4.783611661628741629e+00,7.152446068376551447e-02,3.164029002615069697e+00
-3.605481403860667289e+00,-2.258297102809533552e+00,1.924944557454802974e-01
-7.874127958046027720e-01,3.986261376603325246e+00,3.175470673354179763e+00
-4.910298741055512117e+00,-6.082184529576227794e-01,1.114046962419393605e+00
2.780216784161744226e+00,-1.516886649524481934e+00,-4.096854717784978561e+00
3.282759141862376051e+00,-2.633454221332368839e+00,-1.332345091070264331e+00
-5.453644660300446922e+00,3.279424376524687768e-01,9.106721789085099328e-01
-3.690781365713204920e+00,2.619282920269531356e+00,3.447784185368659493e+00
-4.961778613325709131e+00,9.222789926463736965e-01,9.668795595066550508e-01
1.322885313250757866e+00,7.299803117566189270e-01,-4.541828962436794015e+00
-4.570585920104248245e+00,8.385610170023937160e-01,-2.012393584598094698e+00
-3.733170018784027544e+00,-2.905403300703791825e+00,-1.721662748028963463e+00
-4.396955512998891535e+00,1.839342122904751964e+00,2.639238281810345033e+00
-5.092519691852669395e-01,2.076778034986817900e+00,3.674883719020586970e+00
-1.543024212196713485e+00,-1.822343559402983315e+00,4.930160143050818178e+00
-4.641594870971866849e-01,-1.081761382261292814e+00,4.540667999891937257e+00
-1.596841496335113519e-02,4.450533428811377590e+00,-4.141891496653913762e+00
-2.426826014853248115e+00,3.049459575251051824e+00,-1.896172443344742442e+00
-1.267000572812140957e+00,3.562916271517296840e-01,-4.266044042948142767e+00
-2.958236718128077314e+00,6.163196610593445479e-01,-4.060753300054051884e+00
-2.441090168192504795e+00,-7.638090927448893952e-01,4.697003598718592521e+00
-2.696898961905950465e+00,-1.727080361280520782e+00,-3.485458497868592520e+00
5.380764433110305056e+00,1.488384666034107129e+00,2.449114758256130120e+00
-7.862947119813715746e-01,-4.340410688401406425e+00,2.340226186073816717e+00
-2.520733236184578563e-01,-6.848314866402972489e-01,4.368539048659690671e+00
-3.551885342040450588e+00,-2.222769488007442895e+00,5.638084723579693813e-01
-4.323772120518863282e+00,-1.140147491848038541e+00,1.249956849948093529e+00
-5.406906575997116882e-01,9.463523836405249856e-01,3.998580220135146579e+00
-2.973280815214438988e+00,2.887109971780694284e+00,3.297005505491833466e-01
-1.074236713512431329e+00,-5.444185850461375153e+00,-1.616673095229249846e+00
-2.550459411554051758e+00,-3.332147229589407011e+00,4.714801241166194368e-01
5.040724078953197740e+00,1.707097015904302406e+00,1.857388374825132527e+00
-3.313470416387716555e-01,5.132751466942228724e+00,-3.042606308707344720e+00
2.994383411933286276e-01,-5.613060039287787184e+00,3.958275545425971598e-01
2.476284208207106374e+00,3.063738275783118858e+00,-9.050271087370326262e-01
-4.133151689913315607e+00,1.079550839457719569e+00,-3.538187507237766205e+00
-4.524857039255468116e+00,1.256180276656454264e+00,3.383330138816586508e-01
-1.996008461597243572e-02,5.828061193224896464e+00,-6.980311359203600352e-01
-3.589316530789585347e+00,-2.197657011101297186e+00,6.930728454065797628e-01
3.396766372311761373e+00,2.769203292045590015e+00,3.830122940048922842e-01
-1.167624168944877638e+00,-3.583109624525207870e+00,3.246968331568184762e+00
3.566540849381309997e+00,-1.993827934742378405e+00,1.371962210230097234e+00
4.186242136890541587e+00,2.541142207874352632e+00,1.804060362052902322e+00
2.924550628660658180e-01,-6.014764589779074688e-01,-4.159791927262811662e+00
2.865025424424623601e+00,-3.405502337336706375e+00,-3.427785011237604262e+00
6.754898422774452404e-01,-5.110139615334877483e+00,7.000551404265710209e-01
6.578501854779394975e-01,-4.625764873106317232e+00,3.975428404924714165e+00
2.875874666745128483e+00,2.686934740869915128e+00,-1.107652822818180116e+00
-8.490733065474685981e-01,-2.328325190333715877e+00,4.921387172137024812e+00
5.175124395003297906e+00,1.380045348095052526e+00,1.838354182795414404e+00
1.739517310697145769e+00,2.747612245059659397e+00,3.345262459147780199e+00
1.811908110773515324e+00,5.188515075925967501e+00,2.499057854257506595e+00
-3.460295551012764204e+00,-3.555921354098842802e+00,-2.783847028178527250e+00
1.175373650265949976e+00,4.226123466058804290e+00,-1.357567893640494905e+00
4.963980520219230641e+00,2.841914123860629360e-01,-1.903955708589329499e+00
-7.536732039677981332e-01,2.802941857414157578e+00,-4.987062721242560670e+00
-4.861367225193804487e+00,-2.165888893052844377e+00,-2.761800519530647868e+00
-1.368045165564972576e+00,-5.197625072828532922e+00,-1.680980012482683028e+00
3.146503071186498524e+00,2.805507802085035696e+00,-3.744764137156200712e-01
2.478360151672052147e+00,1.826604948453017796e+00,-4.370323767281076854e+00
-1.321207338397870412e+00,5.030237597479695566e+00,2.732047985254073552e+00
-3.001509848464877894e+00,-3.169280684926157665e+00,-3.058117473932933539e+00
-4.503004148889122149e+00,2.579932086967806626e-01,4.000389337960104541e+00
2.433940702671119727e+00,4.367093675078693060e+00,2.730824451044198131e+00
-4.661913139998123512e+00,9.916797836011992384e-01,6.948620870063416666e-01
-7.424579851683743570e-01,-5.539357163823232177e+00,-2.714857807854529348e+00
-4.071297640389887285e+00,1.539848120202230941e+00,-3.388701652718059121e-01
-5.108700952895098985e-02,-2.210953218472952120e+00,-3.617815790209261362e+00
1.281925815478248021e+00,4.304488826290908676e+00,2.899639912929127039e+00
9.766564823782357407e-02,6.681291129186258670e-01,4.026318441694774819e+00
3.693979097784219068e+00,1.992963378223874538e-01,3.751398700134220388e+00
4.763671417792600948e+00,2.261378326781443293e-01,-2.416363739114759657e+00
-7.864560398171391853e-01,4.956311652975881721e+00,-8.748764388198516651e-01
-9.035007101758169012e-02,3.470887896570391984e+00,3.368205778193057665e+00
1.668264334716331065e+00,-2.762016091757445224e+00,-3.666878204624026250e+00
1.420482622130843087e+00,-4.487900669538487541e+00,-4.388616711937144699e-02
1.013605471727677260e-01,-2.551284889335213357e+00,4.885076449589585756e+00
3.735041078783182922e+00,-2.051987448492480048e+00,1.335039943353291403e-01
2.172101542934462337e+00,-2.762883699904156387e+00,4.705360129832983240e+00
3.475243127855828229e-01,5.452859713266556163e+00,2.702053547453938442e+00
4.941875129093931673e-01,-5.034981280875258314e+00,2.747103483099659904e+00
-2.008767002683720548e+00,3.166715333163420354e+00,-3.829273535165797160e+00
4.190338853473291714e+00,-1.404536013158384833e+00,1.355027120545368780e+00
-1.687072181517355940e+00,-3.953798683608261477e+00,5.649343975366148962e-01
-1.953274650327094353e+00,-2.878911150679483111e+00,3.060308500766698359e+00
2.578185867323321556e+00,2.222045128118275592e+00,3.377762722492012148e+00
5.458295115460383151e+00,-4.622525901480185051e-01,-1.003049755805673904e+00
2.464337124756530883e+00,2.231170150077617098e+00,-3.405394727339479566e+00
2.792713190738998819e+00,-4.851773345972842932e-01,-4.409702326256855542e+00
3.074517533362620014e+00,3.878068734148695018e+00,2.555442747455633601e+00
1.970104796460762753e+00,2.913689997767940465e+00,-2.999334385112657486e+00
-8.890792766177774142e-01,-8.484240168417508388e-01,4.576686475753702688e+00
2.856203309898644793e+00,-3.090678159752557441e+00,-1.368833402212369155e+00
