-5.035849643860752511e-01,-5.609753692320306184e-01,-7.079364895053830153e+00
-7.596727525714410234e+00,-3.084950010142702315e+00,-4.318236337075027076e-01
3.294189838094542022e+00,-6.707928233009786467e+00,5.624979187577308970e+00
4.394488093180726196e+00,7.166097579888196512e-01,5.751057027659099319e+00
-1.509609723967642259e+00,-6.701905860158596795e+00,1.127520811137267681e-02
-5.348057108708538010e+00,4.837900466174968050e-01,-5.276781061524225436e+00
1.057864423591398761e+00,-2.358986051075181667e+00,-7.774412591998437705e+00
-2.792716060382948395e+00,-2.551455307949266782e+00,-6.139120174204723668e+00
-4.041879763024351924e+00,-6.086515311338819068e+00,8.585500068485577785e+00
5.915549810257743069e+00,-7.045065962890833866e+00,-3.324266982701930662e+00
-1.504249016054796995e+00,6.764901656938838492e+00,-3.528521431622408944e+00
8.349037658310852095e+00,-6.913222529648098025e+00,3.517329754329715730e+00
-3.721509006241641160e+00,5.708669648705488875e+00,-6.167837519878267116e+00
-5.638847443730877984e+00,-4.186921775816442093e+00,4.618752017362727003e+00
-8.366843344698523532e-01,7.039960586156756683e+00,7.365536325947418916e+00
-4.542975104724026103e+00,-4.970549150192621113e+00,7.408947306715427672e+00
-8.130678959682302587e-01,3.179580413878564382e+00,-7.042030682419540888e+00
-1.558462011034651873e+00,-7.000615412633865553e+00,-5.921220814623792350e+00
-3.647707694794094735e+00,1.475431900807362640e+00,-6.041113084450703496e+00
6.028585762683903226e+00,6.822064584430590273e+00,7.639075170641276835e-02
1.879977138277090454e+00,4.748164451292947064e+00,-8.286347177885387438e+00
3.153582510575322129e+00,6.927607196137718581e+00,1.652973302260108135e-01
-4.256359941543941261e+00,-1.684743413134087042e+00,8.098125728430709103e+00
-1.439554026722024149e+00,-7.071915854736026574e+00,-2.540067218078855937e+00
-4.432848293371283610e+00,7.079548905128574710e+00,3.165022255272604834e+00
4.306429758560355481e+00,5.011648353178340010e+00,-8.343586746110215557e+00
3.350170393541233693e+00,-2.327503921878328885e+00,-8.672348214484145501e+00
-2.749353193302439102e+00,6.976469586549789881e+00,1.636026665656974854e+00
-8.847922534273145345e+00,-2.273121352533360451e+00,-3.922705969604198817e+00
-5.822936820881722930e+00,-1.353010324826249278e-01,3.789260350028120339e+00
-3.431470745218271556e+00,4.071832282570904127e+00,8.700033493640544791e+00
6.868358309613837420e+00,-3.448851642895045089e+00,-1.157692860984066874e+00
-2.984514718018288715e+00,-3.397607468344991499e+00,8.688997043228836148e+00
-6.914973549952959431e+00,-9.974011212619078304e-01,-4.693394392899765677e+00
2.002301016411443868e+00,3.713232066017309485e+00,-8.255138101718024757e+00
5.588842201279544675e+00,-6.975490497689943226e+00,-1.612357906174727962e+00
3.822032488023951569e+00,1.260082776588886469e-02,-8.901434582107974336e+00
1.323776603676023678e+00,2.534664644178228787e+00,-8.107403035150692716e+00
-7.305380146930228413e+00,-4.325007186656111280e+00,1.956253616766613357e-01
-1.296602076658697644e+00,-6.345350395132521193e+00,-6.670966128831190112e+00
2.064557071945995581e+00,-1.907236152446382782e+00,-8.059457381582413760e+00
-3.693375776775066566e+00,-4.668922542079394944e+00,-5.851467255374150689e+00
-7.615804441533973623e+00,-1.295774743252376071e+00,-4.565945116730441566e-01
8.818221417574445553e+00,8.219820701812670105e-01,3.800343582484599025e+00
8.524900145956786801e+00,-2.071631586701712102e+00,3.165891559915495534e+00
-1.567718261949050174e+00,-1.729225948132305568e+00,-6.606008108538148349e+00
3.884521328899694925e+00,-4.275602362329025574e+00,-8.222250353584964699e+00
-3.990931665352671409e+00,-1.685987042134082514e-01,-5.776117130528890975e+00
7.358237402026234442e+00,2.640420099649939623e+00,-2.343859563316552305e-02
7.514329224217961567e+00,6.931907988593035697e+00,3.961567814206829130e+00
-6.455566706242308328e+00,6.715949750382846695e+00,-3.938696975700252345e+00
-1.975322588586298389e+00,-1.874354170065249292e+00,-6.466856964977332645e+00
-6.751819063710466473e+00,6.934986806869875231e+00,5.859325918080365847e-01
4.040307706395402931e+00,5.185900736459542415e+00,-9.061782585273052248e+00
-7.375799569787419685e+00,-1.351075193383585171e-01,2.454655507224835775e-01
7.802458740029694972e+00,3.258514755499865245e+00,7.151616427514032592e-01
7.216948160758885678e+00,2.082908637518448458e+00,-7.873122115424754375e-01
5.277574711268315788e+00,5.434800416625070518e+00,5.288580570711606477e+00
-2.679974698489841600e+00,5.581446247191321763e-01,-6.540413838660834145e+00
8.317362934236861349e+00,-4.237945418367704775e+00,2.726452874553801475e+00
1.483244445409350076e+00,3.388258670883300905e+00,6.658112608152477740e+00
7.850713849856800763e+00,-6.590025269034534894e+00,1.312662955865647518e+00
8.687082817839446136e+00,-2.988087050645434228e+00,3.481175206573369874e+00
-7.528280489080619198e+00,5.987540307196002054e+00,-7.108375700293674271e-01
3.536904451762112878e+00,-6.889883226475860489e+00,1.777610486588709016e+00
-3.112415780203016791e+00,-6.749175524431797690e+00,-5.036660319783625717e-01
-3.666058087430400236e-02,-6.659389036940909889e+00,7.304118340162846224e+00
8.072119990627257380e+00,4.278015727047538297e-01,4.103440325080033091e+00
2.891641357692401826e+00,3.532423968848469542e+00,-8.622025541048595088e+00
-9.616936941409361950e-01,7.055254231566095768e+00,4.239047618664687711e+00
2.612672673209858187e-01,-6.966538621879756477e+00,5.459636593906505020e-01
3.081628142234769552e+00,7.049966693130993001e+00,4.714133265035975739e+00
-6.239669266944285475e-01,6.379320524382584345e+00,7.381178295022227331e+00
8.065133461072651500e+00,-6.250001680249844149e+00,2.193671268913280681e+00
-3.534916655033066846e+00,4.532495782086189529e+00,8.557925447754719528e+00
8.717152991007704799e+00,-9.858555241915196721e-01,3.891576756480190191e+00
-5.714344587980026091e+00,7.271073946909305530e-01,3.979847895886632347e+00
6.773551978290724307e+00,-9.569026116327035147e-01,-1.202042327733917171e+00
6.923722704181736631e+00,-6.949304574321863548e+00,-1.113977670257444846e-01
6.932963604052051032e+00,7.969463268412942947e-01,-1.352037431530638267e+00
-5.493453478413058200e+00,6.925105465630524648e+00,-2.350287353411003366e+00
2.409968113441806281e+00,1.044433134056894863e+00,6.394382608165772197e+00
-4.086237869426311065e+00,-6.928721169604912689e+00,-4.309566968631273198e-01
1.887393971832237893e+00,-5.326956894536219345e+00,6.754364568971682914e+00
-7.554801030341696810e-01,-6.954803699250214244e+00,-6.567529166430882803e+00
4.344229453869203894e+00,-6.744144769358969782e+00,-7.496451783060840590e+00
-5.727962181679881581e+00,-4.302637860514376911e+00,-4.972355021763223526e+00
2.483961411905520666e+00,-2.421499911123805138e+00,6.349907317439426713e+00
-2.469476629786005184e-01,-3.352436648112616879e+00,7.538355073821147556e+00
-3.637229065729472133e+00,6.797098319822859835e+00,-1.122653340170045810e+00
3.157112386935374548e+00,3.670136309682249021e+00,-8.778974286904617230e+00
-6.221361697035002081e+00,3.479531454418638425e-01,2.902487847055901238e+00
2.118225145735058712e-01,-7.046477288072240164e+00,-3.263381054315098062e+00
5.106030510526903043e+00,5.285055805867379775e+00,-6.228048826089735535e+00
-8.728835489215848398e+00,2.826371087434887297e+00,-3.377041158354924466e+00
-8.328316110560827212e+00,2.824927937585713256e+00,-2.871236903537060403e+00
-4.625140810462698759e+00,-4.160539232724079106e+00,7.545230653656778586e+00
7.222526656474872020e+00,1.286664987803739724e+00,-3.395477291103902728e-01
1.711779391641975012e+00,6.644315096701273404e+00,-4.544037953158342802e+00
-6.274098929620650189e+00,3.430344103537557476e+00,-4.956749135238890602e+00
-8.928547499481287453e-01,2.271703551943103694e+00,7.648782306185662350e+00
3.202856920167311383e+00,6.587239598018722830e+00,-8.301276874206889644e+00
-4.478454101294266465e+00,4.063587329139770610e+00,7.036783309621331028e+00
-3.995109586443821303e+00,-3.700017435019664624e-01,8.471105805959743051e+00
-5.948018717207782302e+00,6.068162227241665541e+00,3.375389369342150392e+00
7.903840043133454785e+00,-4.908405352883617567e+00,4.320953641092148523e+00
-5.547388710896302477e+00,-5.864527447167484198e+00,5.047240051513393055e+00
4.359827128387633977e+00,5.312013766226551859e+00,5.441190908979203655e+00
7.135272621014642880e+00,-7.020143521600294534e+00,9.928247975745548848e-01
3.259251235528969559e+00,-7.015382442471940649e+00,-1.948214248542502025e+00
-6.075436196633068775e+00,2.446439254747119207e+00,3.314254603160820878e+00
3.372278663168031709e+00,6.837857775198559196e+00,3.876597374882278846e+00
7.863332315081191126e+00,-2.588186051801552701e+00,1.660690271092467363e+00
7.410331730280153906e+00,6.722443392347432045e+00,6.123356620227221603e-01
2.216103785623153577e-01,-7.160838450162840374e+00,-6.933044575943622334e+00
-7.682500564672518628e+00,3.600488681693572612e+00,-1.155409156606209464e+00
7.689984495741089887e+00,-5.551859779542350104e+00,1.070457271623335149e+00
7.246258891812072278e+00,2.837308275666220236e+00,4.432623123844812163e+00
3.533958159905254970e+00,-4.932236644839559148e+00,6.083545997574229425e+00
4.141185826920525059e+00,-6.868530923532309984e+00,2.515847509348217326e+00
5.236164783247616583e+00,-5.337481724006736705e+00,-4.905143940161805105e+00
9.754739806806648206e-01,-6.847436522997800701e+00,8.802644751406680790e-01
5.604181465615892144e+00,6.789828239637419216e+00,-2.051589782108476534e+00
-3.659060840618785893e+00,2.683342409652781146e+00,-5.962361118615586264e+00
6.787406612161764663e+00,6.688065667375432177e+00,4.363506786465016218e-01
-3.324475464906711863e+00,3.811688276551626675e+00,-6.275979892257901760e+00
-8.687512157321382045e-01,2.689535830833002628e+00,-7.137273963035720925e+00
-1.825353087537842312e+00,5.803011320136078233e+00,7.835543456256790940e+00
-7.131029229258096791e+00,-6.743016592035531609e+00,-3.588757957814732613e+00
-7.426547836459943319e+00,-6.615093000717326532e+00,-4.761575672163033124e-01
-6.850225393756725012e+00,-4.608076329988122666e+00,1.551281859570006194e+00
2.300327631936221362e+00,1.823186017967194095e-01,-8.378264684499377779e+00
8.916760917203545578e-01,4.939940454401860137e+00,6.763551063510171879e+00
-6.020641866997170411e+00,-6.142625823210763336e+00,3.966924094470255291e+00
7.036627849144161395e+00,4.403014026602973807e+00,-9.893330872152439337e-01
1.693527943122722645e-01,7.025044074540562455e+00,3.159567793342050734e+00
-2.675500706812141694e+00,2.915153508376813196e+00,8.337841339589843415e+00
-4.177177176277855786e+00,-5.500067940057052240e+00,-5.523752791499681791e+00
4.909471032200238283e-01,6.619378187701744132e+00,-7.295122437225138867e+00
2.724768663450071848e+00,6.760920524163461565e+00,-3.259510352794428578e-01
-2.834385261235446762e+00,-6.882639457248223458e+00,1.161904484222645806e+00
-7.911568601583147675e+00,-2.166322859335030770e+00,-1.077560653970723870e+00
3.805043521843954474e-02,-1.609443424040055248e+00,-7.242747051389860857e+00
8.877456367004697313e+00,-3.173580999045487072e+00,3.864478647485034113e+00
3.214678319644020732e+00,4.140478733485559282e+00,-8.715355436895777075e+00
-5.021512002421221865e+00,4.779765149877650998e+00,5.723937680154560503e+00
8.746418108458538399e+00,5.361342908219072889e+00,3.139308529731652087e+00
-3.850380275196526370e+00,-6.923873871023827675e+00,-3.864145941294082842e+00
-1.705402309008457351e+00,-2.165880261033762966e-01,-6.658409703708246141e+00
-3.763998712362928600e+00,-2.265904581878124713e+00,-5.833268755846457765e+00
-6.537339870975098499e+00,-6.789821527927981215e+00,-1.247531780226038611e+00
7.573172465528010378e+00,-2.354686738890455100e+00,6.549337224595852547e-01
-5.266389916818273953e+00,7.059755651762341877e+00,2.459389361883599356e+00
-6.400208733640451453e-02,2.238179803839487558e+00,-7.453873189775714003e+00
-5.190291456541397785e+00,-2.398974094331764118e+00,6.067328021861370324e+00
1.705109148761515814e-01,6.214456696206481112e+00,7.159800597684144563e+00
-5.882901691862826965e+00,4.827328826595381983e+00,3.460871175613191131e+00
2.623620550117490957e+00,6.673211809311510478e+00,-6.152267245544037699e+00
-4.606020601628372013e+00,-5.572519056805261828e-01,7.021541144808662871e+00
-6.116517536619584305e+00,-4.364328725874980996e+00,3.683841353951943010e+00
7.895940227811123258e+00,6.777455307968764053e+00,3.440664256783136477e+00
-4.225081995899131471e+00,-1.286260337800446241e+00,8.152358718020895623e+00
-2.893550113381854860e+00,-6.589929178758427319e+00,6.049527425951596094e+00
5.646946426735996560e+00,-1.073422162312112071e-01,-4.431519176236362156e+00
6.126887489331038772e+00,3.386922362126572938e+00,4.912387123069376749e+00
-7.526284986939068666e+00,4.133971389494067949e+00,-6.617046912076542942e-01
8.789794144168403989e+00,-7.074299925877600703e-01,3.990664443427720531e+00
-4.552834068135772405e+00,-2.762732656159124112e+00,7.478440877187773950e+00
1.259502674375242881e+00,4.468025662277162802e+00,6.775095283805624646e+00
4.474435256098714397e+00,3.461882340811247349e+00,-7.167195466842938067e+00
5.867275122556756095e+00,-4.492635433778078280e+00,5.166526790588460649e+00
-1.494402796608031991e+00,-5.324800552485403626e-01,7.902241740241491286e+00
-6.206628845788760174e+00,4.173983313634889392e+00,-4.974558847056849586e+00
4.013165557838092923e+00,-6.825134426279379163e+00,4.026494336428033449e+00
-5.577196718026319111e+00,5.618022302975811400e+00,-5.259490515520298004e+00
5.855814745632367035e+00,-1.384434093934352461e+00,-3.653032896700555643e+00
2.152297457526001004e-02,6.580526668823347691e+00,-6.632182349647101738e+00
-3.753942381493533542e+00,-6.908342637080262527e+00,-2.558854977879691184e+00
-5.473588097872442937e+00,6.887869234573919641e+00,-2.615068185109922450e+00
-4.854298915908462075e-01,6.553567305871224047e-01,-7.085628925770270925e+00
-7.679645309583813528e+00,6.763792449809789886e+00,-3.612087837482846897e+00
8.345170869533928837e+00,3.269677928712691806e+00,4.036773482241792443e+00
1.417518750352207757e+00,5.458116693639722072e+00,6.534491719361161799e+00
1.639838818048679370e+00,-6.121522790923748403e+00,6.919305349020374862e+00
5.505184018942225421e+00,-4.196642818690405896e+00,5.278552465737218036e+00
8.253542695591361777e+00,-5.866015763370795888e+00,2.788147993227236388e+00
-6.685908556653899382e+00,2.062194021979502079e+00,-4.804368801604093520e+00
7.556484659258649650e+00,-2.611726997231251790e+00,7.824566288404997128e-01
6.165916944885380779e+00,-1.733671157323665613e+00,4.937403361817073844e+00
6.339645826128247563e+00,6.779997029548287202e+00,-4.351349618883116888e-01
6.355912683734360691e+00,-2.533042886572887564e+00,-2.283234453962102339e+00
4.826835099243400595e-01,6.965879039575705534e+00,2.498801317517252318e+00
5.162587556071350114e+00,9.445717214586512034e-01,-5.558487390724506483e+00
-1.691136798065933311e+00,-6.936440931939501731e+00,-7.948185599357844300e-01
-5.152484619371462848e+00,4.296745542531575701e+00,5.251989690483110707e+00
2.099369302282548588e+00,-1.655951785976999435e+00,6.634984919161393435e+00
4.723643567809733490e+00,4.508605700314743281e+00,-6.766619235881412564e+00
-7.062200817137568087e+00,-4.500465819203493603e-03,-4.665447572306002932e+00
8.340857636092691152e-01,-1.735031875360202092e+00,-7.685734907198236598e+00
2.744963229595095200e+00,8.408778263854648216e-01,6.217367262246384030e+00
1.577129896388852481e+00,6.846456720100722038e+00,-7.033732771886018476e-02
-7.818290108404056582e+00,-1.259087388317819522e+00,-1.100770412506851592e+00
-1.634825722890582256e+00,-6.813231757203999095e+00,2.803641978246965483e+00
-1.017288780170422235e+00,-6.715502803545811084e+00,-5.272071987362159790e-02
5.263989641077716719e+00,-2.000154333349080993e+00,5.278339223688286452e+00
-7.344097025598853357e+00,4.511691715478113096e+00,-3.642378638086931630e-01
-9.866428508136886322e-01,-1.574995443190130517e+00,-7.009086071188220579e+00
-1.259734934318855748e+00,-4.615157314039523839e-02,-6.878414529765107588e+00
-6.078156907781287366e+00,2.558109421107587433e+00,3.524392447088882996e+00
-5.890033497090324310e+00,-2.931498420137784944e+00,-4.901684889879128093e+00
9.117144060963210395e-01,2.186513067012744838e+00,-7.867817382830899930e+00
-7.746136449307376992e+00,4.951959563517323026e+00,-1.278416384575594256e+00
-5.008139553308111225e+00,-6.894355051477855767e+00,-1.763326522797191487e+00
-8.552314258759221133e+00,6.273198475676815100e+00,-4.207839493940097597e+00
6.452852247287581555e+00,2.838954386238612848e+00,-2.433673100518069621e+00
-2.073601442387246863e+00,-6.983392324593606482e+00,-2.172956464398903442e+00
-7.667501643522210975e-01,-6.754678567085591112e+00,5.739272589093445731e+00
-3.677866456131169581e+00,-3.521612343453616401e+00,8.944925635156410593e+00
-6.122909256149388746e+00,5.649492012436288846e+00,2.691034087010454101e+00
-5.880034710442163970e+00,-5.294154861990834959e+00,4.268362596436225509e+00
6.243957685337772068e-01,-6.532262272171059259e+00,6.975053721978606625e+00
3.114031084793456028e+00,-6.991146355094793208e+00,-9.256115617485154434e-01
-6.389133812348237740e-01,-6.706133307213852035e+00,1.847614913945937465e+00
5.335015046028713570e+00,3.989365941240822222e-01,-5.315971259659149517e+00
-4.569558570847863876e+00,-6.827531189134865564e+00,1.817946179803034301e+00
-4.970864680062561547e+00,-6.681507278839045050e+00,-5.129101396926531109e+00
7.789358420821892004e+00,-2.875112391005970824e+00,4.372675735893881921e+00
2.634941618360789217e+00,5.971415333219223243e+00,-8.635318932864416652e+00
-1.467589528846244606e+00,-2.770812869095437225e+00,8.091506050919372584e+00
-3.934068401959703198e+00,7.133997586682183645e+00,6.928529852383296550e+00
7.274976043258459590e+00,3.308748290866080577e+00,4.399775233068351277e+00
7.542668849384865482e+00,2.783291382644562884e+00,4.055424444150632080e-01
6.995179042347635878e+00,-3.587468222105971716e+00,-5.742241445173134062e-01
-5.154883368068928995e+00,-6.629042022322391148e+00,5.240972255871279906e+00
6.896485343695266224e+00,-2.335421835546655611e+00,-5.244524011117488449e-01
-4.792430703227456013e-01,-6.571821091614762800e+00,7.263385895585961372e+00
3.937714766404307731e+00,-3.973061695167431573e+00,-8.487885887110927285e+00
6.971685767767621389e-01,-6.815434534319723348e+00,1.623975987409832067e+00
1.368321925204372569e+00,6.817654479397308620e+00,-2.692278459071992813e+00
-5.108535927986166847e+00,-1.836324478238632540e+00,6.066259909360462110e+00
3.438887160989913955e-02,5.619160953469051201e-01,7.327037949602544842e+00
3.691354912421102696e+00,-3.644028339554614693e+00,-8.739719401266789589e+00
-8.700171599498085939e+00,3.550349864520201404e+00,-4.070546152343198720e+00
-1.559430799181629856e+00,6.610666612410201814e+00,-6.697112044119471364e+00
7.689358997422535147e+00,-6.284195970504541151e+00,4.476947932809125952e+00
2.890276132700127842e+00,-7.004052088082157290e+00,-5.040434663668097670e+00
5.375764966470507389e+00,6.912213920039826043e+00,3.527926256525502069e+00
-8.323793754984803783e+00,6.852026272121293005e+00,-3.012393687426478728e+00
2.643317860505386196e+00,-6.993476799497403640e+00,-1.913849345577388839e+00
6.380683614437505646e+00,6.741671827687532925e+00,1.379074866793781551e+00
-6.500480661915208458e+00,2.616261724971891134e+00,1.930699689564721266e+00
6.774543246470976499e+00,-3.756737222161257606e+00,-1.108739354876928873e+00
-1.849621749338431265e+00,1.042824029714340128e-01,8.071215453971255727e+00
-3.605160611841774276e+00,-4.447562049644075088e+00,8.899449453952298583e+00
-7.581906280736225412e+00,-4.470305088473632615e+00,-2.786667961704903940e-01
-1.168055488612444570e+00,7.054920732268877615e+00,7.228657123492183700e+00
3.800788375346075831e+00,6.679956387357663061e+00,-3.405337849841580056e+00
-1.849172318522053882e+00,5.561898696376945672e+00,8.123748206086425228e+00
-6.518570980840976858e+00,4.729020418687291283e+00,1.978505473182261554e+00
4.404713503063396374e+00,-4.925890801081615145e+00,-7.158841355458018363e+00
-1.479325953467973909e+00,7.050281902034337911e+00,5.701298827289106086e+00
-7.231330481528511989e+00,-6.374150193065998948e+00,9.297393766425964268e-01
1.064320867140654991e+00,-7.088455658456824793e+00,-7.568194502895178033e+00
4.830497279171210856e+00,-3.387825547918482449e+00,5.547008572977588869e+00
-4.219568937241032991e+00,6.763753181222906363e+00,-5.227928941749141245e+00
5.552319327079222155e+00,3.677167456361053244e+00,-4.683632364777466250e+00
7.991620155789603608e+00,-6.851381787030986104e+00,2.599612395006828169e+00
7.383550028590963876e+00,2.906607493229182437e-01,-1.694021838098346555e-01
8.917104749861636037e+00,-4.117899002105851913e+00,3.968368264608050477e+00
3.992394079856449007e+00,6.590712349538726755e+00,-4.619860548947068324e+00
-1.848300480911374999e+00,1.702398119484648253e+00,8.016800139276824666e+00
-7.124989721934234410e+00,2.432963181472758585e+00,5.936336322864668169e-01
-1.532755288623047774e+00,7.076340351586071442e+00,4.851861144853617525e+00
-5.680056224433993606e+00,3.431812401255217804e+00,-5.269524645676024299e+00
-1.485975434045942123e+00,6.444528992448816496e+00,7.716474353559382493e+00
-7.300412815774859787e+00,-1.327167365051826309e+00,-4.511276737079511712e+00
6.583592002665459297e-01,7.069328029227671450e+00,6.188932210576584936e+00
-4.012942015930329731e+00,3.142255002682770026e+00,-5.887786368324976038e+00
-1.654429490909692380e+00,-6.628416232191342239e+00,5.844227303763493531e+00
-8.406497128520371120e+00,-6.162429006388948416e+00,-3.769760997726135709e+00
-8.224282365686759633e+00,-6.404201332546914038e+00,-3.872951624495013956e+00
-9.711914071831023731e-01,2.614205964443752084e-01,7.792946523238752476e+00
7.765509857558194895e+00,4.864314689372941092e-01,6.220816941117389698e-01
4.142240283074247742e+00,1.101579060817945876e+00,-8.126273904449822894e+00
-3.905349288536307917e+00,1.767374205011012611e+00,-5.963589739561574454e+00
2.204040248165267890e+00,-5.272655400749999721e+00,6.660332059715496911e+00
-5.945645079260488686e+00,-4.250301293930211499e-01,3.486323580286422974e+00
-8.698317782723192337e+00,-2.048434211612609079e+00,-3.917275281906082984e+00
3.052822108444209093e+00,6.894128060384309364e+00,2.036935324509594025e+00
4.540722776978642905e+00,-4.704000841102407904e+00,-6.684086316809523254e+00
-8.029690077270592141e+00,5.953741722062522612e+00,-4.383959455218043644e+00
-7.733661458947083567e+00,-5.179023918834826379e-01,-8.064187557689632690e-01
4.869914745163953285e+00,1.240083647203208850e+00,-6.214436824632397993e+00
4.140860476847702643e+00,6.978741300885794807e+00,5.215839852973114255e+00
8.946876213701184355e+00,-6.616601863758356239e-02,3.826530594407645758e+00
6.518018272504665589e+00,4.490988775025055446e+00,-2.522650276202757613e+00
-7.589542419891055047e+00,1.199352472476078901e+00,-4.519822595004239218e+00
1.086880627063376403e+00,-6.929821035980793020e+00,-2.161210907211056576e+00
-1.532756037294500162e+00,2.189880212342917076e+00,7.914691743084612874e+00
7.902349540441224285e+00,3.827430080592160611e+00,8.795338946477149200e-01
7.743848695156994921e+00,-9.639016367566307641e-01,8.762569811745170023e-01
2.554733618296286313e+00,1.417691664438943677e+00,6.403398614514982157e+00
-6.236222402200696457e+00,5.735833938262819842e+00,2.530018048930469554e+00
4.861771144572542447e+00,-1.557291146363468659e+00,-6.394946101884261047e+00
-5.252567413312995370e+00,4.769673901413580275e+00,4.824446442115753797e+00
-1.231286167988983049e+00,3.561206184289936516e+00,-6.860358069010744408e+00
4.678227574692506607e+00,6.747254119681211471e+00,1.217552803364314179e-02
4.751574605709222299e-01,-7.113771827199064646e+00,-5.858653531603204456e+00
-1.756871837125023372e+00,6.658978533385599086e+00,-4.981061307390246995e+00
-7.403211340404062035e+00,6.848232071944413413e-01,-2.308604428174986511e-01
4.958279844118054669e+00,-6.816317879963821325e-01,5.517067213686420502e+00
3.349187265122300250e+00,6.903910251857428015e+00,2.853555549515238265e+00
2.297310626501439579e+00,-2.125838546464373646e+00,-8.186459783056465156e+00
4.081706570748785623e+00,-6.937156565591912738e+00,-5.948248419070752968e-01
6.985885655558956131e+00,6.044812186498591089e+00,-1.550412932982958791e+00
-6.966482458101336483e+00,-1.529321053629792149e-01,2.921976646878839956e-01
-4.203270490133130366e+00,6.819784158168822330e+00,-5.459345994050194051e+00
6.582077113332786666e+00,-6.995818497601696606e+00,-1.397067187021740597e+00
-2.717884704478360725e+00,-4.091041217119462559e+00,8.554610336872761067e+00
5.465704339076413731e-01,-5.023063160510560010e+00,-7.393115452029525692e+00
6.612283203366718709e+00,4.895548437185614610e+00,-2.316275378526953865e+00
1.986551207101162841e+00,-5.560203464100867521e+00,6.808892612302982705e+00
7.808301188090309708e-01,-9.954128688856685170e-02,7.114455424551366924e+00
8.780555456001007286e+00,-1.501873129537276030e+00,3.862354327748398486e+00
5.030002787445036816e+00,6.639804078207561133e+00,-2.881670053920266650e+00
4.721583262553641802e+00,-7.064370677594622450e+00,-6.259784911376913286e+00
-2.921486686396706389e+00,-6.827241338340147792e+00,1.928656285122868574e+00
5.085883625673928599e+00,3.042913433695805026e+00,5.096500805824300429e+00
-2.781827374215279036e+00,4.753061336768800160e+00,-6.413901546160402312e+00
1.601459943585589629e+00,6.625387204995497825e+00,-4.086029866469878868e+00
-2.700581445876913400e-01,4.603932488640213094e+00,-7.437259361913750588e+00
-5.349614018747746336e+00,-6.495525307567768358e+00,5.611574980973800031e+00
-7.367446537874046797e+00,-9.327956974757586339e-01,4.592585197373209860e-02
-8.222253955605083320e+00,-2.368860487003420889e+00,-2.152863980171218383e+00
6.160618038255277540e+00,-1.489239667080331231e-01,-2.963327991740888567e+00
-1.244523500561993679e+00,-6.900790108712230086e+00,-2.619546344554748440e+00
8.754213492458516654e+00,-3.899262077285520212e-01,3.588521813051590126e+00
-4.063107082004879800e+00,-6.856122423943429744e+00,-7.284340767704153841e-01
5.579466376257487426e+00,3.393288250595397678e-03,-4.329566753278376368e+00
4.824541304464988301e+00,6.830608319086190150e+00,1.499964314791433440e+00
-4.574228976727741092e+00,-2.896423455067960173e-01,7.141650607964426634e+00
5.981096592010871404e+00,6.906925293987274728e+00,3.766478073875045407e+00
-8.292471001766708483e+00,-6.875797305975629214e+00,-2.822089969454042446e+00
7.739549907961864150e+00,4.027487317461622141e-01,1.046721291716503854e+00
7.085234230584179116e+00,-3.507012262970834904e+00,-5.627131168629030400e-01
3.431479804626795360e+00,-6.474015531271281709e+00,-8.585113529809710542e+00
-5.417501081403164775e+00,7.319291066609556751e-01,-5.309074967922260413e+00
4.831110305852353903e+00,7.018356237199136594e+00,5.083303717418345968e+00
-4.348996801129350054e+00,7.210616503999200511e+00,6.584237781487168206e+00
-1.012571156046963017e+00,-2.754544038580765797e+00,7.825179551921132237e+00
-8.616762360070044646e-02,2.431380171322926387e+00,7.409110875651658823e+00
4.930669804619648211e+00,6.202827959306969063e+00,-6.863631397744066831e+00
-2.932187411713487624e+00,-5.191747130529321907e+00,8.646366864985404632e+00
8.535814639175923091e+00,-5.984086551054935699e-01,2.915087055184778286e+00
-4.196659908998412014e+00,7.022436385233393530e+00,1.874787469436139942e+00
-8.859485320272195708e+00,-5.576385127196518354e+00,-3.471622008617440081e+00
9.705610030731449678e-01,6.578273906115601477e+00,-6.787721846419824345e+00
-2.228201566794366428e+00,6.853510048398891996e+00,-3.469613306025067345e+00
-4.638151574905243102e+00,1.131845435033284053e+00,7.052998501491058114e+00
-2.194669923262968503e+00,-6.507906637697199237e+00,7.390108895159251290e+00
-4.158219846517473783e+00,-5.947508820007832320e+00,8.654907863998225537e+00
6.692879064285204294e+00,3.640501870938073647e+00,-1.755022199721792076e+00
3.699801262261727786e+00,6.850008793714056132e+00,9.636176258064499400e-01
6.474626909923594908e+00,6.701713208070402494e+00,1.246224915535227185e+00
-8.298724318624170593e+00,2.039589793175096144e+00,-2.693153675086221721e+00
1.173099159063460961e+00,6.687905917952099877e+00,-4.240632553193048437e+00
-8.101905320591930248e+00,3.107772876621071045e+00,-2.039638911953079781e+00
5.995846192213351245e+00,-7.007892739594437259e+00,-2.800058116411213938e+00
2.396435377658328481e+00,-3.002808031384516685e+00,-8.240514669945509851e+00
-6.029151743827247500e+00,-6.322308103390414935e-01,3.559320622853771710e+00
-2.103931277977959535e+00,-6.538892041542059275e+00,5.309545606689342279e+00
3.726348480414424902e+00,-4.011467775912971767e+00,-8.714823272233399365e+00
8.802728301269752365e+00,-2.530767730758578526e+00,3.905486339810173568e+00
5.171129026222005542e+00,-6.300181708939970981e+00,-4.952538852208851594e+00
-6.413312364196773530e+00,5.762589226532178088e+00,-5.065265781696947300e+00
-2.741417393511828671e+00,2.830632299715158506e+00,8.288511400298959941e+00
2.515089130953936269e+00,6.602332888900106056e+00,-6.400502623233679245e+00
4.559771557784492835e+00,3.523795890642844153e+00,-7.490787390750288210e+00
-4.054701481045426270e-01,6.916565907855506623e+00,1.454396132569106548e-01
3.647700770357341415e+00,3.665769841927030814e+00,5.761492399498597372e+00
2.121015547465742390e+00,-5.126966605725110426e+00,6.732660250385892553e+00
-1.155644870930331081e+00,4.023161617481965990e+00,-7.087521733917319544e+00
-1.024970505693300060e+00,5.066170131255822717e+00,-7.270937577370926164e+00
3.502868409367616565e+00,1.137674091626901030e+00,-8.737169503966033091e+00
-8.748072048821599722e+00,-2.447242114260237855e+00,-3.835308815758680989e+00
5.376321139394576676e+00,2.592561971863318604e+00,-5.169217567732160568e+00
-1.654569453541943957e+00,-6.174697256362081887e+00,8.237301598617712273e+00
1.604630197522012303e+00,6.664666325402380131e+00,-6.675426660200851181e+00
8.025683533058231234e+00,4.834272385472875300e+00,1.424847364926803417e+00
-3.767315496240516204e+00,4.684818576810366508e+00,8.765302135036153075e+00
1.764014972978076301e-01,6.535669565191318142e+00,-7.522991546524754547e+00
8.405912417918859347e+00,3.328051802121922975e+00,2.484103679620188743e+00
-8.438231611526761711e+00,6.379072690412098012e+00,-3.138725078105770727e+00
-8.198507532529788477e+00,-3.451535812310510209e+00,-1.555481182190893152e+00
8.721046274165889400e+00,-4.661509292422805650e+00,3.580695691536719849e+00
-8.384807763303854244e+00,1.054936969071204045e+00,-4.107228108608950379e+00
3.081482121483769099e+00,-6.915240202185874985e-01,6.215744615040110332e+00
4.723911466711163243e+00,7.002754859925154562e+00,4.422280662648239158e+00
6.004188713667332422e+00,-3.092029959924023519e+00,-3.063800829002250481e+00
-6.347686476481878559e-01,-2.216171505853894441e+00,7.744318435288190194e+00
6.929796814475653655e+00,5.916752635345917000e+00,4.548585055298413948e+00
5.198329147738558476e+00,5.285858879677564071e-01,-5.721046859073837254e+00
2.023328140643905648e+00,6.878986338192293104e+00,2.273752195677705146e+00
-6.811081434574033366e+00,5.742869474728570900e+00,1.323689878224011185e+00
-7.159552254076642086e+00,-6.851958953402297325e+00,-3.293271065940451159e+00
1.026332399989488220e+00,6.821237610844102406e+00,-4.466591163173981305e-01
-3.423633799961889768e+00,-6.414528900991308902e+00,-5.743719132787203918e+00
2.526309177878935941e+00,3.968243647891652071e+00,-8.426778430278098142e+00
-8.857382749480930961e-01,-1.549186757498692613e+00,-6.939818696950363908e+00
5.551106465733691486e+00,6.668574334327324493e+00,6.774359490308456966e-02
2.224523986885567073e+00,3.458711731090530761e-01,-8.231212342078249478e+00
-2.986288137565230816e+00,-6.583018009517450864e+00,4.864203222828090034e+00
-5.855323028278654363e+00,-2.514821958347453368e+00,3.815650104372182216e+00
4.071305254018197317e+00,3.017981651865531134e-01,-8.377835726576805087e+00
5.477498572655762565e+00,5.808492047016178716e+00,-5.281990428111700275e+00
4.595165152094272010e+00,7.717600407081200986e-01,-7.283023383854506427e+00
1.541416338246560880e+00,-6.656188314573586062e+00,4.264054941977446056e+00
5.101984752465932083e+00,-3.956475928210574811e+00,-5.560007234120371677e+00
-1.179429850974490046e+00,-4.939267685622447779e+00,-6.779212476546304877e+00
5.057138035388256903e+00,3.997107282196156852e+00,-6.517689051255435295e+00
2.345743095079060314e+00,6.695640028780161401e+00,-9.184173191907069045e-01
-3.138085111434395280e+00,6.745725679381755491e+00,-5.440895666693017496e+00
-2.674824186624715328e+00,6.704815611941442377e+00,-3.191193866861316231e+00
7.931902805102076570e+00,-4.694464102487137858e+00,4.437470719819661014e+00
6.856849122006946295e+00,-2.282228119396990884e+00,-9.769037528288226913e-01
2.730721290629057219e+00,-6.997863754654194857e+00,1.330096401976052847e-02
4.253633377313242647e+00,-6.958347882473713497e+00,-2.453998658649773734e+00
-8.482002564864991045e-01,6.622852978169346372e+00,-6.033142399056132810e+00
3.879705643587035291e-01,-7.004687181517583738e+00,-3.769952694314293140e+00
-2.327768125680799383e+00,5.877422226339204414e+00,8.078193492790985530e+00
-6.649967979437271914e+00,1.657343938288018403e+00,-4.860174570403290595e+00
-2.178642379145851127e+00,6.654074542863777530e+00,-2.552056320312823257e+00
-9.837849482437137638e-01,-9.243367129777244617e-01,-6.984387838571482376e+00
9.724233434584315106e-01,4.700925016148946312e-01,-7.737166736870407568e+00
5.783478027457729098e-01,6.709758823597218758e+00,-1.809073968905000607e+00
6.321635138043718349e+00,1.090363386464796358e+00,-2.789569682024783503e+00
-6.890229416693820497e+00,-5.253194780572192357e+00,-4.416518880097894062e+00
-3.323562104960639640e+00,-1.321890589806782534e+00,-6.138852060114902365e+00
-1.579526488499411352e+00,4.942066183933925494e+00,7.939308273978177510e+00
8.840169410102641123e+00,-2.703713424216537486e+00,3.955455436996470286e+00
-8.728645655221722421e+00,-1.766578883844119652e+00,-3.253357670794581047e+00
3.106808060919738601e+00,4.895196275543847175e-01,6.029998186183251008e+00
5.618405497098152068e+00,-6.196113356402962680e+00,-4.140732832755476878e+00
4.977222190821133374e+00,1.400824144834356827e-02,-6.163020221589586178e+00
8.944695383184635418e+00,1.442871360925407576e+00,3.930916836551868521e+00
-9.591701312040945560e-01,-7.146178427998582938e-01,-7.076416272552553899e+00
1.622066878583029448e+00,2.648727825309862283e+00,6.718887104344072547e+00
-5.523995340430944978e+00,3.356161279984835044e+00,-5.317519324660069380e+00
-5.924292987277262057e+00,2.178373597321997313e+00,3.571083370777914823e+00
2.888733230706485022e-01,5.019501018382841906e+00,7.199311287130510273e+00
1.623283292452470383e-01,-6.876089685153104369e+00,1.716936577094126504e+00
-6.075390382070991357e+00,-6.320551482074897365e+00,3.532166323189064094e+00
-8.335243371397174528e+00,-9.662880699398938011e-01,-2.489674236927759576e+00
-8.597380138702117591e+00,4.503514050478940156e+00,-3.514164852874096745e+00
2.322275759351838609e+00,9.365146290499599957e-02,6.475010061327051147e+00
-4.383243149592433774e+00,6.674722884018391866e+00,-4.710885906309612459e+00
-2.158016493235279221e+00,4.799515464734612102e+00,7.942839161030965656e+00
1.858679494009424671e+00,7.000169718755439696e+00,3.027249135356315790e+00
5.716708159924657195e+00,6.734259163307473095e+00,5.015842972661702426e+00
-2.021524474104185121e+00,-6.866632784125727973e+00,-6.356018766400516107e+00
5.903976981323395101e+00,-3.635374591715929971e-02,4.983349509792273757e+00
-2.506225721079915036e+00,-1.744500660322916952e+00,8.421857229916108523e+00
6.247187435268209299e+00,-6.954640833970930025e+00,2.620492716216327178e+00
1.042254260909831753e+00,-6.553915263554096704e+00,-7.598761346100909364e+00
-6.293930423972849297e+00,-5.318129178195265538e+00,-4.678078374692853814e+00
2.084508447470303505e+00,1.388234605660751964e+00,6.666078885312666458e+00
2.311912631950693076e+00,-5.620823371268641289e+00,6.630921828860860678e+00
7.625626797929417222e+00,6.288769895926701992e+00,9.922461168928370379e-02
-1.684120278048116592e+00,-7.026907965653239607e+00,-5.310766992279469356e+00
2.351564029322280369e+00,5.460863056688333828e+00,-8.218836433438351463e+00
3.977221409813319397e+00,6.893338026753345282e+00,5.342310641215297196e+00
4.569792606603889418e+00,4.372397331523150132e-01,-6.678757741035644457e+00
-6.932328015869302362e+00,-6.979508718896334507e+00,-3.539224330885175185e+00
5.287210843289850359e+00,-8.400486129594697537e-01,-5.030306284093041036e+00
-2.167399981855688829e+00,-6.797242881217548494e+00,-3.392580731256109039e-02
4.647154307628504455e+00,6.861135207532703895e+00,3.498631322886712081e+00
-2.979316093710331348e-01,6.784474920512261420e+00,-1.033486319980093660e+00
-3.459816185995152615e+00,6.997088802065839275e+00,4.201884800933271435e+00
-2.295030482021328755e+00,-2.641005015599548145e+00,8.287162646298270374e+00
8.236986642117869906e+00,5.911490152636031947e-01,2.294756274279898811e+00
4.228228682314114195e+00,6.917816320413895603e+00,7.162848137013422267e-01
-4.193192556043470631e+00,-6.707388040315480637e+00,2.229642614530372935e+00
-7.704655347479833161e+00,-1.708548887447937092e+00,-6.770290311511149017e-01
-5.378122367619806887e+00,6.745626157280262269e+00,-3.404351539917436220e+00
-5.752716057012479567e+00,2.039996887569606732e-01,4.281437156064701099e+00
-7.104902778721625012e+00,6.859367222453029100e+00,-3.444444349381205472e-01
7.086274410140786628e+00,6.826290025557211649e+00,2.894212897219269109e+00
-8.718994694402521617e+00,2.311179797791473423e+00,-3.530505560536770115e+00
7.326144633144887841e+00,-5.235210192900771276e+00,4.971215951607667605e-01
-5.479011478137843838e+00,2.560217579192694437e+00,4.890742732933759385e+00
-4.892803537547373516e+00,-1.239134017718822811e+00,-5.267179044476407057e+00
-3.857847867380970186e+00,3.178698271272404341e+00,-5.982713960550228194e+00
4.692443336261230002e-01,7.021461957028641621e+00,3.946642284738404172e+00
-4.247317649730597999e+00,-5.082493347443424181e-01,8.336746093382581435e+00
2.632634673579292262e+00,-3.896105942817930767e+00,6.481288305899705726e+00
-1.356460562438890793e+00,-6.627756215951353447e+00,5.659596285258302828e+00
2.846014240524687100e+00,6.549445491650399021e+00,6.068894416288797444e+00
3.879362494295196750e+00,-3.061411201207474342e+00,6.005792656719233236e+00
-2.036144939473205184e+00,6.763801927206662512e+00,-3.698729964172198681e+00
-6.226312859626911056e+00,-2.877047824052432201e+00,2.898105972425212062e+00
