2.002807655172444079e+00,3.428379787525694500e+00,-6.500471150739714155e+00
-4.821085378061702009e+00,-2.855427839147310354e-01,-4.996177864358894105e+00
3.619847740472104114e-02,-2.566841244307609848e+00,6.967503991422081100e+00
2.493905444187074494e+00,-4.979190378686401353e+00,7.433601429337014510e-01
6.895704069154511007e-02,-4.696237672671081498e+00,2.789049264260522687e+00
3.517521752769153576e+00,4.185112167531363170e+00,-4.264035543165449305e+00
-6.051857645162287191e+00,3.275599757653991695e+00,-1.711681387661226239e+00
-5.817645653654742732e-01,-2.668794261479281893e+00,-4.472601458181323153e+00
3.356598298158999238e+00,-2.747231136986838074e+00,4.543924221175487332e+00
-2.775456487646500658e+00,5.088416232758514290e+00,3.905241285840149956e+00
-5.789410847563307705e+00,-1.434307924302826054e+00,-1.218055009310975878e+00
1.716918611603970080e+00,-4.787582064496120005e+00,-3.801027444682897549e+00
-5.390724598200902662e+00,5.381330730785260918e+00,1.860199992472534536e+00
6.015616076231915521e+00,5.791632321267957684e-01,1.441970950129908280e+00
-3.569247767477400579e+00,2.389607815266197921e+00,5.642520937157007310e+00
6.612506491704304601e+00,-1.242684894271739671e+00,5.264742576208566227e+00
6.779188023482794812e+00,8.827711170316937528e-02,3.652566955730247145e+00
4.145906888297235859e+00,3.491647599974718741e+00,3.339919827685852827e+00
7.259778320970737830e+00,-1.466666515631351198e+00,4.293544247469871955e+00
-5.097981251665387958e+00,4.057481308950571020e+00,-9.647262518922568031e-01
2.769366545516711131e+00,7.171139063149802872e+00,6.218949956050500577e-02
5.735959998956354333e+00,1.312297548524019586e+00,1.082283159684222174e+00
5.083270991954645268e+00,-2.691671330386266714e+00,-2.771991156320095850e+00
4.011186605206692235e+00,3.469205308543181321e+00,-3.530796102237371503e+00
-4.435382601567199323e+00,-1.015578625950186664e+00,3.322031285556611202e+00
-4.634255657141252094e+00,4.819242680545096746e+00,2.779811963093914984e-01
3.217749874995301962e+00,3.512049204356226806e+00,-5.377435245445407297e+00
5.095884172003269263e+00,-6.166879749746324357e+00,-3.027306637078093665e+00
-5.676495455695206083e+00,-2.474591021814639191e+00,-1.485922099737196023e+00
-5.839254735221838466e+00,-2.710859391958183817e+00,-2.053963290120846885e+00
-2.734308660699832361e-01,3.255033868338817804e+00,-5.625640306689289716e+00
-3.421832394705260350e-01,-5.281472165102205629e+00,1.770190501189031318e+00
4.183173396111881992e+00,-1.819294299317516517e+00,-5.253694757899403989e+00
-4.515022929246669037e+00,-5.049256230359286945e+00,8.431791731276252477e-01
5.609402655555939532e+00,4.056187316365899242e+00,2.564341246738262470e+00
3.927769840656794909e+00,-6.082656816942664246e-01,5.740588535830914552e+00
3.811667137906112224e+00,2.137686739404219605e+00,-4.692763083967736115e+00
-4.128506498556617110e+00,5.100673166729181141e+00,3.847719300427018818e-01
1.726470604154451749e+00,4.497224359326194854e-02,5.958962138539133591e+00
-4.072191387939406937e+00,-7.761821949724629910e+00,-4.540523530787099471e-01
-1.003353733198848241e+00,-2.310407351960285016e+00,7.885222283506204910e+00
-5.349468870312183100e+00,1.734017047341962048e+00,1.761971994366414496e+00
-4.089299544885277804e+00,8.049756453146321711e-01,5.193127894871192751e+00
-3.937389694053788691e+00,-2.029977807519529609e+00,-4.230305795935772828e+00
4.055639038554187614e+00,5.901680348656396013e+00,-1.726069463310893282e+00
3.948066439236437741e+00,4.636574359585095562e-01,-5.114169885830707862e+00
-4.510708446511965342e+00,3.862362365403019027e+00,-1.593664605662664657e+00
-3.498818966958766374e+00,2.546757294635400459e+00,5.430515249082386475e+00
-8.115997770144105505e-01,5.109136794743697862e+00,3.456245031073506890e+00
-6.897204027074680610e+00,2.144464072427215040e+00,-3.093001078954276561e+00
-5.876984473054765346e+00,4.158523913782727455e+00,1.142034939966030560e+00
-4.669790296616037395e+00,-2.804583863698655311e+00,1.537470352554269226e+00
-5.746319140519219104e+00,3.454690525799660072e+00,9.973477702915669596e-01
2.587109817758272090e+00,7.237454659082661834e+00,1.301318666353873166e+00
2.654660967026814422e+00,-5.944934945121302050e+00,-3.179068796311154799e+00
5.037943923959949111e-02,-6.020490337604878839e+00,3.463667882545247712e-01
2.146961196672675598e+00,-4.298284749051838105e+00,-4.175706497590374155e+00
-6.768015466263064717e+00,1.014181531198305120e+00,-3.145010628821332421e+00
3.445275993091973188e+00,1.834981444156742247e+00,-5.786842170655566164e+00
-5.253533722829601516e+00,-2.409733485523776864e+00,-1.711556900937247694e-03
1.308706891571622233e+00,-5.321252659607801583e+00,1.031810435692709360e+00
5.512786274135324405e+00,2.030084929199334809e+00,9.484988632006544629e-01
5.921361153191201154e+00,-2.656691920630498416e+00,-7.674140968797084073e-01
4.991227622123269869e-01,-6.601167690488562556e+00,-1.064826743478918925e+00
4.936337374530607391e+00,-5.580081772162338360e+00,-3.898832208307827063e+00
-5.081536467456992945e+00,-1.074989249385268186e+00,-4.392113164303376394e+00
3.533393472750372855e+00,-2.988922772069690925e+00,-5.347219676588406578e+00
3.987184486110015413e+00,2.559341272986189519e+00,-3.795147091982538079e+00
-2.634748676167373738e+00,1.602954368765477922e+00,5.849506701136377274e+00
-1.734163690296310234e+00,1.831207894538302128e+00,-6.843845888650585074e+00
4.896525600871055595e+00,-3.900195314556279769e+00,-4.223923627091479283e+00
-5.081577981588128345e+00,-1.534123589438095570e+00,8.421238608163761352e-01
5.202913597615397734e+00,1.382606091617323285e+00,-6.681921727068838024e-01
-1.794886809680981132e+00,-3.124244175546868174e+00,-3.995189757307863854e+00
-6.842189632581029635e+00,1.318649131414499687e+00,-4.728777438855966686e+00
-7.233502035220328530e+00,1.532337729564483997e+00,-4.189107411876156206e+00
-6.935243808760006345e+00,1.986834498753355271e+00,-3.159432246772525765e+00
3.437778628252972091e+00,5.308333490995148729e+00,-3.902911945098130886e+00
-6.268880749636587701e+00,1.930522275206663529e+00,-1.025814676760556932e+00
-5.339087562467966563e+00,4.439930847178589879e+00,3.286671504806310207e+00
-2.202591161826775501e+00,4.245339307296275067e+00,4.263188789229850784e+00
3.326682594969661899e+00,-6.288478192026524916e+00,-3.257083616366064582e+00
-5.101148816320351997e+00,-3.719162695234092819e+00,-2.824262123734773144e-01
1.834933488012073566e+00,-2.371151382457213685e+00,-5.189366892364287054e+00
4.536155234861954710e+00,5.468681405345972024e-01,4.927445042658507468e+00
4.935208694723309364e+00,-4.929229336115421134e+00,-4.707065367600228312e-01
2.459031931269766602e+00,1.777951764847058413e+00,4.694876916385235077e+00
3.277683865653507223e+00,-1.907794227361656603e+00,6.186121531756591629e+00
-4.533736716806836320e+00,-2.612185227324408388e+00,1.764679215539481483e+00
-2.431172037781830220e+00,6.182740531202798984e+00,3.112494458419774013e+00
-5.806544507259144616e+00,5.309021381714207344e-01,-6.757336329217981108e-01
-5.313943119366890677e+00,3.513535074496695554e+00,2.675351177016684900e+00
4.883965391594872862e+00,-2.917134102317446409e+00,3.154597159502677606e+00
-3.221244717463457863e-01,5.372798830264938985e+00,-1.550780049998081722e+00
1.840328149571003546e+00,1.616476889715119380e+00,-7.640763597359502945e+00
-2.617117334456521949e+00,6.398529156555266439e+00,2.997746320440220380e+00
-4.116930234565379543e+00,3.369705156836988014e+00,-2.808497679105355083e+00
-2.447734863013117046e+00,5.548758857228937025e+00,3.836035688677476574e-01
2.516867494136732830e+00,-3.443611988218653330e-01,5.915312781073978066e+00
4.500277699792722963e-01,1.986653682565116874e+00,4.949801112545417325e+00
-3.132621778829133063e+00,6.652175275112853114e+00,2.729882773840682564e+00
-2.101303147715857023e+00,5.690328071702642099e+00,3.795205853395383633e-01
-4.536352770508357501e+00,4.095363679201477147e+00,-1.071514603227349482e+00
-2.979674021838830011e+00,-1.645983622948945069e+00,-4.660298451197286695e+00
-1.239242702279772956e+00,3.005086267292878865e+00,4.801319054827658306e+00
2.623779562282750444e+00,4.840790454628041695e-01,-7.163802712117682603e+00
-6.163719561487824850e-01,-8.362691448102268499e-01,6.927418499217554704e+00
3.715480502271454988e+00,-2.241539747473210387e+00,5.031273460167048128e+00
-3.337746423826016606e+00,-4.148261205816956121e+00,4.769965200431704133e+00
2.963033759254068311e+00,-4.865329962379390527e-01,-6.623835423151560597e+00
5.466371075426518900e+00,-1.011459772693258818e+00,-8.096072774473658251e-01
1.902415839469845604e+00,-2.925821073869825928e-01,-6.606241702155145390e+00
5.054835840156935767e+00,3.346163527891554246e+00,-9.540002042979360553e-02
6.557662280607823746e+00,-1.745435482616524370e+00,2.022724098752649358e+00
-1.924224163944938892e+00,-6.484935824896651546e-01,7.131257132097722717e+00
3.576603845731607390e+00,5.175541892047506032e+00,2.440680708495124751e+00
1.550137443780588153e+00,1.093316503214367241e+00,5.205412644689174861e+00
-1.151603896218199141e+00,-5.094332032520949127e+00,-2.940086422088675988e+00
-4.928476184221707079e+00,2.915861120555517605e+00,-3.123193272356808770e+00
4.275232109359672350e+00,4.951401753930268490e-01,-4.135064454882525276e+00
-1.517420305983741446e+00,6.751466201114939558e+00,1.928103747641930710e+00
-4.710010131187120308e+00,-3.627913348046312603e+00,1.104710371862299478e+00
5.201143207478522434e-01,-5.236440900031805512e+00,1.502148280198859043e+00
5.283416792218053715e+00,-3.944301138588453437e+00,-3.133514206698845506e+00
3.617539669925080137e+00,5.192754826271514190e+00,2.391568591442877700e+00
4.900751224443208875e-01,4.262191481742425125e+00,3.683773480000064993e+00
-5.456212321698724388e+00,6.672396045202134696e-01,8.642397173089280127e-01
-7.127724952429719263e-01,4.071622989502404977e+00,-3.541822511870629686e+00
2.442746314599796076e+00,-2.348191713627963306e+00,5.864201514494475909e+00
-5.709102774701921845e+00,1.858594016917024305e+00,-4.730868367938066754e+00
-5.174632858364731636e-01,1.151902382262007141e+00,5.654665087691306269e+00
5.968860107515572722e+00,-4.205606360788451070e+00,7.986852345040958145e-02
3.468101124378457190e+00,-3.456158886957954923e+00,3.230009050936494042e+00
-3.364796525020089302e+00,4.341371249428734203e+00,-1.232051663679554432e+00
-1.981009147676328963e+00,5.209707911915918643e+00,3.541384311522337125e+00
-1.120285047139678136e+00,-3.077542797139156683e+00,6.675723174431513307e+00
3.613509961945201354e+00,1.518275418600047333e+00,4.530223795390088348e+00
1.618587156274278183e+00,3.764718009754658201e+00,3.714824556760464080e+00
2.955283999923323357e+00,3.521777452478157766e+00,-6.573118546464596257e+00
1.932236228260083566e-01,2.935672974325104434e+00,-6.401380212124642810e+00
-2.532391437415776991e+00,-1.083871309346093215e+00,7.509447814860205739e+00
-1.481522407745685666e+00,-4.755093443034728473e+00,3.518457064963032899e+00
3.707247619117704646e-02,-1.025217178354645320e+00,6.924387156085981765e+00
-4.595431250943723178e+00,-4.310416766881927764e+00,8.867090638272789871e-01
-5.747616876863673951e+00,1.674995177702694182e-01,-3.576581591175170827e-01
2.578784331437300459e+00,-1.825728690346452576e-01,-6.647791897510969328e+00
1.473713677457667570e+00,8.083893596599009967e-01,-6.989295690552329354e+00
-4.902993138080395497e+00,5.952829253591205294e+00,2.636171918625381583e+00
5.275926598020288516e+00,4.370363955567081682e+00,1.193786081602373983e+00
2.107589707601226880e+00,-1.132290503428054596e+00,6.430716909153001204e+00
4.072882730777565463e+00,1.017631589463107167e+00,4.825399074122593390e+00
5.347259458693240042e+00,-1.758314987621802050e+00,-1.768297679995042948e+00
3.670030788333130456e+00,2.311147106760597758e+00,-4.711022715071412570e+00
-4.409116765348764844e+00,-3.707762803304825105e+00,1.542642581297786863e+00
8.537096128987261556e-01,4.584905584711481907e+00,3.298954454547181836e+00
-5.759600609582548714e+00,-2.597313555050930756e-01,-3.628899200058358088e-01
2.103427036559462948e+00,-6.534054192643665715e+00,-1.982676833935748339e+00
3.048975881898947193e+00,-4.278298141355326933e+00,-4.244032386505533161e+00
3.153622120950236418e+00,-2.625626189033239299e+00,4.808509124648214339e+00
3.361063154826182231e+00,-5.353341190092142376e+00,-2.526715954304580847e-01
-7.797335329074107646e-01,-3.269213074827651777e+00,-4.173714043210314806e+00
2.436141940303298004e+00,1.800988079897934080e+00,-8.017974594341822581e+00
-2.048015844207790315e-01,-5.086853030675801968e+00,-3.234112367142392586e+00
-2.255457499632268270e+00,-5.740336162173895751e+00,2.215772786985083620e+00
5.261651437539956788e+00,4.167275816821324419e+00,8.604274903372826078e-01
-2.616965935184871750e+00,-7.409459383428479207e+00,-6.706526505591609011e-01
1.635553350523815119e+00,-3.407569135886657552e+00,4.421860406818431954e+00
-4.059918782434178475e+00,-6.984440571206570469e-01,4.594849572315824027e+00
3.156169179070918984e-01,4.266629272001490669e+00,-3.970338936636744975e+00
-3.811117513339577823e+00,3.863386960295618344e+00,-2.247643006441182312e+00
-4.121912158499342560e+00,-6.359373586017296631e+00,1.480870407470277872e+00
-1.784876761689428548e+00,-4.518079413236369746e+00,4.344693262524423005e+00
-5.869437561344517995e+00,3.997286835742125177e+00,-3.695059409024729069e-01
5.216021491898516160e+00,4.753489366739342081e+00,2.171392670346154574e+00
-3.489445077645836779e+00,-6.045642048038041949e+00,-1.817473848545398285e+00
-4.020832012183813475e+00,-7.621410929058555439e+00,-7.784765747736491770e-01
2.952581989437324861e+00,1.839975820660309624e+00,-7.379721648278906976e+00
-5.726032543564928190e+00,4.606042522460093713e-01,-5.176522135580230888e+00
5.441804593652121547e+00,-2.262506125734059292e+00,-1.700361471662482860e+00
1.401634928763169086e+00,-2.420520024891254174e+00,6.203908734610616982e+00
-2.771591273249014886e+00,9.575501394763371588e-01,6.378597712210833492e+00
5.489592228464228896e+00,-2.484717597377154252e+00,-1.679011136589753095e+00
-4.181558254048270307e+00,-3.821518308435396527e+00,2.594710386928580359e+00
3.906704913371486843e+00,1.131087436720730421e+00,4.777031489192825831e+00
-6.106177370309199937e+00,1.224037479149648666e+00,-5.626384998427424122e+00
-5.590212332524556516e+00,3.669230078007263529e+00,1.750370135179507347e+00
1.145011038251292135e+00,-3.630894735878555935e+00,4.230452720493638630e+00
-3.338236491074165535e+00,-1.692474371829149948e+00,6.453788870164050451e+00
-1.785982533483496004e+00,-5.559795050196375321e+00,2.239916650144078591e+00
6.418208838172982489e+00,1.849868272233960553e+00,3.622041492932469353e+00
-2.901225541685361176e+00,2.004799585303424170e+00,-6.099168806104623641e+00
1.694902373169091980e+00,-4.111047555850630530e+00,2.851962805138731127e+00
4.425697166292052565e+00,7.263953398346856716e+00,-4.862021303872356842e-02
-6.357079304888345384e+00,-1.530065978616906630e+00,-3.535969075888074187e+00
1.398044099875036972e+00,3.220999393869591998e+00,-6.710886537315061240e+00
5.477112735184147319e+00,-1.378425851358867638e-01,-6.631707231052133000e-01
1.299253884527389769e+00,6.476688162422812312e+00,-3.156621657179770613e-01
-2.238433411156989905e+00,-7.241016161145848784e+00,-1.443507895382593720e+00
5.382251864041816880e+00,2.019669241879916477e+00,4.545824523039709852e-01
3.882471643304083564e+00,-1.031945986773022295e+00,-5.953556236394391910e+00
-4.467371719179327627e+00,-1.343844118777856478e+00,-4.405044524226766178e+00
3.996172507094479798e+00,5.833945753954157709e+00,-2.254264547360339321e+00
-5.611575046811387857e+00,2.261446841807944086e+00,1.425254790777890301e+00
-6.506860544541305025e+00,8.584552395789100121e-01,-2.365990030067790961e+00
-5.353567145582996289e+00,-8.956510454959206724e-01,-4.451345341349391305e+00
1.051168963843748916e+00,-4.396856308679750747e+00,2.871467621016983163e+00
2.944464752869025315e+00,2.713996780656346974e+00,-7.152394978630583822e+00
-3.058752579282991935e+00,-6.678975848183916320e+00,9.416135468927291363e-01
-3.442766905532363086e+00,4.683385666137980685e+00,4.262471872527766159e+00
-5.186712225815056421e+00,4.874939028464543966e+00,4.065330171850888519e+00
-1.034948309566025904e+00,-2.114306600168077921e+00,7.778325626768115342e+00
-6.181503727689194427e+00,2.580474125443563693e+00,-3.119044061124517597e+00
2.140590027367425652e+00,7.407551954651086845e+00,8.657395948020059073e-01
-3.643353226672153333e+00,5.727425966085831099e+00,1.303959096154121644e+00
2.423432615238097387e+00,1.445901466465400409e+00,-7.728177204084055951e+00
-5.409482195725191511e-01,-8.641825448271852617e-01,-5.605462809390560075e+00
2.320263396356887053e+00,1.929205345088517154e+00,4.609083114421504312e+00
-3.359131735422204557e+00,3.190381270550527670e+00,-3.691640806245488182e+00
-6.633196707205185838e+00,-1.225886885297726492e+00,-4.089135807008592138e+00
4.809169946901982406e+00,6.231780459785775328e+00,5.481403395568273940e-01
-3.005254930845260297e+00,-2.302902018959635644e+00,6.881605557828177844e+00
4.407582004843920487e+00,6.742882186188234428e+00,-8.150612697240576798e-01
5.759241926313841908e+00,2.311992439145576839e+00,3.612650386091927679e+00
5.828272775560515484e+00,-2.937439831868560169e+00,2.575944828661817176e+00
-2.110387263711935191e+00,3.561013793318535958e-01,6.483864250630014148e+00
6.753200011160974681e-01,4.657226958336929123e-01,-6.746852852843160164e+00
4.030785043901227382e+00,-3.911232074568758765e+00,-4.787644869096466138e+00
1.168001239367580935e+00,-5.893880135918858620e+00,5.339628113577615104e-02
3.330265526673559240e+00,4.319545235943998307e+00,2.903124744759960407e+00
-2.429448134324679653e+00,-4.887009635352340453e+00,4.104293517902959820e+00
6.428283642617471649e+00,-1.035023708716957147e+00,2.146074861807194534e+00
-4.095509761080699640e+00,3.167501259918573009e+00,5.300884153450214242e+00
1.324292104820936622e+00,-2.912647038151108259e+00,5.555877813587462022e+00
-4.691805004218760011e+00,-1.447560556156010980e+00,-4.287226184168505760e+00
3.813489059451289354e-01,-1.046741426067618441e+00,-5.847842426840099250e+00
1.359089749529479807e+00,-5.850919104537641857e+00,-3.073814425227576752e-01
-1.491390146476948564e+00,-6.803810958482963578e+00,-2.386294267779232314e-01
1.317224140867402360e+00,4.054130210351091890e+00,-5.135100082568238022e+00
2.514151200525476804e-01,2.434050864601085440e+00,-7.557198277857084534e+00
-1.319355792011812412e+00,5.450458841672928934e+00,-7.472253549226431923e-01
-4.061832901205037594e+00,-7.811469826805216066e+00,-3.830836118007256985e-01
-6.608003114032441339e+00,9.529828051993908256e-01,-5.414826355860017593e+00
5.819179196138454024e+00,1.734496409443263110e+00,1.417269166973748939e+00
-3.995231897697659740e+00,-2.940940178809061667e+00,-3.524333560589676395e+00
4.089502173089012871e+00,4.344113459728558446e+00,-2.108655189849502953e+00
4.243937376315312093e+00,3.190727730445256149e+00,3.378997511702613199e+00
-1.754548604279830171e+00,-2.542922633280512379e+00,8.148255535547939132e+00
3.280606271427670695e+00,-4.676495635304531717e+00,7.733233571262061457e-01
3.186501433990108545e+00,-1.776086775943483964e+00,6.273219756549176296e+00
4.780051915923381856e+00,-4.965355394928926636e+00,-7.146033852813751253e-01
6.203693612385680289e+00,-1.767677556786850790e+00,4.546338686433588627e+00
2.720568421299016215e+00,1.623416715825447776e+00,4.697394458755604241e+00
5.944633726919428263e+00,-9.620120465610541016e-01,5.265761698088128329e-01
-4.684464221490221902e+00,-5.924262062850135235e-01,-4.915145974193404044e+00
-3.229109582372514886e+00,-7.102591531801382807e+00,3.372637706535354107e-01
2.941492342141542871e+00,1.507820411402782668e+00,-7.337198951775508071e+00
5.345557278975844540e+00,-2.343608947642944251e+00,4.006557430168039780e+00
4.712689880895302608e+00,6.560871682332733101e+00,6.883070436499745259e-01
-3.950699929603807448e+00,-4.288866903920484752e+00,-2.900651896073628500e+00
2.593128906272482048e+00,-2.540415707539371404e+00,5.247643079382047659e+00
4.925601808310342555e+00,-1.193360389256105547e+00,-2.709965348018783970e+00
-5.703412245307518447e+00,5.402923047001310763e+00,1.971287360838449354e+00
2.150351105843946620e+00,5.711888420964717383e+00,2.332651200896984189e+00
-3.820596648408765894e+00,-3.790555760060807522e+00,3.829570211057070850e+00
6.477237174421427213e+00,-4.048224908222360086e-02,4.933782347535099255e+00
-7.330764333415399348e-01,-3.744832556897513265e-01,6.637101667970057406e+00
-3.251102087625617365e+00,1.455854236911338917e-01,6.874557918620634922e+00
-6.347806294058495613e-01,1.756076580740810300e+00,-7.121482412702850873e+00
1.214088905356153658e+00,-2.234887624286143737e+00,6.661207724967846744e+00
-5.137165366995033455e-01,-6.822365624464927336e+00,-1.988773480518462478e+00
4.603437741566098751e+00,6.666433099499972093e-01,-3.084222231303726414e+00
-5.954996249776779216e+00,-2.090728244694688875e+00,-3.688325237169704618e+00
2.069632421936704048e-01,-8.426287075813680971e-01,6.728530622585335408e+00
1.242585240329946217e+00,-2.613886803444761320e+00,6.130540200361918046e+00
2.094977848336944781e+00,4.418169466345383434e+00,-4.518836311828424712e+00
6.892728408927780714e-01,-3.860458261835715277e+00,-4.092922682589532180e+00
-4.577143938247415278e+00,-4.784767639465687061e+00,-2.368500123447245365e+00
4.421611315238316742e+00,-4.109479491180689337e+00,1.041833407564297653e+00
-2.920470781802200766e-01,6.727826159033424958e+00,1.098558075462389816e+00
4.308353534778745164e+00,-4.906854598154763436e-01,-4.384902430830461384e+00
-1.513917620970981259e+00,-1.614772868142804629e+00,7.580416215671085922e+00
-1.073489835536861170e+00,-1.749211707106485880e+00,7.544049048422269088e+00
-1.915924650451593436e+00,-2.295316280814368337e+00,-4.453105354424582885e+00
5.802355666936089840e+00,-4.947474673506467302e-01,5.298642197576225676e+00
-4.689367122155576606e-01,-2.308092531629817312e+00,7.716452704177547695e+00
-6.051650292564382028e+00,4.448334519602503256e+00,4.506447323699546148e-01
-1.942876203571687999e+00,4.809088391753448377e+00,3.818032310373720151e+00
-5.709386215007826060e+00,1.485485368744823842e-01,-7.848620401990048789e-02
-6.822229358633279617e+00,1.301866169676398677e+00,-3.131227571710522906e+00
-3.602556486252506573e+00,-5.958025177453555088e+00,2.805340005817141602e+00
5.412718085299154325e+00,-4.550771378087858920e+00,-4.596667520043037913e-01
2.886076707774249517e+00,-3.493210431820710227e+00,-4.799806490030593231e+00
3.980728805755498367e+00,-3.600958262672481425e+00,-4.946293259537906550e+00
-2.709262124874701527e+00,1.231868165660243264e+00,6.198059328355281394e+00
-4.157640684496512584e+00,5.328795024177957806e+00,7.589418789506452434e-01
3.601290536070834047e+00,-5.150179306876690788e+00,-4.049907216642827379e+00
-6.378804302221298128e-01,-3.272559840112017504e+00,-4.122929241536805733e+00
-4.279999212697656930e+00,-5.053275686201068595e+00,-2.272673681100927823e+00
3.923865257749217683e+00,3.378541491053309365e+00,3.401019960605188519e+00
7.586123679059810776e-01,1.626543762026248618e+00,5.022729023803372606e+00
-3.286695731137774690e+00,-5.712294269859258478e+00,-2.146420861568344218e+00
7.003210343954462402e+00,-1.128457588924343780e+00,5.104873024406024307e+00
-2.334141380937093224e+00,-4.303969551376912506e+00,-3.051130433176724832e+00
6.619918567501291706e-01,4.431906883028299049e+00,3.470359773787129232e+00
-3.335046052449647913e+00,5.625618338144402486e+00,8.892586983473944606e-01
9.164988628080218691e-03,-2.497504233293923015e+00,7.138588989880106261e+00
2.977593431249003331e+00,3.085631901364011220e+00,-6.625053750180936341e+00
-4.738953896442081870e+00,2.299198305958030097e+00,3.840839190317697494e+00
6.840033944904087448e+00,-1.097450189920010200e+00,3.343259195248579729e+00
-6.871756178612997701e+00,4.744389680681553312e-01,-3.764530892071751289e+00
3.187681629831018881e+00,1.716113796297746186e+00,-6.541236160850149695e+00
-5.676187974321145191e+00,1.649419610405873149e+00,6.524636401058560020e-01
-2.096754055606858458e+00,-7.214865081821288051e+00,-3.959340872743783435e-01
-5.713662491163156609e+00,1.229764800174094175e+00,-5.780104433198391511e+00
-1.358062537846087769e+00,-5.255012969252345734e+00,2.600692539118061752e+00
-4.194944730809815336e-01,3.108785375298416476e+00,-5.501284180973196491e+00
-3.727806668653160127e+00,-3.367341052337330609e+00,4.077804545266058511e+00
-1.328437502024875760e+00,-5.229953214218047819e+00,-2.882070512842588528e+00
-4.864663969711886971e+00,3.986163300056714043e+00,-1.192625267403633726e+00
-4.880801528566837355e+00,3.285662617692012955e+00,-2.440298814874425570e+00
-5.710340321662563667e+00,-3.443642486852948714e+00,-2.301151922583717813e+00
-1.161656192372427787e+00,-6.700070880631504799e+00,-2.752088373162957513e-01
-1.595050173514141356e+00,-3.361011335800659694e+00,6.480782452635949653e+00
4.691289283222038975e+00,5.910615715137621073e+00,1.585997727808780566e-01
6.489052523529206695e+00,1.243273717753250684e+00,3.269297937742994709e+00
5.874511883307945936e+00,-2.295963385679025137e+00,-2.128449461732699610e-01
-4.859257929845909985e+00,-1.640381079241645557e+00,1.514441778049195886e+00
2.619381878021780796e+00,3.930498446165742621e+00,-5.969247808866589899e+00
-3.553140321805565272e+00,2.968943328000035908e+00,-3.960637848853038712e+00
5.190021678257024540e+00,5.053205170916848843e+00,1.539548025665291364e+00
-4.126535479961245478e+00,-5.984223465440443590e+00,1.598382925324851822e+00
1.121837377737505692e+00,1.085463749553729595e+00,-7.185715585616619272e+00
3.950935045995555492e-03,-1.372342313601091490e+00,-5.405536466092603298e+00
-6.110191929238667718e+00,-3.082057950822205239e+00,-2.813009979930957805e+00
-2.114881496378603121e+00,5.681385130511703574e-01,6.374914828108408926e+00
-5.181950065223817958e+00,2.595655582131775940e+00,-3.614886680408961439e+00
6.805745593845167640e+00,-1.346263449626673436e+00,4.635935110370269285e+00
6.119237532433878357e+00,-3.364331524203179935e+00,-1.617373868861799180e-01
3.272280021414066820e+00,-3.622596030651164867e+00,-4.819725384695808579e+00
2.541735122664774860e+00,7.240740174256528050e+00,1.368404963938765206e+00
2.326593192409668553e+00,3.035679372253468955e+00,3.912678137689429736e+00
8.916869396383207969e-01,3.734780650124937651e+00,-5.167342108464533901e+00
-1.533180984689308302e+00,2.541459637061868726e+00,-5.705495770977403680e+00
6.660386403436985958e+00,3.816208182701600338e-01,3.422358036439199225e+00
-3.880804928687635158e+00,6.112548798760585989e+00,3.439847256166443490e+00
-4.098521452548450128e+00,-1.136146853659266265e+00,4.276422382512128806e+00
3.740768928414999195e+00,-1.779969177702900529e+00,-6.111267206962612164e+00
5.574582635664238950e+00,1.634801980319463333e+00,8.157836159716063129e-01
-3.909922731252005956e+00,6.498786868433050756e+00,3.138156864130608348e+00
-1.844377319378093238e+00,4.605528317369111058e+00,-2.059460994904141806e+00
-3.900116291338333152e+00,-5.301843791044617227e+00,-2.240939293313100489e+00
-1.655037845830917176e+00,1.167209702259759618e+00,-6.543441575238713170e+00
9.605683872057728390e-02,-4.422126625646760623e-01,-6.019995674258905360e+00
5.135841603605277861e+00,-8.619660290050606966e-01,5.693914474828527084e+00
4.792922796639188299e+00,-5.693303178548235088e+00,-2.016251412217218597e+00
-5.846858692639920640e+00,3.239358938285981093e+00,-1.848164133176819712e+00
-6.909110636414810713e+00,2.448885307945043888e+00,-2.401661922802082128e+00
5.072321949622229376e+00,-1.616237996642785557e+00,5.406907031643851447e+00
-3.623462467129804132e+00,2.698484055337570631e+00,-4.446377281170962981e+00
-1.678667365527159339e+00,-1.368734498046723314e+00,-5.029424647848353302e+00
7.095522753640815417e+00,-7.777668244917600449e-01,3.877536392083646533e+00
-3.613916574553384109e+00,6.356603340447526396e-01,-5.910177056759112091e+00
2.530384957084361286e+00,1.362000164129532509e+00,-7.638274140019785108e+00
1.823496407676847841e+00,2.867327229155023915e-01,5.704261396543434337e+00
-6.557157229255553332e+00,2.758843442568570836e+00,-1.439737995262416526e+00
-3.667756001129292898e+00,-4.589451191940360886e+00,3.668147476782314786e+00
-5.138819984066885560e+00,-2.435441734380314749e+00,-3.546418161421355908e+00
-9.082896360199264052e-01,-3.976771386407823350e+00,4.927789697652913858e+00
2.736908757337520370e+00,2.687432132493474679e+00,-7.749491433487092351e+00
1.596038319945845885e+00,-5.309171704564780159e-01,-6.365449173357704105e+00
6.917755066305423917e+00,-6.881523922394796600e-01,3.417566122332764689e+00
-4.950322418746046615e+00,-5.818068954598782483e+00,-6.909299601268253932e-01
-2.550594663400883366e+00,5.957917188961856070e+00,9.695910142030839118e-01
-7.900841172287133285e-02,5.915309330898042894e+00,-3.798517959320524273e-01
2.527356184741874401e+00,1.546382260051320401e+00,4.853025467806391546e+00
4.146558537781451115e+00,3.121968990723114512e+00,-3.157544303082142623e+00
4.427629780834277717e+00,4.461930489047273518e+00,-1.333455124319400165e+00
-1.747077357034083400e+00,-5.815286254554091983e+00,-2.349481284257582736e+00
-5.120573977276237088e+00,-1.502103692596725937e+00,7.959219413945088917e-01
5.214055286923231947e+00,-5.144662801636244787e+00,-1.227382170512148374e+00
4.394139925930277357e+00,5.470935635123102436e+00,-9.845037465072647986e-01
-6.252487887891563290e+00,3.209863317393240489e+00,-4.240008340264466713e-01
-4.675586936965148155e+00,-5.877072760621907754e+00,-1.540159641975209770e-01
-1.476750738222731840e-02,-4.416524449306394651e+00,3.282539196621808486e+00
1.739273747865022868e+00,1.345780324227074498e+00,5.023215152219110635e+00
4.757157236799416378e-01,-2.121379763446971545e+00,7.430896730398773187e+00
1.206297676046593326e+00,3.561254840956625589e+00,3.900401929543340085e+00
5.886753758089265931e-01,4.043530808604267612e+00,3.616292736276997655e+00
8.074697834293086407e-01,-2.729751255271964716e+00,6.248993710522697143e+00
-3.616859538090389403e+00,3.054933484023749202e+00,-3.658945446241925747e+00
-7.052417316164779848e+00,1.280054214100831755e+00,-4.951608456999456287e+00
4.107565396421620108e+00,-3.058257690675280638e-01,-4.789421200620289198e+00
3.189748520035595281e+00,3.600707658740859518e+00,3.367906934660764851e+00
-1.773891269683068594e-01,4.965891737887688784e+00,3.360350235189631274e+00
-4.332218411833792082e+00,-2.036420126156184729e+00,-4.100691699602030837e+00
1.307924049185237525e+00,-3.978192157088082936e+00,3.415443576498876421e+00
-6.099221072927569764e-01,-6.815511311283808937e-02,-6.210982825096572846e+00
1.744125767242797664e+00,7.454916800859499482e+00,1.159551582268275594e+00
4.528859657225099866e+00,2.769513361155985010e+00,-2.091547565774966699e+00
5.967893129193331703e+00,-4.593376325377583669e+00,-1.435906724858883932e+00
5.653646500833080957e+00,-4.020499554316583790e+00,-2.240156765987462162e+00
-5.532814580401789861e+00,1.095764357758429314e-01,1.493591704777543772e-01
4.963677300548648752e+00,4.044906305326962048e+00,2.987971425556635308e-01
-9.486933569640931818e-01,1.779642913246829716e-01,-6.061635871503546547e+00
3.072380300453537938e+00,7.344431020375895791e+00,1.277597539197125709e+00
-5.958067029614491972e+00,1.236415064863217061e+00,-5.587424516232680993e+00
1.225182027695715714e+00,5.743563783073531326e+00,2.535228024149139170e+00
-7.129590901729533137e+00,1.728535281738369456e+00,-4.037521073794317239e+00
-4.189080607028676795e+00,-4.074691152702228258e+00,2.428011855230015836e+00
-3.230836851516353025e+00,-3.587069940657394262e+00,5.819761009583435118e+00
-1.461458202520761640e+00,4.379805278738586605e-01,6.236264666404247592e+00
-4.015273760313316842e+00,-5.522270035722800507e+00,2.235634324903184034e+00
2.770292579070944949e+00,-1.145057763367580694e+00,6.326645736859148883e+00
-5.108062381454614886e+00,-2.526652736365648355e+00,2.273672280816848856e-01
5.693687898720155793e+00,-1.748126421885366710e+00,-8.864709512355937182e-01
-4.587994019696767900e+00,1.872225221211861079e+00,3.970346988615192529e+00
-5.397502082582868788e+00,-2.852268855528719005e+00,-8.930720278835254655e-01
4.242552352042012309e+00,-5.738520923959675279e+00,-3.710159013003936579e+00
-2.388563909999287915e+00,-7.185051580148540395e+00,-1.468019830917012269e-01
-2.416725999404524927e+00,2.526807788775638386e+00,5.156059698688648218e+00
-6.304335389488237240e+00,1.917023596491996607e+00,-4.428336295759503827e+00
-2.592475465283273994e+00,-7.047463694653317567e+00,-2.005722874816526571e-02
-1.592307295451995008e+00,5.177032814895944357e-01,-6.276477051116167161e+00
-5.405998873908998803e+00,5.913200676743187501e+00,3.609144812659751622e+00
-1.314497503152925573e+00,4.376741261469602406e+00,-2.673682636619452158e+00
-3.605197446756518875e+00,-1.307779187350286976e-01,6.237588254346300154e+00
-1.026558255142409948e+00,-2.240356248213939416e+00,-4.713544179300496850e+00
-2.347555192524113821e+00,6.742093176082183170e+00,2.833489230887995980e+00
3.689218118671168334e+00,5.282502547767622403e+00,2.374855986686550846e+00
-5.200492222552601795e+00,2.798663506665085787e+00,2.918271248353987879e+00
-4.274867054308185921e+00,-2.064617931837323894e+00,2.884887179952342340e+00
3.687152619105016349e+00,-5.037413373649330062e+00,-6.839339599094163002e-02
1.615060291810017923e-02,-8.981971687096362844e-01,6.890747554133287878e+00
-3.620600160096676401e-02,6.372205384605543976e+00,2.401910032991025012e+00
-2.265184412813324499e+00,3.409233169115347906e+00,4.716072575685354984e+00
-4.584952839737025165e+00,3.223964389673049880e+00,4.714294054678831891e+00
5.302118035309661082e+00,1.551214026099381638e+00,-2.792569148149640079e-02
7.685451943717557244e-01,1.681750247259227615e+00,-7.438268604705725373e+00
3.897383989099154622e+00,2.501013938897922895e+00,-3.897580760747366924e+00
-5.608234497671831242e+00,3.310387352770272962e+00,-1.822005344826009399e+00
-9.596809651927917795e-01,1.923912905532853268e-01,-6.138947931311967032e+00
8.524640040023884202e-01,2.918006932369208162e+00,4.446697257054968766e+00
-4.113532300219014282e+00,-2.745946087471072827e-01,4.504403865993019451e+00
-1.606617128177382670e+00,-1.472397107146486972e-01,6.753784838547065128e+00
6.087087170600777419e+00,2.780860892908269655e+00,2.910830003515209263e+00
3.497127926991773439e+00,1.060114564935159320e+00,-6.240131939474832024e+00
5.212763283434744821e+00,2.731539042784858484e+00,6.463465619609501389e-02
4.201005618187531709e+00,5.014092389711091613e+00,-1.592616161482606207e+00
-4.515934158260101583e+00,-6.963168175471070143e+00,-5.638698528362278556e-02
-2.959085831506854891e+00,9.189740072094686463e-01,6.412346848199200089e+00
4.208566665931828155e+00,-3.443358918206729236e+00,2.407306582230290815e+00
2.146908695205628437e+00,1.792591458750329325e+00,-7.860478734193719674e+00
4.635174439073060704e+00,-2.425880921562132642e+00,-4.117872888826562772e+00
1.139195977486788663e-01,5.835410471687200840e+00,-7.128316892298659502e-01
-5.409806318816338333e+00,2.383849135711980871e+00,-3.894979286212520986e+00
-3.467364520016057217e+00,6.136826128673887659e+00,1.963728796919431696e+00
-5.320208529679809395e+00,5.966370701523244335e+00,2.750792677910450124e+00
-1.341359842070426023e+00,-2.823987871303130337e+00,7.087402906674912906e+00
-2.598386256943566175e-01,-4.285304403033485698e+00,3.571284799876964122e+00
4.501448578495212516e+00,-5.381568618399774628e+00,-4.013342311619232383e+00
-5.579873137014076612e+00,2.669991427494408098e-01,2.854150434597827468e-01
3.555526492030389729e+00,4.986211487438191980e+00,-4.047991678014539296e+00
6.032435410956701105e+00,-4.388237266711430884e+00,-8.079025225449576464e-01
-4.500454163405776420e+00,-6.992164376128950032e+00,-1.004895196442478378e+00
5.134484814555758669e-01,3.053580846534392101e+00,-6.437459242062165465e+00
4.479733645267910624e+00,2.863268414660735228e+00,3.478328188871651072e+00
6.941509567760814070e-01,6.476541234214034937e+00,-1.285769563490482270e-01
3.237304865347029104e+00,6.909393083910115863e+00,1.377541633630731788e+00
1.544679918286751441e+00,4.504240154190570777e+00,-4.213467034724398985e+00
4.978170841474009123e+00,5.317257493008925806e+00,1.975547748086352806e+00
-6.178694074985782159e+00,-6.041789633364561540e-01,-4.523853242373114369e+00
6.303790464610199429e+00,-3.510057721287849652e+00,4.264962289326826306e-01
-2.719455257096455303e-01,4.129261038149331320e+00,-3.667477317910845525e+00
-5.383623593683852349e+00,-3.337055490440605343e+00,-7.263330117915668405e-01
3.620297370725043429e+00,3.176764875497099183e+00,-4.676729079488616492e+00
4.039100012869180745e+00,-1.824482217824929808e+00,-5.709683428798112637e+00
4.282145874347217607e+00,6.763463222410024400e+00,1.179715439980773217e+00
5.996842559056819510e+00,-4.823266355354457247e+00,-1.305653619290513490e+00
-1.108692016368366451e+00,-5.235163614181890246e+00,2.675936769247658997e+00
4.807509564281687631e+00,4.115895615140521269e-01,-1.989565531143972832e+00
-4.513134029992095897e+00,-5.154363463503417897e+00,8.890910486077159280e-01
4.083029620659396564e+00,1.485109701597521648e+00,-4.320011891127911952e+00
-3.163559591504859991e+00,-7.222928682736323935e+00,1.732804521170279999e-01
-5.148362429181537081e+00,2.191278814888348414e+00,2.702839177152845718e+00
-7.250051408922441709e+00,1.467798855151129622e+00,-4.347924256193188342e+00
2.882254702346831898e+00,-2.472672486166646699e+00,-5.526326024912780355e+00
4.684229954972188636e+00,-4.027568639402807626e+00,-4.705859370502741612e+00
-3.696123006198314687e-01,-4.450647639598868999e+00,-3.634726699692348184e+00
-6.236612435358050988e+00,3.804270765289040068e-01,-2.024839306541395878e+00
-1.482971849562614963e+00,3.075259549507842749e+00,4.712761006545988174e+00
-3.353986627388879871e+00,-2.335949184184433758e+00,6.018408976031822455e+00
-5.416234732160210896e+00,1.060505174260707589e-01,-5.131168474859790329e+00
4.060773347302852443e+00,2.092352674852804739e+00,-4.063334931757417223e+00
-3.970500231718945283e+00,5.342235536568272991e+00,8.872225115418347352e-01
3.466019093553932340e+00,6.745542255874036996e+00,-1.085230020743660262e+00
1.877008822127848919e+00,5.963105712521572954e+00,2.316493848314217896e+00
2.515209233868433536e+00,3.322103654250456728e-01,5.509731175007720694e+00
-2.637286877954800879e+00,5.948286120820964307e+00,1.291226257945801592e+00
2.898157984181784386e+00,-1.697673984535281955e+00,6.640644591111673378e+00
4.260918170696481155e+00,5.663491287141461328e+00,1.922424812885775047e+00
