1.685785400327472594e+00,-2.226225739073152354e+00,-2.461992936095787343e-01
1.365589916521307456e+00,-5.267534740439129282e-01,2.097076280707451001e+00
-1.847891602888531715e+00,1.944804097705738588e+00,-5.204230902018786020e-01
7.174044070082923330e-01,1.679191532952258870e+00,-9.699691013111800819e-01
-1.454230753548639565e-01,1.990619138436733326e+00,-2.401400832724818746e-01
9.327180492215754182e-01,-2.176505685325310413e+00,-9.505939318168129537e-01
-3.524600017055689594e-01,-1.146003225409211401e+00,2.318000097166015294e+00
1.846209738954184942e+00,1.990550968500686413e-01,5.213858096184891266e-01
-8.224399323494089309e-01,1.509284504291019680e+00,-1.546095951752861408e+00
-2.262928232752767777e+00,-9.740072957245371477e-01,7.391401804350836713e-01
2.622221265511520683e-01,4.812152958573504002e-01,2.172313830496935161e+00
2.113980284691675315e+00,9.271252244348743288e-01,-3.634944557809931531e-01
-1.810372120395479678e+00,-1.303230882449808004e+00,1.830586857543478274e+00
-1.830051349357059431e-01,-1.707519651013982842e-01,-2.272834435331179126e+00
-2.442659217069588440e+00,2.196679845087568805e-01,8.923562351528800951e-01
-1.093937191146840293e+00,1.013350394103109897e+00,-2.768034430069013396e+00
-7.740401678788338957e-01,3.134701434275570242e-01,-2.708366256299057806e+00
-1.386362511234086270e+00,-7.717131367895360139e-01,-1.724144580480696964e+00
-7.015981456373793224e-01,9.124282003021387810e-01,-2.932893657143586630e+00
-6.609936510151784850e-01,-1.319834900388868304e+00,1.922781627177454267e+00
-1.000755913253900564e+00,-2.458015199433592368e+00,-9.803749692085425016e-01
-2.018289340400273857e-01,-4.603812132706011084e-01,-2.143702633504394495e+00
1.654065860684999389e+00,2.802376942931585901e-01,-1.645408923444722671e+00
8.408837538435093295e-01,-1.841111648162692127e+00,-1.183666492170710294e+00
-1.194921623704670033e+00,1.010876238410215011e+00,1.359869487079214956e+00
-1.158202303772463138e+00,-1.392187624872504914e+00,1.668936516444713414e+00
1.383955336440845008e+00,-2.118766894664760869e+00,-7.648968388984984657e-01
2.297483593637878574e+00,1.389569096800301384e+00,-1.643197395805758854e+00
5.238903119843734135e-01,7.794160825451680319e-01,2.147285142789595813e+00
7.362357248886337580e-01,7.737641993156587628e-01,2.245924925521915583e+00
1.286187496893028026e+00,-1.953193890124742094e+00,5.122662769650437875e-01
2.539442412997083842e-01,2.037991020280503829e+00,-2.071910730003960477e-02
2.263142608401198519e+00,-3.682152081426828816e-01,-1.139919657908618156e+00
2.549970592078613096e-01,1.958184749602637220e+00,1.552730217270336777e+00
-1.133178403635481279e+00,-1.130728015464179004e+00,-2.195036741884038189e+00
-1.519723058399820692e+00,9.702858864666934480e-01,-1.830866905102830344e+00
1.420254413529762338e+00,-1.576567926322996804e+00,-1.032862985411576062e+00
-1.206379273766345683e+00,-1.485829428950119269e+00,1.479658177983360634e+00
-1.834457823297720669e+00,8.639079400327196456e-01,-1.049713739122874134e+00
1.141168325047867915e+00,2.636423547700272429e+00,1.476766684348322700e+00
-2.252779694900168828e+00,2.040008042228726115e+00,-2.100222274359696273e-01
-1.188467333729548159e+00,-1.132055449648158157e-01,1.810641785157151018e+00
-2.074201122107378392e+00,6.911053435792761102e-01,1.107008574978144422e+00
1.453352715203836798e+00,1.407569711828222936e-01,1.717466223903024947e+00
-1.343728838125860525e-01,-2.363481603606114145e+00,-1.320865503019836629e+00
1.835346179155398660e+00,-1.093631291715585485e+00,-1.057475853711971947e+00
-3.882714787569797044e-01,-1.374381291839378960e+00,1.755171727899013989e+00
-2.394658929423499671e+00,1.318851192484336854e-01,8.826325382452923085e-01
-1.996759261470201885e+00,-1.118808677027056442e+00,6.244386756482164791e-02
2.252416210434920463e-01,-9.601687828539461345e-01,2.718302686262306977e+00
-1.410741240972660293e+00,-9.949837258646672122e-01,2.053483145471662663e+00
-3.418054372410068154e-01,1.330002567156703286e+00,1.566326764307110819e+00
-1.242158308204260653e+00,-7.893341817478705114e-01,2.014342639262238777e+00
-1.425470584270390750e+00,-2.278678787820690665e+00,-1.003081994266786126e+00
2.157350451624887366e+00,1.375866480705410844e+00,-7.503652005690799598e-01
8.602395534826123846e-01,2.044977681893752841e+00,-6.293365270926269683e-02
2.183977096359922321e+00,6.915109160472386884e-01,-4.902838256823354168e-01
4.323022333826600505e-01,-5.987689174916239754e-01,2.671646799562800823e+00
1.801375093368587921e+00,-1.636057699815803401e+00,-8.232738242637310799e-01
5.789290028550202194e-02,9.770780916390289228e-01,1.888554897343483807e+00
6.041664595996504294e-01,1.878381893866695185e+00,-5.639224754424229102e-01
-2.880152133868960629e-01,-7.113101516792226242e-01,-2.051184610487154725e+00
1.049962334569964684e+00,5.554706677203504750e-01,-2.091347521512452179e+00
1.440468022088398303e+00,1.999632670673937351e+00,-1.258078651960817251e-01
2.476071381204546284e+00,1.063685787001631855e+00,-1.521261504649278784e+00
1.280087481473437983e+00,-1.615241039948888679e-01,2.145228803569358966e+00
2.440985373020595706e+00,2.635406101663241921e-02,-9.025420361557316973e-01
1.071785858921547208e+00,-1.580822993012563682e+00,-1.159090386157847208e+00
-2.324380267840659542e+00,4.805394860191513629e-01,5.375952856381081002e-01
1.819292074068166842e+00,-1.623753454093231685e+00,1.122062366535095501e+00
2.308634706687100024e+00,4.580047033258135558e-01,-1.478048451410371555e+00
-3.464369999693797664e-01,8.142657998353677318e-01,1.768967866102181263e+00
3.219718811343785236e-01,-7.409084077147765068e-01,-1.825722520194558385e+00
1.688086188355447881e+00,4.664643045493327422e-01,9.236075689776346298e-01
8.931221450058244304e-01,-9.462589819068099040e-01,2.812823618595588382e+00
6.587473920561255358e-01,-9.186207937206450902e-01,2.916148721377488151e+00
2.698145331600720898e-01,-9.171620820265737883e-01,2.736268211819829155e+00
6.294846216921623494e-01,-2.488608729470693337e+00,-9.439417965743671646e-01
-3.723198864015968002e-01,-5.855271895857621089e-01,2.342778164041361411e+00
-2.118932605019242743e+00,-7.689653261396905970e-01,1.706696832524307261e+00
-2.207373280686964367e+00,-6.583159941940041060e-01,5.039262059976341579e-01
2.280331283033919743e+00,1.454245164005908864e+00,-9.885038353314520299e-01
3.695654896865127048e-01,1.360965330188919742e+00,1.849306556635204046e+00
2.183281437944205816e+00,-9.503905590659798841e-02,-2.986878642035482034e-01
-1.403285015051475959e+00,4.392227654438865536e-01,-1.988435436926429656e+00
1.257474061998680392e+00,1.387938242404373579e+00,-1.764140265695343102e+00
-1.656764384390484901e+00,6.640387595506015705e-02,-1.217906535420481884e+00
-1.496104936327564250e+00,1.492696545299542210e+00,-1.632404047504877775e+00
-4.380396027689125726e-01,1.297439352927373335e+00,1.501584325067470749e+00
-2.159950288012741026e+00,-1.472691075768947533e+00,6.752447992624919237e-01
-2.315372784282626051e-01,-8.312711462753410996e-02,2.146182003809123273e+00
-1.769552804615262875e+00,-5.595022787300661937e-01,1.738319159077950093e+00
-2.475628733026699890e-01,1.294506404429405677e+00,-1.998535503751236009e+00
-3.817559235261397954e-01,-2.010919802024009773e+00,2.451139815009887035e-01
2.337811867412384448e+00,-1.800579691897712165e+00,-1.119100334222014465e-01
-2.169130776876652789e+00,-1.555787187118626180e+00,7.512978228576648876e-01
1.105286820599222786e-01,-1.416062552478774883e+00,1.698371660901063063e+00
-1.172346650034241433e+00,-1.691861612846107477e+00,8.745027624696103397e-01
-1.707814380459420578e+00,9.587926618511133370e-01,-1.333195578805889125e+00
-1.899675076798910567e+00,1.062890790150894105e-01,-5.102577956705535156e-01
-2.155413168497124943e+00,-1.664221159333520328e+00,9.574028970202644873e-01
-1.172009373445332070e+00,-1.751216976795199942e+00,7.502094969172117267e-01
-5.970432764587054741e-01,-1.368417604716971603e+00,1.727816586410526378e+00
1.591499245062694801e+00,-8.679461027880688850e-02,1.403809134586037510e+00
-2.121806425929061657e+00,-1.962146098340156464e-01,1.135393396971384056e-01
2.414555252993781043e+00,-1.377633123577630681e+00,-4.326208750790261348e-01
-2.154659614443675597e+00,1.388201149341231400e+00,-2.762543943824884440e-01
-1.039613583341861380e+00,1.406364911010000274e+00,-1.708862033443589334e+00
-1.091697837695386086e+00,2.237785820732420827e+00,8.495979216446788440e-01
2.416808673127254004e+00,-9.830881560181775614e-01,-5.969606845874558809e-01
7.700620730486322785e-01,2.000675372950827188e-02,-1.918633119580144486e+00
2.313083785330432907e+00,-1.008165063945966944e+00,-2.147165435032531988e-01
-1.896643976215357796e-01,-1.295422306240225918e+00,-1.806773321168273716e+00
3.682329638177192499e-02,6.713012723690398031e-01,-2.517784553582638196e+00
-2.333461199936178065e+00,1.402951540623994742e+00,1.818812119936142058e-01
-1.401254577422529568e+00,-1.450952153135279143e+00,-1.448675715426257060e+00
-1.769585670323746029e+00,4.044428093882018183e-01,-9.286356875902196384e-01
1.703090820597660260e+00,1.262403571514415290e+00,6.093258168313824275e-01
2.347633177988538711e-01,-1.287617495841649751e+00,2.012350343853521295e+00
1.532787953722193119e+00,-9.611466857440299494e-01,-1.245572383963540863e+00
-1.809238462911014533e+00,-1.878605497375360533e+00,4.320823734447991615e-01
-7.114902752697087329e-02,1.535705105679771032e+00,1.609101406887976538e+00
3.880597011467754043e-01,1.951361956214346938e+00,-3.126505204532073479e-01
1.985850371245386325e+00,6.309747546785781092e-01,-1.695924131868183027e+00
-1.385494268746046975e+00,-1.465780390187343185e+00,-1.459879396187488076e+00
-1.852327772001143735e+00,-8.473310849851397597e-01,-4.265305239917944746e-01
-7.317348673799821679e-01,1.021470838969778250e-01,1.909913934542803116e+00
4.500398051586191883e-01,-1.880364389196804709e+00,5.243706298405461652e-01
-1.373161499143990216e+00,1.616356313074593487e+00,-1.309419679282140425e+00
8.781799422368664620e-01,-1.164071246531025006e+00,2.405741511658713971e+00
-2.055141521036172314e+00,5.265957812180434017e-01,-2.142454886141029746e-01
1.027143989963938520e+00,1.199741713017493216e+00,-2.174288725169033931e+00
-2.743917763372384355e-01,1.533241597342010376e+00,-1.494623096486616509e+00
-5.107503283372509806e-01,-1.515222705315366403e+00,1.317218095876272921e+00
-2.114238414797233734e+00,-1.098627821582754294e+00,4.788140124037191803e-01
-1.743660850967457154e+00,2.107486248843789323e+00,-8.375809820449936494e-02
-1.488769608729789029e+00,8.686722543219342618e-02,-1.623721036506927673e+00
-1.711249893349161777e+00,-7.164874292720984084e-01,-8.377715733821823330e-01
1.754310311598252792e+00,-2.301193612223754847e+00,-5.845127630611011149e-01
1.619016833562063606e+00,-1.985602945534835628e+00,3.982959384682693282e-01
-2.424496775719564567e+00,1.627378349345193653e+00,3.728971527278633347e-01
-4.705236031594185464e-01,2.178015221078431818e+00,2.671326577807253688e-01
-2.082105882356759974e+00,1.427862788550215090e+00,-5.125433689655871650e-01
1.168038002122026853e-01,1.723308070989612251e+00,1.581087511476411356e+00
-2.726360685533916195e-01,8.516910394429297315e-02,2.100933025573447299e+00
2.351447775317174305e+00,-1.074276755606448086e+00,-4.555322048659113388e-01
2.233227754819429478e+00,-1.418084067473129206e+00,-2.889040964777596018e-02
-2.123797806546480871e+00,-1.386911215188155744e+00,1.600862453322042134e+00
-7.595138690642676549e-01,-1.438989025300956293e+00,-1.975490400871478203e+00
-1.774127400374870156e+00,1.314663159767160749e+00,-1.224966856267226456e+00
-1.475115267490661131e+00,2.832546343482607587e-01,-1.812337598784543813e+00
1.194296438881502498e+00,1.203257887701984774e-01,-1.809471845971036608e+00
1.389333852629335508e+00,-1.631988283406346607e+00,-9.798530981330605405e-01
-1.816185179763484259e-01,1.620749824574713616e+00,1.468866000867225186e+00
-1.756389583567584234e+00,-1.027143999866856561e+00,-5.291739309486359621e-01
-2.028858193251905917e-01,2.261272430561885594e-01,2.104217847990078383e+00
1.828847222353083835e+00,1.777999767872477044e+00,-6.389910299794165915e-01
2.259743905716638857e+00,6.432436373333747515e-01,-8.109343339761236891e-01
-9.407597185797035300e-01,1.517643679159956571e+00,-1.491366239819144068e+00
1.155839157658171468e+00,1.616519341917822539e+00,-1.212922179480521612e+00
1.833342330139793974e+00,4.515602451765709513e-01,5.694596383355604585e-01
2.468153201519424744e+00,-1.941417148021188588e+00,-2.993680139547518770e-01
1.857015640033896853e+00,1.181216005554742043e+00,2.886258572350388629e-01
6.263141709510611221e-02,2.325504375526858070e+00,6.365106226923569199e-01
-6.194061030546147428e-01,-1.423768068253952634e+00,-1.947142892595142616e+00
1.246405412693510906e+00,2.435883877567099454e+00,9.681358324249328406e-01
-7.847901883518135779e-01,1.767534227347562492e+00,-9.182829755755094192e-01
-1.635862561943042914e+00,1.093413822224105658e+00,1.134255936473921311e+00
6.225924598343535177e-01,-2.047568331499456828e+00,1.844698744851560324e-01
-1.319319150010392905e-01,-1.501620583501825035e+00,1.549460018003175232e+00
2.835701688739895587e-01,2.478609031584884104e+00,1.360827622512719826e+00
-7.962150509859627912e-01,2.240026976578903817e+00,3.182667946459976638e-01
-8.932394718293072966e-01,-1.179802857761847124e+00,2.158446082484430484e+00
-1.142585726493161369e+00,-1.409839774623330877e+00,-2.022589900687176367e+00
1.344407106614838865e+00,1.833975168831283087e+00,1.369710503786373712e+00
1.227185567428742852e+00,2.537138197463412848e+00,1.481919998655458981e+00
2.287036439389201092e+00,-1.871549347827832666e+00,-5.313598688669458614e-01
1.247039871747932738e+00,-7.710403654440886045e-01,2.439127932241439645e+00
1.259377481399526211e+00,2.946174324260394384e-01,-1.850135342448462117e+00
-1.537420485684858340e+00,1.729423375902314541e+00,-9.581616058550990189e-01
-2.400941527686506927e+00,7.820700892487297828e-01,5.469728601072316732e-01
1.291236808500331179e+00,3.698709177314410956e-01,-1.869650606250290448e+00
-4.907608222612682702e-01,1.816190193234798800e+00,1.311020474604944974e+00
-1.488135954583587051e+00,2.437915752352888821e-01,-1.748511941914898005e+00
1.246305464420593756e+00,-1.081446632533902497e+00,2.611090736258352862e+00
-1.511518623517992488e+00,-7.471485863617164380e-01,1.904788203936739421e+00
-7.175237576663259231e-01,1.828109573819875600e+00,-7.282431606403317881e-01
-2.034260097958303426e+00,1.690211582620644526e+00,7.373557327067092881e-01
5.526862277588458217e-02,2.253481079696437295e+00,4.659094701920297732e-01
-1.070551783136897139e+00,-2.618810227073101737e-01,-2.570037656671490200e+00
1.475934474347323277e+00,-1.524005400863032156e+00,1.490606269600813771e+00
-1.577411904282767507e-01,1.751183482968490246e+00,-8.296380985590144919e-01
-8.754264060580119189e-01,-2.562907882835358198e+00,-1.570034910704980913e+00
9.949338825382959550e-01,1.675117581102863462e-01,2.542868319072671301e+00
1.749467917000127271e+00,-2.170005708673731881e+00,-1.351424694882982953e-02
5.824699161944364434e-01,-2.463930794166144245e-01,-1.930100283119096316e+00
-8.587156234388761966e-01,-2.237333988115086658e+00,-4.249428035867460762e-01
1.494189379326403389e+00,2.245532719031532842e+00,8.873855132598723605e-01
-1.340955090303355413e-01,-7.811336694754420495e-01,-1.968736070062554244e+00
2.344776147363741181e+00,-7.286057723008120268e-01,-9.786558191355622105e-01
1.366253432083799124e+00,-9.563390449160286133e-02,1.923563019852930767e+00
4.438843664233184383e-02,-2.422168141968834565e+00,-1.261806681038008637e+00
-1.180520292702188279e+00,-3.317526277656600020e-01,1.931112211026756453e+00
2.207402180322285690e-01,-4.335684424814033044e-01,2.521083897077337266e+00
1.253321928686270015e+00,-2.208716831965985006e-01,2.248261326129564086e+00
-1.585762917742222222e-01,1.870879548042296392e+00,-5.996071625137131544e-01
2.071912895884904238e+00,-2.124704787386922700e+00,-5.418094956185077749e-01
5.771656182851174766e-01,2.463068089950267492e+00,1.014599054569011782e+00
-2.355765294034005031e+00,-7.608954757999483176e-01,9.531068045808582800e-01
-2.432362623552485115e+00,-7.955700692382055017e-01,1.597384429635973380e+00
-2.251622716109531908e+00,1.959375057560697853e+00,-1.903139989140514299e-01
2.085418860594676072e-01,-1.133060984980510222e+00,2.463258996632383013e+00
-1.339468117520873802e+00,-2.388227660325418444e+00,-8.101479002281875008e-01
-1.575392751827272120e+00,-1.565163286833008760e+00,1.240793780450415662e+00
2.430391862682104165e+00,-1.777869641957023905e+00,-3.167053574175633379e-01
1.926185376477467015e+00,-5.778013686856786624e-01,5.937407929788680594e-01
-1.661987954596984007e+00,7.603756048594890841e-03,-1.161170222444124267e+00
4.740273020160501449e-01,-1.521688473715846923e+00,1.487458095627029797e+00
1.108271806677072036e+00,-1.075029935540245188e-02,2.683153855531181353e+00
-8.789254192739188731e-01,-2.140567934805762462e+00,-1.754606912717983969e+00
-2.053974118177837926e+00,1.948133746516254705e+00,5.845033138219286606e-01
-5.436525604896689234e-01,-2.510500970262858011e+00,-1.510347567268941038e+00
-1.183412179391904351e+00,-3.937029968692574156e-01,-2.329960601258841635e+00
3.147144110436877681e-03,1.177798562264945392e+00,-2.298048575077249467e+00
-2.296649608579375723e+00,9.750087070935854472e-01,2.987622317290992702e-01
2.159385914949395247e+00,-1.239185556419669210e+00,2.408196381695281163e-01
2.439045621348524318e+00,4.025846639642571834e-01,-1.125209951325963686e+00
1.005389867644074897e+00,1.918684042631412456e+00,-4.449767385329623237e-01
-1.429141876353045015e+00,-1.086475572907563469e+00,-1.395698540549985767e+00
-6.992801831215996744e-01,2.346348158706831555e+00,5.669331267284168918e-01
-1.258064380579831942e-01,4.600725412093589206e-01,-2.477559101683774578e+00
-2.490081346207859259e+00,-7.348319916114538775e-02,1.109363588940418532e+00
-1.252505197195988185e+00,1.792919086695463848e+00,-8.854761798586664456e-01
1.330551089206587267e+00,-3.508146111729470995e-02,1.995799713929938379e+00
2.092394280642318360e+00,-5.871367252460149011e-01,2.775592947608900851e-01
1.127708572082974703e+00,1.841136458034868140e+00,-4.879828598848581778e-01
1.079376665486828424e+00,2.264916418598357239e+00,5.329015951750026847e-01
1.098273663142704359e+00,-2.194894662053087142e+00,-9.440057816463907903e-02
2.078960754338689210e+00,-2.003533026523586891e+00,4.583807453731705284e-01
-7.180995484108813054e-01,-1.875978318733695582e+00,5.478192558651927557e-01
1.126760337739944440e+00,2.663667603560306851e+00,1.467781841849076674e+00
1.189635150709338340e+00,-9.412649141311500989e-01,2.776194389595704415e+00
-3.734124131463164020e-01,-5.502116996819842454e-01,-2.196328005117366367e+00
1.367068918865988580e+00,5.552956051598185727e-01,1.684782231827958165e+00
2.428954075983139893e-01,-1.909459649709532192e+00,-1.310858500291881112e+00
-1.344423279629430867e+00,-6.693458257037832038e-01,-1.763326497830924433e+00
-2.348079064396159765e+00,2.184081419075218022e+00,4.154080802458593596e-02
7.084500208375500430e-01,1.556796591587814360e+00,-1.255094119091434202e+00
-1.551352773544777852e+00,1.465947081162413790e+00,-1.605288614460957719e+00
1.332759504328451916e+00,1.366818448958474930e+00,-1.690789349394795860e+00
-8.017350549509097979e-01,1.087999585104818978e+00,-2.570765590524231037e+00
-1.616228954712336519e+00,1.089767632201457392e-01,-1.313008101674244532e+00
3.581180689992852773e-01,1.975742748359999301e-01,-2.186778648594708052e+00
1.397289323682090911e+00,-4.171312503809397332e-01,2.040940383180749773e+00
8.310004711291170132e-01,2.513954962043076335e+00,1.117960259089820330e+00
2.326017023221478741e+00,-1.754565921722826882e+00,-5.315018250408940492e-01
-5.876472216467131249e-01,1.223011334697392760e+00,-2.224257869132656218e+00
-9.835357581974496499e-01,-2.224097505387014451e+00,-1.728724642594242855e+00
1.384336962179913311e+00,1.097966832618297195e+00,1.619587135005468692e+00
-1.132432866764736312e+00,1.577766617881138034e+00,-1.320198015967757765e+00
1.382687610038650261e+00,-2.003909419157474392e-01,-1.587969786343319534e+00
-1.869624834126514923e+00,-1.282179436476705403e+00,1.935578679331019902e+00
-1.542329599776885107e+00,-1.596575851427975756e+00,-9.243162131548541272e-01
-8.741953990832747046e-01,1.987944551996830178e+00,1.092411392917143287e+00
-1.188546548110746448e+00,5.680815727258764491e-01,-2.691525800584302353e+00
-2.142060857671725493e+00,1.193698177339956645e+00,-2.118106048318433021e-01
-2.461488534549308493e+00,1.145239379367570365e+00,6.818667341268963566e-01
1.990802766730085605e+00,-1.680252308364798219e+00,7.448367515215773560e-01
-1.727688082350852028e+00,1.746400120812226175e+00,-9.225874149050119488e-01
1.712491945694116557e+00,1.962095243456884353e+00,3.052248569249227939e-01
1.184439690947983070e+00,-8.637393287234313988e-01,-1.438716483952068081e+00
1.160038431258086700e+00,3.152811039908182122e-01,2.406775102077251205e+00
-2.037187096871488468e+00,1.330796831062059926e+00,-5.592427138848148349e-01
-1.492456820631653969e+00,1.787308921785415894e+00,-8.961357288067048898e-01
8.884030084899798840e-01,-2.244999303092918730e+00,-4.180698435642901112e-01
1.994799322917175433e+00,6.095981570057027454e-01,3.143521489560407306e-02
1.251880016831152131e+00,1.367280075483034096e+00,1.805976935457569876e+00
6.017354403802300800e-01,1.372347337090458197e+00,-1.684318988339419620e+00
-1.458787727630100672e+00,-2.043328378895205244e+00,4.906245459005349752e-02
1.774805036232907529e+00,-6.753947582450475773e-01,-1.242907481144409854e+00
-2.297931125268317221e+00,1.779335768912584381e+00,-1.591092355139618565e-03
-2.236737052653123836e+00,1.803010331950894773e+00,-1.584181074777713250e-01
1.695732720295744400e+00,1.242423653425110269e-01,1.002831676437476283e+00
-1.276409624608667803e+00,7.989453731734025288e-01,-2.475535540035698645e+00
-2.164678306106339711e+00,1.994371080316848621e+00,-3.908446902386700228e-01
-1.243797030502820533e+00,-1.193722703656313167e+00,2.166995505707849823e+00
-2.137193952171836386e+00,-9.238247737130013126e-01,4.439142415452422830e-01
-3.578727092802025389e-01,1.340715935439513173e-01,2.067081936699063593e+00
3.780800386347431541e-01,-6.899374585080925160e-01,2.691183317421319110e+00
-1.786544216783650385e-01,2.536480868345227346e+00,1.079853063859351536e+00
1.222999975400582251e+00,1.248086289474593436e+00,-1.936047669481226974e+00
2.303607012100231888e+00,3.015596816234097366e-01,-7.097380607380234796e-01
2.437465629102901321e+00,2.766584873754050489e-01,-1.094753872800555472e+00
-2.382543927935823813e+00,6.607464058169418841e-01,5.383082514886595726e-01
-1.366510153705707387e+00,-1.501423399527027858e+00,1.464141533367951942e+00
2.371865470537426468e+00,9.433848981498660358e-01,-1.027096230678037569e+00
1.826313366764891422e+00,4.558018363468674949e-01,5.146064832570753644e-01
1.282698876423280065e+00,1.461033614075642806e+00,1.690963263800929983e+00
-1.401975843254595455e+00,-7.170629252017377553e-01,-1.648741495364428156e+00
-1.845944489550670475e+00,2.263576886486698692e-01,-6.280650872346903446e-01
1.410352531704428758e+00,1.664948987942151959e+00,1.321178284837031924e+00
-1.035798350391941014e+00,9.370053569840209873e-01,-2.897245800874346244e+00
1.537429788085603377e+00,1.023902598033039180e+00,1.046766665438264354e+00
-1.799504383510344363e+00,-9.429702038117405705e-01,-4.727468194109314403e-01
-1.404861405359180804e+00,-1.607309557019516388e+00,1.158855143118813880e+00
-1.916341187843907612e+00,1.949714975560972174e+00,-5.226839477064287864e-01
1.842827974012965830e+00,-2.165811387214936268e+00,-5.902927859546754918e-01
-1.916421674959535526e+00,6.072075841700020141e-03,1.443291018416196891e+00
-4.787635315718585804e-01,6.550595442526151446e-01,-2.712113854013484815e+00
7.139616569348578023e-01,-5.141253619887311554e-01,2.751662271085513645e+00
2.049383784027577704e+00,-1.706640564216533207e+00,-6.766692661896250849e-01
-8.349624764766290230e-01,-2.486549558598791787e-01,2.007737548985374154e+00
1.158568542751567065e+00,2.396912385729576656e+00,7.613259242579009101e-01
1.320034112766155898e+00,-1.120982942883375300e+00,2.480425777560696154e+00
-8.408205292028526900e-02,2.194755172808744881e+00,2.866187037453297171e-01
1.260144879346915658e+00,-1.880223134938029173e+00,5.556041229361653455e-01
-1.017156608839905552e+00,1.883795491389000487e+00,1.042545674166256653e+00
1.694951670937218990e+00,1.322469949297281788e+00,6.685559564322284265e-01
-5.607806004689692703e-01,-1.340099131949266331e+00,1.854639438360447423e+00
-4.364564939478071670e-02,-1.304131804827257435e+00,1.947473068702971100e+00
9.426707520019143027e-01,9.729196423066944766e-01,2.214659315501172454e+00
1.095312265135468976e+00,2.213535862523123399e+00,4.168371687297465211e-01
-1.664567389899704875e+00,2.186866394630423649e+00,1.006401485399902179e-01
-7.080722303038239351e-01,-2.091569173197902920e+00,-1.685228759308055269e+00
-8.538032536339573708e-01,-1.191063974409143772e-01,-2.572365413652236477e+00
8.087530842540691101e-01,5.249984135197636181e-01,-2.112945997362870809e+00
-5.337459722876515267e-01,9.476324939293491179e-01,1.640227033698508752e+00
1.471157179353267397e+00,-2.329884865792762660e+00,-5.051399485159270286e-01
5.848654000750475035e-01,-1.484108218456044126e+00,1.576016771276826267e+00
-9.872219108494296735e-01,-1.607576700686268678e+00,-1.966973344549784342e+00
1.846848886698480297e-01,2.373126162370739589e+00,1.355326091116285658e+00
2.230263693938010050e+00,-1.528630586678448422e+00,1.131107816122950555e-01
1.977378512560860502e+00,-3.968487392645937972e-01,3.810455880366013792e-01
1.025553535879174527e+00,7.864026129265291321e-01,2.396842986473388670e+00
-2.295686113992027710e+00,8.878509105589498240e-01,3.088875734186248834e-01
4.301122041300460275e-01,-1.250369964653229360e+00,2.137991838782006049e+00
-8.608072935573404250e-01,9.420317749578156485e-01,-2.793112361791035170e+00
9.796163315452977027e-01,8.781833877053748516e-01,-2.208486083786350029e+00
2.355229834766065622e+00,3.280085614119352400e-01,-8.481520624218661375e-01
-1.450650939299703568e+00,-2.267652342331121229e+00,-9.914949446997008975e-01
-1.613542318574335610e+00,-4.683593942212967431e-01,-1.109928471279535644e+00
1.133388481020959349e+00,-2.079719285124969286e+00,6.045980881553125047e-02
1.347740352783403317e+00,-1.686486781439004101e+00,9.703629776811468766e-01
-7.539734855693068782e-01,1.842375758170854416e-01,-2.648027110349186142e+00
-2.346259131856205826e+00,-1.348281311664693893e+00,1.174862304766276067e+00
-1.464352778953622591e+00,1.189452528363104999e+00,1.169538733767110372e+00
2.507559344342928487e+00,-5.010534992822132105e-01,-9.186910536169117236e-01
-1.773491427798530307e-01,-6.035167086497542632e-01,-2.065299607994237174e+00
-2.312284299502915363e+00,-1.522575978136936348e+00,1.208253097845617630e+00
-1.887677527221192919e-01,-1.784948723223233502e+00,8.284933442762062450e-01
1.336337210124239450e+00,1.535266751122006390e+00,1.550737671094871484e+00
1.833616378367971533e+00,-1.359463198770276993e+00,1.069791422083815391e+00
2.033002430152270001e+00,-8.044995738138333019e-01,3.948725648382577780e-01
-1.387644867874429311e+00,1.005505586348681257e+00,-2.264454755870297209e+00
1.873675950010609048e+00,1.402378841663027176e+00,-1.604653712622746919e+00
-2.893776612504160850e-01,-1.162515688572214767e+00,2.253651356753980206e+00
-4.913245969474562547e-02,-9.516785113292827170e-01,2.674111764089112775e+00
-1.176928123918082658e+00,1.212096298873513112e+00,-2.223475951412772655e+00
7.817991458649052872e-01,-1.468658650823097878e+00,1.635282826312353333e+00
1.748675701209013722e+00,-2.812036031901718469e-01,9.615195547780788221e-01
-6.877358130184855201e-01,6.246183974129404515e-01,-2.841533289053830735e+00
1.590165334686506338e+00,-1.016795082997267841e+00,1.729805132677020074e+00
2.421430374074037495e+00,-1.739619771035718188e+00,-3.620277200332246426e-01
-1.784539076109227906e+00,7.404959789311480467e-01,-1.065701215693614534e+00
-3.893964513637743208e-01,-9.148951415065291748e-01,2.479220245399771372e+00
-6.834697928240522913e-01,2.221656429686348133e+00,1.046149280163990003e+00
1.220836510230411287e+00,4.237242308852261496e-01,2.100850044362118751e+00
-1.017637173474810863e+00,2.122657822052226972e+00,-3.811723395772120826e-02
2.257104768138902706e+00,-2.202786529892999834e+00,-4.242239052790154896e-01
2.253951581567363416e+00,-8.809041795532381869e-01,-1.221502930529703296e-01
-5.639277257714441216e-01,5.286559047847059212e-01,-2.744133496078383860e+00
8.497996408698440529e-01,1.986030855017955288e+00,1.817154152814182133e+00
-1.435088704840032259e+00,-1.731495453134008322e+00,8.710339535095368291e-01
-8.342242800320880391e-01,-2.014462963928093320e+00,7.531702034816367686e-02
-1.666547143902595174e+00,1.655822627359560539e-01,-1.254660415186797273e+00
7.840687951851748050e-01,-1.672098876115664545e+00,-1.260407163315648615e+00
-6.633273630878980427e-03,-1.838013028936603455e+00,-1.488027023745981170e+00
1.589838356684427412e+00,1.614326766497184762e+00,7.796050991653324935e-01
-3.390390691870531215e-01,7.977341201891799960e-01,1.786458621638878919e+00
1.555548658795977479e+00,1.330573713864858787e+00,-1.811336413084568830e+00
-2.846059040107480342e-01,-2.115822167228756712e+00,-1.497578327107513152e+00
-7.728376460149737337e-01,-9.146993600017346848e-01,2.298011851561432728e+00
7.021695936960805629e-01,2.080653364522017323e+00,1.679343496010476500e+00
-3.560634469346479758e-01,1.978604351057293265e+00,-2.443227153880378755e-01
-1.739146045899027104e+00,2.857456712657629461e-01,-9.830286844849823735e-01
-2.042505902634301318e+00,1.855281698774862376e+00,-7.107811186432090311e-01
-1.764728160288149938e+00,-6.058283568748540349e-01,-7.029045188355700358e-01
-1.788982410499998732e+00,-7.889750622524599466e-01,-4.580163065086328422e-01
-1.539673058354332769e+00,1.859198232373549420e+00,-7.479328561246639806e-01
4.689933271643416668e-01,-1.462893784468101810e+00,1.577702812108163766e+00
9.584943516277603104e-01,-9.613595976270682408e-01,2.904537566255608549e+00
1.863809954350626352e+00,-7.933574334199339217e-01,-1.140852334567407311e+00
-1.473215876588594764e+00,-7.706420409964459539e-01,-1.380633597234255605e+00
-1.902607972763264987e+00,-1.108227883792886503e+00,-1.601019467400831564e-01
1.387424729341256491e+00,1.768149959491679690e-01,1.850689926232793381e+00
-3.865604659260178377e-01,1.809168757859917376e+00,-7.298501232109414483e-01
1.990361059044691849e+00,-9.341527086663495849e-01,6.646298767037766009e-01
-1.467508200658308892e+00,-2.344073965664670300e+00,-6.879115524034381535e-01
5.185859047164190772e-01,-1.400780865127269292e+00,-1.475899773702495255e+00
1.581968248382988440e+00,1.089507693850092496e+00,-2.066699902203003703e+00
1.731202518176695238e+00,7.841193634547402036e-01,-1.893783411314563292e+00
-4.145007584792957389e-01,1.767813775800925191e-01,1.986901095682321206e+00
-4.359994409343962429e-01,-1.461468230422514170e+00,-1.799774932970183094e+00
1.880876832992380177e+00,-9.804819727266060880e-01,7.770420492678900004e-01
-1.404441348809341239e+00,-2.334434400554458833e+00,-1.176201779555643423e+00
1.240979458601636942e+00,-1.084483719932376466e+00,2.554877533810508972e+00
-1.671488819827469108e+00,-1.543479511502515056e+00,-6.047482014091273284e-01
5.844455704105016025e-01,-9.632428689025960278e-01,2.868435958472670411e+00
-3.963052705835439227e-01,1.873984928550442852e+00,1.324832077238774497e+00
-1.516397173294164791e+00,2.213660997147716358e+00,7.377032792553890328e-01
-2.188542822725287440e+00,8.867134076058366121e-01,8.251090316961548488e-02
-8.973355699914094263e-02,2.316756317704635304e+00,1.271068443800361214e+00
-1.696539334254320908e+00,1.279805753043708583e+00,-1.456780031267909337e+00
1.145946071424160106e-02,1.046840165338950079e+00,1.819254032018839506e+00
9.279836201761827441e-01,2.438852822307053803e-01,-1.997627553377252285e+00
-1.880227774724245071e+00,1.625709259739764045e-01,1.378110501414795852e+00
4.096782744390778941e-01,9.881465172893362237e-01,2.002876701530337922e+00
2.396614112631889615e+00,1.169576524817103724e+00,-1.284852843748127693e+00
1.054459147254546370e+00,2.436256266201218157e+00,8.489249754580283636e-01
-2.234157155548421425e+00,5.821952048486843390e-02,5.116033874526386693e-01
7.330110638726243799e-01,-1.115397370390741161e+00,2.599141458217188561e+00
9.782870506868582838e-01,2.417662896239585635e+00,9.139142115833052138e-01
1.855438298240616124e+00,-1.104670018117185126e+00,1.025881040032133207e+00
-2.465176639751696541e+00,-1.203422807805917705e+00,1.712644075244584174e+00
8.098225687686318175e-02,-1.824071870582596011e+00,6.804358981162779152e-01
-2.232338828758011040e+00,1.148560114700031054e+00,8.543770873451782544e-01
1.827483200608325919e+00,3.459735837050143675e-02,7.006174938982044909e-01
-2.154127709418903969e+00,-1.704560733564374431e+00,6.668901479350531902e-01
-1.390005878205968548e+00,-1.500563940822484676e+00,-1.484259884926052875e+00
-1.726199282410060487e+00,-2.886017379355144130e-01,1.677604698288687413e+00
-8.738528686414792634e-01,1.283699947255829032e+00,1.329748804935410034e+00
1.065621927464238894e+00,1.529813142352300481e+00,-1.342780630087700322e+00
-2.092950880054055940e+00,1.381253626126044409e+00,-5.021616354851197173e-01
-1.808832873600294988e+00,-1.729271688204337520e+00,-1.377850553162629221e-01
-2.223789970129630866e+00,-3.082203218646124565e-01,4.913256016502119405e-01
-2.339421074888020424e+00,-1.677289377177200169e-01,1.328227479277716672e+00
9.305778406969028582e-02,-6.993223511431064798e-01,-1.906815612014134853e+00
2.194037906909616087e+00,-1.753591452867551581e+00,2.606997422699274813e-01
1.108803803795016529e+00,-1.574569123355261002e+00,-1.119533610030849058e+00
-2.942918830540152131e-01,-1.190075987932176727e+00,2.165875425074222704e+00
1.902978271434188517e+00,-9.970482841150488662e-01,7.865914480728964930e-01
-1.860887079888481344e+00,-2.948701303092035042e-01,-6.164222823322131894e-01
-1.678114984345188132e+00,9.407622116730417483e-01,1.161489360265261173e+00
-2.271561160679001823e+00,1.166792723572165791e+00,9.591835558959915797e-02
-1.010279834558144740e+00,-6.705480356653285012e-01,-2.396504266237498015e+00
2.076692824128322012e+00,-1.452776837841805113e+00,-8.121047377701475778e-01
-1.327281656836565571e-01,-1.072263230291482961e+00,-1.877276397288273335e+00
-2.563140441402809999e-02,-2.053752240470460677e+00,-1.385835693680085301e+00
8.554182686818504466e-01,2.449940953767058893e+00,1.611123432668856825e+00
-2.417497225848983078e+00,8.065698183595158000e-01,6.121103661106190863e-01
3.743870900920003020e-02,1.374148730561027598e+00,-1.702970575033395884e+00
2.400129907469544133e+00,-1.903941163679783388e+00,-2.062648140808024944e-01
2.020291008116594789e+00,-4.202282013130415918e-03,-1.386413820811214670e+00
-7.010340972472026699e-01,-2.047043775355977591e+00,2.924954461704943123e-02
5.408728592416714998e-01,-1.216563722705736206e+00,2.239595143156842383e+00
-1.844588119681197513e+00,-1.602816141567272146e+00,1.131384655330002875e+00
-2.189482620843825167e+00,-1.359058889479308752e+00,1.743306973237845003e+00
-1.932157684618068805e+00,2.095955526090441001e+00,-3.258945947838894075e-02
-4.864310866844920866e-01,1.989026735433466753e+00,-1.760955690374736982e-01
2.453922959737163900e+00,9.948713901858535769e-01,-1.355419310696662327e+00
-4.870171339350635176e-01,1.477170642878465889e-01,1.994668719555106273e+00
7.359076505799139190e-01,-2.408887129948493744e+00,-9.771264522062235169e-01
1.348972310594936497e+00,1.118262886812143142e+00,-2.134281686372999864e+00
1.169207840601954373e+00,2.309711874413714838e+00,1.673349539862286628e+00
1.631909499020465892e+00,-2.041267136516518477e+00,2.856752183599857720e-01
-1.309111147301865508e+00,-5.534321506397201773e-01,-1.856640872983191137e+00
-9.575666016793185076e-01,-2.187110125094467783e+00,-2.199083471635468745e-01
-1.356464970851274598e+00,-2.180398535589451736e+00,-1.244333316847364257e+00
7.406897919469856983e-01,-2.206564601245392332e+00,-2.410019346176789645e-01
-1.184729543860641554e+00,-1.619069069122546223e+00,-1.920840813987329199e+00
1.177988856130598228e+00,-3.004672469608021812e-01,2.552272214078156853e+00
8.236027982101743472e-01,1.012669325996058856e+00,-2.317704380861735025e+00
5.093324309501964242e-01,-1.934315653665481083e+00,3.744286750063256508e-01
4.344572791825058733e-01,1.174331902745212153e+00,1.984322529212477759e+00
1.235654912214737999e+00,-1.911320589638620060e+00,-9.614874423241162038e-01
2.403046292140486262e+00,-4.333350447696682206e-01,-1.055282010362744050e+00
-1.202914330917325580e+00,-2.199039680307787847e+00,-1.607819134407652673e+00
1.578498572263337563e+00,1.185088461692196837e+00,-2.087237495504346896e+00
-9.602394527163668481e-02,2.191487917003979824e+00,1.912796278648580262e-01
8.827386490888300408e-01,-6.140352581168041501e-01,-1.591601222920707048e+00
2.571278287709894417e-01,2.000126581135762027e+00,1.548412946665198353e+00
1.421338458342414679e+00,-1.311254894252388059e+00,-1.159669341314937929e+00
9.077813164178135663e-01,2.525718454664772405e+00,1.105640008758666193e+00
-1.555110540555316723e+00,-1.233119877022647581e-01,1.672198589532043700e+00
7.196947873332472101e-01,-9.216954224404494411e-01,2.933279629195522098e+00
2.375036850033263480e+00,-1.503593628760685474e-01,-6.529603636596744698e-01
2.472350643435481832e+00,4.315691183077204340e-01,-1.367331113475861892e+00
1.874328432011548085e+00,9.132847288408332265e-01,3.789098925546566243e-01
2.039093603179626957e-01,-2.309494859880212858e-01,2.397520668966997004e+00
-2.119682105875224210e+00,-2.250247529389004797e-01,2.080935138900561754e-01
-1.790177395596361798e+00,1.835149440337398019e+00,7.720808482157275332e-01
1.308910165578361040e+00,-6.571920053014586038e-01,2.322875334049363971e+00
1.238753923145089697e+00,-1.471029214264171658e+00,-1.168000426765942512e+00
-1.398567864838079045e+00,-1.492090373010317661e+00,1.387447753413162843e+00
-5.155884984483638522e-01,-2.521651251542352146e+00,-1.151110797045379330e+00
-1.594747643113302082e+00,-1.672883449770637965e+00,-8.236560751073921383e-01
-1.685117150664452002e+00,6.711334088470677361e-01,-1.301316811600941703e+00
-1.543486304566719980e+00,-1.674713934996624909e+00,8.792680861586343877e-01
-1.701500968824577686e+00,1.507709752058088881e+00,-1.527249209243912276e+00
-1.268388124289706598e+00,-1.717429499854013608e+00,-1.656976750436038648e+00
