5.881941804994685885e-01,-3.071392121690269761e+00,1.273133786780761001e-01
-2.963601943704193165e+00,-1.035687671575257429e+00,1.781271369698810503e+00
1.197849102110136288e+00,2.720460715549845254e+00,2.841205623096617394e+00
1.185924587038305500e+00,2.934777131854549026e+00,-4.518649109554315202e-01
-2.204461356438436603e-01,-1.970111665568712866e-01,3.005581729312356565e+00
-1.713891635721836559e+00,-2.831376707468224119e+00,-4.475233904110869840e-03
1.433475644736276422e+00,-3.205096546542550051e+00,8.033084013029843096e-01
-3.545501259722456666e-01,-2.933589673422118071e+00,1.147863948060412920e+00
-2.253408391322694104e+00,3.177034304905740569e+00,3.064462703404101429e+00
3.291602118721880910e+00,-8.019122995654153208e-01,2.648230676642872705e+00
-6.735771755450872256e-01,-1.631050090485032689e+00,-2.928124398855550314e+00
3.569356659391225151e+00,2.378226812841843341e+00,2.588981866608583093e+00
-1.257081413909001411e+00,-3.003834285008696980e+00,-2.392418198467784141e+00
-2.615860562515007537e+00,1.323289905751724227e+00,2.249898719160826399e+00
-1.587370987850635684e+00,3.080401856305802877e+00,-2.861754666319361817e+00
-2.406865683340612794e+00,2.627141396723455813e+00,2.584036380466933291e+00
2.208835605300060179e-01,-3.069557980233506456e+00,-1.481393448789946943e+00
4.190896945368212667e-01,-2.728881251573695987e+00,3.015695582464214208e+00
-9.761959048862259847e-01,-2.964393942202895538e+00,-5.520319993033775408e-01
2.108406771875710017e+00,7.319229517145495745e-01,-3.322418231348674311e+00
1.393034119117226188e+00,-3.294609367844260728e+00,-2.348453527288860698e+00
8.803006696555872868e-01,4.541571628688196860e-01,-3.197044235190148687e+00
-2.565084547936426151e+00,2.969528907439393794e+00,1.151567812098171162e+00
1.080154976868212963e-01,-1.277148389794755978e+00,3.109673702082106139e+00
-2.651512874318615154e+00,8.973760793510210387e-01,-2.753926189042192441e+00
2.405666246514768236e+00,-3.050722725167528626e+00,-2.607316999595745255e+00
2.494912250831264000e+00,-3.335006145844091385e+00,6.359136407537626656e-01
-1.770095419439972728e+00,4.312133584351297566e-01,-2.839938034994724969e+00
-3.164054541501010842e+00,-2.654685796174486967e+00,1.429518921202668436e+00
-2.855935826918047482e+00,9.716494489936041701e-01,4.805036675886815156e-01
-2.640745392507037437e+00,3.347165120454653309e+00,-1.389601752330197337e+00
3.235124143854243073e+00,2.441830447502711110e-01,1.071987864204742458e+00
-1.986240402693719487e+00,3.351725097728830427e+00,1.834188282542168036e+00
-2.345303121526795209e+00,-2.763311707154226582e+00,7.445023777001005261e-01
1.505638174685301367e+00,-3.273402184197745424e+00,-1.904662019307212351e+00
2.964427106444182947e+00,-1.088715093030197117e-01,2.672633240796775222e+00
2.572943685835348049e+00,-3.368116300476181824e+00,-4.149475579947791148e-01
1.276993220660195716e+00,-3.291438630656231545e+00,-1.348751420234724163e+00
-2.831458061789678737e+00,-7.432253853868290294e-01,2.316698089462737364e+00
5.697665379631661198e-01,-3.015679887973270468e+00,2.699605792003234139e+00
1.860542119901818836e+00,-3.213292714028921360e+00,5.414916366066272468e-01
-6.335264532874892440e-01,-2.921519689667611885e+00,2.128329841589033933e+00
-3.080324268579304192e+00,-1.038771977564322491e+00,1.003314878325388682e+00
3.255086421503538663e+00,2.591590691616873166e+00,-7.988296840205216798e-01
3.380150041557856699e+00,2.273852301901300610e+00,4.645022095506600168e-01
1.611457867724093995e-01,-2.993193120911430860e+00,7.082010725747546198e-01
2.792738927667122617e+00,-3.095083721069970650e+00,1.461454983652476836e+00
-1.047208834899998164e+00,-2.898136109634433577e+00,1.890897911887921556e-01
2.939968967158411051e+00,8.133241845311312002e-01,-1.583194563789005915e+00
2.307726149758661194e+00,2.549451475914765730e+00,-3.377402497028517026e+00
-2.713342128991500068e+00,-2.350388657845696727e+00,-2.623463424176036174e+00
-1.668973458451048636e-02,-2.979569682547714038e+00,7.982590280493221391e-01
-3.341147820663191936e+00,-4.560913640124796276e-01,-2.607696314211656929e+00
2.360305471522268661e+00,-3.384725898446223180e+00,-2.682318052143448650e+00
-3.127314194437753159e+00,-7.073784356882550917e-01,4.986246673158104548e-01
3.008882637559343820e+00,1.179829473068656487e+00,-1.863062761185490857e+00
2.997714962062202559e+00,4.696999122197085264e-01,-1.348068154870016189e+00
1.314527855490770669e+00,2.860259589095167865e+00,-2.566629875296632335e+00
-4.571731358437600146e-01,-3.075375272999311793e+00,-2.202423251223352418e-01
3.475018652413116360e+00,2.052431055709220686e+00,1.410324691646029693e+00
-3.056484918579862042e-01,3.014940480657898103e+00,-1.424080050795651031e+00
3.577589827627894348e+00,1.386833532816284853e+00,2.432096527327713087e+00
3.471462333211498219e+00,2.420979289167580095e+00,8.602663493705093867e-01
-3.469253998215258150e+00,-1.098452857608936073e+00,-2.176474978405957827e+00
1.727539956760115736e+00,1.108719726388650795e+00,2.826471109473958521e+00
-8.374620167919524238e-01,-5.926885074038500401e-01,3.109971057889194146e+00
-3.908328437505875774e-01,3.069071786543136948e+00,3.051157864285459098e+00
2.932333730688965190e+00,2.636434979781072663e+00,-5.770510819090555188e-01
1.931457436789122850e+00,-3.332715021412171019e+00,-1.885994372826576448e+00
-1.302922182889971525e+00,1.736085625757360473e+00,-2.925732191454538889e+00
4.846955594704579484e-01,2.238878047857232600e-01,3.027420234152194745e+00
3.504446829673020236e-01,2.382906851215478294e+00,-3.151927384861059611e+00
-1.458275406555805898e+00,3.106923460648143731e+00,-2.586488484716679803e+00
3.551540749550544440e+00,1.787191592395806605e+00,2.289724159026040429e+00
-2.697656256184035595e+00,3.277767528355692850e+00,-1.586904696255879266e+00
3.315137291131274644e+00,2.609649458757904661e+00,-4.295256179846240231e-03
-2.884446968863646710e+00,1.069312836150956070e+00,1.027651233690230204e-01
3.044855140318944109e+00,2.281915145380492005e-01,-7.725455963718178172e-03
3.363186911939828327e+00,6.768839826781296587e-01,2.613612920855213240e+00
3.019112911238825081e+00,1.912510858930082658e-01,-7.834212439889741697e-01
-2.492562743920439861e+00,-1.567430730770874581e+00,-2.738322427521690638e+00
2.594014300768047732e-01,2.992090134561560255e+00,-4.642337794097117221e-01
-1.244652623969666916e+00,-6.697947460146471688e-01,3.247005830078603772e+00
3.967476925636145846e-01,3.053801625470668579e+00,2.346558527701144925e+00
8.246170799668446350e-01,-2.915403699728206455e+00,2.935057185049104955e+00
3.061679460376093065e+00,-2.748809938785913953e+00,2.523574342787179070e+00
-1.609046206993482109e+00,-2.769155073227008046e+00,2.107054134455439431e+00
5.111237920666410472e-01,2.962786344665625293e+00,1.038702361865507795e+00
-7.106338455564539247e-01,3.163301489902864194e+00,1.629362919628617679e+00
-1.834882316959217219e+00,-8.414948681768542604e-01,-2.766629988293965781e+00
2.051764583043263812e+00,-3.369583446513487957e+00,-1.964815738667000877e+00
-2.958069925371925368e+00,5.530000109531265640e-01,2.753492568190994416e-01
8.807687219827098346e-01,-1.403254311863539661e+00,2.986300375626224302e+00
2.496938018605578069e+00,-2.060944729208733506e+00,-2.729649534171274983e+00
-3.490258364404069003e+00,-2.382114631255748627e+00,-7.852791584122026380e-01
-3.376031865650520825e+00,-2.122803577602189851e+00,-7.977933377821119221e-01
-2.506654776660305561e+00,2.680434806291112082e+00,2.239219561962002114e+00
3.001204194751585508e+00,6.566315175602610577e-01,-9.926428401770108767e-01
7.994234094185962425e-01,-1.710231765806826232e+00,-3.086225740372547932e+00
-2.322256796073498109e+00,-2.781269718317472162e+00,-1.225477015953427173e+00
-1.344899706433799080e+00,3.169307805218302576e+00,-7.776526297829683410e-01
1.837827344533862872e+00,-3.145661605000177552e+00,-3.227019747964337881e+00
-2.901712343211523493e+00,2.524094437731462026e+00,-1.358716082274570081e+00
-2.577121848996782205e+00,3.164023566599904580e+00,5.717700065925958031e-01
-3.250014239037708474e+00,8.148818286456896987e-01,-2.220154612911430902e+00
3.170004452792802851e+00,2.682002392605427943e+00,1.759445141321292594e+00
-2.519228486533835465e+00,1.506754259498994886e+00,2.983392140273489979e+00
9.188016077754661559e-01,2.823629407143209313e+00,-2.455946018169739453e+00
3.337362217661787422e+00,1.169733172263740073e+00,2.654817127416614131e+00
2.021218519223006105e+00,-5.082156258514470837e-01,2.820356607829754836e+00
-3.071696137750702160e+00,7.555061210316211806e-01,-6.378986353468645287e-01
5.767373749156328167e-01,2.057277455027086699e+00,-3.094088649455860818e+00
3.296196508648137957e+00,1.557717880408044264e+00,6.971338732907735869e-01
2.639108706839973451e+00,1.111444678170153910e+00,-3.349422709013362809e+00
1.288848101650373223e+00,-2.964617311872809413e+00,2.959558451624304531e+00
-3.337616267061432662e+00,-1.317374315937604790e+00,-1.137846247940243583e+00
3.471412242993405339e+00,1.271618813770756029e+00,1.984796081166820825e+00
2.398635132717585439e+00,2.698585217102696721e+00,-1.570069696297543560e+00
1.138811193077278849e+00,2.951481133268793577e+00,2.063860309474256471e+00
1.901105891366448031e+00,1.489485199092589029e+00,2.796836317186417009e+00
3.069889700703304580e+00,-1.540334647261873080e+00,1.912501838769389728e+00
7.421966308544509783e-01,4.453466085558186460e-01,2.940411857284824571e+00
2.161629411493750208e+00,-2.206016158915558023e-01,-3.327405209078797999e+00
-1.064678991335475722e+00,-2.925673588075206943e+00,-1.075361525600861290e+00
2.397692794441695252e+00,9.678568507305022051e-01,-3.301387238080807585e+00
-9.599529676762289521e-01,-3.016329897781933500e+00,-1.592577448700857268e+00
2.382111741075676192e-01,-3.118835011458249262e+00,-1.266836689992570486e+00
-1.977970138571785164e+00,3.165107250744570333e+00,-2.255489829000272284e+00
-2.198222869663985168e+00,-2.347620594498171176e+00,3.280326453460509661e+00
-2.667352194209394067e+00,-1.054696484700580195e+00,3.306482178471482847e+00
-2.768574686496299453e+00,-1.177085030530089643e-01,2.441098942755414836e+00
1.864348796471928305e+00,-3.311890161240596875e+00,-3.882819539440721668e-01
-6.629966654385777147e-01,3.003047700107821960e+00,-2.062251437955612499e+00
-2.584588788801545522e+00,9.934362121399125112e-01,3.109949998467318011e+00
2.799144738026354773e+00,3.762806334368721806e-01,-2.351224819184821069e+00
-7.075285645029183446e-01,1.400874798558087830e+00,-3.001589310407796418e+00
-2.210915705929691555e+00,3.269971420462619349e+00,-9.383207682353020829e-01
-8.211749265461594227e-01,-2.839686310213728415e+00,2.525304442866894039e+00
5.838493056796402181e-01,-3.015498182519861015e+00,-3.060337896789214973e+00
7.630374202466594369e-01,1.970315824413557682e-01,-3.109398593335386707e+00
-8.920686780211489753e-01,1.460498827057862825e-01,3.186123231624524266e+00
-3.083665644471171863e+00,-1.340233880523152843e+00,1.386722895777918296e+00
8.994393861946021751e-01,-3.086963964077330758e+00,5.482531206328717932e-01
3.521807018130241218e+00,2.604060228595968418e+00,9.376947483354376445e-01
2.039876686441690179e+00,-3.333664141399937719e+00,-2.171564321337715153e+00
-3.033236725667729949e+00,1.909444537474533021e+00,-1.665519204851489299e+00
3.013769926331808513e+00,2.326599640096926436e+00,-2.783600156956087091e+00
-7.742681067255832161e-01,-2.105015067168576781e+00,3.159957434504540696e+00
1.462589369013769444e-02,-3.022557645675777671e+00,5.700053178152568456e-02
-8.148300186325496686e-01,-2.908705975474959349e+00,1.087184061649246747e+00
-2.198226139431826542e+00,-1.286143158044830814e+00,3.314142747779737164e+00
3.268111991867572286e+00,1.099000291375070271e+00,5.918181101110684406e-01
-2.925343515982474774e+00,5.052833171282653524e-01,-2.710781880531024424e+00
6.397729681461609141e-01,-3.167492576792145798e+00,-1.124412184484742561e+00
-2.694708472215593620e+00,1.998689740250848557e+00,1.475397998841855296e+00
-1.089172010193476980e+00,3.099193336055777070e+00,-2.566156794873354130e+00
-3.154578654877095545e+00,8.517969054820675456e-01,-1.682269344636992958e+00
1.355913524504794410e+00,-2.294271871910901872e+00,-3.185823319530428410e+00
-2.666234238377563237e+00,2.478898062896362386e+00,6.592686020318434537e-01
-2.705073921698270656e+00,8.719092041476982358e-01,2.335909170017807845e+00
2.534533112999080462e+00,2.368893523764733722e+00,-3.343463145925009705e+00
-2.582566273592239892e+00,2.998178797860488576e+00,9.774444701734462670e-01
-1.463772390467452222e+00,2.221305496867487683e+00,3.163367164785014118e+00
2.866305015922923971e+00,-1.265648197320899504e+00,-3.778319540213241901e-01
1.840687937458417078e+00,2.782611892746910343e+00,-1.733330767496316538e+00
-3.358358729003425580e+00,-1.087222358048169912e+00,-1.368986361439203936e+00
3.317713617112758584e+00,2.661297283114034240e+00,-1.276849482502807054e-01
-2.555952493741127540e+00,2.667426281087526441e+00,1.625313214006592011e+00
-4.798199435434084004e-01,3.045890887847882755e+00,-1.878337397827265276e+00
2.445730992318357444e+00,-2.539845943140995210e+00,-1.918490511656764097e+00
2.194197586733278360e+00,2.820139321120792353e+00,1.716058345398029150e+00
-1.451349812955098351e+00,3.196050791202889929e+00,4.833031725162171832e-01
-2.338174238983614206e+00,-2.777457957035504243e+00,-1.553420675939845896e+00
1.681078908393887961e+00,2.118577825034755779e+00,2.816755165185089282e+00
-2.131910289865623476e+00,-2.821793959111923211e+00,-2.224797641980852170e+00
2.949652819794278624e+00,-9.181717884245503836e-01,1.816973206384370765e-01
3.166974025169502771e-01,-2.785178129506160616e+00,-3.002045083131693826e+00
-8.757360451517798294e-01,-1.538787818662448625e+00,3.174522650268439161e+00
-2.453237865191491895e+00,-1.678137136187161316e+00,-2.728768465737140048e+00
5.208193464789960814e-01,-3.065564987739473501e+00,-4.031792368959455364e-01
-3.267634721206587933e+00,-2.345740361800512375e+00,-2.565373398707631925e+00
2.877764165726207857e+00,2.653267899547196329e+00,-1.831181438899398328e+00
-4.488153258594775874e-01,2.966154203134362621e+00,-2.323472722657539347e+00
3.240114897156542995e-01,3.092533395044271050e+00,2.710322291097088332e+00
2.011025308721421379e+00,2.829579261776296928e+00,1.610916449382929327e+00
3.542776447416540186e+00,2.062974670743171757e+00,2.123825813361449377e+00
-2.427173959916094859e+00,-2.769010657089113092e+00,-6.026934891792806726e-01
3.263285535551887051e+00,1.150066655758295697e+00,7.072926778106732870e-01
2.173144044615984427e+00,2.770201273971321765e+00,4.931377507581096165e-01
2.297464805963053802e+00,5.481979271159754807e-01,-3.333031284854433896e+00
3.083823878394315710e+00,-2.863165119876073805e-01,6.803855241593501635e-01
-5.003103878563033291e-01,1.153790488590261898e+00,-3.007984124449532448e+00
2.718527383625505056e+00,-1.792939230732806921e+00,-8.303461731034285087e-01
-1.951984991406406356e-01,-5.613045194282155759e-01,3.101661534376801921e+00
-3.007346988847728664e+00,1.691597791319333410e+00,-1.457376089390457707e+00
2.705273122525190255e-01,3.045911607398584131e+00,7.341380154251903045e-01
2.442314908118259353e+00,-2.336362017530587032e+00,-2.380378038777639205e+00
-2.472185905509518555e+00,-2.762304984474451164e+00,3.216930757377203798e-01
1.290719605942592496e+00,-3.188631511746948366e+00,5.468167494265850914e-01
4.324263164879259547e-01,2.952504171914738240e+00,-3.990640240616308287e-01
2.462984561670647221e-01,1.800713757225056999e-01,-3.073685666164223562e+00
-3.098302241198885199e+00,-1.335008426726263853e+00,9.859565563591303761e-01
-5.682655247526368081e-01,9.770703698236479218e-01,3.119183844773143033e+00
-5.147443914894238304e-03,-1.701794936735374908e-01,2.981155396605896790e+00
1.772664981033815090e+00,2.814695727632481770e+00,6.693160444410931609e-01
-3.337237062564905266e+00,-9.385659207792955705e-01,-1.537937000225276130e+00
4.400803177056815119e-01,-3.100019731299819448e+00,5.984963108065115556e-01
2.156747064984248230e-01,-3.066271819020356837e+00,-4.798694271439130771e-02
-3.102517639498651114e+00,8.452391645549240939e-01,-6.819840809121319181e-01
-1.770348215770169542e+00,-2.749577276912825496e+00,1.521411320059345540e+00
1.099053903220701622e+00,-3.236644338971788049e+00,-1.168005980901139162e+00
-3.435255660954697809e+00,-1.369506601048847028e+00,-1.724739709486113881e+00
-1.491326283282997656e+00,-1.338057945808009297e+00,3.258822691676376060e+00
-3.540538580027726479e+00,-2.697884582507051210e+00,-2.312777978653959288e+00
2.806599448943144282e+00,-3.109908370226027730e-01,-1.666092159519519056e+00
-2.044684275467530954e-01,-1.190158449183190692e+00,3.116120985362190510e+00
-5.234407632784877640e-01,2.322266949774108191e+00,3.103278794767291515e+00
-2.298472262958725310e+00,3.383738378198342556e+00,1.934313435199954911e+00
-3.223673101512210426e+00,5.021473702955130403e-01,-2.041819756447496026e+00
-2.610724316344582796e+00,1.141724653051537919e+00,2.738682991623042629e+00
-8.450012926020268600e-02,3.002396519018176946e+00,2.950064524834539625e+00
1.847910531398968104e+00,-8.883105214712937181e-02,2.839528788789805525e+00
-5.173235863137804619e-02,6.802741726304724068e-01,2.994095833924922179e+00
2.798947204914454367e+00,-1.673675248956558281e+00,-5.980558349076560143e-01
-1.697883924813986978e+00,2.347393686802338453e-01,3.277993511485265632e+00
-1.124888138874540422e+00,-2.765313842403614775e+00,3.094361848224953970e+00
2.989599481845358397e+00,2.702285968739631894e+00,8.824658244239114158e-01
1.672881961157565156e+00,-3.353575445460725390e+00,-2.932477805866855469e+00
-1.321198709600415855e+00,3.267596154946123654e+00,1.459660341462625022e+00
-2.851630944024190040e+00,2.554287617947455846e+00,-2.729147900447312924e+00
2.384949930895923220e+00,2.690281074124896588e+00,-1.777591477348786864e+00
2.962431620968695167e+00,1.016946137936481476e+00,-1.647360536556450539e+00
3.234115463595873763e+00,5.057167794042713993e-01,1.136905013863778180e+00
-2.327138852626789767e+00,1.628288781230107451e+00,3.296947460689170217e+00
3.109201887887694582e+00,5.227337526748030427e-01,5.989180361930882546e-01
-5.784436229033469434e-01,3.003532059282301603e+00,3.038296652284478316e+00
2.825057344072471555e+00,-3.200673958177005396e+00,1.321171213205734274e+00
5.424639613185398002e-01,7.314394799621773968e-01,2.958278535598495740e+00
4.436060147139893051e-01,-9.589576750430274243e-01,-3.103095589093381346e+00
-2.695149581042192821e+00,2.010231118862505717e+00,1.225717224449438980e+00
-8.128198902235750367e-01,3.125209901185715733e+00,-9.494217885519844191e-02
2.727961238685740142e+00,-3.333190826548211305e+00,1.187301219524349749e+00
-3.448241072032057986e+00,-2.670255010144764185e+00,-1.116361084618384680e+00
-3.445889522014864426e-01,-2.986511546517834237e+00,-2.923317680176034106e+00
3.148353499378974352e+00,2.717459298876600204e+00,2.373997090601034810e+00
2.199367446359470790e+00,-1.864797551230150896e+00,2.773192894550997156e+00
1.454359868559176983e+00,2.129604831725424585e+00,-3.251751349637878707e+00
-3.609510029516616036e+00,-2.160874047942773490e+00,-2.553392226582352098e+00
1.756499651330723832e+00,-5.612078980388816030e-01,2.847840375182429717e+00
2.120961460732491588e+00,1.324643695603476390e+00,-3.281234566316624246e+00
-3.111821422074022792e+00,1.208219322429659459e-01,-7.153716905880913579e-01
3.209446726800695426e+00,2.530564715238139972e-01,1.212508451020888334e+00
-1.658993279580092572e+00,3.232303963835901239e+00,2.306468635568652836e-01
-2.205274534136010267e+00,3.367433421454574916e+00,2.332018527539703623e+00
-2.887691158627214705e+00,-9.762727529669769089e-01,2.386410827463221640e+00
-1.713185561740760532e+00,2.985783827865127638e+00,-2.851564779933171589e+00
1.554663034563795065e+00,-9.956729005708785385e-01,-3.201306933052196602e+00
-2.004170157843933264e+00,3.283861491210668504e+00,-2.143201197485396836e+00
-3.256116297322876996e+00,1.504634457552523619e-01,-1.632693552954789462e+00
2.937497491926017723e+00,-2.588758050811512224e+00,1.735772647999145102e+00
-1.678941391783325798e+00,2.301476228353652953e+00,-2.862801810770167155e+00
-2.752090085336047043e+00,-4.335839019853373610e-01,3.219217727030577070e+00
1.708262121497194252e+00,-3.141879740059665860e+00,2.865246672041581455e+00
1.647247296896095170e+00,2.873959271037963781e+00,1.304278498873456815e+00
-1.634342826103427182e+00,-2.652941216411313974e+00,-2.802737894610213054e+00
2.618129240548169534e+00,-1.363141632200854048e+00,-2.024318835593155619e+00
3.514084119577611798e+00,1.948665895307678086e+00,2.564150190804321383e+00
3.112674122491770667e+00,7.414345758609395265e-01,-5.651974120707583538e-01
3.586060689228726339e+00,2.647592671865536040e+00,1.348431967438805446e+00
1.772324556464290879e+00,-1.491985789818842667e+00,-3.198895755831451915e+00
-1.752019596824975434e+00,3.217825570839930815e+00,-4.659848391785054722e-01
-3.219077394355740029e+00,-5.178978516938695931e-01,-6.264634161634973220e-01
-1.611228022986391784e+00,1.934214447503428413e+00,-2.888567881401769899e+00
-2.038113304323127206e+00,-2.849053008755002558e+00,-1.267602418317953727e+00
-1.861961996467358826e+00,3.155179127156049645e+00,-2.557117073867291701e+00
-2.506949620272188373e+00,-2.729950140196945263e+00,9.144890260038532892e-01
-8.317440060155099069e-01,2.744201947251655671e+00,-2.987002029343013731e+00
-1.250480791762428101e+00,-2.930399926075886619e+00,-1.252657674776405550e+00
-9.168396130046094772e-01,2.269991135968846940e+00,3.102829391385281799e+00
-2.752443454428952219e+00,-2.561820674436520395e+00,3.099115857192976886e+00
-2.649425988697182710e+00,-2.586992056712828614e+00,3.191448817264357363e+00
-1.268390144315315160e+00,3.211312869326589325e+00,1.047322167472838628e-01
3.175909106501803247e+00,1.121344740035906229e+00,-6.565251566613824474e-01
2.556319234699804266e+00,-2.997173602126414593e+00,-8.916568258365563659e-01
-1.111355600764166729e+00,-2.958173535753171102e+00,-6.622818628608193592e-01
5.370149578132623613e-01,3.048893003192451268e+00,2.302319184259752127e+00
-2.856869658579803684e+00,8.276760244647188847e-01,6.075453890052582295e-01
-3.115562413439008083e+00,-2.634722111644761000e+00,1.323039397930781291e+00
6.375121426967668148e-01,1.239476781762353763e+00,-3.137810012875197785e+00
2.929680217195087977e+00,-2.370557449822197960e+00,1.641022585970910663e+00
-3.281303984365990356e+00,-2.717074647063016712e+00,-2.208214064521006215e+00
-3.140590915888473944e+00,-1.196465258835026191e+00,6.645284790672594255e-01
2.647695894172733322e+00,-2.102722163272940925e+00,-9.552609712499174899e-01
7.471300494914170365e-01,2.712540898048856786e+00,-3.172986892100278844e+00
3.361766335397555316e+00,2.612140673807092028e+00,-4.193891606159621532e-01
2.740867684334995058e+00,-3.328698490017371059e-01,-2.390665176578834483e+00
-2.785156735087849889e+00,-2.751888849798167946e+00,-1.680731008526775705e-01
1.123189988844772058e+00,-8.373101656388892700e-01,2.906763383924661159e+00
-1.638304906105400027e+00,3.211672314540621631e+00,-6.988270024625644616e-01
2.997805615601197182e+00,1.263810992569205816e+00,-2.113115876892734057e+00
3.229561365602137801e+00,1.219394570818759238e+00,-1.886960747280858053e-02
2.962187412922430152e-01,3.013841110721132477e+00,-6.350054474175562680e-01
-3.259400668625711539e+00,4.216180162754815663e-01,-2.076044452267307161e+00
2.837893601958108025e+00,-2.195384612969432769e+00,2.587754627068910573e-01
-3.032736729315657520e+00,1.501152794472838670e+00,-1.666120382573780478e+00
1.190110173956417496e-03,-3.036190941803720289e+00,-1.619049639737986990e+00
1.550780106460767804e+00,5.556920216564492643e-01,-3.211598393523621642e+00
1.276614251420756130e+00,-2.479216333911492764e+00,2.946362773680021085e+00
-6.163976298696649536e-01,-2.277605966932500170e+00,-2.897195865370458367e+00
-3.138392650874285206e+00,-9.087404976634589904e-01,1.335877546352428336e-01
1.535915131236844644e+00,2.889722670296763773e+00,1.185135595726579671e-01
6.735235419486697017e-01,1.619678739737168582e+00,-3.142638613146526261e+00
1.985996482203959079e+00,-3.242916931784574519e+00,6.202704757822838921e-01
2.216690933300509148e+00,1.586587188729801090e-01,2.765841390077997008e+00
2.736243317227392780e+00,1.406708991713823131e-01,-3.074279874007475932e+00
-2.958715703459906532e+00,-6.425709537835365692e-01,4.832216211449336107e-01
-1.605934496339634920e+00,-2.749341925810912191e+00,-2.832869032825807043e+00
3.361097038048707297e+00,9.187641019743907067e-02,2.627389286430737769e+00
-1.816153493321012169e+00,3.320147387780858494e+00,2.117442741972373366e+00
1.342526421555852334e+00,-3.113271435520077457e+00,2.000621431167556530e+00
2.733106600610606396e+00,-2.325083090844548284e-01,-2.567997425694932723e+00
4.471670010940818618e-01,3.086667729444791508e+00,2.443340528426896086e+00
-4.340085483114645704e-01,3.113288014966113959e+00,1.444980470659056049e-01
3.377141189451503767e+00,2.601428583224183022e+00,2.159105495798038232e-01
2.018693402409472260e+00,-6.378328835016957576e-01,-3.245452922781861815e+00
3.106946928074586722e+00,-2.182690034038923255e+00,2.666267938274934579e+00
-1.015149383998367183e+00,4.631007890517277459e-01,3.183015532623758137e+00
1.403366757611730131e+00,2.744653438419490943e+00,-1.518463991301453486e+00
-7.748831206067058330e-01,-3.010326230422142757e+00,-2.037059724046664133e+00
7.045689105077750369e-01,-1.527534155757806822e+00,-3.062009851301586760e+00
4.038699926387634420e-01,-3.170446139574004452e+00,-2.141391728495884994e+00
-2.457612147738844399e+00,1.765317593469250435e+00,3.257993270454483614e+00
-3.052566342209054984e+00,-7.956455730506862833e-01,8.411215220443289953e-01
-3.085742473161776189e+00,-1.833137108170764362e+00,1.470921579541969892e+00
2.926655693392776314e+00,-5.845109377040060838e-01,-3.596362147856979607e-01
1.881721083160296515e-01,-1.288613314670753240e+00,3.022067256169167493e+00
3.326440885829234695e+00,2.487926184029971566e+00,-2.720718653696908018e-01
-1.207251662707135909e+00,-7.934712328613330312e-01,3.207895557337321790e+00
2.819942289460272367e+00,-1.229086130363843843e+00,-4.199320447537209788e-01
1.446380157707714220e+00,1.205438502998818162e+00,-3.225710411308153613e+00
-2.682477626747335808e+00,2.534942812072432439e+00,5.434282998261514841e-01
1.684062371097828414e+00,2.297674793363740697e+00,-3.280194212750913607e+00
-2.762457287097062508e+00,-2.149757344479111154e+00,3.422428986050515043e+00
3.124254164430255720e+00,1.298771823387889546e+00,-6.097937292780404306e-01
3.265824709993276898e+00,5.209491717202885397e-01,1.096824247286919629e+00
2.777835220074108324e+00,-3.311083959974304491e+00,2.437300892447230805e+00
-1.755116984801464497e+00,-2.851432685940153533e+00,-1.090291173712536338e-01
1.049963224021485342e+00,2.732252251781293939e+00,-3.233653371492798190e+00
-2.994076221570199259e+00,2.362533961549326378e+00,-2.745155628002499792e+00
-1.101603405568360783e+00,3.204372141450650968e+00,1.420250035721025927e+00
-9.888709605945171788e-01,3.156867858673025218e+00,-8.996444833598484792e-01
2.434625694910991012e+00,-2.345834841311294383e+00,-3.131837258571369631e+00
-1.847904076564246045e+00,3.329753233189325368e+00,2.610950561470105846e+00
3.320178462604534086e+00,2.176177523857934393e+00,-1.824107714942647673e-01
-2.408870484414679325e+00,3.739141642544470123e-01,-2.769691619502482105e+00
-3.012111467810809184e+00,-2.481616796384728207e+00,2.876965402803412619e+00
7.337130473735349323e-01,-2.747021406452921255e+00,-3.060222391295817967e+00
-9.906359292354346424e-01,-1.685119404798259168e+00,-2.922791838604773762e+00
-2.788310922063218733e+00,2.497774691347694809e+00,-7.320560990272824420e-02
-1.319242843106204877e+00,2.869159240026124991e+00,3.114218708504167044e+00
-2.318607716930572771e+00,3.194522987688579452e+00,3.012266930892880445e+00
2.784502066571043599e+00,8.523944899677653869e-03,-2.014995309727397821e+00
1.029052389555669134e+00,8.535806529432802270e-01,-3.178954550848421601e+00
2.177415492129468610e+00,1.278219707845023256e+00,-3.272132519719142429e+00
-3.333935693461260286e+00,-2.047950739355649752e+00,-4.541090613505812112e-01
5.368260675831296735e-01,-1.640107479805907431e+00,-3.067165153433918601e+00
-3.388124166096584400e+00,-1.742461527349927319e+00,-9.170132937086620251e-01
3.266448724459819708e+00,-5.697773148689642131e-01,2.638168164226255108e+00
2.088209917862156040e+00,-3.259706093081534917e+00,9.949268663258106216e-01
-2.887068442129624213e+00,8.484539126105069551e-01,7.041423282319684285e-01
-1.054073479598192753e+00,1.993473467839428137e+00,3.079304341954608226e+00
2.762889759647213062e+00,-3.320709146867004691e+00,1.345646794636345511e+00
3.445862656176073457e+00,2.616728714808897571e+00,6.632246053127721641e-01
3.107518979035278406e+00,-1.572800174832670095e+00,2.334278220721726527e+00
-2.514365998255972734e+00,-2.830307665463832834e+00,-2.234404597979702700e+00
-2.228106918547600124e+00,3.241275931461255588e+00,-8.986763075291782643e-01
1.341419014818890476e+00,-2.412236131010117912e+00,-3.153719116596780836e+00
2.512843000250193359e+00,-2.667853153578104486e+00,-1.957158000748386417e+00
-6.171401938655998176e-01,5.425202499902145870e-02,-2.982868610037761492e+00
6.864393967149090559e-01,2.872844977212772211e+00,-1.690972476879889941e+00
4.851276069679733571e-01,3.071324057991733358e+00,2.245312286847433114e+00
2.888874640594014595e-02,-3.122087261714532325e+00,-1.829230646648556169e+00
3.888992964552803744e-02,-3.180208715560796318e+00,-2.294598383098542360e+00
2.350615132285683639e+00,-3.327294002086433444e+00,-8.823173284028776875e-01
-3.120577477775130060e+00,-2.607438384760643491e+00,1.501211275889833496e+00
2.663956798107758761e+00,-1.594957135613790378e+00,-1.552020891665415903e+00
-1.203924182124486819e+00,3.290904434112089660e+00,2.954915228618030021e+00
9.834765644475987889e-01,-2.629036950630612157e+00,-3.132866998744548770e+00
2.928159150557309243e+00,1.514840260248623949e+00,-2.547234746054117593e+00
-2.827527443153815767e+00,3.341284475146720112e+00,-1.635199508089317799e+00
4.811081451350853189e-01,-3.147518677102484119e+00,-3.010086254430630603e+00
3.067640710993077668e+00,1.999434891714890972e+00,-1.892290049369836025e+00
-3.614651580859443936e+00,-2.229752389665197843e+00,-2.343452773444866022e+00
-3.072946730854626551e+00,-1.582059057058085694e+00,1.953013955180634031e+00
3.579171973899915482e+00,2.458132779772402188e+00,1.588521544079637415e+00
-3.156020438052785426e+00,-2.664514335776243303e+00,-4.981744380199427252e-02
6.698348995904188641e-01,2.980636306511262212e+00,2.478991026303836165e-01
1.077228584015114787e+00,2.439045123981885332e+00,-3.234223090371605824e+00
3.054760654861721214e+00,-6.601950317718702221e-01,9.282123483187282309e-01
-9.671097054690902528e-01,3.214380271882918638e+00,1.162032592212299376e+00
2.061027767890039719e+00,2.729585144554320664e+00,-2.889052364162275843e+00
2.777064134412884577e+00,-1.860416695021101852e+00,-6.547981708431198644e-01
1.788746228784646175e-01,1.226971374787542590e+00,-3.065639353223997166e+00
-3.371711713975561686e+00,-1.549823265824223917e-01,-2.070182391030474189e+00
-2.235419563390649511e+00,-2.225578379161228693e+00,3.335528479010957614e+00
5.638134835381409388e-02,-4.079997016744233568e-02,-3.038032255332999032e+00
-4.228241845380020236e-01,-2.855321083075250232e+00,2.874269016615418337e+00
1.729216475163554367e+00,-3.287465179966604811e+00,-2.050069710143970880e+00
4.735185310711674256e-01,-3.059304681078033550e+00,5.827511257333788386e-01
1.917619593822811552e+00,6.749137140313982153e-01,-3.227660973455765969e+00
1.806312910309731956e+00,-3.256766581093100577e+00,-4.519418593264570849e-01
-1.375114789548401939e+00,1.706663496390464996e+00,3.141300203725877704e+00
-2.724338737354453421e+00,9.666101594807775532e-01,1.518418868126900856e+00
2.603400063991770264e+00,-3.116312245658311664e+00,-5.446522266381608190e-01
2.518640609111590489e+00,-1.614650505802956548e+00,-2.959745786425663105e+00
2.676583688220980140e+00,-2.590234386126437638e+00,-7.573834027514901868e-01
6.029380096500930319e-01,1.948765117533211244e+00,2.893845580442924614e+00
2.998189645658029701e+00,-1.826427840420287829e+00,1.305909458489894703e+00
5.433493016991473024e-01,-3.041354421608420733e+00,2.078595743410176500e+00
2.587812257722643672e+00,-2.196473062506012486e+00,-2.172303540410851053e+00
6.713958850914131249e-01,-9.715596984426817795e-02,-3.070909348421330787e+00
-1.154304281316157921e+00,-2.624744813705556457e+00,-2.863045761738973294e+00
-1.199757576834932671e+00,-1.616532580063713809e+00,-2.826000534560405342e+00
3.155918035377786257e+00,2.735821484860664121e+00,1.667104327895600591e+00
3.138110764027846500e+00,3.260932768207582821e-01,5.687450430006190105e-01
1.585215517140368346e+00,2.685861190226502826e-01,2.884472637619281521e+00
2.491533648530091405e+00,-6.138217999918811341e-01,2.726460409555520048e+00
-1.173381636484456120e-01,-2.625642258458367628e+00,-2.956804475204478422e+00
1.007201148478930497e+00,-1.599259446864494727e+00,2.947250896014618426e+00
-2.220628535413715188e+00,3.213526481438249593e+00,-2.253235441449950471e+00
-2.380790715057124363e+00,-2.790971811300180239e+00,-4.297941276248501419e-01
-1.056556001119105304e+00,-1.290217318366947641e+00,-2.819942300178017724e+00
3.981167697679644513e-01,-3.085718484475037382e+00,3.157015511857456658e-01
1.217347620236349792e+00,-3.183530101500447351e+00,-4.219721967891110759e-01
2.180822130482716961e-02,-6.705120662060236603e-01,-2.991306108989502111e+00
2.898606342098400290e+00,-4.862319568810982706e-01,-9.048137799326538833e-01
-2.099930436689999347e+00,-2.665481625960620882e+00,2.600702287021543491e+00
-6.548797118760837366e-01,-2.985286261772299721e+00,6.441081161444460745e-01
-1.831980224859137696e+00,3.231705627099763944e+00,-1.893188101674636581e+00
3.467006117786633368e+00,2.641189562620884779e+00,7.373097973911537650e-01
-3.217685319700880342e+00,-2.353984974629414140e+00,1.215913554275033004e+00
6.270883664833688531e-01,2.910674875696844133e+00,-2.713739532001182009e-01
3.201797388324961080e+00,-1.177547618946485741e+00,2.279425731782895426e+00
2.763681584897083710e+00,-2.075586849181846105e+00,-4.269894045627007362e-01
3.255635324295782063e+00,2.664388168080975561e+00,-1.073765764632674369e+00
4.053917203802525626e-01,-3.121059214371715296e+00,2.210862988220496372e-01
-2.076728370859827200e-01,3.052123018711881741e+00,-1.109194706228912475e+00
-1.962429038361404032e+00,-2.852721605155878137e+00,-1.244874252532110592e+00
-3.019072306052633881e+00,8.800035090352066325e-01,-5.248433065306643552e-01
-9.691756461654817967e-01,3.122643375522824005e+00,-2.052325093037046244e+00
3.107310462363143677e-01,7.118628178597022904e-01,3.018121568440006453e+00
-2.549578676228349661e+00,8.014298563889020732e-01,3.181606604737988508e+00
-3.184246292328403616e+00,-1.981419659405318168e+00,8.602762417085160207e-01
-3.524402901707352598e+00,-2.417061011456859809e+00,-1.525681807896356768e+00
2.728940190568717727e-01,3.011683691221445081e+00,-4.365931964962629919e-02
-1.753709169861821682e+00,-2.451359947949689921e+00,-2.743650195529246716e+00
-2.067345052337194122e+00,3.168829553781213004e+00,-1.796985364791154893e+00
2.044368402487893935e-02,1.530204319119325751e+00,-3.093077212403256837e+00
1.448253809050049412e+00,2.799413781328279782e+00,-3.163622921594154480e+00
2.625709918314481639e-01,-2.964141689708528649e+00,2.975690251230678207e+00
1.952115735484696302e+00,2.770015858818674293e+00,-2.290680048755613096e-01
-1.858625521631330102e+00,3.299456617491277388e+00,1.081111418278540404e+00
2.782908583823090254e+00,1.765163144294260578e+00,2.712338300527727508e+00
1.668995563974294383e+00,-3.154460798712602543e+00,2.633307003985829287e+00
-1.816241362275062388e+00,-2.711573642545217933e+00,2.588399072845935844e+00
7.142834082289863107e-02,3.073770514229047901e+00,-5.890353274476138878e-01
6.073378531965306637e-01,3.046379132932433897e+00,2.446859313277484294e+00
2.812343405647376393e+00,9.144218773661558775e-01,-3.184014623984428027e+00
3.017422807262109541e-01,-2.483028084699677951e+00,3.047174647001474668e+00
1.540166467782200899e+00,-3.210208658366063172e+00,-2.684987771175083360e+00
6.697890532674071196e-01,2.747915750996331674e+00,-3.123560998054698779e+00
2.621363979591456062e+00,-2.337632650314483307e+00,-5.978167158724317920e-01
-2.105099905314336439e+00,-2.305950468329749370e+00,3.372549996501094771e+00
2.825019477866096196e+00,-1.563969390057888820e+00,-5.017684822083708779e-02
-4.869077905865517031e-01,-2.890963987362246690e-01,3.084905079050514587e+00
1.153569992144470424e+00,2.036737472604704724e+00,-3.187183725296347081e+00
-4.360987609047622393e-01,-4.363845386702115969e-01,-2.956120646757184556e+00
-2.348336400941902546e+00,1.445235804794981371e+00,-2.753942912295113565e+00
-1.699233933344195480e+00,3.260566995981245775e+00,1.455994180381285696e+00
3.187254577732155703e+00,1.885652407942034037e+00,-6.952741672370430503e-01
1.274330618851295283e+00,8.067886384886631124e-01,-3.244726132538579222e+00
-1.591229820293808217e+00,4.519908528143720128e-01,3.212046927122596873e+00
-3.068249293568512837e+00,-1.144565854130757510e+00,1.183611669135858913e+00
-2.318789452517028504e+00,-2.004321608394026732e+00,-2.688828980512217637e+00
-2.900677150592815501e+00,1.190657089277805447e+00,3.388999968554935460e-01
-3.384668877944100540e+00,-8.912979053352225733e-01,-2.573228844658583370e+00
2.249281771003371677e+00,2.047541491382045553e+00,-3.328296291424382325e+00
-3.437448706251991393e+00,-2.449099407712758136e+00,-5.648465516153986510e-01
3.360331715769478755e+00,9.892832882015775153e-01,1.856587316944793065e+00
-2.997842775922018532e+00,1.492665432866751019e+00,-6.899455300154762050e-01
-1.415787495499794657e+00,-2.786427461435728947e+00,7.186282256384274314e-01
-1.177105565687363020e+00,-2.953551025081013304e+00,-1.279622050141566270e+00
-6.660037980955899606e-01,1.768818354331886500e+00,-3.001421559435192510e+00
-2.660302892576409395e+00,3.078365232494278736e+00,6.440150004657327898e-01
6.513681358406665511e-01,3.027176559543793388e+00,1.674339579717742055e+00
-7.713096020771775807e-01,2.224182816167683541e+00,3.081158708660095336e+00
1.357740845457715284e-01,2.930916313363359560e+00,-2.892203634106343291e+00
1.176379056569296866e+00,2.966365886252219308e+00,1.227793391660250366e+00
-8.793167406614207371e-01,-1.761991063388827383e+00,-2.899816038200982327e+00
-2.758957088459805806e+00,5.333653999534747614e-01,1.678925440203681285e+00
