4.207724382490955151e+00,6.046267776352297396e+00,-3.481749988065372836e+00
8.610405716729244929e+00,-2.515092297837013824e+00,2.798091250070670721e+00
-4.123914106879879249e+00,3.837709954493702114e-01,9.870801745742554090e+00
-7.427903766009415598e+00,-2.731885091032352886e+00,2.578314208558199816e+00
3.429466748616394334e+00,2.406236732164964032e+00,6.652911756651350927e+00
7.783111064494865339e+00,1.184202987940319085e+00,-3.500988821800675499e+00
3.536555862853832277e+00,8.428423835783421580e+00,-2.090687012046029913e+00
6.573777133057818745e+00,4.892585534982698547e+00,-9.755457801004546736e-01
1.453479827634511556e+00,-6.704991345450770801e+00,1.092653261161175315e+01
-2.128677892141766836e+00,9.731145480103915446e+00,5.107417571536704948e+00
1.289892821801289058e+00,-1.170490234472817415e+00,-8.727840013704827982e+00
-7.997704045057322020e+00,5.216797295214621322e+00,8.883583731193336774e+00
5.107772413428632419e+00,3.242065917270236519e-01,-9.189833352941688460e+00
4.466493680006922595e+00,-5.165397902987745482e+00,6.776043011501253766e+00
-4.908457557572501351e+00,-1.024819263789705559e+01,-2.786573553233352207e+00
2.213871284835161823e+00,-6.535481193906464981e+00,9.147179512264861145e+00
3.408941808806895235e+00,3.998741199037744831e+00,-7.172598246842406766e+00
6.537457906257391649e+00,7.604957903789893336e+00,3.565972660836176367e+00
6.199960405809260777e+00,2.336622565993783596e+00,-4.917089774182536566e+00
-7.968936437343219659e+00,7.670003279989072442e-02,-6.712265312550072416e+00
9.190133142742088479e-01,5.853850030938953175e+00,-9.432713013944255209e+00
-5.206217315932271106e+00,-1.716202490776436163e+00,-6.772568038604147134e+00
6.319846838081012441e-01,-8.572766686436471772e+00,6.280584692568618621e+00
4.746306336213299559e+00,4.813328318865035982e+00,5.565202524824969466e+00
7.349071881039865861e-01,-8.753050468044005328e+00,-5.229206977135196333e+00
-1.523909845289215470e+00,7.178708403795579507e+00,-9.721487677915924053e+00
1.714694652522684493e+00,1.050943212938891413e+01,-2.628994576811564343e+00
-1.306908342723572813e-01,-6.418136990937590269e+00,-5.995214765189856188e+00
1.135931251220789129e+01,-6.487608664864784602e-01,-9.585617620801917304e-04
3.888071308460981257e+00,-6.550699333454184092e+00,2.282484637927470583e+00
-2.154546528892449686e+00,-1.143655584494703881e+01,9.138438255785050757e-01
-5.198645465238675989e+00,6.662087776263275529e+00,2.776822228071016863e+00
-4.224677161054839480e-01,-7.501337913732426088e+00,8.319871805408226351e+00
9.467305684523415366e+00,5.043426755246440685e-01,-1.702045063495428945e+00
1.082979337946093690e+00,6.406036457838499842e+00,-8.387764536567065221e+00
-2.684303712303075518e+00,8.041773340439346995e+00,6.013946788176378178e+00
6.845970559827730950e-01,9.830060819559070850e+00,-5.080512317415270651e+00
2.020747381736150761e+00,6.465166328215580904e+00,-7.135595246687453042e+00
8.368252831378024226e+00,-2.274919024142204371e+00,4.386965720612306718e+00
6.464545861657934545e+00,8.076972996252260728e+00,2.488807185017300583e+00
2.554599852784077640e+00,9.033739796590593230e+00,-2.699280307584869032e+00
7.933175970371002528e+00,5.164182059637153266e+00,1.287528604210167016e+00
8.122406605422289871e+00,-3.383276522412385745e+00,1.008663376602182637e+00
-1.084753152515753882e+01,1.448746488314816672e+00,1.370964950945731786e+00
-9.400271227029593391e+00,3.242746163924448588e+00,3.879613056539676919e+00
5.359945564778855420e+00,5.598171295419924753e+00,-2.054962561815730560e+00
1.527037211279967277e+00,1.138980348252442809e+01,-4.381955095972081549e-01
6.883073149910616806e+00,2.718018680160402489e+00,-3.135472501379477972e+00
-8.017828824677254218e+00,2.985079558151998658e+00,-2.617169555235185019e+00
-1.141444872160152180e+01,-2.443931651351789025e+00,-4.602345824870083923e+00
6.397086261074797164e+00,-3.662573792963286223e+00,-8.924006969169004932e+00
5.734672681169839414e+00,5.314205279663807957e+00,-1.832497960574967832e+00
4.358423107185197765e+00,-7.816392174156090000e+00,-6.561655587460196948e+00
-9.518673220411643099e-01,7.554085002413518879e+00,-1.030454331826575753e+01
7.196818276104131051e+00,-4.415304152743282806e+00,2.579228548988150016e-01
-9.005848424130558527e+00,2.306386757403127152e+00,-2.808272795530673882e+00
-7.333748644812333239e+00,3.831105810863025152e+00,-2.499929323723469210e+00
-9.437109694081433631e+00,-4.140704061091038390e+00,-2.364993899632620522e+00
5.761149869569451631e+00,3.774950732121812980e+00,-4.289566069651407965e+00
-8.346491920255333596e+00,4.562373319764378543e+00,5.778018841147261497e+00
-5.784148662363464588e+00,-6.506170826707481147e+00,4.383630503512064291e-01
-6.494734736801784258e+00,6.657540429180377473e+00,7.304520812787382411e+00
-9.452397744898773269e+00,3.516581294323979368e+00,4.969096905120315100e+00
6.049705885036013697e+00,-6.690421354350005956e+00,-6.362804593591261160e+00
-2.382576115139373396e+00,3.908399512860409430e+00,7.857772007792273250e+00
5.283372409948633219e+00,1.942212616948697956e+00,6.402647224334931941e+00
-1.691634302305027315e+00,-3.006950259476796283e+00,1.077295001533535590e+01
-1.014855832946695102e+01,9.506211580360740543e-01,1.933300880164953606e+00
4.414541395082055564e-01,7.324017132329498914e+00,-8.415649819543871146e+00
-3.222655085410502274e+00,-7.650686868687519571e+00,-4.585013768844588000e+00
1.490281033887178141e+00,3.103802637408160869e+00,7.224281713904898261e+00
-7.450358029966325901e+00,-5.713394987275895787e+00,-4.299996281628448713e+00
-4.934542058790855279e+00,-9.814076167618607016e+00,-2.121686438633586302e+00
-7.246585820431077352e+00,5.860325217243067542e+00,7.470036995875457109e+00
-2.114908825919238566e+00,-1.160091756788116157e+01,3.754949173676442875e-01
-1.026882901711724827e+01,2.199598893529557841e+00,3.216549940334117785e+00
3.435084032235502072e+00,-7.074401330904496632e+00,1.535710421140928705e+00
-5.806035349858554184e+00,5.421805380761751003e+00,2.787556190033217973e-01
-4.761767177176552401e+00,7.516598874532546048e+00,6.846858185028249721e+00
-6.397211308152236597e+00,4.781566164607167657e+00,-1.546644211301976490e+00
4.590654100770663604e+00,-4.568335542909537139e+00,-8.223585747476343855e+00
-5.886534227752783011e+00,-4.593003610783173762e+00,2.615582958237582911e+00
6.260296754548533293e+00,1.404136956932477975e+00,6.620133302213662141e+00
-3.702041806601374940e+00,-2.076039049838739547e+00,9.141569158473327406e+00
6.055440753112100616e+00,8.600959765643846566e+00,3.153691607085566062e+00
1.425931725974800113e+00,1.224634689850330105e+01,2.426064787083720198e+00
9.394639028974349770e+00,3.053268918964075151e+00,1.420991564950777608e+00
-4.931421354315235206e+00,-2.810555815511306843e+00,6.029357291921477291e+00
-2.561172919525341207e+00,-4.952784786249382343e+00,7.624840249787199653e+00
2.180300858852571189e+00,-4.481829369892754933e+00,-7.392415199586185537e+00
2.180977475273864485e-01,7.544553693539688410e+00,-8.641216562831631975e+00
4.585515233047260608e+00,-6.259274748225061913e+00,1.296404479858422443e+00
3.471346068627510828e+00,6.376593153151731919e+00,5.131075140467115325e+00
-3.452744478580055620e+00,5.695877751088835872e+00,-8.784559810701098925e+00
9.488356955457312836e+00,-3.550547066503713101e+00,-4.749343783166392718e+00
8.839940044349779313e+00,-3.751044370538386463e+00,-4.458583528672324547e+00
1.991601859580206746e+00,-7.097425877693744667e+00,8.421010460842426326e+00
-7.332571912402803704e+00,3.841782834498866261e+00,-1.454512626027119504e+00
-1.340712960979071555e+00,1.620804167942550000e+00,-9.180297608189531999e+00
7.681687490477743019e+00,-1.072678230936030763e+00,-6.244139759627465480e+00
-3.611145861674643687e+00,-8.182430345360698354e+00,2.106006101828698185e+00
-9.130397034884516483e-01,5.729886195019737727e+00,-1.126310760879783679e+01
-2.851400545276259746e-01,-1.061448480298905395e+01,-2.879153898521540772e-02
-1.943706098260641058e-01,-9.386317811022847124e+00,5.189344827998063181e+00
2.418618966838666395e+00,-9.314142308235050294e+00,-4.109028428786756670e+00
-8.542814669869613908e+00,3.286570654253493373e+00,7.351681696950508105e+00
4.648342434205805063e+00,-4.655796934495082695e+00,8.685161411944422483e+00
-8.572051050351189971e+00,-4.742594827737137031e+00,-2.158136405034619454e+00
-5.503411676675217912e+00,6.728271769824813120e+00,7.547331023115021686e+00
-2.048812306507787895e-01,6.999874834930117196e+00,5.856903157418615002e+00
3.626105000470799311e+00,-7.557586592875996878e+00,-5.506166811282321438e-01
-7.255968655051032279e+00,-4.723711474664345822e+00,-4.566536751255110715e+00
-7.842994825550237081e+00,4.402210733176478819e+00,3.532309107884199051e+00
-9.572530757949724745e+00,4.668308065166961729e-01,-6.304757406215857785e+00
5.333931260823638887e+00,9.580967138571907071e+00,3.151810995978889363e+00
7.117489623814612365e+00,-5.227156388449170521e+00,-4.248188534419440998e+00
-6.515987878184717808e+00,6.262215298334863789e+00,6.135952060964185328e+00
-1.019759719061503489e+01,-9.924310043913048274e-01,-2.715421139308031306e-01
-5.105730639763554457e+00,-7.418054055399732061e-01,8.370959022598391641e+00
-3.355225316953774239e+00,3.615665908795159478e+00,8.258912536572768914e+00
-1.161365558927670794e+00,9.853214245802034199e+00,2.510077773094057108e+00
5.831898381817524069e-01,3.172656438930738343e+00,7.298313835814018269e+00
-6.474212405436333029e+00,1.669070633768436895e+00,-7.894764421656178754e+00
5.821147765492848514e+00,1.669615094813065692e+00,-6.070719264968464479e+00
-8.859471705264834185e+00,2.736703771064422641e-01,-6.372370174022110589e+00
5.320588510272848737e+00,1.578017127511312845e+00,-7.368410397409940416e+00
3.653855748478825216e+00,4.288631769618486800e+00,-6.740802644977482494e+00
-3.809111128649854905e+00,-1.061599222537224385e+01,-1.293367091947488667e+00
1.079444158420041688e+01,2.253913987746056335e+00,4.628369429552186887e+00
9.489137158640655656e+00,-6.455405164163202647e-01,6.275866950894719132e+00
7.321732611397679946e+00,-3.033301025543493790e+00,5.441939706471412563e+00
1.875224226810925598e+00,8.417479435473412153e+00,-4.953879286730445308e+00
-5.703374318980280577e+00,-7.700807625524343614e+00,-1.042413083634824655e+00
5.737598888164976429e+00,-3.868196636342113415e+00,8.343973650440711154e+00
-7.727839294011505267e+00,2.760687240485991900e+00,-4.917593490821095870e+00
-3.789356365702347684e+00,-6.056425545727948112e+00,-5.168178825752337779e+00
-2.383564064337247768e+00,-1.012075406064686867e+01,1.856625427687992547e+00
8.487709960453264202e+00,5.011393115018192290e+00,2.298043256848992577e+00
1.250313209930580038e+00,3.281972195860217489e+00,-1.072712730316835383e+01
-4.488372110436516849e+00,-1.462017019416508967e+00,-6.888266942986360775e+00
4.212959420962929080e+00,7.424119768586293633e-01,7.485532065022850290e+00
8.978197726858677896e+00,-2.595412134082418554e+00,1.517666091044885146e+00
4.059237541353188483e+00,7.014568776901001890e+00,-2.533427365275145782e+00
-9.778574907279793393e+00,3.389645846716154320e+00,5.372156732620310571e+00
-7.108036282075630950e-03,7.292507618964362059e+00,-9.071494093250365154e+00
7.010000650909526954e-01,-1.015629384000813218e+01,-1.489283311639948426e+00
-1.176276237361855159e+01,-2.552319453423627649e-01,-3.510226228111108959e+00
7.746623957715238262e+00,4.478400875403436565e+00,4.657939857944951356e+00
5.083125303521226712e+00,4.820720878140575927e+00,-3.586020515616782145e+00
7.296377785822702577e+00,3.927999257581201942e+00,-1.086575535439158635e+00
9.048687422068097064e+00,6.157662843444985379e-01,6.011276003621521369e+00
-7.120307483074701516e+00,4.980837244158149879e+00,2.726422998115527907e+00
1.917066238404588452e+00,-8.621770875302406267e+00,-5.613801790549707071e+00
3.149145012458220982e+00,5.247378109090615084e+00,-6.471750435675240887e+00
2.778882112752569800e+00,-7.023886356765944861e+00,5.829084062067054539e+00
-5.559978528597070202e+00,-9.083468180939503256e+00,-2.082617149105737031e+00
2.671610164674529386e+00,-8.740480492396255130e+00,-2.828954412020740161e+00
-1.443207529767386754e+00,3.511905095480427619e+00,-1.012412723047923180e+01
1.189451520209355184e+00,-8.406825778217315914e+00,4.547137277606580597e+00
5.458017920119666577e+00,-4.554307039893725317e+00,6.417859896729288138e+00
-1.148525952527291416e+01,-1.701028673959009252e+00,-4.745324369458105984e+00
4.582860037377301521e-01,-8.796721293784582230e+00,5.916197539865107657e+00
1.736972400232633884e+00,-3.621127819505838286e+00,9.982311360228868224e+00
-3.322064376470650338e+00,7.117906895612154727e+00,-2.408384329038645078e+00
-9.492610156615020500e+00,-2.321344794712030257e+00,-5.457251917722018009e-01
6.561044883394760774e+00,-5.821379514588282511e+00,-4.495627925832621941e+00
-1.047099377460956759e+01,2.020125532061293860e+00,2.996956963426091747e+00
1.548036822061677142e+00,-7.684572835917972355e+00,6.996144281512616914e+00
-5.935283629317563481e+00,-7.266005995297743603e+00,-5.667813070528562314e-01
-1.829533843105656921e+00,7.029402589551662750e+00,-7.512528707368241854e+00
-7.076951774132762552e+00,1.178939850882224638e+00,7.416913109122663883e+00
-2.330568145031472138e+00,-7.371206561729541029e+00,5.031609454489229805e+00
7.408198835227050694e+00,-1.383424292428553137e+00,-6.992004384406612871e+00
-3.998514260614710825e+00,2.226561640294878242e+00,9.077074314008799050e+00
6.510602304873329693e+00,-1.483820515039615540e+00,-8.585929069879430386e+00
-3.547747073419083907e+00,7.199153973021392261e+00,-6.968090248761755756e-01
1.392721785356828779e+00,2.461478377777864157e+00,-1.031153849508717002e+01
6.992774517321285188e+00,3.408822167951511606e+00,5.387129166441121164e+00
4.714546859864293893e+00,-4.311802635683618767e+00,-8.337596477641330495e+00
3.839946125906285701e+00,5.465019076821793220e+00,-4.692154502368436120e+00
7.427804282071081232e+00,-4.674637107575251527e+00,-8.787892142628541237e+00
-1.120942810639985865e+01,-2.293062211620293112e-01,-9.238947974673122898e-01
-6.258020189520014043e+00,-7.454512467831414746e+00,-1.686039240869572353e+00
-3.309747187229612031e+00,-1.970579081180615644e+00,1.002347758309574566e+01
-6.861576087108157473e+00,7.280035100415110927e-01,7.186317949003269590e+00
-7.841924898436743341e+00,5.271839850313410736e+00,7.428471014958640595e+00
8.408873958362448775e+00,-7.699975854886486060e-01,-4.800630296494292182e+00
-7.093146616486117217e+00,4.988154524781340804e+00,3.054152129883552114e+00
-8.057604653312919751e+00,1.936578372961616223e-01,4.549393883309431175e+00
-8.007422142187847314e+00,7.155426068991482813e-01,-6.961561024681205190e+00
-4.394526017860439282e+00,6.879602871054795621e+00,1.225135923863712506e+00
-3.750329255120033345e+00,-5.280070214924026395e+00,-5.485614970757795916e+00
-2.584453942279414385e+00,7.286091788091927590e+00,-4.095869437217440456e+00
4.080691943252915621e+00,3.106559565721087601e+00,6.425522099434737733e+00
1.206979182367099890e+00,-9.590857168280436440e+00,-1.279451959092888114e+00
-4.916831863170309624e+00,-3.653234158105265639e+00,5.431498549931742303e+00
-2.580049653467298310e+00,6.316822106160485895e+00,-8.322123433486392940e+00
9.310473831342546802e+00,-9.229014964622617168e-02,-2.671607371958465205e+00
3.531925688465428870e+00,7.916576171843169085e+00,-2.659705719947455194e+00
-6.069420501796574108e+00,-4.147483895668318432e+00,2.717337847978634979e+00
-3.508467273348173876e+00,-2.387519810999360725e+00,-6.829873082196882272e+00
8.634461995182459049e+00,-2.966901160642998025e+00,6.044544311189501418e-01
2.185976407745306993e+00,-2.903762742647173194e-03,8.355545448311508139e+00
2.979516305700460777e+00,2.752825168789111654e+00,6.630982913445719440e+00
-7.260839020796512777e+00,-4.898020546383691776e-01,5.006264241758342948e+00
6.122512131259740364e+00,-6.156043570069472004e+00,-4.700371189703091090e+00
4.943611524942949309e+00,6.204145294268307076e+00,-2.436593275227487254e+00
4.704001440814315593e+00,5.183545371296534476e+00,-3.879623037218540738e+00
3.491071446411424972e+00,-7.793937993002959530e+00,-5.415856205828610825e-01
9.121278610736169412e+00,2.225766494017781927e+00,1.004643375394741883e-01
2.408462169505584338e+00,6.192279402731374560e+00,-6.654419695066922102e+00
6.849733767566896780e+00,-5.822139697301291328e+00,-5.659436514172414334e+00
7.828048053126638095e+00,1.994372058499227496e+00,5.824188029852703785e+00
8.730151605450322094e+00,-4.428987414155412417e+00,-8.642769749404513036e+00
-5.973851292916739553e+00,4.427328611537835634e+00,-4.190661049939784277e+00
5.162503226763832664e+00,4.088304677554725153e+00,5.685339899249612472e+00
-1.590864348575662945e-01,-2.042899398104978559e+00,9.973493435929354334e+00
1.696660890810350875e-01,-8.061157891314623569e+00,8.587349393547944132e+00
3.055722441158954972e+00,-8.623832077110927585e+00,-4.084274838947118624e+00
5.201501523847495534e+00,-4.461444751078913029e+00,7.674315199156648504e+00
-2.216143236369629843e+00,-2.404734617852135159e+00,1.046059579676209417e+01
-5.810475421656375872e-01,6.028159001964231045e+00,6.415714057675369730e+00
1.650948097535783088e+00,1.339971112389828356e+00,7.706247758559288563e+00
-2.717842805222415947e+00,7.446130551171458833e+00,-3.415797713199455021e+00
5.580972871669881208e+00,-8.513137209471772771e-01,7.801191595222106479e+00
9.416246023828810152e+00,4.793790454103192822e+00,3.693623336492100950e+00
-9.045821119189898951e+00,2.177787281137570474e+00,5.363449148516329146e+00
-6.326119905879911721e-03,5.989383033400015321e+00,-1.084381361559269941e+01
-1.802289857709423959e+00,-6.418905859935357228e+00,7.360526674834765082e+00
-1.659325953832308631e+00,-1.171385814942263259e+01,-3.135866934986259569e+00
-1.034630053293667906e+01,-1.179112107312595636e+00,-7.579853651527409530e-01
-8.456328168704095205e+00,2.654383937893170398e+00,-2.513884748552288606e+00
-5.576007493622270772e+00,6.303920728992630451e+00,3.247381818234486683e+00
4.385685596684654186e+00,-4.219078196487926924e+00,9.555070401049228224e+00
-5.866891976735863601e+00,5.589483388857440005e+00,2.033241833916117347e+00
-1.259763137460745863e+00,-3.271363170670914311e+00,1.066186676656610111e+01
1.519852273077105576e+00,1.149956435598690696e+01,-8.897550624105617922e-01
4.759044410750640219e-01,2.358888693206187437e+00,7.690080690296245081e+00
-1.980005061578342884e+00,-2.489709375944234859e-01,-8.297007159774814511e+00
2.535427996845368792e+00,-7.251844241446281814e+00,5.270380076305427153e+00
-3.868977455005000010e+00,-6.530545303736819740e+00,3.621035620092171836e+00
1.793749791876021238e+00,1.141102447704640355e+01,-1.360384812714764635e+00
9.597505214074786295e+00,-3.295474280726503391e+00,-5.863125164167160897e+00
2.977067804472135926e+00,1.586733851653091554e+00,-1.038192759035391788e+01
-8.010004241359673927e+00,3.704182984463838757e+00,8.805264510119414467e+00
1.705715491034560216e+00,9.428696367613754958e+00,4.081404957488857121e+00
-9.080444470737967677e+00,-3.301380048482307483e+00,-4.834778288377490796e+00
7.737496409749499371e+00,-5.604543916206922383e+00,-8.534850365353188195e+00
3.795249039392629697e-01,6.602996750367646328e+00,5.853419620621041375e+00
-8.946001929615214010e+00,-7.954987612241782857e-01,-5.888825994726881063e+00
4.689750581511069605e+00,-6.702280628856628120e+00,-1.509069053935507609e+00
-5.041221374217152551e+00,6.716984733692345166e+00,3.110025648454355363e+00
-2.249411730502240303e+00,-8.034223478084607351e+00,4.495386517571522411e+00
3.894125135074820721e-01,-7.525537766825451058e+00,9.480321864525432574e+00
8.921070464545927337e+00,-1.957562630170180507e+00,4.260047101778250855e+00
-4.517106776875577268e+00,-1.033022015487086342e+01,-2.880201811453603877e+00
-3.983770676407072386e+00,1.837939710861089981e+00,-8.561711712307442212e+00
-3.860059237346879168e+00,-1.075822604985678588e+01,-8.898227164765517561e-01
4.070497236783685580e+00,-7.790900374927812067e+00,-3.578172037447544973e+00
6.693512909527298271e-01,1.109963221380991705e+01,8.146191882863949019e-01
-3.443068667354053147e+00,-9.200231020472772414e+00,-3.747310171556595293e+00
8.521946437643174832e+00,-1.854729918280135115e+00,6.838987901811272252e+00
4.799394814902030681e+00,1.057737630897137215e+01,2.719615840741339774e+00
-6.564862720377549365e+00,-2.896803528781906056e-01,6.535413605072077026e+00
4.822168756293019776e+00,-1.287095250835975424e+00,-9.701782726524031730e+00
-4.200629347142026404e+00,5.421100141129148398e+00,-6.307442826390798452e+00
-7.202930174212637482e+00,5.765351861479691919e+00,8.298081610220956250e+00
-7.287731733225058406e+00,4.278289874677814630e+00,-3.688714461933136346e-01
-9.595721751082367135e+00,3.787228092490707354e+00,6.368463596812937055e+00
-3.538344136150089358e+00,3.032785156628901024e+00,-9.165368168131909243e+00
-2.687241287802315970e+00,-8.771412699563910564e+00,2.878670977295903377e+00
6.029469625437580582e+00,-5.828942961440848336e+00,-2.091070842798198104e+00
-2.972194297426598020e+00,-8.516538619314600211e+00,-4.257705018307048839e+00
7.251632011878851536e+00,-4.615316926505916850e-01,-6.422669844353773527e+00
-4.270615301910814843e+00,-1.063242427872190454e+01,-1.997057005003178176e+00
9.852205570755401709e+00,2.870610911920011277e-01,-1.271826853939717950e+00
-5.803075203040580554e+00,-8.389210220922011629e+00,-3.483445952387139499e+00
5.999906383464517212e+00,1.175523454143867275e+00,-6.484307060376380605e+00
6.278971188811429682e-01,-2.708830902464247181e+00,9.906127343210668457e+00
1.197566635102773169e+01,1.385253250120037638e+00,3.946286510810987913e+00
1.191768272513376026e+01,1.697836740437689063e+00,4.127728481995229792e+00
-3.022655779294093126e+00,-7.364356519703312287e+00,4.182697409251173504e+00
-8.118231606277513279e+00,3.725582052164025271e+00,-1.109127118229598224e-01
-3.359886056843038316e-01,8.817072990987274039e+00,-5.718257893181513118e+00
6.330700733404641234e+00,1.977709237893293226e+00,-5.163114048238990783e+00
-3.983236657884059007e+00,-1.838796937528027753e+00,9.034756603400682096e+00
4.245096850584248571e+00,-6.220102553128564082e+00,2.396931595715289465e+00
1.114370926688902941e+01,-6.770777413191366723e-01,-2.204741694091745530e-01
-6.035015260966984485e+00,-3.360919478185272258e+00,-5.672200804354744719e+00
2.327772481332614496e-01,1.066290334093637604e+01,8.654983376082344693e-01
8.395244903185462348e+00,-3.818677151328254027e+00,-8.425094176190004447e+00
8.188308280939752493e+00,-3.533828993968790577e+00,3.708364725677521651e-02
-2.052589373093096636e+00,7.533257745929467397e+00,-4.763801286648409850e+00
-8.726682646360112372e+00,-5.494655932255121833e+00,-3.940893788807771525e+00
-1.072989677847544421e+01,1.936839984080737542e+00,2.267420591320718160e+00
-6.473028993088198568e+00,3.730240252283370417e+00,-5.880446514111070222e+00
9.408655479266853305e+00,-1.113389030193005835e+00,-3.784201780036597462e+00
2.021369989132519418e+00,5.882224204870089679e+00,5.645790643740395964e+00
-3.089016383220902107e+00,-8.740551611128639209e+00,2.337438975043295564e+00
-9.351932888531248267e+00,1.944178302288384064e+00,-3.278805822883831045e+00
-7.803323227820764707e+00,4.207375119652743578e+00,1.473045455078796584e+00
-6.142274965864144676e+00,-4.700130577476545390e+00,2.250685577013967542e+00
3.223209210079410969e+00,-8.593952440694190287e+00,-4.262018037997156839e+00
-1.142250845064992859e+00,9.056421994553939925e+00,-2.091143162310392434e+00
1.382784024083767660e+00,-9.514856314676807258e+00,-1.992742646536777018e+00
3.619964792970253864e+00,3.413618437083390411e+00,-7.448564536375502421e+00
-6.582110414709824830e+00,-6.135926603127502821e-01,-6.677608860467796781e+00
4.531563777501914636e+00,8.784625061378367405e+00,3.718374579267859303e+00
2.297938825438599952e+00,-2.088626390004895417e-02,-9.451655774909500707e+00
7.224632408586586507e+00,-4.425794662938118407e+00,-8.273326314180108332e-01
-7.461366733969024168e+00,-1.518575024185357725e+00,3.833471781458513306e+00
-6.739645592066970003e+00,-3.893415886597913378e+00,-5.215552252938766564e+00
2.451938645880060719e+00,9.384607813439332702e+00,-2.554297130038157171e+00
-1.717679193679552352e+00,6.278774506036198133e+00,6.552901970680986565e+00
-7.873038754283168572e+00,2.405791221926742995e+00,-6.866709130254984750e+00
6.774535991395868706e+00,-4.209532260635738155e+00,3.031540104201578822e-01
4.905794656733417192e+00,-1.106986626147799635e+00,-9.889316169163199888e+00
-3.766715909080440294e+00,8.442581518632852777e+00,6.159064595298517020e+00
-4.170648533359637700e-01,-6.891421754062153404e+00,8.931856139278037787e+00
4.623317204446343531e+00,9.113657838511565856e+00,7.690008229099030146e-01
-6.786911548961485074e+00,3.409490448315305677e+00,-6.163960958017069558e+00
-3.759554913358289951e+00,-1.950805173985058927e+00,9.404314894231021071e+00
-4.307286466353018817e+00,-5.591498030162228794e+00,4.157746917560085187e+00
-1.016701291667273743e+01,2.514666622327434098e+00,3.712027569301557861e+00
-5.447907691941405339e+00,2.121056372370986765e+00,-8.220544974803775773e+00
5.266237720392357158e-01,1.156304876411382487e+01,3.449878414406560179e+00
3.898600743716514216e+00,8.156441675850223394e-03,7.867642172124249988e+00
-8.457471841711381444e+00,-2.912989848089670097e+00,-1.016694643937150616e-01
4.580862598343236947e+00,1.548240066717686325e+00,-8.379930637988199038e+00
-1.455855373890182713e+00,1.173987808013919443e+00,-8.900562489527784393e+00
2.657641413247158635e+00,3.952415653571168086e+00,-8.810078832984508779e+00
4.353426922866477256e+00,-4.714766261105149070e+00,9.633516054938208839e+00
7.520072986354672473e+00,-3.847984033330094533e+00,9.356304844484359950e-01
9.882543244086825496e+00,-1.755053875983424438e+00,1.104719180673479295e+00
-4.552826333681532667e+00,6.178490280657365830e+00,-1.528714706984121374e+00
4.543960436621946819e+00,4.910326300492255491e+00,5.350508139196026747e+00
-1.032648191298552298e+01,2.188029976411802746e+00,2.452508592242792940e+00
6.365476513579132245e+00,1.636640365129790942e+00,6.378502609634760567e+00
-3.338685691043654646e+00,6.937157305923858708e+00,-2.460264020265310325e+00
-7.496334346887492117e+00,-1.843867870118860663e+00,-5.911530084769784921e+00
1.020213027638554815e+00,-8.622648091398531278e+00,4.350175296935918645e+00
-9.795980786495015025e+00,-3.152514979662933481e+00,-4.692165148760699012e+00
1.159521431140797709e+01,9.899469038432073820e-01,5.194799076352415668e+00
-8.281129521555646633e+00,3.387984654731576839e+00,2.142283973508540273e-01
-5.694018846499181663e+00,6.306717502631827621e+00,3.174313003563118851e+00
2.794092632805310839e+00,1.251743773739128152e+01,1.535193350218840180e+00
7.795829640904242019e+00,1.049824890165399038e+00,-3.765766468935970224e+00
-9.353101741741417285e+00,-5.000871950868199356e+00,-4.054275598246289469e+00
-1.099445098817091626e+00,-1.169692391665928710e+01,-3.409141641164257663e+00
-2.122688264797479629e+00,-5.935313312602781721e+00,7.193496555674466109e+00
-4.333652339570943646e+00,-7.588410477511816410e+00,1.812653128754326159e+00
-3.227473794792500073e+00,5.688056709691831969e+00,-1.005804085748529531e+01
6.792894230147134005e-02,-6.553741049804022722e+00,1.007586026000054780e+01
-9.712903831513258979e+00,2.740605775487181095e+00,2.274841915929416647e+00
1.164944545886200444e+00,-7.483323726327897774e+00,-5.907825143458888206e+00
1.210331827620018608e+01,5.799035096556560687e-01,3.533835143788658151e+00
5.345326107188285159e-01,3.145383152193265364e+00,-1.039593116274111217e+01
1.949266322962537989e+00,-1.683687560442952647e+00,-8.783746925482734724e+00
7.152031743299358535e-01,-9.281590873204830672e+00,2.889046598505597974e+00
3.514718637069109697e-01,-4.404687801295004590e+00,1.066696878644610003e+01
1.493193217508726356e+00,-6.900045338575149678e+00,1.082793529339600980e+01
-6.783508147774566233e+00,3.591660983489442405e+00,-4.598424803574273412e+00
-6.122947062196306689e+00,-2.045436718566313150e+00,-6.239108658963633758e+00
-8.960558486635241238e+00,-6.077105445638674164e-01,-5.924735300806168503e+00
8.949399589332521998e+00,-3.500869729274239450e+00,-3.577730444796797471e+00
-9.736865125814552213e-01,1.027622380497187793e+00,-9.051698838790072088e+00
8.117608621119902779e+00,-4.470931791913670850e+00,-4.264485212871694131e+00
-2.481434419042059414e+00,9.310484022847358432e+00,5.369657858320310062e+00
2.635691550649595705e+00,9.918828389391679323e+00,-1.714758507269001031e+00
4.351075931746142267e+00,-6.229254502795836146e+00,2.643967426374691065e+00
1.313573996367623842e+00,-2.555211512919700834e+00,9.511395665458682203e+00
1.853367133124374622e+00,1.159035450388833510e+01,-9.815288022205391760e-01
-9.911915638154736641e+00,2.995679795008133528e+00,4.757565829918062761e+00
-7.940279027086460939e-01,1.032875109691425664e+01,3.438119440939186422e+00
7.196637489489038586e+00,-2.205324484274459262e+00,-8.620435265158363336e+00
-2.269246935703427059e+00,-1.007518946990990116e+01,1.912213036365253638e+00
-1.191102977779949113e+00,3.696428798540273064e+00,-1.019560189728699662e+01
-1.769568571723166617e+00,7.325539185702927725e+00,-7.758314118551270511e+00
-1.679933953248501366e+00,-3.754871629488016005e+00,-6.780715303137755612e+00
-7.551870285744703537e+00,-4.621110046688090556e+00,-3.435892762444541226e-01
-3.979811614306809187e+00,-2.020338968965053272e+00,8.931267222972218534e+00
3.525077014762322936e+00,3.425172730211928585e+00,-8.036309962702247844e+00
3.185312240630297165e+00,3.145880403800094260e+00,-9.175520210405665011e+00
5.908089183513668408e-01,8.952232485582205967e+00,-6.103854625349015350e+00
1.126748355438086868e+01,-5.802996893236681553e-01,2.218675297750391240e-01
-3.468782667900908390e+00,6.267473351717059771e+00,-5.508580027618615205e+00
-7.029332289604920403e-01,-4.980993186778412074e+00,1.082067337088194314e+01
-1.727038728834126846e-01,3.374003562631377129e+00,-1.041622557388463655e+01
-1.003915988670930304e+01,1.054333315013481043e+00,-3.966563164200813674e+00
-2.033642180704953617e+00,-1.198787145038210333e+01,3.421129343948854928e-01
1.699290352784117220e+00,3.336047826579950470e+00,-1.077470768973355320e+01
-1.050820390807342619e+01,1.106861415528358705e+00,-1.867147554653342478e+00
8.051026533881373126e+00,-5.330446570565639419e+00,-8.137870351486540699e+00
9.873931535657511915e+00,-1.721366877935440742e+00,2.519704706152699814e+00
-9.050147117712226574e+00,4.272547778749981262e+00,6.686333217162186315e+00
1.002879791197508119e+01,-1.856371300419222381e+00,-3.407350691227540196e+00
-5.956059255901151595e+00,-3.198918625576342656e+00,4.237631289763484688e+00
-8.911485713385092211e+00,-4.489217635981180621e+00,-4.416001944562095716e+00
-3.493932674966658158e+00,7.618783028473610663e+00,1.333860752386899939e+00
-2.611335286750725349e+00,-5.911576471556988288e+00,6.614023005811811906e+00
-1.083703124568421039e+01,-2.786777568425250262e+00,-3.261595813757141027e+00
-2.417542463175302636e+00,7.650217590908551024e+00,-3.775746248948421258e+00
-5.133092493084843611e+00,-4.152480903360928899e+00,-5.524373433871345718e+00
4.393161780601791300e+00,-7.897260431225135768e+00,-4.958207080274636525e+00
1.070612944670385325e+01,2.037834401922087313e+00,4.904914138556918601e+00
-2.768863980809026071e+00,-2.371845384154242176e+00,-7.020664850892615050e+00
8.119516072297678022e+00,6.085082123544162336e+00,3.081594996760686822e+00
5.777427490519803088e-01,6.731291620344139304e+00,-8.737531593385206463e+00
4.801805508025102753e+00,6.190592378544631735e+00,-2.422478504641358388e+00
-7.448739879834867850e+00,-1.170574359416776816e-01,-6.565943709312237253e+00
1.828888950807772140e+00,8.167358476330480954e+00,-5.032463596629083824e+00
2.420535085420092880e+00,-2.663159047761229470e+00,9.299277631107111475e+00
4.597384782944907045e+00,-5.423889484000392613e+00,4.658477425247204984e+00
9.220935050329807925e-02,9.384053506940031042e+00,-5.068314583636863269e+00
-4.445446370636491729e+00,4.843863224888236729e+00,-8.763589397624770072e+00
-1.109947197393724938e+00,8.519155656060657833e+00,-4.909120393868825261e+00
-1.726744438615332555e+00,5.087608408967912998e-01,9.039517796394248350e+00
-1.101518516735990882e+00,9.658340184148846319e+00,7.660604244110376104e-01
5.995068451186315706e+00,7.547247147848062276e+00,1.032185195841922587e+00
-2.885548481441743363e+00,6.547885617569948025e+00,-7.671913068962280313e+00
-3.798376707550441544e+00,-1.142101981087871865e+00,-7.162197661726831477e+00
3.866600635660119689e+00,-4.695666060868068370e-01,-9.802983829271484595e+00
2.293748692010557200e+00,-2.107763027364710329e+00,-8.478406378190047832e+00
-8.690996788765055214e+00,3.098012361266372583e+00,7.205913777828101274e+00
-5.616458084850638244e+00,5.927877913251923481e+00,1.722348606188894626e+00
-6.712718844539605767e-01,5.005427222044305680e+00,6.956990052743506681e+00
-9.495096424887072839e-01,7.980870099421886188e+00,5.514043656111078384e+00
1.938728782282667540e+00,1.424035534384293422e+00,-1.001381231835824437e+01
3.539212083344681847e+00,6.891896139393896448e+00,4.801104377651185473e+00
-3.456378693270785174e+00,-1.115127405003290484e+01,-1.229917369422910856e+00
8.518857487085268687e+00,-5.026432449929093549e-01,-4.430675687336180779e+00
1.498390526961316249e+00,-2.342841060357412797e+00,-8.062484469757988492e+00
4.739582628293065092e+00,5.865225600632515857e+00,-3.068100115381717341e+00
2.781190224430115432e+00,6.958184759778478501e+00,-4.876707943520283806e+00
-1.611531076030934484e+00,-1.409830330957108080e+00,-7.687998083319746101e+00
-5.158503563161761285e+00,5.514541180890881300e+00,-2.658919524033712900e+00
1.053921542886812546e+01,2.370838438665352488e+00,2.678600820342008859e+00
6.740801898354970234e+00,3.981312850227439970e+00,-2.196554614260885163e+00
-3.853909138110342081e+00,-1.013983229976907907e+01,-3.794052310697452191e-01
-9.923724431416287572e+00,3.059473990779530528e+00,4.957744908708312970e+00
1.075912407839500595e+01,-1.401564903756735925e+00,-1.215807774649109163e-01
-6.230726761650110745e+00,-3.604988591196286674e+00,2.959900163291639519e+00
-1.672572739721815083e+00,9.841484799131320571e+00,3.798799489900507531e+00
-1.828455326674663484e+00,8.153279712072091456e+00,-3.517705181554132920e+00
-1.121800128637747918e+01,1.105361625422996985e+00,8.296451981241561580e-01
4.700542262376060876e+00,5.855334028159551174e+00,-3.328616587920910863e+00
-5.737014736720206010e+00,-6.114768345451643050e+00,1.207104313518233996e+00
7.143592535538563659e+00,-2.929149301155241081e-01,-6.374636735562003942e+00
3.425998405829494331e+00,-7.558396211498987327e+00,-1.378398120093964341e-01
-5.349821509265909825e+00,-8.462125784220805969e+00,-8.741643480703532587e-01
9.748588436039914429e-01,1.999324650492238398e+00,7.802109335142398017e+00
6.061156995195073449e+00,-3.440243878325872195e+00,8.272459605531963689e+00
9.755821403775698286e+00,-2.220612509638589138e+00,-4.792695893828214371e-01
8.940587156050769480e+00,-4.180341913175338320e+00,-6.491354943767352559e+00
-5.564449799216247605e+00,-4.246072067484143453e+00,3.604758839348840560e+00
4.750451875975477023e+00,-1.780950432324288402e+00,-9.318940240740587910e+00
-3.243283147546210721e+00,-1.040788572292584391e+01,-2.372138617099086855e-01
-5.383353717884948431e+00,-4.952589677356511011e+00,-5.215265469083888661e+00
-1.011101498173993640e+01,-4.290769404865320880e+00,-3.808924616641044647e+00
7.173561118223872768e+00,7.643361686757411455e+00,3.184060979140188596e+00
-8.314656081947473965e+00,-8.306358088748122537e-01,2.890907585007282510e+00
-1.240462275731998520e+00,-7.807135871340776134e+00,6.528321485111727718e+00
-5.461504269084564100e+00,4.787938781560838741e+00,8.408632941090605328e+00
4.681364157861475306e+00,1.032835474727110636e+01,2.171752846285944560e+00
1.010053678815656575e+01,2.972030824609836142e+00,2.595169675398943276e+00
-5.801211264249598543e+00,-5.182932670944703446e+00,2.428688725130372816e+00
-3.973934851988351280e+00,-1.580216700186066081e+00,9.363680157599585385e+00
-9.402043155000983532e+00,1.243821036437345207e+00,-6.166606331972895205e+00
6.363195295591999034e+00,7.022325273743893703e+00,3.939919287291856254e+00
2.128434208038897935e-01,5.719257648425591256e+00,-1.010033745501613645e+01
-8.603750947086892253e+00,-5.655799840990616723e+00,-3.784387871585010554e+00
-1.290648216063067455e+00,8.151215609295940467e+00,-4.232653161025595523e+00
1.064211386230746648e+01,2.442665466877618652e+00,4.891704782307182420e+00
-2.454245970016605494e+00,7.782061447224212003e+00,-2.023642666237626564e+00
4.129089705417046119e+00,2.110813311160181449e+00,6.720292217898998999e+00
-8.331730707404755520e+00,-3.673165359536899821e+00,-4.802395670604167499e+00
-1.156929621200817992e+00,-2.618159743649357107e+00,-7.321741449181604189e+00
-7.212632759809851635e-01,-9.037003338996267843e+00,-4.553953660178470031e+00
-1.121251719373493438e+00,-7.129366807098585390e+00,7.341500287281045978e+00
-9.452278493658061720e+00,2.514796030368473101e+00,7.401172530504337432e-01
-6.540283229727829273e+00,-1.560899087518579975e+00,-6.446284362365395815e+00
4.968273879258205739e+00,-1.044897784760558057e+00,7.917590060482534220e+00
8.440374957341056472e+00,-3.043318560441142129e+00,1.292322241684195738e+00
5.057144514817395020e+00,-3.510773747568318726e+00,-8.646368222456450425e+00
3.473631653068423919e+00,-7.098086344897587274e+00,2.226657815708303012e+00
5.195156444963456188e+00,-7.187003989291178563e+00,-7.017976656900438037e+00
-1.042635906549222113e+01,-1.725930544244231202e+00,-5.107182232016131529e+00
9.705067824490726025e+00,-3.160507080802273716e+00,-4.325656540369349656e+00
-5.961411042340308164e+00,6.387043134085077511e+00,5.494004878526871138e+00
2.214296907063812547e+00,-8.618091259916790037e+00,2.368422704545146695e-01
7.828936730827042112e+00,2.285448676085654718e+00,-1.784994220981946711e+00
5.883810301450488112e+00,1.328742119231104191e+00,-6.574263801084896386e+00
-4.478782175220795914e+00,-6.555017051629941527e+00,-4.715111715731381992e+00
1.620389798194723230e-01,-9.349445139409784389e+00,5.249342547836742590e+00
-4.716066539186678952e+00,-2.113047179588677160e+00,7.567744001791706587e+00
4.261097003648107173e-01,-2.378486008127460138e+00,9.800831193916575756e+00
-7.751466796373407853e+00,-6.764291140167316030e+00,-3.031281740297792737e+00
-5.950651589082204040e+00,-1.393625503795092202e+00,6.471097421160019181e+00
1.900544684218608227e+00,-1.332218149454884148e+00,-8.824978785122240765e+00
5.528539128535118863e+00,-4.675158632311776863e+00,4.493812801499663223e+00
