-1.655395449817861131e+00,-3.593930219154677363e+00,6.067993364003737788e+00
-6.293949792538007237e+00,-1.981213323913471269e+00,3.652680723280033459e-01
3.532112540399783285e+00,3.490110377309461498e+00,-5.021069112809814605e+00
4.385273716700828217e-01,5.275594612904788150e+00,7.240745774882499930e-01
2.542633761732307485e-01,4.680135226079057631e+00,-2.240275438667832741e+00
9.549749518130644654e-01,-3.451306932047809362e+00,5.536561201213800132e+00
-3.874131961435770766e+00,-4.942359486600782503e+00,-2.458430951257445596e+00
-4.030189234764237405e+00,1.444183188371600091e+00,2.551997136172766467e+00
4.087232521028010268e+00,4.185725587231664768e+00,-1.210360355215089001e+00
2.315524365287219499e+00,-4.657053520277340652e+00,-4.138718621431856093e+00
-4.931819242000771375e+00,-5.879277407441545478e-01,-2.974685628102564205e+00
-2.830073136895093544e+00,4.104067922627510967e+00,3.407581743399147989e+00
-5.381231497529760377e-01,-6.016661717949213894e+00,-4.372052775917944167e+00
4.937798878976395578e+00,1.452632511091658696e+00,2.902047795877709113e+00
2.012102314546893922e+00,-2.182948545956697295e+00,-6.055490266650150666e+00
7.110386328278708312e+00,3.900930575621785579e+00,4.880939842916513505e-01
6.645112835986163979e+00,2.487044697297613016e+00,1.815699385470814109e+00
5.872899729522726098e+00,-1.351179236347602952e+00,5.877264007694620318e-01
6.846123367927003045e+00,4.119252489547510443e+00,1.565082590643377847e+00
-2.543299089451543704e+00,-5.237797292234826152e+00,-2.309781072303978000e+00
4.146008036586003698e+00,-5.583669202969978151e+00,2.254965535875276483e+00
4.773223515838425079e+00,6.580377730970092820e-01,3.026190244431816279e+00
6.484969860091807092e-01,3.376996338822768173e+00,5.004853748287186654e+00
1.495060038719436601e+00,-2.546819088428347033e+00,5.290699327548495035e+00
-1.097871261040041624e+00,2.044046839929876402e-01,-5.240233715834718531e+00
-1.223588450970122699e+00,-5.570644741747334372e+00,-2.823265564098487168e+00
-1.502931617437839873e-01,-3.128387203096048008e+00,6.071649234321522925e+00
-6.341017961637746003e-01,6.431974603883470643e+00,4.939624856038314249e+00
-5.365281143544283537e+00,3.249960350490660455e-01,-2.790580249134345436e+00
-5.900582428446986327e+00,3.915322434266764740e-01,-2.516147699240405267e+00
-2.623147355907405220e+00,-3.941032895756344523e+00,3.982676657990111391e+00
-8.347346030989034604e-01,4.909160313654904684e+00,-1.836327173824075176e+00
-1.191040645354276339e+00,1.917305213286098819e+00,6.220116094417152297e+00
-4.007851860494787921e+00,3.349439244197080168e+00,-3.854598726333166248e+00
6.509740769594517751e+00,-1.568052589732476410e+00,2.109852198199934303e+00
5.895392724491745895e+00,2.649163624076951162e+00,-1.523073876668343152e+00
2.092886407032225338e-01,-1.617094495926494124e+00,5.876449568738006946e+00
-7.416827166512355296e-01,-5.658274733159086800e+00,-2.552378499103503451e+00
4.835383033181299695e+00,1.474865959446822972e+00,-3.042675774907956043e+00
-5.416500109169805732e+00,5.669799988003746627e+00,-2.861639795988990986e+00
3.522528503316030513e+00,3.121469522432284371e+00,-6.310499782561421078e+00
-1.760471132621417079e+00,-2.773293952870363288e+00,-4.540866783162593734e+00
8.831097855781510075e-01,-9.974406846641024060e-01,-6.190925916702013865e+00
-5.818761841623983244e+00,-4.349127363978706751e-02,2.728906316813126121e-01
3.440838250048848135e+00,-4.391340932992876311e+00,4.236720904186812575e+00
-5.112212012042134379e-01,-1.593242231592321978e-01,6.136872981444447817e+00
-2.623145118741869730e+00,-5.003715150627146890e+00,-1.507929385470420325e+00
1.976144349268237121e+00,-2.339076486892943674e+00,-5.851026635965888900e+00
3.299189316246373238e+00,-4.190456201726321162e+00,-2.562129097014036461e+00
-5.644780085312022244e+00,-4.413488343882208120e+00,-2.120238686278067775e+00
-1.695280163813694285e+00,-5.189780349794966163e+00,-4.272178109363759191e+00
-2.943146468148382766e+00,1.424933547823760804e+00,-4.275839986121621195e+00
-1.931029575991718872e+00,-4.550325041674980753e+00,-4.138227169668208028e+00
4.823624962611289924e+00,-5.482600773476399070e+00,1.278558449466801639e+00
-2.218889760088735397e+00,5.509730616086836896e+00,3.492756246759448846e+00
-1.711941246769155045e+00,5.435757095543782391e+00,-6.446411801437238465e-01
-2.629168620864691608e+00,3.727158060859023347e+00,3.980599024134481745e+00
-5.962528838962065869e+00,-3.378771832538883135e+00,-2.082710324872512508e+00
-8.059872049706945374e-01,-1.639778373250315946e+00,6.382043852911242432e+00
-4.147967649896834530e+00,6.425377658567262840e-01,-3.549077201630089551e+00
-2.515190723398171846e-01,5.290507013660523228e+00,-2.634324082536197986e-01
4.780665534804657391e+00,-6.802443444653234750e-02,3.027988956936222387e+00
2.446250806440088521e+00,3.929088544128525484e+00,4.148092621762876853e+00
-2.493762839094408434e+00,5.839571813755958907e+00,5.857928949347389613e-01
-1.088612151743386436e+00,5.714393973717540653e+00,5.487286316247981688e+00
-6.341000771987879148e+00,-1.249155232655432712e+00,-2.804369716227029796e-01
-2.046037615192746184e+00,2.757044085391496147e+00,5.783176505421413260e+00
1.018623704299436383e+00,-1.788627470747104153e+00,5.393802098060142214e+00
2.483142282446267224e+00,-1.179460544396932820e+00,-5.656212155166859823e+00
-4.781234456194990656e+00,-3.299637526775333729e+00,3.790500298365854892e+00
-7.698651096564643748e-01,4.151157961186876300e+00,5.809911500321330635e+00
-3.226647661111164744e+00,5.646784581672142228e-02,-3.963674327353778448e+00
3.363429697617482450e+00,1.429962110039766365e-01,3.909397766848913491e+00
-4.657195287650553794e+00,1.584463382974953705e+00,1.406575626338578244e+00
-6.898447148902770998e+00,-3.942491453265070778e+00,-1.003941140428788792e+00
-6.742802063719855354e+00,-4.152329888157097137e+00,-1.616274121610145720e+00
-5.761871360196360037e+00,-4.295365656444613656e+00,-2.109760706412065367e+00
1.494821899485615502e+00,-4.412628598281379766e+00,5.314741089735418811e+00
-4.023283565945997786e+00,-3.689000884312215511e+00,-3.173462649751500386e+00
7.791395553771714166e-02,-4.919070670975784765e+00,-5.401689016729918968e+00
2.630877116880672162e+00,-3.680935166596898789e+00,-4.081181232949858462e+00
-1.949285325014886272e+00,5.994637778242395854e+00,3.954155722857070732e+00
-4.651808992450429336e+00,1.804263401536013056e+00,-3.350117622685386820e+00
-2.833508987152569603e+00,1.747856829271995149e+00,4.626341149313505596e+00
6.153814422808712159e+00,1.655160210936181819e+00,-4.815345076571304617e-01
1.260216811421133620e+00,5.721704382098180552e+00,3.143098391432766370e+00
5.080225763720718213e+00,-7.550200285366014119e-02,-1.565086291528283713e+00
5.334042159525442806e+00,3.696857469299316801e+00,-2.345508481966167569e+00
-2.651750134301677608e+00,1.331436137654251617e+00,-4.332933880946941763e+00
2.397837892023034989e+00,-5.668978621625036851e+00,-3.285514618379891782e+00
-3.964776824098497077e+00,-2.250187400765131684e+00,-3.221723371084580290e+00
-5.888068722071367889e-01,-4.191533843501575873e+00,-5.026247284771192980e+00
4.143120912608997841e+00,4.536096764905086509e+00,7.276712640474645166e-01
5.761186972982598187e-01,-5.143005981237195101e+00,1.263041361260398565e+00
-3.060350044411215276e+00,-2.222050621764968703e+00,6.627683605101921671e+00
2.277534870453674642e+00,-5.934033536057431668e+00,-3.309378418065331395e+00
-3.289044616815591571e+00,-4.660382047806886696e+00,-4.433779576966480063e-01
4.791944401643626894e-01,-5.576585719583556866e+00,-1.439073734053884168e+00
5.187269738361276694e+00,2.040316440156100697e+00,-2.532483620665448409e+00
4.021345988082691392e+00,-7.925961139725201665e-01,-3.018760421731435883e+00
1.863158420523431058e+00,-6.353342575817243265e+00,-3.435509180680057728e+00
7.444619414620512465e-01,-5.604236259757366945e+00,-1.203366321811503825e+00
-2.238104371727191566e+00,-5.129116750543844638e+00,-1.871666659426667767e+00
-5.348915559415468479e+00,-1.850939975677441396e-01,1.215950213104681099e+00
3.179185815497076462e+00,-2.208473398112710484e+00,-3.927092283091353053e+00
-2.630205007305976395e+00,-9.076057594909258119e-01,6.716626043908453525e+00
3.652906551267134816e+00,1.755213458218383593e+00,-5.287285389748526576e+00
4.785458206540824655e+00,3.921532491869622383e+00,-1.283005249895061040e+00
-5.124402821746969483e-01,3.556605398192632883e+00,-5.771171293367707733e+00
-2.392389340840793022e+00,1.464322356441493944e-01,6.487889653449733451e+00
2.664399497729792454e+00,2.326375605114895606e+00,4.004140021099559910e+00
-2.997081604626786966e+00,-3.267951881801631209e-01,5.808087848259205543e+00
4.265128416823971591e+00,-1.550042047563526371e+00,3.556846428923576831e+00
4.890002475439662710e+00,3.777583307581819039e+00,2.677247498067547138e+00
3.004105426634100962e+00,1.248645028621127695e+00,-6.256283276169917862e+00
5.496053902090935139e+00,-3.167864463546629761e+00,9.707572466606059214e-01
4.593965785538487445e+00,3.616283331792706779e-01,-2.554684609623266045e+00
-4.228990074309718850e+00,3.703912107719599334e+00,9.416944444748294174e-01
-4.152440653481002997e+00,-4.542320073022437121e+00,-7.782652939655496649e-01
3.189514371064345877e-01,7.399565076470254743e-02,5.666628387867750583e+00
2.429278809611516099e+00,-6.116930376835615135e+00,-1.831278629120010937e+00
-3.506801505484844927e+00,2.072563003322033470e+00,-4.059462573129955842e+00
-4.353316111658876442e-01,5.069886963135820324e+00,-1.092035645937565747e+00
1.433271965108402213e-01,4.487958208207028399e+00,5.294963652288684486e+00
5.497233221419411286e+00,-3.179894423014873350e+00,1.032555474437319987e+00
3.998406482876631252e+00,-3.024681229738196198e+00,-1.945586810314171133e+00
-2.735903122601552884e+00,-2.007537851059355116e+00,-4.060607489430151595e+00
-1.339077621265910567e+00,-4.437033725116687144e+00,2.306306221026375614e+00
4.455548268371215315e+00,3.795012245803453421e+00,-2.689417008349571869e+00
-5.998763302159457744e+00,-4.099496824771575731e+00,-2.352955388442269091e-01
3.569883768627068132e+00,-2.052445754753808582e-01,-4.192383080479578972e+00
2.500683880380640822e+00,5.467337966772871205e+00,3.475740416939457678e+00
3.108475302582862643e+00,4.623924937593605122e+00,-2.737520397586545307e-01
-1.508301218039014291e+00,-5.040470413632875513e+00,-9.890722718281135251e-01
2.636584995848773261e+00,-4.600076973406752145e+00,-3.365697380772135983e+00
2.443728679348373234e+00,3.564030281536793687e+00,-5.597708231728606876e+00
5.631890237776079999e+00,4.579270748492730303e-01,-7.271741182570288231e-01
4.578063301041611410e+00,-2.253366730248479666e+00,-1.278032059548388943e+00
-1.060688971651016166e+00,-3.416999943603932444e+00,6.737478046068423154e+00
-2.912181464442781476e+00,-3.655963295199298635e+00,4.800400507803313843e+00
2.708943650596972397e+00,1.527162593313239336e+00,-6.942313608901886646e+00
-3.023969245358876790e-01,4.413832669659307761e+00,-3.749523484328046052e+00
4.007711570971597581e+00,2.109964192581062381e+00,-4.878929737430889979e+00
-3.791617638235079024e+00,2.675858016173223053e+00,-3.883181777173034366e+00
-3.847040383100948979e+00,-1.855177184622870845e+00,-3.431946272959284450e+00
-2.554288503592391457e+00,-2.383424754039506765e-01,6.279659733246286457e+00
-3.151857458904581133e+00,-1.495648774520377255e+00,5.879352913931733760e+00
4.439673022413073711e-01,-6.253146899240490164e+00,-4.558403739612799654e+00
5.543977238056345236e+00,-2.178093590579694983e+00,2.874014765522386217e+00
4.990176323576875461e+00,2.713246270531698645e+00,-3.211890414744473787e+00
5.946954072205934416e+00,1.085835035784755265e+00,-6.740255947593444263e-01
1.747201647202065278e+00,2.793218373537692756e+00,4.542100543812059854e+00
1.637290814217302604e-01,-1.815241238742813845e+00,5.810712830135870810e+00
-3.067145783042634744e+00,2.304807507021571666e+00,-4.177265725405649555e+00
4.096249458035233104e+00,-3.273968189236631687e+00,-1.420222561786110171e+00
-3.997071302906358259e+00,-1.479000033752272847e+00,-3.466901935825629444e+00
-2.017470591466958396e+00,6.081638686512049752e+00,2.261633351266273184e+00
-2.087964920743446307e+00,3.955770451709125002e+00,4.609333006190450277e+00
4.161902222363411674e+00,4.064666055698778813e+00,-1.516501968466926975e+00
2.506168041956038928e-01,5.686328650965839948e+00,1.948818629659425872e+00
-4.166003359557166164e+00,1.973485866493005281e+00,2.172926493678740467e+00
-2.854161497193873132e+00,-2.280507274503001724e+00,7.286946273048648948e+00
-3.803931673069513408e+00,3.917813964591859488e+00,1.755692451285553624e+00
-1.930806692472376351e+00,4.846674364188135797e+00,-3.409723736081637924e+00
5.260849625122109963e+00,-2.058413352859222112e+00,3.082612901740496181e+00
-4.505476304514413499e+00,5.735293345207771232e+00,-1.749969411208913916e+00
2.694631509764374488e+00,4.260437489502902686e+00,-2.278964328865471067e+00
3.936392052602726011e-02,2.474549141672859331e-01,-5.863594628899925887e+00
-8.846097871114874112e-01,-4.389842279420498983e+00,3.280081791381840972e+00
-2.582859120787669660e+00,-4.916472546790135567e+00,-6.022521336914299361e-01
-3.785167361919932638e+00,4.738002634580676720e+00,-4.141430021863910405e+00
9.582833674587795669e-02,4.257483782378328030e+00,-4.503478353187460037e+00
-2.685483833105490881e+00,-5.302972835539248031e+00,-3.224945716356783620e+00
6.239973310396710993e+00,-2.368975671825013674e+00,2.181515851007117313e+00
-5.334952923397486835e+00,4.074505401879567223e+00,-1.412267575583160628e+00
-5.540212320936408474e+00,5.503863580483094431e+00,-2.592248075808996521e+00
-2.112949458657949808e+00,-2.058103346353156837e+00,7.176561176563506450e+00
-6.742651702057023577e+00,-2.935604612814697312e+00,-3.652764372632107820e-02
1.685918444587764853e+00,3.280957324965216415e+00,4.519012102777586470e+00
3.977502032507670204e+00,3.619705586681295273e+00,-3.600564625028756627e+00
2.515349383726374288e+00,-5.531629459128444282e-01,-6.159784699069138725e+00
1.657468281126759591e+00,3.496197004837916733e+00,4.518759260615806461e+00
-2.302513619175911685e+00,2.651476660719512157e+00,-4.772903311788983416e+00
5.847377078635676462e+00,9.289490856380918649e-01,-7.388779944061931726e-01
-7.017906103888611469e+00,-3.801388556658708229e+00,8.811343219120580661e-02
-1.291713450287300669e+00,-4.567722090635565557e+00,-4.547499630632267476e+00
2.188612466742050788e+00,4.286172952625724619e+00,-2.476870323692323517e+00
1.336773653337859136e+00,1.657747999221872659e+00,-6.768034450496362986e+00
-1.556500101251454105e+00,4.824359992998604518e+00,-3.111812168417617652e+00
6.968589764960532840e+00,8.096002880404475910e-01,1.732439379264150148e+00
-5.007300111512337892e+00,-3.660629919143791877e+00,2.533805701278188494e+00
1.524648703454822618e+00,4.635004957319391217e+00,-1.196971642806524017e+00
5.167204451561598688e+00,-5.211343988831936613e+00,3.403322688354843084e+00
-6.771672636453218708e+00,-1.062185918527317474e+00,-1.730045638674234221e+00
-2.241178635799641938e+00,-3.618337604934523721e+00,5.811095852517397908e+00
3.047020785708937307e+00,1.576470922433497179e+00,3.972119589539866880e+00
2.743401258633946238e+00,-5.450590310256806958e+00,1.523514325273771286e+00
-4.690290491833567721e+00,5.561189611162296487e+00,-9.556005091480674896e-01
4.385743579182586949e+00,-1.807180783932725576e-01,3.287776627069221025e+00
-1.563553430392734089e+00,1.010125904970251565e+00,6.571869823678635036e+00
-6.043524810302248085e+00,-8.361736702311864944e-01,1.038008736667266479e-01
3.051363843517313601e+00,-4.438520830560406694e+00,4.561934944115726864e+00
-1.966464525954227049e+00,-3.375725701565406744e+00,-4.436344055518159024e+00
-5.360321031844343942e+00,-3.031886419167626023e+00,-2.469389959159220549e+00
-6.493649648688349707e+00,-1.496869591327064652e+00,-4.009696143916640643e-01
1.031758640960187323e+00,4.708685775427545295e+00,-1.644915182708087009e+00
-1.691826745838875601e+00,-2.799906336083916703e+00,7.076043811394054472e+00
-3.545047029434147401e+00,5.234495474744672805e+00,-3.105311428306124277e+00
1.979320769364584676e+00,-4.426079011074999237e+00,-4.845943595761335487e+00
8.026083860699464445e-01,-5.129498521308450520e+00,-5.815289104397094455e+00
3.499497911608222545e+00,2.919462869591580301e+00,-6.242075648950584643e+00
-5.061004274477739706e+00,-4.601468487493583837e+00,-1.610624747778962140e+00
4.321616763023205188e+00,-5.836491282247796342e+00,1.307667817473324057e+00
3.460509073152056025e-01,-5.920173219705281653e+00,-2.836258036661733151e+00
-2.797199252918008749e+00,-1.918247510098264774e+00,7.051009574042733874e+00
-4.122924517904126951e+00,-3.454493663782763346e-01,3.498740116369027930e+00
4.987159835824534149e+00,-2.646199781139292884e-01,-1.583492716533817735e+00
-3.413121437265250524e+00,-4.435119966864184526e+00,6.464626025922286523e-01
-7.194289370924235705e+00,-1.506876002161377182e+00,-1.499738003290835620e+00
5.448691535127857755e+00,-4.080095106701570273e+00,3.158944882666342657e+00
1.617911705160609781e+00,2.369988248608983827e+00,-6.896542129638874918e+00
4.508036192339472059e+00,-4.883753541253152974e+00,3.888454565481179070e+00
6.691445463964138973e+00,2.078434540956163312e-01,1.348957276735865074e+00
4.380054411659129343e+00,4.725268886841028859e+00,1.736535271706819872e+00
2.808347998894755282e+00,1.897452498528101050e-01,-5.851799834321477434e+00
-3.623228705905009228e+00,-1.377392812951890200e+00,5.172448843565614851e+00
-1.679058857296418239e+00,3.816673772199210113e+00,5.645881522286095411e+00
-1.138110881009553266e+00,5.592619797204942955e+00,2.870080936237480729e-01
5.348058606195442266e+00,-2.396758750206293254e+00,4.280639779967559400e-01
-5.867272502998099881e-01,4.360428614816528992e+00,-4.776733124755278226e+00
5.115412646663242136e+00,3.128982011833829180e+00,2.559477791588529172e+00
1.715524469396615848e+00,-3.084882615574657372e+00,-6.099168879166396273e+00
3.363686913153624669e+00,3.924854914877578871e+00,-3.233970476587383125e+00
-6.147466520746295515e+00,-7.878400932722035011e-01,-1.300825465185449503e-01
-3.743218126003470925e+00,3.954065351825417768e-02,4.247230154592156026e+00
-1.226791153810093959e+00,5.547231387734232300e+00,6.644925268549569664e-01
-3.318511103311161392e+00,5.591992883989427732e+00,-1.284119525669936035e+00
-1.039052928552949506e+00,-4.113512002025010439e+00,4.720577477753544748e+00
-3.758980422362780516e+00,-3.390566209922767804e+00,5.607499495983267579e+00
4.642270253590037865e-01,-5.359874085729909865e+00,6.748503656231344405e-02
-5.381781674980641306e+00,5.729140022673627541e+00,-2.908063304817365857e+00
-7.295412382588971845e+00,-3.667337881360575924e+00,-4.014970363070283210e-01
5.172829641313722249e+00,3.632196233707733479e-01,2.876610331438139490e+00
-5.712158235742147205e+00,8.722286396050824564e-01,-3.224692134838805235e-01
2.716829271498443443e+00,-3.059985815604165271e+00,4.412606644742664841e+00
5.862033695813272161e+00,-1.048425466563313257e+00,6.017049577389609327e-01
3.130067866283649636e+00,3.158655666613185975e+00,-6.993464211416752896e+00
1.059262654231644341e+00,5.236260681256695193e+00,1.230616012995542796e+00
5.372876828917966030e+00,3.568384392140534267e+00,-2.455312610503105564e+00
9.970677902339676324e-01,5.667695983435218743e+00,3.210857203235113921e+00
6.229843517499547900e+00,4.128442044010462553e+00,6.883786204635043982e-01
5.198868655730474408e+00,1.374028135704038756e-01,-1.409954289172093755e+00
3.819785260883401090e+00,2.648106802686074790e+00,3.383289274549537762e+00
-6.255897892904843438e+00,-1.654917742249646384e+00,3.743579615986053488e-01
-4.168848561675243758e+00,5.459493509743762907e+00,-2.823993588729407200e+00
-2.201675441523967436e+00,-1.758165781475557132e+00,7.115756496072106252e+00
5.156524878356621322e+00,4.303344734478835143e+00,4.716802885394760780e-01
5.581491754562877716e+00,-4.376787571524550557e+00,3.023007560584538567e+00
-5.733614835936954535e+00,2.192317430312086923e+00,-8.262658373620592744e-01
4.104748689578074483e+00,3.903617489186671730e+00,-2.176738274404454998e+00
1.074087060558426732e+00,2.008070389466169559e+00,4.968659601865788922e+00
-6.619477108458029502e-01,-6.106339101839077799e+00,-4.648891479530758986e+00
4.690494589232764966e+00,-4.072188860878390493e+00,1.683630635503617079e-01
-1.291402035258899517e+00,2.938746088986414318e+00,-5.399813641358117700e+00
7.208854239987751100e+00,2.734810576062681964e+00,7.189173090919112052e-01
3.547533199967881856e+00,1.260802864076734586e+00,-5.126430973433253158e+00
2.253355891647860876e+00,1.177446228252129468e-01,-6.872503546040023892e+00
-4.275198943736331358e+00,-2.965690870372199583e+00,4.685143665067935892e+00
4.203062430487813472e+00,3.479052397304471800e+00,-4.026545020904333860e+00
-3.790149120500048596e+00,5.588456021364939019e+00,5.632309958481321877e-01
1.240110100466489618e+00,1.951971857823829870e-01,5.157155895550928015e+00
-6.791879073064106542e+00,-4.738880263050407327e-01,-1.405975420677722854e+00
4.053763096839335667e+00,1.962408081174678021e+00,-4.619972213134801109e+00
3.767001482944010604e+00,3.733840330614563552e+00,-3.665596011018811051e+00
-3.847710980680193321e-02,-4.109597452523540362e+00,4.816960656965013854e+00
-3.367939814896949269e+00,2.934272304274772480e+00,3.017817549372663777e+00
-5.964175077262821922e+00,2.545884581018281079e+00,-1.635780760429518255e+00
2.141564373112172071e+00,5.103769586105727285e+00,1.817609400253264340e+00
2.688565423148347122e+00,-5.887341993667611462e+00,-4.670845484149349636e-01
-1.366070554882531374e-01,9.186732795602461366e-01,5.790824292984252608e+00
3.232181788482130891e+00,2.303599267896821789e+00,-6.375723960136620683e+00
3.447613548742027856e+00,2.543135359086300618e+00,-6.077065685743796131e+00
-4.750315125933189719e+00,7.331140952343805361e-01,1.708073983967270504e+00
6.856532418390823835e+00,3.008775221927176169e+00,-2.054353542040022323e-03
3.760078273334270360e+00,3.243422170025002327e+00,-5.849222932969515121e+00
-2.143835380631657905e+00,-5.616322493840362640e+00,-3.881328503463598256e+00
2.703062830629599844e+00,-4.184968264616758304e+00,-3.563086460027298230e+00
-3.654661615457761581e+00,-1.779531822773255945e+00,-3.603425188535824386e+00
-5.894966848063146081e+00,-3.648143525654421016e+00,-2.106350782662518739e+00
-2.496213138596906411e+00,4.756074425640644421e+00,-4.702251404870675167e+00
1.695932590988185051e+00,5.523174383611816118e+00,3.469626849904323240e+00
-2.283170920014799599e+00,3.114722497519333722e+00,4.948999643550047622e+00
-1.709002788432737230e+00,3.498832746344186617e+00,5.746788693159055939e+00
2.531977326049099641e+00,-8.105710413146074433e-01,-5.973993921046355737e+00
-4.527387746507601229e-01,-5.805680840611358029e+00,-2.815520140092214074e+00
-1.897296241293789265e+00,4.923596171891865936e+00,4.765819366507454191e+00
-4.044637657999887281e+00,2.025759276535298081e+00,2.228426588791758700e+00
-5.801666241262044110e+00,2.886471697721634033e+00,-1.531077920390949476e+00
5.732064340875619557e+00,-1.303515430173858736e+00,3.942521003771108368e-01
4.147073913683695601e+00,-3.710753586276829830e-01,-2.897364226663017295e+00
-5.301776905012693497e+00,3.779281176686306143e+00,-1.028481677443464859e+00
7.297944142337493112e+00,3.883611226431435526e+00,8.589082487165752289e-01
-4.797744889924799416e+00,2.642579192894108697e+00,3.163897606898449233e-01
4.030615444602747566e+00,-3.163200368780797245e+00,-1.674015360021320564e+00
2.516339890997111306e-01,-5.812321876550456068e+00,-2.356317494556496861e+00
3.644067567541484642e+00,3.449931145980889458e+00,-5.152728690987250282e+00
-1.220796700700922166e+00,-3.031071035600661823e+00,6.756482434314188268e+00
1.105802542905462565e-01,-2.745808157043752029e+00,-5.557323243006242031e+00
6.105130906136366775e+00,3.507505175858059321e+00,1.984721885722253276e+00
-6.590963620567662495e+00,-3.033884458084956659e+00,-1.756405274124295035e+00
-1.479962963330903714e+00,-1.736865581387354363e+00,6.733976287265233118e+00
-2.688965340908890056e+00,-2.981521086517700869e+00,-3.983243087232469559e+00
-3.937873327772671850e+00,5.757909521668356234e+00,-1.593171052425880418e+00
-6.860679918256475496e+00,-3.720503196175425131e+00,4.479546272651833694e-01
-9.584280098742116172e-01,4.737173256714170222e+00,-3.066361622039914359e+00
-2.686702377923812612e+00,-3.831273064782944271e+00,3.791518776833640914e+00
-9.394346902259199661e-01,2.630899842878756445e+00,-5.482675106691348610e+00
-4.350145419572248429e+00,3.784036650597455864e+00,7.777933474335602115e-01
-2.559301639754891777e+00,-5.146557300445765648e+00,-2.006086809823947270e+00
-3.575701062048465495e+00,-4.741040212984705349e+00,-1.197084144670823136e+00
-6.210793875224106309e+00,1.038709527639832819e+00,-2.313938418487850424e+00
-3.096510400917305894e+00,5.587688524642564047e+00,-1.039217760085002773e+00
1.926022707601179329e+00,3.647240066146240078e+00,-5.787362318555671514e+00
5.025778431776184441e+00,-3.894525324824368973e+00,3.331601812110504213e+00
6.596477094925679019e+00,1.309690022195372450e+00,1.980066363000037688e+00
2.879521144441415270e+00,3.689415853448617444e+00,3.757360913902659139e+00
-2.699724156889378612e+00,3.299021163166128146e-01,-4.297324164287987358e+00
-7.660483801767465906e-01,-3.773684386063093754e+00,6.130090362580218333e+00
-3.777121932846421171e+00,-4.339502742526503809e+00,6.933538200836217857e-01
5.926921620939185509e+00,-2.751596502441070236e+00,2.627092985699916117e+00
-3.592707866209723377e+00,4.422693388785628343e+00,-4.199210318890719940e+00
-3.409332349919226957e+00,-1.876760607916621248e+00,5.810245735467750805e+00
-3.814963196470686935e+00,2.973086695391644607e-01,3.672725095119977468e+00
-6.668153521908222636e+00,5.145621185887864213e-01,-2.187796975128244004e+00
2.806570579401560739e+00,-1.905145439466971249e-02,-5.763376592173951707e+00
-4.725521495867725186e+00,-4.413906228322771241e+00,-6.214379360484033610e-01
6.808238879753655937e+00,3.940751178192556381e+00,1.043266353377204192e+00
2.720175751286120658e+00,4.719717447984694836e+00,3.801706054983764460e+00
-2.090541819109308364e+00,3.337059178975885665e+00,5.201708416522818013e+00
4.837486635805264612e+00,-5.487018173353500394e+00,1.202856520806071083e+00
4.917208501784466002e+00,-1.367569172811783806e+00,-1.013764711598016177e+00
-1.435482030667711406e+00,-3.956385527992217543e+00,4.446507310871323781e+00
-3.711526651871521310e+00,-3.679673355799776058e+00,3.177220760611596972e+00
6.521036423463939968e+00,2.152350439860792886e+00,1.921106996254918098e+00
1.651324188076660260e+00,-5.965206265410817998e+00,-4.450412022794670186e+00
-3.264093923542978337e-01,5.716854455252079470e-01,-5.698012191485178235e+00
-1.996130682637499154e+00,1.608766361367983233e+00,6.536680201075037999e+00
4.608762846449125483e+00,2.789716250365227301e-01,3.131654215346201031e+00
1.570318362517029609e+00,-6.369216945739260005e+00,-4.230807138325495487e+00
-9.651473256933089662e-01,-4.982405794917193376e+00,5.840485364463683382e-01
-5.619677033043274150e+00,3.221995850939949779e+00,-1.327071045089948997e+00
-4.759458548418555424e+00,-2.634156760442307732e+00,3.583836489742108444e+00
-3.836333087131990283e+00,-6.099994750112434083e-01,4.227674583343029369e+00
6.556870735026284258e+00,3.212818501425743101e+00,-7.325601909397232436e-01
-4.335850237464729251e-02,6.096712352888014941e+00,4.074153720488120634e+00
-3.839834501265745104e+00,-4.874802400093811272e+00,-2.234144510492768188e+00
-5.122194197551516837e+00,-4.569582068036810441e+00,-2.587962912216648537e+00
6.091672992974877410e+00,3.817246165676363212e+00,-6.277981540799980609e-01
-4.213073978510221806e+00,-4.201963891941613127e+00,9.673224959445738680e-01
-4.656158704628906797e+00,-1.229639989987336007e-01,2.329446204979195745e+00
6.705884906714929095e+00,3.387428341894746620e+00,1.799456537372192466e+00
-5.791351890782942213e+00,-2.612804021231296403e+00,1.844999727662952838e+00
-2.700005034581899999e+00,-1.797515644147867020e+00,7.050976941081481542e+00
4.817372397617625701e+00,1.243677821377570769e+00,-2.785227854575946793e+00
-4.196204099819822453e+00,-4.580129761054686277e+00,-3.010154394532759792e+00
-1.554345112778056981e+00,3.666344606535251405e+00,-5.246818576725870820e+00
-6.293260000528129616e+00,9.098888494039066022e-02,-1.005384101256370677e+00
1.196692632085035735e+00,4.126118039502191692e+00,-4.307632861024037751e+00
-2.205640434119989113e+00,-2.937934205210578575e+00,7.357119357339452215e+00
-3.120616301409407711e+00,-1.609481364281695748e-01,5.426055109390603981e+00
6.334468537916593256e+00,3.177944744901671559e+00,2.012455494177174398e+00
-5.493371905244592845e+00,3.646778845191500640e+00,-3.120153761024223371e+00
9.119763802630914684e-01,-5.870036546970341718e+00,-1.884204176288175381e+00
1.638493286535018578e+00,-5.356009195282927848e+00,6.419860087666094950e-01
5.147174530766004175e+00,1.773848666113720385e-01,-1.648212769027449509e+00
1.701391145692111806e+00,-2.134879180026389101e+00,5.092293356324157472e+00
3.454979203587897452e+00,-2.935353242540780894e+00,4.097840839628641874e+00
-4.476552955189757377e+00,4.276794182030259961e+00,9.504117777508022669e-02
-3.269990230925805541e+00,8.875894681382265339e-03,-3.954199315462558317e+00
8.967077482289942392e-01,5.863736952358276078e+00,3.834358563753729410e+00
3.979651982101732877e+00,-3.783800667197222634e+00,3.905969906126053104e+00
-3.220993405106156615e+00,-4.720622157983149769e+00,-3.490053223760368972e+00
-5.001949435892750095e+00,3.869929751385134509e+00,-3.322281505758574838e+00
5.994692579563406509e-01,4.491600728506130125e+00,-2.617971156819026923e+00
4.683602146969084501e+00,1.596867534463486948e-01,-2.287830293558391404e+00
4.247397624063747656e+00,3.298529729792019971e+00,-5.029548237673826527e+00
4.363667157087265380e+00,-2.158344335725100205e+00,-1.687099055231352507e+00
3.948241578991489309e+00,-2.813281910524501939e+00,-1.850985445469883972e+00
3.524661181200741122e+00,3.732813735758569784e+00,-4.036187255879631230e+00
-3.601782628770652472e+00,-4.382636210724580650e+00,4.482475587795850536e-01
-7.184510292291277800e+00,-4.006451032513224320e+00,-9.864398244902425894e-01
-4.571692614648517616e-01,6.272741861664221652e-01,5.957251432753413845e+00
5.313904962094379236e+00,-1.717128253860148224e+00,-3.833687543262165320e-02
3.598658514081989335e+00,-3.897822762178392964e+00,-2.098070747642144518e+00
-5.992732853704400675e+00,-1.285316364976233361e-01,-7.167975548898200544e-02
1.671597242938658079e+00,4.502478061084325134e+00,-1.828970441202254271e+00
-4.285474872576870098e+00,-1.177885437462187879e+00,3.934244672297233070e+00
4.266505036716944588e+00,-5.941791667821025413e+00,8.514380644557273392e-01
2.496029683644567232e+00,-1.528950566320265159e+00,4.569115621407426886e+00
1.428635702091854087e+00,5.552739693775472496e+00,4.504068562862286740e+00
9.125332262022514129e-01,4.814814600994137272e+00,4.904398233642454308e+00
-3.412266502725540551e+00,-1.655260971743927945e+00,-3.651661534310442825e+00
4.680089989788104532e+00,-2.130912841041943562e+00,3.273923424122161752e+00
-4.329034050361146413e+00,-1.468441829621272898e+00,3.630205614146048809e+00
5.154242776263424197e+00,-5.443076625796416934e+00,1.614676940209305300e+00
-6.894789296273304835e+00,-3.763354813925307685e+00,1.570173533488231077e-01
4.235005625346222935e+00,-4.330438941496590921e+00,-5.651306887379569099e-01
-6.517895728554820245e+00,-4.271364005187695767e+00,-1.641014251648048594e+00
-2.493703337842223977e+00,2.846247821858071791e+00,-4.679805921321481321e+00
3.933089543225208873e-01,3.267235939491478725e+00,-6.393933367624140551e+00
3.095936476819340477e+00,2.600993941810388899e-01,-5.256210721958785470e+00
-2.973729864102183207e+00,4.152276849084286070e+00,-4.538673547030128930e+00
5.345263736669501498e+00,2.896425373919141233e+00,-2.714383159375490351e+00
-3.950086263299749323e+00,8.275420488764884119e-01,-3.623797148851789718e+00
2.522110516170104066e+00,3.034349991235861133e+00,4.150529624323122668e+00
1.489377358784091387e-01,-2.300149744640336280e+00,-5.581509460021960578e+00
-4.940008662159755204e+00,8.427674119688562948e-01,-3.052028633856855411e+00
-1.466579842293812108e+00,5.689295096044459044e+00,4.898425768791447865e+00
-3.959579837595802676e+00,5.690534008776591435e+00,-1.952261821997677727e+00
2.491063720197413733e+00,-2.058678887299203453e+00,-4.965720736550228054e+00
-6.172049514774639256e+00,-4.270036925445281462e+00,-8.245360039456864909e-01
-3.966256760434580642e+00,5.531357522864689180e+00,-2.161728097475363874e+00
-4.764309334486203973e+00,-1.992003206304373331e+00,3.391003791047457305e+00
7.158422544191137549e-01,-6.195104002811818056e+00,-5.562990999369917589e+00
-1.083510632380973782e+00,-4.732240184378642134e+00,1.336321228226367008e+00
1.539561571849504595e+00,1.534294694516527280e-01,-6.675859413237801299e+00
-4.325613895786597496e+00,8.940464839597356272e-01,2.465176272457162643e+00
2.459492424920282527e+00,-6.191023288357425436e+00,-2.996762581668352077e+00
5.561907360932536015e+00,-3.242177856389517387e+00,1.096762661338225309e+00
-5.974708626705269587e-01,-3.480769654952102332e+00,-5.174447774080494611e+00
-1.609273811368735485e+00,1.109747936592169637e+00,-4.908131185618739956e+00
6.770877499254569498e-01,5.529838447225706943e+00,2.052715653009773433e+00
4.014700420669857550e+00,1.985086922663504394e+00,-4.859728554538600420e+00
3.549242727093309124e+00,-5.274118745890415738e+00,-1.237270892488526286e+00
2.600995788136581055e+00,-2.876602236161625470e+00,-4.497692909773875591e+00
1.054882917187430769e+00,-3.375721358690006557e+00,-6.000557149877980834e+00
3.881062836361239388e+00,1.309068839271362583e-01,3.538865219000791651e+00
-3.598786011165879817e+00,-2.552192635452754654e+00,5.802461824901723020e+00
8.782861682352041122e-01,-1.779925480062659160e+00,5.403306755721877686e+00
-3.647674545409149260e+00,-4.865296502635657383e+00,-2.093906155578201478e+00
-4.379577873826731249e+00,-1.497680006307574363e+00,3.678100593938967489e+00
4.268426994437197308e+00,-1.593113464200335283e+00,-2.341953090286299055e+00
8.665003721100580925e-02,-1.608730677844926737e-01,-5.804317978745176632e+00
3.135200737600181586e+00,8.284335274086754852e-01,-5.752705380882100705e+00
6.616298449713768015e+00,-2.361616457940546865e-01,2.082950019919216356e+00
-1.307738051419776282e+00,-1.012481023336410324e+00,6.675408925289748829e+00
4.265884615656899470e+00,-9.300329035393684052e-01,3.502276793516963416e+00
3.328108119334434623e+00,-3.536371828061905642e+00,4.172871195270975164e+00
-5.192505381651796981e+00,4.899645404727555942e+00,-3.366328069952824187e+00
2.403835229111727756e+00,-5.666772369918324781e-01,-6.306595020347155689e+00
3.073545727164583852e+00,4.683471231805095947e+00,7.767000009702921259e-01
-2.943800266474265293e+00,-2.328813488053863345e+00,6.990648251376961220e+00
-3.909935497178440023e-01,2.781476811496886636e+00,5.674654677981739503e+00
1.528322943931903266e+00,-5.286686810008840887e+00,9.923813288110294728e-01
-5.114967876937352109e+00,-4.338453696870764986e+00,-5.878635549184243470e-01
1.003386183827768674e+00,-6.121404572618919460e+00,-3.153631227898364031e+00
2.528256149553642640e-01,-6.364960057462451637e+00,-4.905459172167982551e+00
2.641498194005316158e+00,3.345473655423525816e+00,-6.008509677084890477e+00
6.653937948747044029e-01,4.354071114949819687e+00,-2.967315875519105806e+00
-1.373718586738545300e+00,5.393528722671338649e+00,5.302033679173487002e+00
-3.306291437234428976e+00,-1.785623005404658681e+00,-3.765390929153556776e+00
1.374838844336206733e+00,-4.116898843326382895e+00,5.468275402188933043e+00
1.928332197995043629e+00,5.496095229486823719e+00,4.122455112146939271e+00
-5.783491291455509220e+00,4.767403489591995225e+00,-2.697052951946496524e+00
-2.691341911540881426e+00,-3.675521228974901078e+00,5.039867520311933191e+00
5.968270287734633861e+00,-6.722898434198405493e-01,6.602769836560873351e-01
2.472738277827256859e+00,-5.591563257392236252e+00,1.004198838329987575e+00
5.180477305327181092e+00,-4.991304138978098770e+00,1.619496905136087461e+00
-1.722358800063509554e-01,-4.291410958916070939e+00,4.256616514010972629e+00
6.149177358371532343e+00,-2.972696421874166717e+00,2.206019146438535028e+00
-6.972057118681602716e+00,-2.005000334465033340e+00,-8.595580941341024461e-01
3.157645779816680598e+00,5.003091060472979912e+00,3.499566488099134620e+00
-1.116529810870931394e+00,-4.383748532076674032e+00,2.681377709123156095e+00
-4.984992288934074978e+00,1.307067524875215270e+00,-3.194448906496505813e+00
4.351130775173560061e-01,-2.594538926331047435e+00,5.817452786227549133e+00
-1.569275403032387661e+00,1.802579003423949722e+00,6.445133426412419375e+00
5.678321001152294656e+00,-4.596237187272810054e+00,2.418315691191033956e+00
1.453536339195842686e+00,5.788084384825700646e+00,4.415213345483537388e+00
-7.454454937337876563e-01,4.803744882260127191e+00,-2.957148381916405278e+00
1.970263014003682089e+00,6.682854906332720279e-01,4.506506378683543090e+00
-4.012235150273519402e+00,3.451456466150153002e+00,-3.893003483241340934e+00
4.029298475683394387e-01,-8.943814007536271538e-01,5.743695044833077468e+00
-4.268328916098604431e+00,5.557333199674211244e+00,-2.676224215529874773e+00
-8.961958576785018504e-01,-2.961807419750812187e+00,-5.034655316874278697e+00
-6.873438590103452484e+00,-4.126793815696741419e+00,-1.520829177349492189e+00
-2.406377082248619015e+00,2.080245985515194462e+00,5.526987797910294375e+00
-1.247724047243102374e+00,4.121285661757704055e+00,6.000344240125368600e+00
-3.952082973344803296e+00,3.235399025938302753e+00,1.975163700792240018e+00
-5.130267819340057933e+00,-2.470363602331737685e+00,-2.568198853890419908e+00
2.990821663872957892e+00,-2.355888046291694238e+00,-4.016884530025144784e+00
8.457033950510793874e-01,2.151747663226624141e+00,-6.521096138112940643e+00
-6.631532532458922269e+00,-2.523409128787035716e+00,1.052784726160779366e-01
7.464468650102920044e-01,-1.397602895498168962e+00,5.594327947980854532e+00
-2.485995334092850617e-01,-5.742122865467701232e+00,-2.783744025830029223e+00
3.737822410266784523e+00,-5.201842841201876233e+00,3.471987737658298823e+00
4.587268609258004837e+00,-4.376916402837763620e+00,2.214938973939483205e-02
5.153583364250648557e+00,1.367786704271922726e+00,-2.201785524145477346e+00
1.053915641265620984e+00,-5.831164655779697448e+00,-2.164896476497397693e+00
5.442974663542578639e+00,3.478982710307799042e+00,-2.891149765950974615e+00
5.769728049151834348e+00,-3.495409301817510972e+00,1.807194952542254596e+00
