-2.827970676028895181e+00,-6.162652954230307678e-01,1.597434945782970406e+00
1.156739364332607600e+00,-2.996104167066045321e+00,2.054566872606645056e+00
1.085038792135904151e+00,-1.724830290133232413e+00,-3.835642445081369534e+00
1.491457586321639051e+00,1.517700280339737473e+00,-2.622695505801393878e+00
-2.087507569519030104e-01,-3.040258926421879782e+00,-9.431253007166601199e-01
-1.005948646991042583e+00,-1.234751430508263192e+00,3.112074023627417141e+00
-3.576536745313712018e+00,-1.009006412049327839e+00,8.149010293902587687e-01
-2.126030229816229244e+00,-1.904083166637016822e+00,1.751119932267534374e+00
3.862884532465590048e+00,-3.038779971886261144e+00,-1.802266544927096481e+00
-3.136221489789038586e+00,-1.608608452923298682e+00,-2.864741469960726761e+00
-5.963761981988339178e-01,2.238970151106322692e+00,2.769765933648581147e+00
-8.391372047859532168e-01,-7.324674403854567473e-01,-5.173242628658372588e+00
-1.296397566395062206e+00,1.204055125938946480e+00,3.884017800214782934e+00
2.724813664035503624e+00,-2.794675478144912795e+00,3.240628075566091143e-02
3.731504497244613194e+00,2.926188054113792791e+00,2.202910981062493057e-01
3.574412844421145152e+00,-2.750450124555715803e+00,-1.127873104060279186e+00
-2.454778335794908894e+00,8.186292275822624198e-01,2.513787480410660358e+00
-2.642499132814875473e+00,-3.402360418928195518e+00,3.035699433599146069e-01
-1.592481273394620755e+00,-4.765314221875806000e-01,2.905943859334736867e+00
-6.830749241032074703e-01,4.126262128336893653e+00,-6.167726379371926138e-01
-3.397667528775115464e+00,2.017396060540086022e+00,2.194246500943456191e+00
-4.236724995356436901e-02,3.514155170073949730e+00,3.838208899191639101e-01
4.054232853372632839e+00,-1.336645008664785417e+00,-6.598646288717057162e-01
-1.293268103939553271e+00,-3.272281227948378390e+00,-4.913164975023042724e-01
2.766514190578040822e+00,1.955630714476201959e+00,2.392891170044142868e+00
-3.903462507446464613e+00,2.676478924775872237e+00,1.422900751115992346e+00
-4.415735637866387009e+00,-5.066320396254982983e-01,2.229045093148422918e-01
1.785518304994166527e+00,2.240000299512660664e+00,2.120365334007988878e+00
5.568656249177375561e-02,-3.091796472358925740e+00,3.427821355821838001e+00
2.742777549450182040e+00,-1.239708587804146056e+00,1.162454877655558994e+00
4.580890590601780943e+00,1.190587875004752050e+00,1.803208163104598472e-01
-2.167392672150551203e+00,1.399773782282438261e-01,-2.882432947512272747e+00
3.897051051240160380e+00,-1.711400193232282652e+00,-1.604078093970549235e+00
-5.593581651825767498e-01,-2.166345177132520838e+00,3.204483445665767150e+00
-3.491583633065542980e+00,1.630406029608787000e+00,1.918918691746188676e+00
-2.364565647513876545e+00,-1.588804050758829467e+00,-3.109946686556061657e+00
-4.423249512528019345e+00,5.335313875658098670e-01,6.205218724751820902e-01
-3.383179677244353201e+00,1.006893672254810523e+00,1.864479077999735557e+00
1.254926474600410957e+00,-3.403705090195519478e+00,1.545661128152437502e+00
-2.951222585863905845e+00,-3.108078836910701526e+00,5.195829794108772770e-01
-3.866094369904355066e+00,-6.080186562737450728e-01,6.267326178464055486e-01
-1.988222270439509387e+00,-2.950574000065597335e+00,1.538047748453416075e+00
1.291112585484576858e+00,-2.281912498611948781e+00,2.457463703233024432e+00
-2.134250515855440067e-01,2.496658927542112494e+00,-3.707836406718433953e+00
-6.387233114020499647e-01,1.241169077066101689e+00,-4.099785027941409865e+00
-2.505947273816797605e+00,-1.311216319454161949e+00,1.607883518085675201e+00
-4.495904822194015438e+00,-1.150256261641721123e+00,-4.862346598581387402e-01
-1.542319772491559160e+00,-1.205928042045662174e+00,2.607949555668767072e+00
-1.327945069188745109e+00,2.745040197582711450e+00,-1.969602355263023297e+00
6.026018817247785764e-01,4.661628391642986813e+00,-1.956076677680958165e+00
2.591084835272882692e-01,1.070105037701797768e+00,4.565541148147775452e+00
-2.376054505437730224e+00,-1.457456105943827129e+00,1.687144330270009762e+00
2.183758579397780064e+00,1.266410312694527196e+00,3.728434718179231666e+00
-4.127613818509240140e+00,2.657706694399533554e+00,1.710026185008946209e+00
1.618942248092363201e+00,-1.732904095069497385e+00,2.474551904200342989e+00
-1.070166752967403490e+00,3.124012742276449650e+00,-2.149838983175658136e+00
-1.654090818913076966e+00,2.458781033028181628e+00,-1.875658901322889704e+00
1.490230507859913400e+00,3.599255639755030600e+00,-1.797196871566635767e+00
-2.068901134525248597e+00,-6.433576239436428201e-01,2.478967030257249959e+00
-9.451222353986753477e-01,3.053850567401795169e-01,-4.405159631919135954e+00
2.675023913598976844e+00,1.961093959126420927e+00,-1.227522477772922116e+00
-1.609911941862358198e+00,-8.023143905923104668e-01,-4.448575010118337225e+00
-6.156985543138308037e-01,9.219988829275417297e-01,-4.425062212551625684e+00
1.741274632785434262e+00,6.572326967145546428e-01,4.073771231133189730e+00
-5.492798173306598919e-01,-1.892128561616161830e+00,-3.119710193803784559e+00
-9.020670737580462062e-02,-3.446140122890437585e+00,-2.852516864778991690e-01
2.464595164118144055e+00,-2.402327021371982507e+00,-3.036565640875637406e+00
3.398443901030966108e-02,2.179167372499921651e+00,-3.601394897936633033e+00
-3.839880788401507594e+00,1.746966231973987149e+00,1.651116650256364560e+00
2.483041282137825601e+00,2.782096450309262892e+00,9.494665098448951124e-01
-3.785855277687841247e-01,-2.720575016111961286e+00,-1.731730426062034089e+00
1.838056502969826811e+00,3.723858720686646251e+00,-5.574685175496622014e-01
3.641890962276110866e+00,2.709803667847355158e+00,-1.213401585396673863e-03
-1.268221711784099925e+00,-5.822240672780358839e-01,-4.640960600026026839e+00
4.580542515559476335e+00,1.346640484436618879e+00,3.478523810151926132e-01
-2.972351968043424053e-01,1.750049760938258370e+00,-4.087656565584228296e+00
2.865753399904715337e+00,-8.606204873745152417e-01,1.271602654815085387e+00
-1.970107881875401867e+00,1.118697285537000985e+00,-2.295469806125571832e+00
-2.026921204219365169e+00,-1.214363204945007269e+00,-3.894759305117855064e+00
-1.926610253624221114e+00,1.854661908902708323e+00,-1.934848359167224530e+00
7.240973516608898430e-01,1.436213460393885422e+00,3.930873525595880658e+00
2.191176797773245699e+00,1.220360218507345440e+00,-2.003352338228574059e+00
1.272829035591223346e-01,-3.738397599674503358e+00,-2.663104022676553682e-03
1.945988757751882181e+00,-1.447509487355292723e+00,-3.292657798294885918e+00
-3.069092284157965977e+00,-3.225299956522914790e+00,1.762177457021744109e-01
-4.488988775915509599e+00,-2.009536427011867410e+00,-1.343373035795665249e+00
-1.178901448395880625e+00,-3.234732708260199097e+00,2.131684370066386336e+00
1.885469976849104778e+00,-1.582690265080049508e-01,-2.776491243641568740e+00
2.863497945321995974e+00,-1.111443852416462041e+00,-2.292320353929102605e+00
8.300131097727040386e-01,1.857333293838998367e+00,2.991257113380531685e+00
-3.948145322418914027e+00,1.857000875497647918e+00,1.623407292824109227e+00
2.501551078739864931e+00,-1.171053639542630531e+00,1.599763284123923102e+00
-1.928797564841710610e+00,-2.912235218613146159e+00,-9.005014230033424605e-01
-3.184664854429704484e+00,3.051738704886918008e+00,7.435556203617469384e-01
6.541407701589302404e-01,-9.925382723242233141e-01,4.381479427522728898e+00
7.773425319316822346e-01,-8.817732020657371717e-01,4.131866275752890338e+00
3.710672044301934758e+00,-2.438206132687142702e+00,-9.521707742444813771e-01
-1.535100641368179586e+00,2.157265846060708370e+00,-2.149288824064901071e+00
-1.687028968722131150e+00,2.887030328169578830e+00,1.849902056014906648e+00
-4.519331300198272672e-01,-2.492824481620746491e-01,4.007053052507271396e+00
3.484209689823800637e+00,1.006784313793316787e+00,-8.637644759267444350e-01
-3.533620790698750902e+00,3.059175296653046328e+00,2.140556144911873293e+00
4.118745262043050026e+00,8.829402353675338544e-01,9.046474971565623413e-01
4.255496006993680247e+00,-7.336149494070652866e-01,-5.446481602221113771e-01
3.087084500946811083e+00,1.210301635776664497e+00,2.651420403888411936e+00
-2.614898554908763328e-01,3.145057471061459952e-03,-4.756304082112536413e+00
2.748908341569092695e+00,-3.431726982528895853e+00,-4.593436619510337660e-01
1.733149785868590698e+00,3.345766282199559960e+00,-1.539094610197392798e+00
-1.625835683257548236e+00,-1.151475350314429269e+00,-4.224635145823793181e+00
-2.021674601377946967e+00,-2.151092558439616109e+00,-2.237532170752229987e+00
2.804108248644876955e+00,-2.777244880849736863e-01,1.917725002057079298e+00
1.419420700681589320e+00,3.672497638369106365e+00,-5.217669746779330930e-01
-1.156226661047794702e+00,8.234631777600586178e-01,-3.654655222080150700e+00
-7.587487864879544075e-01,4.423293259367733654e+00,-1.234666498107626298e+00
-3.437006381029594326e+00,-3.098747724979746820e+00,-1.278234363588588163e-01
1.404388970609685261e+00,-3.553184523109460535e-01,3.702804950680205653e+00
-1.593863505133215064e+00,-4.310225914542694103e-01,-4.113164542732702600e+00
5.287802045079668112e-01,2.971945992024080496e+00,-2.860479070771876575e+00
1.361878671037177302e+00,-9.380150583763702254e-01,-3.630957664190842316e+00
-3.717076959036914041e-01,-1.716518264881063294e+00,-3.485738428072530759e+00
-3.506219099193407018e+00,-1.138893046344378490e+00,-1.911014749333856066e+00
-3.809327065185544869e-01,-2.496209919743076711e+00,-2.026345811530835039e+00
-1.465805908455113160e+00,3.933378134370096202e+00,-1.212773972770829489e-02
-1.463126212783384172e+00,9.698241427409813945e-03,3.156577497501625640e+00
-7.040831521933221815e-01,4.260051172745424886e+00,-9.877537290978121165e-01
-1.571836706305425713e+00,5.278421644120838696e-01,3.355521580086717304e+00
-2.520579407860377152e+00,6.051068397891690154e-01,2.446828965525548849e+00
4.031117673424502890e+00,2.220751139541695895e+00,1.902942466417214262e-01
-5.151412983733766326e-01,-4.483434754303218028e+00,1.783047775040851546e+00
8.261024086553294676e-01,-4.378535665061530580e+00,1.234015562556273649e+00
1.691413920310740338e+00,-3.360630040680517627e+00,1.030061236391472290e+00
-3.880937595967909548e+00,2.738600691780533336e-01,1.071066288163752933e+00
2.962577323646235605e+00,2.453814873318181267e+00,-7.064149243263340150e-01
2.384435965992751427e+00,-3.693907595546895184e+00,-1.201685619849337250e-01
-1.516899952497950510e+00,3.342687808674750460e+00,-1.262166427965945914e+00
1.805720657007509500e+00,2.986817765134059055e+00,7.863031973614036385e-01
4.185518011801859117e+00,8.843569578427958877e-01,-2.554531349768337511e-01
-1.819477747228282372e+00,-3.382801090985304793e+00,1.452697502360456472e+00
-2.558265768188708211e+00,2.490560338238684501e+00,2.868331321266458733e+00
-1.669684331332011162e-01,3.329866690057318390e+00,6.033373883507068269e-01
5.212011818224120407e-01,-3.371383180048795669e+00,-7.743994065305015440e-01
1.030716908078683769e+00,-2.723855703557196861e+00,2.505389861199632584e+00
-3.089287903890455933e+00,-9.202999843773290722e-01,1.216226099262798011e+00
-5.133571428001610926e-01,9.058850975184193910e-01,-4.615272660660018289e+00
-3.897184596722142569e+00,2.061800572256355046e+00,1.692312073494786961e+00
3.751968322955819612e+00,9.955878232866621769e-01,1.536003292171894019e+00
-1.117073967759541347e-01,4.280024518086116281e+00,-2.546942306957452384e+00
-1.321959866653214855e+00,-3.816029274825950335e+00,6.660450734020912922e-01
-2.379973027232934246e+00,-7.364557380143105236e-01,1.997526338663283774e+00
-1.777417630217106970e+00,-1.999649712735473983e+00,2.083542870745851872e+00
3.132824072561857798e-01,-4.275296717408482827e+00,1.055883601913429448e+00
-1.488063073796702662e+00,8.118285960921881594e-01,-3.283478886086069082e+00
2.649904929577275858e+00,1.729444374104737392e+00,2.831641679434293568e+00
-2.852068095674722858e+00,5.954612354562354160e-01,2.138276916269786110e+00
3.363239948419483039e+00,-1.916630985102622642e+00,-4.874167210644790582e-02
3.373883220907456071e+00,2.816725266710623288e+00,-2.644009223725295454e-01
3.011001691261124158e+00,7.295262695038026157e-01,2.339100097808349599e+00
-2.529980158588350125e+00,3.044781392649912100e+00,1.891085285642793101e+00
3.776052032464934705e+00,-1.005131845587853734e+00,-5.728736808781052098e-02
2.428489929458593100e+00,-3.011716940239846707e+00,3.633699569756088099e-01
2.988171879141970910e-01,4.666590338216703771e+00,-2.008439011135075614e+00
4.101171230855972460e+00,-1.167125482670694048e+00,-5.954941467244068143e-01
2.550575259900848657e+00,-3.077065509678883704e+00,-1.756862145348388804e+00
-2.987379757657593782e+00,1.076863569076583760e+00,-1.014237752890278177e+00
9.997946421157907215e-01,2.955445510389811847e+00,-2.456979189546084630e+00
1.615325295873082823e+00,-8.581675531822859082e-02,3.657411740706761005e+00
-2.500027209410523588e-01,1.882499738823021573e+00,-4.073649213108457623e+00
3.778214484034840837e+00,-1.862123852183999784e+00,-6.572908596707304207e-01
2.853952044028795321e+00,2.348667699423443000e+00,-9.395808790931537979e-01
-3.580060151443487548e+00,2.137453852779166663e+00,7.692750336858396043e-01
5.384441350774950008e-01,-2.628706423109742341e-01,-4.143849236627795030e+00
3.492109289864262944e+00,-2.487430327438831523e-01,-1.323117598663683170e+00
-4.147833182977154753e-01,6.452321795753243605e-02,4.150004723703897724e+00
2.745797002590992242e-01,-1.669597448361580527e+00,-3.761626377413946010e+00
-5.481325836230417359e-01,7.782223736178096596e-01,4.309413124138862017e+00
-2.813376826310996837e+00,6.413676825242697888e-01,-1.535603822001240015e+00
-2.193505041754986618e+00,2.393288258475922525e+00,2.877908161530348341e+00
-8.081872233828910623e-01,-3.736931207574351266e+00,3.510632363167987546e-01
6.090248602048885518e-01,1.415484607549871487e+00,3.973649482191019988e+00
-2.738758772475595293e+00,-1.232026424870040077e-01,1.858234334607997251e+00
6.499386144755575634e-01,8.218930199809555415e-01,4.929161853474423260e+00
1.733707275640522516e-01,3.381935749526408408e+00,-3.060671875452934287e+00
2.800784999990132196e+00,2.773640706233355235e+00,-7.255517779332903983e-01
2.002209014789637642e+00,-1.817288137658402247e+00,-3.416405917619665722e+00
6.824786652276056964e-01,-2.223510607508994430e-01,-3.978079438020328595e+00
-1.034588156190283881e+00,-3.615542713233028671e-01,-4.752175088841854134e+00
-4.118284986379154300e-01,-8.878115012697035402e-01,3.817695295352938611e+00
-1.452762559676883836e+00,7.096008604904131545e-01,-3.361683956670400431e+00
5.997308578819880998e-01,9.060913964728242176e-01,-3.594650805741142818e+00
-9.595776082986083866e-01,4.160637687928639750e+00,-6.221652913665273177e-01
-2.448419217737745512e+00,3.472001325878084632e-01,-2.258966590123741014e+00
1.466515093748557153e+00,3.009031259784189061e+00,8.089659241627479291e-01
-3.264122413651237231e+00,1.345194172087248452e+00,-3.704650245457833946e-01
-5.184116010098466232e-01,-3.207484136593524049e+00,-7.554531354444108393e-01
3.548637675964624982e+00,7.530038195940678136e-01,1.578918419429607756e+00
2.141653604981548664e+00,7.266595879326102903e-02,-2.538112662395217711e+00
-3.386091452919121281e+00,2.631017131755363891e+00,8.240902752459214886e-01
-4.394442559856810981e-01,-1.799656664240568693e+00,3.466351079012915282e+00
-3.444949267738542265e+00,-8.058485911050131678e-01,1.009454443198480877e+00
2.033505542164804947e+00,1.208284695758228278e+00,-2.125345142435315360e+00
1.820063993789854950e-01,3.111546250865862451e+00,9.641840688719681696e-01
1.073161085879666521e+00,-2.338562609777186996e+00,2.676311186023796918e+00
9.477359111284126003e-01,-3.005055162904074706e+00,-1.533575768131717698e+00
-3.380135518642285453e-01,-2.935537768196212038e+00,-1.102844496736763436e+00
9.049191431113459139e-01,6.057614208702601921e-01,-3.414537113707252658e+00
1.728578781197167125e+00,1.193547700797352035e-01,3.611820452309951968e+00
-2.778775462019384968e+00,-1.131880844140201070e+00,1.528070928195886191e+00
-2.548758344057977965e+00,-5.744720603574164919e-01,1.928245345647255471e+00
2.899177882874371281e+00,-2.252636779041135573e-01,1.897193313779789836e+00
-1.008771435554218554e+00,-2.717669796822844042e+00,2.472005637699679959e+00
-3.227331655550113698e+00,7.818944603182922393e-01,1.879007970562824870e+00
1.473544142861822781e+00,1.688291968967264023e-01,4.046973685510754315e+00
-2.224550693398723578e-01,-3.987408956846696828e+00,6.153706657347676190e-01
5.492961328784241593e-01,4.016924994391287140e-01,5.254640058228246424e+00
-2.107975157136810385e+00,2.523897184696528573e+00,-1.086142072570841277e+00
-1.005064120445942732e+00,-3.367515624342166891e+00,-3.322503024346091793e-01
1.970052217150408236e+00,-2.668623252713843375e+00,-2.462623011682432139e+00
4.135498280928489478e+00,-1.910001943062151764e+00,-1.446607547466299604e+00
2.811253811122637281e+00,9.752809467842005198e-01,2.769989485673886254e+00
2.544905131483549354e+00,-3.308784670752218826e+00,-4.936504245438463889e-02
2.203250736441464408e+00,-2.212706563645232105e+00,-3.166190359332676785e+00
-1.572444228107672037e+00,-2.134800265774377426e+00,-2.405105893075424994e+00
3.595882084726580441e-01,-2.771240637739468937e+00,-1.646830998279309011e+00
-3.243785950991838529e+00,1.174664211449653717e+00,-6.023984776829227616e-01
1.152985958236725450e+00,-3.720832975675020471e+00,-3.038752002683512976e-01
-1.586679620582749584e+00,-4.024220231514201274e+00,1.383665004614703209e+00
-5.695215013781205343e-02,7.966495870410883473e-01,-4.283690753131399909e+00
-3.600515358746389616e+00,2.668544266057360836e+00,2.275869631507704050e+00
3.387966727797290911e+00,-1.135394607661809330e+00,-1.862730375721884712e+00
4.202851310145376829e+00,2.238097415009757007e+00,1.410286699103657337e+00
5.464513025055133255e-01,3.166831512502788826e+00,-2.760272962330748037e+00
-1.179945210338299466e+00,2.861396375107312373e+00,-2.095986614697307626e+00
-1.966525452660981443e+00,1.359570314872066699e-01,-3.084058898278362548e+00
2.686516116465352155e+00,-3.641807915270967033e+00,-8.047605388930937353e-01
-1.827417178773348194e+00,6.188187533891769121e-01,-2.787170490129914135e+00
2.546625784530706760e+00,-2.469991049324014920e+00,-2.855072406774396221e+00
-4.591550281747611706e+00,-1.026748310150284116e+00,-3.805992699629636156e-01
-1.728221931664303268e-02,-2.518103928495858845e+00,-2.085194405608080892e+00
-8.466922321820138375e-01,2.950170719024827193e+00,1.602645828720301147e+00
3.390042933714038309e+00,-1.671689905843933399e+00,4.606167687888847173e-02
3.026383384796343723e+00,5.188927022876043127e-01,-1.488594682231151323e+00
-4.617370112886605149e+00,-9.606089017432972721e-01,-1.683151092816260186e-01
4.221140924090160396e-01,-7.218075619257479092e-01,4.681090984916658648e+00
-1.889810740921203713e+00,2.041045867750203247e+00,3.446881943212888100e+00
-2.614278275817809027e-01,-5.931529234622251456e-01,-5.016546104526861782e+00
-3.205880469100639729e+00,-2.351281975530107093e+00,-1.432104885885569612e+00
8.675733496171951220e-01,4.147379156410141654e+00,-1.124144849098017485e+00
1.035106746865308347e+00,7.332785290794787691e-01,5.040896453733903826e+00
-1.878216885296063898e+00,-2.281916615613942767e+00,-2.026665438638600047e+00
-2.309120897271625117e-01,4.225196298840734777e+00,-1.040794885514315871e+00
2.341100414604568414e+00,-3.605358996877169875e-01,2.404233182255858914e+00
-2.152148690293322009e+00,-3.406874722221383232e-03,-2.927850130095809078e+00
3.684717707301083500e+00,-6.739365027256345730e-02,-1.097715366273467996e+00
4.029143274193383029e+00,-2.267503830694367561e+00,-1.664180907581343183e+00
1.107345656445778870e+00,-3.543877857019927191e+00,1.713341274087621491e+00
3.745545033935875345e+00,2.851037428962189146e+00,3.683460618479077464e-01
-1.652813428288238295e+00,3.423780035713050118e+00,8.847298327301469367e-01
4.134704970427439896e+00,2.129547609849726797e+00,8.296626814994549626e-02
2.530294447994493545e+00,4.868349693575176884e-01,2.861637090305909847e+00
-4.220979954276617541e+00,-1.251343513564733723e+00,-1.040816990944966935e+00
3.186572473342550449e+00,2.718511291653384898e+00,8.086788163487891312e-01
1.378143307001755913e+00,-4.182265908485509165e+00,9.120640998453839465e-01
-3.865197951043464197e+00,-2.901474743902101583e+00,-2.655829243943266249e-01
9.954316855438790634e-01,-4.105666753749459552e-02,-3.626025713909578396e+00
-7.267789416824367299e-01,1.550932929321702458e+00,4.082052498319851175e+00
-2.773379087227238138e+00,2.567348452565881178e+00,-9.960285422264172905e-02
-1.134590322336043400e+00,-8.251033959332449985e-01,-4.835463658435995349e+00
-1.577298686588566090e+00,1.800193219666072153e+00,-2.459860324843905932e+00
-5.533599948995769902e-01,5.392412216736337527e-01,-4.858001056654823735e+00
-2.195069886341955989e+00,3.384494692647156633e+00,1.063911231876014885e+00
3.787760511621864890e+00,5.734782414613249779e-01,-7.371607985543175978e-01
1.910685069208380993e+00,-6.291992966897717032e-01,2.872615081585549124e+00
2.853133280861296139e+00,2.683716311963504353e+00,1.018323970695982572e+00
-7.026054922217171983e-01,-1.248997705830119098e-01,3.869658252980277435e+00
3.962552346371192247e+00,2.551781274970996716e+00,2.387524934153086309e-01
-4.310330669661097125e-01,-2.380093109955061070e+00,3.226341847425096887e+00
2.943760691030401055e+00,3.234399213081409652e+00,-3.487567809384227446e-02
-1.323277843121596353e+00,1.161585834824705593e-01,3.363268131690895668e+00
2.206854136278332490e+00,-2.816929064120365034e+00,-2.150135686180651096e+00
-2.789152071537073230e-01,-4.548911421468534222e+00,2.391682529021969650e+00
-3.777883996917315579e-01,-4.608451255351647902e+00,2.298203803723556593e+00
3.401381215245358192e+00,1.860230900188001857e-01,-1.307249032744156825e+00
-1.318203814122198780e+00,1.997134470635789194e+00,-2.722314559899549735e+00
-4.087856283004946079e+00,1.074909996218444297e+00,5.781798375035440696e-01
-1.484499649996153137e+00,-4.150772898840043856e-01,3.042141182239483044e+00
1.846231007292335358e+00,-1.356858464550895205e+00,-3.370069346761919160e+00
2.621869911647745077e+00,-1.396093724258749003e+00,1.207837985015005167e+00
4.452820753445187185e-02,-2.966986224115050419e+00,3.423845107718536340e+00
7.395116747050815009e-01,3.550443040115071280e+00,2.884228912452861931e-03
-4.038057847162185965e+00,-1.112511525020620784e+00,-1.143139410276477586e+00
3.439814170848560781e-01,3.859849235643762477e-01,5.042068505041674698e+00
1.233919902258105550e+00,-2.009672674623884436e+00,2.744634593556421809e+00
-3.447848340025316816e+00,1.371531629838267818e+00,-6.122952099688776240e-02
1.817518547150720476e+00,3.957162724837009815e+00,-1.049849258855935830e+00
-2.991742603741102124e-01,2.169952186070981170e+00,-3.952195853994060037e+00
-2.028037017316868251e+00,3.199720367494219175e+00,-7.284025101681735892e-01
-1.761316099802870683e-01,-1.430552889129017347e+00,3.880425963341612050e+00
-1.651404762645798829e+00,-2.622166565661478543e+00,-1.419047687169562755e+00
3.718958827638193299e+00,8.377676195972074691e-01,-7.177920375085888871e-01
-9.791335642578246068e-01,3.382060439751308323e+00,-2.096069636183294005e+00
-1.323921353243137089e+00,1.418809818620516916e+00,-3.087136391896053489e+00
2.194153635364337163e+00,1.403950749468247272e+00,-1.973975327613873842e+00
2.775837776274778346e+00,9.778052289669793007e-01,2.863293463413635553e+00
-3.739515289283151134e+00,2.376737671129094953e-01,-6.301339590574308591e-01
3.432099961803387167e+00,9.036541271577803736e-01,1.810271298216367120e+00
-2.263964389591630155e+00,8.834499226945745631e-01,2.702524705181258202e+00
-4.351470909433605705e-01,3.784618501339162666e+00,-1.508448631575130816e-01
-3.047539776664690780e+00,-2.979992373425567109e+00,-4.399919705469180764e-01
-1.144939203364750524e+00,2.082045802221482944e+00,3.151302460063922783e+00
1.494686811472922372e+00,-1.427971267341160422e+00,2.767162349749377803e+00
1.169267093051783668e+00,1.075327379167914765e+00,-3.072588000081512227e+00
1.012002692919012015e+00,3.653976114214236848e+00,-2.760082401519886597e-01
-3.983342255645356378e+00,-6.476000447310042984e-01,5.259886846647073844e-01
-1.633897029342701313e+00,-1.878744865353126459e+00,-2.801072511248326347e+00
-1.606346289521165094e+00,3.969499875805508449e+00,-7.634145339525519880e-01
1.551734901708724745e+00,-1.644572724496175420e+00,2.318520751944029179e+00
-8.201743095705821274e-01,1.568193316050126906e+00,4.139158043379269181e+00
-2.484276881556453542e+00,-1.361279063737196537e+00,-3.505800498417070088e+00
3.732472182552550422e+00,-1.934470130697775625e+00,-1.818691807680463013e+00
-3.524190713015992404e+00,-2.182559557937286954e+00,3.269538404471368787e-01
-1.931609174289517616e+00,3.392018437663943065e+00,-7.177573040485406564e-01
1.929355663925266473e+00,-1.516494494624588185e+00,-3.389901324544249306e+00
2.732921589830175080e+00,4.154557944209926190e-01,-1.845533748172434318e+00
-3.628331492276024584e-01,1.555906176842100752e+00,-4.215995590552620520e+00
-1.697197403381830449e+00,3.709338794075919488e+00,3.354001421583628351e-01
-4.087834226492404355e+00,-2.003839675300651546e+00,-1.814137553478422982e+00
8.564424929239053963e-01,-3.339210646195316379e+00,-8.994686204335765600e-01
1.263749762742470084e+00,2.586006611691375578e+00,-2.211342771241468608e+00
-1.666691803860182786e+00,1.025249571499854184e+00,3.403116874141775661e+00
-1.478776234178373894e+00,2.871987337796238826e+00,1.784042367042222299e+00
-2.616754175705669816e+00,1.500340592015850572e+00,2.722939894136388261e+00
2.888584291745116328e+00,-3.618264690691375574e+00,-7.889657385519819321e-01
1.473148052934663665e+00,-2.059547459404716285e+00,2.340945252069075444e+00
6.405151076181678782e-01,-2.918247012560273745e+00,2.803605787533559823e+00
-2.498145980978882630e+00,1.234824293408447460e+00,-1.521937616346024980e+00
-1.352695086704758465e+00,-3.161917384679194143e+00,-5.042109766762213896e-01
-3.817591961599268724e-01,1.986396598403373348e+00,-3.904163024334866616e+00
6.819916167854864208e-03,-3.715480669776025646e+00,7.011314272032474759e-02
-2.923094289501966703e+00,1.109918082729026922e+00,-9.889015665287497203e-01
1.480683080504229532e-01,3.909506741235546201e+00,-5.081424570567385501e-01
3.839482083072578433e+00,-8.855630670453689124e-01,-3.606672566757986031e-02
8.389671982616386803e-01,4.293076701262860340e+00,-1.387280415538100220e+00
2.805538202371806594e-02,-4.772829342446430978e+00,1.989427175496824018e+00
-1.146143435910765840e+00,1.974059596897075330e+00,-2.824289659631936011e+00
-1.974183281828976178e+00,1.893716037198863167e-01,-3.100222516158626984e+00
-4.722676156516694590e+00,-2.152159326071201750e+00,-7.302059517106112008e-01
-9.852356863975224588e-01,-1.152111831041302104e+00,3.197414086845453696e+00
1.623429693826888620e+00,4.125917271434574651e+00,-1.251616048241477097e+00
4.154437563368780673e+00,2.160550002109269840e+00,1.646063001748553800e+00
3.186235016326046221e+00,-1.035071720891492353e+00,-1.958822742082865664e+00
3.231696361710500121e+00,1.246303390576693149e+00,-1.056291222279441167e+00
-3.335533406365744025e+00,3.355961629112953926e+00,1.143608617405115879e+00
3.727894139145026653e+00,-2.422600321193254302e+00,-2.004876395834933156e+00
-6.276043526695325170e-01,1.826370447213613080e+00,-3.726971811728044148e+00
2.186646952955903167e+00,1.936525456547128377e+00,2.580159915498536627e+00
-1.731885560652752024e-02,-4.405310408844477443e+00,2.611711505604151107e+00
-2.453928351186957180e+00,2.603540265243207141e+00,2.582278063531070700e+00
-4.152678411528485936e-01,2.111202943705242863e+00,3.027304398591277312e+00
3.928212565079886254e+00,-3.319870316026083956e-01,3.159983308665824664e-01
2.959049343974986535e+00,-2.831972234914819531e+00,-2.273925942491552998e+00
3.926243804273675586e+00,-3.006805031402736361e+00,-1.746707057338401592e+00
-1.817906497256507548e+00,2.927578972561416304e+00,-1.142407002368647895e+00
1.639862753232666781e-01,3.639020665725656301e+00,3.193548799553864569e-03
-3.077319106354684530e-01,4.225459595172722516e+00,-1.053100509398032347e+00
7.821818979757965140e-01,-1.183898214068818122e+00,3.911161032115469283e+00
-1.448120211357044829e+00,2.793074727560642678e+00,1.979988532433213821e+00
1.091896392207470923e+00,-6.838551931847388632e-01,3.933616838654208969e+00
-2.936078108725888924e+00,-1.554888030792165976e+00,-2.998894460997290956e+00
-4.094828431991186513e+00,-9.796915796049918690e-01,3.118274188702750416e-01
2.652693903629159689e+00,-1.495692596625389781e+00,1.175593988946255886e+00
2.088945289698022290e+00,-2.904606280325770840e+00,-1.857990835271654539e+00
-4.643327856154193967e+00,-1.099398017819614548e+00,-2.661572945778765686e-01
-4.306437929543930898e-01,1.148886253974170435e+00,-4.457878390939773894e+00
-3.587681997842955273e+00,-1.542774101627983230e+00,-2.088434327850126504e+00
-2.841634170648504876e-01,6.525522216733243841e-01,4.588532148678908129e+00
4.172421470785421249e+00,8.333608998789522326e-01,-2.402924218249928023e-01
-2.614320896298994334e+00,2.981780185819394191e+00,1.967422926253242110e+00
-3.724915514424113727e+00,2.169294909396294102e+00,8.238469617958872337e-01
6.866494628478708728e-01,2.694372118177972286e+00,1.619889828901609707e+00
1.882195308528780364e+00,2.533199427354492883e+00,-1.721723626815077290e+00
1.904398520034242592e+00,-1.314457621174027979e+00,-3.325240027056788783e+00
-2.336047640823590843e+00,1.077701326898657941e+00,2.826804682949088043e+00
-2.356056864647305460e+00,1.519922256309137687e+00,3.049391960630007503e+00
-4.201685835443143446e+00,9.193250380567149493e-01,9.411289055033043027e-01
5.696389755042231134e-02,-3.135566497869238578e+00,3.336079384270222548e+00
-3.020186612308005003e+00,2.071999451537654302e+00,-1.695238633233236980e-01
3.218876440924384852e+00,-2.541398321987390130e+00,-2.573352486907279690e+00
-2.532804460790984535e+00,2.787773029524790669e+00,2.356767337647451388e+00
-7.031447711006659773e-01,3.836407001092745794e+00,-2.037913453132307318e+00
4.725303323716997461e+00,1.362775367895640910e+00,4.164484398543317201e-01
-2.592586893099523948e+00,2.376040910798007388e+00,3.008858336163672931e+00
-4.681180405053924076e-01,3.358909054595076604e+00,-2.730047536578908751e+00
9.701473087573366794e-01,5.119725884977945896e-01,5.004831889126741373e+00
7.942846423615409490e-01,-3.324972657896689388e+00,2.428439858708267174e+00
-7.135698716348864989e-01,2.606727275197650573e-01,-4.824150208710664245e+00
1.457633896325917222e-01,-1.654593254568498484e+00,4.034578479843879961e+00
1.842708191646553972e+00,6.689821602040839643e-01,-2.576461169936786089e+00
1.374739699311478880e+00,4.069392259696934744e+00,-1.073556206180820372e+00
-2.737856797413048326e+00,1.153536447105312987e-02,-2.088730729519526097e+00
3.117189576069514079e+00,-7.352408538460825094e-01,-1.954563004691699524e+00
8.835748137260976964e-01,4.142434364686524262e+00,-2.103300716013830840e+00
-3.370528733177876823e+00,1.179760555028535496e+00,-4.382523946899191114e-01
1.048412309016972577e+00,3.317943580530099190e+00,3.048711745931834138e-01
2.403416478451902982e+00,8.021348564515202728e-01,3.327501201531333663e+00
-3.972267807200833278e-01,-4.522278937404735188e+00,1.704636007790206742e+00
1.406993486659033066e-01,2.960701610168639863e+00,1.231818333425980905e+00
-2.137295938468841694e+00,-3.586645822193011313e+00,1.039634766129292398e+00
-3.650238260983044825e+00,1.846213428713151083e+00,1.830391299881515277e+00
-2.769410832798652855e+00,-1.095712774002162382e+00,1.483598848410892623e+00
-5.996507057444940836e-01,3.954917209918010101e+00,-4.828455183073631640e-01
-3.792377426013381125e+00,3.280045965213430059e-01,1.100982605915696411e+00
2.086743688089737869e+00,-3.141624402756833412e+00,-1.464448092982242766e+00
2.573369504087371862e+00,-2.203024838535281749e+00,6.480795476249957554e-01
-4.238598767991875960e+00,7.272543294168657413e-01,4.829661144390646754e-01
-2.834593910396784988e+00,3.384063684374149172e+00,5.225810998151625419e-01
-3.863636325651043979e+00,1.078739814234846550e+00,1.649937507486644306e-01
8.973004140992726363e-01,-2.158129522718511772e+00,-2.919464638317403882e+00
-3.637110148876808946e+00,-6.397044471139007316e-01,-1.419831939684240041e+00
-2.909247183511032731e+00,-2.520012598078430255e+00,8.097628927480531313e-01
-3.393854933308900979e+00,2.511328711314834816e+00,5.423624054566351660e-01
-3.352250910891642066e-01,3.193816439443863953e+00,8.498380051037964789e-01
-1.039334364123915444e+00,1.782920210805807315e+00,3.749584776470504810e+00
-2.207440509639088666e-01,1.960016766918227127e+00,3.088915122011465009e+00
-2.029674468420986366e-01,1.001377937269532364e-01,-4.744730936812842970e+00
-1.999617538269478523e+00,6.135372408456465365e-01,-2.663038846402740134e+00
-1.110421013121924982e+00,-2.188704058953158338e+00,-2.478612480879827107e+00
-2.429741213313890480e+00,-1.920245651475526616e+00,-2.459478168552449162e+00
-1.765435491636393239e+00,2.234558564487658217e+00,3.057977222964028297e+00
-2.168718126111738087e+00,-2.874821036973783439e+00,-8.418730006779565622e-01
4.240139557223537636e+00,2.145126447913479062e+00,3.278008337760573987e-01
-4.738466969912954463e-01,-1.044568233201564000e+00,3.728968291942180713e+00
-6.685118720101022871e-02,2.078038180493174902e+00,2.766254372232559433e+00
-2.718187869325141115e+00,-8.686017910719108226e-01,1.663835470500531377e+00
-3.321425018255880879e+00,1.106087948147724126e-01,1.454456512465920559e+00
-3.310204711246146347e-01,2.760336207141202536e+00,1.660211770008281018e+00
-2.363306371832703423e+00,1.776819153495699188e+00,-1.344959820552217522e+00
-7.857806153436432961e-01,-3.861389123169105098e+00,2.205716300023489396e+00
-1.919276078652601747e+00,-1.531096265603747009e+00,2.203757339701656104e+00
3.954860116132571157e+00,1.934819604867624498e+00,-1.056876419519537508e-01
-4.316036861192240615e-01,1.089848903272981007e+00,-4.519552188570933993e+00
3.438278399484022141e-01,-2.834749999716062785e+00,3.351010027920135581e+00
1.854434017405219848e+00,1.142512227192714835e+00,-2.286678235244067992e+00
-3.341041944341960335e+00,-1.366971398789974534e+00,-2.398007951861036435e+00
-3.545418780984118445e+00,9.050222192292378676e-01,-3.775196208024801381e-01
-1.376116639060210867e-01,2.780377361457686991e+00,-3.644552518272611508e+00
-2.744367263379259292e+00,-7.822093465688685354e-01,1.721205485181486639e+00
2.612950421335629159e+00,1.697826694349963583e+00,-1.450489981831238451e+00
-7.604886460125721559e-01,-1.214721322824094119e-01,3.809491787554701414e+00
2.856498184888406122e+00,-3.409437421016435765e-01,1.750687374653388417e+00
3.271607132541679785e+00,2.364797736769244985e+00,-5.751269006337855760e-01
1.267826819118338944e-01,-2.661290450783344141e+00,-1.933275419269603113e+00
2.204435685518344457e+00,-3.794904824322967940e+00,-4.515067892356492557e-02
6.366873826876560116e-01,-2.393162070867691948e+00,3.222723810424438451e+00
7.026621289468654163e-01,-2.933188478368416452e-01,4.732227680228865196e+00
2.167580160242600140e+00,8.210671594168592602e-01,-2.198257892656131585e+00
-4.888829295514676709e-01,1.497783274780874585e+00,4.006492412919305579e+00
4.065057123657096483e+00,1.745229213221292097e+00,6.299776792830476257e-02
1.399492347231100720e+00,3.358307724575537723e+00,2.239577176911148881e-01
1.389960134659618651e+00,4.211731675768564109e+00,-1.606047771855188211e+00
-2.713352421305602835e+00,-3.471376419417790071e+00,5.883260315150775632e-01
8.061002673444305211e-01,1.530508575295270957e+00,-3.143042917117955248e+00
3.818721379923060599e+00,-9.475242511382149235e-01,-1.350468458574956232e+00
-7.724653403777781424e-01,-1.265070126433428532e+00,-4.257676261292123954e+00
-3.831109982547383108e+00,-2.692747519267666867e+00,-1.344795388309397988e-01
-1.021240394673913032e+00,-3.761201588518128691e+00,2.041852339538967609e+00
2.396515091050155366e+00,1.294701909822110864e+00,-1.874695054893106061e+00
1.784518496713133118e+00,-1.473330230630127247e+00,-3.477118401170578910e+00
-1.046798151405597066e+00,4.278203788317253675e+00,-1.292058047092966566e+00
-2.369447453354993183e+00,-3.417945122114313339e+00,2.081426551437942363e-01
-3.411933128542989468e+00,2.414569461917501325e+00,2.171681379102337495e+00
1.896341381158564099e+00,3.890285179518778502e+00,-1.039370574081420973e+00
-3.638112641975308925e+00,9.619124416866753347e-01,-3.119540711004430839e-02
-5.547078847304204308e-01,-4.531136364315899279e+00,1.651667314706233736e+00
-3.214635531217897135e+00,6.765752938546597539e-01,-9.188564290218445008e-01
-9.828454134164434086e-02,-3.230907706216727959e+00,-7.259891736065549050e-01
1.002690165925661514e+00,3.958938909295068420e+00,-8.762540712793677189e-01
1.729826973875976670e-01,2.619999908851144976e+00,1.811091495092402415e+00
2.981307765650240693e+00,2.185507101166972443e+00,1.811127077365099369e+00
3.649562152630688061e+00,-1.264959053167135083e+00,-1.590156331895977271e+00
-7.253024300401967883e-01,2.212227673810455819e+00,-3.228058351341968724e+00
-4.116993457809155904e-02,3.777610223417366520e+00,-1.112410226874606112e-01
1.252350221012337395e+00,-3.570360809198623642e+00,-4.980074362896542151e-01
1.187180717025789312e+00,-2.476821887152391710e+00,2.446215623755259916e+00
2.560355523020441115e-01,1.349424955757263955e+00,4.081764021341754756e+00
2.955670738759282212e+00,-1.068038987962035335e+00,1.104792717871039942e+00
1.871445482966264562e+00,1.118993709308085949e+00,4.037443948677546857e+00
2.475922489540135218e-01,4.479660125892453770e+00,-1.597722807956842184e+00
5.490241115871409283e-01,-1.203441782615123357e+00,4.299015066426552067e+00
-1.727466605609615735e+00,-4.092588199241330438e-01,-3.792666978055303950e+00
3.332569352615473601e+00,-3.413226043605335075e-02,1.391630093570513926e+00
-1.231750421051495792e+00,-1.823061163994342371e+00,2.575712329965813563e+00
-1.391304819970738516e+00,1.626181696507776608e-01,3.338170787062268108e+00
2.064376361714413743e+00,3.084634013600377589e+00,5.097178408398130856e-01
4.242116540129158508e+00,-8.521621754675292593e-01,-4.580646968105787087e-01
1.792427178438183111e+00,-7.121472921062625971e-01,-3.178876553390732607e+00
2.069792593517389090e+00,-2.755649419940287004e+00,-2.213012602896558434e+00
2.400333733972230821e+00,3.521351888024715659e+00,-8.808461691499350765e-01
1.405471473320820897e+00,-1.096289171394481260e-01,-3.325045870848125418e+00
-5.556154367185101028e-01,2.110169724418407444e+00,2.991122352215293212e+00
2.247494667202194041e+00,-2.469299889709309248e+00,8.978828407934313915e-01
