-5.480040090009505871e-01,5.937924313643478058e+00,-6.080439024005984017e+00
-1.661312251319658984e+00,-5.920309498495545775e+00,-7.658890156290073747e+00
9.496969340060893217e+00,-5.039830292000578638e+00,3.098892664763111870e+00
2.667884731989952130e+00,-1.955305955153959996e+00,8.047260702012845712e+00
5.856299804432678613e+00,-3.259290592962326816e+00,-4.755629431092982529e+00
-4.426702159228016242e+00,1.248864026414894024e+00,-7.742978877497299628e+00
2.171269506683303874e+00,7.075015592698520095e+00,-6.425406289867646947e+00
1.487189913263135266e-01,2.827788495040142625e+00,-8.148028044036863093e+00
4.623911199038134079e+00,-1.266624851377555849e+01,2.354966016131737616e-01
1.046023090079026474e+01,4.863380498750911052e+00,-1.960880338650899724e+00
-8.199943600121176956e+00,4.391444327108835921e+00,-1.364391522385628996e-01
1.262097085348588266e+01,3.500043542363347471e-01,5.141295549171873702e+00
-8.811747594845730447e+00,4.910565964467486388e+00,-4.373900693218735647e+00
1.250885550417818015e+00,-9.532178390264254730e+00,-2.947316500308821752e+00
-6.827105266162794450e+00,-5.013720787260480094e+00,8.820981354986532352e+00
3.045946494253742642e+00,-1.157487401913493485e+01,-4.287875773930803214e-01
-4.530650301101251110e+00,6.912664018528790422e+00,-4.250246664906658367e+00
5.456135595108523084e+00,2.033382892650290152e+00,-9.480219289337703970e+00
-4.457904626852080554e+00,3.459885585292720833e+00,-6.521973942492348186e+00
-3.147911434923525320e+00,6.374129492726900992e+00,8.250858991903433193e+00
-4.581871152015195570e+00,1.044473075884302560e+01,-2.343231743767128616e+00
-5.039178004457420812e+00,4.319753026430659837e+00,6.236412155952079317e+00
-2.955086295834454674e-02,-1.092883803921202812e+01,2.095286550613274734e+00
5.986018542320900693e+00,-9.986237475095230964e-01,-6.850943597579496114e+00
-9.587897887550996145e+00,-3.671089766033782009e+00,2.961566720116381557e+00
-3.341229234191608555e+00,1.227777589817920934e+01,-4.379712264717448567e-01
3.468170824649469797e+00,9.507130151886043379e+00,-5.387388115433422442e+00
-8.606034261504172278e+00,-1.131147196436858460e+00,2.991959355853234026e+00
-3.661357479291215355e+00,-3.336140867462796589e+00,-1.081225309312200444e+01
-3.067270286085470143e+00,-7.575388063783806913e+00,-1.516131295995017725e+00
-5.284896557367204650e+00,-9.017968866359161950e+00,6.295598866968356688e+00
7.653195255434833477e+00,4.725366883008618402e+00,2.354729859092779876e+00
2.568420735516633968e+00,-1.114192658231555200e+01,2.562088600971815566e+00
-3.836230760461293521e+00,-8.638476303453502814e-01,-9.268670733776792403e+00
-3.452345293523153114e+00,1.016268403022338518e+01,-2.790606889508441490e+00
1.037986414101733246e+01,3.092670730369908139e+00,-8.601905916499879012e-01
1.363317958949934017e+00,1.081247048244024178e+01,-3.939750038026584189e+00
-2.663744181545527834e+00,9.167807316701178877e+00,-3.823112216154287424e+00
-1.506550959051773941e-01,-6.696697041591327171e+00,-7.637031192227563992e+00
4.869977076333253940e+00,3.116394125442941476e+00,-9.501360430355136444e+00
2.309061102081188199e+00,8.186585091680441906e+00,-5.648267910208940812e+00
1.766795030950149448e+00,1.242373050381911481e+00,-9.749154878659927803e+00
-3.490635971516683700e+00,-5.325044676099034646e+00,-6.720028594455585313e+00
5.100715184568008986e+00,2.952054185770351502e+00,9.908476554902089006e+00
7.780464885370403039e+00,2.379732825136896324e+00,7.634218557843285069e+00
2.639241448720601457e-02,4.379406407724300898e+00,-7.145894155968824712e+00
5.828485885964806101e+00,8.830726466815599807e+00,-5.704624543633607381e+00
-2.974665751337519204e+00,2.439496286424291061e+00,-7.468344946833520126e+00
1.911700478123849800e+00,6.024477391521565472e+00,6.892591207948277621e+00
-1.891551930575760876e+00,3.895047568969215668e+00,1.238027880216687571e+01
-1.128694400428663513e+01,1.292915508830456472e+00,-4.160785491365617261e+00
-6.502713601654362685e-02,3.920005658930112880e+00,-7.421917946427197599e+00
-1.118098126812314064e+01,-2.979501885423013086e+00,-8.103835662972013187e-01
-3.765476409054455686e+00,1.280571657834837929e+01,-1.089279802482101323e+00
-4.438414223043931628e+00,-5.419296653263559804e+00,-5.375281259312863824e+00
1.645803175146268504e+00,5.861733144787711680e+00,8.122446913583782901e+00
2.302349293113929996e+00,6.441712414314358703e+00,5.901811058525977316e+00
-1.618674248530246551e+00,6.294045562516381587e-01,1.091475933502739792e+01
-2.980221816141006119e+00,4.291817169744049920e+00,-6.681007565344833310e+00
9.798224901890792538e+00,1.927180339564133593e+00,5.967680156320680496e+00
-1.755821899047727452e+00,-3.942723294388986943e+00,8.024036600673486674e+00
1.173220595255196663e+01,2.123787343567181907e+00,3.264049233050932752e+00
8.846914293263045792e+00,1.904565077574524423e+00,7.497591903866654306e+00
-1.085168868925889463e+01,-2.646239017915836378e+00,-2.892247659944320315e+00
9.396772601997152918e+00,-1.411935080827319888e+00,2.454811220904681568e-01
4.845537699500381379e+00,-3.923170579558457494e+00,-6.366988597023801155e+00
7.559321843389102291e+00,-8.885289602601003978e+00,1.927437139229256413e+00
5.069218844143644986e+00,2.024805168521250032e+00,9.370319288660663659e+00
-2.755523159024175328e+00,1.105998508741150665e+01,-2.506874654978620942e+00
-7.275119047731441135e+00,-2.237179332802759379e+00,6.351026091540390439e+00
7.290531031779980076e+00,-2.598246313238453453e+00,-3.173563411914181120e+00
-4.692433359907020929e+00,1.501703645165628764e-01,9.719687059697637466e+00
-6.022542417657051672e+00,-5.095833529514028015e+00,8.632333438826433891e+00
1.162105855122638509e+01,1.579288297272154251e+00,4.280468336568373111e+00
-5.832782023845025421e+00,-8.809401663026418916e+00,6.360449758300201317e+00
6.881518763530727334e+00,2.206006453689840718e+00,8.920768059246618975e+00
-3.852556305271041204e+00,-7.391398446658827837e+00,-8.214172924875717818e-01
5.061624589688926257e+00,5.515802569706069747e+00,3.604072893725594806e+00
1.135659162532881616e+01,2.660945465018354827e+00,1.292565615748407115e+00
3.365326947684707637e+00,6.338642546291788804e+00,4.561042027603749105e+00
-1.071851813867565539e+01,5.808407026864905731e-01,-2.119333751936402610e+00
1.169793112280637759e+00,-3.822008749037276498e+00,7.239245907656004952e+00
4.428112266211625681e+00,-4.728484867976058048e+00,-7.133784185105038311e+00
7.346429152691195341e+00,-6.602655199752237358e+00,3.663761800208653163e+00
5.837538724206692287e+00,3.200094094380585563e+00,-9.350819427949170759e+00
8.701317466583896376e+00,7.679661130545828662e+00,-6.149803609213210009e+00
2.251823320784803462e-01,-8.622968142853711937e-01,-1.039365180267049382e+01
4.726132863578508037e+00,-4.864727564057517384e+00,5.377538360981436227e+00
4.100676398252522503e+00,-8.163326551974115830e+00,3.746119137101153296e+00
-9.291022251471012794e+00,7.126053398268261674e-01,1.291248987230623202e-01
-2.747306316038980345e+00,1.143397796014148149e+01,-2.354234664146164668e+00
-3.906596062180761386e+00,-6.884496268745403214e+00,-2.226646945025134716e+00
6.908840826186806616e+00,8.242714550570022780e-01,-6.159974717038681824e+00
-2.879627098980391597e+00,1.099125811768733918e+01,1.919592739035699713e+00
-8.697150716989321850e+00,-2.081900775843638751e+00,-7.537070837572720450e+00
-8.388372416407342769e+00,-2.265188530590528604e+00,-6.853900566337741473e+00
2.188593815179463942e+00,-1.149159747573757961e+01,5.406787208184663657e-02
3.164161354686922056e+00,5.775415339613876320e+00,5.815013003686405391e+00
-6.185643487416114361e+00,7.526317910776899822e+00,1.416709776801797105e+00
-7.956804640363957404e+00,1.274531027132238092e+00,-6.587299440393135974e+00
-1.994006946323803486e+00,-6.873496681347633697e+00,6.404948127882451381e+00
-5.623166407167034642e+00,1.198444122414453084e+01,-3.710551794433731843e-01
-6.118542573573036769e+00,-8.230930177034371908e+00,4.243032540986929391e+00
-1.157645732697981433e+00,-1.065688902985283981e+01,3.288486394376500144e+00
-9.483907759829271811e+00,-5.252725419265246387e+00,1.445022375998965547e+00
1.040091977111767996e+01,-3.915040356803273225e-02,6.512170015100970488e+00
3.058001289126053734e+00,-1.040951505469468508e+01,-3.463701379200806230e+00
-2.049609911596415923e+00,-1.912249654468900495e-01,1.028148623672491446e+01
1.168566456942909326e+01,1.775784534760102895e+00,2.253943326107137324e+00
8.928334126263305137e+00,1.759931899822657408e+00,-2.871797699192036202e+00
-5.897153798134020519e+00,-6.471877846114211685e+00,-6.639187994195913101e-01
-4.390873257239107375e+00,1.049505245797488273e+00,9.181801136176614975e+00
7.720813691363074049e+00,3.124926975062183754e+00,5.712924386398126053e+00
-2.123753650702931317e+00,6.816330114379519856e+00,9.633929244729733554e+00
6.614866984080962631e+00,4.149155972171194584e+00,-9.014440014541627022e+00
-8.577359474977086506e+00,-3.129155430961985562e+00,-4.642937030768475637e+00
1.055150901768318761e+01,2.573007001723312648e+00,3.523627491785089827e+00
2.147358904488466447e+00,1.936184573913887874e+00,1.031578847712057367e+01
7.897668792993080444e+00,-4.710185738499752972e+00,4.591808099878950777e+00
9.835953695536064245e+00,-1.658002467277614356e+00,1.270002161286512665e+00
8.125123924954449350e+00,6.393711931564836526e+00,-2.744920431630911484e+00
7.653379120180467510e+00,-2.366184621913270725e+00,-2.322299856121804673e+00
-3.621361799067900566e+00,8.013009358677912530e+00,6.294042356598391841e+00
-5.681142709506613819e+00,3.775525666530243019e+00,-5.814153589586886106e+00
-2.497611232377108248e+00,6.530995350579743786e+00,9.017405156417828138e+00
-6.652270445715825709e+00,4.665461372850750799e+00,-5.191448445038788329e+00
-4.079190516006074851e+00,6.800384735299968675e+00,-4.630562131248997737e+00
-6.136315560206914377e+00,-6.538976211527687710e+00,7.771812226841820603e+00
1.981464281834276919e+00,-3.906418551427973895e+00,-1.170798827825800359e+01
2.020196653149738175e+00,-6.917017676184520347e+00,-9.483788460659615893e+00
5.742077658585575950e-01,-7.711157834594434490e+00,-6.417831057367493486e+00
3.008013709684706494e-01,9.327047565782041971e+00,-4.580890337814985891e+00
-3.686807596551993971e+00,-3.944074004277490442e+00,8.507164953131145069e+00
2.922206214194234875e+00,-9.843237555634111402e+00,-4.791160723313296010e+00
-1.861815097935097807e-01,7.260328856204773196e+00,6.873871662454577702e+00
-6.660979941388847081e+00,-4.701860873529692397e-01,6.352806046321937572e+00
-3.681036033687997033e+00,-8.537682479104717004e+00,5.953522675689292498e+00
2.344969176041100223e+00,3.326793063179843690e-01,-1.031070247883494950e+01
-7.234199767071078924e+00,9.181193816129518126e+00,-1.604224529972572144e+00
-5.193444805055580815e+00,4.414911941413808272e+00,5.451954325149598546e+00
5.343262822276738433e+00,-5.295707075532118502e+00,-4.961897786947949029e+00
-2.862706156603422869e+00,-5.248870451652152269e+00,-7.886800096453447040e+00
8.348814461773238493e-01,6.122186658544451099e+00,-6.371566594510069237e+00
9.197317452067935051e+00,1.626268995517210936e+00,7.830927870371749755e+00
-3.181194521836323119e+00,1.157003668662292917e+01,-2.007347794220192938e+00
-7.332677807512805401e+00,-7.175160326782938469e+00,3.226357956086692624e+00
3.770638548925296374e-01,4.992949899745381614e+00,1.181670492980641463e+01
4.181138253706556007e+00,-1.422923515711356446e+00,-9.574838056424248123e+00
-1.599618957840812872e+00,4.826548755064737684e+00,-6.466608065249354276e+00
-7.123956532300672606e-01,1.963379061901838307e+00,-8.482406981708116689e+00
2.664909147128855960e+00,-5.647959621607729019e+00,-9.505439134463991024e+00
7.188871395302308009e+00,3.918427037085359554e+00,4.856529093029906541e+00
-1.016804597985444225e+01,-3.614419547580427494e+00,1.792148583262076711e+00
-3.155066576014465607e+00,7.504030217764611876e+00,-4.518391486019487147e+00
-1.182918628920397591e-01,-9.957975417573699417e+00,-5.370728045103827508e-01
-5.384597358212454665e+00,-4.392606956620378256e+00,8.965140405233476883e+00
-8.175103510639990745e+00,-5.691777144648773934e+00,8.846241972622115313e-01
-5.828208657477267352e+00,9.643077564337760421e+00,8.840756910617174613e-01
-1.513359137934708221e+00,-9.819350514318442080e+00,1.626229572649930732e+00
1.026697211487014094e+00,-9.068966962596054060e+00,-4.112431897383160617e+00
-1.555798757027944790e+00,4.587257670801899501e+00,1.218297006659504511e+01
-4.080288486590025743e-01,-1.082608734752542290e+01,2.376411954319367581e+00
5.563629014039805476e+00,-9.710353848448054492e+00,-1.118098871953391305e+00
3.130706515445099924e+00,7.960303671217774379e+00,7.633572414465660261e-01
9.457225383106266925e-01,8.958173533610698236e-01,1.014733044645137383e+01
-8.964954347049999939e+00,-3.296796577603662737e+00,-3.860216778143716887e+00
6.655705638259662216e+00,2.257309259354901343e+00,9.201676124544512447e+00
8.084711258242640586e-01,-1.092226599262114561e+01,8.162732727179062842e-01
-2.977313023870056696e+00,-3.852319868767628996e+00,8.533348484056874739e+00
-1.531199370756836098e+00,1.081188396392151496e+01,-2.573581548542500652e-01
8.804080890875114918e+00,-2.098328203610280607e+00,5.867495853102781211e+00
5.033476474986362525e-01,-8.443665542732102125e+00,4.627283215157826035e+00
-8.670925870875445085e+00,1.581465188009040901e+00,-6.146697927418250273e+00
9.883320539603257515e+00,-3.114508013831456701e+00,2.350790710487640212e+00
-9.774966545447194122e+00,2.754450527956449957e+00,-5.111180770743911417e+00
4.644573969223092291e+00,6.976084746026411487e+00,8.189434013721285099e-01
-7.412601233709978032e+00,8.234481064427159325e+00,-1.468917333310083784e+00
4.373568530756227091e+00,-2.544037887314140267e+00,-8.498810895924368225e+00
-1.069837555496474835e+01,8.246312332739710316e-01,-2.326782021220310970e+00
-1.771006353241620479e+00,6.354666011539777060e+00,-5.410942921410310191e+00
-1.206238919010630539e+01,1.551484405221127960e-01,-4.796594950704180071e+00
2.349797647487141372e+00,3.207123771328297845e+00,1.106649519155913275e+01
-3.910139832937985727e+00,-3.197725732852724878e+00,9.005246851818455411e+00
8.016490858010152820e+00,-7.186557734375392137e+00,3.173721175356480906e+00
8.290599299995315974e+00,-2.356680877555318077e+00,5.844284986336028886e+00
1.141660349347026404e+01,1.293024595278336797e+00,5.082814582276051318e+00
-6.808941150881834048e+00,3.995701600686479282e-01,-7.520758129106640766e+00
7.453609298490399659e+00,3.705990164576241419e+00,4.801763065367651961e+00
6.166302385084195592e+00,-7.767434234177986729e-01,7.413735642912511636e+00
-2.969108918642844319e+00,7.045303076041678381e+00,8.069252325870149178e+00
6.276933198469930808e+00,5.696621819896458661e+00,1.612181519994666301e+00
-6.480340807138055048e+00,3.334380498949627847e-01,6.049743844160769157e+00
1.633771815181654041e+00,8.997049400301968092e+00,1.145611726212718839e-01
5.889481390563994445e+00,-2.725777021328126271e+00,-5.633110580147675073e+00
-6.978042366432804400e+00,-6.993259506183645335e+00,2.506435757685450572e+00
3.741998598513264440e+00,-5.143255263340392958e+00,5.724687767830351603e+00
-2.391852558124478723e+00,1.096241705844135161e+01,8.023342048528938619e-01
-4.931962576997493741e+00,-6.670476836581065161e-01,-8.817531774459487437e+00
1.408838512248328234e+00,7.042001108969015100e+00,-6.185333104144018712e+00
1.565244037085225859e+00,-3.492879369060206241e+00,7.242926265315597689e+00
-5.967462350635681645e+00,3.407785322825878538e+00,4.839345842116322238e+00
-3.727254344900646998e+00,-4.865400192284401903e+00,-7.342238916458861731e+00
6.207661069853551261e+00,-5.936499057591153594e+00,-2.778968567234310072e+00
6.170094090900966499e+00,-2.861433299852035539e+00,-4.445448220080661095e+00
5.912331969144072552e+00,-1.805587460005062539e+00,6.857849514962650161e+00
-9.200612690604158317e+00,-3.317873858103355111e+00,-3.292496084882618579e+00
1.869202296781883599e-01,5.204256662000944722e+00,-6.937178933550454119e+00
-1.519279321657570403e+00,5.394749270936535446e+00,-6.210192905374245065e+00
-5.988283819451512002e+00,-6.629354763837186582e+00,-4.449632579042169245e-01
-1.258585341956482084e+00,-5.910591195852857860e-01,-9.715490365520162541e+00
-2.540649146086539023e+00,8.546969305792542215e+00,-4.136122093237507791e+00
-1.000170424044144468e+01,-2.618523940223783431e+00,-4.049962069646451113e+00
3.666829017860532058e+00,-4.142699147502358237e+00,-8.817683165096406483e+00
-1.217700506071919087e+01,-7.016092993783963616e-02,-6.167061722786360889e+00
8.720142371074731669e-01,7.661148237775080361e+00,4.487853275438396849e+00
5.542147752922421233e+00,-1.748077468858053596e+00,-6.994646525306555063e+00
7.022889943072102348e+00,-7.995446788806048311e+00,1.384941272332096129e-01
2.290481490106371698e+00,-1.190073017807417521e+01,2.173974176329751984e+00
-9.246028768037806600e+00,-4.886196207804127667e+00,5.653256305913313406e-01
2.183604831382794931e+00,-9.742816897009495491e+00,-3.995622959549323561e+00
7.805646885830620718e+00,-8.081141022509639171e+00,2.237416697058654869e+00
8.929064390879206670e+00,7.314030752644444799e-01,-2.186552094015411285e+00
6.612198941211651970e+00,-4.331788192184728103e+00,-2.708981674015758401e+00
2.322272916131623344e+00,8.717013352889868116e+00,1.314892671423133486e-01
4.278823343862328876e+00,-7.089227269194972259e+00,-5.722795271605616740e+00
3.092604737527360648e+00,-9.693352275882187730e-01,-1.124209864570400264e+01
8.273138394457129507e+00,4.994939248423572176e-01,7.571002791972285095e+00
-5.390900665367605704e+00,1.169162845638187598e+01,-1.383090401704403449e+00
2.811692578135707610e+00,-9.331033452522142113e+00,3.575671196139956987e+00
-8.905120085190164403e+00,-6.746266758287220888e+00,6.233561446985968146e+00
1.683415360363638813e+00,2.140665510189291076e+00,1.056820655914384766e+01
1.930541016271350330e+00,5.807800943942588390e+00,7.434734983277984988e+00
7.939085929072843051e+00,4.235014024776821984e+00,2.818943026922758666e+00
4.100313834905831456e+00,-1.056294162211029075e+01,-3.439111326131071511e+00
6.613289081023269844e+00,4.530616518226167067e+00,3.463630751264616947e+00
7.189672857278505802e+00,-9.128426754414245892e+00,1.614557727773489271e+00
5.524724793906207410e+00,9.209845248215899005e+00,-5.703340367945147982e+00
7.531553013080753978e+00,-3.230089892340689328e+00,-1.944647941770216715e+00
-6.365846533287353282e+00,5.650015390386389669e+00,2.667996409917519074e+00
-6.380368594230547696e-01,-9.715646121681684733e+00,-1.713888790990218958e-01
2.823036467023036789e-01,-6.491730484342046914e+00,5.920721336772425403e+00
5.008706583329635365e+00,9.375838439731468910e+00,-5.900065464040396002e+00
-9.492162038456749329e+00,-1.190655337327453989e+00,-7.651524529890778581e+00
-8.437212574158207801e+00,7.199725784083178759e+00,-2.678643175948212107e+00
1.168009591906443312e+01,-7.821213856815758536e-01,5.724171940469461539e+00
8.335965100158368557e+00,4.333476981152053931e+00,-5.499324421059390566e+00
-3.255433183609921510e+00,2.791733082463476734e+00,1.044720694221685520e+01
-1.248589976708472982e+01,-8.141256189678118815e-01,-4.770532320349448518e+00
8.525606302220559485e+00,1.305570041213543364e+00,-3.292064844052930539e+00
-2.698930472409394987e+00,5.402514757303556792e+00,9.463052357887654864e+00
-6.491531298595123012e+00,-5.447967804038647444e+00,-1.943514955578071080e+00
7.912457500272903843e+00,4.514262947068561793e+00,2.155002102031469136e+00
-3.450022221939010314e-01,-8.637693443598923437e+00,4.837753718874525433e+00
3.269813934371707642e+00,-1.211161482762532771e+01,1.690372834314295858e+00
-2.296486849820707221e-01,-6.503693976410432676e+00,-8.283599428214950322e+00
-7.064607945680899448e+00,-5.115060595424541390e+00,8.478071661562944783e+00
-4.788923752149254476e+00,7.955551870890205990e+00,3.859461597931497678e+00
-5.873964233258804235e+00,-6.898102683323916295e+00,7.842977300583055644e+00
-8.640193786902072404e+00,-4.812407173339530608e+00,-7.727652821302706254e-01
6.933243154130416919e+00,8.008649546313963086e+00,-4.859470695749487312e+00
-7.427341719695764510e+00,-3.937342915667991772e+00,7.078663471646311045e+00
2.057066573766638928e+00,-7.987326412625217920e+00,-8.135041946232806964e+00
6.995381272349393775e+00,5.342108668499756519e+00,-8.832526269723773638e+00
7.079646730345707795e+00,-2.808416028233499340e+00,5.986367646873156367e+00
-1.008610372152554469e+01,4.048851759471735257e+00,-3.454330046435352131e+00
-7.952436650994554324e-01,9.364141578774692221e+00,2.556503004492837849e+00
1.223113344479128806e+01,9.598191875947763574e-01,4.208760044722342109e+00
4.294110960370904451e+00,5.406099397827810016e+00,5.523581943672835948e+00
1.019158319184106176e+01,1.249706032794866362e+00,7.426699033364088542e+00
-4.716532536253896346e+00,9.170672431929112633e+00,3.027003806526447072e+00
-1.971180897310046642e+00,-8.063647798407032496e+00,5.665388051506037748e+00
-6.846983923649350601e+00,-4.721498371183855625e+00,-3.527918577039457659e+00
-7.583426033549435452e+00,-3.189402457543138780e+00,6.405012173218615601e+00
-7.623011519418121829e+00,1.975836843732823311e+00,-6.383028137201206320e+00
-6.588645544883970473e+00,-5.983019321726360751e+00,8.282041798919559383e+00
-3.721682675902079573e+00,-1.407525430346217910e+00,-9.595722742218006474e+00
-6.057230331843296511e+00,-2.884224066939640174e+00,9.051920016147699144e+00
-6.358982615569699348e+00,3.610505394135518742e+00,-5.771321104443196681e+00
6.352727470892070905e+00,-8.669942587224216624e+00,-3.734647011400661354e-01
5.760752198740831664e-01,-4.441447703719195950e+00,-1.247989484723195197e+01
9.233057566462270493e-01,-4.299026687519833523e+00,-1.255435484624583609e+01
1.230821813349159202e-02,-7.718368905507403177e+00,5.364561496321000433e+00
4.423679383457240100e+00,5.013214358607255505e+00,6.518022916184849080e+00
5.465910403101829074e-01,1.068390523180192631e+01,-2.518490115288710474e+00
-4.906002769431453636e+00,3.304693246861296618e+00,-6.495974787561944908e+00
7.478314785145262711e+00,-6.277772232301313871e+00,3.857174073269447945e+00
-2.884352611632367669e+00,-7.478957608706845228e+00,-1.995958987128575668e+00
-3.795253836682600745e+00,-3.163053351775816591e+00,-1.057471272731862655e+01
-4.855900222913068554e+00,2.527020850941184449e+00,7.571129498448294193e+00
6.846911101400624311e+00,7.742181909701748133e+00,-4.275515462867519823e+00
-1.154680334163564126e+01,3.512165779353347284e-01,-6.086025238946257687e+00
-4.392784624393540227e+00,-4.832724816132569323e+00,-6.652049954712818902e+00
1.077028425389569444e+00,9.489243179930811678e+00,-4.431449751305389650e-01
-3.902239375173115032e+00,4.077627768409503584e-01,1.085204408179438929e+01
6.084751895298857072e+00,2.727090850500125008e+00,9.541721093679315757e+00
-7.729224067436224477e-01,8.329038158366181221e+00,5.365924936890705155e+00
-6.465534272926375614e+00,-7.742046151789978570e-01,-8.444901995962759145e+00
7.461619325837654415e+00,4.657247782850665319e-01,-4.604517097483860510e+00
-2.280237026325660388e+00,-7.590287626444174762e+00,6.087141439679511379e+00
1.149779473157752419e+00,5.967501523120576579e+00,8.631247252466245357e+00
5.909929367036661496e+00,4.290703997619644383e+00,5.907932175969698996e+00
8.825996659956089063e-01,-3.606923330617489487e+00,7.556630481044577685e+00
-9.422573509754842647e+00,-4.789816536025742089e+00,4.050605740238889529e-01
3.888620384763221693e+00,8.732501180264181428e+00,-2.106571913218111103e+00
-7.568630974269407119e+00,-6.517328250310682414e+00,2.362690894836275479e+00
-5.158114982055397313e+00,6.579476683890498556e+00,-4.215574041213337786e+00
-3.922083584183859717e+00,5.465378094313631863e+00,7.156276497018632554e+00
6.847186598077783515e+00,3.359212578691350704e+00,-7.980514945911731495e+00
-8.414868020297859630e+00,5.508533557312858875e+00,-1.490143343763274064e+00
-5.341114666529086286e+00,-4.734372371717308070e+00,-5.313653804918312851e+00
4.411338199970766816e+00,-1.805555860689527670e+00,7.528742869436056750e+00
-4.588269447530082701e+00,1.990470431800440254e+00,8.420009776855030381e+00
2.661634050990574263e+00,8.393659029761673551e+00,-5.690695714410686890e+00
9.515743087582881898e+00,1.122354355992492447e+00,-1.184706958764836893e+00
-1.946602686064857757e+00,8.275612281491026678e+00,7.299950430007736024e+00
-4.159580870265663144e+00,-5.182034881305348506e+00,-5.044693523090715281e+00
-1.015899750948472580e+01,4.290188010541342578e+00,-3.588312551790643123e+00
1.104477382502320104e+01,3.582740455802556401e+00,3.219047051280256311e-02
3.422880204919833691e+00,-1.105994652975148895e+01,2.281289712901325206e+00
4.597348276284791702e+00,5.496862062342314559e+00,-7.962262567585790762e+00
-1.101002897943676562e+00,8.338646393390492406e+00,5.813297638056387662e+00
7.651058384360791997e+00,-6.659658330753571498e+00,3.652446187741911654e+00
1.394918880452378440e+00,-5.992719789047816548e+00,5.954717928565290919e+00
7.441128319663815383e+00,2.108011375478795912e+00,8.665335896630578461e+00
-3.921667923449845716e+00,8.321939587766054913e+00,5.151955860208104809e+00
9.401818196126884075e+00,6.707505518389972998e+00,-5.099467360427166973e+00
5.319651685092168236e+00,-6.039498383999494457e+00,-4.411662262741725016e+00
6.658009374931563862e-01,-1.121376500370260959e-01,9.326185422666888769e+00
-7.283993814224493768e+00,5.478802250190923040e+00,-4.381431211753402444e+00
-6.183368127964648409e+00,7.024284215296689560e+00,1.673745386862408591e+00
-5.681166403035604162e+00,8.119706859570465340e+00,-3.373887504300705054e+00
3.885385977653055711e+00,-1.099407400074016117e+01,-3.228763473790596361e+00
-3.646797356682346614e+00,-5.492241189344500008e+00,-5.954634150164107353e+00
-2.973108394048598502e+00,-4.548908269571724894e+00,-9.048402621146532709e+00
3.659929070927456340e+00,6.962889889474348948e+00,2.243146453130132389e+00
5.925168290020785378e+00,-7.337150889146438759e-01,-6.673472267194471286e+00
6.265887085104109744e+00,2.704157065442527319e+00,9.040879575997060158e+00
4.335189317005974985e+00,-4.416546882832884435e+00,-7.304079759123465188e+00
2.987841666166135113e+00,7.856222134769866194e+00,8.510746451955382152e-01
-3.746620899310521224e+00,4.234429776227773168e+00,8.445495608800172249e+00
-1.751313467442596750e+00,-9.819337576605080997e+00,1.886898985558964181e+00
-2.845231685947764877e+00,2.994581354559535669e+00,1.107682216547183884e+01
1.478196330850679585e+00,-5.461983108456283098e+00,-1.205957971459474720e+01
4.540495946574399255e+00,4.579395056892155758e+00,6.777205046017182433e+00
7.914995276313281813e+00,4.313723443623556975e+00,2.938452122902726504e+00
7.734263267341954240e+00,8.126203674436544233e+00,-7.512887525438770808e+00
-4.725370464727097541e+00,1.311162719150708034e+00,-7.684497430759704706e+00
-3.526656133569216589e+00,1.023934692155907600e+00,1.128614315575490146e+01
-9.280823172460953785e+00,-6.696106735434896429e+00,5.703725811407402979e+00
3.048975414094324599e+00,-8.764435271468959954e+00,3.719955731233210550e+00
-1.679670101754899614e+00,-6.038733032720436711e+00,6.909189202570381383e+00
-3.991952136207881807e+00,1.175053266603459967e+01,1.802768124192883903e+00
4.415889172140024854e+00,-1.165396727602989202e+01,1.593854530496108701e+00
6.264674818886593499e+00,3.099152643798343210e+00,8.251317845354220637e+00
-9.528854975848007669e+00,-2.345083575516082153e+00,2.121981559589764199e+00
-2.672084942742705138e-01,-4.838466074099067704e+00,-1.227119631905899944e+01
-6.835652253879594298e+00,9.038690327228513510e+00,-8.825189915481411740e-01
-8.734954959831203070e+00,3.861053919090428277e+00,-5.821353166212908103e-01
-3.242954181118950618e+00,-9.317390459092958821e+00,2.543906626622782774e+00
6.068611299195890041e+00,-1.042127041885238015e+01,4.693170568806074305e-01
4.418189751608022853e+00,-1.276543261362638937e+01,2.773812033396735321e-01
2.858203166290735342e-01,7.470708713407639756e+00,5.619668603876178281e+00
-4.529064462731391849e+00,3.945795059519021653e+00,7.209806207412548851e+00
-2.614835975048912076e+00,5.576506923430555318e+00,9.409906201410915827e+00
-7.553210742244326426e+00,-2.664551730973080623e+00,-7.122645890066233498e+00
-6.531646656762252867e+00,6.886996618163107264e+00,1.270969344231749343e+00
-8.439646774995170020e+00,-2.774859142675936141e+00,-5.897315025332232175e+00
1.053207783369497541e+01,4.452295097633326648e+00,-1.481004496863594033e+00
3.606805510196477105e+00,8.225107772425834796e+00,-6.134572432077583848e+00
-2.718046946864234759e+00,-7.671874984384107421e+00,-2.114975702231809862e+00
5.920771705258828455e+00,-8.465608919645767116e+00,-1.067269727088619780e+00
5.406031736557944001e+00,9.257177486083115525e+00,-6.054638213330258978e+00
8.503377635301092141e+00,1.747103220370725962e+00,8.155803335213343885e+00
9.055546299217015260e+00,6.076359992634898788e+00,-3.352458774335886904e+00
-1.042139115761835910e+01,2.040329192880915077e+00,-5.506716482586939243e+00
-3.642045320571901890e+00,-8.566285838432628807e+00,5.820916874255220641e+00
-5.852202287556197646e+00,9.771060626944196414e+00,5.754196182607398402e-01
-1.577423344193270349e+00,1.118764029459634202e+01,-4.070873918223347210e-01
-7.251453823361551976e+00,1.848970504324724651e+00,3.566577272274363164e+00
-7.880894946863137296e-01,-1.520518361235911664e+00,9.101564701833078530e+00
7.286939456022856199e+00,-6.354173840121807082e+00,3.929710471872069455e+00
-5.605185198700797677e+00,6.991299443429610960e+00,-4.081632394312235235e+00
-6.602261844945359393e+00,7.591838645571680644e+00,-3.557705894749720432e+00
4.168388942787329410e-02,1.080784229689231957e+01,-3.440767974962262610e+00
-3.412535168144983810e+00,-3.403351978298231995e+00,-1.076585692635768510e+01
1.398825787051996561e-01,9.330057199628415177e+00,1.465861039204239713e+00
6.163799985801993842e+00,-1.070965400468745976e+01,1.698611485790560760e+00
-6.514814904030585829e+00,9.407078665914488269e+00,-2.780343366265827232e-01
2.674258971845663857e-01,5.884728408333053551e+00,9.686018937090274505e+00
-6.108798901333115872e+00,-9.111427176779598014e+00,6.428453982596248117e+00
-7.371446656801288633e+00,9.142490687817147688e+00,-2.057630695240272978e+00
2.152460137616382774e+00,4.688401970899755966e+00,9.958863335917842008e+00
-1.209196773445516548e+01,-9.334100553312802973e-01,-5.209006445899257542e+00
-1.792490367308324783e+00,-5.433131278725849000e+00,-9.163136540002838615e+00
1.057660544224087396e+01,1.289253338417284622e+00,6.689718319085220521e+00
-6.768614632157484046e+00,-1.754113474425273100e+00,-8.800427598849523747e+00
3.329268797513968536e+00,-3.758246511905292131e+00,6.659663052449441345e+00
-3.652683624897679504e+00,1.548399827096060166e+00,1.069358801753490340e+01
6.535852595261000708e+00,5.981688470441494765e+00,4.512567809573750921e-01
2.729570018486518812e+00,-8.250361832173009446e+00,4.231897909651401335e+00
-1.160218821521011856e+00,2.617647226448252429e+00,1.184162867277198217e+01
2.059546455302381229e+00,9.034419783530555748e+00,-2.088391578489831868e-01
-5.456205109051195379e+00,1.586612664252037952e+00,6.977412844804796066e+00
-9.925255901583293294e+00,-4.085888883667665006e+00,-9.392540338971770986e-01
2.107656481758342970e+00,-4.232204066401727083e+00,-1.156296764313831460e+01
-6.328307877470662923e+00,3.359003257366847794e+00,4.128636308873635308e+00
3.717779836984180353e+00,7.605451490465729991e-01,-1.041449599050987729e+01
-3.403406576708449816e+00,1.076906423468580698e+01,-2.393047026378071873e+00
2.315733027746931516e-01,5.219834118111783106e+00,-6.795219440022613355e+00
-3.291216894329598297e+00,5.998341040121964340e+00,7.805534020530468631e+00
1.042873045466777004e-01,9.193211721451305607e+00,-4.436267762578562035e+00
5.364348338459407728e+00,-8.689002506825623584e+00,-2.087657009183359502e+00
-6.711437271971419927e-01,-8.401402450776977560e+00,-2.812758329020843107e+00
1.284947987805944658e+00,1.060247613796364519e+01,-3.197675136607837754e+00
-3.071404289682545308e+00,1.055701228948207770e+01,3.202154065120300430e+00
1.259379671947183033e+00,1.012111581393495285e+01,-1.717265759059054542e+00
8.196276532952742500e+00,-5.002451594033155757e+00,7.843032451380896886e-01
6.566495177456112664e+00,7.351077650084904214e+00,-2.594158992503072803e+00
3.504760999071504735e+00,3.757673451206468229e+00,-8.732897320591531454e+00
-1.636723497243561587e+00,1.080017026621094445e+01,9.625680325180722141e-01
-5.430962369285413871e+00,4.670600601382143502e+00,4.682417499013554085e+00
-9.417006817172234534e+00,4.992894120084088172e+00,-2.821745380523636104e+00
-8.831318763067947941e+00,3.245892922284230320e+00,-7.828850816445773741e-01
1.021466216059164545e+01,-5.603234273393282311e-02,6.738168770919892303e+00
6.483302736237859243e+00,4.934075255177330810e+00,3.117850396303856630e+00
8.803106364887234747e+00,-3.969978207753176447e-01,-1.759158824429155388e+00
9.433741430754285062e+00,2.935481673616310516e+00,-2.486651748173185794e+00
-7.930408228818742522e+00,7.093249696616591216e+00,-1.636168028702158272e+00
6.918956041223360387e+00,1.424167100460964619e+00,-6.392649832268951116e+00
-6.497832137348066084e+00,-7.087325813833224686e+00,7.623452668448426728e+00
-6.382232553349432180e+00,3.431118814111944193e-01,-7.756517471397113006e+00
-8.397720916864770402e+00,2.991344148800596070e+00,4.641882824022734721e-02
-4.684039639477162176e-01,5.396752498031213818e+00,-6.562743777326686789e+00
-7.471268825368685418e-01,7.907787627615920911e+00,-4.923700407072345797e+00
-6.649305473780080078e+00,4.255440489885561561e+00,2.695280902696945979e+00
2.523217135886433482e+00,7.322300734963467228e+00,3.168773241547302444e+00
5.268961786043071527e-01,-2.493468545861168728e+00,-1.135095444221747485e+01
-1.429597804536383299e+00,2.859517496956606841e+00,-7.874932798862947614e+00
-5.097945162286586118e+00,-6.744144876276268796e+00,7.566220051405740499e+00
8.707814547033187580e+00,1.670919621430232205e+00,8.127837842219856057e+00
-4.024768134876819836e+00,-3.699006216243678313e+00,-9.937657662450442686e+00
2.126182063647289677e+00,-3.183937108447657760e+00,7.178396645507513441e+00
9.321189262503223105e+00,5.680472339719511154e+00,-2.343721112126012418e+00
2.393333801125272053e+00,9.115635425312373030e+00,-9.901160814212047745e-01
4.564737213516810499e+00,3.124312248890445787e+00,1.043950927389633954e+01
-6.761761061737809886e-01,5.566771854902987648e+00,-6.500706293089120180e+00
-9.122478614960499721e-01,-4.143542297229355853e+00,7.771970416561462258e+00
-7.454328279957291414e+00,2.103926694538048370e+00,-6.344598431309418807e+00
-5.501828787136011201e+00,-6.688963155638100844e+00,-5.011238048331810857e-01
-4.094304535464184269e+00,-4.737416885781143172e+00,8.434218955552307051e+00
7.269813872945848132e+00,-3.708440633519624274e+00,-2.304711986472803620e+00
3.019199162130676406e+00,-9.542199897674553455e+00,-5.260243165952884326e+00
-4.504324067941968046e+00,-3.860506420078408052e+00,-8.627509074478636464e+00
-1.033164025516374096e+01,-1.315472849856752946e+00,-6.632757326954060950e+00
2.088502930100355481e+00,-4.268341208242051543e+00,6.718990374593461823e+00
-1.003933496635255374e+01,3.432621124900068210e+00,-3.230045925042188237e+00
-5.314006194961687690e+00,-7.198023072656972943e+00,7.060955348252684338e+00
-5.596437130064590981e+00,8.223333979292759555e-01,7.495561960451860628e+00
-2.693463193621450813e+00,1.611003657540957423e+00,1.173941485765094228e+01
4.981951007668151910e+00,2.151474026329022848e+00,-1.008376226650705654e+01
4.286588228686858848e+00,-4.458178395996946763e-01,8.175905395940981535e+00
1.160028321387656547e+00,-1.002228725577504065e+01,3.612271531968774596e+00
1.124951859860216885e+01,-3.112457281743971071e-01,2.870368605046791366e+00
6.436004578483492722e+00,5.529705716186823494e+00,-8.581882964814992576e+00
9.352510111344958244e-01,-1.859164713506558764e+00,-1.114200355792503139e+01
6.487884837534210192e-01,-4.185125514711013572e+00,7.391082719299134851e+00
7.895421255882321354e+00,-6.289572767602549241e+00,3.725876773118115715e+00
-1.607725502274778506e+00,7.293832744203349705e+00,9.167106569279171779e+00
5.473591692191427605e+00,1.378831313833931649e+00,-9.122297398211117070e+00
-5.002726920374640507e+00,1.094571513136748919e+01,-1.553598364871951354e+00
-3.903410658815652745e+00,1.498796416438003543e-01,1.078035317111439362e+01
1.651332316713891801e+00,9.441311857443595912e+00,-1.456873669391102410e+00
2.350944831985555261e+00,-3.890405108807333256e+00,-1.165079555662538269e+01
3.581424921270238482e+00,8.016667418331346440e+00,-3.592203679391949289e-01
5.537336963531522827e+00,-3.708523068387254984e+00,-5.331439834714667647e+00
-3.661679406987581320e+00,2.292995748406957635e+00,9.854869121340705362e+00
-7.184037319230728080e+00,2.958804834223411895e+00,2.675436581523339630e+00
-8.779431073099067007e+00,-3.966712104427577490e+00,4.431945310305976271e+00
2.185813107612156525e+00,-1.004523987761665715e+01,3.179665910290036646e+00
4.801373419772648532e+00,3.847269510746448962e+00,8.201888780566502390e+00
-4.296084495069230513e+00,4.563166316038295811e+00,7.451211091533263442e+00
4.438542688712021622e+00,-7.163512133756671396e+00,-5.063345125510048561e+00
-3.152439396799750160e+00,-5.320706427074592959e+00,-7.178560804872125445e+00
-1.058401936086552020e+01,1.566425223749629003e+00,-2.935160194647756793e+00
-3.311765790334801451e+00,-7.865275999120375339e+00,-9.040628073890640826e-01
-1.143013491543876015e+01,-2.400101676624899483e+00,-1.824026353934767863e+00
-2.172601258917441047e+00,4.537521645440663498e+00,1.119004344421365360e+01
-8.185893982721937689e+00,-2.103422377331156223e+00,-7.926700774997453181e+00
9.938278585821771927e+00,2.946885286998951692e+00,2.987467782188277798e+00
-5.461574407687292521e+00,-7.459651037301328280e+00,1.044475308130141222e+00
-2.394071254979005747e+00,9.937528219002399466e-01,-8.332814835718680868e+00
-6.309911872265087318e+00,3.817544865801208331e+00,-5.708521968943373714e+00
-6.380943963089878324e+00,-9.816343602730690510e-01,7.174509891545348239e+00
-1.190071016492139089e+00,-1.075542613839154882e+01,2.923183893868437355e+00
6.329384875478429429e+00,-5.363958903822139135e+00,4.787345305268918771e+00
6.517088361124327101e+00,-8.292826912106052717e+00,-2.922111978966303591e-01
-4.178240953893601173e+00,-1.417056104217488954e+00,1.030599701386214129e+01
6.207001582127806394e+00,-3.785213599603573620e+00,5.805855737974512820e+00
-8.550085523712338542e+00,4.175292487571355515e+00,-6.627333392372162235e-01
-6.393371520253352536e-01,-7.940101099590955336e+00,-3.985633533674928675e+00
