4.523507704957823172e+00,-2.749017846268047904e+00,3.900648506636975377e+00
-4.601523774328521554e+00,-4.401268373599776851e+00,4.117989732388983803e+00
-4.181656681855768554e+00,7.346761350067263940e+00,1.779145935767238784e+00
-1.502424809213145140e+00,5.036451285369190067e+00,-4.183262417381830467e+00
-2.777497295128135590e+00,1.754110625923976041e+00,5.428168424641085288e+00
1.023104732281747031e+00,-6.069411419156889309e+00,3.234657013289597316e+00
5.300725929026218530e+00,-1.098759743032232672e+00,5.286980364945711663e+00
2.075176362690959397e+00,-3.227425355132468088e+00,5.443437487916058970e+00
-9.927139805972151620e+00,2.813137709105669959e+00,1.395405143765698686e+00
3.359278103143495287e+00,6.095621424884701156e+00,5.759368880420101533e+00
3.672596526769207337e+00,-5.286349885004133498e+00,-3.186343461464749449e+00
-1.096813273981354364e-01,1.035063777353758852e+01,1.905353033383278882e+00
4.042232455322122497e+00,-7.434608814459799042e+00,-6.693281823313079748e-01
-7.431068202600837225e+00,-6.314004658234320111e-01,2.156963013928944850e+00
-3.518259220613749072e+00,-8.840820993808663486e-01,-8.717103105054658130e+00
-9.038313781156940507e+00,1.536131647428178093e+00,1.204378480139995711e+00
5.437477460533745699e+00,-4.554338183867542078e+00,1.085837077905269288e+00
1.259917082132411492e+00,-3.496749758213432147e-01,8.489540977057140836e+00
2.744294757291604547e+00,-5.531126349689536426e+00,2.492357169346353096e+00
5.127541057675371938e+00,1.531676169463038972e+00,-6.485881282919115698e+00
8.186559802011721843e+00,-3.713432035547010734e+00,-7.224293179190124925e-02
3.584844467989168226e+00,-5.827215992720716775e-01,-6.020966135246962558e+00
-8.401120361060293362e+00,6.015623757662776905e-01,-1.694772420415798120e+00
-1.064492207297619064e+00,1.018800257440503954e+00,6.910832615109391952e+00
-2.458116654383743604e+00,-5.085002525851460398e+00,-6.013168138943570717e+00
9.580060091438639347e+00,-2.072461102590654747e+00,-7.426875754451688350e-01
7.143558590475133308e+00,2.318173134934807533e-01,5.221419010689222873e+00
-5.334792967373255257e-01,-4.375837734787419109e+00,-5.551044787922061019e+00
-2.577334094782646634e+00,-6.953671640988077662e+00,5.414192518717364955e+00
-5.752912616265446033e+00,-2.798246114013499319e+00,-5.088794627295254447e-01
-6.691403748633708126e+00,-1.023803820032709311e+00,-6.551823153022046320e+00
3.404471731233584819e+00,6.062723276901311742e+00,1.783604769048919625e+00
-8.650865863021428126e+00,2.479630404408059707e+00,-9.262292670709015852e-01
-6.456478465860480132e-01,-6.368617531047817693e+00,4.410122087468421270e+00
7.923911855404288218e+00,-3.171732825126273525e+00,6.792852601598636797e-01
2.010135999395271433e+00,6.460563295918289484e+00,4.958368270818005463e+00
8.241873865396149412e+00,-5.043803792799835817e-01,3.444500140619274564e+00
7.116314144727810209e+00,-3.111373337434181874e+00,1.648970434910754124e+00
-5.252988705756828303e+00,-3.427990249078312956e+00,4.708088979975636690e+00
2.115407211566741719e+00,-7.146536605640675388e-01,8.291687085295993853e+00
6.162661771936207344e+00,-6.604577228005117373e-01,4.871308488978178808e+00
7.760686611502769505e-01,-2.877919935435043541e+00,7.109928330686986264e+00
-4.066726103687837934e+00,-5.186261666673654069e+00,2.765528664779492551e+00
2.219505974863038134e+00,7.504606228244585786e+00,-4.240233387618835614e+00
1.656121049556176672e+00,8.287517077613960836e+00,-1.665654609612397863e+00
3.288360024304612494e+00,-2.854536045603020877e+00,4.786353830885204275e+00
6.535208450978520212e+00,1.618667704084489678e+00,6.387643176695037894e+00
1.893707464340464552e+00,-4.983980042213724815e+00,3.693607433669361395e+00
4.663635291928223126e+00,4.247698926126280305e+00,-3.512660039117479815e+00
3.222502199372803577e+00,4.009026666101931369e+00,-8.722458278009877830e+00
1.341903103097611627e+00,-9.037950823573469350e+00,-1.941203409707160432e+00
2.933895954627052660e+00,-3.039306997714304348e+00,4.914469547216003598e+00
-1.915316381523873179e+00,-7.673564149082572783e+00,-4.201149184050410490e+00
9.994059847932980745e+00,-2.607025890607022056e+00,-4.797623237101144578e-01
-4.089598280052504364e+00,-5.245209261593238637e+00,1.494834001900436249e+00
4.562602138480472469e+00,4.582647915529358684e+00,-4.427608525332056288e+00
4.959488418359859985e+00,4.099119812746169877e+00,-2.693960630829851155e+00
6.765333540674548507e-01,3.501948603031635798e+00,-7.751695573648866855e+00
3.332041416325369543e+00,-4.617625563043242565e+00,3.233483140494600949e+00
1.215808437348220084e+00,8.895617431603925596e+00,2.424322005053198281e-01
-2.880108001539964935e+00,2.105586106391764467e+00,-6.062504837521861312e+00
1.266279224765751499e+00,9.032796616464422002e+00,2.809201113470501721e+00
1.250583337500761560e+00,8.913031544375279225e+00,-1.148050754290167008e+00
-1.695497592290249544e+00,-8.317763255198959982e+00,-2.700805635661234660e+00
-1.415555408594196152e+00,6.178048124766934990e+00,3.699410968297835112e+00
-3.273825873166877898e+00,4.116341355143215974e-01,6.037116252052936005e+00
-7.093571179086633371e+00,5.511747188283908194e+00,1.624161067591113783e+00
1.498923634354372592e+00,7.239027656684918988e+00,-3.930463703993385405e+00
8.594920606834589805e+00,-2.580170519648359750e+00,8.102615956731507030e-01
-1.391767701800520118e+00,-2.138933659260719988e+00,-7.215501376154391799e+00
-2.298575997448145891e+00,3.359612811215253014e+00,5.013960085070340966e+00
4.001140284083987142e-01,9.958087168050173688e-01,-8.264371021367617587e+00
-3.612136773045420579e+00,-4.414261618046778635e-01,-8.262866936397704976e+00
8.627920612005008927e-01,9.370808981894318990e+00,2.086117506559253432e+00
-6.510539728728929276e+00,-1.348196991284959179e+00,-6.815307951493798200e+00
1.569530955131832384e+00,8.234283516432798322e+00,-2.880558231737723851e+00
-5.574917996218524685e+00,-3.015548521864623854e+00,-1.281244676648310543e+00
4.120348379448529386e+00,4.915848564781883034e+00,-8.145164509966708322e-02
1.669429654818009423e+00,7.980962869307081320e+00,3.951137735204508949e+00
4.826199199846207932e+00,4.230080403306105019e+00,-1.383811909429847997e+00
7.979582171443493355e-01,-7.835691799523233136e+00,-3.053730672686184366e+00
-2.899339865892176960e+00,3.683726127671096418e+00,-4.334240867215847892e+00
-3.889648168695640784e+00,-1.971153979315619365e-01,6.338955980149115987e+00
-5.304436668457990223e+00,6.147902470016185283e+00,4.734117086745106007e-01
2.147854346928462999e+00,-2.115997598472946564e-02,8.597847103939765034e+00
5.541255755189231635e+00,3.274574090608532551e+00,7.835913889595366832e+00
-8.008184937339070109e-01,-4.196383641384767493e+00,6.827579086330350044e+00
-3.851161292812482095e+00,5.197260089827529406e+00,-1.677873558058488701e+00
-6.393063537643687511e+00,4.036465406411148038e+00,-9.730626316660813124e-01
8.771564170542810457e-01,-5.969540260136394494e+00,-3.919603910830365301e+00
8.884921853892846499e+00,-2.502762879655420658e+00,7.253513543486304060e-01
-5.199413841472459552e+00,-3.623518745998290047e+00,-3.749699305205916322e-01
3.173858088243504683e-01,1.947886458265933651e+00,6.897867002272684900e+00
8.600764021689519367e+00,-8.213412957471547537e-01,-2.121946555174331728e+00
-1.393079923925097940e+00,-8.836166709150079512e+00,1.230698292924037318e+00
-1.536850912829010651e+00,-8.355503512298007252e+00,9.092112928127785709e-01
-8.938064703219136931e+00,1.181554891726172229e+00,5.369312713216540800e-01
4.414352516413126537e+00,4.607950953499591940e+00,-2.299296261188144452e+00
6.038540105018028292e+00,-3.259053125680896112e+00,-3.268567939354738883e+00
1.180998585780116406e+00,-7.882876245045413732e+00,1.018567059344938963e+00
-5.151793498577974972e+00,1.210102436407449522e+00,-5.194200032449108662e+00
9.434749150783906302e+00,-3.534722853641266482e+00,-1.741969651721017920e+00
-6.080479273138068130e+00,-2.401371344947841546e+00,-5.539960309962614460e+00
-8.137128781976821656e+00,3.707689828367165541e-01,-2.931037636891697495e+00
-3.700137768995980014e+00,-5.684456238848676790e+00,-5.030035274690358271e+00
-3.150057900825241619e-01,9.468755810094762637e+00,8.094492362137845065e-02
-8.177410270399230185e+00,3.084044862000585030e-01,3.217199158336022435e+00
5.101817449812587335e-02,2.939600822307087746e+00,-7.542746145879783981e+00
9.871103408911942045e-01,8.574430829127207332e+00,3.436603994773663739e+00
1.008546134482084522e+00,4.649750295853246840e+00,5.625082202217661198e+00
-4.792129448145328929e+00,-4.258029755544153083e+00,-2.205423135983803906e+00
1.076447415720800604e+00,9.887474283112964724e-01,-7.763072654140652062e+00
2.209232219197764913e+00,7.466721429002583399e+00,-4.191201099442807276e-01
5.449637789669484533e+00,2.782823982803062535e+00,-6.947292946696324023e+00
2.856602331653425697e+00,6.458197258253537409e-01,8.729516337703447704e+00
-2.169264938786745311e+00,-7.578578125267206644e+00,-6.323853774067907940e-01
1.657329187134776394e+00,8.383559385246737605e+00,2.163456661546558468e+00
1.544751399019759885e+00,5.730895077833682905e+00,-5.760724444426831958e+00
-3.852947843639207726e+00,6.935645292156915609e+00,1.540675464506673642e-01
-1.608113946985405329e+00,6.884015353478148747e+00,3.208221519085729501e+00
4.611707453067912077e+00,4.286698187008131988e+00,5.344799099398259479e+00
-2.121871744527836778e+00,3.954866326511487173e+00,4.617755962795855318e+00
6.383915667374426839e+00,4.476186457269543117e-01,-5.361846921248284659e+00
3.039343198702497251e+00,-6.024646483427197552e+00,1.533537970295171693e+00
5.235127049100077201e+00,2.276825738311114566e+00,-6.709876974294067153e+00
3.767374463032113319e+00,-6.376510293839961818e+00,7.515259521248368602e-01
5.330367812154732654e+00,-4.421626943181937719e+00,1.517273483649533627e+00
-4.731639865548160628e+00,-9.064024758859489106e-01,-7.792703455931008882e+00
-3.226150532657149128e+00,-3.671217794927117861e+00,8.322232336736156810e+00
-5.521802537919600518e+00,-2.790003289630871741e+00,6.803720175790018310e+00
-6.045734584033263914e+00,-2.472971891254632570e+00,4.186383201844007473e+00
7.125758408456027482e+00,-1.495807666640122324e+00,3.376953945469781004e+00
-2.807442543606083252e+00,1.051270397177867633e+00,-7.178246423260109310e+00
-7.752291688348546650e+00,-3.190017596366035435e-01,4.040700295880943038e+00
5.690068095254319225e+00,2.904543510613907475e+00,-4.335096497842628516e+00
-5.065112479586506011e-02,-1.698439209158137286e+00,-6.910027068583826981e+00
-6.381514831227139695e+00,-1.124805348654291798e-01,-5.649576976239171877e+00
4.734257161276875930e-02,-2.756510416313686207e+00,7.688483349000302169e+00
7.314332319825614270e+00,-5.159182431234791366e+00,-1.690746117294984252e+00
3.653984724239117909e+00,-1.007094923202565884e+00,-5.572053626855455910e+00
-4.332448891507749700e+00,1.288104715915115106e+00,5.289759499412829413e+00
-4.044380299213930385e+00,-5.261620422439651001e+00,3.787188798891529817e+00
4.613494273412611868e+00,-1.966938630432119028e+00,4.669375301309081294e+00
1.027778144218520318e+00,9.273068418229675203e+00,-1.227531710540231691e+00
9.009341306254443182e+00,-2.637410068706580901e+00,3.236442530578805821e-01
-5.236215242315226170e+00,-3.589256248086448053e+00,-5.351840347787003793e+00
3.982622217214834226e+00,5.274513422094343262e+00,-7.382163523364504876e+00
-1.361893315887556133e+00,-1.297125135926959105e+00,7.920692621222396923e+00
3.698600966093368747e+00,-3.618728853739577200e+00,3.682758518432769801e+00
1.434674235739164194e+00,-3.946096081027143043e+00,5.278167146248808450e+00
-4.566037980365674542e+00,-2.350802883822253442e+00,7.122548757906072225e+00
2.829276934502154450e+00,6.782941115550586986e+00,-5.974914351361174103e-02
-2.408451781545073889e+00,-5.947215991068702579e+00,-5.491802586119316487e+00
5.841947863542629626e+00,-3.758107250975825320e+00,1.848501902633107097e+00
-7.681713512942881295e+00,-5.287159906192300252e-01,8.722678934254737143e-03
-3.088121548081437684e+00,1.278226163177145491e-01,-8.193924336051470192e+00
-4.091544958219849093e+00,-5.076828648534903010e+00,-4.135185329708606083e+00
7.651814188867287925e+00,-3.199680824843190496e+00,-2.711860648461560608e+00
-7.499227024693383648e+00,-5.326222325823919412e-01,-1.973149772117917422e+00
-7.080330485982301525e+00,-1.251107851992844466e+00,2.835179740526865277e+00
3.742100507543181021e+00,4.161095573883077492e+00,-8.434518435188920193e+00
-8.305140831063214435e+00,4.748184473757272595e-01,-2.031687963264398711e+00
-7.697291807633563465e+00,2.928812362626754595e+00,2.752264070282701702e+00
6.038254050819346297e+00,2.535215000915520545e+00,1.036031081556273215e+00
7.825482169393149778e-01,4.855843651545304951e+00,-6.180391476269231354e+00
-2.275308040808459609e+00,-7.508825399800250544e+00,-1.307203444765313582e+00
1.620475803887927890e+00,8.205508178570118716e+00,-3.155470610969575151e+00
-8.441203371063643601e+00,6.144923726733578784e-01,-5.149503888095292581e-01
-2.761259316889832505e+00,1.525469918581836337e+00,-6.898094348036090118e+00
8.388321704229674936e+00,-8.543644755787027645e-01,-1.517496565760907412e-01
-1.854875254239503279e+00,8.115362416422705394e+00,-2.228806748827676376e-01
-6.472171308191491335e+00,2.058102692178120918e+00,-3.047486168469140111e+00
1.448178595727986240e+00,-8.156789645869473304e+00,4.445971695494061460e-01
-2.719679657426805175e+00,7.330920494537812360e+00,2.482378834958556713e+00
2.404233760911950846e+00,-8.416860872423855611e+00,-6.527653428165076654e-01
5.226819117611661625e+00,3.519840247286042612e+00,1.599446000834528148e+00
6.592185366405782787e+00,-5.240591817503379879e+00,-1.880500094432677072e+00
-2.219965724672495089e+00,-7.502084728330080665e-01,7.267975239733044823e+00
9.827007721380327521e-01,-7.903288520131082073e+00,-2.903323853091477780e+00
4.896042256281794458e+00,-3.256005459718126271e+00,2.969809818010468394e+00
4.838801007444830660e-01,-9.832575877974276679e+00,-1.882884466711616911e+00
2.526993865551964813e+00,6.203883122863955712e+00,-6.127708881500163685e+00
-2.217915894239828489e+00,1.130380348158353421e+00,-7.573021784628639175e+00
-5.784267798691598905e+00,6.366258441211564367e+00,1.053139050926607423e+00
-2.036375298522766109e+00,7.765994982454884621e+00,-4.284816377635621842e-01
6.590863219519137450e-01,9.565052761695916672e+00,1.471081148272280759e+00
4.544883251727604989e-01,-7.545032714887120129e+00,2.076469967889733148e+00
2.655488785954735143e+00,6.927381060063641627e+00,7.953592088889314959e-02
-7.241182424471848122e-01,7.074122009116288190e+00,-2.284653168515500710e+00
5.636617534367093008e+00,1.587768197490228239e+00,-6.273915293906187962e+00
4.192624298932035920e+00,4.881525650571356678e+00,1.723682331426671599e+00
5.590072041249926071e-01,-1.688631254745916133e+00,-6.614435413975439992e+00
6.882299464687860358e+00,1.316070883159066840e+00,8.669667330990133980e-01
-2.378035588739489725e+00,1.422952657247272601e+00,6.028212585107310062e+00
-5.117245964327532093e+00,-3.653987715847454520e+00,-4.731125346975681545e+00
-4.027145014646600352e+00,4.695525996407410751e+00,-2.320279968747757326e+00
8.547653253326940259e+00,-9.696228489517338955e-01,-1.193735217849533514e+00
-4.498788603303606193e-01,-6.888739172265709421e+00,3.667678238512992017e+00
5.304975851527163222e+00,-1.495280015353500858e+00,4.813418933552194190e+00
-2.659357842161018226e+00,3.949868580283532715e+00,-4.162858794577136479e+00
2.896942710348497041e+00,-1.788145147582122618e+00,-5.524406859076989029e+00
-3.711619923179453551e+00,-5.588323098957715729e+00,3.085411734493809455e+00
-4.830067256863960878e+00,2.743238759545879368e+00,4.210162124110120807e+00
-2.477876304115400163e+00,2.096230541605904829e+00,5.368340244243765547e+00
-1.515458653028700198e+00,6.654220507631865011e+00,-2.058671113927204477e+00
-2.276304212601018229e+00,-7.426368417154983526e+00,-1.774844909386893210e+00
3.921392756958020698e+00,-2.644453340499970384e+00,4.741392541674944283e+00
4.137115157672832666e+00,-3.446820183910977775e+00,3.565980350751300598e+00
-4.907677208947304415e+00,-4.229811928355647233e+00,-2.390252496398741489e+00
-5.312345565251963553e-01,-4.872614544075476672e+00,5.778608763794052194e+00
6.629372342394342255e+00,-3.175786752715306527e+00,1.885454459572138752e+00
-1.718202435162877961e+00,-8.246120828769548439e+00,-1.594284268988540365e+00
-3.431924256953259533e+00,-1.378922554933706524e+00,7.135207511379942247e+00
2.972811029615201051e-01,-1.048226175589074494e+01,-1.045791610769650992e+00
5.932662307182841488e+00,2.609209499059243154e+00,-2.332422997666825371e+00
-1.628638662537830628e+00,6.533013884292415696e-01,6.798111857581788264e+00
-6.410552020963712572e+00,4.439388499600397608e+00,2.590956154917921861e+00
-9.231053931166934845e+00,2.120123330307102538e+00,-8.114001696014109255e-01
-3.436659022456435064e+00,-5.887303622080943377e+00,-4.348472488487770349e+00
-7.639139712696559670e+00,-4.659389529718734879e-01,3.219697695622593780e+00
-6.478267041606786236e+00,5.819245539112696264e+00,1.548350619035592679e+00
2.237890812660804363e-01,4.911641149196735334e+00,5.149643137997414577e+00
-3.605902662852773055e+00,3.072128897167581307e+00,4.379528789744388639e+00
6.642393445320774248e+00,1.764245138660553547e+00,1.133542331822071647e+00
-5.687565227727284345e+00,2.385495980837177288e-01,5.290279857647794515e+00
-9.944272830885370063e-01,-2.687772413944550465e+00,8.566420482818214666e+00
1.880780133029742451e-01,8.538351401198509549e+00,-1.475077545993080497e+00
9.188333629542333014e+00,-3.811387498503449933e+00,-9.959704191523921502e-01
-7.250426165905151876e+00,3.100885236258953626e+00,-1.431418473955003767e+00
-4.813270998677532830e+00,-3.350805895110863020e+00,-7.947659236239165814e+00
1.721827527882962894e+00,5.538988208883574238e+00,-6.111467904322736011e+00
4.502554244211563805e+00,4.480466762674820913e+00,-3.863756287174032966e+00
3.022010391034620991e+00,6.430394532358792326e+00,1.586025678402899208e+00
-8.332000574935737092e+00,9.926637928469724814e-01,3.629356447730091695e+00
3.304428254788361663e+00,5.843488344434814685e+00,6.251075821304655777e-01
-7.271950464166166306e+00,5.135746209674906027e+00,1.667088410626939687e+00
6.838247052735111353e+00,1.430440164777664114e+00,6.271820098907634922e+00
-2.779162464248353892e+00,4.012930429898937668e+00,4.296303634769120805e+00
4.613325588073510453e+00,-2.898794749161063056e+00,-4.212037125358730094e+00
-7.472097624506193192e+00,-7.089180175642495474e-01,-4.377355729108268201e-01
-4.943226685141502763e+00,2.497165258196290427e+00,-3.923273640183843725e+00
6.981941270448628778e+00,1.016989490067785162e+00,6.190428441168011275e+00
-6.792929046211857447e-01,-9.380119567310588380e+00,1.001226162432014011e+00
5.815280287163994366e+00,-6.433529531164989379e+00,-1.549351651661217799e+00
-9.425472212545787931e-01,9.955487250950422862e+00,1.102617743692347219e+00
2.981619620510221669e+00,3.230866428093545295e+00,7.163298198687594542e+00
2.395727690792450737e+00,2.293117255721623060e+00,-8.063722680444003643e+00
-2.484090488054528367e-01,-1.011927264137482751e+01,-2.103992346699974370e+00
6.671163669476994906e-01,4.202735730482028309e+00,5.717935018224570065e+00
4.377431285669897143e+00,2.305427149844974100e+00,-7.116288416455728516e+00
-3.997418926795747840e+00,-5.153130053278425216e+00,-1.590001757376884317e+00
3.230119210668232821e+00,6.143341138550788116e+00,2.014929626401167351e+00
-6.589438911650337793e+00,1.589724986927422146e+00,-3.542171482133920524e+00
-9.433999612269332147e+00,2.550754970721420989e+00,-9.657181478222076620e-02
-5.109338379125782481e+00,-3.743836183113838700e+00,5.101435037165428454e+00
-3.592295987202859031e+00,-1.183419349793177977e+00,-8.595645009038346274e+00
6.350608217594480465e+00,-1.325272061648947286e+00,-4.264864717789475179e+00
-5.016916144406772915e+00,-7.145011035289330348e-01,-7.740599700104656478e+00
-3.417486157017919801e+00,-6.048335810465916396e+00,-3.224638310059225965e+00
5.872887289738017103e+00,2.669473065340506324e+00,6.272508628172730916e+00
-2.688577649134832548e+00,-1.974244966951950175e+00,-7.801654139002646815e+00
-6.331879528562002868e+00,-2.229611713669014339e+00,5.910561548077873262e+00
3.765453767522828787e+00,9.962007703205149056e-01,8.804069989802817631e+00
-2.340495799309131986e+00,7.027552661633025721e+00,-1.036742578108933444e+00
3.433745513044432762e+00,-7.900294600221181796e+00,-1.821533066775693044e+00
7.280684256564748935e+00,7.611847772368089959e-01,-1.718595420300012000e+00
3.627877199048480938e-01,9.723349786050000887e+00,2.367848844387749008e+00
4.086310261896133333e+00,5.212784707218290237e+00,-1.651562214192884959e+00
6.975199894207448903e-01,9.742619705897281435e+00,-5.629727029312715514e-01
7.274880466409815227e+00,-1.596579357905346885e+00,-3.657876244860969184e+00
-6.079502455162494101e+00,8.900363866676422875e-01,-4.738597944580700272e+00
-3.444220685924819225e+00,-6.026518600748701715e+00,-6.858870771508758235e-01
-2.114606610803793085e+00,-2.338737544403651114e+00,-7.406451462779292783e+00
1.712623304163093163e+00,-7.564845563954341046e+00,1.044798237406780128e+00
-4.280751340644654235e+00,-9.754667544018607028e-01,-8.296002936599293776e+00
-1.072959242812882463e+00,-6.442657258463303727e+00,4.654448909555584102e+00
-1.900236275792783758e+00,-2.387233616910928446e-01,-8.485406381627623063e+00
2.936398385666131539e+00,-6.451244256721441417e+00,1.219497136344513954e+00
-6.913485812477120795e+00,3.775342240016853257e+00,2.625990379767962679e+00
-3.598932522767553266e+00,-4.918114722608676992e+00,8.225226095006767935e+00
-3.502203452575700204e+00,-4.720101432783759599e+00,8.421945716068609755e+00
-5.886540462140041896e+00,2.062195455740062577e+00,-3.709554315392266322e+00
3.791025218238457395e+00,5.701610294910018695e+00,-2.255999669248690331e+00
8.188883598576875755e+00,-4.471021964665131132e-01,2.177438763899884222e+00
2.640659868071424388e+00,-5.815157307414164478e+00,2.284911717892935457e+00
-5.056145065166114172e+00,6.321532162385681275e+00,4.118805080481144909e-01
-5.690873979343721523e+00,-2.876701436088321628e+00,-1.180837930560730969e-01
-2.436232283413805710e+00,-6.937940773156435981e+00,5.209200593855356942e+00
2.212348725535038696e+00,5.043417373701139517e-02,-6.865374806850791600e+00
5.677614244946641797e+00,2.850122069729441598e+00,5.849108956277228266e+00
6.011163830558587939e-01,-1.002922987976364588e+01,-8.245773591169834882e-01
-3.654571751529672952e+00,-5.733132010014708513e+00,2.361268395505050410e+00
7.274534043148686457e+00,7.334889917813657290e-01,1.012976767261454247e+00
5.849709508576613759e-01,1.986356343111995493e+00,-8.665251346235695706e+00
2.006976547436911673e+00,7.986572031425293261e+00,-3.599853356973453433e+00
6.516247390091583824e+00,1.920458319638026934e+00,-3.566689912237977822e+00
-4.741133721008469193e-01,-7.733103771593014208e+00,2.785658167801636331e+00
4.063648460195804640e-02,2.945946825034833516e+00,6.105250776891089970e+00
-5.698426435473717966e+00,8.754124746538951563e-01,-5.127306162506362064e+00
4.667836191279270963e+00,4.474258797567562951e+00,-4.961291067373341690e+00
3.174185911746093769e+00,6.397414808385244456e+00,-1.263475743838902821e+00
-2.719488513240827299e+00,3.633979459914352006e+00,-4.653559056327556398e+00
-3.358111992537748947e+00,-6.066513156595037870e+00,-4.314705331000404875e+00
6.571822849608554229e+00,1.851932745507099964e+00,3.239638045792503807e+00
-4.731269103432900636e+00,-4.086766718583137781e+00,-4.868852910481805019e+00
5.202979751787464302e+00,-4.955441423135268586e+00,7.930904805467604568e-01
4.440435158322409315e+00,5.523170848302427771e-01,-6.121975126606520767e+00
2.251999747510284866e+00,1.208752136874878591e+00,8.130429372660961107e+00
4.524936104991098773e+00,-5.963473980903806648e+00,-2.362497760231164090e+00
-3.528972741452942152e+00,-5.790661513146688755e+00,1.100112315478570801e+00
-1.454504657995802530e+00,5.957547325281039363e+00,-3.118002671696856520e+00
1.799637277198539165e+00,5.651685940264964403e-01,-7.322047534625917287e+00
6.309455821543438425e+00,-4.441654665643468558e-01,5.051306270498955087e+00
5.170228086659958144e-01,5.718670544011335011e+00,4.753067939232614059e+00
6.540039840182390485e+00,1.960696136174983284e+00,-5.313184168425340026e+00
-3.912345107553205192e+00,-4.921012087502153243e+00,1.402522914642382545e+00
3.620764476159380685e+00,-7.997869305395381545e+00,-1.757592618095237036e+00
2.375713853675669007e+00,7.275191391603852864e+00,4.668354217928623484e+00
-8.621085875318689418e+00,2.920157878938986151e+00,-3.865504959414668984e-01
3.979656020323383281e+00,-1.971168692339128337e-01,7.247269463357580932e+00
6.540676573960407580e+00,1.893484811309027238e+00,-3.993529097924104487e+00
-5.359224541071053061e+00,6.339911435808145868e+00,6.055467302100029370e-01
-4.597030665746254741e+00,3.246004069730338060e+00,-3.468956945075031495e+00
1.471179008690131740e+00,8.489566898343671397e+00,-2.485029212918756780e+00
6.618631466500632499e+00,-2.155297738126946694e-01,-4.734716960380574768e+00
4.779910425959953635e+00,4.144491691017748281e+00,7.415152156838862751e+00
-4.898433789859920395e+00,1.484550401832190003e+00,4.900352399069323184e+00
4.962117012214343516e-03,4.309224033214724692e+00,-5.792062781493698687e+00
4.426734156215898608e+00,-6.431594874225145197e+00,-1.366454035366899099e-02
5.654472910093619298e+00,-3.162183253349014400e+00,-3.449476312539427880e+00
6.419468294238538597e+00,-4.910037112070920529e+00,7.368642801539654341e-02
-8.654343943170674791e+00,9.305494176747314272e-01,3.390729914333458161e+00
-4.180760791652780917e+00,-4.973262516776222775e+00,2.198053816033072039e+00
-3.515018029872954308e+00,-5.800469363092629393e+00,4.517280254018816166e+00
5.268727203121479796e+00,3.471834732012820446e+00,2.641484813092404016e-01
-8.558837217785343343e-01,1.059136649617011150e+00,6.777912840503339531e+00
1.976769401616974342e+00,7.895479584044146293e+00,-3.199625141758078772e+00
-3.647927702328648270e+00,-3.211938790341212768e-01,6.420264829166669962e+00
5.964082918031535563e+00,2.476442460698942138e+00,9.166392741032178826e-01
3.500882263690855645e+00,1.174356302864985047e+00,-6.923596081376061306e+00
-7.487658270740106481e+00,-5.788842828482861913e-01,-2.241440962606004117e+00
2.545513452456499071e+00,2.826293394809185955e+00,-8.296981005251872432e+00
-4.412417099441269031e+00,-4.180286031144094139e+00,8.296460673543077036e+00
3.455569727964603821e+00,5.875394892722667350e+00,-2.388764092799479322e+00
3.085024908829910650e+00,6.466246949740460437e+00,1.500609034979982548e+00
5.902769855302361535e+00,2.089247082246721732e+00,8.334042209859784833e+00
1.082347785251029038e+00,-6.237806568820699837e+00,3.074477661562097452e+00
1.052305945243838581e+00,2.425190690114829017e+00,-8.773630701615459770e+00
-4.767927658145509895e+00,-3.814251551792946948e+00,-7.757566375276768511e+00
-6.820035202882480441e+00,3.328139534754271267e+00,-1.410177680659908006e+00
-4.512875351329453721e+00,1.643312171988820403e+00,-5.367219261151822352e+00
9.223885183051432790e+00,-1.575576311400288976e+00,-2.485448883914155083e+00
-9.122482184897849677e+00,3.266111021276588477e+00,4.553010385194575793e-01
2.271699894021420363e+00,7.575354278054089896e+00,-2.675088288180385465e+00
-1.447952497148691675e+00,-5.365407541786725965e+00,-5.403839616731606732e+00
-3.872939087394680513e+00,-5.388592859551432745e+00,7.727854793795517097e+00
7.199337054320641194e+00,-4.603201707456990199e+00,-1.998839132710696465e+00
3.276865035725873287e+00,-5.831675547972011486e+00,-3.134086320359243061e+00
-7.040143167719719486e+00,-1.263738882881421333e+00,-3.273169662397449553e+00
-8.243706249674955799e+00,3.901011782200491051e+00,1.908711860476482336e+00
-9.995892697638755209e+00,2.694554807968968735e+00,1.279873017789969536e+00
5.820304127278797424e+00,2.694538085715758591e+00,-3.317370697748725838e+00
3.290542610033282411e+00,1.451561536939330321e-01,-6.453206696407216114e+00
4.508002990088487039e+00,2.341979065447253205e+00,-7.041727508138592384e+00
-1.877440982956525284e+00,-7.933549263993940670e+00,1.418953003644457089e+00
5.555864709007908075e+00,-3.559254498974471215e+00,-3.336117673364828118e+00
-1.916317095845756935e+00,-8.002658211411093347e+00,2.509107838521363321e-01
3.045648918973459018e+00,6.332487272801119893e+00,5.465079287845693301e+00
6.140843953751807582e+00,-1.824643512778708829e-02,5.727359939615493722e+00
-5.846946188309328996e+00,-2.822522690790530753e+00,2.270008397519938936e-02
-6.749293437569679810e+00,3.210667534390231115e+00,2.903881417620695515e+00
6.874588745524900624e+00,1.208256395092237589e+00,6.452399791782320371e+00
1.149311454409481348e+00,8.959871310433060287e+00,-1.723310985881127300e+00
4.326848475859728538e+00,4.631545115752124353e+00,6.116810392505499294e+00
1.871342248125364538e+00,-9.017962143805871023e+00,-6.847518193512116547e-01
-6.406573325482190384e+00,-1.429450266175663342e-01,-5.547991903368675537e+00
7.747552889022170319e+00,-3.340719651357682007e+00,-2.517344325054879928e+00
8.677871175102465529e+00,-9.380683963840951156e-01,-6.256428840735914210e-02
1.724226502112494508e+00,-3.187935063913279521e+00,-5.275260584716383150e+00
-1.032880137485373107e+00,3.238393996874416203e+00,-6.290681224001385630e+00
-5.107454974332718223e+00,6.225546391326819418e+00,2.830360103046810627e-01
5.537900363492025413e+00,-5.180900699912663221e+00,5.324686093007172660e-01
6.042453483538857029e+00,-5.597355860704793074e+00,-2.045452193355417614e-01
8.290824334933303064e+00,-1.156070593684787706e+00,2.571280046159160282e+00
-2.637325289791063287e+00,-6.774170146244085977e+00,5.485332664718578499e+00
7.208159709190136155e+00,9.146527260099681644e-01,-6.221619715075225043e-01
-8.454305927061344761e+00,4.467567704693125030e+00,1.140329490972022741e+00
7.479608221284229863e+00,-4.134771295499430899e+00,-2.248002062048912730e+00
4.647950808932024280e+00,4.337495426750493266e+00,-6.015912369327947040e+00
-6.732928796354806344e+00,-1.506264601512986134e+00,-6.982941402168925116e+00
7.283720601556633589e+00,-5.437870143551617019e+00,-1.453981252833583371e+00
3.662595571718703091e+00,5.648893602156554117e+00,-5.445933337234690086e+00
-3.596180511272055180e-01,-1.004830744837651224e+01,-1.658816821058750168e+00
-4.239742082206652718e+00,-5.101018119008852381e+00,5.056062843770972037e+00
7.054347756267614900e-01,9.687280373707928049e+00,7.728243218432102879e-02
-1.223526947628310824e+00,-8.100471437193084157e+00,2.862386746347211020e+00
-2.933080899912553274e+00,4.847884774062150903e+00,-3.059104057307286073e+00
1.453883934134803102e+00,2.108839783615460206e+00,-8.425232528192132975e+00
4.389081725093514130e+00,4.573516932504547938e+00,2.594486455099923816e+00
-6.406089130742030235e+00,3.345233881313101953e+00,-1.860642897051874911e+00
2.205120621492723032e+00,4.231084933758601174e+00,-8.105983748306266889e+00
6.892196489929319547e+00,1.459191034012104593e+00,1.255107971650266441e+00
1.500894534184181728e+00,-6.083066661341534065e-01,-6.755957235078495771e+00
-2.814175372170119704e+00,-6.936265912333954731e+00,-3.628500193025004261e+00
-3.480028317560116324e+00,-3.536342912129173399e+00,8.270764643664948679e+00
2.863237399581181286e+00,-2.319432466145000316e+00,-5.213414332740106794e+00
3.278474606634909638e-01,-1.897475003038075148e+00,8.338328436441837965e+00
8.394708260825650470e+00,-2.960654719072679075e+00,4.587995081138822595e-01
3.933586125691564295e+00,-2.556024903485660804e+00,4.668061776139690089e+00
4.837292634621166876e+00,1.244678447652517006e+00,-6.266752616961162481e+00
7.031224842562956212e+00,-1.566468957619211677e+00,3.197415349700270415e+00
-6.914602281446603271e+00,2.419437177230445268e+00,3.329977639306982429e+00
-6.489950104718485768e+00,-1.798901894905456489e+00,1.304761745247877913e+00
8.091818117168925184e+00,-2.514941931740963255e-01,2.923227567713285957e+00
8.288405898786772141e+00,-4.225175356944042004e-01,-3.048352209148262215e+00
7.739729928094891243e+00,3.365821799762444000e-01,1.935764978266005132e+00
-4.135680948344375274e+00,5.539412418667424731e+00,2.745609840080939446e+00
5.406544888388168602e+00,3.358185167841960528e+00,4.627823921817295627e+00
2.667306227252969730e+00,-1.267772950597454873e+00,7.244029006804436399e+00
8.398008333734024333e+00,-4.158307622710628593e-01,-9.892530520078222089e-01
3.850025093877959659e+00,-1.475696473429679134e+00,-5.162701759414336955e+00
4.146066738994890422e+00,-7.180586215780781600e+00,-1.927567516840601902e+00
2.803384037196742451e+00,-5.991925315558847664e+00,-3.061534989174484966e+00
-3.187066592452194036e-01,9.441291045126742887e+00,-1.438351314896274269e-01
3.615866848125275368e+00,5.624427919795748743e+00,8.078347355430157695e-01
-6.367144112666034417e-01,4.981640392071988721e+00,4.786385868199330318e+00
1.902096148598409586e+00,5.165447732757457722e+00,5.618797780089651361e+00
5.728217881619126040e+00,-5.672934234712172064e+00,-2.020062827614409695e+00
7.767858983275154339e-01,1.871448154982197742e+00,7.070940209093319773e+00
-5.143648838000759227e+00,-1.215690725780900650e+00,-7.862326539474539189e+00
3.930739246476666060e-01,-7.367005812522045893e+00,2.405256706551430756e+00
2.602077800237317273e+00,-5.370977735834046918e+00,-3.428333737827608196e+00
4.097444083104763379e+00,-2.910291448753009380e+00,4.231508759022839072e+00
6.063826032761511442e+00,-2.352151017792384113e+00,3.123385103422427367e+00
3.548159348878258346e+00,-3.103699791430977406e+00,-4.388255337508470078e+00
5.597175027585001850e+00,3.126155882629130911e+00,-7.991216495378606899e-01
-2.081094357928800598e+00,-4.435841476597683020e+00,7.527638493911644524e+00
2.158390882316973958e+00,-4.139089171954130286e+00,4.611640470778529455e+00
-4.928827059695819912e+00,-3.216313047254823476e-01,-7.234001449375495163e+00
1.083043133277372005e+00,9.079385527719711746e+00,-1.622496848403250480e+00
-2.833645177791190850e+00,-6.834463356709235882e+00,4.683949266155230440e+00
-2.441590166677619855e+00,4.294751954694148388e+00,-3.879018441150733576e+00
4.024648935186646348e+00,5.214702916371439123e+00,5.559468790735441424e+00
6.933497089153210169e+00,1.353078621130478387e+00,1.904123608294754577e+00
2.377690322665334755e+00,7.381017286589251825e+00,-4.803012448144666102e+00
4.236611813208633670e+00,-3.015649703427945028e+00,4.109898480452967462e+00
-3.067677394972633476e+00,2.544500712519276231e+00,-5.554307297434885271e+00
1.805955677458732422e+00,-7.436271363194013162e+00,1.093571537082496770e+00
-4.971406618619560014e+00,-3.938319689417807190e+00,-2.153557879778979611e+00
-3.405840226022414097e+00,7.378389698883731640e-01,-7.323169475572248288e+00
-3.143297976438322650e+00,3.682054698058703668e+00,4.407823298298062298e+00
-7.529319466413454620e+00,-4.441491603846419722e-01,4.394831139737956249e+00
-2.925233125356783148e+00,-6.604977984485503661e+00,3.628135260475814583e+00
-7.335492385193109754e-01,-9.504951652588394140e+00,-1.341419889104498650e-02
-3.282178823344750196e+00,4.054303620506980899e+00,-3.627629249540358813e+00
2.959649036164813563e+00,-7.790743841581578621e+00,-1.966016213133834789e+00
-5.277480432057172877e+00,-6.826453547573617664e-01,-7.008376616091860356e+00
9.228073688209378345e-01,-5.014854891185097641e-01,-7.173503695798774338e+00
1.481375827974982906e+00,3.168799241414296031e+00,-8.705387373668626694e+00
1.360195079049300260e+00,-9.062365386018697011e-01,8.688679121329077049e+00
-3.935768143250885087e-01,6.176818019800217385e+00,-3.550858157260138093e+00
-7.725088844900886542e+00,2.026592571321459424e+00,-2.161020089269359623e+00
-5.994439604692394230e-01,8.499425513984306235e+00,2.793603384639904430e+00
3.932836596563854759e+00,7.411324473347368214e-01,8.414374492160639818e+00
-1.603698129256404981e+00,-4.068932925182785709e+00,7.579814163603928456e+00
-3.159211657139366469e+00,3.399871786908347904e+00,-4.659870270338552167e+00
-5.081498085517039520e+00,6.537790090608617710e+00,6.700534304716628808e-01
5.794017336664968099e+00,2.935056880743593499e+00,-6.415535132824977005e+00
7.589424359658970554e-01,-2.044745828597822335e-01,8.244860000444484527e+00
8.597390299569806160e+00,-3.647086631792497258e+00,-7.457930625123434520e-01
3.852588226578221309e-01,1.949860990702243502e+00,-8.626662281771217522e+00
7.204939541960440508e+00,6.840782447644863096e-01,1.909216660422740741e+00
-3.226062869138790479e+00,-3.406883114565076198e+00,8.438869379006940008e+00
6.052085197497186542e+00,2.362587531862560652e+00,1.954814268791095877e+00
-3.119825528589693864e+00,1.296970486887911722e+00,5.657095388283228665e+00
2.018082388005263628e+00,1.771229059822369445e+00,-7.861725590964556254e+00
2.566757775359661320e+00,-3.489299142160046774e+00,-4.635255050824730105e+00
-2.696360475957448877e+00,-3.954675942572345004e+00,-6.642482602118369606e+00
-7.784110023948444201e+00,2.512941996966271851e+00,-1.454574252292554437e+00
2.899362304992917139e+00,6.620743948448586380e+00,-3.228428920110347100e+00
3.761434560787989323e+00,4.111729335885033199e-01,-6.495426579372508336e+00
-5.742338262922134895e+00,6.149523436833296275e-01,4.925538319625841766e+00
-4.080892583508780369e+00,-5.157033820864143969e+00,3.204232404473749796e+00
1.543245368052522881e+00,-8.064974534006722706e+00,-2.438496892698755136e+00
-5.960350447318937483e+00,-2.709254921743017075e+00,-1.016897581650806792e+00
-1.472237179526786788e+00,-8.243833468183041191e+00,-3.628402160930846332e+00
3.713167279025951117e+00,3.346021319898021762e+00,-8.046260114228854121e+00
-1.432413306651941554e+00,-8.666376803931807871e+00,1.695668869227384690e+00
1.960570272684726723e+00,7.770505820869257896e+00,2.268544948254329174e+00
-5.548121727153907834e+00,-3.286978725567794246e+00,-3.164562288171450355e+00
7.477841813676452398e-01,-4.999287312292667984e+00,4.454478545564609426e+00
3.095111315550613806e+00,-6.388476722233137117e+00,1.205084533335254227e+00
-4.447744907610199916e-01,-1.186368345549990932e+00,-7.343142217455379317e+00
-8.216476189326384016e+00,1.954920817935168476e-01,-2.709811859857571115e+00
-4.299676148553324140e+00,5.982519360129783692e+00,-6.431899509218266253e-01
-6.627434337866204395e+00,3.924630930132592788e+00,2.652408373463633673e+00
-8.193040852783312067e-01,1.537965995984262868e+00,-8.478109505148362146e+00
-3.065369181316719871e+00,6.362805528070336614e+00,-1.310153404376516395e+00
3.511715812584367935e+00,-5.737815894350519308e+00,-2.995738407317033225e+00
-6.149763973352353474e+00,-2.255472071028245207e+00,2.094226547450363629e+00
