-7.932046070335155186e+00,2.807333775776133411e+00,-1.160681794125236310e+00
-4.548903590900168048e+00,-8.664652267840587285e+00,-4.328901936821099583e-01
7.179261223433556438e+00,-2.246697851406660007e+00,-8.242626303071215688e+00
8.475312643512477706e+00,1.824330298457639277e+00,-3.714372662645190060e-01
-1.295537903314612382e+00,-4.255462356115208955e+00,-6.883971529940677847e+00
-8.347154215556983559e+00,-2.528360720486519053e+00,2.147225923035839479e+00
-8.040301107139455894e+00,3.987773900833694540e+00,-3.872596961996449316e+00
-8.235268366114539162e+00,-7.720409713331071178e-01,-2.365980777583544636e+00
6.721223120246037297e+00,-1.083420297013264744e+01,-4.283556754542085621e+00
-1.174195917785861631e+00,4.722596610487880042e+00,-1.060683366821101536e+01
-4.011536057241145592e+00,3.016980240001233327e+00,7.803083506683926807e+00
7.440012136765103534e+00,3.795289068959245338e+00,-1.072842026795225401e+01
-8.061509280448241554e+00,1.681719043443173911e+00,7.241076913720033481e+00
1.793929706170878324e+00,-9.676710188976281657e+00,-1.928659439214847060e+00
8.092566031030042240e+00,-1.650865530466033126e+00,8.974795282017247189e+00
5.290966655350364256e+00,-1.029289505307996500e+01,-2.956230136451106993e+00
-7.743040686681831986e+00,4.004804309153024988e+00,3.150283856715594411e+00
-7.740387029119862206e+00,-1.458599556772900874e+00,-7.815364487116857717e+00
-8.232678586144494659e+00,-3.535659192918787913e-02,2.491277695055400532e+00
3.679294410838577889e+00,8.794422938040550974e+00,5.206371236340073594e+00
-7.598284356418459673e+00,7.969341047838194747e+00,3.689455874074731412e+00
2.333545498447332278e+00,5.908603145286879688e+00,6.492205033171081219e+00
6.446348516469200263e+00,-9.009064005760206939e+00,6.738597478201047153e-01
-4.040975729902192448e+00,-3.059856854531878501e+00,-7.591302361719732161e+00
1.753224022609349841e+00,-3.141301944295300075e+00,1.003132172099125441e+01
-6.414575285103144786e+00,1.053991134224081350e+01,3.000287801293358925e+00
-7.849526365693745511e+00,6.749636962328485090e+00,-4.854558345983023493e+00
9.455871541190652430e-01,-7.294687219615906271e-01,9.078603948839102600e+00
-8.877404686913157761e+00,-7.842263438040852463e+00,6.159208179839714692e-01
1.137007779061616652e+00,-7.792841606513055908e+00,2.589414882176026111e+00
7.980531411864081548e+00,-6.133135636250392153e+00,6.840557841695125596e+00
1.935314138441027287e+00,6.062409287018911463e+00,-6.744460055451320990e+00
7.585309208907731637e+00,-8.727718724379812443e+00,-1.692387123715773711e+00
-8.629301640143280494e+00,-4.996776402609913958e+00,1.183209613423380935e+00
-7.587284677520614196e+00,7.654062955493545317e+00,2.486235897397025774e+00
5.122977018222026890e-01,3.566816073887062899e+00,-1.021931286087547619e+01
-7.667766595848772404e+00,8.292720754864800980e+00,-2.452037225918188845e+00
-7.866325965758438343e+00,6.418398379510646734e+00,1.457264688994238888e+00
-3.826553603370840939e+00,-9.192346244872002359e+00,-1.871556663571412482e+00
-8.363199944902968141e+00,-5.533795219700292645e-01,-7.266216187061962373e+00
-7.802997802870396349e+00,5.324733837227454636e+00,-3.802819158765875507e+00
-8.552034681670621197e+00,-2.683759479769669110e+00,-4.340677766843656471e+00
-4.439410154867752922e+00,-7.941178530499660049e+00,1.572721846874041152e+00
8.612232147098801249e+00,7.281420354737233147e+00,-2.239218109208437113e+00
7.544433023097417923e+00,6.123550312674784557e+00,-5.422397742800642462e+00
-8.053699491001815147e+00,1.026112695069608893e+00,-1.988853166731959554e+00
-7.253511499740205259e+00,6.265489064544684794e+00,-7.201269360897530447e+00
-8.254105089628287928e+00,-1.183254342336321097e+00,8.189427496194119360e-01
3.901553735676676737e+00,8.471703134431068705e+00,-1.539286636797470090e-02
8.626315820095516784e+00,8.386265644111901452e+00,5.134589046123613443e+00
-6.955269327447701322e+00,-1.765337534575409650e+00,9.700980500316282118e+00
-8.121110742822985173e+00,4.883301730790198247e-01,-1.972391127176781334e+00
-2.208820248309856904e+00,-4.236653402328975027e+00,1.053591791138321909e+01
-7.308901414463599089e+00,1.070332025814812837e+01,3.227658845699313162e+00
-3.466855120930053324e+00,-7.577893494824839316e+00,2.846788779309835427e+00
4.972292417792057329e+00,8.800152160018315683e+00,5.735214571774087666e-01
2.961309546820201533e+00,8.484547546215114977e+00,-6.612736659758852165e-01
8.806701218427409827e+00,4.867316064086286254e+00,4.500060460948029473e+00
-8.357597531797573254e+00,8.109506212739138187e-01,1.023730094809117475e+00
6.789426559216148682e+00,5.251022945919050500e+00,-7.806658181643197914e+00
8.202478516993235047e+00,-4.598231316883815145e-01,3.883301358461836106e+00
4.838124954352114315e+00,4.530146487205932715e+00,-1.039555884971024291e+01
7.891456906514209280e+00,5.754504838656191446e+00,-6.479660523263257588e+00
-4.075756065173472109e+00,-4.753620032887679869e+00,9.654578025439896294e+00
3.138988293553923281e+00,-1.527669239709148752e-01,-8.944079407675943116e+00
-2.663035150598498380e+00,-5.625205560473212074e+00,-6.344484217035101459e+00
7.313369018449133563e+00,-6.408651829534467659e+00,-6.671416802230108800e+00
8.530529545972747485e+00,6.220370373167735778e+00,-2.347762871006748409e+00
-7.548965896293349687e+00,8.656061113699877296e+00,1.887519915688881333e+00
4.660068248588092210e+00,-2.059863687053428150e-01,8.717059772359403880e+00
1.526060906811654849e-01,-2.854274156538244789e+00,-7.837876799035916164e+00
7.211351982685099138e+00,3.610753078735908783e+00,7.131175604252382172e+00
8.162884446069808675e+00,-1.714905455920771260e+00,8.152030284856000009e+00
5.923815284459600150e+00,4.443310232882800470e+00,-1.001014030853006176e+01
7.812689019236869648e+00,-5.977817488835353466e+00,7.382537006193564011e+00
8.512267714047103695e+00,6.396542688225786755e+00,-4.210366928430824274e+00
1.467545459040579869e+00,-7.427259753940266940e+00,3.529749158729341030e+00
2.042778180873123350e+00,7.006525056480569447e+00,-3.924586061237748780e+00
2.805963514617081600e+00,4.165885856086863015e+00,-1.057184070776823326e+01
2.104420130916406784e+00,7.957298670525993600e+00,-2.043426318900016359e+00
-4.740441515431183639e+00,-1.509327290411366596e+00,9.712348848326309181e+00
8.194578007125643992e+00,-3.547232626434327907e-01,8.617518302661748564e-01
-3.090492918605438621e+00,-6.711868924677662385e+00,-6.145239830617024168e+00
7.799798760714630852e+00,-3.659467046423225067e+00,-6.014152093125948895e+00
-8.028404381475846563e+00,-3.109686550513609538e-01,-8.154957727890812080e+00
-6.440330429763044151e+00,5.356121671162203945e+00,-1.007113808285959422e+01
-8.600685920513551963e+00,-5.015300653029615141e+00,-3.019782513352990527e+00
7.901471087326722653e+00,-1.672799690251560945e+00,-3.047998932079259315e+00
7.729352721850354158e+00,-5.387130767895278005e+00,-2.864761714879127119e+00
-2.491042487294151453e+00,-3.134034425242664956e-01,8.948892018431102713e+00
-7.573041269726891400e+00,9.057121611566779862e+00,1.918192096448587458e+00
1.938657285451775986e-02,-7.551722910982881842e+00,3.198065715860630487e+00
-3.985728640185604466e+00,-1.030845059761062110e+00,-8.303573639566439013e+00
-3.708184560606941460e+00,1.039539912483995465e+01,3.203817651803322342e+00
-7.813430314710553937e+00,-5.914489911929402766e+00,6.326501189510820744e+00
-7.066208214146999289e+00,-5.766281286671874007e+00,6.216098028651489749e+00
5.462466416467885999e+00,-1.011291522397233322e+01,-2.003259778108125388e+00
3.381965525759334401e+00,7.941172600792009817e+00,-1.507236747139779398e+00
-3.493978314828558585e+00,6.702347656496100647e+00,6.266617115676999639e+00
-8.229086576524254681e+00,-2.414948761789916798e+00,5.848275998340297654e+00
7.980978325321152589e+00,-3.794998921408079706e+00,3.695441284769777290e+00
-6.797207840349330787e+00,1.005460900050298712e+01,5.211099650710181663e+00
5.658582224886837153e+00,-6.354855956512661663e+00,7.080246948428659870e+00
7.087394331024308158e+00,-8.396955628915407033e+00,2.077407473189752274e+00
1.133313556925120258e+00,-5.179452856514984660e+00,9.532946508532697649e+00
8.245235847629389880e+00,3.764844665587060657e+00,-8.223808475216795699e+00
2.165290122775069381e+00,-1.048399323494786906e+01,-3.796698657499084639e+00
8.498296171397868193e+00,3.820104814983226404e+00,4.748481945516193292e+00
4.097368804852797197e+00,3.796818918956423428e+00,-1.062143829418509711e+01
-1.028128620763925749e+00,1.381329898966203951e+00,-9.360066385805051681e+00
7.079536237947474664e-01,-6.754848607440110619e+00,5.528437143923143005e+00
6.437721036152136200e+00,4.234772245076298347e+00,6.689767464111560535e+00
5.545859278502319079e+00,6.001984437632800429e+00,-5.889932253259833494e+00
4.945957361978302380e+00,9.871923809373416958e+00,4.593911487514882985e+00
-7.946399738907498289e+00,7.680848254039338574e-01,-8.817099064650012252e+00
-4.827392878411618682e+00,-5.660178219813585265e+00,7.001487870269765601e+00
4.580539606218802184e+00,4.913765947700225567e+00,-9.195194661885516041e+00
8.665225130350528104e+00,6.210526647018203228e+00,7.133880518854710528e-01
7.939311181663988748e+00,-1.510828629176078630e+00,-6.306124774250008613e+00
4.241436613038636949e+00,9.289785759502008911e-02,-9.086930002058208444e+00
-3.082071082722749100e+00,5.528756811267434124e+00,-8.588220330809583913e+00
8.829832966069590672e-01,-2.256356149845585080e+00,-7.957746839976587161e+00
1.168400826916645485e+00,9.420014768204701738e+00,5.120006023276353346e+00
-8.055054894167373192e+00,4.068446496830896431e-01,3.854625498041883258e+00
4.439210711938174292e+00,9.320966126524902862e+00,4.788195818687952077e+00
-8.132435884251824731e+00,1.359931649074440640e+00,4.948789924410352370e+00
-7.913750442396310092e+00,3.796581687614684064e+00,2.614890779225297113e+00
7.999767855457859511e+00,-3.382737417224050969e+00,8.039051631142905663e+00
-8.015648889315176717e+00,-8.111119279982224484e+00,-5.039071323112749745e+00
-4.798573279792393009e+00,-9.912504201551032068e+00,-4.453181732748857868e+00
-2.158494514533416897e+00,-9.529410912882651630e+00,-2.230466546015482443e+00
-7.857475805791317214e+00,6.573578970183606707e+00,-1.594633129868758603e+00
8.144220577015008899e+00,-4.727831033383781967e-01,5.867617174743652519e+00
7.392118587483164083e-01,-1.053185891635639493e+01,-4.029303931421885920e+00
2.841646659486537718e+00,9.351610878468495258e+00,1.984519590697507718e+00
4.064331500612470727e+00,1.456454694595754162e+00,8.115203244116903747e+00
7.877102257456735757e+00,-5.665578340316725026e+00,5.204942048073884386e+00
-8.510501688611915583e+00,-3.672305403133108381e+00,-5.040940618490486358e+00
-7.077781433136634881e+00,6.843596100954989048e+00,6.444546152483722423e+00
1.574041014614837808e+00,5.656106355068579283e+00,6.427536240472018214e+00
-7.380071701102118853e-01,-6.233953207460048773e+00,-6.432503708119518215e+00
-5.329017913003888829e+00,-8.282566331717049479e+00,6.539462987300221908e-01
-7.920431603137936705e+00,3.004562228075767116e+00,-2.568252633221421277e+00
8.385608337387690625e+00,5.678044439877613314e+00,-6.723910511693735437e+00
-7.437082161287754900e+00,9.275012338488034302e+00,2.427507742162459348e+00
4.027637260081905701e+00,-5.950632973689009120e+00,7.963298068668400731e+00
8.233315325813393315e+00,9.392733467036185502e+00,2.796478198058549580e+00
-6.672470336070235319e+00,-4.755774577164783246e+00,-6.591981249924732111e+00
-8.056360820828743385e+00,1.531549413784619285e+00,-2.475187118035397649e-01
-8.372186836018528311e+00,-1.782967031317354012e+00,-1.623478162507313360e+00
-5.195905535185298518e+00,-8.705809176369911029e+00,-5.087120764777433024e+00
4.334215794872814165e+00,6.309312467249480250e+00,-5.616541184572005463e+00
5.704106336065772886e-01,-3.632652027246869419e+00,1.027169490627293058e+01
-7.885935162035096369e+00,4.578134929218591331e+00,1.752991220917045734e+00
3.727629899016367432e+00,-9.221629044881879622e+00,4.038704320083067595e-02
8.311527405134919277e+00,-8.743657395145704170e-01,7.624505456905155576e+00
1.157187484719054860e+00,-5.663310583828369715e+00,8.128204575095198336e+00
-4.765516861678892546e+00,8.433500966731026338e+00,5.764185139567734595e+00
5.201194007674396325e+00,-8.361131632533730595e+00,1.963445942188858151e+00
5.305924115501099436e-01,-9.760652189042513527e+00,-2.031775503689658535e+00
8.244629366386373448e+00,8.966676219507579759e+00,4.753927170845246408e+00
6.553071853052180984e+00,-8.842180154521715352e+00,1.112445795577595042e+00
4.525382966244724692e+00,-8.618927579724068977e+00,-5.572975524067164343e+00
-1.937979687639678428e+00,7.838540321715643522e+00,-2.856603144319930898e+00
8.662626136818989409e+00,5.071798345884150905e+00,1.828910810268387532e+00
-4.172849062438586998e+00,-5.532699617079225973e+00,7.586384188815151752e+00
8.678428546373766039e+00,6.533486784929666946e+00,-3.918021795024849929e+00
5.540857088873745617e+00,-9.436468621976885629e+00,-4.764391397205184342e-01
8.303742480897643219e+00,-3.021309477869710269e-01,5.192935854296507614e+00
-5.187864886168755518e+00,9.487455517721304687e+00,1.322136447022575823e+00
8.163461069315834706e+00,1.468293299528425910e+00,-6.850274482226916817e+00
7.722255994793551181e+00,-5.669792088215532821e+00,8.288238078979557333e-01
-8.153645990081438200e+00,-2.034844620368125856e+00,6.650707198320390034e+00
5.809035825363959127e+00,-7.735457611355334162e-01,-8.829682826331854528e+00
-8.025643703323357414e+00,-6.714515081376144501e-01,7.982018136401320518e+00
-1.097417726730630205e+00,7.137424232204418573e+00,-4.287730310691149072e+00
-6.603013686654843006e+00,6.025135871992199021e+00,6.659233591504700733e+00
-5.215317068335370010e+00,-5.305666418850552013e+00,-6.477704188352110926e+00
-5.018917806884223509e+00,-1.372135020473586042e+00,9.635167042921235492e+00
-7.830507827764566109e+00,3.325107074052941147e+00,1.913477713590055196e-01
-7.216697178481935815e+00,-3.137288159104513419e+00,1.028173020454370068e+01
8.828006518444572848e+00,7.687529408077896420e+00,7.128079873627469754e-01
8.204746948007782592e+00,3.808555847514346060e-01,6.211265021347008641e+00
7.787992435145111969e+00,-4.314634621938761683e+00,-6.785649566653193077e+00
8.125715677973348150e+00,1.169778751125016836e+00,-6.361751884628205289e+00
6.691057029238224985e+00,4.491661076756198412e+00,-9.594889698926737154e+00
-8.384035611079589501e+00,-3.462723823428937919e+00,4.500331545802201738e+00
4.442332072795087683e+00,6.123868865114922677e+00,-5.883951740979076916e+00
8.291943559462882973e+00,3.008558413280234323e+00,-3.909619916943518181e+00
3.281290789815489273e+00,9.345228229011183885e+00,4.980774978876375769e+00
5.380145800073813378e-01,6.485120100855518821e+00,-5.631052062773899358e+00
3.505182338277813781e+00,2.077219158789021414e+00,7.854051252455055199e+00
-3.311556970048666670e+00,8.345692555514773403e+00,-1.602480990857701793e+00
-2.275273267390414134e+00,-4.130049232312916097e+00,-7.156904582002542092e+00
3.413395083266357322e+00,-6.043074181285794211e+00,7.426915813315840609e+00
8.077214009055582622e+00,-1.888818783900946929e+00,-2.007391889759054138e+00
-4.544985793748521630e+00,9.964290086663371682e+00,2.433732529608884310e+00
-8.592512353409286874e+00,-4.753231095534326656e+00,2.355622285544967554e+00
-8.006721310095104016e+00,3.973556720778576246e+00,-3.075542295123573577e+00
8.156123782351636819e+00,-1.315502709867848868e-02,4.807437354165806087e-01
1.277702225313994688e+00,4.411746009064359875e+00,7.012242774311297389e+00
-5.233047478016713328e+00,-7.807098819964614300e+00,1.628334631689606127e+00
1.642696029050490392e+00,-5.823432562506064336e+00,-6.667529235997245785e+00
-1.117305258963950942e+00,-3.735063851366787091e+00,-7.104228147762363221e+00
8.182841890895691250e+00,1.824360320280821401e+00,-3.808653448905253480e+00
-3.729464354105601398e+00,-5.344565553361497301e+00,7.966241745851523781e+00
-8.182585733786174487e+00,1.873681289900085423e+00,-2.092496939461526484e+00
-8.054856097366851486e+00,2.158296594165080240e+00,-2.594323021825128972e-01
9.422335649814710390e-01,-6.817125442077310638e+00,5.676251653780717277e+00
-8.494496645219776099e+00,-4.653649070394132892e+00,-1.414030048561459196e+00
-7.844253622390066738e+00,5.743039549673638611e+00,1.258967054396013197e+00
-4.881958885466147535e+00,-5.110907253361980374e+00,8.525434856774785075e+00
-4.989151619677543614e+00,-6.956233038894626297e+00,-5.873894863019869739e+00
-8.339154727345768237e+00,-3.915012111344264856e+00,1.002289206389397158e+01
8.625535698510851113e-01,8.850124254384549971e+00,3.207371651140262236e-01
-3.957800964365000507e+00,-3.843502089357800244e+00,-7.198626463989287849e+00
5.250262675558131420e+00,-6.397194075623256815e+00,-6.646520328645994624e+00
7.501382105079592577e+00,-9.601982385700392086e+00,-1.525008456236683907e+00
2.731653841004538230e-01,-5.183433919637848497e+00,9.064118095140386799e+00
1.204271608586769959e+00,-1.019529988837246393e+01,-3.105924258614911615e+00
7.302411792874337948e+00,-5.528928176391088023e+00,-6.829897840467612724e+00
3.069564976207783766e-03,7.339588572108218800e-01,-9.168077007506351350e+00
1.123081434889519947e+00,-4.302286482653346233e+00,-7.048561051317363990e+00
-3.007593852765981790e+00,8.174672074564574231e+00,-2.256822195525231223e+00
-9.014845810428262496e-01,-8.280508855217801667e+00,-5.603400796682857177e+00
-8.581665246470292274e+00,-5.148204621734429942e+00,-6.001030367172425883e+00
8.408969192227329970e+00,4.453967360210029369e+00,-5.898842006172901442e+00
-7.493998120260644491e+00,9.400603411617717953e+00,4.716651911466141378e+00
7.757398975425108922e+00,-6.651109525509784071e+00,-1.665004626491721984e+00
6.066716430874111055e+00,-4.501397180605051673e+00,1.028267556953894868e+01
8.682720461560831993e+00,6.448180492715948731e+00,1.225522185343134396e+00
4.468715681454861866e+00,8.500447163205340217e+00,1.146526126550687502e-01
2.617028491128227330e+00,5.841185526652465931e+00,-6.889864263731304561e+00
2.509830906473160095e+00,-1.049914238327590965e+01,-4.789533968146375997e+00
2.722949501063657074e+00,6.228271115214971232e+00,-5.444985262630744671e+00
7.053345793667089580e+00,-6.796567612270264291e+00,-6.399389630116543159e+00
-7.488405418571006500e+00,6.575220237958392389e+00,-6.912061577251102484e+00
1.547009556925303952e+00,-2.894560780783354659e+00,-7.732453014393050772e+00
-1.656702997650999265e+00,5.502150355562680950e+00,6.791454674275422043e+00
3.813574478144578173e+00,-8.909435625222657862e+00,6.364359802367841601e-01
7.962469970733102365e+00,-3.401583365953228633e+00,1.376574194944306218e+00
-7.857359966639771542e+00,6.588325032968040063e+00,-6.471081431947898643e+00
-8.487637996698042642e+00,-5.243320051248705482e+00,7.052303323610909835e+00
-7.468018897097870479e+00,4.483787312847214324e+00,7.323276989942156590e+00
8.193096290222865008e+00,2.910118161136148185e+00,-9.659440048155964575e+00
-4.547065118666718142e+00,2.562683742018768474e+00,-9.520354741037971635e+00
7.078469999793856715e+00,6.449593199010808853e+00,5.929267078269536029e+00
-6.887891521295670394e+00,-4.047537827530461207e+00,1.070234565861034959e+01
-1.299981743120678379e+00,7.551283938569789411e-01,-9.083788168093498427e+00
5.254778525294814706e+00,8.463182701858396939e+00,5.110096628612640579e+00
-9.842246301005771469e-01,-6.419838280970036948e+00,5.745688514553248361e+00
1.915675909271296273e+00,5.818139289501504052e+00,-7.045813141086365583e+00
7.777146586338772316e+00,-5.850821405873235292e+00,1.701520043849180874e+00
7.413561054830916319e+00,-9.884199056479546996e+00,-2.594354882055439848e+00
-4.489217689078163431e+00,-9.291809628268380195e+00,-1.971915977757251026e+00
7.779065607285517103e+00,-1.908741051814957013e+00,9.110821397129722499e+00
-1.209701200719222047e+00,8.243098793316837813e+00,5.583078840535963039e+00
8.278817173889413183e+00,-3.649217847540532134e+00,7.809037679647024000e+00
-7.696154006496382927e-01,-5.599616852744628837e+00,8.120255270961706628e+00
-5.897649490672646877e+00,5.990000170358023901e+00,-8.027380162181410483e+00
5.975022607880201342e+00,-1.458848483770480486e+00,9.072198063878770924e+00
-3.164758437580833750e+00,-1.032162431642802680e+01,-4.116210520903607950e+00
-8.200181733187534405e+00,1.960836839320587055e+00,-9.141832083751285865e+00
8.140736618909063083e+00,6.886895969630241199e-01,-5.157590780349519122e+00
-7.213426274675395433e+00,1.142443941805972196e+00,8.719257430232429940e+00
-1.949070030115604313e+00,9.414308213169906736e+00,1.386816868639099365e+00
6.275367774292835321e+00,3.921037218676891811e+00,-1.061070158418814202e+01
3.565446924410878182e+00,7.611104292587703490e+00,-2.668073932236654233e+00
8.440647688340762400e+00,5.280443660119954252e+00,-7.784936401843800091e+00
-2.429710186383795545e+00,9.006485252822006515e+00,5.279747407298516215e+00
7.849397582661917561e+00,-5.170030450747802320e+00,3.482202139002124053e+00
-2.755676517710066165e+00,-6.452322587217500960e+00,5.653327040340645482e+00
5.034411578124579734e+00,-1.076878107779330351e+00,9.034508376644140526e+00
-8.266526706045127071e+00,-1.661892356651111236e+00,5.577994254887813419e+00
8.094871818958125687e+00,-2.720858386373685711e+00,8.607192416351336917e+00
-8.654258393619414846e+00,-5.609172533315726739e+00,9.887625548228865524e-01
7.580581114644452612e+00,4.496676013741496281e-01,8.282765964009321635e+00
-8.115756790836593737e+00,2.017951030178426197e-01,4.518107075848819321e+00
4.925944800904718868e+00,-7.288753330497067751e+00,-6.136707868388387332e+00
-8.806838405944018788e+00,-9.063258912579829740e+00,-3.894744345992090739e+00
-8.845881570668771232e+00,-8.927500531635322645e+00,-4.249236403500988857e+00
7.933045734084886114e+00,-4.766174245362891249e+00,1.494280861341511502e+00
4.627373657152520359e+00,7.678268068406668867e+00,-2.520774502604472111e+00
-6.581788388877440887e+00,8.670643455561679147e+00,-1.282843325822586422e+00
-8.255265120005701007e+00,-2.134725024518497327e-01,2.929591339537072514e+00
7.862569294795257235e+00,-3.272580866265617949e+00,-6.090821014085017637e+00
7.248999702018451563e-01,-7.882652667102680866e+00,2.283403225070708142e+00
-8.777774083610703215e+00,-7.603183277160928455e+00,8.074232688355950094e-01
4.297816397381501119e+00,4.857543887453025455e+00,6.690060969230634313e+00
-5.299123092269493185e+00,5.979514680835866791e+00,-7.784708189378059195e+00
-8.291446498214238403e+00,-3.432951445016165337e+00,9.436774823268178736e+00
-4.812608680434654396e+00,-7.566943295097433797e+00,2.453577641895717587e+00
-4.142284593175566521e+00,8.500814402411764448e+00,-1.222353745854044549e+00
8.280735219145586967e+00,4.393401401446284105e+00,6.676871660689807975e+00
8.632974181724092588e+00,7.034913748074912654e+00,-3.281390223249133431e+00
9.341421022603002555e-01,9.634264943571098527e+00,2.132383039488605192e+00
-8.603396691413044195e+00,-4.863818058826357316e+00,3.929323829727022765e+00
-2.346569725740645929e+00,-6.566811271497409175e-01,-8.411126287754136399e+00
7.938210860417312276e+00,-4.603414424920816650e+00,3.889482267116431302e+00
5.246257721464591128e+00,9.050334350527654337e+00,1.186476795624401115e+00
4.772269975966660915e+00,6.937453699592760259e+00,-4.107243535658455791e+00
8.307741867226944521e+00,-6.165491760387199066e-02,1.221697028075831026e+00
4.945290990827914263e-02,-5.181329361224057628e+00,9.189572809835009792e+00
-4.568992898620933829e+00,7.441244997361182278e+00,-4.365630771932465848e+00
2.940519211652841136e+00,-5.736584502564443966e+00,7.951562706859583329e+00
-7.727031495914327586e+00,3.650086931926584732e+00,3.764416890721532294e+00
2.922822203957098797e+00,7.441234027054649758e+00,5.660216398734299936e+00
-6.656362331198934612e+00,5.041972389102739038e-01,-8.754892009379330986e+00
-5.713588848303897016e+00,3.446946435745993131e+00,7.635361327467159676e+00
-3.927385980021175449e+00,-7.032467681911635182e+00,3.725064216716320598e+00
8.393473269271584769e+00,1.936355761148116805e+00,-2.186367686157824508e+00
5.328508862028525250e+00,4.750349936270073847e+00,6.666511951253383472e+00
-7.840331546648378058e+00,5.532565004248942486e+00,-4.154247734963021799e+00
8.522054574708913810e-01,1.561359227517367332e+00,-9.463259121386220940e+00
2.344957905278669763e+00,1.025145991734558315e+01,3.782321896044756659e+00
-3.211459008751284205e+00,-7.197888867412904901e+00,2.666772053210266336e+00
-7.450130599601404668e+00,1.297432459193981424e+00,8.751266806322595571e+00
1.243752173611382128e+00,4.447306029886233247e+00,-1.061990441284587305e+01
7.518402451415528986e+00,-8.676000373647401176e+00,-2.589150779443820660e+00
-8.104256084320750730e+00,2.196760396573443685e+00,-6.605632852956162537e+00
1.237157583130473970e+00,9.790711661358132645e+00,2.568206269860406010e+00
7.889592304587892180e+00,-3.682458846795931606e+00,-6.309234985530918216e+00
8.055891077039097681e+00,-2.816313591229587576e+00,3.140742044705962521e-01
8.470687538892281765e+00,6.264167843614456110e+00,-4.815922952396427092e+00
-2.836700530232125900e-02,9.197981522653384090e+00,5.097302621334032224e+00
-4.942827322272633772e+00,4.985362070955019931e+00,-1.045261809582000900e+01
4.921241988020027408e-02,-6.682305066596403442e+00,-6.255705682691468539e+00
8.307982322244052753e+00,3.794879216586697357e+00,1.882927786572579754e+00
-7.930684945881211867e+00,2.357558837966321708e+00,5.768327533021082587e+00
-3.057386597510154402e+00,6.354818863269851015e+00,6.337551683316052120e+00
-7.779147785638072854e+00,5.328634278192911466e+00,4.482936420942494671e+00
2.822036447698380357e+00,-1.082541579357373429e+01,-4.523224516560420128e+00
-3.742780103545392034e+00,-7.795254226640900619e+00,1.930760951211346388e+00
-6.661531631565624778e+00,-8.139000595498535162e+00,4.408358712404616964e-01
-9.939755181001906637e-02,7.602446538679513033e+00,-2.957378339937493994e+00
-4.014338760796428929e+00,-2.754585364777620615e+00,-7.486825619373984608e+00
8.252805792316999955e+00,6.828549065911444060e+00,-3.590508346444996057e+00
-3.393620641148074490e+00,-6.510216524920026337e+00,-6.104330611413701924e+00
-1.853077050276047855e+00,7.765031394647825103e+00,-2.694990051946024145e+00
4.607413498296373255e+00,6.877765852580626671e+00,5.849211243075201239e+00
5.368531812426005523e+00,-8.280101545083699222e+00,2.262345905452199268e+00
7.640562991108270197e+00,6.935410967512082081e+00,5.704229240953795355e+00
-7.785772603689735227e+00,-9.714089971393244483e+00,-4.639746474337240301e+00
5.065265326337306639e+00,7.405639375587383277e+00,-2.559709574724927439e+00
2.681421347196310645e+00,5.958613863950224854e+00,-6.834998717308066851e+00
-8.052414231600813821e+00,5.095244932505284652e+00,-9.514521194176609242e+00
-8.396775337403616035e+00,-2.480603073244113776e+00,2.449299130083974596e+00
8.489249888225710805e+00,5.168382421357327949e+00,6.429220560083222402e+00
5.492480476304644199e+00,-4.714178338372351007e+00,1.049974058930325427e+01
7.701115807075868958e+00,-6.054728735879296941e+00,-1.857881711086791121e+00
8.142508045611709377e+00,-2.800602690420511465e+00,3.523966490643683169e+00
-4.407064667941490654e+00,1.091199341313555848e+01,4.234546199448142367e+00
7.419517731235072411e+00,-9.386141282360439320e+00,-3.723960208027610186e+00
7.399615531641440924e+00,6.861238641484947109e+00,-3.805653939168929689e+00
4.766964245114474474e-01,-2.282197167971711682e+00,9.738075465908025308e+00
-8.666144091705485053e+00,-9.427693754371187396e+00,-3.025922343675512938e+00
-6.292174132473162373e+00,7.054172685926367592e+00,6.258089650865857223e+00
-4.305979301380704172e+00,2.297351400052681569e+00,8.200025797470225086e+00
5.356566191597439186e+00,-7.719728512821879995e+00,3.868268834194567241e+00
6.329884710918389779e+00,-8.554921264894673527e+00,-5.623456743342896580e+00
6.748697486745441232e+00,-1.092891286320180910e+01,-4.074028969015408563e+00
1.780613041598622104e+00,9.078573391289783245e+00,1.190823648257915757e+00
3.463417474881575586e+00,6.025572876950616497e+00,6.268364329992515138e+00
5.155682062209446137e+00,8.607584700677751499e+00,5.013741979663753234e+00
-6.923295762603118852e+00,-6.146202753053906065e+00,5.344599793673131316e+00
-3.435041947912649274e+00,6.027912631090607043e+00,6.563995272332508790e+00
-6.032399095210053019e+00,-5.839705589371041228e+00,6.527612530113692912e+00
-5.655104137365662975e-01,4.556087042613023108e+00,-1.054310051946186277e+01
-7.920083200040458848e+00,5.301135780775754647e+00,-5.180367426371387474e+00
7.445890114940363347e-01,-8.087515699102983291e+00,2.092974142174805152e+00
4.130060970675611287e+00,-7.435709792902046367e+00,-5.911084816726801527e+00
-7.842815067404449003e+00,6.461014559499722587e+00,-6.893432577804952999e+00
8.444515581733115894e+00,5.844910380456413534e+00,-5.970792639532895407e+00
-3.244435217431917540e+00,5.094308304524456155e+00,-9.643349806595761464e+00
-8.226217520822563856e+00,-1.548465694834359585e+00,8.500803640183709931e+00
7.783781145118450873e+00,-5.741529010214017070e+00,5.131869826416748381e+00
-5.093662926597766649e+00,8.419868229482935007e+00,5.702849740113415500e+00
-5.488640189327879781e+00,9.760220225926412141e+00,1.323314251980356460e+00
5.159888453434546829e-01,2.343322360728347320e+00,7.912031558436518175e+00
8.350233750759469942e+00,2.273526073393460578e+00,3.228086417142912445e+00
7.910541638894126315e+00,-3.332599957252154965e+00,-5.886943410929469600e+00
-7.896132896288028391e+00,4.028155966430144730e+00,4.226824149771082340e+00
-7.942952724030694966e+00,4.676699901146204041e+00,5.321287882615017395e+00
-7.559967280966040981e+00,8.349515627367146919e+00,-1.048373376491729791e+00
-8.747006172345134445e+00,-7.856871620528359301e+00,3.900869111621719787e-01
-2.649756854820281227e+00,9.037989145993270412e+00,1.945193476178914971e-01
7.542841930830401331e+00,-8.300874580105487510e+00,-5.380418533137535597e+00
-5.844231277400966817e+00,7.669401283255227852e+00,6.110847870949208449e+00
5.978435361533461112e+00,9.312199396834266452e+00,2.319261864488564751e+00
7.931451778880775016e+00,-6.252551675265632269e+00,7.668074925317846180e+00
-7.488933281356640492e+00,6.607849839353474586e+00,6.454004358362967153e+00
7.189460026598860409e+00,8.549032202596981378e+00,5.920926518808879990e-01
-7.120361420873916103e+00,-4.292179879701865097e+00,1.020650560244576077e+01
-6.093751802165273013e+00,-8.855898302661637800e+00,-7.171486444705403862e-01
7.879494658571770671e+00,5.055814800009118315e+00,-8.354071236876478679e+00
-8.571491804551127913e+00,-5.927032961514527187e+00,4.131246669801751814e+00
8.199226181017394310e+00,-3.001458807816576035e-01,-1.368435592806449108e+00
7.721252224507616724e+00,5.385148222090387904e+00,6.386217229166942566e+00
-5.264933796861478443e-01,6.294589082307915362e+00,-6.195517510585747623e+00
7.848387647420560498e+00,-5.415509845627276775e+00,-1.416579127008836148e+00
8.881597088443655252e+00,7.091839593457040181e+00,4.296147306308391478e+00
-3.502688466583559812e+00,8.293095642329593176e+00,-2.098912779774682935e+00
4.032601433270274427e+00,3.700028592065348398e+00,7.112632610664167743e+00
-1.540492638583788487e+00,-5.151722327033171567e+00,9.303617461692319068e+00
-7.720349149214701612e+00,-8.332018840447908303e+00,-5.118650896753326407e+00
5.921000657873466411e-01,4.037110512834340526e+00,7.166862573274195292e+00
-8.442079044384128039e+00,-3.179475494700390037e+00,-6.389957411519837649e+00
-7.487228363973118306e+00,8.369730572714049188e+00,2.542347693594807279e+00
-8.054906649095789462e+00,1.950798028519260985e+00,-2.097097645004951438e+00
3.416613197802995217e+00,8.257061311033437434e+00,5.226268265866232277e+00
-7.723844514651751147e+00,6.490713901639987071e+00,-1.365919077197156772e+00
3.201262010372066591e+00,-8.116178795969943849e+00,-5.651171672450817418e+00
9.551862720660483363e-01,-8.809696341900743022e+00,-5.536344749776223734e-02
-6.953963590975186015e+00,8.398905457329497892e+00,-2.174670568788684033e+00
-2.458196808169978986e+00,1.050844045510779168e+01,3.737790908711660087e+00
-5.471092454583321718e+00,8.568597463390378977e+00,-1.746425892278847813e+00
4.832127636703014595e+00,-3.303279427756772968e+00,-7.619998471018323727e+00
-3.743211028068448964e+00,6.285372889443600286e+00,-7.058144658866708276e+00
-8.306198412363469785e+00,1.921963079597070467e-01,-5.752534161142381031e+00
-4.150080442488209620e+00,9.965587695983842309e+00,1.753319974872676434e+00
7.387917539825872293e-01,5.545583332863398773e+00,6.445658714078007279e+00
-6.898977094390052578e+00,2.326650644601312212e+00,8.241128658970197307e+00
-4.243216678079497761e+00,1.649297005235331071e+00,8.242710568575500218e+00
8.402445688745855179e+00,3.822027001076826469e+00,-7.983786778617054658e+00
2.219501030066525438e+00,6.436558336365163058e+00,-5.416599170753912951e+00
8.214215220877670864e-01,-1.230478936918414784e-01,-8.923456387821051550e+00
-1.067185925586515705e+00,2.655269824069673934e+00,-9.749625171620673214e+00
-6.392438734873505446e+00,4.870163568910580665e+00,7.119353977878851936e+00
-4.439608620134857020e+00,-5.836468705539779034e-01,-8.380524960381499966e+00
8.014008179453838920e+00,-3.977816334627245709e+00,8.349956213395810067e+00
-8.459067304945344645e+00,-3.563980800000159377e+00,4.027374944252372302e+00
-3.308011207007274468e+00,1.806659986758746728e+00,8.052505520848116660e+00
-8.101486687692037947e+00,2.129748246575999371e+00,-1.363569255162259131e+00
-7.812667820245498440e+00,5.038060390378470643e+00,-6.710605295026345063e-01
-1.111785039925145213e+00,4.223721766623231844e+00,7.081030650293759443e+00
2.701569153249338551e-01,8.182860618512656004e+00,-1.618527529946802268e+00
-8.665175765574087308e+00,-6.847390209074188938e+00,-3.556422001535656907e+00
-8.402534996119062072e+00,-8.029338599367330520e-01,-7.772380956434125077e-01
8.165467611882451848e+00,-3.539395110614626638e+00,6.988146782558686709e+00
8.503178066635539878e+00,5.786891761663018663e+00,-6.174055977078266366e+00
-8.054326349126068152e+00,-7.850707224125383910e+00,1.203850738088828587e+00
8.108004330585002251e+00,3.002071890708460367e-01,-7.742172034208795461e-02
-2.135126154030341450e+00,5.179409534523967906e+00,-9.622791647176914154e+00
-4.132652186379383252e+00,8.082349937178216592e+00,-2.631139991865066197e+00
8.867403541959976820e+00,7.596393328376733756e+00,-1.582378256732511534e+00
-8.171194426675691957e+00,2.286074954075209664e+00,-1.148571754876702489e+00
8.277750910521893601e+00,-6.527759406756212801e-01,3.006800536927625611e+00
-8.245715988132586105e+00,-1.512186286172955141e+00,5.425525514985977793e+00
1.039233659979589053e+00,-6.841097880942887954e+00,5.194516085595190624e+00
8.316436613827605129e+00,-1.263082005220728332e+00,6.244821203639073559e+00
1.372504710007651285e+00,-3.502412411366588429e+00,-7.575071254271241727e+00
2.283792973667849446e-01,-1.044191228184761222e+01,-4.251405076239534786e+00
-6.967329932521152180e+00,-7.511431551003225238e+00,2.019569367400479543e+00
-7.758264957094720415e+00,-5.029509406705339636e+00,8.134499710956434981e+00
8.159778586292294023e+00,-8.710827316947236110e-01,-1.576047215281256852e-01
-6.745815177971758558e+00,6.832417499999716703e-01,8.739451330336379442e+00
7.865855664714889173e+00,-4.179725654915940503e+00,7.062247781118360379e+00
4.771776353153182271e+00,3.207355546293185533e+00,7.392857482931272095e+00
8.840076433408531997e+00,5.974679120409290611e+00,5.747669808190793539e+00
-8.431802336565899836e+00,-1.650983961220746199e+00,-7.524177393579701167e+00
8.347686505889855724e+00,3.415506646571202509e+00,-1.901489850317000130e+00
7.673293282197379384e+00,-7.439536829095390047e+00,-6.455585548415035402e-02
5.409540947153596235e+00,2.118302521156901541e+00,-1.002100835361711972e+01
-8.200700577544939307e+00,2.172152835393485582e+00,-8.538442305992822057e+00
-8.651673441005199194e+00,-6.144792555729686967e+00,-3.896531334345376685e+00
8.351348570244951475e+00,-6.768507960722617289e-01,1.405576982354550974e+00
7.856898171536090381e+00,-3.291741248826673516e+00,-6.526642251237935177e+00
4.466022286371636341e+00,1.016761629422494906e+01,3.968882101126369299e+00
-7.147779998266777568e+00,-1.900785611107103534e+00,-7.730626011160913080e+00
-7.229537429581549546e+00,8.699575212936602853e+00,4.303314680069759923e+00
8.327581231181746091e+00,4.131102305451396894e+00,6.660480142586736818e+00
-4.859692332770451983e+00,8.104323378736129513e+00,-2.047378144547074452e+00
-7.881292664676927906e+00,-8.033067211423805531e+00,-5.378417152829242376e+00
-2.824709975879074797e+00,7.478134054664965724e+00,-3.593169588373658296e+00
-1.683840428159164349e+00,-4.931704794085414179e+00,-6.730192621410029830e+00
6.675200033068745320e+00,5.712404525132060762e+00,6.162725736173144675e+00
-7.115401032358894540e-01,2.987071462185988402e+00,7.598372723423718611e+00
3.355165752492402120e+00,-2.717438329373003558e+00,9.654859353687884393e+00
7.561541625544996315e+00,-7.526160574105866807e+00,-1.166068251405592671e+00
6.677050559262728058e+00,7.357256037000710513e+00,-2.419696661698027551e+00
3.468840840295234873e+00,6.707135988878238031e+00,6.105506454807518857e+00
-2.579945397239414850e-01,-8.059830985729352193e+00,-5.577912223381074064e+00
-4.755521973859156759e+00,-8.088512631573236078e+00,1.124069675091083020e+00
-5.833287766785345774e+00,-9.395641197012554180e-01,9.355552131132983007e+00
1.730701068409950860e+00,-7.830127276607376174e+00,2.991689241170213620e+00
-3.396130366532869704e+00,-4.156326231023750317e+00,1.049687706962251710e+01
7.251067306491695064e+00,8.447657371477228949e+00,5.077970473210326574e+00
-8.015906642398325843e+00,-6.038111349810488804e+00,5.730530075192292294e+00
3.804703269093342666e+00,4.964786318933096076e+00,-8.754160659119778032e+00
2.717695685922024484e+00,-6.898687303278801863e+00,5.579288921866851325e+00
-8.247586587557981019e+00,-2.779601669508278139e+00,3.834065460698454081e-02
-8.136896438593042902e+00,4.197593203066704581e-01,4.486480278896060270e+00
5.063860069481623150e+00,1.362124798704102968e+00,8.072217041685313177e+00
6.804054649656412046e+00,-8.639198316430221070e+00,2.010490649055554524e+00
7.997923438661565854e+00,-2.191199341945669232e+00,-4.743022577787398220e+00
4.877247426184183610e+00,-6.897175740265414134e+00,-6.275251303205975795e+00
8.512287243206689169e+00,2.492356072556780155e+00,6.807404494251494853e+00
8.182189239294496375e+00,-3.618508634132137636e-01,-4.361609443969528321e+00
-4.463426139241525981e+00,2.568041989643025769e+00,7.998494057430899140e+00
-2.506798330540328523e-01,-8.870727156116499756e+00,-4.063119216384801224e-01
