-2.704580533278402754e+00,2.872080656317069103e+00,-4.239808852574456499e-01
-2.832249269030009842e+00,-2.732025398167456376e-01,2.237324217314083707e+00
3.170913835753697896e+00,-2.177409514365432397e+00,-4.058694842267583924e-01
-1.096089263524029495e-01,-2.013661153637293033e+00,-2.120804027807161152e+00
8.065596473742396855e-01,-2.588708576580807108e+00,-8.627264070590211498e-01
-1.395592367036249781e+00,3.178464273057931777e+00,-9.964707538398845932e-01
-8.064837980629420144e-01,7.287337318273114928e-01,3.530242675865226332e+00
-2.617371461485363593e+00,-7.308339233702725313e-01,-2.599551802630195030e-01
2.132089219992972851e+00,-1.345441769890251216e+00,-2.085986518397770162e+00
2.438209036605019975e+00,1.365125158294006935e+00,2.333532846743346045e+00
-1.141368226490291127e+00,-1.511314437727275806e+00,2.543326751448001577e+00
-2.411393515580916969e+00,-1.422238443225139148e+00,-1.761206373564546013e+00
1.292353624731198414e+00,1.334517106976770950e+00,3.637373984490101630e+00
1.158663826121497431e+00,1.116852625911669561e+00,-2.807923627996655735e+00
2.919044596276311854e+00,-2.863180526568598339e-01,2.245486169023146239e+00
2.880588089921921835e+00,-1.720592900424670058e-01,-3.387740438891135408e+00
2.251035647676167706e+00,7.090670347997400924e-01,-3.243789493721236372e+00
2.368135033996732197e+00,1.896564038532756458e+00,-1.339305136291075060e+00
2.403932748348540649e+00,-2.889454124867937845e-02,-3.755883809470875967e+00
-2.751329933332321009e-01,1.157995331717527776e+00,3.217901724444168554e+00
1.108662577104476243e+00,3.847796207116906064e+00,-3.192001053206619532e-02
1.054554285818739778e+00,1.463611178257071765e+00,-2.541305120451430533e+00
-1.426537991544027051e+00,5.497077382446100349e-03,-3.004507166557676801e+00
-1.089055046011925931e+00,2.824722171177238117e+00,-1.359757566348491986e+00
1.270493597546227926e+00,-1.714541889600365687e+00,2.014558704858753657e+00
4.728414754462506031e-01,1.423119233852742971e+00,3.146637957305601141e+00
-2.057580006729478050e+00,2.965489935416904199e+00,-9.872724821567884224e-01
-1.995271425486243144e+00,-1.592050799302001884e+00,-3.651876285470105454e+00
-1.401073718827138714e+00,-1.943741179844597378e+00,2.294071204084214610e+00
-1.725794788790613099e+00,-2.003693432844168232e+00,2.323220349652162398e+00
-2.424710512922917616e+00,2.272116836250053673e+00,6.638645342042404085e-01
1.964497565296279558e-01,-2.792957271513191397e+00,-7.820003079708361948e-01
-2.614646642322635106e+00,6.070399049585490925e-01,-2.435289760890499089e+00
-4.900157367791982410e-01,-3.279583784090942533e+00,1.283058923714374799e+00
2.138853741817258847e+00,2.525382116228331864e+00,-1.958068973750699993e+00
3.038367989907868605e+00,-4.070467374518710324e-01,-1.957254099987911111e+00
-1.853011982767392984e+00,2.326103658461125434e+00,-1.520909731273446086e+00
5.925738636494839451e-01,1.628569101692970644e+00,2.953135286990905772e+00
3.098472353283710845e+00,-5.130444062588539467e-01,-7.619692456334162811e-01
-1.458607094085636158e+00,-4.297490121077216507e+00,5.536560166245831915e-01
3.601271699683370464e+00,-2.366036629496080401e+00,1.587583302119676687e-01
7.822741794151291117e-01,-3.610431106635718645e-01,2.946316519425692171e+00
2.461072235149802001e+00,-1.059588528069104418e+00,2.202554949100467674e+00
-2.616530669676241594e+00,-1.047725168242078952e+00,1.495484264666101515e+00
1.278187718420426555e-01,3.724491931917886411e+00,-9.131937114449207860e-01
-2.268818022763253062e+00,1.621010052490011288e+00,-1.899820450236454628e+00
-5.800590746658946806e-01,1.256379696829506898e+00,2.888380759901282957e+00
2.836903794187091599e+00,-1.704234574898425281e-01,2.237494084598043109e+00
2.333754447674841526e+00,1.779300013410338499e+00,1.374968466922332322e+00
-1.693856550442385700e+00,2.428162025212513841e-01,3.717990384198399223e+00
7.475622481984411927e-01,7.750429158016234332e-01,3.641212977582643173e+00
1.340443212574519427e-01,-2.347343637652437476e+00,1.778967774023210380e+00
5.934460987160545820e-01,4.867927439446095850e-01,3.446562000807387172e+00
1.727650214104422766e+00,3.673784880995819346e+00,8.385937341259494526e-02
-2.190035952597397806e+00,-1.890917028325958871e+00,-2.423291257167463186e+00
-5.879765036448570958e-01,-2.873092077833493629e+00,-1.126001149277322089e+00
-2.511308143646076019e+00,-1.064706113512792873e+00,-1.885389232332939979e+00
-1.855744674359357083e+00,-2.593636061038013252e-01,3.446853143264436259e+00
-2.462271948129069354e+00,2.273134439190476641e+00,-1.411005228790965127e+00
-6.229397680605325283e-01,-2.047501363879321801e+00,2.117576635568882537e+00
-7.966429228383667405e-02,-2.421161170907333737e+00,-1.602615330966377316e+00
1.065202064151827610e+00,1.781335715944502240e+00,-2.302333929095647491e+00
-3.662228685615971924e-01,-1.129967229428947839e-01,-3.382576673826722669e+00
-1.342575643991800849e+00,-2.870706803694696774e+00,-1.468151618117346624e+00
-2.367473907685502255e+00,-1.221595822124308173e+00,-3.476768569585231727e+00
-2.645203747975224839e+00,-7.746179305082173672e-01,2.226481643805802157e+00
-2.849209556112022756e+00,-4.331881233388328728e-02,-2.334546630575617510e+00
-1.338666090287570221e+00,2.429368330571201273e+00,-1.518299804049977109e+00
2.979150840703319592e+00,-5.229916520378988798e-01,1.648104323004132787e+00
-3.304460632436987400e+00,1.518586125220995564e+00,1.099695352279643323e+00
-2.319545335302551692e+00,-3.924106583624888400e-01,-3.152757866084967553e+00
-7.812093186033015890e-02,-1.723685401915808102e+00,2.204643367369765183e+00
1.534141256251350116e-01,1.649124107229339664e+00,-2.289520548418573664e+00
-2.508729300206593571e+00,-1.223014044056818017e+00,2.532736473277244493e-01
-2.615922789352286504e+00,9.280906331706184620e-02,3.520012928667169305e+00
-2.341626776336279026e+00,4.974551702944075143e-02,3.756384848026867562e+00
-1.749487860957686269e+00,1.713199409387698990e-01,3.706788394301057554e+00
-1.076580686054559255e+00,3.642633133398185841e+00,-7.470372123147176469e-01
-6.463733550675647699e-01,-3.807391087153876030e-02,3.397178876689634475e+00
1.891374666182444209e+00,7.007002374235890008e-01,3.456355763556643979e+00
2.545116486714350756e+00,1.017863361660575006e+00,1.903819527790509225e+00
-2.232383758463330370e+00,-1.924793864492075235e+00,-2.814793870929700237e+00
-9.209030113840014353e-01,-2.597929523171969901e+00,1.799508673735472630e+00
-2.793721600616676071e+00,-7.008037732807956277e-02,-1.391536741830974977e+00
2.813830234542757047e+00,3.562578730922827952e-01,-2.051305368557728048e+00
-5.653782947203878084e-01,-1.395551582499203525e+00,-3.315793355713516632e+00
2.728618207253254990e+00,6.069491905297702550e-01,-8.157999563862231573e-01
3.057668854451133456e+00,-1.194079673311307488e+00,-1.873784165061420870e+00
2.806308464149718795e-01,-2.264952915782430853e+00,1.750709707435391005e+00
2.200292525849017355e+00,2.051023869364042351e+00,2.357257785190217003e+00
-6.207532980665170230e-01,-6.653761233237968087e-01,2.919032093686783291e+00
1.468585776393053877e+00,3.547019978040888422e-01,3.266687882142832677e+00
1.505512856108187192e+00,-9.652101052895297739e-01,-2.878069656469427251e+00
-1.147535022039357089e-01,2.689677543973477025e+00,1.125114737871333315e+00
-3.516457680209108982e+00,2.150791371122285245e+00,-6.911406992210644695e-01
2.158962542986861521e+00,2.136307746589326761e+00,2.486128800207998868e+00
-1.228292594743296107e+00,1.263131862309787579e+00,2.591522207421750323e+00
7.500002433957828618e-01,2.131924174042194586e+00,2.216345296301465595e+00
3.074665356474753253e+00,-5.526958960438265178e-01,-1.219156319174709013e+00
2.762155806089675814e+00,3.200698846212723381e-01,2.045800610126672359e-01
2.025818800786793883e+00,2.203533898873534458e+00,2.780723154735291747e+00
7.867720250071214005e-01,2.259371214355942570e+00,2.073473380202636385e+00
-2.901033847014017897e-01,1.288454305519133758e+00,2.949895519643388475e+00
-2.725826970708492336e+00,-6.402332594700448354e-01,1.094162166393600089e+00
2.715437099325312076e+00,5.263628367493993210e-01,1.213032701296892668e+00
-3.373939038491264419e+00,1.687328247675194737e+00,-1.275185139618400187e+00
3.331378508905327607e+00,-1.470850974574392733e+00,2.294546558681438697e-01
2.462355818034151600e+00,-1.113285376433761353e+00,-2.162195668109426094e+00
1.664852291365156445e+00,-3.200704155056593780e+00,9.216679810321636301e-01
-3.205984642372858406e+00,1.213927877395216459e+00,-1.612305090376691119e+00
-2.057713793216957576e-01,5.880570038383565734e-01,-2.859232619042863188e+00
-3.236318031456935973e+00,1.118281628913896597e+00,-1.059626247920094189e+00
6.812267131366190887e-01,2.467244277067766500e+00,-1.849944410108828263e+00
1.187286351279457808e+00,3.579944111539438978e-02,-3.492021764675196316e+00
3.378807349886278732e+00,-1.638482685446986054e+00,9.037021390627508755e-01
2.096741860239299093e+00,2.715949504720968743e+00,-7.633815095521522265e-01
2.843061852489340069e+00,5.518210119914191553e-02,-4.925167460920749085e-01
-2.191060545767024248e+00,-2.186047615202761474e+00,-4.093971759748692985e-01
-1.492600132951642733e+00,9.524721588790679982e-01,2.899901271214016418e+00
-1.754037664936526353e+00,1.555615630934754190e+00,-2.041788203724198780e+00
1.733423502717847509e+00,2.643450789943314838e+00,2.002281807778399703e+00
-1.900214767222773160e-01,-2.681209929341230591e+00,1.642210085911365969e+00
1.195898956261958745e-01,-2.584261105487971832e+00,-1.197137617738901261e+00
-1.754945833297468782e+00,-4.985777395015276725e-01,-3.336383364411678709e+00
2.076756691872102323e+00,2.738047125601312803e+00,-7.807551321552247403e-01
2.418591091363802903e+00,1.575233291524950507e+00,5.878305642436824074e-01
1.900613767795486519e-01,-7.559368948548162992e-01,2.791722525278407918e+00
-1.302202661255584593e+00,2.288199105883598428e+00,1.052781340117648901e+00
2.790038719438504788e+00,-1.501467700351866830e+00,-1.551623002298649467e+00
-2.480233210516758380e+00,5.442723407324008278e-01,3.066974307989593473e+00
2.951478638094954476e+00,-3.397484295988745240e-01,5.311700302362022397e-01
-1.351302859288526226e-01,-9.523329439495193949e-01,-3.680051317776715791e+00
1.389708167687785156e+00,-1.475687697177656243e+00,-2.286186225483555656e+00
-2.689105627202087456e-01,1.630464137240059008e+00,2.422241985154298671e+00
2.318895827569980028e+00,1.611328091344742530e+00,1.964320745022636316e+00
2.890130400903013097e+00,-2.578026704013408388e+00,6.043426921923004957e-02
2.682485956485833878e+00,7.085813763206760818e-01,-1.428042345805894398e+00
2.438853369032090157e+00,1.533032291492402388e+00,-5.309140747744083011e-02
-2.671865898354632396e+00,3.091860134893973822e+00,-8.718501248447210195e-01
-2.826306311724963383e+00,2.311610734112814480e+00,3.685553420452820639e-01
3.476618481605228350e+00,-2.002110120742155885e+00,1.124630910255071781e+00
1.071683841991784902e+00,-2.988205116324550215e+00,-1.092630718623499586e-01
3.345160867147254802e+00,-1.445703848460016205e+00,-1.237109791114561624e-01
-3.791689543738678836e-01,-2.951952897072722237e+00,1.458440414036469512e+00
-5.038279255281585822e-01,-8.706934942785374831e-01,2.827377140758115193e+00
-3.202502905117923682e+00,1.293504288645948685e+00,-1.369523122250515978e+00
-3.314388876658590277e+00,1.615501400019377032e+00,-6.531060921802867014e-01
1.783497582237625778e+00,1.579634886124931636e+00,3.513903464511145547e+00
1.471255748541960839e+00,2.807169707212661347e+00,-1.754221129801311729e+00
3.208481273186018168e+00,-1.066865037491621981e+00,-1.158253079832409327e+00
2.794578288475622063e+00,5.115268285706440210e-01,-1.740315011497178599e+00
-7.886663179911143073e-01,3.501096395006776385e-01,-2.949777319881451199e+00
-1.848656487407336568e+00,2.385661273684033912e+00,-1.420252735679319311e+00
3.759350254509313122e-02,-2.727784534950588480e+00,1.486143134908445296e+00
2.288436257343593905e+00,1.844239079177687923e+00,4.652974045247132429e-01
-5.614408789994358440e-01,-1.073107486577620451e+00,2.754699233033647499e+00
-1.697932955418885337e+00,-2.431574220435644307e+00,-2.248576555035984192e+00
-2.488785956774368646e+00,-8.888564820557957047e-01,-2.322097279328210195e+00
2.268038512204936907e+00,-1.360564779040234873e+00,-1.961585489512949421e+00
-6.045694368815303088e-01,-1.899449280177224031e+00,-2.623973444315952808e+00
-2.555628786590042001e+00,-1.089686933215301190e+00,-2.701750499149663809e-01
-3.646386185288381654e+00,2.394070877554534071e+00,-9.521060986067935161e-01
-2.280640586846888418e+00,-1.976688754633910694e+00,-8.729207268303930123e-01
2.465802669319397122e-01,-3.404055014050429762e+00,7.141462183637040106e-02
1.277393238577953616e+00,2.755792443697432592e+00,-1.788536787189342947e+00
-1.434962970940743876e+00,-3.848242014201503913e+00,-9.337133742053471686e-02
1.883468427753014929e+00,-1.938433777999844176e+00,-1.370018589164202938e+00
1.971784706116246788e+00,-1.678234092531157629e+00,1.905015454304861633e+00
-1.430513352160686091e+00,2.618834564428359268e+00,5.823315262729313879e-01
-8.658744233617179376e-01,1.470113225556672676e+00,2.539846153815397578e+00
-3.129301262489175839e-01,-3.917079745038327232e+00,8.585143771607067764e-01
1.497970030143677800e+00,-3.045123601355898213e+00,9.194853287230668470e-02
-3.062820653234824692e-02,9.121450797657053577e-01,3.589890354629110103e+00
2.006669279631313696e+00,2.840156386856046655e+00,-1.643007800721745904e+00
-1.889431689030108164e+00,-3.197547377192368145e+00,5.685617210209863437e-01
-1.600408307406654407e+00,-4.177046753921286104e+00,5.505415155475652522e-01
-3.290233916148471049e+00,2.412858167962030009e+00,-1.188998519417055810e+00
-2.882360321907139866e+00,-5.418318078493851442e-02,2.813184461765582789e+00
-8.129476174451519821e-01,1.197577559317965085e-01,-3.087627766987877109e+00
2.888621873336235879e+00,-1.764144768258631313e+00,-1.053505103838725754e+00
3.154322265131984437e+00,-9.246215711899705703e-01,1.602582643010729502e+00
-8.275901920918690147e-01,2.050232774969780111e-02,-3.151466726176393784e+00
5.645308322277153845e-01,-2.889071399663656781e+00,1.366914707185699296e+00
2.774734080530102620e+00,5.427932835537124800e-01,-1.639076939734887217e+00
-3.033895740572800204e+00,3.019856889927005072e-01,3.133260411782675892e+00
1.007790446752488522e+00,5.094579632629032684e-01,3.418871691791158351e+00
1.729588891050378274e+00,-2.102044276961918090e+00,-1.174265868964675663e+00
2.821341116540426519e+00,-2.280848892321161614e+00,1.392971155694975982e+00
3.098613057336411791e-01,-3.240820606092124745e+00,-1.239243316205598383e-01
2.437774282872907428e+00,1.479597550034031928e+00,-2.744751108523247218e+00
-2.979089655302058492e+00,1.293027991036570068e+00,1.709182590444458638e+00
1.010246099247285034e+00,-2.039338728291212099e+00,-1.546856805586965367e+00
1.164497102949596963e+00,4.195057325764345535e+00,-8.233487305784773502e-01
-2.350302837578803317e+00,-1.330514712619658590e+00,2.774716411915937986e+00
-2.872838814558556386e+00,2.698771036109115506e+00,-1.698653983018884872e-01
-2.070600684568326549e-02,9.805585234931998295e-01,-2.702291615176898976e+00
7.425028906468270629e-01,3.318210987057550909e+00,5.524490026957745714e-01
-1.778450087209187069e+00,-3.594908656218352760e+00,-2.561243919223853971e-01
8.082874140149940434e-01,1.822898038612317695e+00,-2.246529040554863244e+00
-2.883761071211615068e+00,1.023289015746843500e+00,-2.152518735066626387e+00
-2.648899651418069379e+00,-7.925214173997205958e-01,1.877665528170124665e+00
-1.492956810889465580e-01,3.756239111409253706e+00,-9.029559667337412332e-01
6.646127666150382085e-01,-1.112572648337637332e-01,3.166881910458694716e+00
-1.469073733932528159e+00,-3.963231569896936146e-01,3.300287356617889412e+00
-2.668495762266091642e+00,-7.292342137950720282e-01,2.391271927053243651e+00
9.450058037115180998e-01,-2.288532827884790510e+00,-1.285409721405915473e+00
-3.065678454884766868e+00,2.790942275405081663e+00,-1.021828002652419354e+00
-5.600619366015232581e-01,-3.807073430596362495e+00,2.752982001616486318e-01
2.525804357161857805e+00,1.008428828464917659e+00,2.588605569855169986e+00
2.346357818826711572e+00,8.228829400631115787e-01,3.471275892880647085e+00
3.570663000839748857e+00,-2.264273532074305262e+00,2.088905731331109628e-01
-1.608488046574132024e+00,5.761295379153638097e-01,3.448977403350701021e+00
1.503919880457823544e+00,3.737175326893539484e+00,3.274928060697331333e-01
1.162415660908580728e+00,1.879186797558710209e+00,2.842776727035325024e+00
-3.546897139350498218e+00,2.184168260160502584e+00,-1.007661758203231228e+00
-2.953914212944594997e+00,2.841889035528544216e-01,3.803018381507065893e-02
2.696451421164102413e+00,6.660118961819851968e-01,-7.214242904140585333e-01
-1.648460396501426173e+00,1.434204847451186815e+00,2.178769293090932813e+00
-2.605732355459546401e+00,-1.157920607280622960e+00,2.958529909549853620e+00
1.355778091461881329e+00,3.692422532445932770e+00,-1.192644133195518874e+00
2.978416928221322202e+00,-2.570125828024231840e+00,1.123712851921720990e+00
7.127856544320857468e-01,4.054011013023233190e+00,-9.193540813030195435e-01
2.452128415562693675e+00,1.583791119817343329e+00,-2.338877338653690963e+00
1.269489624313166587e+00,-7.295031033201436754e-01,-3.348875887512505312e+00
3.170494826637711316e+00,-1.107420752471517389e+00,1.171177582179942611e+00
-3.284331966378406076e+00,1.281431515610145455e+00,-3.240722080365515123e-01
-2.655773137300560194e+00,-4.692300792810796817e-01,-2.739624785381354677e+00
-6.516203116533922923e-01,-2.578107381193726066e+00,-1.650877711599127773e+00
2.205148301890132334e+00,2.205500897484132583e+00,-7.950123081109398138e-01
1.291757243429412672e+00,-3.297185794145427007e+00,3.354385998907072897e-01
1.331613512236704544e+00,3.303571688085807923e-01,-3.297044364784464054e+00
2.814841659650115346e+00,3.608824390708908342e-02,2.640713636765402494e+00
2.496417099903390113e+00,-1.918451831962859622e+00,-1.113919971467032477e+00
-2.616477534866579191e+00,-8.968637795946258207e-01,1.969394345624825959e+00
-3.043202374526700726e+00,3.926183263322103323e-01,-4.478333799051522623e-01
-8.156297319610146257e-01,-2.474133664544647004e+00,-1.740413146287605350e+00
-1.073634933069838482e+00,-3.427955543886966883e+00,-5.255042389622023302e-01
-1.981485385400440391e+00,2.856133903901092008e+00,4.131509019694874080e-02
-3.466262572584820845e+00,2.247515457640535175e+00,2.342902855988470423e-01
2.381790070441664464e-01,2.440263622500022045e+00,1.634927379741168973e+00
-1.428693719867696110e+00,-4.328991985309699864e+00,5.403378259294662200e-01
-2.992395455733817045e+00,5.752072566455912472e-02,3.330555110837979615e+00
1.281211960587327781e+00,1.629868475483865042e+00,-2.500330548032456690e+00
-2.381618743569786201e+00,-1.585361787005786116e+00,1.364809024440446050e+00
-2.598892693350320915e-01,3.050938492719588613e+00,-1.220287271659816319e+00
2.355408470457086789e+00,1.766522637552728092e+00,-1.441870299796924160e+00
3.658487059070715031e+00,-2.642942055029407822e+00,4.852651783618860959e-01
-8.812158489989027274e-03,-1.738583098789872050e+00,-2.448229778495043973e+00
3.112601235577872938e+00,-1.160150871746495005e+00,-1.804124226177689083e+00
-7.016341033563475715e-01,-1.405383088310260931e+00,-3.249727789740333161e+00
2.428973404060315477e+00,-3.896269372060823799e-01,-3.293500837208963805e+00
2.725982464656119042e+00,5.793552755222856065e-01,-9.715982434759465880e-01
4.994835116201478686e-01,5.073916195672322216e-01,-3.067272100108502375e+00
-2.822368651287764152e+00,-4.052140449461930638e-01,2.115358811924083593e+00
-9.272491242186519100e-01,-3.951431515151809126e+00,2.733127151437164670e-01
-3.311763519086750485e+00,2.248656518594546849e+00,-1.244082962397021763e+00
2.033456476441470429e+00,-7.343257973472293587e-01,-2.987523170494045921e+00
1.462082297245567375e+00,3.810890788100604887e+00,-1.083522450742794963e+00
-2.237329131756062850e+00,-2.299313356767402006e+00,1.103020938908758186e+00
2.465411762946823515e+00,-1.479437088580893844e+00,-1.667562556976502464e+00
-1.214591002255027918e+00,6.745217069498445905e-01,-2.651787893585229927e+00
1.332008305136421988e+00,1.274740943894174805e+00,3.795041240028228291e+00
2.024897679663701933e+00,2.735442537836371368e+00,2.885324562423086797e-02
1.209560005577108965e+00,-2.984647864900136227e+00,1.211433932296471561e+00
2.859154711231526758e+00,4.165395452407377741e-01,-3.105002426694891682e+00
3.237398135703747126e+00,-1.233168266263850787e+00,3.676629960755737336e-01
3.271108004569852845e+00,-1.459594049824907147e+00,1.693065523811025486e+00
-3.387135936436252326e+00,1.713308334637010377e+00,5.468425589404949383e-01
3.130294360455219582e+00,-1.773438733236901044e+00,-9.225661023795863613e-01
-1.895029480361020591e+00,-3.021570087965309792e+00,-1.026227048305004885e+00
-1.185427020615132498e+00,1.546252408938828760e+00,-2.157693877592111065e+00
-2.473754365195160343e+00,-1.503107976934808798e+00,2.474000157609529182e+00
3.280333996660254936e+00,-1.302800577018503603e+00,-1.753078968724755271e-01
2.817692934080445077e+00,-1.872533762054892748e+00,-1.012382893620568325e+00
-1.579356074183203562e+00,3.076422334044617291e+00,-2.634897099586720470e-01
-2.501848622999985672e+00,-1.123766348336149079e+00,-1.093650607813952069e+00
-2.071080796419244141e+00,-2.716162777534048445e+00,1.323579020550313734e+00
2.665212738268635251e-01,-1.310896473582747079e+00,-2.896926912993134096e+00
1.388038437462437491e+00,2.961604853501192736e+00,1.390902683980587362e+00
-2.002582188135433316e+00,1.132415300986435946e+00,-2.241943633356049848e+00
3.506037897384482793e+00,-2.084770340154840529e+00,5.316696109776947177e-01
3.497210897373137062e+00,-2.066349153840242536e+00,2.919217825340365002e-01
-2.640399712140307997e+00,-7.898314947594151647e-01,4.590146626228834847e-01
2.943867440296839444e+00,3.428739801784504160e-02,-2.855190476897768725e+00
3.549057956696446858e+00,-2.248369281990638235e+00,-1.032584661779693408e-01
4.270791527734482673e-01,9.778753967390340085e-01,3.771299968997461338e+00
2.409063719950956806e+00,1.390680592617135503e+00,1.875470594399995417e+00
-3.639076391574442293e-01,-9.120574325697073936e-01,2.808597871378492705e+00
-1.815549731569839675e+00,-1.353329255980751378e-01,3.526266195430866279e+00
4.336203158323056472e-01,-3.823347271925549684e+00,6.949318922828737755e-01
-4.830468677700208713e-01,-1.135941613924737137e+00,-3.478859130314972070e+00
-2.677627138629724790e+00,-4.698825438209442984e-01,-2.105175040456715330e+00
-2.698947513551037236e+00,-3.096987749929920319e-01,-2.660147076516411246e+00
3.102360814294573998e+00,-7.594006030725365397e-01,1.620429547045734386e+00
8.074755229831862557e-01,1.678462992614651039e+00,3.013688939436062419e+00
-2.468943925988949406e+00,-1.230307091348152415e+00,-2.749040261461640267e+00
-2.522048885588242584e+00,-1.073703067144871959e+00,-3.393104630758927431e-01
-2.039249733944543674e+00,-2.804268183901748923e+00,1.130612130553594552e+00
2.371059399208412355e+00,1.796161289273517703e+00,-1.251142858545445380e+00
2.771553924942364855e+00,1.940512174616150776e-01,-1.105632343654331870e-02
-1.999888290136927260e+00,-2.959341928036130387e+00,5.270493111778101758e-01
2.838409781995188563e+00,-2.796438993541617429e-02,-3.559066563250488535e+00
-2.217491942560063656e+00,-2.004201844333858951e+00,3.106827872672357493e-01
2.343444523817906244e+00,1.714889259467668126e+00,5.326729036695000419e-01
9.600211244049745574e-01,1.942967229676548557e+00,2.668890907155624603e+00
3.263908564041142490e+00,-2.173437977903900808e+00,-3.779214970992370581e-01
-2.751974211561329042e+00,2.897755072092051076e+00,-9.634338538800225615e-01
1.933511388995494684e+00,-2.799969375718572295e-01,2.777398252275236512e+00
1.948937617808716549e+00,2.049391069029000145e-01,-3.494874316682943238e+00
-2.241285016491782134e+00,-4.446629591698893491e-01,3.390898522715789287e+00
-2.871256077098907067e+00,2.278035812585558428e+00,-1.316306248431737602e+00
1.953659873482161136e-01,-3.023065967073206850e-01,3.076756862330546127e+00
-1.241161045564576515e+00,-3.704659492177125202e+00,-3.078644587857452541e-01
-3.086662276152307705e+00,3.944722922946897747e-01,2.941200546655765802e+00
5.552732977204103415e-01,-3.073484012035997193e+00,-2.721810876645493482e-01
-2.389697891058153445e+00,2.160472403936215535e+00,7.096703856184174430e-01
1.393409192653429995e+00,-2.804099584834085501e+00,1.246895959575889723e+00
-2.189823918102182798e+00,-2.288752022126222752e+00,-3.474367317143504663e-01
-3.844687154734676704e-01,1.196923738574686258e+00,3.088387366915692933e+00
-1.100230988454641068e+00,1.039168702246909604e+00,2.952726339300362213e+00
-1.935106540557960164e+00,-2.291518435610178983e+00,2.122883328588597962e+00
-1.058972312583725373e+00,-3.316664908351476981e+00,-6.675736986989332378e-01
2.727788207670777787e+00,-2.766702870515719948e+00,2.374119566019486371e-01
1.112505556445789745e+00,3.575325101118289162e+00,-1.198825108993522903e+00
2.188053897699693717e+00,1.255841174995040666e+00,-2.894876170475752630e+00
-4.505746750130073391e-02,-2.903916410021979005e-02,-3.286886233337563912e+00
2.589775376887923364e-01,-1.829175834224387787e+00,2.084813403767839635e+00
-2.337261525768719483e+00,3.141228650193731653e+00,-6.258991573179184531e-01
-1.823181712126770604e+00,1.333920228309276812e+00,2.229438254460378577e+00
1.726253419699340652e+00,3.065167396939660893e+00,-1.582838153188894870e+00
-2.066133412893744747e-01,-3.757787514958275565e+00,9.310609136737815206e-01
-3.398879819058423735e+00,1.712206282164777216e+00,-4.330950162601817088e-01
-2.885407590587376170e+00,1.118100058922434081e-01,-3.184372836937148787e-01
-2.169966917633135317e+00,-2.119212474449781780e+00,2.378028704304248730e+00
3.142510812834747647e+00,-9.931570441719268505e-01,1.211005500403014468e+00
-1.795144671865215980e+00,8.265493254765264863e-01,2.958753815703571100e+00
2.563654943232551275e+00,-9.914178136327371493e-02,-3.508432100975335644e+00
-1.404098956602898018e-01,-4.964272601309698829e-01,-3.601725978463402811e+00
-2.680823588616502384e+00,-4.608171131311495361e-01,-2.317374381504683889e+00
1.758987707756643815e+00,3.658045162741626388e+00,1.073748525263805709e-01
2.488074298463549994e+00,1.285361146942548327e+00,-5.296291190886616151e-01
-2.063817364152675360e+00,2.636349319098740818e+00,1.896556550432186572e-01
-2.631176455766775835e+00,1.728387106989667465e+00,1.145765220163696529e+00
2.165682289351868128e+00,8.586958314342971743e-01,-3.134774157012548024e+00
2.268378469194484826e+00,1.720033645971701386e+00,3.054698269196424842e+00
1.754146910347606170e+00,-1.846347092592345085e+00,1.839649178088097248e+00
-3.066405293985301483e+00,6.686967734451023659e-01,-2.222711626234533888e+00
9.521413749141234284e-01,1.624640902868826897e+00,-2.406620132419981850e+00
2.164365205991131358e+00,1.938987707553869955e+00,3.136215456710466754e+00
-5.589208446781306350e-01,2.135074920395571230e+00,1.719958889130837720e+00
-2.032056796943679799e+00,-2.859624722276950415e+00,9.002228355669611437e-01
-3.233366372796724342e+00,1.177790537889735978e+00,9.427862976264020922e-01
-3.069922534380493673e+00,6.516109690416990174e-01,-1.998474131658356523e-01
3.055394716372822117e+00,-3.098026490614618766e-01,-2.593108234915485255e+00
-1.446210670312259916e+00,-1.563451776331472143e+00,-3.405209319688604630e+00
-8.672143474255341600e-01,7.664434557812177529e-01,3.422060445500768822e+00
-1.309140164957628638e+00,2.871988852460573005e-01,3.787944690678207937e+00
2.811806379261361233e+00,-6.356321262131922056e-01,-2.704090994672371906e+00
-2.105404687764589333e+00,1.262428256515915059e+00,2.208244952410584272e+00
-2.797504377884200366e+00,-2.317969384419153456e-01,5.066740175592893136e-01
2.272896339578214242e+00,3.250033476893370854e-01,-3.554296536765531922e+00
-3.101073306648397310e+00,4.982720489260493157e-01,1.807316591526489935e+00
-3.506027639242679239e+00,2.150693920672456905e+00,-1.074115606822318325e+00
3.007263699781893784e+00,-3.467258436618764761e-01,-7.678941322465213659e-01
-7.661141467065992749e-01,3.595769816487514037e-01,3.684830877885596490e+00
1.036308351018768281e+00,-3.311435681220645133e+00,9.883200681886856742e-01
-2.397271031139374564e+00,-1.543261702789190171e+00,2.014658414416480525e+00
1.911924958280915243e+00,-2.719575910526290663e+00,-2.288617181745701834e-01
-3.381030482843385254e+00,2.825958221961986983e+00,-9.326862290462347715e-01
-3.164242528392959386e+00,9.191130118937885785e-01,-9.512185701847708508e-01
2.042873598651090195e+00,4.006732737605256944e-01,-3.456700022165404729e+00
-1.383338320326930937e+00,-3.502275573588564228e+00,1.335698371629642223e+00
1.089707283364350188e+00,2.224532784458981727e+00,2.348598748278146076e+00
5.560986343474152438e-01,2.823302083238331317e+00,1.120237757453551586e+00
2.782637889022516742e+00,4.877046443582770396e-01,-8.897328559447432728e-01
-9.378026779455460593e-01,2.632581204033082489e+00,-1.485037687649830129e+00
1.642413163815122368e-01,3.056635153452035958e+00,-1.354175782574575937e+00
-2.022217043294778360e+00,-2.711610513157349356e+00,-2.445620577832801068e-01
-9.957332940647348196e-02,-1.708928377183343006e+00,2.228975349387514626e+00
-9.555069449192417075e-01,-1.342480217632335160e+00,-3.500269032040247197e+00
4.654216266824861559e-01,3.476800618771809681e+00,-1.148401570557725737e+00
-1.810223282544001777e-01,4.825819446793476741e-01,3.631305412193046589e+00
-1.105001212515721587e+00,-3.557450188066737962e+00,1.197387573884828083e+00
1.084579974243869538e+00,-2.540738184044931458e+00,-7.646723766751916118e-01
2.795119463890391565e+00,2.324043161209752573e-01,-5.404975897009759445e-01
3.486363745053352670e+00,-1.956219822520825380e+00,-5.327193780654487787e-01
2.481292979238306717e+00,1.339587273051542127e+00,1.126734247998927296e-01
2.362899652279222273e+00,1.498925678393631111e+00,4.988220954800784424e-01
2.836218415392128822e+00,-2.019323303394330082e+00,-8.202092588899668746e-01
-1.664767748060451469e+00,1.321058984247402091e+00,2.279880206877980431e+00
-2.745238346370805438e+00,6.928793348453236856e-02,3.612713222576537930e+00
-2.194077719239851287e+00,1.241140473888219242e+00,-2.114976778515564870e+00
2.338514790782384445e+00,1.777678468382435817e+00,-8.529958057684317030e-01
2.305606485874209355e+00,1.835614956258877939e+00,1.038460386553094139e+00
-2.576084962873263162e+00,-1.137575053825713445e+00,1.688252765122898902e+00
1.286478224813681237e+00,-2.123024418537922564e+00,-1.327156773822356861e+00
-3.160668083393669114e+00,7.316126872032229222e-01,2.105968165541349524e-01
1.633460856487315871e+00,3.649369929495551723e+00,5.328985275848491243e-01
-4.248916578093505647e-01,2.383919585977218869e+00,-1.723342048612741095e+00
-9.447315270692460132e-01,-9.227289332634156516e-01,-3.768875311821862528e+00
-1.294262952832433422e+00,-5.951514366089694086e-01,-3.520134138225897491e+00
-2.439540823615530818e-01,-9.315962660050614019e-01,2.718114265384222072e+00
9.622225426631281220e-01,2.725029141223203943e+00,-1.672503233031587433e+00
-3.074871894953225215e+00,7.676088618870386959e-01,4.226628885848217054e-01
1.758528657817524099e+00,3.811848350873732638e+00,-1.332572574399389087e-01
-3.003873010458067760e+00,3.281137877660785240e-01,3.063822248492940492e+00
2.074883060837518389e+00,2.561079001409990674e+00,4.879336521861684095e-01
-2.234422007087658812e+00,1.389238687281178219e-01,3.743585483085038579e+00
4.483064993803584364e-01,-2.986183457760018367e+00,1.322099532511638253e+00
2.269126724069290724e+00,-3.065013760501495099e+00,9.851512387100824775e-01
3.095735434695603860e+00,-9.213543861851187788e-01,8.670279645288900827e-01
1.783920369455356536e-01,-3.610272087768408245e+00,9.692770763838312043e-01
3.194519566613402528e+00,-9.430446551757752927e-01,-1.484782814469511658e+00
-5.141392318874199452e-01,-2.109305098538484025e+00,2.027949344982224122e+00
-3.242255515548246869e-01,2.916664736027419491e-01,-3.106203195369405812e+00
1.953315054914705362e+00,-4.728194219362681361e-01,2.626970948702231912e+00
-1.134902719766301082e+00,-2.155982031999822635e+00,2.095832642991358963e+00
-2.334693865421655801e+00,-1.443242056187296507e+00,-3.165522428933829069e+00
-1.129965395811004525e+00,-3.776266902074780329e+00,-1.572143371875132922e-01
2.761793383861562923e+00,4.681580449125149340e-02,1.703238335871843923e+00
-2.356868472797139180e+00,4.258839272039174340e-01,3.371378278911190129e+00
-1.061180483968610755e+00,-3.764728102572810098e+00,-3.106715422641421337e-02
-3.178190316744329724e+00,8.456464059836013014e-01,7.961290904905432564e-01
2.236235900722539860e+00,1.337252271321665686e+00,3.763356805618518042e+00
-8.641939664766514761e-01,2.205571995046748057e+00,1.412399144149777852e+00
2.895212075259505635e+00,-1.562039769469883987e+00,1.807269763617000091e+00
-2.710556516840489039e+00,-5.728197017296269289e-01,3.260038199702812445e-02
2.136428016725370416e+00,2.367878429655169814e+00,2.415898853105103328e+00
2.084085250136467504e+00,2.795090457177379584e+00,-7.994033711407357856e-01
1.506449421500394736e+00,3.984079329005073798e-03,3.083023668584206956e+00
9.276324120224476166e-01,-2.119106059039064238e+00,1.738479213158311776e+00
-4.523948969833392897e-01,-1.719861247945730032e+00,-2.722666128529463325e+00
3.343163808202771481e+00,-1.384853867213724499e+00,-9.059133296481862441e-02
2.011994478179164325e+00,2.656221782233054274e+00,1.216474795133566156e+00
2.662306147757090180e+00,5.500707154154038658e-01,1.786186013466085187e+00
2.498350850704815773e+00,5.968238189848107389e-02,2.882594833297670522e+00
5.019450778771482602e-01,1.656066736064335299e+00,-2.299261769165931391e+00
-3.471064198743594176e+00,1.966752498734238630e+00,-1.544446628210501826e-01
-1.402855335266921966e+00,2.400645074370544751e+00,-1.486472190461968657e+00
-8.307185049561888190e-01,8.377082576144224690e-01,3.319131446160715093e+00
-3.112478660784554041e+00,7.833140342027643532e-01,4.297441200994207566e-01
2.652316080293464662e+00,8.988245428366488099e-01,1.734954764539729244e-01
1.977032367987553441e+00,-1.475421596743853536e+00,2.007897136400982330e+00
3.272247636487100486e+00,-1.294486658400616275e+00,8.364728658456467292e-01
2.179383253225476658e+00,1.959747111396387131e+00,-2.420913127566420187e+00
-2.784941345861950523e+00,1.980963252595531410e+00,-1.583976089112320462e+00
6.929252626671510429e-01,2.183046605936450835e+00,-2.037862546518149021e+00
9.075649620757099412e-02,3.313370603139031534e+00,-1.145434088653316973e+00
-1.184388019737520725e+00,-4.054491343705217687e+00,9.213046221173141204e-01
3.155072765576627081e+00,-9.801107375838262747e-01,1.687269790367075695e+00
1.023217920963100935e+00,-1.225676185595106604e+00,-2.654490381009819266e+00
-3.585852315146154101e+00,2.317761624209555560e+00,-8.108217881452390863e-01
-2.094800566261353136e+00,2.411236442564173299e-01,-2.753394405815925872e+00
3.905367968839121851e-01,2.865882960513584710e+00,1.007576002701502382e+00
-1.976243794686984634e+00,7.264645655673552804e-01,3.027553472790476707e+00
1.555933599876924589e+00,2.010073448376375360e+00,2.840068595945770102e+00
1.817614754400566524e+00,1.497395911437554128e+00,3.721072124128464331e+00
3.115532033664893952e+00,-2.554797979848984379e+00,2.196410015891016310e-01
1.231337269652275745e+00,-2.562040548630046377e+00,-6.177039821524898944e-01
-2.425852375316086551e+00,-1.187770869323862888e+00,-3.229753841672574843e+00
-1.585449725280840272e-01,-8.847473763584616790e-01,2.771578521935611494e+00
-1.183184716674714698e+00,3.531831545376993287e+00,-8.653017767324444609e-01
-5.997957155963257181e-01,-9.029052718332455374e-01,-3.755163086402963479e+00
-1.662895957451717477e+00,-3.932619612525527941e+00,8.971185612671613852e-01
-2.810165033141855062e+00,2.427845123441545017e+00,2.337274824410718599e-01
2.377819054029698176e+00,1.639513469228736531e+00,-1.615725127380139625e+00
7.999271887705496908e-01,3.186705570442657898e+00,8.495285753501774506e-01
1.763319196394113941e+00,3.621799090181232028e+00,-2.923234890023507226e-01
-1.448354455252709672e+00,2.978459901166970791e+00,2.412680450536810670e-02
1.965741764221896171e+00,3.091534900928874396e+00,-1.425908474420965133e+00
-2.717470860754929607e+00,-7.254119200640919418e-01,2.846026437748797377e+00
1.472282510744443718e-01,-6.152858451678970830e-01,-3.711402760766693287e+00
-1.331392725914029018e+00,2.409588035954826957e+00,8.470459775672857239e-01
-1.112013325437718025e+00,-2.405067077069586112e+00,2.002034368455540392e+00
-1.724493701944317170e+00,2.779584580155263662e+00,-1.236648557563159168e+00
-2.852687672201046354e+00,6.433965920858313314e-01,-2.371474592870655318e+00
1.708401795523306843e+00,3.762540117966217235e+00,-8.306461702753816789e-01
-9.068587278851341082e-01,-1.044124653893593546e+00,-3.823644804684073417e+00
6.105350503650084359e-01,-3.031309766856250754e+00,-3.891595720367954092e-01
-6.564885703051392962e-01,1.308419352565928007e+00,-2.290916328227345478e+00
-4.802244912234873708e-01,-3.335149940038902638e+00,1.263384710039731518e+00
-1.732616305534065759e+00,2.013985049700239838e+00,-1.768537512698426628e+00
-1.020843242358870695e+00,-3.973700453836066071e+00,2.173143903467411042e-01
1.324376208364512530e+00,-2.426274070237262048e-01,2.943511436857395136e+00
-2.430479962398459648e+00,3.873429140494488720e-02,3.750702834820372811e+00
-2.912635659908209274e+00,1.114752210788408499e-01,-1.924573124998828488e+00
-2.590224740928752212e+00,-4.217880607148047911e-01,-3.078444473667932613e+00
-2.410682621832624051e+00,-1.649841944144704531e+00,-6.805558580031778604e-01
-1.342423693862225154e+00,-6.220645507530773166e-01,3.084879157900232372e+00
2.665271588902900834e+00,5.294003958195802051e-01,1.343634679408485466e+00
2.520278635780273113e+00,-2.525449798820772251e+00,1.277285750197024949e+00
-2.886014252092568455e+00,-1.735146124115646005e-01,2.597648164528567172e+00
-1.528076509222764390e+00,2.259949562897421327e+00,-1.643116907914423219e+00
8.847823536186143478e-01,1.699371246213140285e+00,2.926491883310204489e+00
5.209781024447341924e-01,3.929342766273958620e+00,-4.632538778665941104e-01
2.032262657175805121e+00,2.808393681781566453e+00,2.079963085913777154e-01
2.957072564064865627e+00,-1.777815005595157483e-01,-1.098944240937492323e+00
1.244596399074871185e+00,2.159882377401147302e+00,2.392914116080305131e+00
3.289512248466069710e+00,-1.224849006940117446e+00,-1.644827228646484452e+00
1.939934259557601015e+00,3.137175572961263814e+00,-1.013434872637415163e+00
