-7.460578847520027423e+00,-1.518259411841116790e+00,-5.770093540706095148e+00
-6.301096822693294186e+00,-4.909189770955913801e+00,3.484767424578878003e+00
8.108857350622686866e+00,3.013550406699120998e+00,3.447677042501409161e+00
5.650307886627355280e+00,-3.859249355050286212e+00,-1.681317750190121529e+00
6.132679896364976457e+00,-2.327278835541982449e+00,1.976211682367310596e+00
-5.418538252378827913e+00,1.192974860976133700e+00,-6.695070962047298124e+00
-6.759336523645973926e+00,9.359771921560436914e-01,5.703137221781550359e+00
-2.087371461866056155e+00,-6.182303601155016537e+00,-7.879135974273832055e-01
7.616789252476112715e+00,1.412988686212460987e+00,-1.433587350937688853e+00
-1.798351401269398631e+00,7.584062795319602479e+00,4.009497435311560665e+00
-2.535753830899805550e+00,-3.183797751306856050e+00,6.459165604840275243e+00
1.181140606908528623e+00,-7.365223289974474952e+00,-2.787619725195544795e+00
-4.984429654740019977e+00,5.877053768859006766e+00,6.108495098712340976e+00
3.499863197323448194e+00,2.567450446784067974e+00,-6.471117573133289724e+00
1.470621425259208470e+00,6.231578803522286769e+00,6.172561789043729874e+00
8.529648889529779510e+00,3.905407970639572568e+00,-5.176047885162947004e+00
6.156661886756015001e+00,3.944990268339329198e+00,-6.309790687055243374e+00
2.049932527724565023e+00,6.601990508048786843e+00,-3.995977441819531961e+00
8.145106194568025870e+00,3.018422060658261241e+00,-6.310430367547334107e+00
-6.289724572440936079e+00,2.417305656404239667e+00,4.778277206608565031e+00
-4.301617214224714658e+00,7.373253633536525520e+00,-4.481635879427665614e+00
2.488361294237055876e+00,2.951358109355238124e+00,-6.434104749718116523e+00
1.951425215166046501e+00,-4.043238497135468457e+00,-6.630814719429204196e+00
-3.998225271392434887e+00,1.150882891345847536e+00,-6.821625465849439962e+00
1.711630038577220514e+00,9.916969996573060664e-01,6.783022450852677743e+00
-5.590391012976686724e+00,4.198428261344346879e+00,4.642358387749166759e+00
-6.000700384803717036e+00,-3.769180356147476263e-01,-6.709505460988286707e+00
4.445293451616531222e+00,-7.597103256407396366e+00,-6.131787067740646968e+00
-1.907729669833512220e+00,-4.382524465286079973e+00,6.398452738321569022e+00
-2.292709276323959600e+00,-5.081483811620024049e+00,6.383250481134308707e+00
-7.579063010769965913e+00,-1.327094260755948385e+00,-2.712340567594887730e+00
5.514801558184683650e+00,-3.754111609609836808e+00,2.116558637886679861e+00
-1.301060210441640885e+00,-5.285798744093929358e+00,-6.819824190642278516e+00
2.656449781365206153e+00,-4.865430804046460445e+00,6.523243549875612501e+00
1.586337824086050619e+00,6.748653523619136507e+00,-6.136012664187078691e+00
7.249443874427089263e+00,4.502883296552610659e+00,-1.961985258410176680e+00
-4.064253041350226248e+00,-1.078318142819633563e+00,-6.855366584924905915e+00
-5.490353672928561579e+00,4.627576865800871353e+00,4.050203502742954598e+00
5.945799268089080769e+00,4.985951774769202594e+00,5.747417785222744824e-01
3.837082876005619703e+00,-8.441061204790248240e+00,5.932154127924919251e+00
8.245830997406063290e+00,3.832825503710267423e+00,5.009046812308349139e+00
-2.206165599956314782e+00,2.284898394078016093e+00,6.673435504120017292e+00
2.081499698032747148e+00,4.272597439753755388e+00,6.866683527882195825e+00
-3.875296699039002757e+00,-5.861837301815149281e+00,3.103822727776035073e+00
-4.298740726530912326e+00,4.926446828955739932e+00,-6.526127520854820396e+00
-3.065470802011971863e+00,-3.006295035184378239e+00,-6.896201991372524986e+00
-6.424474962816455914e+00,1.818964243655762258e+00,3.857222447768535734e+00
1.194216809524762501e+00,6.226568001334404023e+00,5.970287136432530062e+00
-1.328342814995469912e+00,7.535528699874649128e+00,1.527439737950757603e+00
-7.462372120615720306e+00,-1.366229470025731363e+00,6.288876018333679596e+00
-4.875653946838188979e+00,4.060624198694468667e+00,6.581473031523866979e+00
1.442745833395309374e+00,-2.174405498297738770e+00,6.601468808511296693e+00
-4.394523052444010425e+00,3.286242567661590730e+00,6.493187094814918403e+00
-3.351829306624081184e+00,8.386490389313248528e+00,-3.743085609105270439e+00
3.047286404707229668e+00,-7.856624653027952654e+00,-3.399477052304674451e+00
5.022518280566663051e+00,-5.531622678160215578e+00,1.174147600856358054e+00
6.642959129944734364e-01,-7.125506435444981079e+00,-3.538389260633082234e+00
-6.568177423813862603e+00,-2.479509425865895622e+00,6.319242154086885499e+00
-4.948289108614639886e+00,-2.285155072244176910e+00,-6.850523103352200494e+00
-4.718164484572633377e-01,-3.089892154740809804e+00,6.540160872803098435e+00
5.639055525919597578e+00,-4.134322383720086869e+00,-1.165477082802944542e-01
1.711555632855375597e+00,3.506520782802025060e+00,-6.361812387356056142e+00
4.051206428813451943e+00,-2.309475759780489579e+00,-6.740190826245795463e+00
4.442870761502826227e+00,-7.138187507171462443e+00,1.434490619543215550e-01
3.154325674678508662e+00,-7.740038570431588383e+00,-6.430576259239830783e+00
-5.273702672444291473e+00,-5.233418599667202464e+00,4.192021993809906810e+00
-7.609622222997396435e-01,-6.582792980325334220e+00,-5.894801143651784869e+00
-3.530138275339986365e+00,6.095032328913249642e-02,-6.745072364384006924e+00
2.683383790504069388e+00,5.770804667699889201e+00,5.317477476516952350e+00
-8.186490233265159233e+00,-3.872710616124745542e+00,-1.287646408488144267e+00
1.541704943939762318e+00,-6.380171715606352656e+00,-6.827546486687061211e+00
-3.404819863806337055e-01,-1.555277518301008133e+00,6.549622770830533902e+00
6.650084270043580270e-01,1.563575102141990358e+00,-6.587854397515100047e+00
-1.857487905118609950e+00,-6.422098271593236873e+00,9.118324998262149483e-01
-8.223212453179163717e+00,-3.443400054672085986e+00,5.662376541030821997e+00
-8.093303778243248203e+00,-2.868983634473455613e+00,6.313469991737616027e+00
-7.414471739666070427e+00,-1.576218562493437947e+00,6.332560888499306095e+00
-6.014918856510901080e+00,2.550005609671448958e+00,-6.647298906885461101e+00
-5.207505507895864305e+00,1.461024433453822213e-01,6.495330798837487762e+00
-2.980023000775755548e+00,6.098982953981729516e+00,6.837682594829177063e+00
-5.714116537663296302e-01,7.135206615801092056e+00,3.650605077504802676e+00
3.547792488844673908e+00,-8.152154672368018495e+00,-4.152926797017690852e+00
3.726266871985519646e-01,-4.552817225102653964e+00,6.476355193642999275e+00
-1.864865542415286903e+00,-6.108641466992605906e+00,-3.962605009750884033e+00
5.909655516792737373e+00,5.065982080188903502e+00,-3.230354606207519907e+00
5.642396037827304589e+00,-4.412674121806094973e+00,-5.056243230623047147e+00
3.816578438210425528e+00,5.769808653063602577e+00,-1.137859928057176395e+00
8.361921091929493954e+00,3.504896094394039707e+00,-7.789593900403738447e-01
1.552098196173978373e+00,-1.790035714483076967e+00,6.507464280072680296e+00
-3.191025739599449906e+00,8.066194804728148426e+00,3.067967569344269840e+00
-3.602672390717145401e+00,-8.622261311585999177e-01,6.361558168109946010e+00
-2.780320612773579558e+00,4.727026108999429432e+00,6.709261690266150602e+00
7.218337542967005582e+00,3.766978589994790516e-01,-3.782625980056561588e+00
-5.691487301440036894e+00,3.918625820811770577e+00,-1.265284987708650943e+00
-7.116290610469912181e+00,-4.188740219565604939e+00,-5.751128378730065549e+00
-3.542873417064590580e+00,8.157162952245208487e+00,3.195485506384037944e+00
-6.925757571420644076e+00,4.440009367181795841e-01,2.959951562962451099e+00
-5.089003208134143641e+00,5.303114923045836093e+00,2.015087622097800235e+00
6.565029287338773223e+00,4.690457429634777853e+00,-2.931636546307935798e-01
2.977743836293770929e+00,5.880446140423560841e+00,1.271095863918935809e+00
-4.205533012686924366e+00,8.116288862991750008e+00,3.632793627464507402e+00
-5.048032985079561108e+00,5.486833125432186264e+00,1.585104579488291865e+00
-6.161349017786336368e+00,2.451294564565690504e+00,4.072103739354028917e+00
-4.122251061140964623e+00,-5.690747596738007452e+00,1.734466756112602148e+00
1.297598851433005906e+00,6.501491489959834169e+00,2.987443840989484567e+00
-5.465380431460213018e+00,-4.792611945622540226e+00,-6.251114898503496775e+00
6.431656355764411082e+00,4.557829848977352327e+00,3.877865290008629451e+00
7.808778298048623334e+00,2.336951538816645524e+00,-1.729898154616899442e+00
5.912428844209752121e+00,-7.329519836938894750e-01,6.699338960394706000e+00
-4.084358041141955553e+00,-5.255161783075663173e+00,-6.236373088556492306e+00
2.527142907156798124e+00,-8.205626052735969234e-01,-6.525285918501161575e+00
-4.694819134547682182e+00,-5.208003265964416428e+00,-5.030513850925331987e+00
-4.325715193180278417e-01,3.888540904225687100e+00,-6.519685238674404637e+00
6.063654403285777761e+00,8.594231847433546623e-01,-6.431037706834457524e+00
5.878190072738012084e+00,4.709794682093824569e+00,5.453219188386626115e+00
-3.045453404431546773e-01,7.436811116827911405e+00,-4.027630636063428859e+00
4.390336999856526923e+00,5.379009526954826370e+00,2.637837205052727119e-01
8.896129479430200382e-01,-7.399724202741221113e+00,9.766647610801870716e-01
-7.209809562510478997e+00,-3.596592064587967319e-01,3.848252528479596979e+00
-2.087867557079249536e+00,-2.157493635298692869e+00,-6.856662617916585489e+00
-4.261164938634633081e+00,7.815227028742313564e+00,1.388625163686790120e+00
1.688863154215408224e+00,-3.315761245269525315e+00,6.608124420652651487e+00
5.631172849943037129e+00,-3.796557163713088379e+00,9.894543932429442634e-01
2.702289967746703603e+00,-5.508030516332949489e+00,-6.795479612516935219e+00
-3.425872217271008213e-01,7.420697524690671898e+00,-4.099662861007319137e+00
1.136884622207193773e-01,7.086013906186739320e+00,2.652428537468367042e-01
-2.206282755821910690e+00,5.327733725677579191e-01,6.599093939958925681e+00
-6.591357824980310198e+00,1.038177350743860083e+00,-1.442625826038718584e+00
8.050598114898575020e+00,2.705133073461492899e+00,1.309796166984866506e-01
-8.139370010022522806e+00,-2.759396039167792747e+00,4.247086564914863693e+00
3.812262086252175664e+00,5.489245454547690528e+00,2.852310386613791326e+00
6.021505590595621626e+00,-3.130632961605548381e+00,-6.148733021665071519e+00
7.071350211424096699e+00,-2.897231133824118565e-01,-2.006875886163421274e+00
-5.969454135303108089e+00,2.732381805741121550e+00,2.596056493654022024e+00
-1.855582567442710884e+00,7.529942903971783785e+00,2.905922988887831959e+00
7.734870919417650370e+00,2.122990050119594407e+00,4.757182284047535070e+00
4.391773535194743339e+00,5.557033315128341755e+00,-2.504945231624786217e+00
1.033854199627637138e+00,6.794016095763387497e+00,-9.438493108976697687e-01
-7.170811593982967302e+00,-1.347078631801772453e+00,-6.925806464144046437e+00
-7.799155932651534506e+00,-2.178461498862136470e+00,-3.534638420531647007e+00
6.276343236864500241e+00,4.499042495887747073e+00,6.402910870927629006e+00
6.122463871282345593e+00,-2.034775861144059839e+00,4.106410519520450997e+00
6.868774443033837329e+00,4.467877461681241336e+00,3.150816205047696883e+00
2.082074510337906137e+00,-4.129613653254540218e+00,6.502841101961361225e+00
-3.014762801244668111e+00,-9.540241732847993816e-01,6.496619138552205186e+00
-4.514361398006822235e+00,-5.036370690964520058e+00,-5.854693457611154450e+00
-6.080416619708827852e+00,-4.509045498975730482e+00,-4.896494074400645324e+00
-4.533864584400117081e+00,7.110496759129590671e+00,5.776003203801991503e+00
-5.924060696288214675e-03,5.924384512949185222e+00,-6.400488107662948067e+00
7.447160810677621257e+00,4.276285341709966659e+00,5.483084666744926228e-01
5.245901583196354245e+00,5.372836253723241029e+00,-2.820726388149091601e+00
2.218605556332484241e+00,-2.313654888003280785e+00,-6.669248742638639982e+00
-4.278915788999126946e+00,-9.458063346050267217e-01,-6.729815762580783733e+00
2.268558540397376699e+00,-3.004354154303913838e+00,6.463002660535248189e+00
-3.117603542226503599e-01,7.147304566549128602e+00,-3.827848365471887560e-01
-2.691368206823139264e+00,-1.372294179884850029e+00,6.585071502710118985e+00
4.306015880357549008e+00,-7.563284562041344472e+00,-2.132715941457631992e+00
9.925399189818363554e-01,-7.029110657093488257e+00,-4.620361624452266724e+00
7.662363388035717371e+00,1.709249407408020227e+00,-1.104465544711423997e+00
5.459598807360351636e+00,-4.878838934568386243e+00,-3.055140608501798027e+00
-1.446246091329702166e+00,-6.555285888771228642e+00,-3.199212899559242818e-01
-7.323386310461491355e+00,-4.221174118777796025e+00,-6.640939253707532686e+00
1.050378719406615424e+00,-7.486615213182647111e+00,-2.532284092171139256e-01
5.406282391584793068e+00,-4.123870597849371045e+00,4.617080847740723470e+00
-1.452339859256827626e-01,5.463787988651437111e+00,-6.492278997151609943e+00
4.023908976186285180e+00,-8.060285083891811198e+00,4.082828391597815632e+00
7.255309696346986748e+00,4.296851542122078760e-01,6.329402922571107926e-01
2.744695519124784155e+00,2.354515747975053586e+00,6.842725161163742520e+00
-6.657952811653546021e+00,1.038253175819430441e+00,-2.859535215627381000e+00
-6.683893759895577880e+00,1.406546305421289444e+00,2.759446666727148223e+00
4.411868428503744610e+00,-5.570947527919071440e+00,6.578872216826004760e+00
6.524001029669278751e+00,-1.199440878512355813e+00,4.775605167561015385e+00
-6.067651189383629351e+00,2.715911784888156877e+00,5.944700586975602441e+00
5.228405039149973677e-01,7.055278932272104342e+00,-5.974798809125670296e+00
1.567116979954196188e+00,-7.773378315972006014e+00,4.353571286497248671e+00
3.466945989122319993e+00,-8.553513805725135200e+00,5.706196385476748567e+00
-6.564882128461108302e+00,-3.606042233585429191e+00,-6.970948428657893103e+00
-7.445748158952786966e+00,-4.462251307441461812e+00,4.324355156208701700e+00
2.713658768275470923e+00,-2.733144772398282019e+00,-6.659011446176162252e+00
7.938162737899981281e+00,2.751706700311934650e+00,1.502028128538636986e+00
3.588165831883514567e+00,5.544526757479085077e+00,5.822546661882817887e+00
2.927071359424121333e+00,-2.923902492014878618e+00,-6.665347454539214844e+00
3.378687144807144715e+00,-2.252758777612665408e+00,6.676164240020649565e+00
5.040759014956273099e+00,5.420156913126282561e+00,-2.668944148368244118e+00
-8.604665959442584722e+00,-4.134681155202992286e+00,4.433556087282450875e+00
-3.833882741664205174e+00,4.108912642359889844e+00,6.600429986590063081e+00
7.042781955185098752e+00,-7.793268062267641461e-03,1.160193283881426618e+00
5.467942186423366380e+00,2.963395950084106722e+00,6.990347194127029873e+00
5.496567434957862375e+00,-3.862450798366872551e+00,4.049311164403015972e+00
4.594072545283153453e+00,5.569056209463488116e+00,-6.220026904444584837e+00
-8.193177631899812852e+00,-3.288158395888303609e+00,3.616457073844998593e-01
6.458542491621514614e+00,-1.476891460391420496e+00,8.045327857062262861e-03
-3.729848774536629552e+00,7.615966869466457290e+00,-6.472132044222899339e+00
-4.741003533744398091e+00,-5.183703669903760414e+00,6.128884543765383164e+00
-7.753263178691455870e+00,-1.971887969916709560e+00,-5.121174595778743566e+00
1.978339423999181390e+00,1.396120785423092536e-01,-6.631157768972489208e+00
-4.747788370642725297e+00,6.192032681976388453e+00,-2.811886794315581639e+00
3.386323274660364202e+00,-8.451285674374290124e+00,3.276552989709188957e+00
1.229570510813691619e+00,3.088621145214081043e+00,-6.422858110717146296e+00
-2.661607100677441551e+00,-5.120459155694986997e+00,-6.915942608546924220e+00
-4.800467410839428517e+00,-5.414001512657019788e+00,3.520699622732901712e+00
-4.734171142688455625e+00,4.436539454062561560e+00,-6.674392778848073249e+00
-3.029245836775478651e+00,2.490870343848195390e+00,6.737003849289701307e+00
-5.648930644645427712e+00,-1.978546505754343210e+00,6.382210691313246365e+00
-5.587101669806090243e+00,-5.146416914684505350e+00,4.450304330359116101e+00
6.410576858222079899e+00,-1.830847741031883080e+00,8.163011772359743956e-01
-7.051735513791896004e+00,-2.584523005325229938e+00,-7.019809186780697097e+00
4.665537787354505639e+00,-6.149779405163321222e+00,5.165906492288234730e+00
-1.468656090375149548e+00,7.377518563363433479e+00,5.013383941660562115e+00
-2.570655942239764347e+00,7.154118364227900706e+00,6.920777471678964510e+00
7.985262599027040942e+00,3.933370336660214850e+00,4.964068024986344696e+00
-7.505111715328323108e+00,-8.619860733335517056e-01,5.367111253580782559e+00
-4.065032785110047620e+00,8.142920098494590420e+00,-3.443857661251302549e+00
-4.958873688430120552e+00,6.026748792732812277e+00,3.773024633349161938e+00
-6.798731717526444562e+00,-4.337606345571939137e+00,-6.436378801303576758e+00
-4.467267652473123185e+00,-5.326362278580660359e+00,-1.652132700939854759e+00
3.561495971448882525e+00,5.828124803057261438e+00,-1.041004842472795344e+00
-7.218728095456244276e+00,-3.145032802397688676e-01,1.727316168597214485e+00
-5.585359491270331489e+00,-5.365700777636186913e+00,6.154793028304323066e+00
-2.231372310713140461e+00,7.145126656289845890e+00,-6.473048513473289134e+00
6.467113520813803973e+00,2.759320886567337539e+00,6.898893579967414702e+00
-4.001322327560501435e+00,6.506857606508272163e+00,-6.690537845443752296e+00
3.930491599383176826e+00,5.912126398595768606e+00,-5.541059658036730617e+00
7.150885413066450091e+00,3.851350587795283192e-02,-5.128335122947853542e+00
4.445250351678360801e+00,5.142780176966249783e+00,5.207693498123330933e+00
-5.958355321853806785e+00,-4.764794022263120432e+00,-3.801311631050609652e+00
6.702622067485437540e-01,-6.960327870386763927e+00,-6.064069941432939537e+00
5.167683530587734886e+00,-5.477894283411418819e+00,-2.752952305418460699e-01
6.573013416361163097e-01,6.938878711711382152e+00,-3.386375707168719273e+00
6.313341251773069374e+00,-1.838401739254929446e+00,5.486810507016182115e+00
5.559317437412182983e+00,1.623541794284289130e+00,-6.354703852504692385e+00
3.296450173984836751e-01,6.637118441985216499e+00,6.496079061988035086e+00
7.721105579613643854e+00,1.755176745622824441e+00,1.398743871792101023e+00
-4.716977845841278771e+00,-5.453921996475134648e+00,3.851477558886212904e+00
-4.124054540810419667e+00,-5.559590038652054034e+00,-2.796929442205669414e+00
4.904317241964678331e+00,-5.692763181333489797e+00,-6.619864125116653453e-01
4.432568871516850528e+00,-6.972131983495780005e+00,2.853145315710599483e+00
-7.062110642818387518e+00,6.136469543921333619e-02,-4.492062766079752301e+00
-8.392001994834467737e+00,-3.564311899138546291e+00,-4.014494248308254853e+00
-5.495884057035098635e+00,4.481579203081255791e+00,2.293964121373824605e-01
3.942483589130932220e+00,-8.431604048169308641e+00,5.959881529310932180e+00
-8.432787920605207432e+00,-4.302581220092731584e+00,5.157652867152333620e+00
2.488987077001425074e+00,3.634751680962151177e+00,-6.461145644687162459e+00
-2.573375375822462896e+00,-6.193723850100763428e+00,3.641659830733038561e+00
-3.402765921091095880e+00,3.126579579254233021e+00,-6.451814976796772072e+00
2.362727230359461750e+00,6.356504071245463017e+00,-4.038873034190200606e+00
8.321065085060629585e+00,3.706469639655206372e+00,6.038505869478836274e+00
5.792299942579381522e+00,-3.429294905523490922e+00,-2.637321847237291905e+00
8.294495939700476939e+00,3.687382297216569960e+00,-6.587682438963439191e-01
5.387985613801138385e+00,-4.662104085850409696e+00,-4.975372363341326043e+00
8.128425207465367563e+00,2.773638587063308236e+00,-4.918644558802363065e+00
4.056358955135196176e+00,5.660570643411529268e+00,-1.413050656996467813e+00
3.870436386692575947e+00,3.486655398788388593e-01,-6.509439679651465305e+00
-5.929713623010600010e+00,-5.121798512382198076e+00,3.416313349448528935e+00
4.391593095054587614e+00,-7.059278941103243277e+00,5.177431441880132823e+00
-6.273526063056402258e+00,-3.894803804991235907e+00,-6.879869045850796283e+00
7.722044767867762616e+00,1.668135805990145215e+00,-4.052064492877316404e+00
-2.408783148003151631e+00,7.559166460898627982e+00,-6.359111896252877649e+00
-9.566557236545480958e-01,-6.997355427889552004e+00,4.103253289378491431e+00
7.728946564946758357e+00,2.055932050323485694e+00,-2.772860160856855938e-01
7.661044670319874239e-01,-2.570942436622139393e+00,-6.689868260334021599e+00
-5.044074938994552504e+00,5.939988040513632939e+00,6.516427968843888863e+00
-1.455531859027259678e+00,7.662513599893346239e+00,-2.512830563584530275e+00
4.595360231776173698e+00,-1.198178064675826437e+00,6.787667783983460268e+00
7.241883812927269126e+00,4.785686545687570792e+00,-5.378727139054499951e+00
5.765400807182704312e+00,4.758070627108531347e+00,3.804356564129074414e+00
4.440632862290657457e+00,5.081650859323094238e+00,6.741540876582845065e+00
-7.878681829405921100e+00,-4.004299012783675060e+00,-2.672957377676882018e+00
8.109128548535847969e+00,3.263753214748988274e+00,1.885463816742543708e+00
3.354728511425374649e+00,-8.226197929977095313e+00,9.591492960081057229e-01
-1.156342053387702906e+00,-1.116893393264964729e+00,-6.812320845420144266e+00
-4.256847624736550095e+00,-5.786530419657904822e+00,5.695980273514789971e+00
6.631136353722143717e+00,4.514572845783672683e+00,2.835353552376069786e+00
7.953742486021321945e+00,2.484196582284314392e+00,1.689807563885348030e+00
-6.459523153450085431e+00,1.010881170952433683e+00,-5.193860144541761592e+00
-2.571070468669319209e-01,-6.849225200400346658e+00,-1.886397671864048053e+00
-3.848882829901732472e-01,-7.147957069397460117e+00,5.151990508159917326e+00
6.095084294326128749e+00,-2.504942626918625237e+00,-3.949068729219229468e+00
-4.419562637017006246e+00,7.317063096027425217e+00,-3.923008518009548640e-01
-1.522272635323307366e+00,-3.301035785164519787e+00,-6.826559413691385636e+00
7.208249094493470288e+00,4.190237545074634085e+00,5.345107581283680354e+00
7.478398331824810619e+00,4.095742326009975898e+00,4.841424576491665022e+00
-2.958620098417445998e+00,-6.000044025979486051e+00,7.045229813760006676e-01
7.613273518129533457e+00,4.536523903093908849e+00,-4.353872632662718622e+00
8.335607223775548746e+00,3.779728604144676485e+00,4.313962900383269350e+00
-5.784225521811934279e+00,3.770644767775408024e+00,6.431938746882815749e+00
-1.284149485009394631e+00,7.366581823269950036e+00,3.053843382536563400e+00
-2.738860755494763932e+00,-7.469541517506473882e-01,6.576918675205452480e+00
-6.804839217525264772e+00,-2.198818714793715490e+00,6.336551119506363960e+00
5.488752507874730568e+00,-4.065284927245732760e+00,6.478598812485095948e+00
5.570405650733494696e+00,-3.969354601542189886e+00,-5.674624547823939658e+00
-1.786503007890926920e-01,-6.732503105647793973e+00,-4.813656454046300937e+00
2.671214501237629824e-01,-6.792997968943780940e+00,-6.130601133395339630e+00
3.244225826869229667e+00,5.676221704283176628e+00,5.622304859615534056e+00
-5.354325020254372625e+00,5.138173378601757157e+00,4.205700704623916764e+00
2.089568682751259399e+00,-7.637745389707173871e+00,-5.021388466581742982e+00
-1.335781519615536705e+00,-6.497943567160640477e+00,-4.621649057097572677e-01
4.130313468878738653e-02,-7.288577243293953956e+00,4.896444139880511415e+00
2.092243089001537548e+00,6.508694112122142883e+00,-3.690944431512316992e+00
3.460507316797681199e+00,5.635031711214709915e+00,1.008762094988425506e+00
1.110227497463951218e+00,-7.681177886606294969e+00,3.914961682777560625e+00
8.475592431087539680e+00,3.946493604877895134e+00,-5.720298584898166894e+00
-3.531562830997749813e-01,-6.895822220316264684e+00,2.161152264534164313e+00
-1.283455053844515248e-01,7.106752519326192896e+00,-5.789237799184593358e-02
-5.103978535268592687e+00,5.646685843345338185e+00,3.252639823551849663e+00
8.192203326131346941e+00,3.211268822003616297e+00,3.541003849830911765e+00
-6.865940496623929690e+00,-1.805750990553057100e+00,-6.895920260092078813e+00
-5.569347064636885891e-01,4.555940828071829429e+00,6.765625153209095188e+00
6.838645577162488109e+00,2.565678279211047741e+00,-6.301836121911422062e+00
-6.734974952904527967e+00,-3.503385333246979538e+00,6.267598856022298826e+00
-5.630177478199498431e+00,-3.031279775121142883e+00,-6.857569573264889584e+00
-3.256108067526120031e+00,1.282212293569261252e+00,6.586245526047400212e+00
4.344945587207998727e+00,-7.580638016354744657e+00,3.562456437536542175e+00
-8.567884068167138878e+00,-4.193226642337803511e+00,3.909375679370494350e+00
5.765562543441841825e+00,-3.222071339156754810e+00,3.653835910929056130e+00
-7.421612866517772744e+00,-1.391550664154482142e+00,-2.462188567309542719e+00
4.523649514128091909e+00,-5.807218578039516910e-01,6.711611300928644219e+00
9.670200842728436941e-01,-7.510622531165888738e+00,1.231845423386733751e+00
-6.328892928551347552e+00,2.202876586579096241e+00,4.420787094908709136e+00
-6.880113801469764923e+00,5.419338650547693703e-01,4.023169994656112358e+00
-1.879367016958996883e+00,-5.964773096264561758e+00,6.257652291865506200e+00
4.467179451098559184e+00,-6.852941104582551901e+00,2.435250475418205163e+00
7.573237766687205941e+00,1.626962610953490929e+00,5.275367698428400587e+00
-2.374016910571142169e+00,6.511277129332354363e+00,-6.447582652632238620e+00
4.790719878744712723e+00,4.716038809613348093e+00,-6.346672925829126122e+00
4.233527722863533072e+00,-1.531399649294101106e+00,-6.509524658818815368e+00
4.295300719694806757e-01,-1.096213475837047202e+00,6.602471240699006039e+00
-7.112163321139032490e+00,-5.258030939000370996e-01,-6.346285374974575788e+00
-7.367877870364365478e+00,-7.682189170991742255e-01,1.875756029383848666e+00
-2.749003160223675857e-01,6.843320894973848212e+00,-6.273071607377511683e+00
4.219817438369240392e+00,-5.116953686576643179e+00,6.567890676072161149e+00
-6.625702655972527388e+00,-4.447304510983888015e+00,-4.622578782046918633e+00
-3.652264337460543686e+00,-5.580400414505477080e+00,-2.107395144759804051e+00
-2.787763319469418022e+00,-6.076786605715538414e+00,6.435050177514645142e+00
4.182578632505735250e+00,5.261025116961944192e+00,5.127451088535440071e+00
-7.503153859176103779e+00,-1.092693738619531230e+00,3.986786667761057945e+00
8.147302978801306494e+00,3.338352222405178260e+00,-5.655396325820259307e+00
5.221237404205860244e+00,-2.486953202562638410e+00,-6.579791854088721692e+00
7.767322774682937359e-02,-6.817038360105966532e+00,-5.248057264297138147e+00
-3.316055965503062808e+00,8.435899813479315057e+00,-3.661764963649106974e+00
2.092350739290695927e+00,6.348798873959909272e+00,-1.549938156906449205e+00
-7.031516869090027377e+00,-3.340487798692301502e-01,-3.953944363195468714e+00
-7.655732960523023323e+00,-2.261609717583729751e+00,-1.154199698476572111e+00
5.673425728657950806e+00,4.029655299864499440e+00,-6.324458602357661441e+00
-3.498697734323165776e+00,8.045818219179910358e+00,4.908209451928016165e+00
2.790600660378832920e+00,1.675668966891953549e+00,6.827878851613280453e+00
-2.279239077063516916e+00,-5.987278804749898597e+00,-6.685291062476213853e+00
1.931605401551563350e+00,3.029419074401225043e+00,-6.420289150383758248e+00
-4.076765416782577311e+00,8.176886999949109835e+00,4.741508596159903277e+00
-6.218523548891752739e+00,2.556531616180035105e+00,4.213074735895234735e-01
4.329339696056018760e-01,-7.448407162052714803e+00,4.513265003235921391e+00
-7.370462561634935739e+00,-4.265660277436314374e+00,-1.129716987595514199e+00
-4.873823100418152698e+00,-5.152983153404045780e+00,-2.648737031316644952e+00
7.947074475445437436e+00,4.396549083792782753e+00,-3.341174061518008109e+00
4.823980722923096209e+00,-6.387830771698480348e+00,-5.425240734842559753e+00
-6.758638923399789000e+00,8.232787330346912347e-01,5.411998371746319592e+00
-7.100941476664795360e+00,-5.297460780380057743e-01,6.548485093350008057e+00
8.256284264246756877e+00,3.433237406962919014e+00,-3.256492742117965022e+00
-7.612889004186548902e+00,-1.421965524265756731e+00,1.795003972822950100e+00
-4.079134094363491947e+00,-5.524956305456553807e+00,1.164303752820531300e-02
7.170519387552387158e+00,3.332030960868700209e+00,-6.424110215913406030e+00
-7.278630433005032430e+00,-4.564423537798074193e+00,1.518464805337978785e+00
-6.606840767559792660e+00,-4.332288093075567836e+00,-6.506564770524128072e+00
5.577961997511524217e+00,5.032859440243550253e+00,3.077796605068705560e-01
-6.344534607086003142e+00,5.779400120346427361e-01,6.501682942742500693e+00
5.145952623929854752e+00,-2.074283538903477719e+00,6.683414068533997998e+00
-3.498710030295577589e+00,-5.889107218327446880e+00,4.870734156770593515e+00
7.003509632000804785e+00,-9.057719834763923450e-02,3.912624332224062584e+00
-7.645765481995496771e+00,-3.110431220002592756e+00,-7.033253324440231324e+00
-4.435474234999051468e+00,-5.292936746323514186e+00,-4.526820207027486553e+00
6.619028802076285523e+00,3.030565816488418385e+00,-6.433468317048682827e+00
1.720633947193469293e+00,-6.878680027656801421e+00,6.500725972339466807e+00
-4.942064789478563647e+00,6.144550915818309811e+00,2.315822207687503909e+00
-4.982531518388594094e+00,5.399569858978916947e+00,-1.136511465647807029e+00
4.166049629727846870e+00,5.680710546724874632e+00,-1.106931350807331738e+00
-3.340500603690861769e+00,1.129229021860611359e+00,-6.754362523520810235e+00
-2.665841855928907211e+00,3.899759536874987553e+00,-6.529164412570096054e+00
1.701916578272545610e+00,-7.717053169181155248e+00,2.055254935501223290e+00
-4.232939341504385888e-01,-1.566406090072257395e+00,6.569122665169116360e+00
5.273856723374181321e+00,-5.175962805798445032e+00,-5.670590215564212500e+00
-3.163055735990714989e+00,5.143664027854134346e+00,-6.519926822986509052e+00
-5.672304159214734298e+00,1.857304615605102960e+00,6.507887187693189190e+00
2.358878116037529171e+00,-6.473009722890920692e+00,6.425290132757773165e+00
6.308325414934174091e+00,-1.680852041106703387e+00,2.237763771616152031e+00
4.118730769798474967e+00,5.506704336612400219e+00,-8.067696854326228406e-02
8.362974768692390981e+00,3.872211405785641603e+00,3.058033624727703792e+00
1.170345939306378646e+00,6.683899329702293279e+00,-3.472894399570228274e-01
2.694207071708447643e-01,6.836113604256534693e+00,1.605840388414209174e-01
7.953006692111907583e+00,2.402475201710981167e+00,2.267984289920729424e+00
-7.199779632291129161e+00,-4.569106656020890944e-01,2.065507875321882292e+00
-8.481922469556366195e+00,-3.686618276749664247e+00,5.816872739081555110e+00
-2.109905859589022104e+00,-3.470238558680569518e+00,-6.802172507046089223e+00
1.561523203148274419e+00,6.590545654745445070e+00,-2.891786505085490511e+00
-1.016655591463176078e+00,7.413783552090706941e+00,7.741743803985364769e-01
-3.933625375458624340e+00,-5.823297959705274529e+00,3.620344510610016719e+00
6.674268861713312795e+00,-9.611272085698877587e-01,6.789787785336116599e-01
-5.648452005055767167e+00,-5.044733094872391632e+00,-1.978213189617814782e+00
-4.022555739590116808e+00,8.362449666816326399e+00,-2.863738697223836560e+00
-1.962730252349605964e+00,1.683827873111131135e+00,-6.672144677543306202e+00
4.998740948405307805e+00,-4.698590130258174291e+00,-6.736728753174983098e+00
3.708225027495104964e+00,-4.824442253970842032e+00,-6.823920748202167097e+00
-2.430307108079165168e+00,-5.795483507720150529e-01,6.477672999844149793e+00
-6.739696335452709519e-01,4.860201986012036457e+00,-6.367967134236828031e+00
-5.861503790906180456e+00,-4.738720192005269283e+00,-1.563684623339210322e+00
-3.238918303149245670e+00,8.541501302521254502e+00,-4.336800201933053600e+00
-8.514005307472086059e+00,-4.070562139559314119e+00,4.276072023756881890e+00
-1.717099240605533206e+00,7.718334668317691438e+00,-1.354873835458259901e+00
-8.067394145469743094e+00,-2.545155228241717360e+00,6.223282636195007989e+00
3.427145201162707711e+00,-2.629497250278454157e+00,6.657962785380826531e+00
6.439994808024295025e+00,6.508806616074503948e-01,6.930458979506203931e+00
4.455280285940940388e+00,5.121036346527197303e+00,4.330913413134596546e+00
4.466169558438961573e+00,-4.153115968464929253e+00,6.632479226188006116e+00
7.662648928445392471e+00,4.278188972915557109e+00,-2.650889185352269251e-01
-1.152839121710163423e-01,-3.001271884009900415e+00,6.491619364744841469e+00
3.136413701493312001e+00,-1.559209311839281353e+00,-6.690558173711527168e+00
-4.307081550963950956e-02,4.267657986950091242e+00,6.723156500303177019e+00
-9.700572268665982323e-01,-4.239813247985678046e+00,6.399660004831000393e+00
3.132455061073434965e+00,-7.845106349013063252e+00,-5.513497030828866663e+00
4.408885625498293770e+00,-7.398043682181936198e+00,4.004639200475170746e+00
1.454016746946292571e+00,6.148242815264665317e+00,4.596541384598071822e+00
-8.186832219263534327e+00,-2.551164923041562727e+00,5.060094911444157795e+00
4.321091179961242368e+00,-7.195023319997112310e+00,4.272064331127244152e+00
-6.602304952084304013e+00,-4.673330104294592502e+00,-9.698656325400273337e-01
-3.877555865851554540e+00,7.765349608971403583e+00,6.790816685087194493e+00
-6.339820006216212889e+00,1.928948722177245001e+00,-4.205738853929319454e-01
3.941085157726162969e+00,4.261947263868159474e+00,6.926033713718467766e+00
-2.831239004430675443e+00,-6.022990164645382727e+00,-4.525314130670786694e-01
-3.833893566353590909e+00,8.398595425133636994e+00,2.748944286056906439e+00
-3.951481679676932535e-01,7.504574965267265085e+00,-4.206392253955548277e+00
-1.959488689026124941e+00,4.244686816511213934e+00,6.811444084443400548e+00
2.219824337781667989e+00,-3.418604636796969687e-01,6.594968497482643244e+00
5.520070323242225463e+00,-4.381449578299458913e+00,-3.410944559457384617e+00
6.730909128660305996e+00,4.560968035426330225e+00,3.137687134705530845e+00
-2.888438744603591513e+00,8.037144344663246898e+00,-5.932684830763513412e-02
4.487670285324507069e-01,6.675612443625642101e+00,4.070507374238871989e+00
-4.460960901239856558e-01,6.158722854963152749e+00,6.799999311686594439e+00
1.137472003457714154e+00,2.244866867846433856e+00,-6.455209212126581164e+00
-7.469737507036954938e+00,-4.121827737680712644e+00,-4.428793078997563804e+00
-3.614340087522253331e+00,-8.904038826276819418e-02,-6.674708116242578981e+00
-6.684431918474622591e+00,9.470697549577649088e-01,5.133176332371300887e+00
-5.945250780266851720e+00,-4.787262446822971640e+00,-1.587106793429789775e+00
1.991402053350601387e+00,6.441759413386583866e+00,4.171437489595302139e-01
2.310963631265914309e+00,2.684667165637920849e+00,6.789558447537594965e+00
5.299272032940195665e+00,4.942537255666344720e+00,4.829804010988087093e+00
3.097922900305800198e+00,5.859706130093915277e+00,-6.311532144983446280e+00
-4.716734287055878383e+00,-3.382532530867082166e+00,-6.968544343768931171e+00
2.574989728532002253e-01,3.444163249698950935e+00,-6.523256075545213584e+00
-3.424555269944185909e+00,4.195821390079360391e+00,-6.477583781222667980e+00
3.363019787100698821e+00,-7.421391266580090296e+00,6.477335324619410528e+00
3.563877440917002648e+00,5.506652875381182533e+00,6.062130686745031305e+00
6.673556967940427853e+00,-8.176930334009853141e-01,-3.227623814183347317e+00
-7.308576919721454956e+00,-4.147243521830486834e+00,-6.234712894467381972e+00
3.671997946593066331e-01,-4.911421721703284504e+00,-6.742610878840348043e+00
-5.124921680595158513e+00,5.088257234685706898e+00,-1.491175264491517494e+00
-7.684659688494896557e+00,-1.550760441605788742e+00,4.168023980180810106e+00
-4.622878181422560573e+00,6.966979951440745111e+00,3.781595355870512876e+00
-4.630905502991852885e+00,7.153272400258948949e+00,6.308442942523788233e+00
7.797968562554961736e+00,2.659817452993462616e+00,5.147561484026534906e+00
6.348682453012617799e+00,-1.362394842907753256e+00,2.624598143101880332e+00
2.704788010257340503e+00,-7.701686136563727914e+00,-6.010427866142342701e+00
-2.455262879443390833e+00,-3.272871040524274466e-01,6.563222540723172571e+00
-5.837724581465149498e+00,2.141911243144442700e+00,-6.789349588093108956e+00
5.416476991236359062e+00,-3.996719723170895300e+00,-6.575681458432126369e+00
2.563518768380530499e+00,-8.193975568751760363e+00,6.052287949195178207e+00
-7.779416156257225268e+00,-2.046580240634729986e+00,-3.943807134667139280e+00
2.810528699374606365e+00,6.152833708345821329e+00,-4.210976194279539619e+00
-4.854871750236840811e+00,6.251385711930346645e+00,-2.027052350410019965e+00
-2.738354743102985989e+00,8.224181930372745697e+00,-4.406904214182682189e+00
-6.505967667921042086e+00,1.254549539460131591e+00,-4.436828142171325595e+00
-1.946090106057990210e-01,7.410769335392876300e+00,-5.884732561217045799e+00
-6.247045590338678345e+00,-5.041889853910727304e+00,5.325690400461879470e+00
5.931651945625063149e+00,-2.137676262765812574e+00,-6.512487534560175817e+00
-6.548932354951992885e+00,1.058850701371864877e+00,-2.020106652965980576e+00
-4.398743171130797824e-01,-4.574482360446548768e+00,6.543136370541795976e+00
-4.946553661762520093e+00,-9.042935105741818635e-02,-6.812683516848492715e+00
-1.760030383092505035e+00,-5.670753033731799064e+00,-6.849584161356327527e+00
-2.329951943398925973e+00,8.079176977020988915e+00,-5.681389672664195700e+00
5.304903437363339691e+00,-4.813745559906957183e+00,-6.672449438445035241e+00
5.927411179827904775e+00,-3.107475511068698015e+00,3.393054177268018723e+00
9.074579998388201951e-02,-4.715696331470990987e-01,-6.527944558632061245e+00
2.779429943554353688e+00,-4.930467778014116398e+00,6.559895631556609708e+00
-3.107894943864536241e+00,-1.375380475434515581e+00,-6.891539392475896975e+00
4.371477261162213246e+00,-7.295047154499716413e+00,5.051579224911746380e+00
-1.650579420332118019e+00,3.496307801017326078e+00,6.766378323202741463e+00
-8.189169067481509856e+00,-3.058735379296956935e+00,6.275282437622361265e+00
-1.611611225813839310e+00,-6.319969215595492074e+00,-5.308429496383515911e+00
1.124863175049130914e+00,-6.913403954682649122e+00,-6.767306333773191795e+00
1.301108623895257110e-01,-7.211832752506055044e+00,-3.501004454834926727e-01
-4.856876133399209650e+00,-2.132157971117839335e+00,6.302223672460709025e+00
1.056400738819751828e+00,6.464131274255351833e+00,3.219698739830755496e+00
5.582393169114401310e+00,1.997144439859279030e+00,6.935087032711067856e+00
-6.990878324511054842e+00,-4.723837744548604611e+00,4.047627238251194193e+00
-3.367277964643589527e+00,-5.903274183609685810e-01,-6.863252320276252760e+00
-5.168960868654977503e+00,5.279311809346268980e+00,4.041471534280810296e+00
-4.660792644389097461e+00,6.160058360576011083e+00,-5.713781696090823203e+00
-1.787948470307078930e+00,7.852627195912819325e+00,-2.247221331622715201e+00
5.681919615040032845e+00,5.023971557966843804e+00,-5.891315079731336279e-01
-4.692208983978463088e+00,6.375923573502373820e+00,2.558138232017494573e+00
8.425463814909381455e+00,4.010535029647564365e+00,-1.779360691881345657e-01
-8.320723107514748085e-01,7.599076811506209062e+00,-5.136178911509414746e+00
