-5.504690899984229446e+00,3.776043916955408086e+00,7.449488634371103757e+00
-1.043260829705533510e+01,-1.386363749210104634e+00,-4.723892108342162111e+00
4.859448183262317755e+00,7.043399886628204598e+00,-9.974007690982372054e+00
9.244105377917867017e+00,-6.911523464053912491e-01,-4.300507000666129009e+00
-4.479722161894475363e+00,6.574080091753111255e+00,-5.465988007759839284e+00
-9.559466078679369261e+00,-1.540940843634509339e+00,4.257981793321128805e+00
-4.866265853243748829e+00,7.201100261035892736e+00,7.547915467090779096e+00
-8.370153440681670887e+00,4.034141004292290944e+00,4.038779088038502607e+00
-1.517775276684227848e+00,-3.337441991538169644e-02,-1.576645103805361714e+01
1.866418692980310157e+00,1.357964092783210575e+01,9.898542642988715778e-01
-1.352417520271272489e+00,-6.937934836635725411e+00,8.331841815757440983e+00
9.299212062899075093e+00,1.170038403951547679e+01,-5.744048465009486293e+00
-6.124722381911082536e+00,-5.931243396878567609e+00,9.699254966163794123e+00
-5.243249468910040179e+00,-1.306897415183196909e+00,-1.050165600336201699e+01
6.754045930249960250e+00,-1.215438545372177437e+01,-3.600535397241296565e+00
-2.430661072674501266e+00,-1.055394059869469103e+00,-1.381483515421561492e+01
-4.324425104397906949e+00,-6.869667622445030375e-01,9.999088414643505729e+00
-8.586182122609848477e+00,9.794427959776037085e+00,1.047241348246976012e+00
-7.672244466536743523e+00,-1.148750573146806619e+00,6.513258073390048253e+00
9.877684992746619486e+00,-3.723616039613995010e+00,7.224522687477338501e+00
-1.358567490119469978e+00,-4.696312636262991308e-02,1.360798757843162576e+01
6.613111168157965736e+00,-5.814335021064472642e+00,6.073149464572334288e+00
-3.053744097788820278e-01,-4.923899243311843144e+00,-1.210304613107639682e+01
-6.237148573251181105e+00,8.293698632673081050e+00,-2.804418892075242642e+00
-2.218068010140024082e-01,-1.254641809658451201e+01,-2.025675733512670718e-01
1.551527391487492080e+00,1.309455059175939295e+00,1.481522501922639812e+01
-2.764030410545364802e+00,9.143434524587100043e+00,9.490696438681004210e+00
6.951427285925414479e-01,-1.054977077803257934e+01,2.121915132867944198e+00
-1.387955737132686451e+01,-1.429686396996804776e+00,-6.539999296354436220e-01
-4.363879442267315056e+00,-5.612319611071885817e+00,-6.691129729634573309e+00
3.395014702163233533e+00,-1.118746207052988950e+01,-8.288735219655940512e+00
5.875916126060764633e+00,9.080281068543449408e+00,1.507162097720220251e+00
8.799496830347341980e-01,-2.421245785148579799e+00,-1.351927371760816854e+01
-1.160892084242846600e+01,-1.200226764261257628e+00,1.905737550569044370e+00
-1.614651220403182208e+00,1.192050949804093873e+00,1.286969363775724240e+01
2.645613452279543587e+00,1.244070556490041923e+01,-1.035261383866693974e+00
-1.413611289077792765e+00,6.921542177590441547e+00,1.163374184508269771e+01
-2.789560644176686921e+00,1.999608037543371353e+00,1.158076977845901645e+01
-1.017924155761408400e+01,-9.461511597404055618e-02,-6.223044715240173552e+00
-8.510095158601629350e+00,9.596084939989609097e+00,2.478136591497873020e+00
-3.692969800063087948e+00,7.504334417478122354e+00,8.594439149295524771e+00
-1.009351681371500753e+01,5.687584113564310151e+00,1.822548242395414464e+00
-9.745301768672476328e+00,-3.413703547373447833e+00,-3.405336000061577995e+00
1.317489197088109698e+01,3.113696655944144354e+00,-2.710801549432435564e-01
1.123713986636252393e+01,6.506555286261691329e+00,-1.763263747647172863e+00
-6.911311896125630128e+00,4.153408238068588609e+00,5.646477328735955759e+00
-2.630887227601033995e+00,1.148728147093143015e+01,7.774938320008091708e+00
-8.565801999179290860e+00,3.532509082541533951e-01,4.884703299070209503e+00
9.671536816023067473e+00,1.953700247888880082e+00,4.825888859221624472e+00
1.423434589310536325e+01,-4.760809522801762839e+00,3.466562952841530265e+00
-7.441243973009822099e+00,-1.000045943354781564e+01,6.822414417120065799e+00
-7.355323278655259145e+00,3.976168311998785843e+00,5.223147547500929022e+00
-4.703370711372439672e+00,-1.267021709236352223e+01,1.717783908939589876e+00
8.351087983959806227e-01,1.286513111812333854e+00,1.565437582749822631e+01
-8.528438669585392873e+00,-4.912497691725756788e+00,-3.268026794591408546e+00
1.093153089247979004e+01,1.188474571423551396e+00,4.608088696629194736e+00
8.774088889793864254e+00,2.865810577669773096e+00,5.235114633237260229e+00
1.188650769543031238e+01,-5.216499513668892085e+00,-5.734336306467336351e-03
-7.241982376686380896e+00,7.844328239388375090e-01,6.795171178256727451e+00
9.824090232654723920e+00,9.037250794484673833e+00,-2.916104620754282006e+00
7.520136152869740798e+00,-6.114940754610620921e+00,-4.535412934094560811e+00
7.387128664859058169e+00,1.208337477568821150e+01,-3.196788327537241514e+00
1.126389596929392489e+01,7.498514520630927827e+00,-2.723169025923641406e+00
-6.855604278990742095e+00,-1.148041732155719963e+01,2.201459067089970301e+00
2.522366985077303170e+00,9.302509762624401546e+00,-5.633941486006145638e+00
-6.716544583745128527e+00,5.806058676829341181e+00,-5.542639855345841582e+00
2.090932443430327137e+00,3.930332911290985720e+00,-1.315450466461250301e+01
1.234202990814821099e+01,2.911088140268327962e+00,-1.194247622790893359e+00
-8.896410707708781729e-01,2.173360896198821557e+00,1.350447935347978934e+01
4.543760529235835399e+00,-1.071942493029045984e+01,-8.161079586970694522e-02
-2.159604090912251806e+00,7.798391907867505246e+00,-5.572181373886920142e+00
9.590405375235372176e+00,-8.236096782199483712e+00,9.587599539299033191e-01
6.745381649582001593e+00,-1.127110701532362214e+01,-4.014183495349540998e+00
8.359504498033320630e+00,1.140910621429163996e+01,-3.868373602495422059e+00
3.366735942315196795e+00,-1.170881997360311289e+01,-7.833448917588971661e+00
1.238334333617469696e+01,5.048973748461984989e+00,-1.725872167969301652e+00
-3.760575002911745290e+00,-6.610063731015527466e+00,-6.239806297260589218e+00
6.746774040867032696e+00,6.215709822966377196e+00,3.328097378058629374e+00
5.213038879363420364e+00,1.256853817091382908e+01,-2.200647148901645700e+00
7.545819119911827855e+00,4.409574946254489980e+00,4.833442753804479075e+00
-5.178131292546759745e+00,-1.037276808092054203e+01,5.544169905973983070e+00
7.479471286091918358e+00,-2.709054026816052563e+00,-5.572366335940952986e+00
-7.881485506940853369e+00,5.320841442645646069e+00,-6.137264312683291756e+00
4.520454302324574236e+00,3.981039266433464618e+00,-1.080845936962706588e+01
-8.055336057703129882e+00,1.059841714970561455e+01,2.130449999760491764e+00
-2.613788948832909576e+00,1.423517183308479694e+01,5.338751387880036781e+00
-1.174504505252309450e+01,3.476702974851079375e+00,2.907252444174073802e-01
6.130189735092332448e+00,1.288502513216527534e+00,-8.006927690842427836e+00
3.341762359588127396e+00,-7.174345576903681798e-02,-1.110456422863201986e+01
-2.243824139074763746e+00,-9.586457447786179031e+00,4.782209443345560196e+00
-6.268436010465944230e-01,2.272455413504526511e+00,1.388697125799768983e+01
-5.221434218422508877e+00,-5.991163961179021058e+00,-5.487904691128428603e+00
-4.772192802755896857e+00,9.727387359842001757e+00,-1.315875991799024591e+00
3.999455458165225963e+00,4.964245469065574623e-01,1.292021193340768015e+01
-1.130945764233259432e+01,-7.394482755195513235e+00,2.471030405255361551e+00
-1.050618025862904936e+01,-7.372838433524086632e+00,2.051533377880106368e+00
-2.107929684288393446e+00,-2.094991743807645523e+00,-1.341450544239308762e+01
8.753981474041394151e+00,3.551515931030936990e+00,4.150316924896303661e+00
1.691819305564967291e+00,-4.146283322953341788e+00,1.066010945317451863e+01
-9.236137720359767656e+00,-5.656784050351710391e+00,5.668365108226723237e+00
4.940869735284248776e+00,-6.929878159159038375e+00,-7.403635532521469997e+00
9.267682119868165813e-01,-1.235977803170752454e+00,1.547749286416707903e+01
1.064505291162958001e+00,-1.106286762471259877e+01,-6.812872810229603004e+00
7.809961310721733607e-01,-6.421298103448358496e+00,-1.147127073383020779e+01
-2.267012449482211700e+00,-1.251992098363760064e+01,-1.769376284615661543e+00
1.012359111264384204e+01,8.736085040016110526e+00,-5.378492174243803881e+00
-5.533220595494878324e+00,4.442339451385264315e-01,-1.217019778170173616e+01
1.086316005390978212e+01,-5.767674258826660960e+00,-6.281079807032217133e-01
6.163122636877567118e+00,1.224808883699800610e+01,-3.425331235625268977e+00
-3.206132280930460987e-01,1.108908270488377035e+01,-1.595142054253730901e+00
-3.926370825620540739e+00,-8.472736943439102220e+00,-4.376931960111792641e+00
9.290095313199271843e+00,-7.389471448326601077e+00,1.871627592056832157e+00
9.256280571563916482e+00,7.387687817591000794e+00,-6.848733552222781018e-01
1.180997257667329059e+01,-2.947725665892639402e+00,7.084087265109210385e+00
-7.236909930522334555e+00,1.166645908512151131e+01,2.779767215446639739e+00
-8.299199874430557955e+00,-8.661409936797740627e+00,9.152326700268491599e-01
7.459850583644334954e+00,1.091861628342897816e+01,-2.231162609204487168e+00
1.257078339821524082e+01,-5.337370442111979418e-01,-1.445808408445740378e-01
6.164387691874486208e+00,4.967399423247853107e+00,-9.113649600759574199e+00
3.727373758270944304e+00,9.320741881100529369e+00,-6.221468525123964532e+00
7.171431493840167981e-01,1.196657590937279281e+01,3.760724677198024057e+00
-1.053677343722457582e+00,7.978053592365593971e+00,-5.586184094245153275e+00
7.958693468571154561e+00,-2.926120997103411892e+00,9.455683792811496957e+00
-7.143225826853043081e+00,-2.563336487178219159e+00,7.295424893446448067e+00
1.095013081574016489e+01,-3.239945804832504717e+00,7.015217215131131390e+00
-6.501241394596374512e+00,-3.463089192831177332e+00,8.601836038025188813e+00
-4.651545465998109918e+00,-1.223970439666136056e-01,9.730143273505355239e+00
5.405688788955604451e+00,-1.164696218240835179e+01,-5.419992902598698592e+00
-1.346205148693246123e+01,4.620646908974350708e+00,-3.603441627202407016e+00
-1.169523029145357640e+01,2.748344351171762678e+00,-7.167493657648646099e+00
-8.863569352277572477e+00,-1.348709535082513455e-01,-7.792245485295151930e+00
-2.780063530842137975e+00,5.452056069236896008e+00,1.056527758654056548e+01
7.526966807663815651e+00,-8.321043736429125204e+00,-3.761638576087687369e+00
-6.915495292942518191e+00,9.727494409510533124e-01,-1.132839536524784485e+01
9.370688797308881490e+00,2.160338575826592222e-01,7.077254466873441174e+00
5.141066765082539014e+00,-9.396552799100332365e+00,1.567823443338681511e+00
3.570966899898249558e+00,-9.192439123355489627e+00,-8.419450626976200169e+00
-1.078027800373651424e+01,6.143713618515376673e+00,6.572062616559039006e-01
-1.569299569729811994e+00,-3.584863366791168016e+00,1.329329380350134748e+01
5.718115462458898790e+00,-5.671648211252080074e+00,6.343037819564553814e+00
-5.342351875095666891e+00,5.325320049913138121e+00,-7.425309142498756287e+00
-1.085602796568629458e+01,-2.320772373180388648e+00,-3.446304665038368409e+00
-5.404149326263437914e+00,5.407114735489022550e+00,7.087090378360264786e+00
1.166532063250464013e+01,7.647944690168196225e+00,-3.219174501967351887e+00
-3.264533147912273559e-01,1.747003420377565064e+00,1.417833974990272061e+01
-1.499896132395601434e-01,-1.159318982057979142e+01,-5.012653696428239769e+00
1.449519821292955157e+01,-1.751707639251097071e+00,3.745613132488976316e+00
-9.876553444155327099e+00,7.160257466293375117e+00,-2.135568750711393626e+00
-6.493392890541054285e+00,2.373378972119304375e+00,6.749384235062061421e+00
-9.189016784691524720e+00,2.909233533593266419e+00,3.517294590030910939e+00
-1.123572819537456269e+01,3.921409697274349071e+00,-6.068188574671773416e+00
8.345358370806536641e+00,7.422800460389090915e+00,5.149747954915272485e-01
-1.673028095472646193e+00,-1.273613766383663126e+01,2.591454617410476891e-01
-4.102072005899048079e+00,1.083961208814368860e+00,1.007831233246230695e+01
-3.033363953227098175e+00,-3.743211628438113614e+00,-1.067685422814151153e+01
7.462135209974430694e+00,-1.044294798291279491e+01,-3.570549048740101039e+00
-2.637697340181071937e+00,-1.111268697335944999e+01,-2.741192869427101719e+00
1.706351567423682214e+00,-2.777543773878086153e+00,1.286803465290299897e+01
-9.700808611650899582e-01,-5.906564369544515358e+00,-1.019744664956781577e+01
-6.493559180726375502e+00,-9.668431504344980887e-01,-9.753963182574686641e+00
1.427358567786604482e+01,-4.074079463817436242e+00,4.096689457930525080e+00
-7.113908664291626605e-02,-5.380964043757999526e+00,-1.186342899747208612e+01
-2.056635865225397541e+00,2.552713295854149855e+00,-1.279653346520217205e+01
3.634097829673442082e+00,6.084741380323938742e+00,7.176803821714674569e+00
1.180083469995462764e+01,-2.142495926718173571e+00,-7.304061649048529947e-01
-7.572911206408596385e+00,-9.403555759800324765e+00,8.017824634330611433e-01
1.264698998728062485e+01,4.733599499374800068e+00,-1.608161018827562128e+00
-1.500262808977732565e+00,-3.597090905389368487e+00,-1.229622672295175434e+01
7.773787222719199086e+00,-7.545544426688484130e+00,-3.972933856273166420e+00
1.898264314272332332e+00,2.599635883041254480e+00,1.241857150462711878e+01
8.467620302009713384e+00,6.484300451282213551e+00,-6.837038961735609099e+00
3.266420034359118318e+00,-4.281212111854689084e+00,-9.961874925864293573e+00
-8.867163242794120492e+00,-6.445170700997403301e+00,6.254499010625073296e+00
4.595322773910989866e+00,8.443550151155376327e+00,-7.958738994137099176e+00
-7.732847874433042890e+00,-7.518951407484514071e+00,7.872833755166805503e+00
3.875868571821426301e+00,7.288938413047156395e+00,5.446634482938106814e+00
-1.695754409651183403e+00,-4.181281834295607958e+00,1.232694308392699156e+01
-8.893070528694654087e+00,6.566008288748668598e+00,-3.571459936586400818e+00
-5.345299388774687799e+00,-1.018717866263415672e+01,5.826170644996222947e+00
-4.993995427042518642e+00,2.413471161421851807e+00,8.346047224677167975e+00
-8.638817207789633912e+00,-1.103577893294463408e+01,6.005806337263992489e+00
1.377082582206690198e+01,-9.228293819086494376e-02,1.050084010982017313e+00
8.201272516500832666e+00,-8.442937024055462203e+00,-2.919078896764874198e+00
4.017375628826429512e+00,4.634092104967277415e+00,-1.166949760705639427e+01
8.237944979440936066e+00,5.851213486994136126e+00,-6.891686556576092748e+00
9.129546016266317565e+00,1.080837805420315867e+01,-4.192292730983508520e+00
-1.017261403309366941e+01,-4.457943053734044092e+00,4.341167464696621181e+00
8.305948382126045360e+00,7.640125395361316407e+00,1.769041727150687804e-01
9.785168122163266702e+00,3.671823950507927314e+00,-4.458003830636193321e+00
9.886133433986884711e+00,-3.216099057672936024e+00,7.897853011973828607e+00
4.902292680593886232e+00,8.252321166382934337e+00,3.251104583041502849e+00
5.046419931618427945e+00,-8.794821631860621380e+00,2.399423903284167547e+00
2.747647144486171200e+00,5.122136955352393883e+00,9.032106762752462714e+00
-5.321175190635841545e+00,7.114099988300329969e+00,-4.790216756758224115e+00
-8.118386050062411652e-01,-1.090197270390460638e+01,-4.877455692988299951e+00
6.179295173775222416e+00,2.340959579176303193e-02,-7.926653618884359709e+00
2.880045761707521024e+00,1.384207821450339937e+00,1.281981457081461784e+01
-1.135988378370312546e+01,-2.437388818822836978e+00,2.536483504728949789e+00
-4.816367516066043741e+00,6.300708714747273120e+00,7.811938312762287673e+00
7.671900328854054152e+00,-2.166912514298396708e+00,-5.387350149649245523e+00
4.578331966319885815e+00,-6.663537092961719921e+00,5.664498444287406009e+00
-1.039402344598231309e+01,-3.274519819646402929e+00,-2.725241120243997894e+00
-2.822619102971934524e+00,5.244303268779912486e+00,-8.772532274658354723e+00
-3.951166600819738139e+00,6.950990214259318734e+00,-5.210093181879471125e+00
8.846726948979682703e+00,3.201503009750048978e+00,-5.392660369014399713e+00
-7.009353778183969652e+00,-9.855431611070478937e+00,8.087710103488870983e-01
-6.435245942149671272e+00,4.566308760456585070e+00,6.444651948678805198e+00
-6.048079499128461656e+00,2.587193796052026151e+00,7.297972849026374220e+00
-3.745103682231103459e+00,-8.704301491248481071e+00,-4.536055350170665079e+00
-1.133161169788297862e+01,1.780141622118456279e+00,1.141420774111530756e+00
-3.254678171328982739e+00,2.000012686535477258e+00,1.089416290797661091e+01
-7.906730689804574830e+00,-1.017454069761646274e+01,2.010575735950827170e+00
-9.829164771886869545e+00,5.318458808411489436e+00,-4.957892836697332051e+00
-1.025414699822183984e+01,-1.077240900327472062e+01,5.985664006281155913e+00
7.096136163765409677e+00,2.305998653085070682e+00,7.357044014455884628e+00
-6.700543645077074117e+00,7.587971475215288031e+00,-3.406345113122151602e+00
1.612994049820069276e-01,4.317635409993711093e+00,-1.172953370461081235e+01
1.872566433935729802e-01,-2.871361252867542735e+00,-1.417212363827123589e+01
-3.094810789696283315e+00,-1.182668146245161189e+01,-1.363068887732313383e+00
-6.206964169629956452e+00,-4.220593188065763918e-02,-1.100074327860224699e+01
2.698653400946839920e+00,4.391193184010540485e+00,-1.242884493830299419e+01
1.962761859282293742e-01,1.046184796776716652e+01,-2.797832846716229227e+00
-2.246077507801261142e+00,6.260384565922646694e+00,-7.216903213397960926e+00
2.888695906040102290e+00,5.736663058766412249e+00,8.427989990957517108e+00
-6.917279875174858539e+00,3.777262645258007367e+00,-8.811734585710736312e+00
-1.192770538641520162e+01,6.756001386863931479e+00,-9.598387016858845877e-01
1.084890100878405228e+01,6.330672323222101383e+00,-4.007268403730645190e+00
-2.092673186913465433e-01,-7.550178131213974853e-01,1.518821863009765316e+01
2.514819304469146921e+00,-1.820712647407679574e+00,-1.179034865706030111e+01
2.876203654250488739e+00,-1.412277197138484475e+01,-4.249110731096319427e+00
1.277396788144482187e+01,-1.032377713063373337e+00,2.460218667099437484e-01
1.022949833441162326e+01,1.704742907277200903e+00,4.513783092646047379e+00
6.354485241276243812e+00,9.035658037738786064e+00,7.925366083616885993e-01
-5.255610059207190154e+00,1.478214345250758122e+00,-1.279133491296741632e+01
6.779960784444276634e+00,7.526759321639210576e+00,1.605457288172316810e+00
1.581288623155978179e+00,3.554431597981240198e+00,-1.321810434945005497e+01
-2.621717300153966868e+00,1.131074649094159845e+01,8.317444802146971128e+00
-8.741231189853045924e-01,7.389821563636603585e+00,-6.518122824107815738e+00
2.586107538872153278e+00,-5.482699470873285463e+00,8.544598834708260426e+00
-2.710023300025542259e+00,-4.325227121570225819e+00,-1.023545573966956646e+01
5.119692694209336814e+00,-4.213357477473606671e+00,-7.914459768549382268e+00
-2.943397557724063418e+00,1.089659139647808317e+01,8.746064316280815376e+00
-1.144129217318262093e+01,-7.854635438654034019e+00,3.796393030219471942e+00
-3.577614682596082840e+00,-5.243437939813710535e+00,1.180305590891989098e+01
9.417454308086345094e+00,1.007409998560329889e+01,-6.638005349514814135e+00
-2.795470525804894635e+00,1.234813470565748439e+01,1.786305994198954084e+00
1.143523803848399290e+01,-5.959198794475842220e+00,3.107446596109023851e+00
-8.960157989802022271e+00,-1.186222191325866859e+01,5.135114444196660521e+00
-1.010151253964219453e+00,1.063444572994137083e+01,-1.859747268019835031e+00
1.111986194582219056e+01,-4.036523232209185963e+00,5.822214551258307225e+00
-5.271215161531046967e+00,-8.270305181669025174e+00,-2.846339937063782521e+00
5.673544157624765383e+00,9.342096104389488787e+00,1.191364378749804942e+00
3.220781651161560344e+00,-5.323684449434180621e+00,-9.831424096957826819e+00
-1.334737064473034973e-01,-1.751387873515346305e+00,-1.476356870434164570e+01
-1.087602072682307330e+01,1.176102561790357270e-01,-5.897245681662840688e+00
6.281491555590189790e+00,-1.232624133715308901e+01,-3.563836925692108082e+00
4.906211204942803050e+00,-3.345588453437322141e+00,1.020926749789071586e+01
5.470783402525762895e+00,-1.153140625499668737e+01,-5.932103176423846769e+00
-4.403389088184439082e+00,-1.069918656605728735e+01,-1.375238766797934886e+00
-1.581585243271378838e+00,1.205018871258823587e+01,6.297322735829648188e+00
4.903850666866347296e+00,-1.177925520940107518e+01,-1.951609848176740769e+00
-1.043800371410186045e+01,1.915551327364791279e+00,-8.515612553806880314e+00
-6.641375899619097467e+00,1.246150224378321525e+01,3.885126677556369312e+00
7.953938886753219251e+00,4.350785536562053579e+00,-6.874811786747915932e+00
-5.657401692892284117e+00,-7.922113789076757229e+00,9.200121255080553340e+00
4.892119526054832690e+00,1.858196678623673881e+00,1.017178255315492130e+01
8.298173562251752955e+00,1.184159952715664765e+01,-4.795237098431142542e+00
8.651000084242967958e+00,4.704116937554369215e+00,3.297368498755009369e+00
1.139732887740473011e+01,8.693176611585814229e+00,-4.006824678313610555e+00
4.290178636136515955e+00,-2.519323217589471753e+00,1.160131807650943259e+01
3.834811959650385127e+00,-7.106357805484788237e+00,-8.609741613017000361e+00
-6.962122253623290291e+00,-7.824436606328077026e+00,-1.702961959652836921e+00
4.289433537819055786e+00,-1.142725144030220896e+01,-9.872915623463175416e-01
-8.747087991733934587e+00,-5.106512811172807531e+00,6.258077678951130984e+00
5.984546122192557327e+00,-1.208762402396593849e+01,-4.686172448589449147e+00
-1.207345640154261801e+01,-1.174564719617182229e+00,1.308279479998166739e+00
7.737415515319471027e+00,-1.060724840305764616e+01,-1.654731420061610780e+00
-7.321972801560489685e+00,-3.357069574127453215e+00,7.404781493670469672e+00
-7.573322643221466199e-01,3.527918528264870179e+00,-1.210524976158230714e+01
-1.483970998823300036e+01,3.196796316249873371e+00,-3.476260945656800772e+00
-1.479279500789112056e+01,3.643529350730541516e+00,-3.462831787855189081e+00
4.128832026366385577e+00,-4.776043310224733496e+00,-9.056587088486443449e+00
9.701730788425541263e+00,4.349561847764357836e+00,2.688653589394808918e+00
-8.353023568477714600e-02,5.521809791031135006e+00,1.166731975777159747e+01
-7.804110857981775062e+00,-1.690272054705595606e+00,6.535860219178721842e+00
4.850981914190300337e+00,4.178016470016621575e+00,-1.053799222086576570e+01
-4.825708632123620667e+00,-5.217553081008325933e+00,-6.604755700566733445e+00
-1.360961539554200428e+01,-1.586573775500547789e+00,-4.385579555262343332e-01
7.720802752626704013e+00,-6.763529516102117611e+00,3.880119175908091300e+00
-1.017946354498394657e+00,1.165676846322079641e+01,5.971484097123505030e+00
-9.888467512852775698e+00,-9.973626198000406617e+00,6.159124390692655382e+00
-9.799265014242180882e+00,-4.201992760508665548e+00,-2.489290505606136517e+00
2.090562662449428455e+00,4.913453047242973604e+00,9.877998138918766102e+00
1.113392272755936396e+01,-7.691772564128703138e+00,7.514720202194820065e-01
1.298246057286125144e+01,4.193150028207455193e+00,-8.947034563726232737e-01
7.783916613628069747e+00,5.220320606569829325e-01,8.682180102873925165e+00
-1.139239159966536086e+01,-4.226167306695992387e+00,3.037400055791247055e+00
-2.970497448859568124e+00,9.640392275550871304e+00,-2.142171507725423307e+00
4.334486255555201062e+00,-7.396844595102431974e+00,-8.016293325545696291e+00
1.138819022924685953e+01,5.302363511371759319e-01,4.872928042089875511e+00
9.256120703044901532e+00,5.853050059571493158e+00,1.338944258557262845e+00
7.806411074271190742e+00,-3.039244207573612133e+00,-5.255127381763445626e+00
-3.299061398090299413e+00,-1.192134534507744270e+01,-1.161668958657469553e+00
8.263376932484011173e-01,8.165457040253894405e+00,8.050969617421397828e+00
-1.020195827612566442e+00,-1.129473019112547405e+01,-4.087231371720303486e+00
-4.538953667985631490e+00,-1.488904109387038099e+00,9.905327383368659255e+00
8.223707722218458471e+00,-4.512640996160530271e+00,6.714069019515608083e+00
-6.209558980008898388e+00,1.125526287806684778e+01,1.691008204446912355e+00
-2.652951326324371362e+00,-6.273657587100796462e+00,9.808467094842345801e+00
-8.543194357554298790e+00,-5.625639911997065035e+00,-2.142110937903245915e+00
9.181900745911997674e+00,1.385675599558497950e+00,-4.827618061952031248e+00
8.612482280213546559e+00,-6.977137710351261290e+00,3.074346816514032632e+00
-3.593244211370719920e+00,7.970403021846721892e+00,8.671572331245048559e+00
1.570233989486905291e+00,1.088692586504094884e+01,-2.755728646876949295e+00
9.606011141308529844e+00,-1.402093895618355957e+00,8.886621686621932525e+00
-8.025470184835009846e+00,-4.640849194505960007e+00,-3.173698921738302925e+00
-5.768807594888046175e+00,-7.860958012500756098e+00,9.510423215693798227e+00
3.942867509132359949e+00,1.302384907854905727e+01,-9.056561530882734079e-01
8.217652173164410323e-01,-1.390963678951753657e+00,-1.376490137745713938e+01
-6.293539984883840255e+00,9.688758263782711211e+00,4.981247503531680998e+00
8.195104414750099764e+00,2.556235207382232325e-02,8.777808350612533062e+00
4.578008237810345271e+00,4.284940779355201457e+00,-1.100082551929009789e+01
5.584507980722723808e+00,-2.859199457628722740e+00,-7.859882602320378275e+00
1.222883170025725974e+01,5.690366197802039672e+00,-2.042093180223480520e+00
6.675906792749906060e+00,-2.733291994314779760e+00,1.006615614630356781e+01
-1.483075907690191597e+00,1.424330759000557123e+01,3.847472797959480051e+00
-4.914172028485202404e+00,4.827454053912122234e+00,-8.291550274980782120e+00
1.056425677460122614e+01,-2.541189715630544299e+00,-1.597399455506069987e+00
-5.575181605359194492e+00,-4.097876873544665344e+00,9.654283492909868869e+00
1.858225940747049609e+00,-4.423830428158670891e+00,1.008209296208539385e+01
-3.372318698836864304e+00,-1.742196032160560959e+00,1.169474976965590152e+01
-5.184049749197876977e+00,1.014334912701246649e+00,-1.319241633072948261e+01
-8.974478851058419693e+00,-3.905264888710259008e+00,-3.616384453233794094e+00
-1.201397464080145205e+01,-1.771322465905884824e+00,-2.491679127915609637e+00
5.190793031902948051e+00,5.754877584225631004e+00,5.677686036544290715e+00
-5.991974588056990569e+00,8.269656158553821967e+00,-2.513429366781957164e+00
1.246790401006632898e+01,4.547666294148095645e+00,-9.342970896426530114e-01
-8.021908501436843864e+00,5.400266879994972236e+00,-5.737113451544642473e+00
3.667528491484558728e+00,5.863972364430002138e+00,7.114697843873352134e+00
9.413947542981606631e+00,-5.239943834100598608e+00,5.139306473731777736e+00
-7.447340049744500812e-01,-6.247401635390154695e+00,-1.012750657115637409e+01
1.229981043256344364e+01,-5.664581149176509456e+00,3.069468999262297437e+00
-1.436820827530138089e+01,3.615717280584980209e+00,-5.027152846370802841e+00
9.918540394045502140e+00,4.218318398603931207e+00,2.134688580952947667e+00
6.500199252480332035e+00,8.999240062927443162e+00,8.730982310008769121e-01
-4.293715199066736155e+00,1.385212234902129858e+01,6.415477769727250923e+00
-9.561464401053061835e+00,-1.852715482789562662e+00,4.447501744000185830e+00
1.187043953718877809e+01,-7.208767191678556507e+00,1.201514028027563796e+00
2.193502306151376313e+00,-1.431858675091118549e+01,-3.964472175855348723e+00
2.877849900339976674e+00,-1.403233921948378482e+00,-1.129722953360870008e+01
5.791504154648286828e+00,-6.452174698267223008e+00,-6.698985357674327901e+00
3.745726435036238922e+00,-3.484930737617941143e-01,1.424029305046502536e+01
1.849328546404638562e-01,-3.328752604301666307e-01,-1.475172097823364403e+01
1.168168747354022230e+01,4.968277225926930996e+00,-4.049969775600845145e-01
-8.227304357800497847e-01,-1.168946236962539942e+01,1.316397310698756318e+00
-1.493488212460550280e+01,2.082768145126201453e+00,-3.567863120481397754e+00
-6.884498289364258117e-01,-3.466049315747703030e+00,1.287421008508668230e+01
-2.125114004602653761e+00,-7.552608101912353433e+00,8.045365259038197436e+00
-3.014404473011607632e-01,-7.856916743679102311e+00,-9.020570047845595241e+00
-3.174194729847837904e-01,2.269700235547792655e+00,-1.398822747686478607e+01
-1.551629849761987368e+00,-3.029353329811322326e-01,-1.579017487183385704e+01
8.151794963408248051e+00,1.225519858682537100e+00,7.260490676824050027e+00
7.749762348858999950e+00,-5.752461400083459075e+00,5.322734905823788942e+00
1.112567961788100313e+01,-3.863005851037052629e+00,5.981183444466800836e+00
-1.067230791993972439e+01,-6.550888543650425611e+00,1.290858616404125581e+00
1.279672875290270184e+00,-4.705875854693086779e+00,1.013544021748003843e+01
-9.575682988207066870e+00,-7.950021541284356452e+00,1.399382117356739785e+00
2.322611503117785414e+00,1.333381293795184064e+01,4.519275849518386012e-01
-3.868845380956955626e+00,9.056820004984038164e+00,8.135770857530534528e+00
-4.959233187416120181e+00,-5.074692612870592257e+00,-6.870830262054784754e+00
-1.601339211677541785e+00,3.387847604814275382e+00,-1.160820479419901829e+01
-3.035046511243324030e+00,1.132404381506517055e+01,8.464918898682523007e+00
1.186582818823581142e+01,6.849538885731295323e+00,-2.828823210242326081e+00
2.189509325084701696e-01,1.303677571546371539e+01,3.090819561014590988e+00
-8.524569171290552916e+00,-8.338693213335556464e+00,7.429047515556683301e+00
3.426825604674519798e+00,-9.116651996086089227e+00,-8.450476250133823086e+00
1.386149823504000178e+00,-2.648054843143275328e+00,1.305648639914755371e+01
1.809049127510960586e+00,2.745699979154957227e+00,1.286506039061368334e+01
2.428275916623790387e+00,-8.178159659674639315e+00,4.692845240847208999e+00
9.573384794163752431e+00,-4.537660564937517904e+00,-2.465768691005707947e+00
4.860780826717422620e+00,3.921786782830945839e+00,-1.054713396209651144e+01
-4.413336707399280634e+00,-1.849871209307586195e+00,1.052850266206991314e+01
-3.958525985272631775e+00,-2.853634933785840655e+00,1.154496842016801317e+01
-1.221995832708962837e+00,5.352412623320712548e+00,1.213789675327103446e+01
-1.377543515820888587e+01,-1.208445056387881245e+00,-8.405983041225029151e-01
3.924399062499776658e+00,3.207384791317097417e+00,9.868462866894398999e+00
1.011132697308571693e+00,1.838110286474380572e+00,-1.449864280131122740e+01
1.633772360939361457e-01,-3.193986629681373923e+00,1.305763499971108033e+01
1.230223879437165202e+01,-7.955171325020571338e-01,5.031249113604999046e+00
3.293747209941939147e+00,-1.213906054696809633e+01,-8.049958904239959523e+00
-2.122439505216804800e+00,-3.588965300198898589e+00,1.336852711423833284e+01
1.283757568927365611e+01,6.451676099786912699e-01,2.882616651064302093e+00
-9.369721242145018891e+00,-1.134112892478413315e+01,4.890906670483420982e+00
-1.202997743741423875e+01,-8.224860962003858189e-01,-3.947343534841347701e+00
1.069048558307495433e+01,9.367987661776430386e+00,-4.036962752847242264e+00
-1.210896320590412678e+01,-4.798460481324701377e+00,2.151572112407975190e+00
7.443001226997642661e+00,-2.046478925011146199e-01,-6.365204802954465890e+00
1.130091326058333223e+01,-6.938192234106232981e+00,1.900190542769267132e+00
3.746800485042083295e+00,9.033223126006278747e+00,3.595775465622106370e+00
3.485140202410608623e+00,-1.720067358776979249e+00,-1.066663698931745152e+01
1.352666072730626290e+01,-4.291171962181743460e+00,1.833268846501896698e+00
2.513055251068678331e+00,5.697182638724367365e+00,8.929296751920462683e+00
6.666051300862822160e+00,-7.552930915259575606e+00,3.196237011856583710e+00
-4.768032617889250702e+00,-1.172202799119271610e+01,-9.498042354120434308e-03
-1.334400826181025224e+01,4.579753207826671613e+00,-4.029804732844173287e+00
3.674011523496520049e+00,-6.819346736213586446e+00,5.858452262604817662e+00
-1.041470447368692120e+01,7.792855242374031377e+00,5.394404433078801020e-01
-1.011266824037168499e+00,1.338821368077134144e+00,1.345531464557908663e+01
-6.260762606538078145e+00,4.570690572322866352e+00,6.424119013893839103e+00
9.250604736871235190e+00,-3.865614165008736780e+00,6.935882899744942875e+00
-2.705083964467039692e+00,5.143718882147778615e+00,1.048691485631727360e+01
-2.947246808909705251e+00,3.065079325205635641e+00,-1.147939191250127244e+01
-5.349932336321280957e+00,-2.951552854393664216e+00,-8.459928984562589349e+00
-6.577011248038510116e-01,6.503815537669672686e+00,1.134555154965876334e+01
5.273215180675029146e+00,-3.122784840992821054e-01,1.236922031581384473e+01
8.712840619579869106e-01,5.784769079342743758e+00,1.064626768597008422e+01
1.927065437105311085e+00,6.478326351894367008e+00,-9.075189122566643007e+00
6.868448456165014981e-01,1.063400366124122343e+01,5.454905868399537283e+00
-7.873987323749479295e+00,8.135058196396192542e+00,3.667165445539103175e+00
3.227783370313232592e+00,2.064897424791939606e+00,1.229628974558970356e+01
4.855547341391877048e+00,-5.560721618522165954e+00,6.821148444042981041e+00
-4.539444888028797642e+00,-7.072001865331459136e+00,9.853186003863950049e+00
-2.524045312329250113e+00,-7.820392052410531036e+00,7.445718809723893550e+00
1.032041481593016030e+01,8.455306579172786385e+00,-5.344857220664077424e+00
6.455559039305251545e+00,7.662226616891557818e+00,2.143236785994260263e+00
3.664182559655947413e-01,9.751172733531310755e+00,-4.021081150509909108e+00
5.319370190509478125e-01,1.193963739033939042e+01,-5.886436330587778709e-01
-2.300277470964007254e+00,-5.106632470112035804e+00,1.133528585198436467e+01
-4.884399972214179542e+00,1.004703027168743468e+01,-6.402275498302235635e-01
5.008283573657942966e+00,-1.218730342815898915e+01,-5.838974373529373985e+00
-1.033176995166414969e+01,-3.947828003795640583e+00,4.125065716887093892e+00
-1.540481098560122719e+00,-7.744278665133806250e+00,6.876268538509825667e+00
-6.151510098740123667e+00,3.819044768642277710e+00,6.889656572210157925e+00
-3.793609584943080204e+00,3.920829117350895565e+00,9.524245837192800934e+00
2.202152863337893507e+00,-6.324032078902618537e+00,7.151950094236566358e+00
5.997274309913273704e+00,4.373632658835855835e+00,6.442086548715708183e+00
-1.312361737969389353e+01,3.501155720031233987e+00,-1.486666186805577272e+00
-8.492574893043480344e+00,2.285303736651209672e+00,4.722337348487608111e+00
5.412855941281991434e+00,-1.055788342534823698e+01,-6.066216493976380519e+00
1.187257166128536490e+01,7.045997167288373220e+00,-2.996449336535883301e+00
-1.309115373338098642e+01,-2.252376569555989860e+00,-1.001289417606372467e+00
7.828933402801223629e+00,-1.434256867198771657e+00,-5.287246972478976126e+00
1.322402356014309666e+00,1.281990363360374729e+01,2.418064516606343695e+00
1.752710893391724145e+00,6.348992094374463768e+00,8.972176417342513588e+00
1.366138872644777535e+01,2.431012082275431307e+00,8.033046261576469449e-02
-6.098519797889459859e+00,3.643199467752914700e+00,7.156127461341971419e+00
7.422819620285278752e+00,-5.214012957539084780e+00,-5.086593771417293297e+00
-8.626837681884266473e+00,-4.892609508587925760e+00,6.318966116255927190e+00
-3.688129302018932520e+00,-8.193934250494452343e+00,-4.804326733890001755e+00
7.141972576954630725e+00,-9.029399243446075474e+00,-4.435919387644421619e+00
-1.463416685495726677e+00,7.054284900235588296e+00,-6.877495332026097863e+00
-7.339664204312282614e+00,1.351196515809977905e+00,-1.098431975358420409e+01
-1.180011933428904491e+01,-3.270382510230880335e+00,-1.135379060496857884e+00
-1.056575057946680651e+01,-9.138794158805129797e+00,3.895134068138997208e+00
7.044354052900841268e+00,-1.730443977535960354e+00,-6.388149354607429942e+00
-5.542825858487930191e+00,-8.185026483038578604e+00,8.483181305591923405e+00
4.680007365962910448e+00,-1.078597716954004326e+01,-6.400363836423782260e+00
7.021352235488415694e+00,-8.170793843391777500e+00,2.362402447493527458e+00
1.274741059883610816e+01,-6.260077043922254170e+00,1.419267611294942499e+00
-9.361890402620529628e+00,9.545829987495986657e+00,1.457589349416472668e+00
1.019765995021358229e+01,1.550971202702638774e+00,-3.381715680306426997e+00
1.933915113968735833e+00,-3.841923821023196073e+00,-1.182876067750681770e+01
6.227583554988962433e+00,1.077879282710917863e+01,-5.577583528324644213e+00
-6.470536485635787649e+00,1.185621592133998448e+01,4.299003361313516791e+00
-1.262496061233497535e+01,4.102995227264784717e+00,-1.002502761546843146e+00
7.417809200145014437e+00,-3.450187341610473357e+00,-5.759624973056181929e+00
4.816527780315379204e+00,4.659180374763720600e+00,-1.071481396421712873e+01
1.154632937847762619e+01,-2.060034642205961219e+00,7.437620720269427999e+00
-8.339786016883387276e+00,9.440040680368561254e+00,2.844422237855265823e-01
-4.724856531157323736e-01,-5.712893795948547071e-01,1.423299724766334506e+01
1.099140454785108290e+01,-7.766875812777676025e+00,4.815082862720280188e-01
1.105926540337887731e+00,5.849807027930628678e+00,9.706227314960797159e+00
-1.329256793914505153e+01,4.997415785024625023e+00,-3.753466326162884670e+00
2.519090296127205697e+00,6.967744723482542035e+00,7.185520483345592346e+00
-5.318528720083789629e+00,6.263281850176034560e+00,-5.741527319126763729e+00
1.054200137216203359e+01,-6.375426319609673875e+00,2.818160085762739797e+00
1.719993412372497810e+00,-7.377209013449187225e+00,5.980370505084684929e+00
1.570561071728972191e+00,-1.231008936964842526e+01,-1.060605141802432705e+00
1.728213851282586644e+00,-2.618623591776566339e+00,-1.224307010665876305e+01
1.140378237727159494e+01,3.725220306528481018e+00,1.046493888245633386e+00
8.232236264702402551e+00,-5.353480489329243142e+00,5.860402669628117955e+00
-6.155254516757117322e+00,3.691221506000352370e+00,-9.045439268680548039e+00
-1.016279305052675141e+01,-2.897391303730028067e+00,-3.488806247157730578e+00
-5.813845897629740023e+00,-9.574259699155627246e+00,6.658326220793846062e+00
-3.818090220917435662e+00,-6.191405059983162928e+00,-6.977403580825100704e+00
-5.763498340080755789e+00,-1.236416555780798632e+01,2.582983423694966252e+00
1.298356690855876394e+01,-4.403740052212900657e+00,4.436450576915666133e+00
-1.160861150316918078e+01,-6.728893479113008169e+00,2.275759473107427766e+00
6.782716494979379007e+00,1.059768645717459101e+01,-1.491815273760601412e+00
-2.138031245947518144e+00,-8.976315702471127977e+00,-5.854122927770624152e+00
-9.719223203317509885e+00,7.112294290131837560e-01,3.175689530177870257e+00
-7.188442063760239975e+00,-3.247732433436821164e+00,7.599996212817865526e+00
6.011889110256931623e+00,-9.578141850304811911e+00,7.873512803392709314e-01
3.406286025041975751e-01,-6.367769889049887055e+00,-1.151754803574200281e+01
5.792865111885829421e+00,2.994014095694807143e+00,-9.167789910202616355e+00
-5.304285139726703235e-01,3.817649776027931985e+00,-1.177794514636745049e+01
1.000843915779221938e+01,-8.492700588098337278e+00,-1.037890423731451461e+00
7.276508864297934309e+00,3.117958467349200014e+00,-7.532740324459714643e+00
-2.088346572969342230e+00,-7.209660772606058643e+00,8.316216530982840638e+00
-6.538833224580283598e+00,-2.339152673573076768e+00,-7.824248335664571563e+00
