1.847044214030496845e-01,-1.889983657836633579e-01,-1.893520165653469700e+00
-1.056378019421983921e-01,-1.643940902445371721e+00,-5.729435380302201342e-01
-1.335864737775537825e-01,7.245628913657971015e-01,1.711918037953084282e+00
1.223835559981802490e+00,2.406642230979375296e-01,6.578962674100168329e-01
6.693445353673042053e-01,3.549967944817292859e-02,1.196028505757687155e+00
2.659968335618255117e-02,4.621960829656588943e-01,-1.677504234612977596e+00
-1.259893918294581416e+00,-1.209568329119955932e+00,-3.427254836229392532e-01
8.561755176696425051e-01,-8.906033714732067841e-01,-4.517212665849097419e-01
5.506361278005004189e-01,1.069403236126508672e+00,1.019403834227974537e+00
-1.707702634092236105e+00,3.127506862060685511e-01,2.513448248101469717e-01
-3.524782163749280439e-01,-1.433400930658176975e+00,3.946342677164507706e-01
1.503405254518827894e+00,-4.917038881812293982e-01,-1.946514828141976405e-01
-1.913394084092653102e+00,-4.603986058338526144e-01,7.016429088654197940e-03
5.278616899633402637e-01,1.446303770036136083e+00,-2.479183796924111227e-01
-1.442492539347284941e+00,1.819070540875568631e-01,1.026737012680030370e+00
6.094131378772675856e-01,1.930691188774671385e+00,7.064925023711976504e-01
5.190167970313307455e-01,1.851817931728880984e+00,1.939519294848065512e-01
-4.547741790592186306e-01,1.524703509777896704e+00,-1.487400188437355275e-01
8.253801422691683376e-01,1.919604573011296722e+00,5.010374059860457363e-01
-1.358368364288234265e+00,-8.631076659204086621e-01,-3.781110822246016023e-01
-1.048966310751664688e+00,1.087630424857356282e+00,-1.199939826670934240e+00
3.818675419496586065e-01,1.396154400336311996e+00,-3.999350942902056283e-01
1.432724017208995226e+00,4.746897678850653945e-01,-5.388350928102936255e-01
1.624744934483197956e-01,6.053202871625631420e-01,-1.471190329800578622e+00
-6.765770352675436472e-01,-5.406245125353235093e-01,1.117828450559130715e+00
-1.561381403313643945e+00,-5.530513169939695883e-01,-2.778854575529526305e-01
2.215175981320459675e-01,2.085016979374776369e-01,-1.777221492623621835e+00
2.135819235441503761e+00,1.925992008341948225e-01,-1.017560237485582303e-01
-1.104253563834663998e-01,-1.520566404345703004e+00,4.801479982585824535e-01
-3.314322398665214831e-02,-1.644231393554362430e+00,4.149720920696013393e-01
-1.542535223024782409e-01,-5.488463068097739761e-01,-1.530013287396007060e+00
8.241417277220841608e-01,-2.221237663321573019e-01,1.110639556142792417e+00
1.374455178625616059e+00,3.402112687287321691e-02,-1.076794143612971766e+00
3.275695746891110205e-01,-1.169996791670940617e+00,1.207890556489393363e+00
-3.056994581473878037e-01,1.761241975146310423e+00,-4.874598750605504960e-01
9.694531583005211450e-02,1.494926693796855721e+00,9.094441910299663201e-01
5.032042782337656783e-01,3.179589272246226006e-01,-1.495401686393054153e+00
-1.561088448699138320e+00,-4.164813518990745922e-01,-3.341938794438003013e-01
-3.334478847097442911e-01,1.124996345653551222e+00,1.023785688832282048e+00
1.032719796845861238e+00,-1.444851898566353654e+00,1.303449656890943720e+00
-4.013956451568854722e-01,6.516741338872789058e-01,1.931569469480537204e+00
-1.187445972891326695e+00,-7.287904368857371917e-01,4.966539698216970167e-01
-1.158929144101653375e+00,-9.629339432523681408e-02,1.200376682135039008e+00
2.780490450262994018e-01,-1.492099444087726434e+00,-2.449402577985029805e-01
-4.719488297796696763e-01,1.024296651817524939e+00,-1.464998715982979371e+00
8.860097772657770099e-01,1.697728417215770003e-01,-1.352551227516900489e+00
-1.187136033345229436e+00,-8.398888824950998533e-01,-5.166259094944903874e-01
-1.444657696258313306e+00,1.800588631840339404e-01,9.582405954946713322e-01
-1.418170281235876740e+00,6.535195109368736599e-01,1.524300311031354799e-02
-1.021143348086045455e+00,-1.641562584083669618e+00,-3.897107378345165962e-01
-1.671432583890291257e+00,-7.404040000529461540e-01,7.512640415385106463e-02
-1.939651952447858929e-01,-9.488545173283864376e-01,1.039377604102649677e+00
-1.504042156040161338e+00,-7.836582267575737948e-01,1.360552431648323624e-01
-1.198982067497915249e+00,1.216143824432395881e+00,-9.548275672359314292e-01
1.792690852169570137e+00,-3.050803025805765567e-01,1.898021069810041858e-02
1.149378732027817485e+00,-3.807048818808821400e-01,9.083934664573185547e-01
1.497571598918783664e+00,-4.178114975836820233e-01,-3.680968546306375710e-01
-7.792375745171333801e-01,-1.703972508233977612e+00,-2.508163308900958066e-01
6.155268438378448392e-01,8.009396246230980621e-02,-1.638382657280257337e+00
-2.048534199747222839e-01,-1.237905022874695060e+00,7.281392875941425924e-01
1.111798770342759646e+00,1.341868742884879534e-02,8.500267851750912262e-01
2.254069016480844123e-01,1.385604197927440273e+00,-5.100811706470764761e-01
1.349749322020405318e+00,9.066487915042800161e-01,-2.163401576169992901e-01
1.449783307349060912e+00,-5.148172344915469267e-01,6.822097302498163485e-01
2.080759381437839561e+00,8.982826500693068261e-02,-3.416595377043926129e-01
-4.048486590437092719e-02,-1.675506206879999738e+00,-3.253906079688307362e-01
1.527733295533483693e+00,-1.942718001749995094e-01,-8.825720609068132827e-01
3.611619500484393730e-01,5.003403664254399974e-01,-1.393120855655634260e+00
-1.187890421660138696e+00,3.409238941909510379e-01,1.107925258762803455e+00
4.755478511243503570e-02,-1.105433334953630720e+00,-1.458496930542752645e+00
1.777693452714359523e+00,1.612351282608061875e-01,-6.376212111895054324e-01
-4.309930750400609578e-01,-1.030355232123473019e+00,7.565304352798578602e-01
4.601969134590840338e-01,1.066487350448816818e+00,-7.104735353760304184e-01
7.453417490416515134e-01,-1.107217173406931376e+00,-2.048727847358185195e-01
-7.029122595807367757e-01,-1.902212916802280329e+00,-5.958995487951749270e-01
-8.443953879193447642e-01,-1.895997204432394501e+00,-4.919031790619522448e-01
-9.891836025491118622e-01,-1.669281346103963060e+00,-3.776792050437381421e-01
-2.359257036869782664e-01,5.741654149953232533e-01,-1.758992403782323022e+00
-1.088252007607282135e+00,-1.261961497258442755e+00,-4.530476994487450150e-03
-1.853915236410014655e+00,-3.332103128874426279e-01,4.125727287082091577e-01
-1.502414696628581403e+00,4.140584985126486428e-01,3.966653384538558202e-01
1.953243598285463678e+00,-2.040494632967832234e-01,2.090641245917969002e-03
9.596417811823718114e-02,-1.338229572452247051e+00,8.459900607428780805e-01
1.174435502042724178e+00,-4.728444268422967167e-01,-8.123791814360321606e-01
2.433518440801127683e-02,1.596282074017565833e+00,5.440829359416924360e-01
1.639196215501325549e+00,5.810208247508041879e-01,2.334941997039833017e-01
-4.614834447410081086e-01,1.234865611415140840e+00,4.804546583683332317e-01
2.260866798638596353e-01,1.327034701007383077e+00,1.226705121341731486e+00
-2.348587488068749618e-01,-8.779442182206160794e-01,1.046438681665655457e+00
-1.804260875706323208e+00,3.588969292888714580e-01,-8.189607281621102963e-02
-7.878591234659471088e-01,-1.224328380740392408e+00,2.255682256910918615e-01
-1.613861831606533626e+00,-4.744098387585199417e-01,4.218625044222415466e-01
9.075116632747401990e-01,1.186159853630893712e+00,6.596891634673328619e-01
-9.474613301070918814e-01,1.227233241164235600e-01,-1.031445533644758994e+00
6.219355381749288592e-01,-5.008266689499206725e-01,-1.848861841143380813e+00
-1.859736725178069205e+00,3.220114166394230093e-01,-1.206663745341176319e-01
-9.289795926623687361e-01,-9.533045209026532740e-01,-7.129061054596442792e-01
-1.432397117241823503e+00,-4.402927440712234297e-02,-5.221773499444862798e-01
-1.518994254899833363e-01,1.251124462850170982e+00,1.011206635490058403e+00
-7.837809549530830866e-01,8.764130895906321328e-01,6.499919694440854379e-01
-1.950909905664786947e+00,2.013224021345342840e-01,-1.700272296791534854e-01
-1.415121449251191654e+00,3.580281511453412002e-02,-5.685759276882023094e-01
-1.283785033898990680e+00,-7.605389222643729186e-01,-4.459141651131676709e-01
3.656508038019622986e-01,-1.326203473260942012e+00,-4.535675515032002725e-01
-1.185974605165203588e+00,5.889989990786581586e-01,6.037316842666839989e-01
8.998219973009063954e-01,-3.624161543564274335e-01,-1.655454510745681285e+00
-5.514338308487147788e-01,7.125620840483770646e-01,1.509774353944003611e+00
4.533928324995278869e-01,1.241805170760175825e+00,1.016516194763715575e+00
-5.708921303895526239e-02,-3.575721421446172998e-01,1.757324506590363988e+00
1.083275226482393272e+00,-2.940291288545354154e-01,-1.439497791021415063e+00
9.741390259856347322e-01,9.281854813705676666e-01,-4.215985898397525689e-01
9.075096067395383992e-01,-4.923666187455145726e-01,-1.384490071343957407e+00
5.514846412454115464e-03,1.252887920660901599e+00,-8.636553605500941755e-01
9.978163916620607088e-01,1.463011494129907053e+00,1.508932638453291675e-01
-7.748513360233196812e-01,4.878788601570498429e-01,1.620222379593022621e+00
-7.740108446146340970e-01,1.414823969442847496e+00,-5.175327001480212186e-01
-4.915393520389934601e-01,1.067527555728612354e+00,7.432979515150001104e-01
1.115630271274676399e+00,-9.828799594729992206e-01,2.288811157805275553e-01
-9.158641498715328622e-01,-1.191190307466100551e+00,-6.500987650820506669e-01
8.321103136800421796e-01,3.651652094252336167e-01,-1.190947308731982845e+00
-1.689159138415120553e+00,4.314916048585884512e-01,-4.598273274074781147e-01
1.200523860814887685e-03,-1.072679906069642364e+00,1.073772078348043335e+00
9.507621947634162796e-01,-7.908521534176647660e-02,9.881474335787380214e-01
1.736009299501651615e+00,3.776695600592525071e-01,-4.482115822581976827e-01
-7.676036897271026893e-01,1.417989592196799542e+00,-5.325365333063969420e-01
-1.106499537928648857e+00,8.851467690724826864e-01,8.160392516088699200e-02
-9.106826802035945523e-01,-9.439650661123502040e-01,4.797654684017575444e-01
-5.611724232606458695e-01,-3.085778917565811796e-01,-1.206879178061975644e+00
2.342348910816468843e-01,1.084451714551023738e+00,1.287959230977133718e+00
-6.624471498027446614e-01,-1.634076295327325790e+00,-7.562596016953678779e-01
-8.099019694879272535e-01,7.115359274172087245e-01,9.760292631475904201e-01
1.580353397162195472e+00,9.139577600107628985e-01,1.621816924430161122e-01
8.237997080065992961e-01,8.703618460786793909e-01,8.551832479585437241e-01
-1.166492305851793532e+00,-5.264288938169651155e-01,-5.986872513014354080e-01
-1.595893420181010880e+00,4.351589727205779079e-01,1.045673528952018871e-01
-1.558102412679501225e-01,4.157199931442235319e-01,1.812786788498186752e+00
-2.473428184695249388e-01,1.428381849433263628e+00,3.991088057014008372e-01
-8.672488939186620005e-01,1.081559498359818683e+00,7.359868246422950067e-02
2.955560279722967421e-01,1.116870140626373886e-03,-1.991516266782691558e+00
3.918288618131505335e-02,-5.780590361735546967e-01,-1.670669386968643977e+00
-8.027525808880199287e-01,3.822941762952976608e-01,1.800018832182510797e+00
4.146602910287841559e-01,-1.880234518651915654e-01,1.461277514869432359e+00
-4.303095727759582712e-01,8.307418570949932635e-01,1.487148137483575994e+00
1.690861854187603874e-01,-1.127147903673638041e+00,1.118651422152042052e+00
-7.385553792354392355e-01,-1.197482163281522460e+00,3.340144240223634209e-01
9.767827065640470874e-01,-3.528995967066558270e-01,-1.458257481791143562e+00
6.727337189849352805e-01,-5.490837661613530152e-01,-1.581590515196668267e+00
-2.033390136207237298e+00,-2.197480975183385421e-01,4.142701512642286976e-02
-2.841495809507070813e-01,1.538858354235307591e+00,-7.731929897805815965e-01
-9.803760897921089124e-02,1.178057133878283702e+00,1.252369530454986446e+00
-1.176963323945689754e-01,1.523371342156921049e+00,4.926085309239198184e-01
1.192483046636102939e+00,7.257646199412004506e-01,-4.943099419132690464e-01
4.528317938816477373e-01,2.994826952329987524e-01,-1.512767986531277531e+00
1.528343174956501606e-02,-9.608033614339064332e-01,1.147750843616620609e+00
-1.087435396263533471e+00,9.322266019247125168e-01,-6.550324497375031862e-02
-6.562575790744430426e-01,-1.231510675041450842e+00,3.938375885819502265e-01
1.727057865726455921e+00,-3.042262826169957468e-01,3.751712470952357492e-01
1.615864962087370182e+00,-2.426628769613173586e-01,-4.512024554843125368e-01
4.765553614113179348e-01,1.071417610562119593e+00,1.068854070918573651e+00
1.499639715768082970e+00,2.599914151912100513e-01,4.523484029580618904e-01
9.204678925186863259e-01,-9.353933759986767793e-01,-2.946592931138804494e-01
6.971064623962875961e-01,-4.157741660413817875e-01,-1.992347959846358929e+00
1.262821364546617753e+00,-8.288245078476977890e-01,1.003287321295506657e-01
6.269105743096924366e-01,-5.848127326767822431e-01,1.403800551440715472e+00
-2.157834336747009585e-01,1.478063100734972490e+00,-8.084367596925815525e-01
1.170860388477757308e+00,-1.152898173883466937e+00,1.103778003728495216e+00
4.694848731067156611e-01,6.574646854918987371e-01,1.216207910424902172e+00
-8.069429309328309818e-01,-2.767130289674948340e-01,1.292855975866683549e+00
-4.277492375578766937e-01,-1.418669108492510711e-01,-1.393951398724240676e+00
-1.037442050152815876e+00,-7.829857335239041038e-01,-6.958766778210386805e-01
5.752228626717366122e-01,-1.102619169143526090e+00,1.486482464455829433e+00
2.536464390197298857e-01,-1.251766493968692606e-01,1.611171636693091491e+00
-1.500364330910386679e+00,-9.464540075218550452e-01,-1.966400197761626056e-01
-4.562674421961929183e-01,1.681171408782508259e+00,-6.324644626938051850e-01
8.978191103728119238e-01,-1.379394186083786389e+00,7.542969997543691463e-01
1.041680796809606235e+00,-1.466341362997831022e+00,1.216865642638102596e+00
6.973311426884407638e-01,-2.257084596245468588e-01,-1.912118952854729326e+00
-3.509821909380504978e-01,-1.796455901308317227e+00,-6.454646598119749834e-01
1.296776764648013724e+00,7.172086459079505261e-01,-4.173793638917956406e-01
8.338628971532718870e-02,9.125356918459563982e-01,1.441498537204467301e+00
-1.128079262879680522e+00,3.350848973996098379e-01,1.311507650580332252e+00
1.344316364333502767e+00,7.135627091182826787e-01,-3.855985210323560897e-01
-2.977178991789474274e-02,-7.866269607011561193e-01,1.351318861621649603e+00
-1.567537229088004636e-01,1.491682575555082435e+00,4.796328536688855837e-01
-5.075318766584960839e-01,-1.876437175930080858e+00,-8.117959977932018845e-01
-1.594906220686079790e+00,-6.389376042045279425e-01,2.407332256593869291e-01
4.675703909265213620e-01,5.172113787332409673e-01,1.246784273689070632e+00
-6.907476739443634273e-01,3.832592752730722141e-02,1.740081650263001434e+00
6.498067736240707992e-01,-4.735987289296502145e-01,1.348278399666853034e+00
1.317154344686452538e-01,1.902316200581622319e+00,-3.235104399826101845e-02
-2.046068748947281468e-01,-1.232552456352543180e+00,-1.251384804222958280e+00
7.583612421504111190e-01,4.150852984310825500e-01,1.005336836154454128e+00
-8.440419013290135775e-01,1.415209349096611335e+00,-1.357568393436238807e+00
-1.941511300484934366e-01,-1.855639836702624335e+00,-3.343114781665854876e-04
1.667426088178583787e-01,-3.536780781067965784e-01,-1.860389638466881213e+00
7.916347054945278572e-01,1.012575376017808004e+00,-5.165181683337336516e-01
-1.067751181585876674e+00,6.908565288534121995e-01,-1.066716059042851938e+00
1.257530181370166034e+00,-1.164262245942976781e+00,9.017805229510297282e-01
2.559651200310555930e-01,1.294416569030039321e+00,-5.949341799076252046e-01
1.246379259205423251e+00,-6.055226265912436873e-02,-1.300981471224093022e+00
9.209005613386610223e-02,-1.572343351233405739e+00,-3.358101820186004116e-01
-4.179293458943477702e-01,9.389005646093571134e-01,-1.553752413428746593e+00
-1.293155970114666653e+00,-7.873006631443340009e-01,3.766634197659139427e-01
-7.867420224689989361e-01,-1.561423462085822500e+00,-9.693315616020738157e-02
-1.050043397692968644e-01,-1.725257614575905984e+00,-3.418582042056897974e-01
7.296050641537016324e-01,2.666407741025794143e-01,1.097062545805615574e+00
5.049050479256044222e-01,-1.346222363739705552e-01,-1.989969632007482891e+00
8.236783793528055231e-01,-9.804737364508252506e-01,1.347510621019492483e+00
-1.747203547630579612e+00,1.946762109221854276e-01,4.272027396654181075e-01
-1.990626419028284522e+00,-1.699636506508645506e-01,4.915748894521715373e-01
-4.339132665496057140e-01,6.456199350473481591e-01,1.885619914369955685e+00
-1.011844516479466050e+00,-1.468527872572368942e+00,-5.091310140990719102e-01
-1.249605066215570215e+00,1.081631730263898916e+00,-1.030192695905230105e+00
-1.705332389694943496e+00,-1.537913652286194144e-01,-2.795052819773198860e-01
7.381746055224012171e-01,-4.064895292852407915e-01,-1.885243122197594712e+00
6.132252770234515316e-01,-8.985427169204009967e-01,-9.281988669477275744e-01
-5.009602850256724693e-01,1.206609454314535146e+00,4.528633054714318873e-01
-7.155975286511849776e-01,-9.273766919321372315e-01,-9.157225230336031307e-01
-2.382500243607229840e-01,-1.961199131011124086e+00,-1.300328618099046984e-01
-6.481035332874387489e-01,1.495450432336258295e+00,-1.125218619916861673e+00
-5.680905879788595847e-01,1.169798557667709182e-01,1.884161582931465961e+00
-6.744043499984743173e-01,1.274489226234830630e+00,-1.432094475896677821e+00
-4.227925322127703417e-02,1.801182534989646200e+00,-5.006188839639819088e-02
1.085909272424098182e+00,1.300809592273519888e+00,4.798919913100774259e-01
-9.354068188514663706e-01,4.390124548193991005e-01,1.367239926597829447e+00
6.147464896898283682e-01,-7.040510769776824329e-01,-1.427057985397278017e+00
1.720287325215698715e+00,-8.784192635955885564e-02,-6.813312291126184528e-01
1.295182604593554387e+00,-1.833174354779532611e-01,7.506377801106485226e-01
-6.810698864395611229e-01,1.362942667997088853e+00,-2.892197582588341143e-01
2.648391244423095037e-01,-3.134929593386275304e-01,1.664100109205785216e+00
8.312647847143718183e-01,1.504236961184097776e+00,8.479811654889175820e-02
-1.630568970266022433e+00,8.742690359519426913e-02,8.902712308220908088e-01
2.289039678970091751e-01,7.772704769292286819e-01,1.390329457178916872e+00
7.267612940813113209e-02,-1.610003491922548768e+00,-2.816783806568456394e-01
7.896087343788047441e-01,-7.565089830384309488e-01,-1.018224471009546273e+00
1.344449533234268523e+00,-1.882929063446391604e-01,6.602795288662414164e-01
1.157723526555030080e+00,-8.252615271159343679e-01,1.019144501660254498e+00
-1.507301154365927320e-01,-1.054960478994742545e-01,-1.664971598702837063e+00
2.505463097663876981e-01,-7.523937340454490696e-01,-1.829285731982412289e+00
-1.164479322870709987e+00,3.066289512751185081e-02,-8.120450859166729041e-01
1.037228708141969324e+00,-1.437151171223963297e+00,1.323442429544601229e+00
-5.385441440094751453e-01,-1.970201726021797217e+00,-6.953506084893580352e-01
2.794615152566660154e-01,1.486974369337071167e+00,-4.002434668524548211e-01
3.836033788047220061e-01,-1.478247026491996907e+00,2.442026151707586690e-02
-1.286051403075086363e-01,8.688200294526601253e-01,-1.323325613715929716e+00
-3.870463781772305878e-01,1.527826437163896989e+00,-1.062016370731017068e-01
-4.766973951500499407e-01,5.169012788233013911e-01,2.071141126238361885e+00
1.263133894556206505e+00,4.256774037743842332e-01,5.627948717888127117e-01
1.806815511921971429e-01,1.329402596973510153e+00,1.231929649120052872e+00
1.648674537611470869e+00,5.153931546857638546e-01,2.026800289942581879e-01
7.251977051556863785e-01,1.716840437490973814e+00,6.708832750730098216e-01
-3.979501974703189005e-01,1.276937876385035198e+00,4.831966976087266885e-01
9.034019216255844142e-01,1.201738347182145228e+00,-2.043290044975430431e-01
-3.563485060254965864e-02,-1.628001779575534380e+00,-5.242800571621560879e-01
9.398680941043109360e-01,-1.123943383381904360e+00,1.302130044683117660e+00
7.568133867090809375e-01,-2.464846775631953646e-01,-1.856420312746164925e+00
7.767910824660587688e-01,1.431515332033313159e+00,7.105290127909826836e-01
-7.375690048006954269e-01,1.517911801458906806e+00,-1.136981657704817961e+00
5.951196692851058456e-01,-1.485970313670112786e+00,3.314934700418738500e-01
3.476181475074695548e-01,1.021063014750524411e+00,1.183905372632194419e+00
1.114432306896675717e+00,5.592734218539822111e-01,-7.253087289658685100e-01
-1.967982319923843981e+00,-5.077223330817484115e-01,4.881347890162413689e-02
-1.052050996225533552e+00,1.150988822224018326e+00,-5.078242202116048931e-01
-1.026842001626041417e-01,-5.512847775606984912e-01,1.560201251154945012e+00
3.878194579288913868e-01,1.947440802732103737e+00,4.835118487786602692e-01
-6.299048397140416533e-01,6.847416755426659618e-01,1.397211666684229581e+00
-1.076770721983873802e+00,2.435433412343697146e-01,1.557481768571035152e+00
2.289704835169885933e-01,-9.243528499920550257e-01,-1.583607968323051729e+00
-1.887975402358138197e-02,9.472846688936988890e-01,1.518279867608292699e+00
1.447517235496870391e+00,-8.555656288851264391e-01,6.088944449163682382e-01
7.444450577322251350e-01,5.802010081922455154e-01,-1.035123541962905014e+00
-1.910940869738327746e-02,-1.834592761714295417e+00,1.884756563895026091e-02
-4.261366359002892179e-01,8.529580675786331279e-01,1.410831379620915316e+00
1.074030213505542120e-01,8.568399497567684708e-01,1.466187165106400903e+00
-1.783263924596597827e-01,1.581354138873123649e-01,-1.654044329599538843e+00
1.217212407984696654e+00,-6.704094737772507973e-01,-3.051357272662696962e-01
5.625569543597145339e-01,-1.579680515845532929e+00,5.510693010133620451e-01
1.274515102523739118e+00,7.324479078016447042e-01,4.506503584378304672e-01
-1.450976620350639346e+00,5.702669519798883035e-01,-7.088111654703611597e-01
1.051629156932726961e+00,2.681289521078217830e-01,-1.103641801456693994e+00
-5.747829423729140519e-01,5.591903106769083864e-01,1.812639631726197909e+00
-4.886132488883551672e-01,6.338830495575284996e-01,1.791711376496355479e+00
6.100520353389747852e-01,-1.131061036961323207e+00,-4.012113043107069510e-01
3.562520519982558254e-01,1.825258985964770542e+00,6.683240480312110376e-01
-3.176848982953946465e-01,7.381278355526076362e-01,1.858730454228733731e+00
-1.687011642222118191e+00,-8.443854522544800290e-01,-8.696319230871779604e-02
-1.538200968729520612e+00,4.497333517707627903e-01,2.117277724565677921e-01
-7.555501669394173447e-01,-1.154933841275404216e+00,3.881018146923449486e-01
-8.436001486673890826e-01,-1.692334369025044305e+00,-2.844773834291887127e-01
4.421811755465559490e-01,-7.967954451599096322e-01,1.649042467516159238e+00
1.625710852748192270e+00,7.064887168001509066e-01,1.470557319118496742e-01
1.492724644841657344e+00,-2.908355089868104870e-01,-6.573018406697085370e-01
1.667867120947613913e+00,-9.607553358669691790e-02,-7.519901605550982637e-01
-1.157032617216282588e+00,3.441570479352426548e-01,1.233288712156317635e+00
-1.643661147447984971e+00,-3.573701499243375768e-01,-2.913042178506315416e-01
1.839157643801293762e+00,-1.688317985144166533e-01,-3.321588555361704720e-01
9.346937270284233490e-01,-9.003441276743698873e-01,-2.948571208913940978e-01
6.443457771408149792e-01,-1.526557991741783749e+00,5.852970265721330057e-01
-4.668464800492600486e-01,1.479496665061877714e+00,-1.044938803015772466e-01
-6.805489602006876693e-01,9.222525088232219614e-01,6.917721764545347041e-01
8.890070757225948528e-01,-1.356864535580053266e+00,6.285123956251905675e-01
6.520021584490798272e-01,1.997313278042879281e+00,6.303576088627609320e-01
8.196269945064394991e-01,-1.179393718482126152e+00,1.842517586153345766e-01
-1.097944179822695432e+00,9.045656637132448719e-01,3.530045211417693132e-03
-1.607808644997838154e+00,-1.525109485381252739e-01,-3.687407168336914731e-01
-1.662812759086112480e-01,7.462843913306895782e-01,1.737454592545960352e+00
3.882841734175849213e-01,-3.266948078572272374e-02,-1.942068891685110099e+00
-1.409931346489719628e+00,-2.948828795797795999e-01,7.761000980707747354e-01
7.865566659318456999e-01,1.738215228687176817e+00,2.956876578670381561e-01
-6.304371467251022043e-01,-1.844331818842364967e+00,-2.878003370619310330e-01
6.748068398095614651e-01,-7.841914476244681020e-02,-1.749211667478656418e+00
-1.111165182566871135e+00,-9.448382595560206321e-01,3.171207941614472836e-01
1.174552514946572757e+00,-9.979221270886760031e-01,1.091223768639051350e+00
-4.441044926974422880e-01,-1.816505219203029542e+00,-8.716450089619148800e-01
6.122454140032695946e-01,-3.181719339406601788e-01,1.343848460348551210e+00
-1.558965595005341043e-01,-5.728766616591134397e-01,-1.474465235619043302e+00
-1.961015144422304790e-01,-4.696978845631753496e-01,1.542175438956836730e+00
1.114043923489834498e+00,-1.020966708101925136e+00,2.723281370501232090e-01
-1.293564636079595376e+00,-8.505865858060595031e-01,-4.297405678996442657e-01
-1.044525212091194533e+00,-1.066265552061922639e+00,-5.727832512009001231e-01
1.490720902811812631e-01,-1.703220415549960398e+00,4.601678796142316119e-01
1.183214731742779247e+00,-7.557588957996577150e-01,9.729777767912639597e-01
-1.436383638072476210e-01,2.738484600265065350e-01,1.849943488996221630e+00
-5.648614259952617900e-01,1.397858073513605248e+00,-1.147117155157169055e+00
2.915281172629277107e-01,1.827027819764306615e+00,-2.106662486040388263e-02
1.222480410605230272e+00,9.951543867061988236e-01,-1.556738015956396215e-01
-4.433537268336171788e-01,-9.059145372684358488e-01,8.856153653580236540e-01
1.172524156745967938e-01,4.098525099378130809e-02,-1.906524058069612559e+00
-6.726535461049087949e-01,-1.017534466652747716e+00,-9.225260054989952163e-01
-4.601342409027538438e-01,1.615712756441727072e+00,-7.954146020132730754e-01
4.906539208418826403e-01,-1.061169222542050594e+00,1.457027685581516740e+00
5.914659024101908136e-01,-6.257008738165281692e-01,-1.632508283497651647e+00
7.640662519358717431e-01,-7.991326363826257717e-01,-8.585146309405694565e-01
7.408162293556155853e-02,-1.824312909600234622e+00,3.396375191364352508e-01
-9.673626349540345171e-01,4.393305548625605628e-01,1.316641573020513656e+00
-8.408660282551738696e-01,-1.329395466691758898e+00,-6.819150637303956763e-01
7.121319273367949787e-01,1.880805186242713756e+00,5.844344421520575317e-01
1.457696704443937952e+00,9.739742094664405325e-01,-1.400656512920582693e-02
1.569430866603066077e+00,-2.246195903377852798e-01,-6.717129294907238091e-01
-1.211607802676782697e+00,1.215893183354270324e+00,-9.388762789880523707e-01
-6.521592259546558079e-01,1.197723595161422239e+00,1.617553754757605489e-01
-1.401534440116573021e-01,-2.189147689067755809e-01,-1.594810360055766596e+00
-1.696038813874263251e-01,-8.658070879061339209e-01,-1.351807950603890474e+00
4.676283242957579578e-01,1.819170819407586848e+00,1.168656331877175464e-01
-2.006896021802544894e+00,1.028542854764616654e-01,9.929469603955948243e-02
-6.972965955947699745e-01,-3.574792379658844332e-01,1.295243804960873213e+00
1.388581715708963715e+00,-1.638173026551351386e-01,-1.216146799410312118e+00
3.226462370330896445e-01,1.352297724349522445e+00,-4.850045172303871222e-01
-2.058326959116763000e+00,8.581779789982871276e-02,-1.138554123961799114e-02
-9.467394966503590581e-01,-3.068305785132222074e-01,-9.095617149854816619e-01
7.387560495500586910e-01,-1.463553635901094108e+00,5.981203998434582170e-01
1.597251409246820686e-01,-1.098548121243745124e+00,-1.312806467605530880e+00
6.507820818189347101e-01,-7.928023238083617974e-01,-1.115321147509303668e+00
3.059866959784721119e-01,1.715013171855105156e+00,8.462119298578828497e-01
1.911747927642595490e+00,2.966029366606172113e-01,5.084128200311766738e-02
-1.213958361069779945e+00,-1.188391305338204695e+00,-3.794024803264975931e-01
-1.145479786225784169e+00,-1.532334444341587609e+00,-2.971525250862795398e-01
4.713154942423237737e-01,1.610361439326163602e+00,9.009803525749355835e-01
-5.843691435715677729e-01,-1.114299263509031412e+00,-9.737734333655826413e-01
5.126166219320485995e-01,-1.090667365112470533e+00,-6.608905484483983406e-01
7.080135862182821427e-01,1.882309545936892148e+00,3.357054494567143221e-01
-4.639950271501405016e-02,-1.451403300329605850e+00,-9.695739129429207237e-01
7.600442833298924894e-01,-3.792647261488929500e-01,-1.863940032996339591e+00
-3.447874787757972959e-01,1.129122064264769909e+00,9.331408100800752115e-01
-1.248951687628362173e+00,-1.313994749760071024e+00,-1.798064169021139358e-01
8.763896257879683072e-02,-5.991010794724609401e-01,1.629568501401784886e+00
1.400269937404502174e-01,-1.675967970546376806e+00,3.416257330768811967e-02
2.072069114408589541e-01,1.669904257354739019e-01,1.583433533974210050e+00
5.381790874133564051e-01,-2.559399463689038812e-01,-2.086891267836004094e+00
8.925508271435376173e-01,-5.404173719908094142e-01,-1.281474803822683084e+00
7.098707498882864675e-01,1.793202773598228106e+00,2.469242796934463524e-01
5.623391645942666939e-01,-1.512578134342779324e+00,1.049896326621761355e+00
-1.579195405832191090e+00,4.071805073700221489e-02,-4.580377540108616086e-01
-1.129464719451492849e+00,3.629572974727922618e-01,-8.980163710264418286e-01
-4.220257993945835118e-01,1.252428676691551779e+00,5.386151968443658733e-01
2.133877558688527520e-01,6.559593873849786094e-01,-1.359966563548668184e+00
-1.792384252821045132e-01,1.046252703942560869e+00,-1.214288218343246628e+00
1.125597250931759774e+00,-1.079036590010724161e+00,4.890985994468545761e-01
-4.380146345118003381e-01,-1.041917908383634517e+00,7.459534599062028759e-01
1.786469599131584207e+00,5.237915764409346586e-01,9.591475014866261695e-02
-4.124179404960092166e-01,1.157738033223982832e+00,-1.285552134303840521e+00
-1.390959168208794949e+00,-1.088039493063572616e+00,-6.828033043002025571e-02
5.599143999779674363e-01,-1.391658001594487049e+00,1.142134728588475756e+00
5.587457485217112163e-01,1.027615615003433375e-01,1.258929597760894303e+00
-4.997793604840539694e-01,1.100467070381639934e+00,6.584014328090911361e-01
-2.065177201421689035e-01,9.058197649898171999e-01,1.706833896662336647e+00
-8.975589773356416057e-01,1.007441309593634982e+00,1.688564904133918188e-01
-1.044974738585812801e+00,8.805286166042528562e-01,9.184316059170656577e-02
6.322437954169958518e-02,7.757431483764257729e-01,1.537800609256512185e+00
-7.252917506362760447e-01,-9.851046656099928800e-01,-8.712115504435891111e-01
-7.019620603280992688e-01,-1.976434734026705664e+00,-6.181805353389764335e-01
1.026858185408131119e+00,1.884443274423342196e-01,-1.193298247961509517e+00
-6.015047725336579720e-01,1.342709672920400221e+00,-8.756115415461256102e-02
-1.299917691045646695e+00,7.590790396127713446e-01,-3.041914902624235154e-02
2.166747420803471491e-01,-1.555675670879622219e+00,-1.895048742387926421e-01
6.310227644336070529e-01,4.194131137170513113e-01,1.124982451654648496e+00
5.045843874069427804e-01,-9.333614982334182963e-01,-1.152482102035307543e+00
-1.336748295230099082e+00,1.042900512008665403e+00,-9.502674276274197807e-01
2.335157278827443839e-01,8.459809131690884110e-01,-1.131693324667806699e+00
1.794915225901341671e+00,6.892382723322285631e-01,-7.798778536020155305e-02
1.716519156804215074e+00,5.628695632332533227e-01,-2.913659659821003500e-01
-7.461514358038708883e-01,-1.092488407653025684e+00,4.247425121364091782e-01
-1.786900896715087339e-01,1.336107627341111881e+00,-8.783025707714212649e-01
3.993266902445217759e-01,-9.647531631672831010e-01,-1.132815756700120025e+00
-1.155312249921788714e+00,1.319026043233537671e+00,-1.010505128482283244e+00
-4.944853547889330736e-01,-1.840515843398541351e+00,-8.169637504980681308e-01
-1.195713571311238121e+00,9.922934270132249823e-01,-4.041503164719071339e-01
-8.832249565526513191e-01,-1.841118391699369639e+00,-4.976873898316590550e-01
3.394826551394630049e-02,-8.280805896771243901e-01,1.354998643483746879e+00
-2.491322877466488894e-01,-1.592522041851140990e-01,1.874705276519259334e+00
-8.452727695352882931e-01,5.441844135272603245e-01,1.259404252075831954e+00
3.563714130172382921e-01,-9.226204266210359384e-01,1.507815177802239059e+00
-8.311321848835026560e-04,1.297768068904991745e+00,1.184692132293033273e+00
-1.843563371727422184e-01,-1.187236270101108992e+00,7.782681618428656245e-01
1.154136406925512226e+00,9.109061729221140657e-01,-3.500593546620073271e-01
-1.319100826412556993e+00,-2.784516269889107942e-01,8.499727222935382631e-01
-5.525608983627965792e-02,-1.414602007577580256e+00,6.276604450228611132e-01
2.005203041911978179e+00,-3.760108651866472806e-02,-2.312028528512879988e-01
1.108381915893518865e+00,-1.022533774719339039e+00,1.157150730877216871e+00
-1.276522525231258420e+00,3.620466387393681540e-01,8.272893452580247775e-01
-7.780945883994440093e-01,-1.711104840336332478e+00,-6.614234938235625805e-01
1.043705202723804293e+00,-1.037416835195827058e+00,1.177632752059992960e+00
2.700279694352843429e-01,-1.098266171904179744e+00,-1.174431768881746718e+00
-2.179545310794298807e+00,-1.983150873740225639e-01,2.734984497633594080e-01
-7.776640136518337965e-01,-2.957571508324177700e-01,-1.036227109284541648e+00
-1.009933764064265160e+00,6.931824454436638638e-02,1.498749086227805227e+00
7.375167528923307625e-01,-9.808399185001778209e-01,-5.256298089795922168e-01
-1.877060761680475753e+00,3.801476782508522723e-01,-2.208343558987244937e-01
-7.743696555492380895e-01,1.436826796723515987e+00,-5.537045406765123134e-01
-1.482081548192270004e+00,-4.717104541111854510e-01,5.609668310615798514e-01
-4.111720634406123565e-01,-6.407295658778285885e-01,1.168128188666207601e+00
1.463004932686428283e+00,3.727403274130964839e-01,4.196107542928954048e-01
-4.546961901067306244e-01,8.313419146073952604e-01,1.464339691749762196e+00
-1.468253910719671929e+00,7.652282085689041669e-01,-4.245580460959125779e-01
-1.388863004414447433e+00,3.995657851341770095e-01,6.066766440076531985e-01
-1.650686212126503127e+00,-8.356985659489613028e-02,8.046853532458960734e-01
3.813236408193552140e-01,1.181752878935838469e+00,-6.170413304630387730e-01
4.528823941422398525e-01,-6.867736457305815279e-01,-1.739025064647736318e+00
3.703965064955096476e-01,4.646676381125047772e-01,-1.398176384959175511e+00
-1.199548412995656177e+00,-1.131564763072810065e+00,-4.020138790741392687e-01
4.021907690459635698e-01,-9.759528161168743443e-01,-1.149052617686275646e+00
-8.676340296102106331e-01,9.600716980753069008e-01,3.916029645094090683e-01
-8.882359088038559447e-01,-2.686058807592314746e-01,1.219782238782942896e+00
-7.972117856867955155e-01,5.395190385178311177e-01,1.452910144143118920e+00
-2.725579815359921096e-02,1.810512809604964080e+00,-2.766409623487734448e-01
8.149528836273048915e-01,-2.425000142920531038e-02,-1.621620227651998425e+00
1.310540302849923233e-01,1.261102695772834625e+00,-7.580346784159760487e-01
-2.923273221188526505e-01,1.006765683143846291e+00,-1.325309247526724965e+00
7.833890588470356908e-01,-1.425309635618055237e+00,1.301653714061509204e+00
-1.147744692873591488e+00,2.987199481139922730e-01,1.337411984826526012e+00
9.919247570267579750e-01,9.145220845842070290e-01,6.384446510538387409e-01
6.471271817164129248e-01,-4.545068729237821126e-01,-1.939064036861345874e+00
1.446720673350462061e+00,2.288036926820385397e-01,-8.044660356285904257e-01
-1.058539505543101278e+00,3.530637112570628178e-01,-9.658677155579804552e-01
-8.031336549514379586e-01,-1.427144507943416851e+00,-6.897120800677696284e-01
-1.823107828500754035e+00,-3.028105115969608602e-03,-2.217752255994684119e-01
-2.100165444005225979e+00,-2.883518481043803039e-01,9.280697773183664567e-02
-2.714536948142105000e-01,4.426871228482902043e-01,1.873660276673464020e+00
4.751629254207574427e-01,1.000837875929451726e-01,1.314854887709850262e+00
1.996638361213909363e+00,1.339816648109191932e-03,-3.594631122780876376e-01
-7.953935801658704730e-01,-1.072983695909099255e+00,4.325972090847635121e-01
-1.446360708792708283e-01,5.558761070718916120e-01,-1.750742533106210308e+00
1.705584224688298844e+00,7.985436038117227353e-01,1.050999859119482877e-02
8.780334998343763964e-01,-1.547208856876391092e+00,1.120190383702677206e+00
6.064178211185667494e-02,-5.093905491170144240e-01,-1.718020372792628869e+00
-3.019612852201056796e-01,1.564719729682171545e+00,-5.846242352824960326e-02
-1.162649316360552687e+00,5.926275686503592599e-01,-9.853689284707051188e-01
-1.058401855768917876e+00,1.333868151564022275e+00,-9.422853307519850619e-01
-2.938522198604313629e-01,9.256965345354969954e-02,-1.565873958387475007e+00
-5.788710491082075249e-01,1.648458603415806634e+00,-7.319718603396243584e-01
-2.612683220796687134e-01,-1.880553172731466605e+00,-3.355466425661164376e-01
1.455895329867484600e+00,1.077016420143061870e+00,1.070774775384615851e-01
-5.042385393600524734e-01,-2.314731973064816650e-01,-1.272146422841938129e+00
2.582213934240596906e-02,-1.425273854588302358e+00,7.270680554139251628e-01
2.744018370763492976e-01,3.565195843862753455e-01,-1.623871450959854412e+00
1.398774633974353643e+00,-5.461252227844003160e-02,-1.154001954324987977e+00
-8.775023989525079227e-01,1.509129183188670620e+00,-1.037894900910923734e+00
1.831543345493281016e+00,6.953384493359464624e-01,-2.256003027924687043e-02
6.335200134962709617e-01,-2.565132333890256522e-01,1.337161947863953371e+00
7.200341343567329133e-01,7.449159311838030595e-01,-8.017043388783455793e-01
3.441090181560608197e-01,-1.171272177387046254e+00,1.231423925734448366e+00
6.312166304386997995e-01,3.739540086643077799e-01,-1.351533288246228315e+00
9.868123993023455442e-01,-1.140640799174459152e+00,1.282268676854279477e+00
-1.337114041230566652e+00,-5.330469756458438013e-01,6.004447443091058823e-01
-8.193632317434493828e-01,-1.924602023478351631e+00,-5.124900145857095302e-01
1.359750322264457356e+00,-3.118995094153933501e-01,-9.414508113549880930e-01
1.819464815202538555e+00,4.658677503161004485e-02,-6.976587740104246427e-01
1.154252879123370601e+00,-8.680510545766849662e-01,-5.457544919455637605e-02
-6.900311503815690362e-01,-1.497114854254183447e+00,1.638216842160414646e-02
-1.222867574105694244e+00,5.332727644261042732e-01,5.947788172311847532e-01
-5.272887248676292327e-01,-6.786787005336694656e-02,1.746911228181405651e+00
-2.461492381467025037e-01,-1.753542573578278807e+00,-6.099144486648131469e-01
4.863330999579109637e-01,4.466719553908878315e-01,-1.385193239768122142e+00
-1.633998370126043209e+00,-3.018961143945440018e-01,-2.821579508096638822e-01
-7.711522405583678408e-01,1.049104501007231294e+00,-1.415028786558345075e+00
-1.134714379625387126e+00,1.111757720978499453e+00,-5.259071841021386584e-01
-2.469200464001521655e-01,1.247196206556105746e+00,8.375504903298386372e-01
-1.617958347568927646e+00,6.416157894440005505e-02,-3.877219620853819548e-01
9.462427976028416066e-02,1.324341931398198113e+00,1.313774628107256204e+00
-7.337338157675031836e-01,1.521471904442516898e+00,-7.375912686153757170e-01
