8.166827849903574688e+00,4.441956043863783954e+00,-5.340995387394928962e+00
4.644806692820449001e+00,7.083349116676208368e+00,4.890690216552297187e+00
-8.069627081771425736e+00,-6.101510768334208912e+00,2.625063327737581442e+00
-7.084705754777516518e+00,2.408022938918878975e+00,-2.558405582699006864e+00
-7.550404262863979810e+00,3.653163985619722887e-01,1.405278445547796240e+00
7.007168476127781709e+00,9.319228113811186542e-01,-6.728293728538478291e+00
6.791234325361704016e+00,8.192928439334781210e-01,7.268681540001227681e+00
2.728060484894532789e-01,7.359591983054142972e+00,-4.208407017779586812e-01
-7.462503609692862305e+00,-3.900696249869474386e+00,-2.697810567768331946e+00
3.924677965924552758e+00,-7.810658414975589992e+00,4.512942038445864057e+00
8.330900790679802714e-01,3.809218802740680587e+00,7.630022490077428721e+00
-3.348484732793245211e+00,7.695850934603978288e+00,-3.072235148840522623e+00
6.487866988525903267e+00,-5.082513084277201720e+00,7.340349609843886292e+00
-2.062539394866217624e+00,-3.461819527388107609e+00,-7.761607704210418568e+00
-2.765983003159769860e-01,-7.569759508737756271e+00,6.500371196800493578e+00
-7.138053362677694302e+00,-6.620837042466069633e+00,-7.058193283887484348e+00
-4.455444798857763899e+00,-5.814752269582899480e+00,-7.989893740558747126e+00
5.075376264425532913e-01,-7.478977623308760592e+00,-4.910967304243438747e+00
-6.879939070868363871e+00,-5.469275101890001878e+00,-8.243734085766522668e+00
6.898383123138486894e+00,-8.600761417534709130e-01,6.133969224018779975e+00
7.587913879827103969e+00,-6.204190579885958456e+00,-4.584795185225297054e+00
-8.628123512743984813e-01,-3.546282287735353922e+00,-7.589308734422268721e+00
-2.584593761490813879e+00,4.139606400949435105e+00,-7.546945138465238401e+00
5.496650279105860903e+00,5.227492041149800484e-01,-7.066501258234753280e+00
-2.346690582163662331e+00,-2.071989414450786882e+00,7.285913332224697392e+00
6.761091105645174792e+00,-2.988142866429035482e+00,5.837495250432799487e+00
7.108596446580501826e+00,2.805392726727138797e+00,-6.621204363756611144e+00
-6.480911271059106582e+00,7.103515935185701125e+00,-7.245132195109507123e+00
-2.253596856599543174e-01,4.893636554833609154e+00,7.506622975143193877e+00
-4.515082313156803390e-02,5.769319317358879040e+00,7.562106166952040631e+00
7.971975397331492630e+00,4.072185093332984174e+00,-1.925368592631406361e+00
-7.382983982684621971e+00,2.086769844055222922e+00,1.685863257315741048e+00
4.908696312657693239e-01,6.543754301805670082e+00,-7.269848273594165633e+00
-5.261447408831390504e+00,3.916051378419609375e+00,7.020738421680023933e+00
1.318844670787318707e+00,-7.342772112925901595e+00,-7.232583803079760010e+00
-5.980783721440151801e+00,-7.058083869806936583e+00,-3.317064745211282695e+00
4.832358366199651201e+00,2.936102620076780578e+00,-7.035452259143030851e+00
6.871238029624773702e+00,-3.441360593848203919e+00,5.152845718930376684e+00
-4.751325825311154993e+00,-7.319988437154193228e+00,-3.236844115351070195e-01
-7.629492096843470073e+00,7.403655315412597027e+00,6.292991609693935118e+00
-8.140225592279751510e+00,-7.128246101455477657e+00,4.322357428022923109e+00
2.267722591059319726e+00,-2.174594899731447484e+00,7.676828691296119445e+00
-1.663657081262485571e+00,-5.715022832560215704e+00,7.239970778652947914e+00
1.793740608990082919e+00,7.339602776024577224e+00,4.153050329019405851e+00
7.030891243373692312e+00,-3.446234342375432025e+00,-6.796124260972868925e+00
3.134891047068307124e+00,4.680132467128089502e+00,-7.169094541692790479e+00
6.959347441955972435e+00,-1.134996374043083650e-01,5.143334940920816223e+00
4.150884431929622448e-02,-7.460881499260369587e+00,6.313931827682445430e+00
3.720099761639183544e+00,-7.746606629573971503e+00,1.685318479401933578e+00
6.703214589415241065e+00,3.477213695567051843e+00,8.080334900885754124e+00
5.710538808163476254e+00,-3.202294325947537601e+00,7.900104871224294278e+00
-3.086907923440428192e+00,1.421600054800206570e+00,7.205705725574344633e+00
4.952625089146337700e+00,-2.523064329975464926e+00,7.755226632655978669e+00
6.819479879098520492e+00,-7.648897881791895337e+00,-3.922266280137312489e+00
-5.421677968867466113e+00,7.655360840333035100e+00,-4.001044396776293866e+00
-7.329425670023881345e+00,4.215259532743528936e+00,7.528194572588552402e-01
-2.624272726999413052e+00,7.657218698630922304e+00,-3.842235363264660641e+00
5.378193719824857055e+00,4.377262541496627968e+00,8.018868714952775534e+00
5.373156439288510278e+00,4.517456668671398390e+00,-6.874397116240857031e+00
-1.343832619513690485e+00,3.030770431463073233e+00,7.429331879851704734e+00
-7.360597821441384525e+00,2.602440186482434470e+00,-8.074625090403587668e-01
1.393149413722390706e-01,-3.893129835231912583e+00,-7.415086031553405732e+00
-4.232241170483781900e+00,1.604298299903144098e+00,-8.008269248694523057e+00
-7.115077270450665736e+00,6.194839118756828356e+00,-2.708621039713243750e-01
-5.115987592609991808e+00,7.697192201693148661e+00,-7.393597548934197405e+00
3.354375566246144746e+00,7.049140863677952673e+00,5.543166420955691009e+00
-6.304333567226195756e-01,7.696567979224004930e+00,-6.280935470307491997e+00
4.627319138356100758e+00,1.533516548698750315e+00,-7.017636912337708033e+00
-1.613283755869159508e+00,-7.414035547420529504e+00,5.391250398589184201e+00
7.596004095463741557e+00,6.904061058660341033e+00,-1.865877993124757106e-01
-2.898108642422164039e+00,6.791257751075713500e+00,-7.646463409194876881e+00
-9.762465171688011756e-01,1.342320247388762322e+00,7.380633163417161136e+00
6.382179402965192372e-01,-1.454396463761750802e+00,-7.468757860001826288e+00
-2.651440442235523665e-01,7.428653592454336874e+00,1.445740052289181454e+00
6.903724712851786904e+00,5.993396088521973475e+00,7.544496510971097081e+00
6.873922949801772653e+00,5.292005583833892857e+00,8.235899409708643759e+00
6.577115714112196976e+00,3.683800248816513800e+00,8.127870769413997110e+00
8.086016361581675582e+00,-3.316372676242907436e-01,-6.627939468465080530e+00
4.777324882420294294e+00,1.107730466755441290e+00,7.954853704869453423e+00
4.335286934925401958e+00,-6.021930759292384749e+00,7.866191513109436428e+00
2.514469840836682124e+00,-7.705343409169295832e+00,3.953928493226845031e+00
-5.957897125989808806e+00,7.859229984157561688e+00,-4.901906797324317111e+00
-2.719921680455017032e+00,4.328096310151479109e+00,7.279290947023921099e+00
4.593612383287594136e-01,7.419372715810386154e+00,-3.988242349824520083e+00
-4.207979596930584876e+00,-7.140825530499475882e+00,-4.556942374514192373e+00
-6.835451558146142581e+00,3.228400184979483889e+00,-6.299827228037830018e+00
-2.008851798635553187e+00,-7.352630631122814009e+00,-1.953708194255299846e+00
-7.644937539252675940e+00,-6.429429810315331117e+00,-2.128854929551317721e+00
-3.064143543931698854e+00,9.802033966639542850e-01,7.075533500742944959e+00
5.685877794559066167e+00,-7.811124802809832346e+00,3.646477437426139279e+00
2.750971363334950848e+00,1.674683250322184902e+00,7.608571639609300163e+00
3.684048586233464651e+00,-4.607773297421809744e+00,7.731870679873571461e+00
-7.086371065055748986e+00,-2.503736627702926043e+00,-5.229695004073854570e+00
7.518649192956112337e+00,-2.262200442586893345e+00,-7.178462228732918060e-01
6.912711536365929277e+00,7.191159328159540287e+00,-5.296839697438167960e+00
6.074677046521169466e+00,-7.802496695475209521e+00,3.835176319328795103e+00
7.150234866908278697e+00,1.583406348468888725e+00,4.251078359282932873e+00
6.923575122542402482e+00,-4.160849880502425435e+00,2.813100625073295724e+00
-5.399572993120059117e+00,-7.147220399849274486e+00,-1.368557480968166429e+00
-1.381741652268701603e+00,-7.358232921458470521e+00,8.424072714543133777e-01
6.711815679509481214e+00,-7.571894804284021951e+00,4.415698539490235497e+00
6.994890278328724342e+00,-4.342525068786724063e+00,2.323786318742307788e+00
6.861714446623940589e+00,-8.913472051706717858e-01,5.328952079500937522e+00
2.285564911592071535e+00,7.327768120265763407e+00,2.658504968201660823e+00
3.975069010299445149e-01,-7.590799616809901451e+00,2.971394229360056372e+00
5.017380198017542092e+00,7.333908897688439232e+00,-6.068036655763402010e+00
-5.825836266173812561e+00,-7.239123525094907308e+00,3.297174551147165733e+00
-7.323464028025849615e+00,-4.933972042580629491e+00,-3.079128993524830271e+00
-7.381173993791859012e+00,-1.586230913098179762e+00,6.651786646448236695e+00
3.391583595360510017e+00,7.378845071260155208e+00,-6.232249657107779228e+00
-2.142812520846170354e+00,4.904700292528836880e-01,-7.595751194980210563e+00
3.905700902447224010e+00,7.446938323526292258e+00,-4.805745280575129286e+00
2.569035694085123112e+00,-3.593611581972651070e+00,-7.301457899376852190e+00
-5.363839795738792660e+00,-2.468803260528221521e+00,-8.029680484688975994e+00
-5.384123670626101976e+00,-7.326530400863719095e+00,5.124278557318350025e+00
3.295467827753115753e+00,-7.604709352738882266e+00,-4.639494199954856235e+00
-2.925565668829579469e+00,-7.213893651264292828e+00,-4.630230438269841708e-01
-3.522676521480291978e+00,7.577348114845891658e+00,1.160154548408626640e+00
7.074687198320807724e+00,2.478327185882609474e+00,5.301110984715278640e+00
2.370207803551330539e+00,3.449139787929770051e+00,-7.284272955136008143e+00
6.953384115908732177e+00,-7.081728464744728058e+00,1.933081343226590088e+00
-3.728122911172389031e+00,2.564455392809362078e+00,7.209136032461299415e+00
-7.379288401659171548e+00,2.169350809400399260e+00,4.159415303985400381e-01
-3.848972145666881506e+00,5.476130647225265768e+00,-7.796147713947287450e+00
3.339692581582494046e+00,-7.570250178171598066e+00,-4.713942707218425454e+00
2.194177471500596166e+00,-7.650556483349084225e+00,9.063139408540835107e-02
1.696468905903542712e+00,-2.914155115565836285e-01,7.640759332180722119e+00
7.544509972776939577e+00,1.130466153908739946e+00,-7.128164385688956495e-01
-7.692873043648897458e+00,-5.531241775824057960e+00,-1.051026584635438521e+00
7.219061462028137477e+00,5.327029753794202627e+00,5.938932031295193426e+00
-2.598842370187456119e+00,-7.315964673029974108e+00,2.496585900620716725e+00
-6.676907001177321277e+00,1.803295364886357000e+00,-7.603206507116637702e+00
-7.373950577094316117e+00,-1.859630549101916941e+00,-3.214480114997410709e+00
6.936082376441826902e+00,-1.156965046311352774e+00,3.651384766129005754e+00
4.106413730263542838e+00,-7.660571866432652754e+00,3.293781437049372762e+00
-8.131155543839389210e+00,-5.112163185480650185e+00,4.158898605942390247e+00
-2.520039267823587448e+00,-7.220974068181762462e+00,-3.550364632289340516e+00
1.269515926440047959e+00,-7.556875222270881487e+00,-1.376219405174726740e+00
8.060276509241584009e+00,4.240953678040664698e+00,-6.672683816640732957e+00
8.027542711732870373e+00,5.111225555786337083e+00,-2.787393483061463062e+00
-5.997348437601172755e+00,-7.293514680443973219e+00,6.131547983001211399e+00
-7.710361742951064912e+00,-8.663996539233077832e-02,3.770442267544237058e+00
-6.229736411165978538e+00,-7.236729670398622360e+00,2.429083155325458598e+00
-4.403357520560221339e+00,3.315769870239138051e+00,7.058669866237232249e+00
2.077508903303089571e+00,1.572568659331294638e+00,7.679240274258695820e+00
3.874025382073635893e+00,7.259003942845597024e+00,-5.753081001901015235e+00
5.596023892937401989e+00,7.140176540200308786e+00,-4.481576386606366036e+00
6.458673975552131630e+00,-6.529369360386720444e+00,6.874379757249037937e+00
2.774478685108892950e+00,-5.922864910465404975e+00,-7.282601855843237715e+00
-6.581998510018476800e+00,-7.046619893440278837e+00,-5.439668980477556648e-01
-3.450945072945123648e+00,-7.280773591799122535e+00,-4.016346773908445300e+00
-2.291027122349333478e+00,2.201089190969503839e+00,-7.673139547076075040e+00
5.089087346159122838e+00,2.855636182269298384e+00,-6.869216701860044516e+00
-4.223978691963544918e+00,2.051442386011899544e+00,6.958285974983736466e+00
2.749009960311504130e+00,-7.534535638017034742e+00,-5.730031861573101626e-01
1.583378964157394542e+00,1.909692311849212620e+00,7.743673825856754789e+00
-6.824103340773842952e+00,6.846555357264263897e+00,-2.774448380062341180e+00
-2.805854065442073608e+00,7.518940794256966598e+00,-5.095212560642690569e+00
-7.454215775821745105e+00,-4.255019484799360541e+00,-2.345662505047758639e+00
-7.046853314700648241e+00,3.654513352603190768e+00,-4.034061480171712510e+00
-5.923731598450183711e-01,7.519404745249894439e+00,2.053305509930640482e-02
7.234352208660094874e+00,7.352599917739732760e+00,-6.257659076491521866e+00
-3.568065725071438266e+00,7.699948687848207740e+00,-2.292195095475772770e-01
-7.704312091913773308e+00,2.352112503869548732e+00,4.494681844011337191e+00
2.781707239535149423e+00,-5.377635008235705172e+00,-7.353057588374745102e+00
-7.469761445985199089e+00,7.057663577699426760e+00,4.197909481646008523e+00
-7.663253222382716778e+00,-2.866376295525240536e+00,-3.204664667889750018e-01
-3.002603912760744453e+00,-3.873394558456092707e+00,7.171739904193958459e+00
7.793568561380727289e+00,1.246356155208234728e+00,-2.280945255140444772e+00
7.236907527662395090e+00,4.861489922882310522e-01,3.968423638540953924e+00
-7.371603289748398957e+00,4.096743907037503796e+00,6.856208930758959319e+00
-7.945214489086914078e+00,-1.157419263460910175e+00,4.437095779918833749e+00
6.614240451896689521e+00,-1.330124941903042535e+00,7.393554908974569351e+00
2.532713582933172169e+00,-7.335716575166047804e+00,-6.912689742887062394e+00
-4.792492091634906082e+00,7.532481450781506105e+00,4.834928651999290672e+00
-7.244203771672361292e+00,7.659818048241385569e+00,6.096144100750179540e+00
6.671993165719896979e+00,6.468057085798329275e+00,-6.747415927178515460e+00
5.906323794539349414e+00,6.921297967153399178e+00,5.973411383080195591e+00
-2.958526536427359410e+00,2.488801066351610025e+00,-7.719732590408489692e+00
-7.730057532035039536e+00,-5.635761213587580087e+00,4.898159739485475339e-01
-2.715265363014507827e+00,-7.499844879584681046e+00,5.833156730536824597e+00
-3.248215527985218731e+00,2.624179538112002330e+00,-7.751521109372443874e+00
-5.183830455807542315e+00,8.699232038442306081e-01,7.020473473929100372e+00
-3.235887264412296016e+00,-7.274766019967563224e+00,-3.819968581687154696e+00
7.235285333283083098e+00,6.940448901339743237e+00,6.248173530185701097e+00
4.614789392418394698e+00,-3.594710523781889044e+00,7.774373417073223713e+00
-7.648212444987713354e+00,-2.363263549391942497e+00,3.078667885628437739e-01
-5.719310561680371663e+00,-5.423096482833088317e+00,6.939390404179841987e+00
-7.642437455914748767e+00,2.080246730366186902e+00,3.843011069033430260e+00
-2.264464145829850672e+00,-7.052580418078782998e+00,-7.714912043072983394e+00
7.589539662870401493e+00,6.169889896521252304e+00,1.634913971023482571e+00
-7.368145041275101725e+00,-5.214649102301927019e-01,-8.540438538637140642e-01
7.309710289924916893e+00,-6.518200415886546750e+00,-6.887144510338716330e+00
2.560107866898792217e+00,6.693432763249131057e+00,7.623706327822970863e+00
8.246579320432731564e+00,4.980399482781940002e+00,-4.565583428030564050e+00
-1.226848557516916793e+00,-3.529561616530493273e-01,-7.662521767448826182e+00
7.461632089902415998e+00,-4.903721290606015693e+00,-2.632075432085108968e+00
-6.819040881207087956e+00,7.738159077096688598e+00,3.399787112260974187e+00
5.217411917574995561e-01,-3.284076680156280847e+00,-7.404574573899867396e+00
2.006584525151839049e+00,6.816157307503154961e+00,-7.191173824789162339e+00
2.874970765981553544e+00,7.133212113255771314e+00,4.734483425483801966e+00
7.350839872651000917e+00,-2.769355817258894348e+00,-6.887299419475838569e+00
3.204488199450743036e+00,-2.131470614223097026e+00,7.857106936513218898e+00
4.557420936589723581e+00,3.536588885955350037e+00,7.947193637433858981e+00
3.684478423968879479e+00,7.040794318957996012e+00,5.872177864533284719e+00
-7.535986519369212822e+00,-1.801924215891886893e-01,6.191040719487954369e-02
7.535152382790741399e+00,5.534896831624591229e+00,-6.761006159822738226e+00
-7.655959542456137079e+00,4.728596211403170102e+00,5.263147831201150595e+00
3.378935186844681304e+00,-7.763456893150181060e+00,5.589998407822097448e+00
4.238624360679661862e+00,-7.291879694739913376e+00,7.873396424748064781e+00
-7.823770323181678421e+00,-7.148143764779979925e+00,4.306009348999889852e+00
7.031727221046893739e+00,3.011943278510718525e+00,7.046681288381973829e+00
7.460618400921632087e+00,-7.175361594618974159e+00,-3.483005678769174107e+00
6.803855431634623585e+00,-5.095911487589132705e+00,4.732735240270903532e+00
6.611347918517409994e+00,7.292875212723263445e+00,-6.100123508137397010e+00
3.199464576548415984e+00,7.274896473269307329e+00,-1.073266266586657469e+00
-1.730064386111817232e+00,-7.338485461306306412e+00,-1.811795498041925967e+00
7.365770060484026160e+00,2.573946678327175608e+00,2.939936844599138510e+00
3.395675570710879665e+00,7.161878477929523257e+00,7.775366536418513164e+00
5.558058708292771044e+00,-6.501600120186333598e+00,-7.084978785661562029e+00
-6.839459596184562784e+00,-5.523766349972659917e+00,6.703414913696126298e+00
7.258652155178633159e+00,-5.226314442666769366e+00,-7.062817409235703003e+00
-1.529468540424192335e+00,-7.249327473097711305e+00,-6.875452993753370379e+00
-6.957463021911994616e+00,-2.029705927563609791e+00,-6.709426027465869247e+00
-3.683828219464683418e+00,-7.307505712839014400e+00,5.039603352177972617e+00
5.243603460618114553e+00,7.301691996175204480e+00,-3.272561030192520981e+00
-2.258380601165526080e+00,7.646260528047852389e+00,-6.659284409336335031e+00
-7.283995992792317686e+00,4.206813169257053175e+00,-8.825436446187697737e-01
2.025561939568885084e+00,-7.426969968165593627e+00,-4.046709261089016074e+00
-8.022066487703774840e+00,-4.511749484336746163e-01,5.275328011348068280e+00
-4.583113275678294407e+00,-3.128676381890678648e+00,-7.894592760990541080e+00
1.032158496356524902e+00,-7.654292961598615719e+00,7.009145754187200872e+00
-7.816221579828534161e+00,-4.489942627730858504e+00,4.317048250479139648e-01
2.731250875792386346e+00,7.126796748396804659e+00,5.092134072245189103e+00
2.900590011355515419e+00,7.489262753588715960e+00,-2.389495170507862198e+00
-7.026145853540202602e+00,4.548671788789118153e+00,-1.270522933993692316e+00
-7.389700610397535563e+00,5.839898849991351781e+00,2.742831039726748799e+00
8.105394454484798672e+00,2.533824337896842138e+00,-4.015930391820257128e+00
8.259854163924943649e+00,6.821858658105016460e+00,-3.201863365532137795e+00
7.309044732122510268e+00,-3.028834441253161813e+00,9.038416441229469855e-01
-7.742083280644179055e+00,7.357334995438336911e+00,6.308882389112596911e+00
6.905580569846998529e+00,7.016256125350949446e+00,7.034762508798110936e+00
-6.335757183012299398e-01,-4.277252415333634872e+00,-7.637706665226345670e+00
2.297275120144997296e-01,7.235439178565441942e+00,4.578764595794225123e+00
5.470888044228577662e+00,-1.813700478343580613e+00,-6.790622830011458610e+00
9.847425209925420031e-02,-7.314877091269088361e+00,-4.995884257555341712e+00
-8.391632392238694393e+00,-7.085804912583876458e+00,5.461298872856219511e+00
-6.973230034017701584e+00,1.964482360425888752e+00,-3.654007907572201841e+00
-7.527763055201811326e+00,-6.611077405015933550e+00,-1.990488697048476752e+00
-6.657369728396215436e+00,3.573279162916272789e+00,-6.167604896440895601e+00
-7.118265549138397041e+00,-5.294048552678170871e+00,-6.685421109741401580e+00
-2.265803596185644864e+00,-7.295339090248525338e+00,-2.290665685852865341e+00
-3.187734840497949751e+00,-1.201564328795829750e+00,-7.796935255880772075e+00
4.187462935969831435e+00,7.194819713715926213e+00,4.768257763318978881e+00
-7.667131785990831006e+00,5.792016380706455969e+00,5.338482023926079734e+00
6.254574714305906724e+00,6.676616680947041971e+00,-6.679031730725800919e+00
-7.160859091034188495e+00,-4.034268915626121554e+00,-5.634437871166200651e+00
5.869888080476804326e+00,-6.895214496898334211e+00,-6.944377932447076240e+00
-1.816281555049162666e+00,7.539480683075469258e+00,4.888183630600293483e+00
-7.514198372249044411e+00,-4.703375881096501843e+00,-1.443310300499939247e+00
-8.269574234384529099e-01,2.951462178230107369e+00,-7.486306557830278763e+00
6.520961016536948485e+00,-5.157686472589985804e+00,7.801153823884943606e+00
4.405525066328960015e+00,-7.572468184329236962e+00,-2.798286890222240864e+00
-6.143939686351119533e+00,-6.643283771262135096e-01,6.946528620154256650e+00
-5.449488312277701141e+00,-7.131435648957271667e+00,-7.127367092347439481e+00
-5.040739423093254068e+00,-7.231826020860022020e+00,3.303088409090670918e+00
-3.891989017785637550e+00,-7.342530020116498690e+00,6.749493923834966047e+00
7.398753563719760784e+00,7.037011937026577790e+00,-1.768340016177525564e+00
-7.790605682874304883e+00,-6.265860958638752365e+00,8.791635118711252916e-01
-6.419476235186045265e+00,7.661359933263431898e+00,8.182625108960296378e-01
1.717558306072128671e+00,2.027239696554180348e+00,-7.392776891243362236e+00
1.899154299092965736e+00,7.210708158437623361e+00,7.090174959837725943e+00
-5.921545182899190962e+00,-7.188376638673841690e+00,2.109839015941471274e+00
-7.858917132521480831e+00,-5.366572821913096369e+00,7.038189148431783781e-01
7.866634602384351638e+00,1.366369567682659492e+00,-4.906719910272948404e+00
-1.759178874279305083e+00,7.551319093899237167e+00,-1.881717515633677840e+00
-2.606900878950238365e+00,7.444867083950203579e+00,5.979860726449665265e+00
-6.824397457629681973e+00,9.622570606393033854e-01,-5.181291126550585879e+00
7.180825884569223660e+00,-6.377621013982209597e+00,-1.420394784458184866e-02
1.385112300136837726e+00,4.488698175369785659e+00,-7.299315795591619249e+00
-6.959100721291009428e+00,-7.195707884261000054e+00,4.831933072946845265e+00
-7.214782141803477877e+00,-7.148910543657167160e+00,4.235961738204785831e+00
1.073385962115713133e+00,7.348755857411211068e+00,1.357543722786700435e+00
-6.056392291706432118e+00,-7.053527694470766107e+00,-6.031657144367914114e+00
-8.166047996773533768e+00,-7.054328143648932681e+00,3.537399059734887885e+00
6.600754010503849578e+00,-2.585503004256897608e+00,7.868294932295234467e+00
3.425161560152087059e+00,-7.681462119791572896e+00,3.382974826414209879e+00
1.842240662179130961e+00,1.255372248688356951e+00,7.724573168434955228e+00
5.721068512591698685e+00,4.152324283610870026e+00,8.063725660950568752e+00
-8.006724143478493261e+00,2.138585755090704588e+00,6.554008171035770047e+00
-6.534120454642193820e+00,2.817780724568948791e+00,-6.990017295826558730e+00
-1.436059787914128805e+00,7.595407229234039548e+00,-5.154676420032914486e+00
-1.765257006432886522e+00,7.602654191081072099e+00,-6.681486474568653300e+00
-2.280186334281029126e+00,-7.515642278064186499e+00,5.654774176496743188e+00
6.876067241135077168e+00,-4.043357898851441590e+00,5.293351449811053655e+00
-4.125381669748307445e+00,7.840657154493810843e+00,-5.678727047870849809e+00
-6.731189933184388297e-01,7.431413301463180687e+00,-1.547863836219560141e-01
-3.075230415116704030e+00,7.473762142821737342e+00,5.639565013198864385e+00
3.932142721000514429e-01,-7.413048132886742358e+00,-4.574802982393618045e+00
-1.944193920850086466e+00,-7.234982039070096071e+00,4.894431283433692270e-01
-4.220259623278696637e+00,7.611677466324373142e+00,4.408006356388353808e+00
-6.998455015402123891e+00,-6.611055825637802030e+00,-7.657644264320626171e+00
-2.181151483530193058e+00,7.363251666481666291e+00,2.639040024698148468e+00
2.499411225761004829e+00,-7.572436416763621558e+00,-2.358488778850690026e-01
6.897824741139398697e+00,-4.606604863542099970e+00,4.183794343577676322e+00
-8.104581540032222975e+00,-6.346817879398053641e+00,2.712051186714882878e+00
7.579843349726798074e+00,4.631318152852510472e+00,-6.669787049218104613e+00
1.252598774104260571e+00,-5.152470837403488879e+00,7.488540167282861759e+00
-5.639840682677644601e+00,-4.558903675183975324e+00,-8.039574437914687621e+00
5.222953499817254652e+00,5.532584936154201216e+00,8.011955492000886636e+00
5.852882565092120792e+00,5.539883799459064839e+00,-6.767095455331209486e+00
3.064425677583856533e+00,-7.519077091492918363e-01,7.753164546721019512e+00
-7.587240804904594071e+00,6.473539800022271251e+00,3.560953246237801739e+00
7.242606178346845169e+00,7.026100905480447523e+00,5.661029503647205807e+00
-7.666925819253031626e+00,1.332469580382213525e+00,3.348089946391883398e+00
7.751498838296114968e+00,4.073340467814496435e+00,-1.667157634319792248e+00
-5.853365281079693894e+00,-1.297789427017240316e+00,6.855425142274258477e+00
-3.673940974401499027e+00,7.654029137509017033e+00,1.436384211589747828e+00
6.913962230050787916e+00,-5.936719303327872010e-01,5.747163977022463399e+00
7.000432860332610474e+00,1.392814423137420654e+00,5.425762716935616403e+00
-7.622830084655835003e-01,6.589860185083286304e+00,7.388060951169758361e+00
-7.334519641013170776e+00,5.728661452886948169e+00,2.269581995255248508e+00
-8.188577471913044192e+00,-4.562265973130395835e+00,4.771586144462752088e+00
5.496675261336416263e+00,-5.777366659825831086e+00,-7.019812257478670325e+00
-2.740675183494928113e+00,-6.193824205126478688e+00,-7.860655039631936347e+00
-4.197504500428276941e+00,6.954927304406601785e-01,-7.797672240438975777e+00
-1.650715608905525711e+00,5.958517716217390792e-01,7.319657854766422389e+00
8.197175336679663360e+00,3.302919542300395861e+00,-6.057582185043900225e+00
7.355558584295132540e+00,3.099022222622288769e+00,3.138119046986205252e+00
3.349463334551099347e+00,-6.828770831306846034e+00,-7.127651892779313769e+00
-7.015238180708748494e+00,3.673381797967435691e+00,6.858720672144560382e+00
6.162723203488830848e+00,7.233413096443089607e+00,-4.102090193362227133e+00
2.304608123839598566e+00,7.311990011718164872e+00,-1.687204648972205456e+00
1.456324567328590724e-01,6.994070573815674763e+00,7.715455680238800795e+00
-3.354833700919791273e+00,-7.343345516497930880e+00,4.983818953652976447e+00
7.126694795091872869e+00,3.350454618326562883e+00,5.515852457035425260e+00
-6.858584013177724259e+00,-5.856524177127497843e+00,-7.523321364789953059e+00
-5.557181253835604018e+00,1.402696472993299137e+00,-7.988439775411958266e+00
-1.682426572175034440e+00,7.631422377606478236e+00,-5.671850283845838447e+00
6.787538799246712884e+00,-7.718927569944223244e+00,-3.838047148710667322e+00
7.096190884616085381e-02,-7.384137466112328241e+00,-2.186997461631098538e+00
7.874113837908347513e+00,2.911917517312164971e+00,-3.410588807162976188e+00
7.548013767397597995e+00,4.995246364397400995e+00,-1.550979182863068684e-01
-3.910946522882331688e+00,-5.747102808693056453e+00,-7.940964265996231397e+00
5.775427280222014126e+00,-7.811490238800258723e+00,5.738729088957463809e+00
-3.274618278890618406e+00,-3.159670371234944763e+00,7.166883097303162309e+00
1.283111643324078566e+00,7.605430911347896838e+00,-6.964721023210467266e+00
-2.457931536387067961e-01,-3.449497242693057242e+00,-7.498221204567758313e+00
6.455402473739463964e+00,-7.752573149568627642e+00,5.630414835483879443e+00
7.416413851098482724e+00,-7.426197900721722700e-01,1.269741650663399390e+00
-3.497079137543788629e+00,7.543000602440496749e+00,5.162517364203469405e+00
6.576932761395247518e+00,7.048927996853594280e+00,-1.143082289128096313e-01
3.815147235800465442e+00,7.287801613687095781e+00,-2.130593511827614250e+00
-6.585551132947517594e+00,-7.079609295013022496e+00,-4.947137467795057475e+00
-6.572189096405076647e+00,5.636852272478798831e+00,-6.543664976135653788e+00
6.789737262945641838e+00,9.592442385397594862e-01,6.947464487883394213e+00
6.562939747729243933e+00,2.445521657885324274e+00,8.296573730932234270e+00
-7.244750219063837093e+00,-6.153354767453708796e+00,-4.870400032876015750e+00
7.409941954319820390e+00,3.885001078091092630e+00,3.099866302703959242e+00
2.511173039113173022e+00,7.250631026861991124e+00,7.300617534118072349e-01
-5.723879012871997851e+00,-5.480380745896839656e+00,-8.242484483420660979e+00
6.047221467084441748e+00,7.163070741371556416e+00,2.829015109809396744e+00
6.417590920140567867e+00,7.229329283151239238e+00,-6.205212301051486357e+00
-4.310513431141217211e+00,-7.232673245156823860e+00,-5.707484515029047634e-01
6.130464675474311953e+00,1.014823867187810036e+00,8.109279412832030687e+00
-7.007530254474096054e+00,1.023777673110201764e-01,6.776878901327968663e+00
1.161563838200875720e+00,7.128585552015612947e+00,6.068247327691742576e+00
-7.979832867519133011e+00,-2.444865058655552925e+00,3.379812993185300041e+00
7.995111757240676020e+00,6.293065196294686636e+00,-6.678968712109037753e+00
3.538058515937402948e+00,7.419978822838899646e+00,-4.278959508811302825e+00
-5.235343679507248993e+00,-4.976935195919359955e+00,-8.167820762485362707e+00
-4.929347150269236089e+00,6.380530609357942140e+00,7.180050567885196244e+00
7.008182444165350411e+00,-5.130709159406839248e+00,3.104959612500417077e+00
7.238345473865361868e+00,-4.089236376633897052e+00,-7.129882283213000438e-01
-2.414418580134972458e+00,-7.373031538432736731e+00,-1.965727951909923332e+00
4.780613817913533126e+00,3.272098060893475768e-01,-7.082934300301748642e+00
4.952131436439617396e+00,-2.877443902904462725e+00,-7.000291614979020416e+00
-4.628453092204063424e+00,7.581109247245708893e+00,2.255902212092549153e+00
-8.942007022185766152e-01,1.379930872577215695e+00,7.414208629168144604e+00
-6.618753663950811550e+00,4.207549762811012783e+00,-6.911949004379992267e+00
5.892727298494159882e+00,-4.049480960639717964e+00,-6.953678556077373507e+00
5.837865914433879588e+00,-5.760086836866075144e-01,7.988183523245185214e+00
-5.465068429268050920e+00,5.742761047072993286e+00,6.996089840095404355e+00
-7.556075054543552660e+00,-4.022475288959632134e-01,1.654700379073714478e+00
-2.550710411834363534e+00,-7.239372476221348052e+00,-8.119624839113193104e-01
-8.006658292702864443e+00,-7.078816483971420936e+00,2.132898152757914279e+00
1.012677774237948913e+00,-7.522994857349425857e+00,-7.282114344890744384e-01
1.958669453017817030e+00,-7.426446638764470087e+00,-4.098458639564435402e-02
-7.957900873012423659e+00,-5.317201340059164671e+00,1.349777191148000766e+00
7.255879103573986022e+00,2.697925552484684353e+00,3.317588768972040469e+00
7.079188641028346218e+00,6.328118362885802206e+00,7.759120411158588304e+00
1.951730520521714807e+00,4.859894159387612156e+00,-7.185558051488273534e+00
8.850403610368373641e-01,-7.381062183828660750e+00,-3.613140279482584205e+00
3.442527827691378661e+00,-7.667524798728061697e+00,8.064121511314122914e-01
1.803696627772851668e+00,7.282925573768665117e+00,4.735211443295077594e+00
-7.511266863470645205e+00,-1.189261149622387492e+00,-1.509806407368583514e-01
4.591629323616764680e+00,7.379509981195355728e+00,-1.278763717564521452e+00
7.415220135715157035e+00,-7.463124086821183667e+00,-2.848948112111228781e+00
3.486921439212317342e+00,-7.216192482273204867e-01,-7.198670195356230650e+00
-6.033543162172366081e+00,3.856393905822621981e+00,-8.073150522454621836e+00
-4.690038120890817730e+00,4.417531728543647951e+00,-7.986565078397804385e+00
1.581626090231770920e+00,9.820028944582579467e-01,7.566514991123705514e+00
3.129072821434327079e+00,-4.566637318521846289e+00,-7.124710872757265001e+00
4.867821078834419168e+00,7.093306311024819344e+00,-7.956594135362281550e-01
6.825253730104593686e+00,-7.812343273752257566e+00,-4.603147600465129941e+00
7.179790398405257790e+00,6.852658996374693778e+00,6.058473394068662365e+00
4.557002022789903961e+00,-7.624137369624506277e+00,-1.474087869261688111e+00
6.964998939156430424e+00,4.942436698952804797e+00,8.123247758963513476e+00
-5.358010938024480474e+00,1.259193171756013641e+00,7.003476337362587678e+00
-7.513369990597285053e+00,-3.256883964655203911e+00,6.798515718045767819e+00
-3.591497290394367159e+00,-7.229127355367494623e+00,4.062670826270156077e+00
-6.966241162638771023e+00,2.555638583846057799e+00,6.870530321222894976e+00
-6.708587834750495915e+00,-7.064742637397706027e+00,-1.479671387993222176e+00
-1.688025983263450991e+00,2.822851028661497619e+00,7.323117749335410487e+00
-3.015659270592165875e+00,1.094770382467658232e+00,-7.845192422887514283e+00
6.151808622107062252e-01,-5.008028039829157230e+00,7.377146552218619924e+00
-1.176728699071815765e+00,4.435098291760710687e+00,7.373159485838528759e+00
-5.242805843434932278e+00,7.755926015166796361e+00,-6.366767725539587808e+00
-7.650396870772054214e+00,6.227555581132516060e+00,4.039433134639860867e+00
-8.841828252789737941e-02,-7.370155388349309611e+00,4.750343512915142341e+00
7.236417686330012700e+00,5.065183830158161093e+00,6.845129749468052083e+00
-7.523234030120891980e+00,6.020735938171242196e+00,4.344012307355218816e+00
5.603717297201078473e+00,7.225041655684899311e+00,-3.280873321047957092e-02
5.849251630641281174e+00,-7.512676929285663441e+00,7.895020388154780910e+00
7.443406684400502016e+00,2.565122797456766135e-02,3.661496388046404094e-01
-3.654900559336409227e+00,-6.313377698384064374e+00,7.046519105325185883e+00
1.075585182371784798e+00,7.408840330941845131e+00,5.222109545722145030e-02
6.520735518857312840e+00,-7.936780110102320762e+00,3.372273974438127819e+00
3.436881250435358304e+00,-7.635937952471020473e+00,-4.827654552969924850e+00
2.637241842515313905e+00,-4.364940872209139400e+00,7.743797835052704137e+00
-3.306215242286117739e+00,-7.955281115315517848e-01,7.041080119804568938e+00
-6.901666727450038508e+00,3.125308789127935860e+00,-4.451873989640704465e+00
-6.050420760160446498e+00,-7.290730530516091434e+00,2.431248345358815399e+00
5.747154275317195804e+00,-7.670483761088335406e+00,1.233903179645808451e-01
1.222979484760202462e+00,-7.572976440627233963e+00,4.291112631191315252e+00
1.661472387930898353e+00,-6.908973583299371946e+00,7.468623536011710584e+00
3.442290488734754961e-01,-2.347455463097307682e+00,-7.405245038658870627e+00
7.145042407562327114e+00,7.146596390826092104e+00,-3.777098326965831809e+00
4.658426511744647058e+00,1.717049268942238083e+00,-6.923541091569913597e+00
6.786794495158807727e+00,8.209224692579696336e-01,6.623389088364121768e+00
4.943857886317891470e+00,7.174183118844863927e+00,-8.087412838873758725e-01
-3.800647024332096807e-02,-7.581781427931447048e+00,1.456246958835406141e-02
-2.424618658260466741e+00,-4.082460961583292303e+00,7.164352682193396937e+00
-4.612131462759720968e+00,-7.345937733449765084e+00,4.504918963839381618e+00
-5.633944160469723794e-01,-6.870633929586337452e+00,-7.615494607782565595e+00
4.777697958604691486e+00,5.626209113894485192e+00,-7.008905336776111383e+00
1.687351453075055296e+00,-3.341835886877539963e+00,-7.390006934615186651e+00
5.851719824404442605e+00,-2.951063753224033803e+00,-6.844752157603878118e+00
-6.855242018146826766e+00,6.428785265257234371e+00,6.939004619420193087e+00
-2.732071504291397446e+00,-7.467274121719795765e+00,6.104285632495547453e+00
-6.971876918672390566e+00,-1.082853463244215275e+00,-4.503883888878355002e+00
7.192019386245684487e+00,7.241496424808095966e+00,-5.809449984983118043e+00
-1.171265648099148349e+00,5.593810711851621598e+00,-7.426939768669269526e+00
7.331378037513600177e+00,-3.685537677850482474e+00,-1.079644425737785074e+00
7.145373911689658186e+00,3.888553153301386178e+00,5.755184230096126896e+00
6.756609910983365275e+00,-6.213826722986164341e+00,4.670285300863898037e+00
6.509257309036986072e+00,-6.579034980920049236e+00,7.479557940439979902e+00
-8.069495516562302129e+00,-5.734147182712754365e+00,4.570386752984511247e+00
-7.542129739521474363e+00,-7.825046616355855189e-01,2.071236830045465105e+00
-4.677384303841100710e+00,7.774577138662901454e+00,-6.864065770070017614e+00
1.681056336464498813e+00,7.140288589809821174e-01,7.658522659697019286e+00
7.779922327510568891e+00,5.754503646269586159e-02,-6.799967561789264536e+00
-6.266003085081723434e+00,2.957215144502654880e+00,-7.970919968207197392e+00
-6.206495042843426901e+00,7.545704280951365028e+00,6.598087052489491455e+00
8.101668590957764593e+00,4.990648735207322773e+00,-3.249188247077082980e+00
-4.242544311452923766e-01,-7.230987415660856676e+00,-5.244622994744393196e+00
7.496675847736179676e+00,-4.984678793658699369e+00,-1.744947319776546379e+00
6.195849332023038336e+00,-7.630602913292865885e+00,-4.742675590988893575e+00
7.901689093455322777e+00,1.069929495841504874e+00,-4.063926357107050968e+00
3.403219505284279744e+00,-7.489044795522314502e+00,-6.721652985462261753e+00
4.311846875501558429e+00,7.085500329454292867e+00,6.936154856504904487e+00
-6.206390607005348947e+00,7.923686133734555437e-01,-8.022070133294651129e+00
7.578777599618751637e+00,1.132907146552454947e+00,-1.362198224278426517e+00
-1.870273630538277887e+00,4.611576430987359032e+00,7.467732374273580831e+00
6.093970864949084465e+00,2.161731838102145975e+00,-6.890982371548274088e+00
8.557740265668869473e-01,7.107912081457060438e+00,-7.228599892437522989e+00
5.873098440182717539e+00,-7.523416031406556570e+00,-6.214743854626706643e+00
-6.405819860268961996e+00,3.875815445534828374e+00,-8.041296236211266546e+00
-7.768512695448261951e+00,1.174252084581813182e+00,3.032098878224759542e+00
5.676851874722227409e-01,9.102812116950839139e-01,-7.267610681884505652e+00
-5.418570978909008851e+00,3.943264318849834194e+00,7.046093452517990130e+00
3.720031767864614647e+00,2.945380365992878779e+00,-7.201425336382543563e+00
-7.708032935233457117e+00,6.059675842593951423e+00,5.207463518616131104e+00
2.065910268762676694e+00,-3.660353172033123048e+00,7.670405156897603938e+00
6.917918105344332602e+00,5.529182634441069055e+00,8.211834408613109204e+00
2.888122115468256812e-01,7.652945939346373017e+00,-5.516288394644499604e+00
-2.638525290936561074e+00,7.494649444887075518e+00,-7.506954461838526882e+00
-2.484830842923166916e+00,7.711648593550685327e+00,-2.158126672929779610e-01
3.673112598920166949e+00,3.448536755444348234e+00,7.751576438470778818e+00
6.127771964897776868e-01,-7.487626206573056109e+00,3.264655241262429008e+00
-6.154495648676476804e+00,-4.420930201134939175e+00,6.887621163561552962e+00
5.370024590513895468e+00,7.071929497584960700e+00,5.608750334726298803e+00
4.252887819399327363e+00,2.186461386087439784e+00,-7.154608720053334814e+00
6.746098763756351424e+00,-4.244113011134672320e+00,5.080858829615149119e+00
7.723185763334917020e+00,-4.704707133607014313e+00,-5.874028604603599213e+00
4.789133908585402999e+00,-7.685637678242053461e+00,-2.461208450754807320e+00
-4.311413478763436835e+00,-7.197336505563881381e+00,-1.583558177751778873e+00
6.788338620649004618e+00,-5.476251361545256380e+00,3.333655410973868527e+00
-7.620568267575619004e+00,-7.032141704799575344e+00,-1.482090092419052541e+00
4.050360617266805185e+00,-7.533032284825629254e+00,-5.804250080407339141e+00
