6.673939815272678544e+00,-4.175662246310532844e+00,3.517416803778425471e+00
2.826452567426036122e+00,-5.883485756832509850e+00,-4.389871720026498281e+00
-6.258015198297839810e+00,5.450351383330599653e+00,-1.335581327079838898e+00
-5.586644476452339525e+00,-1.526721254192336952e+00,2.627945580923179758e+00
-6.161332640282545903e+00,2.120266106746753199e-01,-4.780039655598452564e-01
6.095669841324982130e+00,-1.313893753710027923e+00,4.766007463478596939e+00
4.743036812446471018e+00,-9.558897834568930163e-01,-6.405125310532461924e+00
-2.256127797135129287e-01,-5.923741591339201307e+00,2.299239216984246825e-01
-5.465538494112834655e+00,3.551233218042939122e+00,2.843125844894957233e+00
3.253432697521927874e+00,6.093068595730125381e+00,-3.857760672746381569e+00
-2.312806777955479787e-01,-2.967541850299163730e+00,-6.215105562858945554e+00
-2.908953773507872764e+00,-6.011481754186509541e+00,2.657591048717099280e+00
4.879085999755317538e+00,3.795025207008946300e+00,-6.369701773940280809e+00
-7.601272542932683285e-01,2.764759898068602784e+00,6.422179127498058193e+00
-2.796721880702461860e-01,6.202766962319503641e+00,-5.087984724997965280e+00
-4.659925666733678362e+00,5.631721842206673934e+00,6.332165175597944895e+00
-2.495031938838595309e+00,4.798426169530901397e+00,6.837160133251784622e+00
1.307858864626130879e+00,5.873127848010602392e+00,3.967212338128094373e+00
-4.428491395195848668e+00,4.670831994283825672e+00,7.244830451518573078e+00
5.033990877949070963e+00,3.627456284044980883e-01,-5.488152825012435621e+00
6.840904776342306093e+00,4.407804270376290745e+00,3.082801879833502845e+00
1.870291046012093061e-01,2.759421417037361657e+00,6.182143140735481879e+00
-1.688974786013271556e+00,-3.290819951609904148e+00,6.209664411658135208e+00
4.946979811666519566e+00,-8.961816531939754693e-01,5.171006644695232524e+00
-2.354030954359033423e+00,1.941923667129069608e+00,-5.599985486457388362e+00
5.088158472936181731e+00,2.071747323276564412e+00,-5.215277922024376345e+00
6.045550288344527345e+00,-2.819993833786369475e+00,4.650510891614945130e+00
-5.013098125565790930e+00,-5.413592389379239478e+00,6.270160724571709032e+00
-1.135028778462010113e+00,-3.771758486847259118e+00,-6.037610097385721630e+00
-1.053062986403036971e+00,-4.484060230032699934e+00,-6.107361594493422530e+00
6.252816825281381163e+00,-3.804929334098581251e+00,8.074651990211894059e-01
-6.163684914956427896e+00,-1.173271561665550244e+00,-7.361775055683116298e-01
5.825121181582990637e-01,-5.407981170152507566e+00,5.696348390542358864e+00
-5.044384786620296879e+00,-2.677322705488558885e+00,-5.204762204927960489e+00
2.142700386019381842e+00,5.670319545697561026e+00,5.752064462655275712e+00
-4.026527097505820940e+00,5.976606886233614802e+00,3.246382858360697288e+00
4.257848021375703063e+00,-2.787772912871254949e+00,5.176099177903797255e+00
5.263541086874703012e+00,2.415588006016567313e+00,-4.672242592091395252e+00
-3.283538179221711761e+00,6.162800229531609553e+00,7.502559499942714760e-01
-7.097041780613377426e+00,-5.335546600015065977e+00,-4.458516225336852656e+00
-6.391533682902571734e+00,6.308574741610293302e+00,-2.674952093729686453e+00
1.297545899419475512e+00,1.738317258076844452e+00,-6.308426060744921848e+00
-1.568700062466648060e+00,4.817655452690476459e+00,-5.580901959406964430e+00
5.998410742225335213e-01,-5.921266193273639900e+00,-3.557677877967813540e+00
6.405155263040493985e+00,2.192505205722683037e+00,4.867620179471943587e+00
2.802707351502495392e+00,-4.080293794537645624e+00,5.409322956750278522e+00
5.118085630803569153e+00,-2.574913701028301860e-01,-4.709785441632030611e+00
-1.737495741830647963e-02,6.091921976903034164e+00,-4.967521896256756442e+00
3.326163806984301363e+00,6.003401220570844465e+00,-1.580114234242953719e+00
4.431086907078233494e+00,-3.065921494148585502e+00,-7.076494928369021942e+00
4.089669472817400120e+00,2.347517710751678255e+00,-6.771580685642910602e+00
-3.164514515218972868e+00,-8.126864952596989378e-01,-5.511600951240063218e+00
3.453656125905017138e+00,1.848594089412328056e+00,-6.598198378939460262e+00
6.266158142746151682e+00,5.626558216670549228e+00,2.635519595268108972e+00
-4.480006945451162181e+00,-5.864270831563588082e+00,3.579047328253642579e+00
-6.180280784281047879e+00,-2.899610224832661398e+00,-1.881742202273596967e-02
-2.263837025134909364e+00,-6.040467531981613014e+00,3.211349080333298911e+00
3.321597298212501492e+00,-3.704317725888017332e+00,-6.923498432959629412e+00
4.572367274382869162e+00,-4.086652721053476434e+00,4.982946936894013135e+00
-1.898798500996881522e+00,-2.209050851042499097e+00,-5.858545380899976784e+00
-5.967793919248651768e+00,-1.633257248540131767e+00,1.249560948484971901e+00
9.935879158347719065e-01,2.976966203462863447e+00,5.960533547564294210e+00
-2.798204991974043931e+00,-1.162519047679518858e+00,6.748898452953846494e+00
-6.051334173946539607e+00,-4.518448455798590224e+00,7.588557787969818502e-01
-3.951160872621514830e+00,-5.978774597809572988e+00,6.264715604087013112e+00
1.744723613886492775e+00,-5.762304771873178133e+00,-4.800122927360898295e+00
-4.701803040538231060e-01,-6.242841051640607652e+00,4.989154346598886569e+00
4.184147481370397159e+00,-1.650246420261297864e+00,5.195330720688296822e+00
-1.261129181771414531e+00,6.142681775910876496e+00,-4.087952455070914759e+00
5.621348671137259778e+00,-6.019281728716527446e+00,-5.823560976186935578e-01
-2.102929614300084626e+00,-5.398047559502941795e+00,6.286276399821963068e+00
-1.491826854703413696e+00,-8.799609752518486872e-01,-5.832179027762430579e+00
1.237159286117769819e+00,9.896511642448944102e-01,5.932988324978476058e+00
-8.173030984542464239e-01,-5.911068758193508188e+00,-1.216952339381810244e+00
4.472694242819605925e+00,-5.105120106449070327e+00,-6.693732929731212700e+00
4.435893149853615824e+00,-4.528508994079136762e+00,-7.236047687730826183e+00
4.313101930445648158e+00,-3.222634722934991203e+00,-7.105982937627044471e+00
7.029286744931561692e+00,-3.678059634288282642e-01,4.607204364000886621e+00
3.060785369281393109e+00,-1.046772009159682160e+00,-6.783707249524844940e+00
3.179786522602333410e+00,4.694174670244554370e+00,-6.594302765436062863e+00
2.169966852337373631e+00,6.088037700517547890e+00,-3.290659635892977608e+00
-4.844230526333212161e+00,-6.009981902500569184e+00,4.343150807721793960e+00
-3.067321704359565526e+00,-3.164234012067393742e+00,-5.634821166655227032e+00
2.219431877247204088e-01,-6.048242015921559300e+00,3.065437062625846920e+00
-2.502848654119012473e+00,5.907879216609313922e+00,4.086092400932721524e+00
-5.123824467500496027e+00,-2.267985796252883102e+00,5.588611968715033740e+00
-9.571007747063291493e-01,5.985278581505584228e+00,1.817897040671923703e+00
-5.494731534520547633e+00,5.599945192703152053e+00,2.432471953584309787e+00
-3.106607463319742912e+00,-4.627103119412154797e-01,-5.404500719155595156e+00
4.730819733510172043e+00,5.965909990997696255e+00,-3.316535827270099546e+00
1.438114633366123218e+00,-1.378834190189623943e+00,-6.338885504273967797e+00
2.580095965414978654e+00,3.599618911908434526e+00,-6.446836377841580479e+00
-5.041741602572463954e+00,2.361728597611751024e+00,4.819306518752010327e+00
6.201084117829937625e+00,1.322836262816861286e+00,-4.747308306149884000e-02
5.491707291934853075e+00,-6.298758356580568929e+00,3.558990915453109416e+00
5.024150456134343301e+00,5.937736618820666834e+00,-3.500957938112173373e+00
5.235567851378696957e+00,-1.645889399608900350e+00,-4.031980700032328890e+00
5.550625018539053990e+00,2.946480733695515664e+00,-2.797930730299960089e+00
-3.722812907636389390e+00,6.046515405115370001e+00,1.639490713770388242e+00
-6.941667867855888518e-01,6.000702388102495455e+00,-4.715746460684040464e-01
5.467736382070732759e+00,5.722994503631589680e+00,-4.022528316294097017e+00
5.660813328916964871e+00,3.078687595564243651e+00,-2.410795448323641121e+00
5.075114334076332945e+00,3.755278457038305207e-01,-4.841010281376491697e+00
1.119469866638372224e+00,-5.970126935999260809e+00,-2.404931676277872743e+00
5.584991722013992188e-01,6.112791084788057105e+00,-2.324232515734657056e+00
4.037128800526747163e+00,-6.306846763361407149e+00,4.337058926279990345e+00
-4.452555679197485183e+00,6.231912662186537055e+00,-2.053180695057774674e+00
-5.255132410786956143e+00,4.363666877278880918e+00,3.147700948154889655e+00
-6.344725218357758045e+00,1.860682917645496204e+00,-4.665270299714170399e+00
2.752244240074980031e+00,-6.242632101878907491e+00,4.607737615391043207e+00
-1.095302264228535716e+00,-3.949329625660247256e-01,6.251865019282501379e+00
3.036550134679752766e+00,-6.303958935089471360e+00,3.422200060536101152e+00
2.901152292328688986e+00,2.584713797775236355e+00,5.657236375621046420e+00
-3.433392849370869637e+00,2.173561402970721534e+00,6.909364596296872385e+00
-4.249842999529928278e+00,6.307087442706277969e+00,-3.551023742936684879e+00
3.515215540361495972e+00,5.801841630860085530e+00,3.511691468047478892e+00
-1.823330406620780941e+00,5.959329383855553885e+00,7.033646394637983468e-01
-3.399268608606881514e+00,-5.828631456298520419e+00,-7.100001194094159862e-01
5.028020918742222456e+00,-2.339324864502787094e+00,-4.875113475656820405e+00
2.283046759177172813e+00,-3.047186414630631557e+00,5.581104856518782853e+00
5.839084525415401572e+00,5.269730359320112356e+00,-2.063923485310830586e+00
-3.750256255135701711e+00,-1.687927303511171262e+00,-5.472070519058640947e+00
-6.058340591793901275e+00,-1.262742576769736669e+00,2.779112681348812619e-01
-2.762589920274368005e+00,-4.286312417762668581e+00,6.502616501864793008e+00
3.554542681363168644e+00,5.770063595777819465e+00,3.567020856410018759e+00
2.238958361688692111e+00,5.994346429763408146e+00,-1.749011106150358819e-01
7.227597206185796264e-01,2.645411916350012271e-01,-6.251691306640807966e+00
6.000561360632595154e+00,-1.397969808225421495e+00,-9.201683780398371704e-02
-5.682840651563163981e+00,4.902642559713887849e+00,1.564702909959361676e+00
4.903649521694187996e+00,-4.620177999126962476e+00,-5.429649259400926908e+00
-1.807429075254691320e+00,6.074110637538059798e+00,-1.689888811508388544e+00
-4.794130951092840931e+00,-1.159469428872760721e+00,6.633145971876289515e+00
-5.483888548952667641e+00,1.900300639543724301e+00,3.225558446872085483e+00
5.294036998907526659e+00,5.532569669196975015e-01,-3.503147654504568997e+00
3.491990704268143286e+00,5.939109766305876725e+00,-2.900338499927062497e+00
-6.501588085880385393e+00,4.689122169719203370e+00,-2.567800442374475800e+00
-1.237626196593369921e+00,5.883230003286142207e+00,3.136969148226246062e+00
1.620313837461237583e+00,5.951340061590805419e+00,1.076394022058959177e+00
6.715098270970403682e+00,-4.031960510924634811e+00,4.593577258348746639e+00
6.302669199923288446e+00,-4.656902401976430461e+00,1.480168672011185294e+00
-4.826263840635385272e+00,6.337835067172095549e+00,-4.303971916546427856e+00
-6.460148117991638905e+00,6.273525340992732735e-01,-2.350155044195683551e+00
-4.700984001987413841e+00,6.239880649250019395e+00,-1.324389775125307089e+00
-4.324582600192587556e+00,-2.249977535072486212e+00,-5.302148394795796804e+00
9.019540365469977949e-01,-1.252951914080609574e+00,-6.336285825803345872e+00
3.103923008189374944e+00,-6.168509357383998193e+00,4.184469206791907148e+00
4.376326141661596836e+00,-6.159511242212502680e+00,3.021035350002396758e+00
4.989485770823918642e+00,4.948091439205048125e+00,-5.978301139030360645e+00
3.214836515837953268e+00,4.438933146109918404e+00,5.650775995231949622e+00
-4.741828583145469622e+00,6.055912832956058978e+00,1.080813936043395485e+00
-1.936201205780121448e+00,5.981800489559115697e+00,3.590310810162565591e+00
-1.318158233273415858e+00,-1.758006282426677558e+00,6.307182667367501772e+00
4.453609952123573024e+00,-2.736559489498215036e+00,5.022006946144685458e+00
-4.090833010554672633e+00,-1.249816069791418904e+00,-5.223051398270572854e+00
2.729977788138143957e+00,5.854087889576503834e+00,3.066431730526730792e-01
4.806911829975731298e-01,-1.490621260336782550e+00,-6.349090031285296476e+00
-5.649335750493721164e+00,-5.104713430342856739e+00,2.728151251679887146e+00
-2.293244100341258918e+00,-5.940848407556265975e+00,4.230325608528914039e+00
-5.465766747316038732e+00,3.841091526937494560e+00,2.564859875599850181e+00
-5.512332641573949310e+00,-2.554979264276058704e+00,3.790447250783765654e+00
-9.630870238734501321e-01,-5.988898091210860919e+00,-5.032608162429449278e-02
5.819118752557069563e+00,-6.466010787095878953e+00,4.297695457176621936e+00
-3.325515237082341979e+00,-5.949230354416267907e+00,4.033660181360096963e-01
-6.675440534929463432e+00,-1.314571853986716832e+00,-2.957255083727229561e+00
3.191107650715097943e+00,4.000188472833450248e+00,5.700330731480647728e+00
-6.769417050535098568e+00,-5.106393349109016988e+00,-2.793276317978565793e+00
-5.894591771134541247e+00,2.778104756279204057e+00,9.479688942730598589e-01
-2.749969987284167861e+00,3.425335361336596218e+00,-5.431927364314882212e+00
6.324620902455449389e+00,-1.535126861334269455e+00,1.139008635098789579e+00
5.400022367802161938e+00,-7.770588600836525472e-01,-3.801061878792472815e+00
-6.724149295303492480e+00,-2.691174905381975346e+00,-4.893685851121866826e+00
-6.634261305166603506e+00,1.512600635992978670e+00,-2.850868453057521013e+00
4.731190352773025687e+00,7.803921667318686195e-01,-6.465472537273076803e+00
3.082649763351052563e+00,5.593409074331880504e+00,5.391772030716094122e+00
-4.720356802219050074e+00,-5.645366761861864369e+00,-3.538319007851422615e+00
-6.789893775706727475e+00,-5.568895540853302961e+00,-4.337175024613536323e+00
5.469977711364314210e+00,-5.730228630284154079e+00,4.747643657815771689e+00
3.750646039293966449e+00,-5.814036408288496993e+00,-5.362257383621714446e+00
-1.864974527948547012e+00,-1.947080408968183241e+00,6.398622898110512658e+00
-5.836442742535287387e+00,5.016740235840567941e+00,3.371343622326830047e-01
-2.171421224887122747e+00,6.289436563740784081e+00,-4.345479792538742281e+00
-2.101990401453008417e+00,-2.037773954191878012e+00,6.447437066767937708e+00
-4.784329886305986435e+00,-2.407532637278087806e-01,-5.176843688940427235e+00
-1.781838292067083662e+00,5.966896624292806095e+00,3.414728167033691530e+00
4.785377171583321321e+00,-5.908767036849958743e+00,-5.696505321493658514e+00
3.252463388757674601e+00,2.729323597131107171e+00,-6.572340498871719561e+00
-5.968655897143677613e+00,2.385303297180374482e+00,4.386249503891926915e-01
-4.794880732611741081e+00,4.835686606162481027e+00,-4.994902802556398846e+00
-6.553131532559635097e+00,-1.112423530149347028e+00,-2.438480728677406173e+00
-6.914449978616408199e-01,5.656456420640656013e+00,6.442752587691021660e+00
5.509376976538829851e+00,-5.397368737942545458e+00,-2.029855457471713365e+00
-5.766631685335626756e+00,8.702171351830619850e-01,1.322716734248606141e+00
6.834967963299689586e+00,4.635363860860535645e+00,4.951079244306639815e+00
9.582023549623921443e-01,-5.389019844007927773e+00,-6.391215756671180692e+00
6.636675421505700001e+00,-4.598220447250744414e+00,2.884512303818298040e+00
-3.046663816713461870e-01,2.217208318500434594e-01,6.235955949662773001e+00
6.489929768699735035e+00,3.408920785916377927e+00,1.517732323595403665e+00
-6.227275302754003761e+00,-5.707611932129076138e+00,-2.218827842016710683e+00
1.257900044537965112e+00,2.464717034444772192e+00,5.912348062359613188e+00
1.766267005995515005e+00,-5.721110285656431316e+00,5.499950113212804581e+00
1.425756559243989363e+00,-5.813930539159414046e+00,-4.113255866878750666e+00
6.623884648572352596e+00,1.628014207110012768e+00,4.905346377996744778e+00
2.026122508642319797e+00,1.647555090010600187e+00,-6.533655216476293326e+00
2.728144621085908383e+00,-2.979704592855322964e+00,-6.786078431952862644e+00
1.980465123943842221e+00,-5.770600089635742336e+00,-5.091486778098583521e+00
-6.000348650922693317e+00,6.239621200944186485e-01,6.009746511240908751e-01
6.219848276507261353e+00,-5.037334725988904083e+00,4.694771937375602278e+00
-6.856716333023181065e+00,-3.208470128351093908e+00,-3.602652494323230759e+00
2.723955425418091547e+00,6.109428668545196395e+00,-4.672472187079526940e+00
3.184743087450841337e+00,5.718318478962167717e+00,-6.577410461040397394e+00
-6.136610330061011531e+00,6.304136462354533954e+00,-2.688886362512118655e+00
4.810927457511818162e+00,-2.732616971488653235e+00,-6.273074187859131179e+00
6.709116334545377924e+00,5.214284206497166174e+00,2.223805480354346553e+00
5.353120241423912518e+00,3.738380203278980574e+00,-4.311877296053530983e+00
5.313048015352975106e+00,-6.375731204861153856e+00,4.226022305829665093e+00
2.168058416201163130e+00,-6.053492945935222913e+00,5.006864052255585174e-01
-7.478472075231151761e-01,5.958818100895524772e+00,1.680285606842416790e+00
5.454197219258285045e+00,-2.477295206609529288e+00,-3.013412646208177836e+00
1.580875157739433989e+00,-5.814776265555186008e+00,-6.589657429156801527e+00
5.454462993682654748e+00,4.729669580966111120e+00,5.259788258561419738e+00
-5.661159086337948843e+00,4.983203176121628886e+00,-4.708713143223222097e+00
6.725135326278688375e+00,3.599957751231271708e+00,5.081345054515658433e+00
-1.640321956502172329e-01,5.782725628618704761e+00,5.710558586053689822e+00
-4.844252751563452364e+00,1.946750132069414496e+00,5.985951096574228636e+00
-2.888615826551731658e+00,6.182361153426831457e+00,-3.629841464581777810e+00
3.982307827102693043e+00,-6.244652900656871175e+00,2.082893861290502802e+00
-1.732410576085360088e+00,-6.106037366588444648e+00,5.432301060381711899e+00
-6.004736206079353877e+00,-2.925403526009683119e+00,1.284888735708506591e+00
2.441124382278438976e+00,5.750758186491534474e+00,3.145006528193146966e+00
-6.812599316308658892e+00,9.666302393969663509e-01,-3.522418671019428515e+00
-2.779624167895429210e+00,2.655344375908496257e+00,6.741628638668361262e+00
7.258399426969990298e-01,6.196669994235161738e+00,-5.606423374517520486e+00
-5.974732160725191754e+00,4.102770775579082319e+00,3.780757240167741395e-01
1.281265287840996470e+00,-5.793173926373103022e+00,-4.386768941259926002e+00
2.027585365429570796e+00,-6.230223301319495199e+00,1.576346361470509105e+00
-5.788521863109386878e+00,-3.222817031817919897e+00,1.569043457952611575e+00
-6.502896311398803419e+00,-4.161832749090566885e+00,-1.623041773662707854e+00
6.636654668663346968e+00,-2.618328204370511614e+00,2.484814670368393763e+00
6.411729854447901999e+00,-6.050261574369997675e+00,1.772249886298379762e+00
5.946261595890322660e+00,1.980038335891800116e+00,-1.317369692256853630e+00
-7.185121654182385242e+00,-5.290984308778710066e+00,-4.461010492756624757e+00
4.450889776249161045e+00,-5.934321111298662466e+00,-6.297891864903746750e+00
4.214103845762940392e-01,3.329870018581774893e+00,6.209365170679059354e+00
-6.761608872876927467e-01,-5.730762656719991632e+00,-3.762296152131103799e+00
5.055030116473808732e+00,9.831479397549640620e-01,4.979024939206954770e+00
9.783317330301261050e-01,5.766027428617398698e+00,4.068451658720294795e+00
-6.691342493659941049e+00,6.311187831840869400e+00,-3.564415136255766559e+00
-5.375957055162620790e+00,-1.198179362727153974e+00,3.499325916285731530e+00
-5.401258885832334933e+00,5.740609966339498271e+00,2.313812275401263996e+00
-5.015535191336238263e+00,-2.553315371533530165e+00,5.463680161297679305e+00
-4.762102045068537848e+00,4.573796816091420858e+00,6.017443392028686056e+00
-1.137044488330543501e+00,5.949555894104342713e+00,2.108767145434028212e+00
-1.801045282422097049e+00,1.023933617514797279e+00,6.521728624171322153e+00
2.465049449480352539e+00,-5.946018590709954310e+00,-4.253889258342658408e+00
-6.941195281660164973e+00,-4.058735398465203481e+00,-3.673927119997556279e+00
5.117888821770697483e+00,-5.869650855249783028e+00,4.726531355497543885e+00
-4.967198235378587512e+00,3.585848639151192341e+00,5.166596412893738055e+00
5.716691820830268611e+00,5.027910948971022975e+00,5.124985429958714533e+00
-2.353040684847575559e+00,-5.838951180746523306e+00,-3.837067228283590037e+00
-5.560987634101545396e+00,4.220637683303804621e+00,1.853625713459112534e+00
-2.158419386768211101e-01,-2.448991508858692878e+00,6.023356957018262570e+00
4.871249328457881944e+00,3.861539308051797015e+00,-6.740127028307262513e+00
4.241674745684610670e+00,5.738944266958558416e+00,1.943713583870111616e+00
-5.443532294918343339e+00,1.048573796958463200e+00,-5.017790380932463989e+00
-3.274909607256929700e+00,5.932519841696893614e+00,6.247941484485443731e+00
-3.827743870988680186e+00,6.176330089352307873e+00,-2.125545631873043462e+00
-3.197367578862189585e+00,6.254679952011065858e+00,-4.978641448437396200e+00
5.589708437953129661e+00,-6.142027115442488139e+00,6.977721006692748640e-01
-5.876755411220352165e+00,5.532681200822446854e+00,3.816240702675435109e-02
-5.684713343773201366e+00,-5.718272863099764791e+00,-1.883385829858304217e-01
1.864539527168323607e+00,-1.868056057760720812e+00,5.740065290178428370e+00
4.429930927681083319e-01,-5.771344056545842705e+00,-5.913608927907652024e+00
-4.431382781557065442e+00,6.175766343654512269e+00,-1.096209271629166260e+00
-5.974827896505442659e+00,4.813047377876383592e+00,1.740820266743098033e-01
6.597887578919960916e+00,-1.683610704269674851e+00,3.230749249833669623e+00
-1.733772785516342063e+00,-5.974927232435549129e+00,1.570616411945548130e+00
-3.069720249845381055e+00,-5.693113876193759637e+00,-4.640797006486834242e+00
-5.062513701380123798e+00,-4.320520146147043272e-01,4.718939688287571599e+00
6.139824108435488981e+00,4.655602502447021784e+00,-5.345313819052770477e-01
1.431490904145944709e+00,-3.818138139913966445e+00,5.666160601104386352e+00
-5.488933542063337612e+00,6.296911751669504120e+00,-3.183241756950207169e+00
-5.645200952118292648e+00,6.264818953546228641e+00,-2.685273483424531982e+00
2.623006863255961663e-01,-5.933605435068655787e+00,-1.260709779170062328e+00
-3.856718137275569003e+00,5.928489679479440611e+00,5.423231939719526551e+00
-6.350310152499335281e+00,6.236722396114464217e+00,-2.045967788873515492e+00
4.761820404864665512e+00,1.796061924678470589e+00,-6.829709437609990275e+00
2.942764932146440415e+00,6.000720650788354149e+00,-2.912796500440133052e+00
7.312133969008192125e-01,-9.829574519304650204e-01,-6.348706366700224812e+00
3.605723991483172686e+00,-3.544980395185862942e+00,-6.986326629685696510e+00
-7.077360646574853753e+00,-1.086856499943518628e+00,-4.575314114164656942e+00
-4.798352959747424151e+00,-1.970525679888861958e+00,6.119145669444042923e+00
-1.201330646945384384e+00,-6.090175829643727390e+00,4.159140504613070277e+00
-1.334628506448990004e+00,-6.102794715741431730e+00,5.408113288204267732e+00
-1.808460539823517399e+00,6.271240548767188727e+00,-4.240116194454882859e+00
5.294629260266677129e+00,2.900338128487839562e+00,-4.778201035325595925e+00
-3.316428606095622289e+00,-6.125528503729753993e+00,4.806770397215277768e+00
-1.006845655008298257e+00,-5.916427791416659865e+00,9.778795514365545838e-02
-3.416019232481718237e+00,-5.692718039518791961e+00,-4.328749192346891483e+00
1.183916155004088644e+00,5.833643205805530307e+00,3.707532108151875061e+00
-1.120552727644956503e+00,5.931216456676994930e+00,-1.423643019928792219e-01
-4.233160897139041090e+00,-5.752918523594021671e+00,-3.247114514044965539e+00
-4.498418380401680849e+00,5.604140846182954050e+00,6.799321219638964742e+00
-2.441536442473731583e+00,-5.715356773603094354e+00,-2.005427392106220896e+00
2.504879827090163324e+00,5.906429981040269617e+00,5.898335103831579135e-02
5.442775422919923223e+00,3.330268256408604355e+00,-3.886592308329130940e+00
-6.277300610755130350e+00,5.650765166613589408e+00,-1.399353864658045676e+00
6.306511608390739099e+00,-4.314289211586419093e+00,4.628193939272097879e+00
6.981105553696849153e-01,4.186140811457653932e+00,-6.036922011376584685e+00
-3.516578205585108918e+00,3.866139431068909449e+00,6.964617269030623170e+00
3.123285202799494620e+00,-4.620590212505507388e+00,-6.917654854303258993e+00
4.879129640206107510e+00,-4.934645572864230445e+00,4.844336410564845430e+00
1.833554709906548341e+00,5.488271771815624867e-01,-6.454071275285155451e+00
-6.771003180291972789e+00,-4.642314061302287520e+00,-2.267309178523241098e+00
4.835467952349657317e+00,-5.988538394261936126e+00,-5.228663566077869085e+00
-6.482003260834773073e+00,-5.205001726276416996e-01,-2.032228878173754971e+00
6.055090372106588070e+00,-3.787172607101334076e+00,6.199761427774713729e-01
-5.162978892742425607e+00,1.536198929737260022e+00,-4.962802594980394666e+00
-3.548269620692094062e+00,-5.875476112005787677e+00,-9.187036057904256481e-01
5.061903803020197934e+00,1.412111484805736727e-01,-5.183238641963109572e+00
5.028873253351822115e+00,-1.462299556082796048e+00,-4.956133368610209367e+00
-1.663287723225487236e+00,-5.099364199367703243e+00,-5.915763673748878126e+00
-6.411513988752375326e+00,-4.084766653044123785e+00,-1.248157967841894367e+00
-6.635126892572375645e+00,4.263138760717242626e+00,-3.058928188592143549e+00
5.352890062665552229e+00,4.154268859557496363e+00,5.204792240977990758e+00
-1.114523190222362237e+00,4.995741540699787819e+00,6.590560442244895789e+00
-2.729266952717019912e+00,-4.324856843705939258e-01,6.587789918789724197e+00
-1.975699669917526879e+00,-2.399479410616133790e-01,-5.716966019982231195e+00
6.833041656428266108e+00,-3.277644718759155307e+00,4.100594957693655118e+00
5.395080566200416428e+00,-2.893903477503378063e+00,-3.176913519735676594e+00
3.718931581239892203e+00,5.131335553675762107e+00,5.487640089877087846e+00
-6.412767671774986411e+00,-2.374423818302660028e+00,-4.921578775838700182e+00
4.789763020469449017e+00,-6.263330407439452685e+00,2.667810671161460423e+00
1.504470617978304281e+00,-6.037556906215407970e+00,1.068127695802179700e+00
-9.936824099860936954e-01,-5.475038994943608905e+00,-6.260210268561462676e+00
-2.619313789233723266e+00,6.189188914847540524e+00,-3.613144252793933031e+00
4.994515447151572474e+00,-3.037748009976743102e+00,-5.061125239710940527e+00
-4.447414479244292451e+00,4.992934517824038743e+00,6.671373587974182229e+00
-3.842861673405601142e+00,-9.164611886853702982e-01,6.849325427987632331e+00
-1.356159159086047561e+00,-6.112787880609086955e+00,4.593428159799642252e+00
6.238106981274884610e+00,5.686243874892654482e+00,2.571722880581427173e+00
7.225338006639409061e-01,5.874263472822775611e+00,1.825815006559420528e+00
6.376335899040731725e+00,-2.895705111030569157e+00,2.016459387801093239e+00
5.704601460016999859e+00,-4.485729901015403698e+00,-5.818567235650582425e-01
-2.069574156548748434e+00,4.710525666849921578e+00,6.750424197491709855e+00
4.624664694478767935e+00,5.998488816269373025e+00,-4.997052440475236779e+00
-3.012807377164467226e+00,2.870458756421953694e+00,-5.412695180965689801e+00
1.119034331213218936e+00,-6.303682336989290036e+00,5.372236888926518183e+00
6.648190607104635941e-01,2.644329656597832034e+00,6.055131620324835318e+00
5.172021458853973463e+00,5.906133104781240206e+00,-4.969626135008605949e+00
5.852062863664990289e+00,1.474391073331731139e-01,-1.644963171834542104e+00
-3.716288269034769165e+00,-5.730090428924399681e+00,-3.911819153179080022e+00
4.793504607142234697e+00,-6.069387798012171764e+00,-5.540942032880017409e-01
2.747699151843200127e+00,-6.122111093285125705e+00,1.292927390677033550e+00
-4.368842563148766622e+00,6.002669531211462406e+00,4.601953553175640366e+00
-5.049970261188618359e+00,-4.219521940628012224e+00,5.733727561770638914e+00
4.759998857210333334e+00,-1.073796713380737122e+00,-6.149754019736755950e+00
4.368041567823705229e+00,-2.226180645415134496e+00,-7.225668094657316409e+00
-4.961049384044939004e+00,5.303508500101133727e+00,4.586865315703498425e+00
5.390543319081489315e+00,-3.528019935916398175e+00,-3.159881092821224868e+00
1.467972545901796044e+00,-5.957621255515483938e+00,-8.816277359947205516e-01
-3.506397566537726274e+00,4.606364947620004813e+00,7.144482644485231404e+00
4.114071641946709157e+00,-6.073829894294890508e+00,-2.863074934294813634e+00
5.171659585032696960e+00,-6.314405285841669269e+00,4.327433107748853480e+00
-2.916886882815533433e+00,6.060348030797299224e+00,9.088750848535096516e-01
4.132290744981927944e+00,-1.055406253798519822e+00,-7.022558251577801336e+00
-6.167367534247768290e+00,4.857963830521661586e-01,-4.816496965348692427e+00
-5.286117337386726789e-02,-5.677243258432802975e+00,-5.032154833320772624e+00
-6.488375107838222355e+00,2.527510885207863822e+00,-1.988028743861663505e+00
6.530190193826396872e+00,-5.672725216039382623e+00,4.581044726450687499e+00
2.700556715173034750e+00,-6.249451040667124424e+00,3.032958077776157335e+00
-3.156081500376038740e+00,4.173189367205091926e+00,7.037067461038630789e+00
-4.953518883194718114e+00,-4.670818741355673431e+00,-5.388532196488524662e+00
5.656389774745495203e+00,3.723758038648087965e+00,-3.027612526806995330e+00
6.096103530560360362e+00,2.805106407733588991e+00,-6.614299968353137826e-03
-1.278024492586877336e+00,6.027158863854905846e+00,1.862634777736684066e+00
4.390353689010720650e+00,-6.942964691496140706e-01,5.247964529624439045e+00
4.728532291717735703e+00,1.864876215984885066e+00,5.203305720327483286e+00
-4.373900279067087560e+00,-5.741561233336978987e+00,-1.490976959325870821e+00
-1.431725524372971625e+00,-9.147054970715964295e-01,-5.866507829871865809e+00
-4.962849072309999165e+00,-3.077649579630672427e+00,6.048322168357787021e+00
5.550557365157314571e+00,2.745408847162032373e+00,5.098333129010550913e+00
4.012832794457275476e+00,2.360392417951097943e-01,-6.882604088591277147e+00
-5.323432306392797742e+00,-4.128969162679662297e+00,-5.188154485066884369e+00
-6.137086046141591922e+00,8.321232338491575398e-01,-6.682716166427113968e-01
-1.493269148276405556e+00,5.949621035574377714e+00,9.503846610064747846e-01
-6.102478151771138393e+00,6.220742050982626559e+00,-9.364672904214953464e-01
1.358395390212336462e+00,5.952249919222946772e+00,5.800103961175612222e-01
2.047828675938619281e+00,5.827282505821929526e+00,-5.193567535731246493e-02
-6.111756885109462800e+00,4.791482567279114591e+00,-3.344203806612182639e-01
5.326490302171943192e+00,-2.562835454979112804e+00,-3.307300069779738116e+00
4.572564627572862861e+00,-5.380647339505441273e+00,-6.884207251493903890e+00
1.849331399656704900e+00,-4.149561895826709090e+00,5.522262778516015658e+00
1.492251446990836561e+00,5.794235763463971622e+00,2.895974494963543755e+00
3.174358608865137210e+00,5.941686981921660227e+00,-8.544121417014596265e-01
5.620593335588620620e-01,-5.865905655597126511e+00,-4.023349325973715196e+00
-5.896933436543145390e+00,1.427307709311246064e+00,7.804507124264851159e-01
3.288364946973279412e+00,-6.229450949378439795e+00,5.440167448436801223e-01
6.637841606891637269e+00,5.459317804958331521e+00,1.724012863812716789e+00
3.437224883006927634e+00,2.263783325762097620e-01,5.463654851051518158e+00
-4.374998104717279901e+00,-2.854419917830758102e+00,6.930345215386474855e+00
-3.347963934751253756e+00,-3.387896730820931790e+00,6.739180503653560805e+00
5.546790592148177490e-01,-7.501729334757077927e-01,-6.196823678810907232e+00
3.395849594618193912e+00,3.332257901831151781e+00,5.478716923603592193e+00
3.486133719650911900e+00,-6.008822045654436117e+00,1.372265474023049436e-01
6.339175754024945597e+00,5.744837904134830531e+00,3.181251986262740417e+00
4.762952932612018131e+00,-5.838322279249446467e+00,-5.539068511460451205e+00
4.253398867494755820e+00,5.794773296625198356e+00,8.725276736051338355e-01
4.540789613891997867e+00,-4.256152380275149305e+00,-7.149870153587985833e+00
-4.947047843743385798e+00,-5.420078104537703334e-01,-5.152660651600210251e+00
-6.353864685828661152e+00,3.210782936777469398e+00,-4.752350847523361566e+00
-2.737212553825321582e+00,6.095948929966224838e+00,-2.857585242432236772e+00
-6.302000607969331369e+00,-1.481437837193906537e+00,-4.922619611198562950e+00
-4.762144151048647522e+00,6.061493285145603593e+00,1.840033642391623259e+00
-2.150609723031405629e+00,-2.022478335566987973e+00,-5.741660710332104678e+00
-1.809178746177728003e+00,-8.284010041435511118e-01,6.519583765498982331e+00
1.900913422494393268e-01,4.108812550782858786e+00,-5.894642995894357362e+00
-1.852193772219190349e+00,-3.346261245784570182e+00,-5.843864849968471553e+00
-4.143207745906376083e+00,-5.999164190440094302e+00,5.453984796191833517e+00
-6.845947270507850568e+00,-4.432462302029672507e+00,-2.641656583479988107e+00
5.852699966271292416e-03,5.999075859542779554e+00,-3.707232512902187693e+00
4.857614458223637577e+00,-4.394961786694050687e+00,-6.152718065456670438e+00
-6.756981028974553993e+00,-4.269239496274337853e+00,-2.893783597671374608e+00
3.999396350297534486e+00,-6.147282196532288800e+00,-5.375023271751845355e-01
4.481077717823084505e+00,5.793433439746825009e+00,-6.730794701319965156e+00
5.900281370377286727e+00,-4.864499490562811390e-01,-9.335103776222939409e-01
-3.100546149244866712e+00,5.420143502254642698e+00,-5.248139357916232761e+00
3.709200575759229457e-01,-6.005592763361526032e+00,-2.179342668660354809e-01
5.427716314663633135e+00,6.008647736725118982e+00,-3.167719823608123875e+00
3.645933620055811897e+00,5.814479413483669923e+00,3.650315571025086747e+00
1.728893078852393073e+00,3.471657994291541982e+00,-6.369040330366879665e+00
-3.181115372668977592e+00,9.752982845715298943e-01,-5.336080198532441088e+00
-5.326722070089473071e+00,-2.147616189720168656e+00,4.117981444960120641e+00
-4.554725033567432746e+00,6.271818536982569192e+00,-1.340940687614329274e+00
5.069496933907381653e+00,5.785356628709928728e+00,-5.065864909436357255e-01
1.103314107202945982e+00,6.070052229943048161e+00,-3.450614957584897891e+00
1.139976405878321941e+00,5.567676745510487635e+00,-6.036352188305035504e+00
1.055533114700534902e+00,1.725262891084625716e+00,5.917585522826511735e+00
5.550821960677224887e+00,-6.250209196924077837e+00,2.324425917523178065e+00
4.189017635657403815e+00,-1.797616829736039534e+00,5.115349993841846299e+00
4.794154119830856153e+00,-9.686250635006298237e-01,-5.888831799013400037e+00
3.542590231179625793e+00,-6.078710116216226034e+00,1.402302802170424523e-01
4.617008212626666497e-01,6.079549392159942833e+00,7.721182030774713378e-02
-2.275039299486000921e+00,3.556077410717473519e+00,-5.473394270892677937e+00
-3.580676069619783242e+00,6.262393325121948351e+00,-3.122035520014726284e+00
6.441776222761308457e-01,5.404438526113788832e+00,6.214841787483273983e+00
4.037021932398207724e+00,-4.939967872546466410e+00,5.129210996192466787e+00
2.189511002742316581e+00,2.437278694218959263e+00,5.801056981658003764e+00
5.437169720128410155e+00,1.869596801135922748e+00,5.002372710398375943e+00
-6.471302594417464249e+00,-4.591606907227871126e+00,-5.030638629547008023e+00
-2.209945163592895057e+00,6.269318232933692947e+00,-4.561176717079241882e+00
-5.104510725424004747e+00,1.228780518632133001e+00,4.213108707409324083e+00
5.754566817714994897e+00,-6.366138556496249379e+00,3.944236113028145585e+00
-6.672201242323048120e-01,-4.543924444004239227e+00,5.975690418056326614e+00
6.175111801039974146e+00,2.468977684029876052e+00,2.739757889243659150e-01
4.954087700080449963e+00,-3.465881622805641715e+00,-5.260159298106137804e+00
5.393487055093972415e+00,4.636266209674855254e+00,-4.245262249102132124e+00
4.981677965159880372e+00,4.995670672866792117e+00,-6.465950352421790726e+00
-6.446897439840378219e+00,5.191201866711583790e+00,-2.895081560317724900e+00
-6.136581956345172451e+00,1.143577199966756552e+00,-9.982120100134657115e-01
-3.651529608739722654e+00,-6.059033444961034576e+00,5.802726220018614711e+00
6.435581831718806267e-01,-5.400315290666684032e-01,-6.275917065113576498e+00
6.774584841848715122e+00,-6.634294340735770179e-01,4.766690703677886276e+00
-4.510468127759758694e+00,-2.117106568261807542e+00,6.878761245633899790e+00
-5.997925723327415248e+00,-5.534200435374867055e+00,-4.826495161058718786e+00
6.408787729463237604e+00,-4.573345483844711623e+00,1.844369747008525184e+00
5.773244672322259685e-01,5.727459606138525672e+00,4.311357063055580419e+00
6.447843835076252361e+00,3.487684199761455162e+00,8.063463745706017649e-01
5.837505205134298158e+00,5.636595960788757687e+00,3.344914693103748338e+00
6.573590786542943931e+00,-1.432941173468460505e+00,2.557241542236191822e+00
3.770278971686544356e+00,5.664507181269094360e+00,5.165860095086260095e+00
2.387328791181729581e+00,-5.826950688478505391e+00,-5.996654042076293933e+00
-4.317777549775290602e+00,-3.866735135626581110e-01,6.938965085345855321e+00
6.082826031774073883e+00,-1.413886915561534119e+00,4.242064421642475769e-01
-2.424514193860432876e+00,-3.441965048089244306e+00,-5.861794107813995680e+00
5.301575807504243620e+00,-2.244577106226218977e+00,4.960776178581054019e+00
8.331700431468923584e-01,-5.882576078211227966e+00,5.625602320086328767e+00
5.698198424268111850e+00,5.544458481607015266e+00,4.548437019514714130e+00
-4.675700794078310629e+00,-2.845774856477695458e+00,6.936690397785277185e+00
-6.525867433623958824e+00,-3.929728891735143059e-01,-1.769057817897832674e+00
1.010034979761489815e+00,-8.975330620717212327e-01,5.751541468568020399e+00
-5.173547594520516490e+00,-2.688699202620851381e+00,-5.211821648080703362e+00
3.384711492687285439e+00,-2.727606606139142631e+00,5.404405696279549254e+00
-6.980090688562975210e+00,-4.273048295891479498e+00,-3.568676077676001590e+00
1.233885237238392829e+00,2.941862335927478256e+00,-6.269153632580728441e+00
4.457573760619909287e+00,-4.721838446830916247e+00,-7.223269925184601092e+00
2.004826111291795609e-01,-6.252357635248511514e+00,4.299192235057924805e+00
-1.953618083071734235e+00,-5.975770380356020262e+00,6.144458910432418541e+00
-2.463984542054421745e+00,-6.027132425746104083e+00,2.993070127985305029e-01
2.045605381131521572e+00,-2.856540875194820917e+00,-6.552591913301688997e+00
6.984884699687093912e-01,6.021752616575978045e+00,-2.578390870928639167e+00
-5.202562299143544955e+00,4.059128132598061711e+00,-4.927378619748081334e+00
3.344317704457937079e+00,-5.907340771551882419e+00,-5.026254465999027587e+00
3.854840962499867185e+00,-2.152303634405850818e+00,5.329691282498768778e+00
5.222126516328883028e+00,3.065639822862531449e+00,-4.594857671912125241e+00
6.960589125648700914e+00,3.173968564274240567e+00,4.085015049613011762e+00
4.526199672694176890e+00,5.811415215828869663e+00,1.642479236303162615e+00
-2.833951811119268083e+00,6.013701626357175201e+00,1.718324154087643496e+00
5.484226775967539602e+00,4.018820460962861496e+00,-3.187644217569939542e+00
-5.490985082091610181e+00,6.093215343871928091e+00,1.920071518085791462e+00
4.211111948128015037e+00,5.675329977769658640e+00,4.377182866018583418e+00
