6.161793338338235948e+00,2.284851040380362797e+00,3.594709295168192043e+00
5.459561203914627292e+00,-6.054388802182840479e+00,-2.857614416048011474e+00
-6.539200123451847979e+00,-6.384104858175454034e+00,3.651522264135282470e+00
-7.634750786592049643e+00,2.840364160731030374e-01,-4.370829653601077669e-01
1.225697622665933295e+00,-6.321181250855401501e+00,3.284170630800240964e+00
7.828813575902695554e+00,5.616585140516674318e-02,-1.205291859221585327e+00
5.771001457088802411e+00,1.833024900777463273e+00,6.135538192649923950e+00
6.966826982216315578e+00,-8.770199015930342235e-01,2.873510506787889884e+00
-4.169478527363638776e+00,-1.065775701903107731e+01,-3.118123612341908935e+00
-9.048561518400628501e-01,-1.613853715282653090e+00,1.012391839846961261e+01
3.639892617341214720e+00,6.408029992569468369e+00,-3.554972671872268730e+00
-8.124513018069562165e+00,-3.224882691653928823e+00,8.207442139395935143e+00
7.301821477170702401e+00,5.574464341366904385e+00,-3.021720799049445016e+00
6.720288225619959477e-02,-8.165786524461230655e+00,-3.396666099630239355e+00
-5.750286208929125564e+00,2.349748039423081192e+00,-8.781241097832875653e+00
-2.914839765079478173e+00,-9.471146313291416874e+00,-3.572979215518312213e+00
6.199139547642179338e+00,5.238677897327383981e+00,9.735898975248208354e-01
6.137787104699935270e+00,-4.083558507408469040e+00,6.434873881484973523e+00
7.302578297862794443e+00,2.026715078442889784e+00,-3.244169979353961342e-01
-4.272388131706119196e+00,8.564334603097398357e+00,-4.002350462443959866e-01
5.393453955570461922e+00,8.372287714549479176e+00,2.387037247349603764e+00
-2.459400348293252936e+00,7.227750037857727072e+00,-2.424573699781865432e+00
-3.787860014398696684e+00,-6.884744124298372903e+00,-5.835075799919676953e+00
3.287089243941549555e+00,-5.516336855228099800e+00,4.854480582639494557e+00
5.970876781601991423e-02,2.425277737988709603e+00,-9.079702339249704934e+00
3.835952013383103321e+00,9.786780946263442971e+00,3.860692298561514413e+00
5.000087063983221114e+00,3.345086047013704711e+00,8.092594405992604933e+00
2.117961364012814207e-01,3.798460137143775395e+00,-7.123046885059961753e+00
9.117775252018594401e+00,-4.503959053293173476e+00,-2.449295979911446874e+00
7.223200595462290208e-01,-4.525310696270032018e+00,-5.696541856066003717e+00
-5.032529202913868183e+00,-1.941577279634787878e+00,-9.278170700015973438e+00
-3.439603096744869859e+00,9.276176432873696198e-01,7.360905845606431797e+00
-5.046806390285279775e+00,-7.949405421126196636e+00,-4.189886892364314441e+00
8.433580098535180980e+00,-2.181640414795668725e+00,-1.592538507298994377e+00
5.324906589707505411e+00,7.555153227664865412e+00,3.115700274111769641e+00
-2.097694331701660087e+00,-2.437824010739304548e+00,8.998749771080168713e+00
4.793219616797508742e+00,5.620869102382184401e+00,7.022665083900641037e+00
5.692328907331670962e+00,6.182599796419238736e+00,3.345055761797227412e+00
4.797968918237245362e+00,-7.213309429072020329e+00,-2.185821291405661171e+00
6.557298736415089202e+00,-3.093617460113375905e+00,6.567302391775805326e+00
5.326884762472852586e+00,2.815964775329334646e+00,6.659316503359156592e+00
7.399418722165724382e+00,-3.198808301137387122e+00,3.486114255628697478e+00
5.427648870465124453e+00,-4.561271920978566818e+00,-4.004090187251941657e+00
-8.945278832659759871e+00,3.331427025913476836e+00,3.420963388684452600e+00
-8.126968440855678821e+00,1.045647958207586603e+00,5.399733274877881684e+00
6.515050616041127007e+00,5.970907461020837914e-01,3.396810132147312977e+00
4.349964932594742706e+00,1.788065361223565075e+00,9.469050390953196228e+00
7.370213290147247243e+00,3.781913849609368494e-01,3.669893756599373336e-01
-4.913041069591900900e+00,5.761318891706936896e+00,3.213410688360476719e+00
-8.441768102245516658e+00,7.728718398206824602e+00,-1.441918039671821195e+00
7.232892493711986504e+00,4.152144003581264009e+00,-6.609392280531524833e+00
6.674019689820083201e+00,2.205631678838519405e-01,3.148557277918748731e+00
3.706052116162731114e+00,2.277323147611171272e+00,-9.228546210610456768e+00
4.594035706046616596e+00,1.010758673392549056e+01,3.934274187789913668e+00
4.651640938888683685e+00,-3.774775560172097588e+00,-4.942153674653294360e+00
-5.833628553095407732e+00,6.178468129171173828e+00,2.740337307899634478e+00
-4.173025346061354668e+00,5.551520259318779793e+00,3.861865993225173099e+00
-8.006470648840561921e+00,4.839839834812078578e+00,-2.639428941857529409e+00
7.109493699825167212e+00,1.939997811643082493e+00,1.158613723244442673e+00
-7.551438729221452206e+00,-6.748318157858997912e-01,6.871239085745359354e+00
-6.562360737342529227e+00,7.234337370274644963e-01,-4.542164758508815403e+00
-5.999155189059298010e+00,-2.262923333683935390e+00,8.780825341318925226e+00
-8.459162773829095983e+00,2.263274839281395612e-01,5.935735657959605227e+00
5.315075161890812083e+00,1.661457937277181163e+00,-8.483914996745426151e+00
-3.534380732528222602e+00,-4.790766414605797330e+00,5.869766799326895601e+00
2.703600077040907657e+00,-6.915935215878302955e+00,2.508275315364455249e+00
-5.729714714582735624e+00,-8.661016974587505857e+00,5.585955628660584926e-01
-8.689353266351604432e+00,2.514566054004584217e+00,3.024491714746186943e+00
5.048004292015734862e+00,7.988674879118073058e+00,4.007977830536882280e+00
-3.102568977143929985e+00,3.625125593482776409e+00,-7.297452934747926889e+00
-3.675945535271165077e-01,-5.913770235570265932e+00,4.361703206837665547e+00
-6.150042096345397447e+00,5.370282030296563924e+00,-4.844837467652459040e+00
-5.879026100417550360e+00,1.894898495465048294e+00,-8.224415664393950109e+00
-6.875505306210505374e+00,-2.248753277748363200e+00,8.261269030969330629e+00
-4.864575774684135823e+00,-1.547243342920350262e+00,-9.570432102624854664e+00
-8.888267206952205512e+00,1.736665710726760015e+00,4.465981177929724488e+00
4.632877211658351091e-01,-3.834480118126484705e+00,-6.272967324065014338e+00
-3.431114247759456504e+00,2.978467610709573332e+00,5.723693182335699348e+00
-4.208008156576180880e+00,-2.407124440602889326e+00,9.112723149521135824e+00
-3.476291341150488545e+00,4.581222900398957520e+00,4.781697189820160787e+00
5.289203728950573336e+00,4.118571638379450839e+00,-6.904635945045586531e+00
-6.870184255249112582e+00,-6.722129721195897467e-01,-2.291256981847557661e+00
3.290531156936731705e+00,-7.566203008744922798e+00,1.939044035946178024e+00
-6.591451455058526143e+00,-6.389187670755078763e+00,1.261684811799120842e+00
6.138781768717629816e+00,-3.384506174650440347e+00,7.265447617310766049e+00
3.541466482594900267e+00,-3.555771152029294502e-01,1.099026624667553698e+01
8.001977476958790803e+00,-4.246911374042583454e+00,1.455095268683019638e+00
-6.756822271418045034e+00,-3.507639640710575435e+00,9.183813203370803360e-04
-5.903481284786658456e+00,-6.104196866505231078e+00,-1.818058867584926075e+00
3.066121696671610053e+00,4.387865630072822043e+00,-6.207338930751265416e+00
4.997337544749715477e+00,8.297981443258127143e+00,4.175438401244061737e+00
1.694541051989187030e+00,-3.939349943420137556e+00,-5.823896882435658284e+00
2.794362885854360545e+00,-4.392402956968033401e+00,6.301125832660393833e+00
1.564112116164661836e+00,9.505335328441910647e+00,3.150377118257162046e+00
8.406993657423869948e+00,-4.253738562625961062e-01,-5.912409520231012294e+00
7.728634352842409960e+00,-4.473818742579390717e-01,-5.900220533587781979e+00
-3.002016173633857754e+00,-8.893054230232566582e+00,-4.215302545538453849e+00
-4.515369317789629022e+00,4.700827025348825572e+00,4.149898073331362625e+00
2.363814354499585324e+00,8.288672003015497225e+00,-8.269150369568015746e-01
8.068154749101843493e+00,1.930881270792152771e+00,-3.870293538143181333e+00
-5.773191847952062972e+00,-1.773038947826382161e+00,-5.906530036427833252e+00
4.469570431150270196e+00,1.055023843228119418e+01,2.096033023393574890e+00
-2.978902492098760568e+00,-1.749758299124658079e+00,-9.130341771033576137e+00
-4.313315586051576389e+00,-5.820283193755780182e+00,-6.691764642021603038e+00
9.196110903826256733e-01,7.620026407252471490e-01,-9.545412958608913812e+00
-8.564052453377630769e+00,-2.108055539272124079e+00,6.221671194292096807e+00
-2.838574833256221619e-01,-9.701784158451630447e+00,-2.477134622459656654e+00
-7.524032919623635962e+00,4.230141026018784167e+00,-3.248029512966049026e+00
-5.250800978355551152e+00,-2.831371732001193742e+00,8.741919212211866963e+00
-2.893189278822660415e-01,-3.452821545290203797e+00,7.644499921772970552e+00
1.184677556734792914e+00,-2.293439734610939418e+00,-7.278963804341555210e+00
-5.645993769738762325e+00,5.688031630333739486e+00,-4.093283812610656547e+00
-6.437996233909163202e+00,9.326885845949586251e-01,6.049820569626243483e+00
-5.616905000655789237e+00,8.921077078620166745e+00,3.121719209497324510e-01
5.803987364034633778e+00,-2.930266716899529555e+00,8.231549398999973732e+00
5.867764171399489470e+00,-2.151826622684706869e-01,-6.832943179204369777e+00
-5.732302599474182969e+00,-1.372340265221209998e+00,8.130958807357398399e+00
-8.503927457831586878e+00,3.985941536356093273e+00,7.655689534518494987e-01
-7.137471689865685143e+00,-4.981875983910331485e+00,2.442066040357223411e+00
-4.538272859361108580e+00,-4.793818689651841325e+00,5.885635416964428934e+00
7.774071182994638507e-01,1.511296083157043779e-01,9.375368744659370535e+00
-1.115746349035354301e+00,-5.611366558722070685e+00,4.591755330207206498e+00
-2.245690138766083699e+00,9.233140292766973900e+00,4.113489882693182054e-01
7.201668046407349699e+00,2.995087321995586471e+00,-1.145561580301692972e+00
-5.061761098259997205e+00,8.666364795994551784e+00,8.701206869416886966e-03
7.198291069609520143e+00,4.230032756581360687e+00,-1.487804820698562347e+00
6.331656607598627140e+00,4.843510127919023134e+00,1.298552290793927755e+00
-5.441396120910085621e+00,6.425290472288662791e-01,-8.883253301959477710e+00
7.876992308614579663e+00,-7.544055078480527143e+00,1.387783647362238471e+00
5.511907417365551787e+00,-8.897011876101540651e+00,-4.604084004230070137e-01
3.396368450576408460e+00,-7.803387536054690266e+00,-2.385457180430268220e+00
5.357915052978328596e+00,4.806904104626556595e+00,5.638154286971412965e+00
-6.316237891631498513e+00,1.687245906425253406e+00,-5.982858029937418110e+00
9.239693653081273439e-01,-9.704852966758197752e+00,-2.068864463102884521e+00
-3.972694223875346875e+00,7.484547358506008941e+00,2.357397638573151433e+00
-2.958932862571208133e+00,4.602346625606927866e+00,-5.981557639141454885e+00
-5.190284487941643654e+00,-2.388077458973983269e+00,-7.851735585747244173e+00
7.478547212351822182e+00,-4.263893615558565386e+00,3.531610689096955191e+00
5.425170981992789798e+00,8.843007166226211524e+00,-2.353967346753436662e-01
-1.768301917655630939e+00,7.089760097394691485e+00,-2.355202491913991558e+00
1.158643544653986002e+00,-7.597855355268426258e+00,1.938710354800383451e+00
6.163244736544540636e+00,-5.167076442034119310e+00,-3.329875553411591582e+00
5.977829602245451568e+00,1.741054602314318744e+00,4.709021607693130385e+00
-8.892182185185539822e+00,1.310853518057428398e-03,5.987872462491894865e+00
4.890252501597341706e+00,8.691010966631743884e+00,3.880299152253031902e+00
-1.570341629468811728e+00,-8.590696784049899337e-01,-9.288233962416423850e+00
-8.519891724589200521e+00,7.361476312062126048e+00,7.983204443311342491e-01
5.953151567060388949e+00,-5.995668902500026043e+00,3.824174248208556115e+00
6.593791572591736205e+00,1.814099813155227503e+00,2.362565644011796806e+00
7.343894574881030479e+00,-1.236909993116827033e+00,1.890416079993198606e+00
5.566859043966149834e+00,-8.287331557937594795e+00,6.318726112204642309e-01
-5.430238714281329315e+00,1.412976438897008080e+00,6.214478776131181270e+00
1.187480249104295282e+00,2.305233535376437271e+00,-9.265470952822143502e+00
6.078878756087388702e+00,4.989357704373629687e+00,2.282549261167513333e+00
-1.481312661134095210e+00,-7.071523848717602867e+00,-4.974401280749533250e+00
-6.213579994531365891e+00,2.234380291581433919e+00,-7.478818938512860726e+00
8.515769565032299537e-01,-2.773775997716481645e-01,-8.750247017887796019e+00
3.083374120587493827e+00,9.433160881986898616e+00,5.719932434890814266e-01
-2.715228725509369223e+00,-5.657768081795112813e+00,-6.247025915820409558e+00
1.154944169052479985e+00,-8.148554643713120882e+00,-3.129173069768456106e+00
-8.259476545944027137e+00,8.004445140491794675e+00,-8.264951229668255905e-01
-3.867360142962019687e+00,-6.560342324038296091e+00,-6.096924676051298064e+00
-2.824636254568908988e+00,-9.450465919882175214e+00,-7.530415286362296401e-01
-7.071228984383493010e-02,4.509853094974261900e+00,6.058860795723582271e+00
-8.181820989001112210e+00,3.701200786219112970e+00,-5.728896640635374737e-01
5.340551544795437700e+00,9.609982855812329583e-02,-7.319828921430407753e+00
-9.027423883227307044e+00,1.961936790057800639e+00,4.285936272227339749e+00
-3.045338039129450003e+00,-7.664400530144645174e+00,-5.029076897867983398e+00
-6.550403372079174780e+00,1.466320192579008141e+00,-5.441729877464764442e+00
2.816097578854364958e+00,8.077840172987167833e+00,4.372049028489464639e+00
-7.934457385833002974e+00,-3.101660007143812070e+00,4.174546561321951010e+00
-5.484280989069199030e+00,-4.508653869420811588e+00,-4.637809515572130614e+00
8.011497382027863878e+00,2.591022777083693551e+00,-4.292876017062412508e+00
-5.695574906880724875e+00,-5.458604520821690897e+00,5.010865016696536500e+00
7.779337513205933696e+00,4.219299697213182654e+00,-4.655769714235264090e+00
-8.007145006489312378e-01,3.216353179591950884e+00,6.623362871135465291e+00
5.191021365593949888e+00,8.303636788676644898e+00,-8.570005730252936438e-01
4.817867062342497952e+00,-6.488511727512439542e+00,3.220084547550269516e+00
5.494816018437727045e+00,4.209145635772276961e+00,-6.734037573171667290e+00
6.110959815821765062e+00,3.310454174103117264e+00,2.830666606708220900e+00
7.767696297670160455e+00,3.463311796726767255e+00,-7.618771052960108925e+00
-8.917015178643415751e+00,5.044096254904787635e+00,1.418969722950518264e+00
-6.492640936221316217e+00,2.469910345630964787e+00,-5.849637796672173096e+00
-6.535337125823847515e+00,-7.240926313020686678e+00,1.522938230474566668e+00
-7.799113463051773998e+00,-3.076940646954450909e+00,3.687624171755121250e+00
-7.501176226351280896e+00,-2.089232739470282318e+00,7.840750751240014083e+00
8.263313454218399912e+00,5.269550216905896090e-01,-3.344453701058207162e+00
-5.514628466222105452e+00,1.136642557143257903e+00,6.303749876254365780e+00
-8.042600430285739677e+00,-5.601759754734960683e-01,2.721090787722068249e+00
-4.055488677636132522e+00,8.895766073979412880e+00,9.153954163826652501e-02
-2.212124277513106474e+00,1.920274047254030503e+00,7.001012919675382307e+00
-2.620415846872345522e+00,4.983766682193810027e+00,-5.402055582874400130e+00
1.134547497783874315e+00,5.630149194786728373e+00,5.631165751702605249e+00
2.015120508336307292e+00,-6.263224548626340926e+00,3.720236467714984840e+00
-1.079405607848566317e+00,-1.125303536456305098e+00,-8.827864092647780936e+00
-6.765724187300010684e+00,-3.175478209580635980e+00,-8.890719333954111292e-01
2.285612024915719687e+00,8.901337498173267804e+00,3.665148114504942711e+00
8.471465844806070677e+00,-1.436597567128980568e+00,-2.340666500658000970e+00
5.822718874292359459e+00,2.207807553444866233e+00,5.542251378922968819e+00
-6.937723592244586790e+00,-6.054290514991154115e-01,-1.848800946882058094e+00
-1.226837621371587250e+00,6.499274365127842401e+00,-3.302094253395967183e+00
6.088131757236801889e+00,-4.355790629199998598e+00,-3.837384296115791571e+00
-9.798314647316407333e-01,-7.655966932536507841e+00,1.864008474516796188e+00
9.551057872057470144e-01,-6.067932565631057429e+00,3.652550150486403080e+00
-7.719928879688126244e+00,-1.361746312985901763e+00,2.120099312489439836e+00
4.962971015303660138e+00,3.730706091286242199e-01,-7.590685236651212087e+00
6.458347851679348217e+00,1.176571565860371926e+00,3.887690831656546830e+00
6.475248316363523493e+00,2.264304408364571586e+00,2.660691412275720591e+00
1.009949556765542100e+00,-2.290557258912359284e+00,-7.458291995884046344e+00
8.000859441232869074e+00,-3.211726831023272499e+00,4.332216423940217220e-01
5.779146569254126398e+00,5.592140465650749626e+00,3.173260541274096180e+00
5.961618154692018834e+00,9.330415362207180596e-01,-7.679082517601488078e+00
4.988823288666353939e+00,-7.418519767347095062e+00,1.975886557109274522e+00
8.848047322378389978e+00,2.885336847292931495e+00,-7.584342823883700291e+00
-2.346880234988780511e+00,6.509940101483640440e+00,3.699635513703364964e+00
3.399342056817720170e+00,-5.903741934791465695e+00,4.190985286739155491e+00
-3.962001579409815122e+00,-8.430538639601271811e+00,9.233006468129094646e-01
-4.796622730497867693e+00,-8.495584050862337477e+00,-4.700587613379709317e+00
1.611420668255472810e+00,6.181145344547521736e-01,-9.048356706414372397e+00
5.534156531626904796e-01,-9.057104035627148164e+00,-2.670973724031508567e+00
-5.898755984660567719e+00,-8.096868754943942648e+00,1.082702850568146413e+00
-1.034053800323753824e+00,-3.935371694971798728e+00,7.016692471393303876e+00
-8.536666943148023545e-01,-6.681685374371395092e+00,2.939810522626439937e+00
8.419171118556383338e-01,5.155756696371902592e+00,5.973102596894825922e+00
1.758748610349671448e+00,-8.666588374571990272e+00,4.186616164632910309e-01
7.719112510899922341e+00,-5.798878438910354483e+00,3.561700183384662655e+00
-8.604875449559420630e+00,-4.897824506239106257e-01,4.816774583265004850e+00
5.139335852872335408e+00,9.904125946783569390e+00,2.281372524780628464e+00
-5.576200502260893366e+00,-6.442155447105387012e+00,-3.281380163455111187e+00
-3.359058750173325336e+00,1.118821559650775788e+00,-1.068086917613074327e+01
-8.512913374132148547e+00,4.406787572546177145e+00,4.991910931060886680e-01
-5.391534571054162228e+00,5.787903148322942393e+00,3.028184590840300228e+00
-3.996833575337751743e+00,6.263313313890793710e-01,7.239801427649109833e+00
-6.731829727371568817e-01,-1.023186839716869656e+01,-1.824012491968415972e+00
-4.018145883850136713e+00,1.601632176372413063e+00,6.346913383082092963e+00
-5.408538044562837932e+00,-8.784278217492611063e+00,2.287162888636143643e-01
4.522069010633616770e+00,2.178389812600695308e+00,9.444556103631288835e+00
-1.544380539020001386e+00,-6.033635623916252300e+00,4.011117928800118193e+00
1.063445193475884842e+00,7.483965070047764456e+00,-2.100229308712400655e+00
-1.554547598804064235e+00,-6.562486277119582212e+00,-5.279971153670383721e+00
-6.056698591388216535e+00,-2.615217269575632386e+00,-4.032232320552963323e+00
4.878786295655114458e+00,2.440452676833844592e+00,9.196924486300762425e+00
8.931140478470128485e+00,4.855651548801636630e-01,-6.007442690038274691e+00
6.282405134005748515e+00,7.593553533169344227e+00,-1.894903649712662563e+00
-8.501290166213410160e+00,-3.424685918903853210e+00,6.881807534769233570e+00
2.490777862292484546e+00,-2.312943509294344224e+00,8.951307680270721434e+00
-6.679430279554536831e+00,6.864094346315679829e+00,-2.632760983992783910e+00
7.695703727126141480e+00,2.972377556340006777e+00,-8.406091962426996744e+00
8.654426149638023980e-02,-3.746237825725103665e+00,7.203537880980712238e+00
-5.570108712176929266e+00,8.115948360576876297e+00,-7.715394394514353271e-01
2.593484501719806712e+00,-1.771457489543874608e+00,-6.972680637735036768e+00
-3.406968278380179349e+00,6.049258967773365470e-01,7.471085821939570160e+00
-5.412533634186575959e+00,-4.220577537905780829e+00,-5.367204427921527632e+00
-4.773561245304557055e+00,-9.213335821009639659e+00,-4.036070180704758315e+00
5.374275031682361536e+00,-7.267172822257358611e+00,-2.037432862966260139e+00
-5.420667799794441244e+00,2.260279585641991495e+00,-8.942158783064066085e+00
5.478781023315359294e-02,8.844350136045987298e+00,-3.481118302560387567e-02
-5.653556417156391234e+00,3.080450539426487500e-01,-8.889962448717389165e+00
2.489639180687174491e+00,-3.876627816166955398e-02,-8.362413575702751345e+00
3.158776203721127995e+00,1.046831101391367147e+00,9.695316334264735048e+00
-3.962300951112538439e+00,2.752529359628984817e+00,-8.375921060999786505e+00
4.220958540447061758e+00,-9.196820101771550071e+00,-1.193961889347519012e+00
5.768747376123616988e+00,-2.194614619309127157e+00,9.065891976336947877e+00
-7.605256490362390487e+00,-2.841615977034895657e+00,2.585381150325690047e+00
6.819560162696898686e+00,5.816221641149083688e+00,-4.502903352908131929e+00
6.138183697331558997e-02,7.726456590911402245e+00,3.698431874797485364e+00
-7.138589789753963188e+00,-2.957425350864944402e+00,8.392952394328160537e+00
-4.724797588284027405e+00,3.876031727091036938e+00,4.809289037799330480e+00
-8.969320128248874369e+00,-8.109065201602380091e-01,6.566848147228333765e+00
9.289071187344749569e-01,9.376281684877721290e+00,7.622788866604433000e-01
-5.426605055662992783e+00,-2.864384485146772352e+00,-6.362758109255867822e+00
4.108031981698499813e+00,-1.659809790602750690e+00,-6.596250463336866154e+00
-3.230939146527167072e+00,3.107910177063821333e+00,-7.999767225099855494e+00
7.934342897561427854e+00,2.351032311720024026e+00,-3.318458853391671681e+00
-5.589974769539556299e+00,1.391541295368756925e+00,-9.008523741395020323e+00
8.549399930970034589e+00,-2.719609457700930211e+00,-1.729426805385696930e+00
-5.768351860047627788e+00,3.593343112762624081e+00,-7.212476192573908484e+00
7.356454691419587633e+00,3.175459093227684715e+00,-1.712516422462422971e+00
-3.469231873260476995e+00,-8.797906559592137299e+00,1.991689931685502735e-01
8.842913656397087152e+00,-7.598679299670443754e+00,2.589076220926310734e-01
8.816590315888912954e+00,-7.668703972983733408e+00,5.870186023830671340e-01
-5.767235697295166830e+00,-3.548032696116949936e+00,-4.743387300059365153e+00
-5.632572944267652204e+00,3.888628143616171595e+00,4.538714730319108881e+00
3.907090750461090334e+00,6.355350377808561824e+00,6.147000806177874033e+00
7.397730906166428255e+00,2.113045293903851540e+00,-7.218854397145558766e-01
-6.724375464240068823e+00,-6.151364266738548636e+00,1.484887114083550452e+00
1.062107249127728803e+00,-4.697904286302334143e+00,-5.439746735745994322e+00
9.006845112682158927e+00,-4.246737022345298485e+00,-2.496498905846968430e+00
-3.928124700157780147e+00,6.359266349147251418e+00,-3.414015122578885286e+00
2.671680636659002239e+00,1.096573558681458449e+00,9.404179745960867365e+00
8.660638430090198625e+00,2.945618284642283591e+00,-6.943309309301118226e+00
5.764074751027521870e+00,-3.821504802058624861e+00,-4.404409876527608070e+00
1.854603356052394680e+00,6.012915378519585907e+00,5.578011787347167072e+00
-7.255492861240301572e+00,5.609600805047339378e+00,-4.347828586394927086e+00
-9.019180481983427811e+00,2.641862473439105852e+00,4.062327979396987310e+00
-2.376502984248579420e+00,7.956515854034719837e+00,2.729424210414145513e+00
8.654982260361753887e+00,-7.488297350464465651e-01,-3.536069667918537274e+00
1.310332407599104521e+00,-4.339354129429562335e+00,6.252467697575156969e+00
-5.567861134603711903e+00,-2.262483578586948152e+00,-6.413744223104346887e+00
-6.054797960855434091e+00,6.631475075065360159e+00,2.359379995025304044e+00
-5.774437997206738338e+00,2.561319972923195021e+00,5.325320704471063316e+00
-6.986255683768747282e+00,-2.949617508177842518e-01,-2.438672260978308248e+00
1.814932431141381919e+00,7.035745654633933643e-01,-9.097825490582350128e+00
2.109399204331293465e+00,3.752877902895276119e+00,7.455839890369166945e+00
-6.798327579806192622e-01,-5.983423682002682042e-01,-8.981799134822686881e+00
6.311112526569316650e+00,5.278252109871563569e+00,3.593560901980695221e-01
-3.329364451491901189e+00,7.877684577752770423e+00,-1.217912642177888083e+00
4.753804614757676461e+00,-3.223319530210603912e+00,7.828178712714606746e+00
5.001968806965108705e+00,6.812462087483001305e+00,-2.922575352805712789e+00
5.030920744389856480e+00,-2.902779164777072651e+00,-5.245476833352744173e+00
-7.762661509412357219e+00,-5.108404495083471719e-01,9.516629862615803015e-01
-4.793534091691872945e+00,6.164854055921199283e+00,-3.635028178955109546e+00
5.286046396846249884e+00,2.799716223507878077e+00,7.018199976378310723e+00
-1.943572376607909602e+00,-3.563493427115034695e+00,7.458789985835689862e+00
-3.538274678423732222e+00,9.066435295765449709e+00,1.554751076132428134e+00
4.344880494863296860e+00,-3.611948026395367606e+00,-4.682104542498100486e+00
6.996756314322378323e+00,5.968724880077710182e+00,-4.411256738229525354e+00
-2.926527932650385022e+00,-2.066711840226602703e+00,9.563703719638231959e+00
-5.086658687592502837e+00,-8.342107426487263666e+00,-3.500538439645448641e+00
5.890589813768050576e+00,-7.963195488470985461e-01,7.310045214956582882e+00
-2.622497544915620260e+00,8.251993903439707623e+00,2.428842087919456549e+00
-6.692937970586514851e+00,-6.558908913686772202e+00,1.449561079406258557e+00
-6.348915323433492297e+00,-2.716697420883845915e+00,-3.004859922522904014e+00
-8.887273835830836077e+00,1.349355146327625876e+00,4.853481235836144769e+00
-1.181544589680531887e+00,9.182288737364810771e+00,5.442531338897692583e-01
2.290013123912352899e+00,-9.638210949364338642e-01,1.082270560359994249e+01
5.845705645766450242e-01,-7.918124406190019116e+00,1.458615250212699443e+00
-7.636211819874130668e+00,2.834251951242502177e+00,-1.137611555026346144e+00
6.920716098414246176e+00,5.335108035332468468e+00,-1.660502613716988041e+00
2.061098977192197701e+00,8.025868883614935001e+00,-1.119128896321819333e+00
6.115026663973199383e+00,6.855518198396876706e+00,6.214618914803863303e-01
-8.541944895552839867e-01,-1.037129861011188581e+01,-2.225948246765710792e+00
4.838807673370554063e+00,-4.351436443749957306e+00,-4.324909402572025385e+00
7.257363373830735043e+00,-5.030836254312139211e+00,-2.864435322068366041e+00
-1.611884646133074250e+00,4.101742739882531907e+00,5.686671245094689020e+00
3.217930141179713210e+00,-5.245932120741576554e+00,4.914622227630078832e+00
-8.685469400560304365e+00,2.379672223595755032e+00,4.261662330558971590e+00
3.516856177750633528e+00,-7.368636696161040334e+00,2.057934449790579379e+00
-1.140448224371572589e-01,4.526492089769913463e+00,5.891625249055504554e+00
-4.649675927031652556e+00,7.388233138363745844e+00,-1.924322735855727773e+00
-2.844396659137785388e+00,-5.470117349084135938e+00,-6.457907796560496294e+00
-7.272925911025839518e+00,7.050770443378739039e+00,-2.347129748603050015e+00
8.015980865437231984e+00,-8.539481242547704909e+00,3.138537489491985411e-01
-5.961006797212061947e+00,3.626647962839910200e+00,4.360915051638817097e+00
-4.068389097159597512e+00,7.319905540917617248e-01,7.242337001575163136e+00
5.025180160590455358e+00,-1.100181350737038932e-01,1.075924280531523358e+01
7.891980996133331594e+00,2.432309315337438382e-01,-1.394162889266195471e+00
-7.601857721775120424e+00,6.031705621606971768e+00,-3.847352015320278262e+00
-2.806513103215287686e+00,1.128219133619225767e+00,-1.083225563633108202e+01
-5.657289137204328355e+00,-6.096386353634780875e+00,-2.854903995453459853e+00
-6.112507320810332878e+00,-1.149320139879109970e+00,-5.351513702170271891e+00
2.167809806621177504e+00,1.045492659974176064e+01,2.766297530572263685e+00
-4.981250087098695545e+00,-9.402101050944878580e+00,-2.984127975249375009e+00
-7.981634856974108239e+00,2.385431232301425286e+00,4.589615860562407335e+00
9.655013663063095608e-01,3.037545274106565163e+00,-8.235368257938258552e+00
8.874748701967877906e+00,-7.454713538536952733e+00,-5.681491481432928703e-01
4.694947576297059832e+00,8.825410709249478458e+00,-1.460048240312742107e-01
4.064199029382432826e+00,6.107735284668105002e+00,-4.122879940838467760e+00
-2.781086751711912886e+00,-4.278187351465867039e+00,-7.366421565168900898e+00
-4.387287222588761360e+00,-9.612168075406371415e+00,-1.016902480036298018e+00
-4.155006943163026101e+00,-1.062734566328362540e+01,-3.319551170284996022e+00
-3.090686177089078335e+00,7.006913431841063300e+00,3.003471503549164368e+00
-3.470858280241468030e+00,7.088757126253561580e+00,-2.414222073159858706e+00
-5.521374057921728529e+00,8.184164454837683067e+00,-6.164689147932911339e-01
7.591455137106319917e+00,-1.163285279772819480e+00,-5.467203637096362812e+00
2.467294781459960173e+00,7.936764836740382023e+00,-1.366076416853790221e+00
6.887026674467927378e+00,-4.541959968004378179e-01,-6.350251596703009760e+00
-1.389232365288522564e+00,-1.765933496546290504e+00,9.889136169388399011e+00
5.297009942768693413e+00,2.139179881041550768e+00,7.673231908577190730e+00
1.064586589669500816e+00,-4.941844301889920743e+00,-5.399343439404644229e+00
-2.738163511100252467e+00,-8.713866506506938947e+00,1.125383490530977998e-01
4.848655076092478922e+00,2.140423932937277396e+00,9.443049585057666562e+00
-8.899995009496128873e+00,4.838948465637359364e-01,5.505662488109936525e+00
8.939135907342858900e-01,-6.629028756001716927e-01,9.972800362331062374e+00
8.164281539079810912e+00,3.854296453901102204e+00,-5.402358435083577604e+00
-5.103408055092774731e+00,-2.469478793866724420e+00,-7.816542057852617909e+00
3.361021720429778536e+00,9.426740584274979184e+00,6.704174924759661591e-01
3.023354729829773380e+00,8.307556425546874124e+00,4.552321810228058929e+00
-1.032863945488486923e-01,5.509977247717916526e+00,-4.774263358467776719e+00
-7.259225659903552952e+00,2.378403015288272471e+00,-2.828417139146460979e+00
-6.734441454290881701e+00,-6.100544735107287231e+00,1.299860385219227199e+00
6.431112968748057490e+00,5.796049245677168393e+00,2.282547261995229171e-01
6.457993989561781945e+00,6.806374203020172153e+00,-2.605787668718161920e-01
4.827451396893399860e+00,6.335491691173309903e+00,6.006772307991666615e+00
8.986714523631283313e+00,-4.637954092841649612e+00,-2.315415393757474405e+00
6.148890476367747659e-01,6.942661323919624650e+00,4.521158687546414257e+00
-5.449710711252820694e+00,-9.432255219103979016e+00,-1.298461058032280846e+00
4.182869268800436302e+00,9.155819213510650201e+00,1.636715255166429350e-01
-6.619895227762395251e+00,7.299750693307628602e+00,1.521330850262596845e+00
-4.887538795212517329e+00,-1.620097826316615697e+00,-9.927149453098699894e+00
5.821983322965142982e+00,8.717885581477599288e+00,-2.760236004023420842e-01
-7.684683971036197825e+00,5.779064268226644430e+00,2.204990368397526268e+00
7.891738055698981569e+00,2.576270481904718856e+00,-8.115473234005888159e+00
6.790647639237032074e+00,-6.174904507125052788e+00,-2.456265548068121252e+00
-8.502578360004994451e+00,-1.194720669320645579e+00,6.980253882828816536e+00
8.844308924214029588e+00,-1.427483621506901557e+00,-4.180474661575364514e+00
-7.102104891385085494e+00,-1.720135385892415325e+00,-6.424236301745155364e-01
-6.988287445160856315e+00,6.246685073822917822e+00,-3.575283851649718514e+00
-1.320032628067949965e+00,1.614789795112384407e+00,7.518892364653328997e+00
-5.858749918039895199e+00,-5.431008094771506478e+00,-2.907807848434150522e+00
-8.502590674659545655e+00,6.351887547662293798e+00,-1.476286032004700211e+00
1.259538647389868427e+00,5.369322061739422836e+00,6.003426440090673388e+00
-3.445245572966458170e+00,5.749783413687888256e+00,-4.208358972735511294e+00
3.182648005940931668e+00,9.425576819191187061e-01,-8.876252783441481498e+00
7.657161334434274380e+00,-7.773684280123332790e+00,1.289595690269514261e+00
-5.550071705838747205e-01,6.371764590594525934e+00,-3.462435890511634362e+00
7.196883306924403811e+00,-4.569780978643370517e+00,4.729523084586674031e+00
5.112110808457804190e+00,8.093206303235822574e+00,3.387346904887419186e+00
6.334235386450654204e+00,1.217460302412297635e+00,3.903325398763465959e+00
-3.945879368516279850e+00,8.209664280281733895e+00,-6.150614746627177665e-01
5.281125062328138497e+00,4.844483748449926352e+00,5.408800583189978362e+00
-1.791060385647382791e+00,-8.987887782302996342e+00,-2.213700932553458456e-01
8.081064821082735161e-01,-6.536177779185379677e+00,-4.206885258299199570e+00
4.189148163494835764e+00,5.760706654545319161e+00,6.739094345023936228e+00
5.245001991402714614e-01,9.720676030185154914e+00,2.584944907512347623e+00
2.929211681838219672e+00,5.942033746342921141e+00,6.234244765662499077e+00
-4.271956893108441733e+00,-6.610684371405417536e+00,3.139102455171627781e+00
1.353088174657702369e+00,1.514996251559730389e+00,8.731615142549784991e+00
6.518212433624087865e+00,-1.818877059034944121e+00,5.798968308491863510e+00
1.880609597797598065e+00,8.530397045324857430e+00,4.089089619656018471e+00
-1.030526025836867809e+00,7.103172052734503694e+00,-2.266645320103240824e+00
6.284133089494264190e+00,6.413036855117112189e+00,-3.664763258101576771e+00
4.134638495397301661e+00,5.650481263526770270e+00,-4.465029582833055954e+00
-8.685877629414228807e+00,-1.965432988299369521e+00,6.044505286421107293e+00
-3.622663977311872952e+00,1.818313276272205403e+00,6.514650778721885693e+00
-1.552478571882061731e+00,-4.523178807308564586e+00,6.292591776291512673e+00
-5.298773042228556163e-01,-2.711536443683569608e+00,8.524297474203690328e+00
5.269501467287776464e+00,7.665878588294394724e+00,-1.764587456049512726e+00
3.092839470289744597e+00,-4.058230746396995769e+00,6.646959646686595669e+00
-5.313003616216816383e+00,3.595230889094090942e-01,-9.387404430506290254e+00
8.300151309682581413e+00,2.303375878034834845e-01,-3.033031999447517890e+00
3.285749120767468945e+00,5.577099489043561675e+00,-4.424882115016560924e+00
6.412638772700558043e+00,1.710027603784701311e+00,3.460274315543010459e+00
5.694157264213908221e+00,4.134970042708315141e+00,4.247413331881585208e+00
8.617131219049825042e-01,6.639182051461302692e+00,-3.001846113944127037e+00
-1.905209920017539194e+00,5.139232101431894684e+00,4.912138267423520332e+00
8.344161430896745557e+00,-5.835397883260037943e+00,1.010870579151856408e+00
7.271019210223671259e+00,-1.079980030280747183e-01,1.732608802162304729e+00
-5.656974277754188485e+00,-6.529758607291035258e-04,-8.220520704734903816e+00
-8.959356221751173521e+00,3.366090683844804032e-01,5.616163185363917343e+00
8.471656772955293846e+00,-4.307281173301420019e+00,-3.032064925903973585e+00
-7.009062009293034023e+00,-6.445512151709740234e-01,-1.288574532215298385e+00
-7.015456539896751387e-02,-7.038579308319381500e-01,9.794164630603798827e+00
1.786261897138381016e+00,5.020608430292520907e+00,6.408958763331896513e+00
-9.158062710375249438e+00,3.854896503591180856e+00,3.041430619906589694e+00
6.464398925889893732e+00,1.935709421360072069e+00,3.388692176616360019e+00
-6.676714947456687810e+00,1.480581128239666366e-01,-4.006696973611506785e+00
7.873893229135196847e+00,2.383549068814752925e+00,-3.142005981335072029e+00
8.842400795267296720e-01,-2.552715285018882341e+00,-7.136231167454446300e+00
-6.280542914877242922e+00,1.278392394096277807e+00,-6.654453787247583740e+00
-1.266924697404214539e+00,-6.381565019922789794e+00,3.647427362569541920e+00
1.323231011455600736e+00,-9.695659655499003549e+00,-1.772027165410367866e+00
7.557289063518010330e+00,-3.773344222231240774e+00,-3.668311502242166178e+00
8.372405652800264164e+00,1.094489833294821413e+00,-6.830343989806388016e+00
-6.844292609153815654e+00,-1.541408862068845975e+00,-1.781090724580302265e+00
6.506000316126705485e+00,5.444246752345691220e+00,-4.815457201841368828e+00
-5.274461112060721213e+00,-4.000846412761861481e-01,-8.515669678634646189e+00
-3.959848557020014592e+00,5.452565060651352269e+00,-4.775485643317238349e+00
-8.118317928086684176e+00,6.250599565845484484e+00,-3.042392171151563129e+00
6.794178630004836350e+00,-4.011254892942340611e+00,6.260369579384273742e+00
-7.969591223524455259e+00,7.092628698954572819e-01,1.436298407979077929e+00
-5.201790574062076900e+00,-6.227248242079739704e+00,-4.796208458520323070e+00
-6.005348385057978966e+00,-3.893913886352850184e+00,7.288526186791100869e+00
5.788985395919343802e+00,-1.746619082064705397e+00,8.724165546609347288e+00
8.169234694740579172e+00,-5.491197212079629963e+00,1.580919594616227997e+00
-6.891701200367712943e+00,-6.575206231091557108e-01,-2.864972774019387103e+00
-6.758536194934603003e+00,-6.377186755325029210e+00,1.794517234457164490e+00
-5.321577324978255419e+00,8.880453791383533968e+00,9.919546260841041185e-01
5.720299269501307293e+00,-4.424407604293961960e+00,6.060298203521830906e+00
5.002257472424926021e+00,9.165483540624913772e+00,2.209988338300004074e+00
-7.248640598375152955e+00,5.405932681902077874e+00,-4.465713517924503329e+00
2.462044014467000608e+00,5.395178764926389370e+00,6.126954219337413576e+00
7.714290865193520474e+00,-7.666346881873749908e+00,1.646454965679954530e+00
6.837382064071029220e-01,3.978736808386944102e+00,6.591037301931915948e+00
1.698623698313466379e+00,-6.698881495155192489e+00,2.930614085880618891e+00
-6.174610559862424353e+00,6.482401435662907829e+00,-3.069790081042413465e+00
7.984264205826170357e-01,5.950564186818684043e+00,-4.023578914172341925e+00
-1.427909813947670026e+00,2.387199624210152304e+00,-8.902703222233075309e+00
-5.197599291826170642e+00,-6.815886004672276677e+00,-4.013466512505325490e+00
-7.319139312297949118e+00,3.495623885480910076e+00,3.941612149729261105e+00
-3.617655126630395124e+00,7.504877165938088623e+00,-1.981527030118977795e+00
1.169103277180345346e+00,-8.559047734066659530e+00,3.843505979609677659e-01
5.681921739363600565e+00,-4.855038320895779691e+00,-3.687554503286536001e+00
6.085028547674563804e+00,4.470571251481589847e+00,-6.181377824269913113e+00
2.599178680148113152e-01,-4.416779242828744678e+00,-6.115436177924595818e+00
4.704494440668621102e+00,2.437611699389491182e+00,-8.945702045476886966e+00
-7.280533889767068167e+00,7.885786518379061860e+00,-1.120631329460653136e+00
8.545136942510090705e+00,-7.852634405458016609e-01,-5.498401086726523168e+00
-5.034039152107411930e+00,-1.041238771536298513e+00,7.975273298709792513e+00
-5.054008280330785086e-01,-2.577911191772425337e+00,-7.750273012723948085e+00
7.584071990202263081e+00,-1.164869713622178393e+00,1.964466047979840924e-01
7.331102447896451046e+00,3.320834343956114765e+00,-1.584853910425185752e+00
-3.801926306425165603e+00,4.410994090498498110e+00,-6.176763256308013261e+00
-4.032252719267045649e+00,-6.000374323875695026e+00,-6.703152767139921586e+00
-6.908986881230913646e+00,-4.721054852424567017e+00,9.782745420405886128e-01
-3.513576995730502084e+00,-8.575484951174729531e+00,4.900073164495123423e-01
-7.088982126909349368e+00,4.266025604850955055e+00,-5.364068197469815225e+00
-7.368433169817779849e+00,-3.222425095403446349e+00,1.512379361423611623e+00
4.129255717390532432e+00,6.222535702378623412e+00,-3.822142301774349882e+00
1.818163509315179338e+00,-6.628933818234860276e+00,-3.758798666976529645e+00
