-7.474223917159636965e-01,-1.413408919237183703e+00,2.849391147721397566e+00
-2.843370427293693936e+00,-8.621823380412860782e-01,2.369218965272947008e-01
1.595073555784781050e+00,1.395912544694674073e+00,-2.377338415258734017e+00
2.126091480645954102e-01,2.395660357176515376e+00,1.523278204768809818e-01
1.237452975072731998e-01,2.031201072023320453e+00,-1.161413951825875257e+00
4.295307099006143159e-01,-1.373738268670536833e+00,2.602467537210447102e+00
-1.763725762648397977e+00,-2.293256779166302994e+00,-9.392238478654474365e-01
-1.810309114605696434e+00,7.441624018996121359e-01,1.105595799844273808e+00
1.852662340207650526e+00,1.832143455127060783e+00,-6.866074755054092371e-01
1.026307565743104888e+00,-2.236740670932016783e+00,-1.711998359285716420e+00
-2.230107832220499464e+00,-3.485370630648876311e-01,-1.312831969887397143e+00
-1.260862155946585350e+00,1.965435636666934993e+00,1.401852810588910314e+00
-2.646351128112403583e-01,-2.848241607598342995e+00,-1.768924251166196004e+00
2.234963483521793304e+00,7.351133288986984038e-01,1.251817808177551949e+00
8.932132835980192143e-01,-1.185773490474867797e+00,-2.654926606024179847e+00
3.217830656424703228e+00,1.751472102236403705e+00,8.305573875170349507e-02
3.006165124865046057e+00,1.160210532055500510e+00,7.271572087896355230e-01
2.646102121108512506e+00,-6.044757952878799800e-01,3.014701576419065998e-01
3.100739132038897505e+00,1.885675379700800569e+00,5.606960190144296696e-01
-1.164053774856094625e+00,-2.424893375355374303e+00,-8.643031457800823825e-01
1.858528943186532612e+00,-2.449089505718117010e+00,1.192244711687444614e+00
2.158834099494437719e+00,3.821919430321207289e-01,1.333897531961201643e+00
3.084085662103700498e-01,1.681264900981892518e+00,2.139934392488804793e+00
6.751380058170727283e-01,-9.763887531322881230e-01,2.461573989433093246e+00
-5.020523873510398527e-01,-7.672801627544099945e-02,-2.362610398685732527e+00
-5.704340070847401245e-01,-2.595017185837927176e+00,-1.085996278949360017e+00
-6.736625000045445844e-02,-1.207954056588662173e+00,2.833941790918646397e+00
-2.621731417600436376e-01,3.056832835817108851e+00,2.012065730971482669e+00
-2.422959891205089811e+00,6.933123432184717938e-02,-1.259395765582796312e+00
-2.663829431362539246e+00,1.097022931496173803e-01,-1.137470988221928048e+00
-1.187761211056996613e+00,-1.635230814006487732e+00,1.923892759019413479e+00
-3.662448409588831000e-01,2.150408654223231242e+00,-9.858748265130241606e-01
-5.233584611904371631e-01,1.069444944076892279e+00,2.736681109313773952e+00
-1.804327227481042906e+00,1.391288171647127925e+00,-1.838785952581478700e+00
2.934920151527117493e+00,-6.538993586196237828e-01,9.925069818852393366e-01
2.663719459828883362e+00,1.125802547064720827e+00,-7.791444788100897467e-01
9.848905119190035085e-02,-5.354953592470532708e-01,2.696177124892201071e+00
-3.529296477960399692e-01,-2.626869267476059644e+00,-9.618591924330746057e-01
2.180408319377514115e+00,5.506629859787094405e-01,-1.422947463829657977e+00
-2.432182234020182854e+00,2.471406146124242920e+00,-1.466418103888620150e+00
1.587960112459093187e+00,1.187874631848949925e+00,-2.945283173564424484e+00
-8.076964371358578143e-01,-1.391486523461501035e+00,-1.949635590333730573e+00
3.869222821936015855e-01,-6.538693528851247105e-01,-2.753312561706353190e+00
-2.624113302676212900e+00,5.152564426524152905e-03,1.312974539161914089e-01
1.546408222062022775e+00,-1.845914378687010027e+00,2.045509775602728730e+00
-2.222946279210475662e-01,1.307405566975756994e-01,2.766443503970616113e+00
-1.198317867416245575e+00,-2.293113252352324327e+00,-5.111717879373456341e-01
8.768767764975232692e-01,-1.249209783684047226e+00,-2.557791688748032755e+00
1.473415356600890069e+00,-1.977873622206637094e+00,-1.019279384658619003e+00
-2.560463621942384638e+00,-2.039474534791527294e+00,-8.022549533248436449e-01
-7.842335249064175118e-01,-2.469874783461740719e+00,-1.749674052775082922e+00
-1.329752542115404612e+00,5.088986093241567588e-01,-1.966522882028865604e+00
-8.886993187805327654e-01,-2.177200328483525738e+00,-1.710080954305409628e+00
2.163029798348896637e+00,-2.437446871873564902e+00,7.488796530019189435e-01
-9.814082399486886432e-01,2.598880493333583175e+00,1.393364297052668288e+00
-7.588183173548661564e-01,2.428702900798920261e+00,-4.659901904563027442e-01
-1.170423951815880770e+00,1.814114923932377943e+00,1.671721270899998224e+00
-2.701015677072510446e+00,-1.571935097631260048e+00,-8.188866329215644946e-01
-3.587651676265492529e-01,-5.263848267651440871e-01,2.925597438764230063e+00
-1.874169450554936445e+00,1.840251252550710592e-01,-1.612489228844827149e+00
-9.997651489956910220e-02,2.371892023668477290e+00,-2.915349815065178540e-01
2.160294163707672244e+00,5.562468873746887615e-02,1.358486607249479672e+00
1.119464272691180762e+00,1.896674446557726768e+00,1.734243217598674391e+00
-1.108637334274790165e+00,2.652776474804468432e+00,7.523104246684349239e-02
-4.682680083729794385e-01,2.753214078232327999e+00,2.282491606690686403e+00
-2.863591486611587467e+00,-5.539027734043977524e-01,-7.746867292720668874e-02
-9.074030735775712175e-01,1.435191941588009001e+00,2.513661112983289314e+00
4.623841083181378653e-01,-6.306607800729890911e-01,2.483694421951568199e+00
1.108852620635244257e+00,-7.225706870956528638e-01,-2.508770979416388602e+00
-2.159699383465095490e+00,-1.347154160196423200e+00,1.819068750795312051e+00
-3.281378200511616550e-01,2.059724395496776328e+00,2.478449449313748776e+00
-1.460754600636547273e+00,-9.568680744274019045e-02,-1.780915170653467605e+00
1.522891028424383508e+00,1.832633191843025811e-01,1.749796905999660757e+00
-2.094358025280034674e+00,7.714448248031268163e-01,5.865123538013580218e-01
-3.123081024607798017e+00,-1.787639614159863832e+00,-3.140008137735774696e-01
-3.054298045507815029e+00,-1.902511666933682788e+00,-5.827665015421664707e-01
-2.612950503353661080e+00,-1.985678461163968622e+00,-8.012685942762074465e-01
6.701846901889412234e-01,-1.814901352517274580e+00,2.533521446424373824e+00
-1.828731155022753407e+00,-1.752473645736778218e+00,-1.301755450908042011e+00
1.462289295054049199e-02,-2.389907877200024178e+00,-2.268809034588652906e+00
1.171172925163218581e+00,-1.796621759066625135e+00,-1.718483520173854640e+00
-8.578889684487377432e-01,2.831390128073184798e+00,1.584701839209907703e+00
-2.098092367007622361e+00,7.144898593756134897e-01,-1.560436835539077638e+00
-1.266847844748208551e+00,9.454683688709436540e-01,2.027301221731262260e+00
2.779148885321488294e+00,7.120846929902880929e-01,-2.783686125217411655e-01
5.878023639126767064e-01,2.673345984328711289e+00,1.224875027175597708e+00
2.288875914264408618e+00,-9.900506193861523252e-02,-7.077741249288813652e-01
2.412113451092197103e+00,1.571670596405829734e+00,-1.182747393522492585e+00
-1.198651979716768512e+00,4.641801693281370489e-01,-1.989498844034525371e+00
1.061994757807164458e+00,-2.664212002731683349e+00,-1.295140318705372495e+00
-1.798648557300156270e+00,-1.106988836836322099e+00,-1.370678471572795765e+00
-2.836477525493842911e-01,-2.048532542259024591e+00,-2.122943119135096257e+00
1.881531093535951049e+00,2.053083538654144391e+00,1.736445505772208631e-01
2.481797716585372460e-01,-2.273677620391789223e+00,7.359672317940118003e-01
-1.376705993901367719e+00,-7.741505454606348868e-01,3.057930282942320943e+00
1.007008470257658717e+00,-2.783897679647012957e+00,-1.297043653331395374e+00
-1.496246723530114675e+00,-2.101994324212848930e+00,-4.273097518921256666e-02
1.995028983425808089e-01,-2.556965139016654565e+00,-4.652220427094502786e-01
2.341318436595222430e+00,8.207787612347775541e-01,-1.212400710049171826e+00
1.807363588447915115e+00,-4.663233359554935231e-01,-1.336901716626103243e+00
8.188404485970577351e-01,-2.975524350993433931e+00,-1.339536858859103008e+00
3.194058146389623931e-01,-2.562401508131447070e+00,-3.586103598845570284e-01
-1.025499520149983246e+00,-2.362481746415287631e+00,-6.711567644696830870e-01
-2.411236947121179863e+00,-2.892734514007607588e-02,5.595863593732527397e-01
1.422541353878048476e+00,-1.130700652630122427e+00,-1.698083448210577329e+00
-1.179137483918033302e+00,-1.811240824993413934e-01,3.054346831040334109e+00
1.644639535241167572e+00,6.064525533042075534e-01,-2.440397325262966266e+00
2.166783168779425228e+00,1.709028137680941750e+00,-7.114836356990996702e-01
-2.299950561370590063e-01,1.412219924664765980e+00,-2.711995289206112769e+00
-1.069444762083392675e+00,2.848784380946122741e-01,2.916626696702391275e+00
1.213458224625119986e+00,1.170416013434929292e+00,1.721733148109940936e+00
-1.344374668012967122e+00,5.137716712334020053e-02,2.627070614476044064e+00
1.924648920497511018e+00,-5.923127495972205780e-01,1.645574744172668913e+00
2.219168658312482556e+00,1.773716421579464075e+00,1.074576769736294457e+00
1.349318697680034873e+00,3.485999303990816589e-01,-2.858898426922634517e+00
2.471927720721014854e+00,-1.408110277544852185e+00,5.337555484114596682e-01
2.069303645058576002e+00,6.653266746611867510e-02,-1.166660652986978741e+00
-1.896343526758489384e+00,1.708451605060870904e+00,3.074248825946108710e-01
-1.885822446928571372e+00,-2.057515003519555741e+00,-1.961883626640640033e-01
1.520750723366444401e-01,2.180406683376910348e-01,2.546249811357771176e+00
1.077063819782299259e+00,-2.818164345275048888e+00,-6.263313802169382383e-01
-1.581972643347867136e+00,8.088391770822109805e-01,-1.889718047083468910e+00
-1.846307680426724773e-01,2.246006187618432737e+00,-6.568188438304958243e-01
8.388284851050833990e-02,2.191883853207706956e+00,2.234654530667281147e+00
2.472515701276188693e+00,-1.411500631398125094e+00,5.619474473867457354e-01
1.792699737813914451e+00,-1.435170792959827857e+00,-7.809863865709985031e-01
-1.244953973957974691e+00,-1.028648404499176161e+00,-1.757493464150734264e+00
-6.122903757471302999e-01,-1.916741864909454973e+00,1.184478658910702142e+00
2.015663425626439409e+00,1.606940455891637809e+00,-1.339592141832327998e+00
-2.716626094935512103e+00,-1.835526835916609922e+00,3.580906961697715579e-02
1.603618054721304809e+00,-2.393336842059668179e-01,-1.883533844326398921e+00
1.147085513194666895e+00,2.566456606204605251e+00,1.381327201117378722e+00
1.413694824970452624e+00,2.062593565372128346e+00,-2.784459655954368840e-01
-6.948604995142672047e-01,-2.295673767831719836e+00,-2.779292941523667237e-01
1.172356901355342984e+00,-2.186659738950267773e+00,-1.366523537711488379e+00
1.103565578425328653e+00,1.413226412570898871e+00,-2.637823484499291826e+00
2.540270594183010378e+00,1.668997898601338736e-01,-3.490016308793754685e-01
2.057100409868919400e+00,-1.067913714715909679e+00,-5.066755438196313133e-01
-4.777858608168792931e-01,-1.313502457638268117e+00,3.144026429303270476e+00
-1.316217763653709572e+00,-1.479427777366729257e+00,2.282749262380081134e+00
1.215951009978197384e+00,4.522142854293352277e-01,-3.176265400906269853e+00
-1.301549919443310832e-01,1.863481087904647504e+00,-1.830924925259394209e+00
1.806170529550606085e+00,7.784451082330837712e-01,-2.268760593361667688e+00
-1.708603188168371645e+00,1.086767202736293347e+00,-1.829838596144878204e+00
-1.744811576644143658e+00,-9.365060520749930451e-01,-1.478330989064545742e+00
-1.143766104952658402e+00,1.054125347443300026e-01,2.835761916405584504e+00
-1.417138035100330207e+00,-4.716564729561985581e-01,2.697614497321850990e+00
1.774261894467902001e-01,-2.963387339721323510e+00,-1.846204694006338798e+00
2.498827131434615101e+00,-9.006652543454835014e-01,1.357425010870999760e+00
2.253222635580268030e+00,1.101763420559303652e+00,-1.539830806800817520e+00
2.684088694536820530e+00,4.502395524939533100e-01,-3.460517854995021070e-01
8.017654747000112492e-01,1.400525558496109824e+00,1.949553997100592406e+00
7.732934215114645182e-02,-6.266578833253436676e-01,2.673154137675426423e+00
-1.383237958634668363e+00,9.082592322966287490e-01,-1.950857408435357820e+00
1.836921267268164737e+00,-1.530364151198294165e+00,-5.366095273599964521e-01
-1.811544372783213230e+00,-7.680277703618400009e-01,-1.506197141347881407e+00
-8.908121420735108931e-01,2.815269401119461889e+00,8.205739523326669449e-01
-9.248408754086296923e-01,1.936079866801093008e+00,1.946397435292816613e+00
1.885589651602260108e+00,1.767456363110893713e+00,-8.204464439962110278e-01
1.306667526530035928e-01,2.621049710164429225e+00,6.900364464659370922e-01
-1.870716826231895613e+00,9.702108321485589659e-01,9.178992191664484546e-01
-1.282929494555756333e+00,-7.794100384960529482e-01,3.356154774055260415e+00
-1.702920487443802644e+00,1.830182835504229555e+00,6.660638498548639985e-01
-8.629891929543774820e-01,2.073733198286797474e+00,-1.690260516724849671e+00
2.371739047624763952e+00,-8.392285870594513586e-01,1.447685346163932962e+00
-2.019544856769112773e+00,2.534811568698994044e+00,-9.696065895447031346e-01
1.223251047056087337e+00,1.834523330756151038e+00,-1.168050902323260143e+00
1.009453632714734338e-02,-8.086544269639057980e-02,-2.645823047743257384e+00
-4.058127302718048668e-01,-1.864848269050262575e+00,1.620417845605963691e+00
-1.178636814413841272e+00,-2.224311001667732768e+00,-1.066715470413220623e-01
-1.700666345168922122e+00,2.005908942683591878e+00,-2.013581422554218570e+00
4.797611109039452704e-02,1.767373535769088733e+00,-2.165446722890023157e+00
-1.229649067889857061e+00,-2.483803637656242902e+00,-1.273669576157626881e+00
2.811255984983768386e+00,-1.011101242472843609e+00,1.051315740984503533e+00
-2.397521903333282189e+00,1.801047132134692585e+00,-7.622662635974027934e-01
-2.488031458231822590e+00,2.405922461264536238e+00,-1.339647383781950696e+00
-9.482016853710096838e-01,-6.849912559329509598e-01,3.298305974780067817e+00
-3.048809977438979413e+00,-1.303442907395532036e+00,8.799781004162525455e-02
7.753683968646537528e-01,1.619335999853224406e+00,1.923262375118624634e+00
1.798305056526896539e+00,1.499531955980887732e+00,-1.743132438012932939e+00
1.124303390503376132e+00,-4.574246911575738372e-01,-2.755856701449393320e+00
7.630993588574711550e-01,1.716226548951637954e+00,1.916131214482278633e+00
-1.038309591279540811e+00,1.042617727456146115e+00,-2.231091301728719944e+00
2.638675135531556304e+00,3.778128863163968121e-01,-3.699627922608834663e-01
-3.175043463863216342e+00,-1.688071039009243934e+00,1.727696649009487495e-01
-6.009793575663348042e-01,-2.200165961007981785e+00,-1.894399057563482813e+00
9.948125745554480259e-01,1.840989273807722926e+00,-1.257300905845375238e+00
5.976614039206347151e-01,5.203851656507839651e-01,-3.100468523617498029e+00
-6.938052351638305248e-01,2.072439154508014525e+00,-1.555975230207222282e+00
3.147554888660651251e+00,4.020379882584951270e-01,7.442686978587119695e-01
-2.264384290655870657e+00,-1.550092243999892094e+00,1.265864062925374567e+00
6.980762295734537215e-01,2.041630594321669712e+00,-6.921712698125249696e-01
2.321711007624409184e+00,-2.246758295799801797e+00,1.695371407016497578e+00
-3.059398287656847071e+00,-5.161146027732306241e-01,-7.351568825985173028e-01
-1.012050917336461797e+00,-1.431214921258043615e+00,2.735344973402771718e+00
1.384021900878593891e+00,8.309985652669900080e-01,1.731431458751013119e+00
1.225235118722868499e+00,-2.409383159176642586e+00,8.605652531181131604e-01
-2.102230033763324180e+00,2.483016139740573891e+00,-6.063389073510965233e-01
1.982249189007782908e+00,1.451207898552617573e-02,1.479524260561781324e+00
-6.932440900832480546e-01,6.738990207321223780e-01,2.925092083953398259e+00
-2.727798990061405249e+00,-3.563507038105776514e-01,8.148116180296792466e-02
1.371084243920889900e+00,-1.855428431371714870e+00,2.193825505151843380e+00
-9.020314370702534612e-01,-1.658497226106717459e+00,-1.882627029089865234e+00
-2.429047586005489645e+00,-1.430194147846500563e+00,-1.004931769051150559e+00
-2.933258039146632523e+00,-6.688669589164797369e-01,-1.233859158284945495e-01
4.753303929437366904e-01,2.061437894647251134e+00,-8.954846013126803728e-01
-7.603488886442579808e-01,-1.023112430189021538e+00,3.276879235444249971e+00
-1.589600558793929475e+00,2.262536015951835289e+00,-1.564056972999679829e+00
8.742747660075539384e-01,-2.155095685003093564e+00,-2.037291572140460527e+00
3.403393002289832325e-01,-2.500078194489580241e+00,-2.448853727096860222e+00
1.577141413185331853e+00,1.099309374007805040e+00,-2.907856597248131614e+00
-2.296937948617045588e+00,-2.108923642349078698e+00,-5.675661277361232493e-01
1.935729002516003883e+00,-2.594323436433446428e+00,7.741831076098406594e-01
1.365743550149143282e-01,-2.756927875526746341e+00,-1.082308226008255492e+00
-1.256625062702911855e+00,-6.243369656407364854e-01,3.238082589588290983e+00
-1.855474241374995170e+00,-2.960794473498587487e-02,1.590226467722322345e+00
2.246380480923229950e+00,-1.844269625448600181e-01,-7.097438685111721046e-01
-1.550074939625200932e+00,-1.964628259635819996e+00,4.402917726009387134e-01
-3.250844289903397577e+00,-7.074604005561719866e-01,-6.164689087338575124e-01
2.451280257742427526e+00,-1.746654623571500586e+00,1.548031989832882704e+00
7.261414759222828419e-01,8.358018239012939832e-01,-3.181956139908061143e+00
2.025956076756532109e+00,-2.081719024519570471e+00,1.903674905620842406e+00
3.020439740883095414e+00,1.195383929381607646e-01,5.918190834201620953e-01
1.990317151623522296e+00,2.170583798339952519e+00,6.209819534102558602e-01
1.258831397506659622e+00,-1.139467267839534559e-01,-2.642012745996777490e+00
-1.630428696112436349e+00,-4.403388802586727935e-01,2.376324103746579208e+00
-7.393108676256934242e-01,1.906354879411007897e+00,2.416733624461048890e+00
-4.982784513912243973e-01,2.528226570117663830e+00,-5.274030221287119569e-02
2.406426673178850617e+00,-1.078617814673981767e+00,2.645476539802693039e-01
-2.599889254289665663e-01,1.806581218468136019e+00,-2.290905295800418795e+00
2.318970235247898248e+00,1.477485886717253116e+00,1.042574911110517810e+00
7.570294686163122622e-01,-1.592118879513855667e+00,-2.644660811781683218e+00
1.522778742313588118e+00,1.650470619614858858e+00,-1.587471896211546163e+00
-2.774883841660563899e+00,-3.419881240032062730e-01,-2.518497907457888790e-02
-1.682151254801411921e+00,1.670613588312071518e-01,1.913847315419635153e+00
-5.378591023686908335e-01,2.520414998821954633e+00,1.186620850025813384e-01
-1.483912996863894662e+00,2.482391722108512333e+00,-7.568060584054655537e-01
-4.727064851811968449e-01,-1.692941465163052328e+00,2.259542477137280070e+00
-1.696304706941502927e+00,-1.331309744998037337e+00,2.638152966592135495e+00
1.954533389773075447e-01,-2.410090883338967149e+00,2.054030735129043772e-01
-2.416434040713713483e+00,2.496484373734789930e+00,-1.489287861553750814e+00
-3.300547735470668709e+00,-1.643056321147868371e+00,-5.152841662283080132e-02
2.338082025790078067e+00,2.435900569106556057e-01,1.275781687950226395e+00
-2.574481171664909862e+00,3.972816016549730045e-01,-1.666514282010090608e-01
1.223595962339914855e+00,-1.239303726472647638e+00,2.081894109994971931e+00
2.642012953343279680e+00,-4.678001158592018371e-01,2.978519625283142513e-01
1.410081704008136816e+00,1.183294648621592948e+00,-3.253244900777244819e+00
4.931887612896994622e-01,2.392876209328743009e+00,3.807190037777264391e-01
2.429137147080057790e+00,1.510177182226322579e+00,-1.227979592762252992e+00
4.690712555993887811e-01,2.651984351013028096e+00,1.257446879163042874e+00
2.821565782626040075e+00,1.862762249718635577e+00,1.667739091970597554e-01
2.343163011580463362e+00,1.526244222303078458e-03,-6.451106749835161525e-01
1.734523886791774050e+00,1.291671206554566353e+00,1.430496634575829873e+00
-2.825341912642902908e+00,-7.152095744350777107e-01,2.302734350594286550e-01
-1.869961398717052026e+00,2.374653774973780607e+00,-1.444118620374985840e+00
-9.875206639810973908e-01,-5.518209312808447509e-01,3.261234932769580652e+00
2.337626569380018449e+00,1.937251016835221495e+00,6.487678113948421033e-02
2.510207433904826146e+00,-1.884929317090153100e+00,1.496440796092397774e+00
-2.581419607373006908e+00,9.746552253657051468e-01,-4.365040273896749756e-01
1.858455645315334470e+00,1.673539394621943899e+00,-1.112099200297615775e+00
4.967271408497103691e-01,1.063138669893348043e+00,2.167984567170869514e+00
-3.211093716347575011e-01,-2.897313931151871635e+00,-1.890367135115154973e+00
2.105101284787338933e+00,-1.839003825898064548e+00,2.034230788755753139e-01
-5.824133901748572706e-01,1.148563616820982292e+00,-2.523748086583194716e+00
3.259518835915355961e+00,1.234208053929651827e+00,2.249757124085469129e-01
1.596048656256418008e+00,3.896056311090071445e-01,-2.351710942297134288e+00
1.006883784836905216e+00,-1.782649277621618233e-01,-3.098126196066446347e+00
-1.929325714083081067e+00,-1.169000833400456907e+00,2.209952824418554673e+00
1.899066286049960306e+00,1.421696356479375867e+00,-1.930421987218418733e+00
-1.694024044620366931e+00,2.542592609544334525e+00,7.489491039037628195e-02
5.671326032403923856e-01,2.533746860036825699e-01,2.311972151692063715e+00
-3.066514054531227274e+00,-2.408091506386497438e-01,-6.086283723786031219e-01
1.826921676373139292e+00,7.204273710977772138e-01,-2.147493399923811275e+00
1.703571192308865001e+00,1.549313965174833552e+00,-1.775868158822582421e+00
-2.127859404884396496e-02,-1.690736405039748647e+00,2.301547394104008326e+00
-1.507063264363841970e+00,1.427915192120113419e+00,1.265507610891115187e+00
-2.685629264292161089e+00,1.107809175137052460e+00,-8.119570153327979600e-01
9.818150395052751556e-01,2.349570809924197867e+00,6.477883078582631349e-01
1.196540695862288617e+00,-2.670904738267121381e+00,-2.050459230938305594e-02
-5.100638852278709112e-02,6.033071458569234657e-01,2.574999534659130784e+00
1.454776014532852102e+00,8.186211781600536419e-01,-2.947471318393107609e+00
1.552989942610081275e+00,9.355710869305952082e-01,-2.821235235248358730e+00
-2.138156627125925358e+00,3.986092682297300849e-01,7.501456378183762874e-01
3.100309336582817821e+00,1.334784786034492576e+00,-1.078901198667382294e-01
1.696072573590938548e+00,1.257198619280778917e+00,-2.742069578650818684e+00
-9.871034411788074392e-01,-2.647727906068584325e+00,-1.559331100535283898e+00
1.203145901407233875e+00,-2.006576630606942135e+00,-1.468998746134024813e+00
-1.658089711507772401e+00,-9.086170555273904714e-01,-1.558182452953430053e+00
-2.671281796718390833e+00,-1.694064672186769371e+00,-8.207778084775891880e-01
-1.120067619981220508e+00,1.992172622390662395e+00,-2.268028556014132668e+00
7.842628335110957138e-01,2.593555402749812444e+00,1.377731789658829031e+00
-1.014601507219227372e+00,1.569405247776117118e+00,2.126987584993174085e+00
-7.535045752621840620e-01,1.766766398423301077e+00,2.472576009485907722e+00
1.131392905311596975e+00,-5.671742811733623268e-01,-2.663867458979577219e+00
-2.233680601594129622e-01,-2.702580351844984019e+00,-1.075753953532832652e+00
-8.360922147552332095e-01,2.376047801813311988e+00,1.984847457067472565e+00
-1.815762953389213452e+00,9.952140034240467559e-01,9.410041337065243594e-01
-2.611295178410748097e+00,1.264005230108581124e+00,-7.762156030921892880e-01
2.582432924626901993e+00,-5.889907958038166358e-01,2.130486339670146501e-01
1.865344024520000588e+00,-2.730741939095419624e-01,-1.296257768139220889e+00
-2.382787269706901245e+00,1.680727429439093035e+00,-5.799925207282683459e-01
3.302903260055316981e+00,1.755319390603303775e+00,2.502001435450565414e-01
-2.156525843270114873e+00,1.212089382025981710e+00,6.160869068374923152e-02
1.807249097317797704e+00,-1.488672687198029587e+00,-6.543241341566639058e-01
9.495229227315982179e-02,-2.692435630790215306e+00,-8.698310010521710378e-01
1.645276066698092787e+00,1.373222350677097525e+00,-2.435384346917175868e+00
-5.489615658363297124e-01,-1.138842649254060202e+00,3.140126365883042503e+00
3.481971659725279639e-02,-1.417491545105927786e+00,-2.410064964856291514e+00
2.765530144911937160e+00,1.626247036544194113e+00,7.704154451801589198e-01
-2.983088913677949261e+00,-1.404401086336776183e+00,-6.826337722209724346e-01
-6.624980257740348266e-01,-5.567021636796648520e-01,3.087915226931381873e+00
-1.226221855375277281e+00,-1.464370274684091644e+00,-1.690837374736969378e+00
-1.763262484711401790e+00,2.548582207379455955e+00,-9.005078881606621843e-01
-3.103409767423478627e+00,-1.640325330546491100e+00,3.317974347073529007e-01
-4.242255669843115751e-01,2.033086932828639171e+00,-1.533404623255972377e+00
-1.216409616159734419e+00,-1.591946701622369842e+00,1.834384196470078887e+00
-4.245911316627563048e-01,1.006415921308854822e+00,-2.551366325666643231e+00
-1.951009807544176411e+00,1.739453839827745929e+00,2.312188807319539852e-01
-1.170602404491722259e+00,-2.373859306447980710e+00,-7.306598126425620787e-01
-1.626813611070338172e+00,-2.162188593999871511e+00,-3.787833113769885629e-01
-2.801762302128252280e+00,4.082881567475801776e-01,-1.067334644692884416e+00
-1.383450246621116042e+00,2.487875704191377046e+00,-6.467704199920304431e-01
8.700180633039584777e-01,1.445848136736839873e+00,-2.725230290640878739e+00
2.261267341718977697e+00,-1.656377024131193254e+00,1.620136719021067817e+00
2.981382879016564402e+00,6.361147444662457184e-01,8.397305933711742831e-01
1.313698083678192630e+00,1.774888141859896074e+00,1.565800172187776784e+00
-1.222858326380104499e+00,1.495467984660837912e-02,-1.940606837833874110e+00
-3.466899987091517921e-01,-1.494645429026612904e+00,2.882126674687898404e+00
-1.713930442357602946e+00,-1.919093601901599166e+00,4.586975186502581514e-01
2.669693464503811065e+00,-1.167771874755827222e+00,1.264672440648275220e+00
-1.614769529080612998e+00,1.861658226065987964e+00,-2.029477613156160487e+00
-1.534359409236637939e+00,-6.446583491347942507e-01,2.679329271062830919e+00
-1.714649503857048618e+00,2.643893146425971286e-01,1.647055263056229402e+00
-3.009233486447958850e+00,1.778819798195706015e-01,-9.928587076955345259e-01
1.257608906338012700e+00,-2.049688897547782274e-01,-2.595393331057829212e+00
-2.143736142174186288e+00,-1.993059322293928126e+00,-1.291480461411888270e-01
3.082446322613926259e+00,1.788389541992317033e+00,3.318581230524555448e-01
1.244587444677377031e+00,2.240235398884236062e+00,1.552185874912581864e+00
-9.267821453784979013e-01,1.677174987924653138e+00,2.233145255925705897e+00
2.169162913165274986e+00,-2.441951288137278908e+00,7.149538372534125497e-01
2.212753305253415181e+00,-6.617167118046446417e-01,-4.172355138996536317e-01
-6.514817970822862625e-01,-1.630163677934529876e+00,2.131591963066652440e+00
-1.679101039419841346e+00,-1.541095893312655285e+00,1.554335860506105726e+00
2.949477949616562622e+00,1.013443584560258959e+00,7.856913669482957774e-01
7.228760748764352373e-01,-2.833598687266215777e+00,-1.808536660882899660e+00
-1.537944701616325016e-01,7.139952619296278946e-02,-2.581513717902614413e+00
-8.868298154933770272e-01,9.432068594998644917e-01,2.890177328332490081e+00
2.083816786468190241e+00,2.155764469043976728e-01,1.393960251836494191e+00
6.855951385267258225e-01,-3.007922439673950787e+00,-1.696413795357146537e+00
-4.475060442057218202e-01,-2.219496984926362160e+00,4.271533937402846037e-01
-2.528047590916188803e+00,1.421123851603447008e+00,-6.956614085196388686e-01
-2.148430207809569392e+00,-1.054628296971327650e+00,1.704272775644802396e+00
-1.725874651353740852e+00,-1.255106566790192557e-01,1.926446192521948708e+00
2.964654303008888547e+00,1.403453558250278066e+00,-4.428182481605880683e-01
2.161793108142452419e-03,2.876069425608990926e+00,1.633006255127292805e+00
-1.747762445675657528e+00,-2.255613560652804050e+00,-8.405867190018209145e-01
-2.325837059173605059e+00,-2.126428542228014695e+00,-1.008179800043299545e+00
2.756569436850504040e+00,1.680037467797162565e+00,-4.149271634746277693e-01
-1.909806300907226140e+00,-1.847067860914166193e+00,5.779657665012372103e-01
-2.097048846830182001e+00,3.361675414329965556e-02,1.057596224667487927e+00
3.035906545450082206e+00,1.564535040738419092e+00,6.902756422647452483e-01
-2.616243663992617208e+00,-1.099183718506628216e+00,9.226403943121498363e-01
-1.212472665451342690e+00,-5.702925193700876250e-01,3.233993332177029334e+00
2.172045184514446170e+00,4.551491416784106958e-01,-1.299540844543510820e+00
-1.908821387674173753e+00,-2.147513604655520325e+00,-1.198884366387146239e+00
-6.988865944935157559e-01,1.481585262289343952e+00,-2.478442928759382102e+00
-2.839581264676601879e+00,2.506059725030166871e-02,-4.475448801013289790e-01
5.444233333546005804e-01,1.711711321123279728e+00,-2.074390144402968872e+00
-9.920526831645850585e-01,-1.074601494289825654e+00,3.408468441153838402e+00
-1.400198898224457755e+00,1.138013122419841844e-01,2.449934986568636397e+00
2.868143659247312183e+00,1.478286838473009679e+00,7.934084847243013661e-01
-2.472510433318543921e+00,1.553126931755685280e+00,-1.516330251711978105e+00
3.932987125104743797e-01,-2.704723166241163490e+00,-6.563730916226325762e-01
7.258965319048347187e-01,-2.392717568831022490e+00,4.622727172336090207e-01
2.319614898327647889e+00,1.184706190768908610e-02,-7.535351453659635546e-01
7.689940967357034030e-01,-7.981435890974776237e-01,2.358574137908486801e+00
1.556397442574036560e+00,-1.195552154369096565e+00,1.935314290919236679e+00
-2.007700738434067489e+00,1.939089993110211685e+00,-9.189928576498888890e-02
-1.480414079940743921e+00,-1.166672972219337939e-01,-1.775040620873587383e+00
4.252027491584280394e-01,2.760865798181989739e+00,1.531620984449250322e+00
1.790545194357138659e+00,-1.584918615887181081e+00,1.876160767519070571e+00
-1.470027790763457132e+00,-2.229075709911243486e+00,-1.411350508557364769e+00
-2.250571079904303939e+00,1.645553839638833171e+00,-1.615167371962756393e+00
2.784123715016590950e-01,1.933084160526952866e+00,-1.325560734303641519e+00
2.109581429080313431e+00,-1.580889812844623807e-02,-1.040112573035687715e+00
1.917169354009413240e+00,1.307516229076536529e+00,-2.375750350577088721e+00
1.960072184317332766e+00,-1.037987949963837364e+00,-6.935405555955453938e-01
1.770761217672434995e+00,-1.336841774149136519e+00,-7.452961455795248380e-01
1.593742846779858668e+00,1.537369930513462046e+00,-1.942244150637125522e+00
-1.635308706444341897e+00,-1.947000705760821404e+00,3.496382472231564509e-01
-3.252244116671505925e+00,-1.815061744209195860e+00,-3.036826213474045910e-01
-1.961131820938755155e-01,4.785473074843628605e-01,2.659804335307653478e+00
2.392139476172548740e+00,-7.880834206983773349e-01,3.251689772463419587e-02
1.609905155937579879e+00,-1.831848736755145701e+00,-8.204825553418310102e-01
-2.703288508205507590e+00,-4.391657318858013109e-02,-2.070431330699860559e-02
7.631112268805895216e-01,1.960915137152247301e+00,-9.723058245204991845e-01
-1.930348185825850216e+00,-3.893578766847983763e-01,1.813606047454404235e+00
1.909950707664978431e+00,-2.656486051397070280e+00,5.724711766911854127e-01
1.128236716435150777e+00,-5.448697170654215327e-01,2.102404237228309380e+00
6.652489812723451079e-01,2.641464456493280544e+00,1.842421085499746258e+00
4.311128225041923612e-01,2.324035014749348704e+00,2.047313434787783937e+00
-1.548507634378648357e+00,-8.549533602336307769e-01,-1.584249091370273366e+00
2.109885420119010924e+00,-8.639997723586648748e-01,1.536829708019118224e+00
-1.951184964968837532e+00,-5.299006303388311689e-01,1.686410949193071662e+00
2.312725044800729712e+00,-2.409553980699236320e+00,8.983791837567471905e-01
-3.119318059631982720e+00,-1.669039008707061233e+00,2.023685423417763973e-01
1.897951465038606900e+00,-1.977964742676443954e+00,-1.175117617406912507e-01
-2.953206852359662182e+00,-1.957477247542338095e+00,-5.902705041282256815e-01
-1.123898942598123840e+00,1.133799987090177375e+00,-2.195360329224370410e+00
1.768781659971619680e-01,1.259196774603435820e+00,-2.983763910302183131e+00
1.389567705764922056e+00,-6.356945121912245533e-02,-2.376750998837217743e+00
-1.336785366729459801e+00,1.727218200895322742e+00,-2.174077953786326844e+00
2.414558551306828615e+00,1.199497114253047281e+00,-1.322469194609542376e+00
-1.784542688201968152e+00,2.642618426646218266e-01,-1.652404657205360339e+00
1.151341916277159427e+00,1.494066575436323818e+00,1.764562341927977895e+00
5.325110462529052818e-02,-1.217916406882544988e+00,-2.435593514796235759e+00
-2.230169063795232276e+00,2.925240662190521923e-01,-1.394489747198129903e+00
-6.396393803241013920e-01,2.723659533585235604e+00,2.018884385427637707e+00
-1.773737508848938438e+00,2.506570785548396518e+00,-1.059806462133100480e+00
1.111103972371922932e+00,-1.095474487343044423e+00,-2.169364319512328887e+00
-2.796062674426292194e+00,-1.931072923390824148e+00,-2.234540585621702380e-01
-1.777462005088192409e+00,2.428124799122733712e+00,-1.148808835161631459e+00
-2.149211658842504313e+00,-7.720705012932546074e-01,1.596495424560768761e+00
2.987762760681543783e-01,-2.970921901765485096e+00,-2.300340360455046085e+00
-4.991704234623546843e-01,-2.082001608134675497e+00,7.575023773308756647e-01
6.853191757093388681e-01,-1.538359107035748852e-01,-3.009964485017132318e+00
-1.945113820827841344e+00,4.946503924219096682e-01,1.084926707443615301e+00
1.088845939591567724e+00,-2.889753003487225858e+00,-1.148219584292982320e+00
2.501613181055728496e+00,-1.437589858768392181e+00,5.927918665580880209e-01
-2.859063632474311278e-01,-1.733639147570566141e+00,-2.212886538398075142e+00
-7.298675141432343638e-01,3.427895463945878629e-01,-2.242255776800367695e+00
3.227521679039807578e-01,2.552902374684820508e+00,7.413790424800313916e-01
1.809023238936758204e+00,7.228813363612719423e-01,-2.256040181938507416e+00
1.585237367422514643e+00,-2.422619747876327612e+00,-3.881080961211617053e-01
1.159209464648964127e+00,-1.448369603976972453e+00,-1.932163267840554477e+00
4.584450054917600936e-01,-1.717925949904874017e+00,-2.589964420629384811e+00
1.755798120848903965e+00,1.642841988399101893e-01,1.582880389387419706e+00
-1.621584664880462157e+00,-9.482305496918861376e-01,2.698189637329734936e+00
3.991251001413597121e-01,-6.260544858438845672e-01,2.487856484013181380e+00
-1.660870661692847250e+00,-2.247264796435522793e+00,-7.780486436494633562e-01
-1.973989932528673386e+00,-5.413469693757871903e-01,1.708975712032738903e+00
1.917667479428196708e+00,-8.049216301821550124e-01,-1.006521749855870285e+00
3.043759171810781969e-02,-2.627309331621356936e-01,-2.605837338555109017e+00
1.408059830801062118e+00,1.757154375205804142e-01,-2.618762307732874994e+00
2.986425355798026260e+00,-5.594238011181205950e-02,9.366363417018906956e-01
-5.830092673485586241e-01,-2.332362814841738852e-01,3.037624708174704757e+00
1.926534291627477469e+00,-3.152023830270023752e-01,1.600712054133763163e+00
1.497710213460777595e+00,-1.463107779960194366e+00,1.988913002538680974e+00
-2.333885098576302664e+00,2.107826729725184922e+00,-1.668486243233035626e+00
1.073764795129502403e+00,-4.680105026080420560e-01,-2.821318387618294565e+00
1.399584700324443709e+00,2.123883414643906065e+00,1.921789027602592570e-01
-1.323904591461058766e+00,-8.106024027651373975e-01,3.224561039572537702e+00
-1.610326075926389322e-01,1.438140163042593844e+00,2.462019353646727637e+00
6.768850463489799463e-01,-2.349757636698899255e+00,6.177572361015014613e-01
-2.319139889341256033e+00,-1.956962607871019610e+00,-1.160409138922497141e-01
4.320707147250614222e-01,-2.859626599765065613e+00,-1.219285355078649991e+00
9.043309798749406270e-02,-3.024534580911752535e+00,-1.998426133753267830e+00
1.191610273832526712e+00,1.300919922178723542e+00,-2.815698514756227233e+00
3.072911459889388630e-01,1.859596821263100441e+00,-1.478283769328804453e+00
-5.979587643322550328e-01,2.603583424296331827e+00,2.210019593334190180e+00
-1.501212683823220928e+00,-9.176071146132392942e-01,-1.631267241486686670e+00
6.170607402629556537e-01,-1.676518051081284932e+00,2.593044301813099306e+00
8.899340334916570061e-01,2.602128671867997234e+00,1.672001719586807544e+00
-2.599830142041157810e+00,2.071865747871667107e+00,-1.362365349303019002e+00
-1.216326311077825961e+00,-1.480980216774413938e+00,2.390841338171086239e+00
2.690994677579908956e+00,-2.969717180558008041e-01,3.117460743581553229e-01
1.102055923434725360e+00,-2.489074452887214850e+00,6.319073638707982665e-01
2.325745804451430754e+00,-2.206245519450485748e+00,8.857132152729850771e-01
-8.287600027397337699e-02,-1.790514260615396980e+00,2.055603955177791597e+00
2.768760766249611649e+00,-1.281625302648267573e+00,1.082229882901769580e+00
-3.151008707250327667e+00,-9.111650629083218877e-01,-3.124427055169919920e-01
1.442208921614239747e+00,2.356622641085875713e+00,1.406452459813686717e+00
-5.112458397685658573e-01,-1.881089817509957074e+00,1.351182013259947912e+00
-2.249445038718032919e+00,4.968378593755605754e-01,-1.473713323394459263e+00
1.977006519890205094e-01,-9.777259681212416842e-01,2.701387421947193612e+00
-6.939317258439123837e-01,1.026233813981993537e+00,2.842123934936956253e+00
2.552448897841178788e+00,-2.003715012120001582e+00,1.231499203005429477e+00
6.769693620418502089e-01,2.744351904993673319e+00,1.794709242812531746e+00
-3.278370605577222152e-01,2.066032947078775717e+00,-1.486718013982802900e+00
8.967628036334338582e-01,4.428920387565458694e-01,2.002891914848474730e+00
-1.806091768026681255e+00,1.435932653006782411e+00,-1.859399048624451156e+00
1.875275483611543725e-01,-2.152695483975796686e-01,2.612542981943048570e+00
-1.914363934126169120e+00,2.423775365532259141e+00,-1.380730362435159009e+00
-4.190823636067658731e-01,-1.494804224869581866e+00,-2.166640796897080001e+00
-3.113015914562284880e+00,-1.887544050675685980e+00,-5.405086637070135591e-01
-1.072056960382592017e+00,1.123331673819793597e+00,2.421033323345891830e+00
-5.434707836461794006e-01,2.053820518238882009e+00,2.565676453564939230e+00
-1.771213817397074841e+00,1.530801631109156125e+00,7.873304849019702178e-01
-2.323959994209766400e+00,-1.181463661831829715e+00,-1.068059095377696499e+00
1.337072327021594509e+00,-1.199443027887633351e+00,-1.733415085707351588e+00
3.778200716650710334e-01,7.520224037721029431e-01,-3.004971403952925613e+00
-2.997413879333984177e+00,-1.113680398404792493e+00,1.381463180380556321e-01
3.409333151646959381e-01,-4.474588678702706712e-01,2.561419689948777556e+00
-1.310856432082931067e-01,-2.673502578183605483e+00,-1.063791944073384288e+00
1.677151234911760325e+00,-2.236359424852293554e+00,1.727696282205920530e+00
2.057540019360912797e+00,-1.980589597446821504e+00,1.477611008761763323e-01
2.324834662144443342e+00,5.291772912693353259e-01,-1.041563888088991918e+00
4.570203837397702751e-01,-2.696816754772251468e+00,-7.840863292595846579e-01
2.459901516041540059e+00,1.455494805407413939e+00,-1.421192195212040987e+00
2.595688872647386347e+00,-1.528793560064903856e+00,9.204140921637458117e-01
