2.772401404632666710e-01,-9.245280886786330088e-01,-1.258096822134656456e+00
6.593520113361912571e-01,-1.509062770372082696e+00,-1.172349698236242688e+00
6.112464607451694176e-01,-7.021476624672793321e-01,-1.117952206541176441e+00
2.429782104707772228e-01,-8.321516769000142366e-01,-7.589232766214100423e-02
8.483356656273274288e-01,-1.657956358595516821e+00,-1.174975191600988955e+00
1.342899391192034386e+00,-1.314626063719849469e+00,-7.237857001679284252e-01
1.148452623611326828e+00,-1.820326603063784798e+00,-8.830841151801196443e-01
3.864083908815340584e-01,-1.104617470198629992e+00,-1.306228843736110923e+00
3.141141569623536189e-01,-1.145958672970558645e+00,-6.499386521025941610e-01
7.125121582394505770e-01,-1.582334659197651483e+00,-1.263954037809435826e+00
7.536413663579025757e-01,-1.304605570285421345e+00,-2.611287400863036012e-01
1.282574230554974992e+00,-1.227840594659930229e+00,-6.469282870396709795e-01
4.262240133401462017e-01,-1.256113781888610115e+00,-8.298275244283932484e-01
1.364910930902665021e+00,-1.427429309706575111e+00,-1.213479748232142219e+00
2.829486255026221753e-01,-3.600217913336153375e-01,-5.119376156367247965e-01
4.617307904827530618e-01,-5.131610664674148836e-01,-6.548948547173788493e-01
-2.167005372029146698e-03,-8.780940249976413314e-01,-1.182817854228069177e+00
1.151137886628574192e+00,-1.101791509185434004e+00,-5.204464963837537317e-01
2.562781546377020381e-01,-7.923355387970517638e-01,-9.533699468261301602e-02
6.850503151316720274e-01,-7.917084759242831726e-01,-1.160078227300116893e+00
7.962722609346375435e-01,-1.571843769361568777e+00,-7.057051806655547654e-01
2.247871647108180826e-02,-7.497231088831769752e-02,-3.908022102784136642e-01
2.929911012528017000e-01,-4.532854653292824887e-01,-1.225392901030322390e+00
4.363898410901879688e-01,-1.175915472018833396e+00,-2.709589284552970656e-01
4.833682898126116512e-01,-1.236016967384234055e+00,-3.777983084880556230e-01
6.658182479453561564e-02,-5.497478244044726736e-01,-1.171965377260323127e+00
-1.822386337789444477e-01,-6.709374864704154007e-01,-4.623670701135427774e-01
1.589749483010412245e-01,-9.238810599831533965e-01,-1.922580623612466233e-01
-4.018714503955225226e-01,-3.240392375927803603e-01,-3.664262040259210762e-01
1.007552055967404714e+00,-1.839576976951236009e+00,-1.189107384160206893e+00
-2.140806378736977988e-01,-1.256068834068888029e-01,-3.167841936734009378e-01
-2.551883787826603744e-01,-1.958658894574236142e-01,-1.084380043974318752e+00
4.233855234458903105e-01,-1.180458947117138724e+00,-2.756738997652057321e-01
1.059589260918784248e+00,-1.788097137461033270e+00,-1.279910564019076213e+00
-2.847233094104953399e-01,-2.484414061078203950e-01,-2.265874882077831831e-01
1.822149409803109146e-02,-2.556539895798677353e-01,-1.108532378685671456e-02
5.253008112125459039e-01,-6.335365437375215514e-01,-9.339631545803476209e-01
5.212024224618300172e-01,-5.315897043310162662e-01,-3.650299070831438675e-01
9.876810704787335471e-01,-9.986845244326538751e-01,-3.013242929780346469e-01
-2.665235097492926752e-02,-1.622174888569374307e-01,-1.142629592038501229e+00
1.186299138403889897e+00,-1.575922814334512312e+00,-3.725884716361126392e-01
6.531544988470305846e-01,-1.498671799535412852e+00,-1.076679179050031854e+00
5.618685244986557636e-01,-5.735829825780578428e-01,-5.501588397558154764e-01
1.042699505697990636e+00,-1.379143711804397654e+00,-3.273052044495005086e-01
3.143618406601044746e-01,-3.659288339531772682e-01,-3.695276729491479561e-01
2.375590465222812697e-01,-2.826028873200845948e-01,-6.539248789682404750e-01
5.205529116583991200e-01,-7.800795749160939208e-01,-1.781676081970410552e-01
8.169500003346475969e-01,-9.196257585484469699e-01,-1.162182717451926584e+00
-2.126114683082534484e-01,-5.553130404037406320e-01,-4.348151018919942795e-02
1.272302398753982544e+00,-1.534648108074997408e+00,-1.430428950410071787e+00
2.658301837299425485e-01,-3.211619788351652294e-01,-4.286302534231049566e-01
-3.953832036188252921e-03,-5.757047257638447414e-03,-1.233145004011643731e-01
-3.908573888654034989e-02,-6.807964785623331627e-01,-1.168125335148985977e+00
5.503649216582940512e-02,-3.275693642813808926e-01,-1.168655562954976856e+00
5.271507146612431915e-01,-1.281313550407252366e+00,-4.302937392046929377e-01
1.010899227615594809e+00,-1.820220279560547327e+00,-1.154270675152676784e+00
1.344931186294477277e+00,-1.378424311748675857e+00,-1.175731695743068350e+00
-3.378423012917383117e-01,-1.514452209420534545e-01,-7.125782521685189996e-01
2.318998962310852563e-01,-2.347077226087931623e-01,-2.599521636602565855e-01
8.584786087809856969e-01,-1.655533198965882136e+00,-9.828625188681961999e-01
2.341251363882734526e-01,-3.410872377818249812e-01,-7.678388226350283396e-01
4.019258753084009594e-01,-1.287390025442291641e+00,-1.291120669585614333e+00
2.025349683864155204e-01,-3.309528903032829539e-01,-1.082672954524730669e+00
8.367569304674207231e-01,-1.032305397964444316e+00,-2.605797043167028537e-01
1.243394489509614287e+00,-1.767707971821403712e+00,-7.409530725227828629e-01
9.153952404744953864e-01,-1.744719951839848626e+00,-1.248033155239512970e+00
1.038176733523300310e+00,-1.051157357695021499e+00,-7.211743888910707723e-01
5.337127278685204201e-01,-1.345781145336833573e+00,-6.205183556655849975e-01
-3.811492657154387786e-01,-2.639468440925673565e-01,-5.881369484685876614e-01
1.715253171545129407e-01,-1.059274105378325892e+00,-1.137531442732839793e+00
3.190278312259077209e-01,-9.136125843959733706e-01,-1.183770470807938152e-01
1.113480766445971604e+00,-1.825300630936681046e+00,-5.963249905299455866e-01
2.442445186457304629e-01,-1.096623272167656760e+00,-8.783775178974313480e-01
3.674415429057844573e-01,-1.218042492517139586e+00,-9.653285084039496811e-01
5.614198350655819070e-01,-1.410427084924423591e+00,-1.120050814909273829e+00
1.113801866688578501e+00,-1.195345301308434971e+00,-1.319147220532439047e+00
2.761491548353356973e-01,-1.014805971762219317e+00,-2.969595054560580927e-01
2.219690682610879484e-01,-8.040753686703117076e-01,-1.238096485057102791e+00
8.460440198268051049e-01,-9.784047205385167922e-01,-1.336935886158743036e+00
7.025331852897472862e-01,-7.621378920869967821e-01,-8.518966252282273999e-01
1.031732204854459573e-01,-6.027221608747386217e-01,-7.702026617712856571e-02
1.294947716060209641e-01,-9.248086610684709274e-01,-1.189183765458908359e+00
9.036247347316865852e-01,-1.468604209764714508e+00,-3.049620783580894168e-01
7.353414021550138679e-01,-1.440726606841800761e+00,-3.474904763819972597e-01
-3.466397633815627988e-02,-4.800634130412153033e-01,-1.171637207084395005e+00
4.576387870623786491e-01,-1.196639277030533854e+00,-2.238840833996652568e-01
8.655379548172207338e-01,-1.615507807970188336e+00,-6.980878253180143878e-01
1.029556868125832247e+00,-9.533834576508000147e-01,-3.635649518948557701e-01
5.406676706407880229e-01,-1.423207863938366291e+00,-1.156182274545876076e+00
5.055375410833454902e-02,-8.435036179950450297e-01,-3.504487811449980006e-01
4.486664393122546390e-01,-4.521815070366326239e-01,-1.568573730569207958e-01
2.706392996120818850e-01,-3.155201314659825673e-01,-3.552999358109937278e-01
-3.957072631594452661e-01,-3.595315440378840099e-01,-1.070992534749090952e+00
5.526867083161323135e-01,-5.663324742948311341e-01,-3.260643017822696943e-01
9.493230849859763953e-01,-1.645930554541672031e+00,-3.555933181115453756e-01
3.848712515102626353e-01,-3.677106567373457091e-01,-1.472952500004235110e-01
9.744114856482030129e-01,-1.068267863631014780e+00,-1.298700015389398388e+00
3.847889126097776835e-02,-8.272272853916849966e-01,-1.191409016049820746e+00
-1.312848368677941302e-01,-7.387762460040031565e-01,-1.155295745211418756e+00
5.805229158115177146e-01,-8.479606602360248990e-01,-1.343760240007519258e+00
9.232869433542522097e-01,-9.107086226287320896e-01,-4.033674960338255455e-01
1.142219190445898036e+00,-1.326883535126031965e+00,-3.348603192982134158e-01
-3.632629054227410337e-01,-4.563867413495393821e-01,-2.471679196825767033e-01
-9.440233045961517189e-02,-7.540101566394071808e-01,-6.634459129453337267e-01
1.692451454142794298e-01,-2.870366695658910228e-01,-7.239821417344698418e-01
2.694519818636165187e-01,-1.030738650640853571e+00,-3.656830143740814609e-01
5.463951846905210630e-01,-9.403745830136071016e-01,-1.893957839421685496e-01
6.981142264482296245e-01,-7.137494480077536396e-01,-8.333562842510161550e-01
5.972140957158456054e-01,-1.438823582954064539e+00,-9.138934187382737884e-01
4.041859598360294514e-01,-1.291469455800832389e+00,-1.166755561715896450e+00
-1.675072735998221762e-01,-5.142379457034628176e-01,-1.128748361436860970e+00
1.167683953151241960e+00,-1.874454937457055159e+00,-5.553478220007254107e-01
1.259927267871585599e+00,-1.775053881401159828e+00,-6.486596928545088625e-01
-1.746366439292096617e-01,3.756095159560954994e-02,-1.029701913154974502e+00
6.453162193766334154e-01,-1.287987872751449769e+00,-2.178581844971902992e-01
1.298071395753230273e-01,-4.411506847860066083e-01,-4.903714345626313670e-02
5.908405780769958593e-01,-1.301961819019826772e+00,-3.134146800365444907e-01
5.076372886423435871e-01,-1.328222657714124955e+00,-8.533690964349055497e-01
4.371981048953978433e-01,-8.645472775373291840e-01,-1.706678128399494454e-01
9.966975967558484584e-01,-1.473894763551508502e+00,-1.459970005304261909e+00
1.183184452278718490e+00,-1.820052781507409012e+00,-7.903339114738593407e-01
5.991217811344926591e-01,-6.230648502911839692e-01,-7.193451578420260173e-01
1.475080708788593375e-01,-2.498026595723573384e-01,-6.863694169112886934e-02
1.288126660337280960e+00,-1.273688390061543441e+00,-9.087782636238195266e-01
-2.060251139230862005e-01,-6.991663352670113296e-01,-7.827656853098611256e-01
1.009063814802215964e+00,-9.931219485558759885e-01,-7.644788817593277663e-01
-4.094817444478704438e-02,-3.913665449033977284e-01,-1.797025290162709149e-02
5.126726797402543223e-01,-5.894698201893311396e-01,-8.602801563289673714e-01
-4.064075079492165954e-01,-5.467291395043094582e-01,-1.062133478028159939e+00
-1.943844645280278227e-01,9.736669048385852279e-04,-1.030411146898314589e+00
8.689873560284663845e-02,-8.306770587848164578e-01,-1.164818433070200498e-01
1.267902622112559330e+00,-1.263426271115241972e+00,-8.540509470370509781e-01
-5.222426895583729550e-02,-5.532024777566817431e-01,-1.152130744630682768e+00
-4.967270436809128609e-01,-3.607903141738176833e-01,-4.996238759987123301e-01
1.086708021568519866e+00,-1.169453764496646508e+00,-1.303594282129388437e+00
2.869718532791557530e-01,-4.446256044134795915e-01,-1.110560104890801592e+00
-4.348592895532463753e-01,-4.334941605557135480e-01,-5.608530121444704752e-01
1.020213345043640141e+00,-1.155534918598567051e+00,-1.434717522150836588e+00
7.800814178799297949e-01,-1.178678460193948840e+00,-2.481753170071752390e-01
1.185285419420916003e-01,-2.037871763373984846e-01,-6.517471308728689516e-01
4.794032667768746703e-01,-1.361567125887226837e+00,-1.282547959091697720e+00
-2.860106996874491325e-01,-5.177237048256650986e-01,-6.947370082791862189e-02
7.063008199048178559e-01,-1.432778205498085322e+00,-3.332875439846170740e-01
1.051569586428731773e+00,-1.057780381531792546e+00,-7.908644064307126520e-01
4.351763789022505824e-01,-1.190819860546572517e+00,-4.668026853158137590e-01
1.237963333421860046e+00,-1.855590139138399763e+00,-4.863774637795916234e-01
5.514269074832005568e-01,-5.984050058196032085e-01,-6.624442206008601675e-01
1.176255574403668902e+00,-1.738766640304822308e+00,-1.041516804469120761e+00
2.487753855456913132e-01,-1.093937619597938005e+00,-7.829866394756855863e-01
1.421523072143668465e+00,-1.449366068243438388e+00,-1.057945870067817262e+00
5.827981661838086413e-01,-1.333185560354907429e+00,-5.061024630549691983e-01
-3.429726365184556647e-01,-2.275143816247925665e-01,-1.089835062922709152e+00
-4.293006575451154272e-01,-3.018846794508904807e-01,-1.055577072707712061e+00
-1.357183461651692569e-01,-1.588338421443534704e-03,-3.819910111855404078e-01
-1.279258770122653766e-01,-7.009994812446839196e-01,-1.137348865903277328e+00
-5.509189467609575397e-01,-4.009250586878372324e-01,-9.490656382155251425e-01
1.072503655752333973e+00,-1.150223867036268555e+00,-1.250007641713581474e+00
-8.393970985768756110e-02,-7.484567411058217212e-01,-4.686031835708642235e-01
-9.382890816820591007e-02,-6.332888357822676062e-02,-1.006127098483025062e+00
2.371388054720315330e-01,-4.739530419124520777e-01,-9.505094717062262388e-02
9.565490970803707249e-01,-1.753760181649986816e+00,-1.112006489493804651e+00
1.348982726687429023e+00,-1.440152456494293132e+00,-1.469105174310133988e+00
1.187815526249019538e+00,-1.729995177765044190e+00,-9.486021885685353983e-01
1.336090396448384565e+00,-1.326651261600765075e+00,-8.751198368491247548e-01
5.076306826850985887e-01,-1.235363340791052700e+00,-2.373762888946982785e-01
7.523581145256370561e-01,-7.520849803953946200e-01,-5.884532020370932814e-01
1.276748765738431324e+00,-1.640223583462211199e+00,-9.604444463623625916e-01
5.587611872874275187e-01,-1.425899212181704678e+00,-1.099215065765709154e+00
7.759244048814766259e-01,-8.558903516652777155e-01,-8.823098532419392237e-01
-1.913643376322954892e-01,-6.301885123023489577e-01,-4.390704877225559688e-01
-1.840667885534108261e-01,-7.271958490668407604e-01,-9.487352867394859279e-01
3.999985353506029795e-01,-1.003371872740584481e+00,-1.280564608889950939e+00
1.082814117146444488e+00,-1.092354226950923213e+00,-8.979357747799321388e-01
3.386029292970988425e-01,-4.083441556648296222e-01,-7.521348636975103696e-01
2.229111512861831623e-01,-9.859234933116410859e-01,-3.921549459607068244e-01
9.816463392597296611e-01,-1.098634857840077750e+00,-1.404589558964784546e+00
-5.749415111521652931e-03,-4.557370418058111217e-02,-3.442261258439328619e-01
1.579018961586089176e-01,-1.035022925064313926e+00,-1.138076545756395941e+00
-4.329442511633709856e-01,-2.665603586276420467e-01,-6.512507560064570988e-01
-4.449781026391000927e-01,-4.533785187460723232e-01,-1.070872978103815321e+00
1.878810918444051015e-01,-3.069166248924857232e-01,-8.116921409141989452e-01
-8.712258178563371536e-02,-6.762711299265854181e-02,-3.222648097779247378e-02
-2.147218909275007970e-01,4.322792135931664143e-02,-8.517750635979037810e-01
4.540149687698590286e-01,-8.744085842837915346e-01,-1.325549687597589177e+00
1.083434828710644116e+00,-1.707525203746261599e+00,-1.397291890777741408e+00
5.418321657818732096e-01,-5.106795614561256968e-01,-1.942043500988300253e-01
1.618891799246883340e-02,-2.832939349957321884e-01,-1.163490371761832787e+00
1.425654612874270422e+00,-1.332127402896824409e+00,-4.645734531725281280e-01
6.502984054793669033e-01,-1.094439029769950888e+00,-2.123390293024787212e-01
-2.506001372905893379e-02,-7.915247571430900075e-01,-5.529946152559508388e-01
-2.068970035299044427e-02,-8.625571626695421878e-01,-8.464664761775261281e-01
-5.179228845183516672e-01,-2.258392377604963031e-01,-1.011846977171063422e+00
-4.455856534178402883e-01,-4.097433560311810052e-01,-4.202051294797827241e-01
4.405199999132675681e-01,-9.150302162692692809e-01,-1.431520012975502076e-01
1.011232014465024420e+00,-1.837418890665885929e+00,-1.269840123950954247e+00
2.960157864161461205e-01,-1.207323314741627351e+00,-1.239281516202632716e+00
9.563576280396561824e-01,-1.710655352989933320e+00,-8.507576378631845904e-01
8.962466590624882379e-01,-8.955675166438904489e-01,-7.617317021387496334e-01
-3.852963921008343284e-01,-2.785543400096319178e-01,-3.676446223178094219e-01
1.067864405394463256e+00,-1.767882409829411250e+00,-1.307273338356368164e+00
-2.638195777405395459e-01,-2.139234877941361135e-01,-1.466374147190377952e-01
1.026838982753256913e+00,-1.128940298549616195e+00,-1.411344301110009081e+00
1.358570945473388525e+00,-1.401110479015908794e+00,-1.141203270309497197e+00
-1.383822042940333896e-01,-1.914915613388151056e-02,-3.899368055864768090e-01
1.028645080395754974e+00,-1.131425635128423979e+00,-1.424141071390306879e+00
6.303126510300739449e-01,-7.254811669197525070e-01,-1.093985623597648393e+00
5.795809633868784783e-01,-6.250480664584826540e-01,-5.807476077841027262e-01
3.175091424936603568e-01,-1.147741686524715643e+00,-8.192099476599153940e-01
1.614752630687629753e-01,-9.537341247932313859e-01,-2.570801984941307183e-01
-3.495431496712204100e-01,-1.582420679195092050e-01,-1.057596368569550194e+00
4.762700619479607322e-01,-5.232265394062858288e-01,-4.948225298671877770e-01
-2.357138001985968345e-01,-2.508834596209414958e-01,-1.100587453430970086e+00
9.612401956533899172e-01,-1.682792837072092818e+00,-7.153424303633570958e-01
2.426430348339461696e-01,-3.442030400529401124e-01,-6.732193074527720311e-01
-2.610729516056444766e-01,-1.863336229865819038e-01,-3.337112493646295364e-01
4.117865752186864459e-01,-4.060167674729556198e-01,-1.937622655164418228e-01
1.229708432659213813e+00,-1.787301142248241881e+00,-7.807570898419934347e-01
3.377796995074721087e-01,-1.145644273282212522e+00,-7.825141393076814333e-01
1.534727752368124198e+00,-1.518062063335629430e+00,-5.123585530891885398e-01
2.240324777091576292e-01,-2.315764731601845094e-01,-2.058969043598932180e-01
-7.358144959329042389e-02,-3.127476264919615834e-01,-1.144667249635269668e+00
9.872442801993263073e-01,-1.775654303961473168e+00,-8.588702563350705255e-01
-2.500718875314870693e-01,-4.272131658589952558e-02,-7.360080859820652410e-01
1.232155453756605734e+00,-1.253655236029216358e+00,-8.807120044332374942e-01
1.173508136952962744e+00,-1.761666530118845442e+00,-9.954298185848340363e-01
5.887245878123189557e-01,-1.024478606173136797e+00,-1.828264305833629255e-01
-5.366217581075598264e-02,-5.547749622407309733e-01,-1.035806439649576693e-02
9.942643879161938703e-01,-1.723501369652578941e+00,-5.154197584585106240e-01
2.677257420607752625e-01,-2.556548593503420452e-01,-1.364353395588203954e-01
1.346363923124925255e-01,-8.709468339911454748e-01,-1.216936194660222181e+00
8.455864344017542944e-01,-9.608374477263780244e-01,-1.167825459640100094e+00
2.954160366056454712e-01,-1.090662504900002716e+00,-5.561147714182699264e-01
-3.435598667818245411e-01,-4.296508805762487837e-01,1.717440960718810000e-02
-5.383225892600197043e-02,-8.280355733697899456e-01,-1.179718756935690172e+00
-2.490626097298692387e-01,-5.510382923400594102e-01,-1.534380924095976595e-01
-3.159901268207696567e-01,-6.038268689011068169e-01,-9.358952813986156638e-01
1.104443584754492669e+00,-1.826682992722414633e+00,-6.403343733363010548e-01
1.174084454853361187e-01,-1.001604377342148577e+00,-9.323003192940095829e-01
1.107271236118580582e+00,-1.857679036268602424e+00,-5.858091043607096537e-01
3.226951474259912023e-01,-8.592216645389476604e-01,-1.265919367515261573e+00
4.276872935351281324e-01,-1.285787979922129454e+00,-9.844468829438229873e-01
7.135067888678403580e-01,-1.121755499204233342e+00,-1.357131432042113506e+00
-2.471696495068325186e-02,-5.621224875121046995e-03,-8.382079124738910092e-02
9.249615446519583450e-01,-1.155514806387071047e+00,-1.430155955508727539e+00
1.903489457487723968e-01,-2.024835361326711713e-01,-3.077024698947083414e-01
1.366325926957951520e+00,-1.693589396222106913e+00,-5.442932432834045597e-01
1.380312723700625410e+00,-1.308798228035787936e+00,-5.201631160281351418e-01
3.458054476103459285e-01,-4.823946276954925727e-01,-1.159812852793332461e+00
1.035191816936823272e+00,-1.789820643416976997e+00,-8.051129797025866619e-01
5.257932556598716722e-01,-1.400899191952424960e+00,-1.011884173089584227e+00
-1.208301906002116066e-01,-1.954228108779755280e-01,1.013503303139633334e-02
-2.968518752150610118e-01,-2.631382207071537582e-01,-1.080570230301493018e+00
5.263297840293225116e-01,-6.845679180403907438e-01,-1.272018293670423406e+00
3.073152916575722648e-01,-4.427968278809278346e-01,-1.131274608653052294e+00
1.395327698747908185e+00,-1.446428638660658406e+00,-1.163366315311388233e+00
-2.355823365758446530e-01,-2.234680667290673065e-02,-7.417007625759906020e-01
3.141367792858975605e-01,-3.204752721821614858e-01,-1.322149631582452689e-01
9.595273687100627225e-01,-1.717942176638696861e+00,-7.160597005897024747e-01
8.462279930485739898e-01,-1.126761924427561956e+00,-2.542318486618426188e-01
4.660112506875924154e-01,-8.309592700708817725e-01,-1.287341326223808258e+00
1.083050292536828385e+00,-1.823116334510214154e+00,-8.111730499468496891e-01
-5.165372329886841474e-01,-4.626597383719689982e-01,-1.037451672561903404e+00
3.598791832257178247e-01,-1.217810206388398431e+00,-1.012342939484720983e+00
1.154812879737573184e+00,-1.174739606314508800e+00,-1.058798785191650049e+00
2.040541827123124596e-01,-9.837458602840546407e-01,-3.178897822961559982e-01
4.323771041400394921e-01,-1.193134174348595034e+00,-2.376638145154026938e-01
8.192878343705479738e-01,-8.434832334543996835e-01,-2.128719785504775419e-01
-1.109209601825620478e-01,-6.989823548220803762e-01,-2.650626644596037473e-01
2.854214718133022965e-01,-3.083638098995492016e-01,-4.069648742083515902e-01
-1.367381408819357269e-01,2.016057853745745199e-02,-5.973890896804548989e-01
-3.528452434775267155e-01,-4.364737754999798436e-01,-1.523707022295702762e-01
6.682346721932947986e-01,-7.504360721094480713e-01,-9.676888452354169834e-01
-4.989691319218657606e-01,-2.485677130877252117e-01,-1.004092108203217482e+00
-1.945115025426184807e-02,-7.893900349709498387e-01,-3.142850933018209170e-01
6.166786811088962317e-01,-7.126963531233763138e-01,-9.324270667516945110e-01
3.350736901813067825e-01,-4.635430822486842906e-01,-1.189453392953783606e+00
7.705355869927121848e-01,-1.572658920190499243e+00,-1.406974984932792161e+00
-1.911624695674048191e-01,-6.111723883473650920e-01,-2.385022551399280655e-01
4.573701467992504210e-01,-8.558340871426498575e-01,-1.638783281419501636e-01
6.361664019909627488e-01,-1.431496029643709589e+00,-1.368200506951655182e+00
1.195621327272865075e+00,-1.805173658933691305e+00,-7.213004707824005601e-01
5.431034588325898138e-01,-6.720081429664147565e-01,-1.765012972713620176e-01
-1.875738445443071029e-02,-7.897289412390413599e-01,-4.589279027090464314e-01
-1.181991733574826037e-01,-9.833815499845037847e-03,-3.314508084207981597e-01
7.871774335450001381e-01,-1.648131204484675871e+00,-1.413755692279392351e+00
8.895126719169789142e-01,-1.605619263790127649e+00,-4.093212859340354948e-01
-2.078210130033424086e-01,-1.716036989588608230e-01,-2.100854914641153981e-01
8.708768365995088745e-01,-8.576135235278343760e-01,-5.533551378085787009e-01
-3.243126870885792434e-01,-3.797914278031265800e-01,7.714537828199811986e-02
1.203902400134835293e+00,-1.872057685676152827e+00,-5.143481952771927768e-01
1.137262727343576918e+00,-1.687385284369032901e+00,-1.407019776311904780e+00
6.790601746767357949e-02,-1.006336081842482022e+00,-1.190091242010769212e+00
3.620536750347946864e-01,-9.340506009704374613e-01,-1.458792250308011684e-01
5.812438188136275219e-01,-6.730498130691192626e-01,-9.166096203020688282e-01
-1.995090058972867619e-02,-8.682193592393111503e-01,-1.198414728786622474e+00
-7.114708350789573574e-03,-1.097247283241632315e-01,-8.563917517031691684e-01
1.054002958394125722e+00,-1.807538096231154467e+00,-1.249878535538820890e+00
4.874008234072857992e-01,-4.820751318691337550e-01,-2.432589242312330202e-01
1.629958008145279691e-01,-2.325693003447356910e-01,-6.640274019055975030e-01
2.956841690119790811e-01,-1.192692246174964943e+00,-1.060165111889920020e+00
6.472609776087913103e-01,-1.503565550888535274e+00,-1.224324306050271094e+00
-1.053775682301989619e-01,-6.659759042148143404e-01,-8.721710180091835074e-02
1.358255051500730781e+00,-1.623699796222803915e+00,-3.929048396204453675e-01
-8.348746364516534957e-02,-7.947515256505516268e-01,-7.324652120223588136e-01
1.267688865039497292e+00,-1.606092559376805839e+00,-1.181030490011107048e+00
8.164834499778151899e-01,-1.647870378182025863e+00,-1.298745577350502334e+00
7.896067483448137025e-01,-1.308186795754048504e+00,-2.467119440850286671e-01
1.306453435085373815e+00,-1.790046843025323575e+00,-4.739005190488180808e-01
2.794290799644871259e-01,-6.983591110789275636e-01,-1.231694664862553079e+00
-3.957080658149376151e-01,-4.878445556775884984e-01,-5.132134401371911681e-01
9.830811499985301349e-01,-1.393593882998098055e+00,-3.127184308732622320e-01
5.555020516629224359e-01,-1.302210942416979211e+00,-3.940875518613169981e-01
3.228104608316593183e-01,-8.226677694214283854e-01,-1.271137566389364482e+00
8.937286631606928822e-01,-1.002688735573186385e+00,-1.336937411997038305e+00
3.813529876227743642e-01,-4.971304397663905417e-01,-1.091492310146354505e+00
-1.115272735578862473e-01,-6.167659930198337026e-01,-1.129151136662888355e+00
1.019526980484585676e+00,-9.890624119075696052e-01,-5.027668405590012268e-01
6.799799208183563426e-01,-1.435123541560124893e+00,-1.379717274908177860e+00
2.102985868019328075e-01,-3.459557301599561763e-01,-9.614796245425394350e-01
7.477219682333769990e-01,-1.610036782564310709e+00,-1.414158416717320010e+00
2.251207930075547203e-01,-7.894939718995573896e-01,-1.228944369812127624e+00
5.679218670540121527e-01,-1.279040724259015605e+00,-2.946960214005399092e-01
6.122845381337012061e-01,-1.412541023437242638e+00,-1.373508481801657410e+00
5.202890308625512938e-01,-4.581468857590675348e-01,-1.507913127074343440e-01
-2.616637133935090231e-01,-3.888747066013865245e-02,-1.089533282869553643e+00
6.581291014459046407e-01,-6.209507368221831580e-01,-2.779120883668320108e-01
1.641561818384396909e-01,-9.625529154826687472e-01,-5.682943253545547080e-01
2.575214745945334505e-01,-1.127880907647996089e+00,-1.120561041734961405e+00
8.067340928929969124e-01,-1.612793481178664168e+00,-8.723058975604482956e-01
3.977386816205710079e-02,-9.384213209533580624e-01,-1.113909380583652409e+00
1.302451309671271096e+00,-1.304556658116667656e+00,-1.009544555055071013e+00
4.017853755698282403e-01,-1.258960578082248372e+00,-1.047071279259376375e+00
-2.835980815149172218e-01,-1.973939106988202574e-02,-8.157396639921543624e-01
1.309915459306187691e+00,-1.603181730620387269e+00,-1.005034820347013635e+00
6.493757305178921024e-01,-1.069719014925200717e+00,-2.545646688313209505e-01
1.484220844753922526e-02,-8.564631159943433270e-01,-6.576123126736532765e-01
4.486256631202906742e-01,-4.960418697174795999e-01,-6.481416955002567981e-01
1.491917249214029795e-01,-6.166107621778711412e-01,-7.764764702912443917e-02
1.341699163454568300e+00,-1.400067363554083677e+00,-1.322662441304591763e+00
1.112319969679282483e+00,-1.145915562279530509e+00,-1.021536561965821210e+00
5.695767572342466112e-01,-6.369934486255672823e-01,-8.053216433384551287e-01
3.643777045941897219e-01,-1.265359677159147767e+00,-1.268440738414881919e+00
8.831144952052453201e-01,-1.634046735123058314e+00,-7.936708854489810117e-01
1.128251276008281012e+00,-1.551576413646802655e+00,-3.643486806121049582e-01
3.699959810625442214e-01,-1.229790448507293688e+00,-9.865685300947911740e-01
5.155149993353184135e-01,-6.032422622486798280e-01,-1.015246116344799665e+00
1.248134104226893415e+00,-1.292226846674057850e+00,-1.047703232968068443e+00
-6.264490441445553668e-04,-9.032910250414696307e-01,-1.165826151164680802e+00
1.008092991686630135e+00,-1.301409751569741813e+00,-3.267470160188388761e-01
1.562179544859582381e-01,-9.432352511609372048e-01,-3.891601840682100688e-01
3.734725518554133372e-01,-1.110116044477810426e+00,-2.118424042030672694e-01
1.126894053154037456e+00,-1.612422144632625232e+00,-3.700202787642262736e-01
4.753143425227491781e-01,-1.373628316937041793e+00,-1.251532193068090493e+00
-1.455408048940691201e-01,-1.815821683934595587e-01,3.038119236978467988e-02
9.721283908613279623e-01,-1.687809158011787547e+00,-6.299905933558350712e-01
1.108197548241727226e-01,-1.427189701622445239e-01,-2.598072781792485353e-01
7.969776898388769570e-01,-1.273030195786813978e+00,-2.519965622365962221e-01
5.408915185928920843e-01,-5.910603360903909920e-01,-7.692537744225786955e-01
-2.702172351563207897e-01,-5.922011909587487910e-01,-6.709627088466973976e-01
1.063732318021109791e+00,-1.749041256531184141e+00,-3.594500438651505592e-01
4.710464027014049648e-01,-8.336907589480589964e-01,-1.298466380135001597e+00
1.030153607063305943e+00,-1.754206963436240940e+00,-4.647038506115501177e-01
4.877982275338809681e-01,-6.826021851897482451e-01,-1.294544765101393491e+00
3.963340114035128758e-01,-1.218793318079828936e+00,-6.361547585056672727e-01
1.216769398417340692e-01,-9.982502353310567234e-01,-8.731838332902563948e-01
9.697045130728974005e-01,-1.010186339454644866e+00,-9.239739180524358941e-01
1.130148553314248128e+00,-1.589037931631538614e+00,-1.501146163928528843e+00
1.477097107808209131e+00,-1.502445663655437302e+00,-7.883406543423919777e-01
5.195201732043686071e-01,-1.374961686646032577e+00,-1.110514537998826157e+00
-1.285253427004248196e-02,-1.982435060292868367e-02,-3.950166807680068892e-01
-4.467344621019965489e-02,-8.228662471789491839e-01,-6.836625963483672352e-01
5.447848269291225565e-01,-6.479558173995533243e-01,-1.130976509413713416e+00
7.459644295394037838e-01,-1.150439566821533699e+00,-1.392695887958151246e+00
-2.973805116509894431e-01,-2.050624671972339497e-01,-3.408495600294089156e-01
1.740915050718203905e-01,-2.357844728188776551e-01,-4.800262652013113640e-01
1.097862879301532812e+00,-1.435423836119945395e+00,-1.499776692082943175e+00
1.916810150676536428e-01,-1.070141655747721021e+00,-1.115209045651762931e+00
-1.368296004225191820e-01,-6.646404292157802596e-01,-1.427593484505646493e-01
1.031268543891346486e-02,-1.587103968972261581e-01,-1.092061348183620995e+00
3.296056720722672639e-01,-4.930859902957044905e-01,-1.122281555246218143e-01
-4.522577646646883109e-01,-2.105908364367493901e-01,-8.627379423234832201e-01
5.502721392266926026e-01,-1.362838829338634872e+00,-8.405221806511649074e-01
-4.891170829949620935e-01,-3.873845519291060913e-01,-5.149339882848305017e-01
1.113358961049565998e+00,-1.104437290986611142e+00,-7.694908100695555531e-01
8.172360064828031456e-01,-1.264256934958081002e+00,-1.382167374597752296e+00
-4.654642317141381436e-01,-3.242663538112283139e-01,-6.050807131394221328e-01
-1.613492936954275814e-01,1.214733378820068849e-02,-7.398825229833085881e-01
9.103757582700463535e-01,-1.065751747918394221e+00,-1.408437958043382565e+00
1.173650688942364517e-01,-5.388167427530788922e-01,-3.399351550610479888e-02
1.395764276240250235e+00,-1.460376194979990494e+00,-1.147693242363542643e+00
8.612045419519909206e-01,-8.781810991291636448e-01,-6.244880286609770792e-01
2.701161398707714323e-01,-1.126096125592275232e+00,-8.635490057692376542e-01
8.196590313974017050e-01,-1.386153673359723282e+00,-2.676775989601424266e-01
1.434958547766385539e+00,-1.480508509360301206e+00,-4.277892459390685298e-01
-1.322262137770016943e-01,4.087615793524240412e-03,-8.597869368545072444e-01
2.726548772296029030e-02,-9.546836677743210375e-02,-4.695830478819293941e-01
-1.825306589426128889e-01,-6.205739654412226192e-02,-1.090920746858911716e+00
-2.049900664650100013e-01,-5.893405583740767284e-01,-1.912515386330883027e-01
4.991088632639326672e-01,-1.190585634211229316e+00,-1.312644491646143718e+00
9.841482969021710936e-01,-1.801406822791355333e+00,-1.160650424951077841e+00
7.259015364416775140e-02,-9.637839257511369162e-01,-9.587842250299386526e-01
-7.111026756635115131e-02,-4.796399312352472855e-01,-1.143349871937906714e+00
-4.106749987382004585e-01,-4.039754567354941206e-01,-2.495480619969248359e-01
1.590181985890719296e-01,-1.054460555836501889e+00,-9.749104643462774833e-01
4.475603701184509287e-02,-8.326057045013707247e-01,-3.607896250806632565e-01
1.247266637156898561e+00,-1.664423029619010341e+00,-3.718368239986472035e-01
2.277017380780202160e-01,-6.117203851996984021e-01,-1.221343732897984813e+00
1.261032860093456387e+00,-1.830096314341665087e+00,-4.028152796777741407e-01
8.100151358654213984e-01,-8.444049817995548102e-01,-8.303811066475164093e-01
1.033393402415120566e+00,-9.655010880587683308e-01,-3.326329071656858316e-01
8.930335015439433421e-02,-1.860520735358826283e-01,-1.186833543425477866e-02
4.905092235464149075e-01,-1.340506903615038548e+00,-1.334204355476635406e+00
-3.163120478374227829e-01,-4.713196077669991602e-01,-2.686965437906269072e-01
-6.651165685804739935e-02,-8.171923463751311623e-01,-9.419549751232169088e-01
4.941643290009358203e-01,-9.332938324608225367e-01,-1.954114726920510303e-01
2.221991610037305220e-01,-2.066901418478139518e-01,-1.330990875232441473e-01
-9.560646780693253521e-02,-8.052474565070475432e-01,-9.852281351181745306e-01
7.878861964392135375e-01,-8.988389714811939601e-01,-1.324404612363933698e+00
1.308965715604463176e+00,-1.309228219530021997e+00,-8.443646781834440729e-01
5.740603531683244887e-01,-6.290004807654628882e-01,-7.831076388911299979e-01
7.173479941147670180e-01,-1.418473982220315399e+00,-1.387716275978489788e+00
-2.330983790779247306e-02,-8.773584406315217965e-01,-9.129370029276818732e-01
1.361494494594440052e+00,-1.674513462613975490e+00,-4.049481644601078956e-01
4.689652121932342821e-01,-1.306064261926380476e+00,-1.331104402552383936e+00
3.650803855710051948e-01,-1.146819128808930888e+00,-5.679037040380680024e-01
4.214061927746548530e-01,-4.791763465659858445e-01,-6.555962061557942810e-01
1.481235541832186975e+00,-1.442991175467727150e+00,-4.368470603572497946e-01
1.826177789201784973e-01,-3.138501157820299259e-01,-1.117553132770578106e+00
1.200916369373382198e+00,-1.595012817224567669e+00,-1.322842553224329754e+00
6.992508211539542051e-01,-6.941570556640047629e-01,-4.721340627552146896e-01
4.954303288990589138e-01,-7.033774336162158525e-01,-1.307174103805951004e+00
6.737492895560257544e-01,-1.450527932192274383e+00,-1.381700012127515587e+00
1.157809222975184849e+00,-1.346271133773135453e+00,-1.512152564461328286e+00
1.142090667220669653e+00,-1.114724122709192633e+00,-3.390372973512605359e-01
-3.899138293883237794e-02,-7.573987655072667025e-01,-2.430018628075091836e-01
9.301437598199063794e-02,-9.765715088340048977e-01,-9.606774534279934885e-01
-4.647252907332349303e-01,-4.408863357341736844e-01,-5.191638163963141483e-01
8.250979764384617221e-01,-7.913435605984042720e-01,-3.520957283066101784e-01
1.925313230481031646e-01,-6.304792796810481104e-01,-9.214097383794753182e-02
1.447757836392476793e+00,-1.454099006221984736e+00,-8.500740477731828504e-01
1.274695167607683421e-01,-1.691253819565246563e-01,-4.436437280792811522e-01
-3.536272858571921085e-01,-4.543503580033498856e-01,-1.405935545850920121e-01
3.208445509474085466e-01,-7.792421046084460068e-01,-1.261961243725306936e+00
1.562349492782662830e-01,-1.035454663670373199e+00,-1.249320909534992863e+00
-2.859845228979665879e-02,-9.038230621063493286e-01,-1.107201161469728357e+00
1.071568214865843416e+00,-1.077187018957710407e+00,-7.572419340849698699e-01
1.132152262117552155e+00,-1.660821337666241293e+00,-1.476647850919882154e+00
-1.472025726000754653e-01,-4.579390203881974486e-01,5.241308268467593720e-03
-7.048550264007312494e-02,-8.460691116221368269e-01,-9.364789526655052931e-01
-2.993700561902829307e-02,-6.809518308661696717e-02,-6.484485108144764087e-01
4.257061636061600374e-01,-6.171732585767830681e-01,-1.254816305062076198e+00
-2.264741464976846586e-01,-3.420718447582777877e-01,-1.100984961643254323e+00
-4.804886303394825253e-01,-2.244519000345750748e-01,-8.442496341799576864e-01
1.315262445293164051e+00,-1.242888055095395572e+00,-4.750467062504802884e-01
3.166473805654659857e-02,-1.529394185320486280e-02,-1.835640146892641641e-02
6.375924893609653532e-01,-7.100205475800739352e-01,-8.590783374540624795e-01
1.054676070934488896e+00,-1.108554346468897389e+00,-1.045806746041826774e+00
-2.672635581196712296e-01,-6.552397405585421719e-01,-9.139002545649672626e-01
1.169159820994888133e+00,-1.177402453610861377e+00,-1.053324143260537582e+00
-3.467308350199029277e-01,-3.805046390278329915e-01,5.782790081078441335e-02
-2.816090616016607706e-01,-5.083415397171091588e-01,-1.661089344534423806e-01
1.260462978289102753e-01,-8.571571996257681958e-01,-1.043918727749489628e-01
1.291497383285253875e-01,-1.044852584668354289e+00,-1.231084217224184485e+00
-2.381802578504242651e-01,-5.875707961912456367e-01,-4.907689888484276786e-01
-2.426340780827798693e-01,-1.411538541418791703e-01,-5.236060681923562221e-01
-4.472679294334019895e-01,-4.533444347972501731e-01,-5.332155496431678632e-01
1.022458277934979592e-01,-8.492024567353348985e-01,-8.604844559587734865e-02
1.101596902025118729e-01,-2.176931862541078566e-01,-7.665789174509231030e-01
-1.211147683945860759e-03,-8.181579825350240309e-01,-5.672593914961200356e-01
6.717873193846205515e-01,-1.483705224679422230e+00,-6.124112667987079428e-01
-3.699796654843001131e-01,-4.171964589345504848e-01,-2.205700779976233622e-02
3.656845662630832106e-01,-1.152338320485303935e+00,-4.492556747900405822e-01
1.255921676581122082e+00,-1.331747454531296615e+00,-1.233799378339474728e+00
8.963228631783061173e-01,-1.097029139048445900e+00,-2.830732586161355813e-01
-3.929216273862795039e-01,-2.769253864281674971e-01,-4.004228043597373721e-01
2.585055649992899496e-01,-3.751286193365765409e-01,-8.553163495269289207e-02
5.544560842770640541e-01,-6.947149493092780181e-01,-1.280294482657513333e+00
8.966851959107896564e-01,-1.683793748710908478e+00,-8.479432663463971620e-01
-1.327010470213123641e-02,-1.201516659911874563e-01,-1.098688017072087630e+00
8.744718931660561134e-01,-1.168117332039198653e+00,-1.395794931528395288e+00
-1.788262327469513358e-01,-7.430683134903900422e-01,-1.087072209163124636e+00
6.283421364601009251e-02,-9.495661722230188673e-01,-1.005140237927615754e+00
-2.643251966521270035e-01,-1.422760837033033160e-02,-8.338077870202639241e-01
1.418217672264478368e+00,-1.576467814387052968e+00,-7.062775230854728692e-01
1.211346825719031184e+00,-1.189836577713011545e+00,-8.743073783889232509e-01
7.049399544733829792e-01,-1.026626763627678685e+00,-1.383701319521073669e+00
1.930896460821676930e-01,-1.013760429550581099e+00,-7.577326317672329337e-01
-1.079617140433507261e-01,2.013076739566202825e-02,-4.797842375736375287e-01
1.423442981827391041e+00,-1.409307199264122623e+00,-8.894167626764435397e-01
-2.088508288297269699e-01,-5.929997989818687198e-01,4.023173700012943233e-04
6.925346516591950330e-01,-1.524557858956079759e+00,-1.402680800713618670e+00
7.594668138448430472e-01,-1.600674932303275844e+00,-1.139115246841478468e+00
-9.943774931266674555e-02,-8.242050122799794432e-01,-9.908990901751817404e-01
6.934355230030246897e-01,-7.721736967219293701e-01,-1.134471838604382610e+00
8.634839408338914613e-01,-1.582911761252494331e+00,-4.533470135119370692e-01
1.228162359332166442e+00,-1.253865602731068174e+00,-3.691054157198073726e-01
4.920804150238058255e-02,-9.615472636407553786e-01,-9.929146857972214191e-01
7.988490774514082071e-01,-9.643393726612011774e-01,-1.383942135516251115e+00
5.437157024759303736e-01,-9.560749764804115092e-01,-1.330186362181308812e+00
-1.292583576553450395e-02,-4.665859263636152332e-01,-4.445193265301045082e-02
