-4.065203640510385519e+00,3.087240460847623602e+00,9.321090533845536319e-01
-5.673277839557915314e+00,6.983616257862145460e+00,-2.538765105943916911e+00
-5.154338410649627278e+00,8.424932627836312804e+00,-5.522439163479104351e+00
-6.726000004482028949e+00,4.509897550550922674e+00,9.429443259243727171e-01
-4.514421743290531808e+00,1.437197493345167887e+00,-6.945871768918074896e-01
1.095180084607276561e+00,1.310873795577609613e+01,-9.988106682968663108e+00
-2.962414137286729421e+00,1.008123162959492625e+01,-9.130680745432906420e+00
-7.031621330376575107e-02,1.384787723704246520e+00,-3.481351348787468769e+00
-2.109871674908326611e+00,3.231030571894434544e+00,6.986354744200902189e-01
-1.547256770496346245e+00,1.156300815101958968e+01,-1.202902650859530276e+01
-2.998407142645568069e+00,4.032319637390518352e+00,-5.224421603037703754e+00
-2.500377321472857073e+00,1.228396342664683338e+01,-8.474863308557543107e+00
-6.864929166775943337e+00,3.589975337202693684e+00,7.153929805697566147e-02
-2.192338023650588053e+00,1.663607057072892248e+00,4.506294254506625907e-01
-6.274628930685000938e+00,2.922901065812616661e+00,-8.383401677927676543e-01
8.767967451816683910e-01,1.021597202141481731e+01,-1.254121554994289234e+01
1.693135036517303016e+00,5.288619038151600726e+00,-8.695017325718897183e+00
1.467300290349020875e+00,3.637689229047509354e+00,-5.629081571746879398e+00
-1.600934099315489023e+00,1.212259361744417951e+01,-1.206601219255596469e+01
1.507941874146960126e+00,5.152616258840394536e+00,-8.786643867942556696e+00
-1.282810148610256329e+00,1.248505940450942475e+01,-1.140430509125697789e+01
1.626152621303680545e+00,1.216925494071896630e+01,-1.069557782021169245e+01
9.808371656173859865e-01,5.421070124731643958e+00,-1.066628439598765254e+01
-6.079201139854983893e+00,2.904338479829024156e+00,-1.089278390643899419e+00
3.016606173045177641e+00,9.300471828994943735e+00,-9.654844266539841513e+00
1.581738273835943787e+00,7.340977469244723608e+00,-1.329659994334300777e+01
-4.361201861557854720e+00,2.715708433457098891e+00,4.423612471087809972e-01
-3.122244221305181977e+00,4.777226018164192900e-01,-8.269459209966042446e-01
1.128284496766485345e+00,3.407131644088675415e+00,-5.371587177356897946e+00
-7.571323514902897900e-01,4.901777502579805379e+00,-8.969187878057100605e+00
-1.804064798988369578e+00,1.183290950040555956e+01,-5.463626562128830244e+00
1.161781770815202952e+00,2.415987037347659960e+00,-3.275881566017158963e+00
-3.326851169099314554e+00,1.133389930235054521e+01,-7.218344733547949588e+00
1.125680921024500680e+00,1.138332869459165231e+01,-1.129393465680581166e+01
5.528168161034850980e-01,7.135705121861461109e+00,-1.205984139324433713e+01
-1.707305492401805624e+00,2.539771770786826810e+00,6.097213644902594876e-01
9.708957623136271753e-01,8.846944631895768296e+00,-6.683981984801060428e+00
-7.223081100074890237e+00,4.454710875153224059e+00,3.892067648461108864e-01
-9.345257526895713873e-01,1.398356024581137547e+01,-9.108336468718372103e+00
8.937470130833800042e-01,4.080293475619201971e+00,-7.446735995933253527e+00
-3.262014746195943893e+00,9.478602346274113133e-01,-3.394506034897528668e+00
1.820870372510786206e+00,1.033753528177403602e+01,-1.197460920175628196e+01
-5.542806278301219081e+00,4.345034545108103607e+00,-2.581794782285178780e+00
-3.571175267598194480e+00,2.026014150909297706e-01,-2.429138773227124126e+00
-1.216267797318804217e-01,7.605529617658352670e+00,-4.243565617777059984e+00
-5.414982585133883752e+00,6.824466449547689884e+00,-1.508279657757878311e+00
-5.518152754229150858e+00,7.595653885279617157e+00,-3.083570084159572122e+00
-9.425476168793704979e-01,6.509925115111441229e+00,-9.737865703750024693e+00
-4.988171986497103028e+00,4.748108034057906046e+00,1.582854193981671154e+00
4.300915894120583616e+00,9.355499924423655855e+00,-1.153039706098505235e+01
2.850616329874053445e+00,9.122571459352673884e+00,-1.253894250996801496e+01
-4.477342969905585335e+00,2.744299126130583133e+00,4.060666344245797421e-01
4.038416826458222086e-01,1.150698734754951147e+01,-7.640523773547867492e+00
-1.210679684295927983e+00,-2.625605659186168728e-01,-1.341700168179344566e+00
-4.457967300806243038e+00,2.045061238860597097e+00,-1.976760866725033317e-01
1.054400763289034648e+00,9.520981624663658494e+00,-1.289899785793667775e+01
-3.690320686136053241e-01,1.433781092003373736e+01,-9.896629828440770993e+00
-7.944513874105438855e-01,6.439919791433001528e+00,-9.655512150772533886e+00
2.249772424450723118e+00,7.155469786107267360e+00,-7.042467465167250751e+00
-2.938020852286187257e+00,1.763382673298656389e+00,2.001928983328771783e-01
3.059436722031160238e-01,1.806976550572869655e+00,-4.035310208230701079e+00
-2.220475011258206344e+00,-7.124483064621890405e-01,-1.566293675753803516e+00
1.618420224762753268e+00,6.329227942836611831e+00,-1.115948925606443787e+01
2.129798312226829082e-01,2.661930587019576855e+00,-1.871992095081423724e+00
-1.881597169956414239e+00,1.361899670128109463e+01,-9.870398131018706778e+00
1.161439484502772679e+00,6.425838620359306752e+00,-1.210292062037134464e+01
1.513898863728775357e+00,1.178588252366488831e+01,-1.092284093999677275e+01
-7.470788003950279421e-01,1.704536978201285136e+00,-1.782325911486629944e-01
-1.255140883357598325e-01,7.078568598340658546e+00,-1.106727260447688899e+01
2.547673364739607482e+00,7.087118578311699224e+00,-7.495199342613105387e+00
-2.547742004565649587e+00,7.797085458366523447e+00,-8.458824848115675366e+00
7.036422791000943588e-01,1.127192120027697442e+01,-7.785290151792164437e+00
-2.190208345943482016e+00,2.435649384446685883e-01,-5.135078580591297959e-01
-4.405272681344590602e+00,2.410077317236943628e+00,1.308605810584680673e-01
-3.747259893380634033e+00,1.022834797263753925e+00,-7.848694798027803232e-01
-2.864167647002773709e+00,1.116111762873888225e+01,-1.020737654595702892e+01
-5.195643642220078018e-01,1.067531445420244651e+01,-1.252838038022088796e+01
-2.478617753451866967e+00,1.196388865781020350e+01,-7.256894895026351655e+00
2.293773460862694069e+00,7.678533959523516472e+00,-1.284406654831302141e+01
-5.559058976363864701e+00,5.177554848486919603e+00,1.810907149211811618e+00
9.807036946060013749e-01,1.331857094300950273e+01,-9.632449989841520122e+00
1.275670169768648554e+00,1.022227153257838417e+01,-1.221478342004234108e+01
-3.287678979965913406e+00,9.757439699768513108e+00,-4.159012434334091957e+00
-5.288988203893349116e+00,2.353954958651010898e+00,-1.465714181927911364e+00
2.127425544078999753e+00,5.831460856112575364e+00,-8.704214027439162393e+00
-3.515721225510051173e+00,2.717177242603524778e+00,6.621780906844644266e-01
-3.205999280824132658e+00,-7.128532258117252773e-01,-1.692758774907401120e+00
6.657434640834170025e-01,6.235768303320881500e+00,-4.724225242749946041e+00
-6.072525488535498894e+00,4.943271167572787839e+00,1.504007645126872017e+00
-3.727446774705863941e+00,2.690990275899037693e-02,-1.489432515297613113e+00
-4.128637201958249570e+00,2.312049170323232428e+00,1.979933106883205451e-01
-2.135313451078983960e+00,1.368685234759137614e+01,-1.106748114773635194e+01
-4.184656244540821746e+00,4.204572593031345562e+00,1.639314349778043578e+00
-5.948914355378662755e+00,5.113864314754277274e+00,1.391114635927724219e+00
-4.638136254075178933e+00,9.832932255050760517e+00,-6.670657624050162049e+00
-1.817575820918621021e+00,-3.729691372151628381e-01,-1.136967866762378376e+00
-1.783874870295882653e+00,4.028922003991339262e-01,-4.401497826945805159e+00
-5.009890318033419554e+00,4.033162169592616308e+00,-3.027739219912172430e+00
-1.031218522347772781e+00,-3.245910255493038021e-01,-1.406014388671676940e+00
1.986358834763166215e+00,4.568636953379739296e+00,-6.459175631206703905e+00
2.700471292228711628e-01,1.127439588891600586e+01,-7.589188615195611831e+00
-2.015026034857353210e+00,1.382909947417318719e+01,-1.078426558829592885e+01
-5.190427825306938914e+00,6.028911757612759992e+00,-4.039638281675685505e+00
-1.475677680837373940e+00,1.759924182223118638e+00,6.878007361974953771e-01
-3.942263609359248466e+00,2.551159625001621745e+00,-3.724487219747248723e+00
-2.851770806871877895e+00,5.020991072171131719e+00,3.948895649800727714e-01
-9.535583333649301219e-01,1.174914026797218192e+01,-1.193242830910264551e+01
1.777684129135118196e+00,9.392126327317274814e+00,-1.282437512954160219e+01
9.401286365892536079e-01,1.309302237159765347e+01,-9.483742387219459502e+00
-5.292556638393726587e+00,7.184183889228100917e+00,-1.768750047912759138e+00
3.418720956838821934e+00,7.168978329931059434e+00,-9.639302054288055643e+00
-1.552442111895204091e+00,1.262887414967376642e+01,-6.738746659630134417e+00
-4.403486355832056276e+00,1.029481078164397978e+01,-7.084831777568016520e+00
-2.504301071542583301e+00,8.423988994530384744e+00,-9.016798461167198298e+00
2.135982485048495416e+00,1.131537691358444775e+01,-1.117659354364743685e+01
-1.498521749713769280e+00,1.237201399227529741e+01,-1.179840534227476745e+01
2.047042522783305785e+00,1.183187716573481119e+01,-9.958448321334493869e+00
-2.157528097033919678e+00,1.299946891200085375e+01,-8.647903126800079221e+00
1.265229927520225450e+00,3.954623016930030488e+00,-6.666779517557816170e+00
1.554399505856156605e-01,1.139305056448203146e+01,-1.185437562430294633e+01
2.259620106218928060e-01,1.092322397109773746e+01,-1.221962020499271162e+01
8.714023829717473246e-01,1.050875634489082167e+01,-1.229624121861833075e+01
-2.404384746460132671e+00,-1.871660311350070369e-02,-1.116060287840705545e+00
-3.659542398934501506e+00,8.788858782535788450e+00,-2.062366933652774570e+00
-6.226564706425683937e+00,3.207403673992864412e+00,-1.143943436490949317e+00
-2.449571855553004607e+00,1.046096789066241151e+01,-1.037120218481911671e+01
-2.094754306401991784e+00,1.344137389066652588e+01,-1.115866917179005213e+01
3.045398525250738064e+00,9.299948089439155297e+00,-1.202510569048186717e+01
-7.189278802712075964e-03,1.072210005703521496e+01,-1.249672076707714652e+01
-3.627670057490792743e+00,1.062054191932478631e+01,-8.697097234484333583e+00
3.186544704017044705e+00,8.086890050359633264e+00,-1.159239255597355900e+01
-2.207690090801616822e+00,1.322283129226598319e+01,-9.567041949204892148e+00
2.251375223344354470e+00,1.091588486118364365e+01,-1.135334052533766780e+01
-3.941126196571723472e+00,7.952725291504304295e+00,-1.188703590609028860e+00
-1.049016130639862210e+00,1.376592807005705854e+00,-5.399716815945391879e+00
1.711637168109145790e+00,7.694636595728134409e+00,-1.384732825896220554e+01
1.578433263789384089e+00,8.390310201396006917e+00,-7.254226739492699139e+00
-5.501691878498775168e+00,8.460813496250736421e+00,-5.093896391407160884e+00
-2.397218177685067175e+00,4.162694039960237902e+00,3.662898639146285884e-01
3.470846013220280302e+00,8.643779141454556836e+00,-1.245026525134814932e+01
-3.610979739191274351e+00,1.093347973114346772e+01,-7.227433550564039244e+00
-4.068988656425073458e+00,7.543155608032943604e+00,-4.834440710526403673e-01
3.099687193274577979e+00,9.781964533677975027e+00,-1.193831799210788880e+01
-1.539782457834826923e+00,1.368159921679213831e+01,-8.954953952907430903e+00
1.055312367996347866e+00,1.337128738248276250e+01,-9.835548724791273401e+00
-5.020850046220929563e+00,4.943977630221821684e+00,-3.668791170618126873e+00
4.377661522264952310e-01,1.172196504914030690e+01,-1.132920575319933398e+01
1.054529455214966438e+00,1.305883518465038762e+01,-1.011018528198916400e+01
-4.320035178597291470e+00,6.683469893342527612e+00,-5.538969990858653603e+00
-7.206705086193508913e-01,8.317470563852010779e-01,3.109920446737935440e-01
-1.678126412025292558e+00,9.742425274428713422e+00,-1.057876781479839323e+01
-3.313783791418755342e+00,1.011088661698805957e+01,-5.055600012648945984e+00
-3.060042898931536026e+00,1.319336171769259280e+01,-1.076758126133202609e+01
-5.712374271245566959e+00,3.076425765558828740e+00,2.175281425718049999e-01
1.203637810855539975e-01,8.970084003003661266e+00,-5.894517627147377148e+00
-4.595822523713377628e+00,3.784211227503926800e+00,1.100218525486943211e+00
-2.814919353772021182e+00,1.055015037024743307e+01,-4.988620854747131794e+00
-3.002247363900187427e+00,1.159310234928916650e+01,-7.040333136506865763e+00
-9.075689759992504602e-01,1.070454758792483752e+01,-5.385083838708365711e+00
-3.691160444665375184e+00,7.463495166629441790e+00,-7.935064984323830783e-02
-6.908068747096328011e+00,4.113764325995914461e+00,4.960478069016352465e-01
-1.059459968518460915e+00,6.081372428247710182e+00,-2.507992825960129402e+00
-3.387827781790792692e+00,1.128870064185191069e+01,-9.451826703380106665e+00
8.783043410231174131e-02,8.666726439542353333e+00,-5.463278955972596052e+00
-2.211927191533594961e+00,8.554944232702831997e+00,-9.217518919769627672e+00
-2.201711796422258782e+00,1.172093449686231459e+01,-6.094718567328095915e+00
2.411531392839654231e+00,7.468934026917194657e+00,-1.211107667945035082e+01
-3.107699629812677333e+00,1.296853307401667443e+01,-1.050973875867625829e+01
-4.487766473751377383e+00,3.591102926622288027e+00,1.084431114198810331e+00
-9.473143348424364896e-02,1.137250415322318098e+01,-1.195889355666068887e+01
-2.558176372982603031e+00,3.543858605137327200e-01,-3.790106499625361280e+00
-4.049688517221261996e+00,1.542020845033982956e+00,-2.573296236359629674e+00
1.847106474281223543e+00,1.164110041149749897e+01,-9.730668394196190008e+00
1.359587450639393902e+00,8.467713599760198662e+00,-1.368981488862774398e+01
-4.327003651551696528e+00,9.467060436027441739e+00,-7.200997362121458245e+00
-4.733583095550663700e+00,2.807924812741592113e+00,5.486021744977551823e-02
-2.390365482611036096e+00,-5.226100997752011201e-01,-1.288511739240364884e+00
-2.921486955356369819e+00,1.070303040452334287e+01,-5.458136511264133794e+00
2.887969632708131673e+00,7.526565537854919441e+00,-1.091680587148858272e+01
-3.138105068907139472e+00,9.682605383871115023e+00,-3.406950096904165282e+00
7.413902814344316416e-01,8.976810217385624568e+00,-6.389670363611828385e+00
-2.321081657428894385e+00,1.312271974789778639e+01,-9.397799098407871199e+00
-3.388909056075288362e+00,9.426910197290828464e+00,-3.328491873277446444e+00
-3.123901899529433646e+00,1.278807626764042560e+01,-1.090758935996033863e+01
-2.720823727985877571e+00,7.748967672163894704e+00,-1.489039725803852798e+00
-2.559229153467753592e-01,9.974477045064503500e+00,-1.284629409730422189e+01
-3.734156163691019881e+00,9.770929001970371175e+00,-4.706042086499218513e+00
-4.172121977220145439e+00,2.561314569743080138e+00,3.848639041317240550e-01
1.770039394314719461e+00,1.143055750178114671e+01,-1.129708424961938285e+01
-2.834888534276839511e+00,1.023087419547520760e+01,-9.561171745702335301e+00
-2.902068565321773708e+00,7.505075337496586840e+00,-7.933332956882597209e-01
-5.342502654544222906e+00,2.181020372084183201e+00,-4.443396477527890021e-01
-2.038814498552311782e+00,8.557835009782914781e+00,-9.341634412194675718e+00
7.559522497196471402e-01,1.248379962333450521e+01,-1.073411966924104988e+01
1.115291170831695489e+00,9.441674944512289613e+00,-1.302932166538673897e+01
-4.026055083772205334e-01,6.671740455496880884e+00,-1.064183580258437267e+01
3.893926821796511284e+00,9.897994330694311671e+00,-1.101894730372157838e+01
-2.971183668714947768e+00,1.073298751614986912e+01,-9.859374450422455638e+00
-6.640140079425496111e+00,5.426818203965374288e+00,-7.083174186971820108e-01
-1.531341373602353451e-01,7.540523038907933628e-01,-1.666614843547441049e+00
4.105452868256834975e+00,9.238209419842091208e+00,-1.180836967859849373e+01
2.157495268562910073e+00,6.304379143477274461e+00,-1.025496895237892936e+01
3.169438120799711323e-01,1.333738431621934772e+01,-1.023852453716303756e+01
-2.894025345498271840e+00,6.097292883788890450e+00,-2.194990936398589498e-01
-2.757211747606344687e+00,1.237081533555854485e+01,-1.106947067236237636e+01
-1.096501338928151714e+00,7.870342281615340774e+00,-3.560384611113157405e+00
-2.384366070838062901e-01,4.295091873444223829e+00,-9.038674239620059225e+00
2.291579709585385594e+00,5.353825862748095687e+00,-7.735176321023935486e+00
3.146236531509492007e+00,1.083605252691266863e+01,-1.109659143958760730e+01
3.103642926376424693e+00,8.329379936865459300e+00,-1.287854074638520707e+01
-3.336823555897337812e+00,2.149879380832854903e+00,2.511329558319856936e-01
2.863459991841290186e+00,8.384419082276133750e+00,-1.324415257997648965e+01
-2.775000383512091329e+00,2.320070905866765898e+00,8.534368721221737841e-01
-2.170524351159545784e+00,1.294619454268994474e+01,-8.509793806968884766e+00
3.062874036612016404e+00,8.964967960774572475e+00,-1.247928761821479604e+01
-5.877166423906267090e-01,4.402535357850146380e-01,-1.709092367248892685e+00
-4.190290931082486736e+00,1.972320417774225065e+00,-1.456648591716590002e-01
2.618780844939858188e+00,7.588408642299778961e+00,-1.195937836221629880e+01
-4.645064349801715231e+00,3.797633092706719449e+00,-3.070141612643101592e+00
-4.925042722092259240e+00,7.987738566257186257e+00,-3.128907953571286260e+00
-9.654461241171047314e-01,1.332080590160258815e+01,-7.262414230598452036e+00
-1.575675165681818646e+00,1.028863541890422439e+01,-1.104817810492594354e+01
3.430957261765636090e+00,1.068299818783024158e+01,-1.091214133341760828e+01
1.419156563604424548e+00,9.109457251812530743e+00,-1.315888984855996213e+01
-3.929182725324426695e+00,3.342301046174565027e+00,9.994823619318979890e-01
-2.891708842267148416e+00,1.162320440192134896e+01,-6.775011450228899612e+00
-3.438252587482719669e+00,4.414297520885860138e+00,-5.340567535632250618e+00
-4.060572929479770110e+00,1.117376222326797475e+01,-8.596653893908362321e+00
-3.326909405984660228e+00,5.439260838428728873e-01,-8.061573976159901456e-01
-1.863034022060618078e+00,2.538946227769475872e+00,9.715607886179709052e-01
-4.838794908639385106e+00,7.412808102193107374e+00,-1.685411043921472674e+00
-4.409084870045077764e+00,6.391862302193741741e+00,1.300298905979662134e+00
-2.744900428473766585e+00,2.150311103117704459e+00,6.607297034245138700e-01
7.446618901348355246e-01,5.270595806796003480e+00,-1.015702930242738944e+01
2.443678686959775526e+00,6.327489813760558413e+00,-9.307304946109139721e+00
5.532182480106558886e-01,1.206861303212219205e+01,-8.191881336713827011e+00
-4.464263702420119273e-01,1.200563102799235971e+01,-7.014658251261414179e+00
-1.857272268442980157e-01,8.758529414530725532e+00,-5.120661585271413685e+00
4.368141233991382905e-02,1.070918470631528230e+01,-1.235809657295329878e+01
-3.563713087416012781e-01,1.454070785504648455e+01,-8.960149465339094732e+00
-7.007093697546431521e-01,8.465023952991389322e+00,-4.565988561230713394e+00
-3.854781309636571951e+00,9.608693276063908328e+00,-4.364193197957040304e+00
-4.470296504462660359e+00,5.360027573992772076e+00,-4.526253661445198695e+00
-4.764790472339957894e+00,4.938124636707925674e+00,1.990591574713551193e+00
2.005363983884401180e-01,2.913618694810889753e+00,-5.743078601706389286e+00
-1.324508818760923745e+00,1.283181625349223154e+01,-7.295403188029331076e+00
-1.280692365004792332e+00,1.328850938351716060e+01,-7.762114852455550107e+00
-3.227129907941682863e+00,9.146632377991181784e+00,-1.959279368779300645e+00
1.073859204914049181e+00,5.223529199360920749e+00,-9.558591450021486580e+00
-2.720713432005038346e+00,5.143531298137786756e+00,4.957104241751246754e-01
6.124547589501228018e-02,8.541115469407317917e+00,-1.222612519905288231e+01
1.060781587209506327e+00,1.307868508976905986e+01,-1.010627768672119231e+01
2.429260306966797955e+00,8.309128742886651153e+00,-1.331637579560202056e+01
-6.612558826695204006e-01,3.474341513353773614e+00,-7.998228167271130395e+00
-3.577152621137301924e+00,8.661759102445669711e+00,-1.866926793546998642e+00
-4.693731447132540424e+00,6.616289807133617806e+00,-4.781524156055934505e+00
-2.102277137768503223e+00,3.967176239525817660e+00,1.571543886413828695e-01
-5.361980581083750863e+00,2.878444800295377526e+00,4.744215409935794575e-02
-3.847798777518524727e+00,6.307321686849437725e+00,-5.797377195180247078e+00
-2.185503207907590895e+00,6.264563834324113900e-01,-4.203066687098027110e+00
-3.940360206549321287e+00,3.100858357687079625e+00,-3.739571856020291296e+00
2.738531158563045409e+00,1.029713558460132639e+01,-1.001030473385258723e+01
-4.196629676810457177e+00,5.487599213322476466e+00,-4.494178534476376718e+00
-1.229112006881695196e+00,1.329303528986295646e+01,-8.365302680724512996e+00
1.570739607273493821e+00,9.751559993061899689e+00,-1.257529809772170815e+01
-7.331669594506962540e+00,4.473805225907140581e+00,-1.778493564405588812e-01
1.196141979679893108e+00,4.741826549565348436e+00,-4.286443604345413938e+00
-5.286333563754311626e+00,3.622910965942024664e+00,7.665861200627598349e-01
-4.628366431234289813e+00,8.775608357056796649e+00,-4.567354711426250269e+00
-1.182070805499787908e-01,2.413908996337394530e+00,-5.492539664235011720e+00
-2.510556404687240395e+00,3.022722876043034468e+00,1.178413063877268740e+00
2.685070015850770986e+00,8.162105403713786345e+00,-1.304234974159278693e+01
-1.324984317807672340e+00,1.415729065194385328e+01,-1.020643934393575236e+01
-4.073615642367827583e+00,6.105240210528369182e+00,1.490477350850236915e+00
-4.949491165212229760e+00,3.221780136620094659e+00,6.084833890498450026e-01
-1.968955631713446008e+00,-2.570924463680018812e-01,-8.770945487481167646e-01
-3.421158600000842043e+00,1.125250251968347648e+01,-7.710504565971032953e+00
-2.717918887199934908e+00,2.134927074302872541e+00,4.256875048103848092e-01
-3.411053131443092301e+00,9.218617105973436310e+00,-8.005375301530532894e+00
-4.168982619897452224e+00,1.062784020591795198e+01,-7.198374008232196530e+00
-3.318144127109056374e+00,1.314291964085661402e+00,-2.841867722093425752e-01
-2.712493947654539106e+00,1.096210678941277550e+00,-3.883794841714768853e-01
-4.065402431943428152e-02,7.578913970886786977e+00,-4.778641704587203165e+00
-3.902782106065741274e+00,5.630937989329435567e+00,1.250222252771954423e+00
-3.384271675529559875e+00,7.047212097911025097e+00,-6.780953215615804552e+00
-2.756294715253379657e+00,-7.127809244963840829e-01,-1.675905135959753212e+00
-3.594934493069856796e-01,1.058752585938436686e-01,-1.060382102969084084e-01
-3.778934429053951938e+00,3.748181399055197982e+00,-4.223548878699387998e+00
2.925540557860428770e+00,5.851603437978684319e+00,-7.850273248539791027e+00
-6.682582088823799005e+00,4.487967145654137902e+00,9.305129839473081921e-01
-3.127195183419208657e+00,-4.462496857081107438e-01,-1.676557098416188607e+00
5.890443075212058455e-01,8.838581844418797573e+00,-6.257094792341687750e+00
1.878084327815680465e+00,1.107262893305781404e+01,-1.131183077028873640e+01
-4.378478316915873414e+00,7.541788455425018078e+00,-8.028420718821915880e-01
1.106152369124905332e+00,2.950039030794878059e+00,-4.438230345277574429e+00
1.935274241885453161e+00,5.361473364800638741e+00,-5.682575233408106108e+00
-1.192024445910542019e+00,1.337123989315370487e+01,-1.071224735479862034e+01
3.557008282989979758e-02,1.464960123019159788e+01,-9.393782535577257065e+00
5.627555768064204100e-01,5.487284101660260482e+00,-4.050649168741745854e+00
-2.518066387417222884e+00,1.470165378002273204e+00,-4.329993058297419317e+00
-5.202957307915554441e-01,2.227541329932177128e+00,-6.440327946367492729e+00
-5.191171398606901910e+00,6.862616414777308549e+00,-1.168921901041169331e+00
-3.102635835469245595e+00,1.298137295753253362e+01,-1.062542774354642283e+01
-4.772182287131713219e-01,1.856144172992898911e+00,-2.933600890853996224e-01
-2.144841385288685398e+00,4.511559244259016666e+00,-6.815192826662562098e+00
-8.790197534344655894e-01,8.132574886639309497e+00,-1.083236660948960939e+01
-2.366570324074761977e+00,1.169675667758364845e+01,-6.137705861592094969e+00
1.532303796894277426e+00,1.092784316854434223e+01,-1.166090212148899496e+01
-1.912211534488088116e+00,1.104604076598116080e+01,-4.595821481960613575e+00
-3.320636304170380804e+00,3.655952332009879235e+00,-4.801371987475866021e+00
1.732774720121718293e+00,4.511779758201560853e+00,-6.934382390008928532e+00
-6.280749577794239258e+00,3.462905794746721444e+00,7.815930439152921072e-02
-6.536234401078050205e+00,4.984549317661524981e+00,7.219076189996662674e-01
-5.107105834471835415e+00,9.080905599731039501e+00,-5.945400692326511027e+00
3.714398922947323545e+00,7.276383997234093570e+00,-9.468447062371364353e+00
-2.754659332892970713e+00,1.182493370067675853e+00,1.241767152289804943e-01
-4.357756716656753682e+00,3.710253035354994289e+00,1.133551921004292140e+00
-4.078588928765441324e+00,1.042683480707945876e+01,-7.125280655449538258e+00
-3.636549420498192742e+00,1.053688813481146980e+01,-5.587214543878577189e+00
6.675792827405222507e-01,1.188512920033479858e+01,-1.116261580666868447e+01
-1.591255261293976764e+00,6.857636910388690055e+00,-8.935436517645959142e+00
-5.991736395873513032e+00,5.765769486586166614e+00,-4.427784754416481672e-01
2.322333218633152008e+00,1.097199787070106680e+01,-1.130853855091431370e+01
-5.649294314346934298e-01,7.836823987243226597e+00,-4.016350812526253478e+00
-5.343167457400258336e+00,7.542576454870109970e+00,-2.833830525544458467e+00
2.113706133893775152e-01,4.925986203479175707e+00,-1.017362070797590690e+01
-9.768996010578111511e-01,1.302104363361688222e+00,-5.063856124058634833e+00
2.608358853418816015e+00,1.073038063015818899e+01,-1.126196224360239029e+01
-2.059630211496129848e-01,3.127976069427020445e+00,-7.417364595523158854e+00
8.123877522494101777e-01,1.082794138196981315e+01,-1.191479037872060864e+01
2.007347332367440895e+00,8.205295041316201576e+00,-1.361442791702462785e+01
4.880899892795323436e-01,9.603754112518616992e+00,-1.297402331766901007e+01
-2.525398245600839253e+00,2.783922926785250329e+00,1.327443270173280565e+00
-3.100273193755845202e+00,3.857307942701318826e+00,1.471224150713122958e+00
-3.243393253126913400e+00,4.211025514952113191e+00,-5.548316106528354830e+00
1.823043602071353186e+00,9.528222425579343735e+00,-1.271621578538186270e+01
-4.239277763510642671e+00,1.083258105120418868e+01,-8.044174727732000818e+00
-2.189811070552633243e+00,1.974831328920513940e+00,6.833372725465024500e-01
-6.107871467168096480e+00,5.973193600068151810e+00,-2.646839381245386313e+00
-4.871688654609591218e+00,6.560823126902920244e+00,7.971133072197052194e-02
-5.198890618374876205e-01,7.560118973373291418e+00,-1.073230174613901156e+01
-1.614515934086106164e+00,6.714774720523281282e+00,-2.137483749783414044e+00
-6.219828342881283056e+00,4.548036407319591135e+00,-1.798039396169230475e+00
8.443861113135617824e-01,1.019429198196849740e+01,-1.262002542086497847e+01
-3.110947154226241018e+00,5.123761560723000485e+00,-5.915506106781330153e+00
1.571569263331302535e+00,8.933296961166732331e+00,-1.305688350335309167e+01
7.748933341497733496e-01,7.338089016816738308e+00,-1.235567132136260504e+01
-2.490358046840078110e+00,1.356350079545251930e+01,-1.109538877266353119e+01
-6.781809241900998986e-01,1.209836500011289573e+01,-1.171676396167236689e+01
1.769223804667404032e+00,3.591902800778691063e+00,-4.572876902236725272e+00
3.258065762757692330e+00,9.263373684931616836e+00,-9.808936009199497263e+00
-1.954618354028140992e+00,1.293716850008184061e+01,-8.201477474218314967e+00
-2.058465821735127488e+00,7.769373080457444125e+00,-2.309205391611875324e+00
-9.349686345746094362e-01,1.137033867010294053e+01,-1.227069464350282857e+01
2.538941364806338807e+00,1.038794762795539306e+01,-1.164172940740408002e+01
-1.929001256041029677e+00,-1.093543077177670381e-01,-3.863988437561840072e+00
1.071674051357361712e+00,1.167642505256592322e+01,-1.129281099060646909e+01
-3.058943847070278110e+00,9.996451116453651808e-01,-4.873882444700509131e-01
-1.676909897849323094e+00,9.179896973992995868e+00,-3.657685231226610600e+00
-6.986715361197207486e+00,3.459289995010624175e+00,-2.694240511965055873e-01
-5.549326542894638337e+00,5.599921950788756320e+00,1.387717858343709310e+00
-1.391326717402623592e+00,1.235442029286174970e+00,-5.229417298490139032e+00
-2.869240249365426765e-01,7.005834599767807980e+00,-1.065895028383917520e+01
-5.030099430957016615e+00,8.845809973317548369e+00,-4.965590276275142045e+00
-4.575631112923507771e-01,1.063197731835384374e+01,-1.263608100481630814e+01
-4.054810191325266544e+00,1.042493494220231076e+00,-8.976879321972777159e-01
4.046496386908856380e+00,9.304758897003829077e+00,-1.091484876694340223e+01
-5.679374259577345541e+00,6.271341938871519694e+00,-6.622243380726733353e-01
-4.683294201203973273e-02,1.157655820684172276e+01,-7.300150016198296399e+00
-4.864350375833976337e+00,7.109694375644524555e+00,-1.121767584107769666e+00
2.287994059031860594e+00,4.979402733391062874e+00,-6.887729816652301551e+00
1.353873685193473231e-01,3.108735917024523232e+00,-7.024761179867779148e+00
-3.219217800353080694e+00,1.088851393270601697e+01,-6.072647200564061265e+00
2.127378783831323616e+00,8.334739084001199672e+00,-1.348542041311211115e+01
1.245427765475559889e+00,6.769911263925250999e+00,-1.247992490040966729e+01
2.217701955492219490e+00,1.218557578700134769e+01,-1.042015117085525411e+01
-1.055475098058455963e+00,9.878961124798749438e+00,-4.950855941622983813e+00
-4.141539020644541935e+00,2.988310860315724682e+00,7.514647714553249758e-01
-7.282032483607180140e+00,4.705315834402675534e+00,4.058002154598130962e-01
-3.437428349341612233e+00,9.363824225228640330e+00,-8.330887293327860377e+00
-3.022391093542224461e+00,1.208338830402914787e+01,-8.550176289026820697e+00
-2.450076362887754211e+00,1.192844624704942902e+01,-1.110434430046641197e+01
7.914128917970917332e-01,1.819089850117845630e+00,-2.412688219316997618e+00
7.571143118262713134e-01,4.479100850860566752e+00,-8.567136843803220714e+00
-5.886068245038380553e+00,5.621176413687581253e+00,4.232901725238432111e-01
-3.884255214696093805e+00,8.430762403768015112e-01,-9.893536920968122317e-01
-2.175120206968983005e+00,2.107929488898260484e+00,8.158711152368990360e-01
-4.922234185146818319e+00,1.776436125325955961e+00,-7.297670502916150381e-01
-6.480285021949077517e+00,4.681994287551153100e+00,-1.653431955117638408e+00
-5.255879778901243249e+00,6.949866799599818457e+00,-1.524730869708757819e+00
3.068598230985358111e+00,9.545524499543091679e+00,-9.857464071410264594e+00
-4.348703906972550826e+00,6.931997163523245575e+00,2.566123304184464438e-01
-1.994218229690549737e+00,-2.229031668117470444e-01,-8.657849425743898708e-01
-2.233496427048115684e+00,2.651745579057857682e+00,-5.743361638699073346e+00
-1.800710943701057776e+00,3.844663944767418684e+00,-1.962501275945284784e-01
-1.145288035723032838e+00,1.341085694582799448e+01,-7.970086963828090454e+00
-2.721344587301677720e+00,1.220707734459350036e+01,-8.047573314453661197e+00
-5.714242791055687221e+00,4.669623340391085620e+00,1.383183549266578050e+00
-4.731372392669340954e+00,1.843128009734436024e+00,-5.372287235832539087e-01
1.114591820764558650e+00,1.241273883384404542e+01,-1.056607705472248071e+01
-4.752391990668805022e+00,4.601904934942068870e+00,1.676272637351517547e+00
1.190186315221749114e+00,6.690156228722964116e+00,-1.257631658495787619e+01
-1.884985554712051758e+00,1.375864365003038792e+01,-1.001464320023460353e+01
-4.406360307477912741e+00,9.398695868842713352e+00,-5.389887814470356808e+00
-1.825329249780809571e+00,1.334009019554846276e+01,-1.097712805815491421e+01
-3.737099809375625359e+00,5.694939683493216442e+00,-5.794936935460857974e+00
4.200765448784768097e+00,8.224657095712181842e+00,-1.089508444778782881e+01
-3.955673184022653999e+00,1.033762952460685725e+01,-6.289229910913662458e+00
-3.479625384231688212e+00,2.583628733867752825e+00,7.436659540577117422e-01
2.528918990644269726e+00,8.493033945363052339e+00,-1.294823442854705497e+01
-2.410099360510269850e+00,1.291033879519217109e+01,-9.443920099246891908e+00
-1.725370992960105321e+00,4.301867321358724183e+00,-5.178458508343755096e-01
-4.205257163594303016e+00,6.169240765269012883e+00,1.496831593424168050e+00
-3.280797161403071094e+00,1.089732221672257317e+01,-6.488282918113581488e+00
8.838626247938640157e-01,1.207108999125676618e+01,-1.098543632899026612e+01
-4.909294879745990769e+00,2.979778885849093228e+00,4.948585806743439064e-01
-2.654542376119751523e+00,7.746563063736656041e+00,-8.436089267514638834e+00
-2.171753906756116181e-01,1.090234765444804843e+01,-1.229725041823018827e+01
-5.304909656697416764e+00,8.556279915531405322e+00,-4.398788798663004762e+00
1.525941814688781761e+00,3.156199613843936991e+00,-4.266229680687676051e+00
3.409945586427902686e+00,6.939736617695428933e+00,-8.905404940427180449e+00
-5.071198328587668946e+00,6.773895746845526311e+00,-4.876992999679494289e+00
9.763857205016323038e-01,5.814772773671165851e+00,-1.116950173255507828e+01
2.116165557511117346e+00,5.028711949484320876e+00,-6.940334862329783583e+00
-1.598216920494075044e+00,5.384593903565931816e-01,-1.073557817966085820e-01
2.995632948109761884e+00,6.796867201001194125e+00,-9.815637473444249750e+00
-5.950713065645926170e-01,-1.411679562543693145e-01,-3.051760073015110097e-01
2.538076238671910900e+00,1.128741798571696719e+01,-1.094740879080167772e+01
-5.864502883800281730e+00,3.927783558772196759e+00,7.037222370458918741e-01
7.641930434246644310e-01,2.360171321607978712e+00,-3.665289855854592549e+00
-2.462614442937939963e+00,3.357428394016684914e-01,-3.879010559177497264e+00
-1.714531739150506384e+00,1.349956480027656802e+01,-8.891125750247226733e+00
2.990724452631388530e+00,7.147327045711486804e+00,-8.197073493545907752e+00
1.280658154992129205e+00,1.023003658911808067e+01,-1.226818828338736367e+01
-2.757224185310711180e-03,1.005339433645254132e+01,-6.596582753267349553e+00
-3.434739261493074736e+00,2.262380178921387319e+00,3.486107458314233742e-01
-2.369191636087505604e+00,-4.189130601826938083e-01,-1.198621385215798529e+00
-3.106547669827694591e+00,4.797915394364336450e+00,9.131546429843022672e-01
-5.081082239599089334e+00,7.638560257484171778e+00,-2.668706321103168300e+00
-4.980467138286379658e+00,5.134716067953315921e+00,1.909498217229075978e+00
8.219173807238154827e-01,7.917475345672504439e+00,-1.253370019502079735e+01
-4.557725888375370182e-01,8.451761746493178240e-01,-2.467502736784367823e+00
5.971504236279739919e-02,1.102175927454032145e+00,-6.050491589300326378e-01
-4.269220969331982696e-02,5.003911681319520355e+00,-9.655680021418374892e+00
-3.951380889673189678e+00,5.814294600969417637e+00,1.373779282242360233e+00
3.442352047675011906e-01,1.208485443175756480e+01,-1.126278624588136346e+01
-6.444906333954570243e+00,2.999376490638011372e+00,-2.664649321099804569e-01
-1.265594819240752233e+00,-3.589741687236340795e-01,-1.603839989304598923e+00
-5.947243768074987891e+00,5.212351985795403486e+00,8.845947036362805660e-01
4.329285127832526392e+00,9.231895310116639664e+00,-1.184312574127056372e+01
-2.512319702131472265e+00,1.155463230718532230e+01,-6.691451123274370083e+00
-5.635351358922444653e+00,1.926121286642230146e+00,-6.386962744390233260e-01
-2.144400962738946426e+00,-6.956805871690726617e-01,-2.969625108371280131e+00
-5.379138713157533003e-01,5.683722987912883440e+00,-2.934091386822350156e+00
5.095384436083237878e-01,1.391271486908335797e+00,-1.599538836903851902e+00
-4.938481285103978990e+00,4.658803656859720199e+00,1.613815631949685026e+00
-7.543552831518910429e-01,5.898873961224021523e-01,1.027427069197455745e-01
-2.067634398922590488e+00,3.273716428279758173e+00,7.328782419029674644e-01
2.952317380697735416e-01,1.193084342322727842e+01,-1.126201936737736098e+01
-3.479742077022376923e-01,7.938652840145190126e+00,-4.440015843140768581e+00
6.792499223538317477e-01,1.977213810128797711e+00,-3.152707573793419371e+00
3.464770254803386518e+00,6.899313789726821078e+00,-8.674556218317936995e+00
-1.398650214756482102e+00,3.995738060436437866e+00,-9.727211070433039453e-01
-1.107274907963810229e+00,1.337113666735770323e+01,-1.082040195418120909e+01
-1.854195139440798945e+00,-1.941234115004656924e-01,-8.796125650739616830e-01
3.423563148419843216e+00,1.045876060079385006e+01,-1.149570508856066375e+01
-4.520487176939886886e+00,3.871692332726542674e+00,-3.348434036288530535e+00
-4.295525726668773636e+00,7.075989537535956053e+00,-1.289935354034090209e-01
2.527130625056185353e-01,7.224191690625906936e+00,-4.923097098725679466e+00
9.480764065415766551e-01,1.017030997837533413e+01,-1.255427155732024147e+01
2.226071610282631230e+00,5.988008584148994728e+00,-9.162466726645540405e+00
-5.854872228075604923e+00,4.033400001918628242e+00,-1.829778801571535718e+00
-3.878665428596427933e+00,4.725876934948005648e+00,1.632613191775674988e+00
-3.031617809803584862e+00,1.013248938941365829e+01,-9.117976164015633600e+00
-4.244614400142268984e+00,2.634673647239739847e+00,-2.851361426575675484e+00
-1.782611393328869198e+00,2.170897884935856503e-01,-4.032945410141431708e+00
-3.619851515940181175e-01,3.564688839095243367e+00,-8.520898633516912568e+00
1.383370860309232731e+00,9.224095007150939551e+00,-1.321347038873518898e+01
-4.986700452448672216e+00,9.462126048595743910e+00,-6.344073418630930661e+00
6.392996513634702227e-01,1.243646276767449166e+01,-1.082438697288116813e+01
-5.761528870778063194e+00,7.734233666207476432e+00,-4.275169117421956599e+00
3.334537506281741059e+00,7.814611075986403144e+00,-1.105801936328154156e+01
-2.168092016267012312e+00,4.317296346337224477e+00,-6.880065999380171604e+00
2.019580866841880429e+00,4.453627824817727010e+00,-5.840492735407089242e+00
-2.103632249923124586e+00,7.893775532857498778e-01,4.491165928594244988e-02
2.126040953107807940e+00,1.149682277413859133e+01,-1.112775167734531045e+01
8.895888908441421661e-01,7.139680459284917902e+00,-5.618082673360584423e+00
-2.766163229789755817e+00,1.190037683675764235e+01,-7.612460510071199948e+00
-4.006050343007095949e-01,7.966988461217172635e-01,-2.438621690144869181e+00
-3.133279980217246852e+00,1.242305162575678423e+01,-9.634408464678418937e+00
3.890350518522158740e+00,9.851795079502771557e+00,-1.149286186062637150e+01
1.316336982447861459e+00,3.526419632190472164e+00,-4.958734105891871913e+00
-5.448343026739014272e-01,7.226679288580585059e+00,-1.055297131690474544e+01
2.659764515466316870e-01,7.876379450247074310e+00,-5.389384879447209897e+00
-3.525600259291719052e+00,6.893882918256312164e-01,-7.092549403375176809e-01
2.227691271941584450e+00,8.306467069417935889e+00,-1.364228888823159203e+01
-4.676890022712250072e+00,9.538333926129579643e-01,-1.092812303044078615e+00
2.356406422166341219e+00,5.856241654002643848e+00,-6.534746126011331313e+00
3.638641015329637796e+00,1.012895627989070846e+01,-1.080409056110274513e+01
-3.842160266103202826e+00,-1.737227845345620247e-01,-1.661001226184925628e+00
