-8.991202646131468690e-02,-1.926729402692394899e+00,-1.618239790209510476e+00
-1.217117891080663067e-01,-2.968221823580249108e+00,-1.215341269497764332e+00
4.985714339554814245e-01,-1.844316406643352835e+00,-1.298335421182487792e+00
-3.823757308580185699e-01,-1.320259565567299953e+00,1.409131001654970738e-01
-3.672639704080762554e-03,-3.315755152297253261e+00,-1.109343658580838277e+00
8.122936608896439425e-01,-3.080910917034453078e+00,-2.690554580259964523e-01
1.657837239491351533e-01,-3.655371419206809414e+00,-5.057846831136358912e-01
-9.018419915227220141e-02,-2.269650905689202691e+00,-1.610811771830131134e+00
-4.020429414275391022e-01,-2.012880853202102305e+00,-6.411871443208830845e-01
-9.046889448064683592e-02,-3.142551210394206151e+00,-1.317557576993185986e+00
-7.468427039893188457e-02,-2.420787712724053797e+00,1.700187472372552688e-01
7.874980883896036676e-01,-2.888767384884954215e+00,-1.947527976199708299e-01
-3.014603627155071908e-01,-2.316840500925354540e+00,-8.445384668101848513e-01
8.791425442401176182e-01,-3.436681018897406403e+00,-9.809661410862158260e-01
1.989757721757260400e-01,-8.977607445740731773e-01,-5.863193867656208980e-01
3.389625837171427736e-01,-1.297087971413177110e+00,-6.966345674972499458e-01
-4.344816017775258721e-01,-1.614473034647355032e+00,-1.635768405125322733e+00
6.903024455195461151e-01,-2.569153058407538825e+00,-8.366696938306349141e-02
-3.252222152216936446e-01,-1.285809145382405871e+00,1.102122384619147882e-01
5.288903469047788741e-01,-2.037387515701606588e+00,-1.313585754320470533e+00
-1.270835217856805810e-01,-2.979240129213666766e+00,-4.368595837861916631e-01
7.276568312841011354e-02,-2.679660830154071971e-01,-5.686650581429865126e-01
3.291755352053297168e-01,-1.304816254569579836e+00,-1.645949199659746842e+00
-3.737876974172797961e-01,-2.002877992733055557e+00,-7.823109436753608939e-03
-3.349784727590653932e-01,-2.160815698083757841e+00,-1.381973310949407008e-01
-6.392853644667607915e-02,-1.231637973952024234e+00,-1.647665984468884570e+00
-6.895248936230172765e-01,-9.194251904972553513e-01,-6.609010964424643086e-01
-5.388596147591769858e-01,-1.419606204570734720e+00,-5.602412977364225333e-02
-7.020672510197240035e-01,-2.502004609177454486e-01,-6.744457188207844123e-01
5.048121560385222806e-02,-3.687284061167214855e+00,-1.028060827479561512e+00
-2.996224152106792826e-01,-1.182956707315923756e-01,-5.518577624636094026e-01
-2.011247720593540012e-01,-4.753283605658004118e-01,-1.720173911740388473e+00
-3.933460602870116340e-01,-2.000370719962104804e+00,-1.989040711646009041e-02
1.879544504602251864e-01,-3.695811708932213779e+00,-1.151848402424657136e+00
-5.228814728334987283e-01,-1.893757169710472144e-01,-4.244478462415934850e-01
-1.943473294456747602e-01,-3.560730581587612242e-01,3.692462091932220691e-02
3.949881730305707661e-01,-1.614360402859269294e+00,-1.069808005497891568e+00
3.201077873619215253e-01,-1.256481899784589462e+00,-2.280255752494855515e-01
5.058778059283873807e-01,-2.218541445461328809e+00,1.577211286918447641e-01
1.417493956959718637e-01,-6.349390693639884731e-01,-1.713600171466207023e+00
2.849590938459733436e-01,-3.165447692246283751e+00,2.405294822150217948e-01
-1.473177850040983394e-01,-2.912576812492061684e+00,-1.075012688387530613e+00
3.880658168286631460e-01,-1.415804128896082315e+00,-4.830109339861898832e-01
2.556189659688172244e-01,-2.774267013319593467e+00,2.106145855998163563e-01
1.952930795979569700e-01,-8.754019079709847162e-01,-3.556868690806301858e-01
2.462005310086671506e-01,-8.145037149879000848e-01,-8.352544899050754479e-01
5.250339910867986987e-02,-1.511534265511115915e+00,9.913985943487532704e-02
5.905910004163675842e-01,-2.311714648558333973e+00,-1.235729868406483911e+00
-7.451911580271924906e-01,-5.806883116771502928e-01,-6.044200029625094311e-02
7.259390061719144249e-01,-3.588546142318113752e+00,-1.331293391735357323e+00
1.872018196918369681e-01,-8.006646266492604136e-01,-4.746225980684194434e-01
2.405862429454944107e-02,-5.216526417921046183e-02,-1.875092660273685041e-01
-3.159638494382285834e-01,-1.319154424396384195e+00,-1.665050814820562275e+00
1.123111412907004947e-01,-9.280427606758087089e-01,-1.687442412108627554e+00
-3.025908750660792901e-01,-2.275656646000112637e+00,-1.903078985926300870e-01
6.192630731288771562e-02,-3.650924376755679379e+00,-9.772729188768718434e-01
8.850491834797260537e-01,-3.341553421600435225e+00,-9.413563486621859822e-01
-3.734160667191575578e-01,-2.072411323525842064e-01,-1.201378326627195348e+00
1.710369195078591531e-01,-5.943928961693162316e-01,-2.495288513338612679e-01
-4.162882922179255568e-02,-3.246286040499319903e+00,-8.142946552912767588e-01
2.227189726181745544e-01,-9.330143990052182090e-01,-9.988738566817256803e-01
-2.322696612826089524e-01,-2.517281554339135141e+00,-1.548424574191710201e+00
2.776308344690716079e-01,-1.016363933762890914e+00,-1.491523432062258125e+00
2.689529549841764289e-01,-2.127295289848972093e+00,1.588655587362018118e-01
2.955373285125262872e-01,-3.606345957486126075e+00,-2.580052371743311590e-01
2.885859293009163801e-02,-3.511747382862214995e+00,-1.174923975383207697e+00
6.426455122298102562e-01,-2.490306616357050196e+00,-4.466049910858908012e-01
-2.970743149733460209e-01,-2.439522767743133258e+00,-4.640418812984629660e-01
-5.616319956358538645e-01,-2.731450791214434792e-01,-1.011882382251032553e+00
-3.775681414632496291e-01,-1.973927102986063442e+00,-1.458172340374176645e+00
-3.420260381075072575e-01,-1.504565532627230029e+00,1.246629447407974628e-01
3.643682042707700047e-02,-3.523220948866601088e+00,-8.594880530622911463e-02
-3.870235269865974215e-01,-1.980686252065271935e+00,-1.026858792486769145e+00
-3.075122928892847773e-01,-2.272355347390413893e+00,-1.082526454269068017e+00
-1.784227642588275264e-01,-2.740082067141055955e+00,-1.196947174486616028e+00
7.821845860315399523e-01,-2.971950450604089244e+00,-1.293273959501915371e+00
-4.358919470475110525e-01,-1.673125416966368517e+00,-1.466851672207656332e-01
-6.323930632971432042e-02,-1.716175130051889264e+00,-1.633848445671532534e+00
6.260821258298397973e-01,-2.479981095426467608e+00,-1.477104305874680890e+00
4.917974019002711028e-01,-1.893022200828548440e+00,-8.443309121319156896e-01
-3.656633296821671375e-01,-9.069683297989151738e-01,3.653608527967047021e-02
-3.016660567923329928e-01,-1.783119437642214145e+00,-1.578981078581496611e+00
-9.076399450098653413e-03,-2.773225250825347654e+00,1.990892979924435702e-01
-1.923227575910583242e-01,-2.619269765018573448e+00,5.544784616477159422e-02
-1.355903513027215679e-01,-1.059172765919669246e+00,-1.704284877227605355e+00
-3.770934853180707425e-01,-2.028881660600801329e+00,7.656153330876569463e-02
-7.676300624692453112e-02,-3.088905382293838819e+00,-3.869623842436974437e-01
6.168545082211082109e-01,-2.216102251753801600e+00,7.382049358572229103e-02
-2.064866677616742086e-01,-2.754445676056914039e+00,-1.258549621561483756e+00
-5.666682022714591982e-01,-1.288663713110233200e+00,-3.578393472423280208e-01
2.366229194405787550e-01,-1.013571773244010377e+00,4.112102319312379434e-02
1.780149643397669623e-01,-7.686687732275491181e-01,-3.624301797919051160e-01
-5.294081180300747036e-01,-5.745125756432151176e-01,-1.732643749896547680e+00
3.202525638183392753e-01,-1.312247319109981714e+00,-1.489044164344401344e-01
-8.892116328470028863e-02,-3.063069214885661751e+00,1.742376031381236423e-01
2.239630969921746484e-01,-8.477625152112219231e-01,1.236924182758848863e-02
7.049171203940456376e-01,-2.685686800990452650e+00,-1.346499304559546362e+00
-3.351658359813974863e-01,-1.582957426318911454e+00,-1.639939173283271323e+00
-4.897444267809086815e-01,-1.317479033872178018e+00,-1.675932033181986247e+00
3.950301136194546148e-01,-2.099671246934280422e+00,-1.627885065692592725e+00
5.264114266225503602e-01,-2.090810687201559936e+00,-4.097798834158244280e-02
4.325230487123433165e-01,-2.787261302310659161e+00,2.337369036439109760e-01
-7.993367022628712348e-01,-4.093404818442439863e-01,-4.531172780175137804e-01
-5.912512768332939261e-01,-1.176575195801929707e+00,-9.118977549485635103e-01
1.728239539211838538e-01,-7.932127698033185625e-01,-9.707204940389162484e-01
-4.393430099312622406e-01,-1.715417666973231725e+00,-2.508935759130846987e-01
-4.939090522127008442e-02,-1.747895260211246748e+00,1.221722311363347552e-01
5.227603454031249930e-01,-1.818495508208910483e+00,-8.268415302795352195e-01
-2.135276418784947949e-01,-2.726211999091256999e+00,-8.638007273328195401e-01
-2.673342051224782967e-01,-2.476343346445471383e+00,-1.358313598434847336e+00
-3.500422852435420840e-01,-9.821847893368771398e-01,-1.691816941270672059e+00
5.314377941955827911e-02,-3.615263156440824410e+00,8.816970604962774682e-03
2.851257657770461251e-01,-3.593459131824983110e+00,-1.095955409174865641e-01
9.054002978484716746e-02,-2.101485270326858279e-01,-1.643519287515623706e+00
-2.133753753201371728e-01,-2.296104560715630072e+00,1.848062083456867011e-01
-1.989712580857908031e-01,-7.041100454279282106e-01,6.180592738888475435e-02
-2.699138514717601134e-01,-2.308254847464052517e+00,1.852403850039868738e-02
-2.512876296417780320e-01,-2.485737384066092126e+00,-8.313987425173968715e-01
-1.311948402309094375e-01,-1.553892544398935316e+00,8.881955231703821119e-02
4.277681293411963459e-01,-3.300969476463436525e+00,-1.508481660053519136e+00
1.855371246113561856e-01,-3.646705337580910200e+00,-3.500157557784018825e-01
4.406815329351876920e-01,-1.576128960253466715e+00,-7.140144490399406019e-01
-4.962752712712563408e-03,-4.732798749193074528e-01,5.737338900206127336e-03
8.276640961891390535e-01,-3.054975450150667626e+00,-5.807552163706939385e-01
-6.560933241438878794e-01,-1.061741365812403970e+00,-1.151682573760982820e+00
6.669408231861473357e-01,-2.407370058678787395e+00,-5.354141420236778748e-01
-3.868904064432615586e-01,-4.908145920049207800e-01,2.464012716628279781e-02
3.962342892477405121e-01,-1.517683294962150820e+00,-9.716393365988171826e-01
-7.077317321585911980e-01,-8.095809998431386934e-01,-1.690498105097069104e+00
3.337011080331667850e-02,-2.430160318092211003e-01,-1.646768469581484817e+00
-5.731063345517430907e-01,-1.210081195843433877e+00,1.030988667052786141e-02
7.950312529395707761e-01,-3.004202983160295659e+00,-5.086112385798473579e-01
-2.271347256329821485e-01,-1.134183292080543914e+00,-1.669416076108896974e+00
-8.204591707326591710e-01,-2.749022256248505602e-01,-9.114901293721444642e-01
7.649860447607188529e-01,-2.910257250209101532e+00,-1.286293505089511680e+00
2.969916712036413386e-01,-1.244183209371721333e+00,-1.476206156285245541e+00
-7.858063663554362144e-01,-4.436446851286215964e-01,-9.639549219256229318e-01
7.267842227643748210e-01,-2.889821704852522100e+00,-1.516737176931316489e+00
6.508847214874556586e-02,-2.270620231359748775e+00,1.788050580815646329e-01
1.587641806704953029e-01,-6.151527919467426608e-01,-8.985490573730297026e-01
-1.979149980247524032e-01,-2.673357350942672905e+00,-1.488005784159007305e+00
-8.010553054046327670e-01,-4.828648775591245501e-01,-1.389111002063749822e-01
-2.272036939171654391e-01,-2.580227597872849721e+00,6.273043485908903760e-02
6.736784438082866755e-01,-2.536642104811882348e+00,-5.450779156003643378e-01
-3.339651383271259322e-01,-2.097349150365247272e+00,-3.023545186606313995e-01
1.418646547818839532e-01,-3.619494726913712768e+00,1.409252516057205862e-01
3.841259099071925309e-01,-1.483705414771907760e+00,-6.532693690765729588e-01
3.164671681851714546e-01,-3.631132309590791696e+00,-7.480812662550760939e-01
-4.052460219805494313e-01,-1.943834958561092563e+00,-8.808441749379651853e-01
8.907711463568215304e-01,-3.450404076743416759e+00,-7.164730672626149488e-01
-2.539763016993120126e-01,-2.417614511521568588e+00,-2.713236466111315082e-01
-3.413092469105437621e-01,-4.494906571375870685e-01,-1.761509158775680151e+00
-5.275632526668524447e-01,-4.658128790018726817e-01,-1.734412611707091045e+00
-7.221421524070795184e-02,-4.211495274246659926e-02,-6.382196165711250258e-01
-4.576674149937715597e-01,-1.263359347326372895e+00,-1.654014322790099190e+00
-8.011471352183955341e-01,-4.587088063646213576e-01,-1.609029206325105932e+00
7.482662018560243267e-01,-2.852873793222135301e+00,-1.214824041140214028e+00
-6.268402502659046194e-01,-1.102173574730316075e+00,-6.131315883252546062e-01
1.019650562657324622e-01,-3.983100367042747836e-01,-1.554133712052031102e+00
-7.481373316047849886e-02,-8.504200298642835554e-01,4.531650283334422852e-02
3.692032180611452830e-02,-3.503726796152158762e+00,-9.491037051380359912e-01
9.182630930532723612e-01,-3.539718621197541992e+00,-1.372934533248636013e+00
3.133494803198907941e-01,-3.592790812123352939e+00,-6.038040405795920273e-01
8.349800384946577392e-01,-3.149919799381390551e+00,-4.991477899830286669e-01
-3.417471887786233675e-01,-2.124891502451391911e+00,8.509708798713729039e-02
4.923425800273063535e-01,-1.817399076437093974e+00,-4.250890980593093893e-01
5.101043676081857825e-01,-3.549544115393839405e+00,-5.985482586003445515e-01
-2.010455264066017544e-01,-2.750324103493747785e+00,-1.163794194168367158e+00
5.147057688328797731e-01,-2.086764665074186897e+00,-8.412721240318841165e-01
-6.726184934554184647e-01,-8.494006130469718974e-01,-6.369185564532922061e-01
-6.057306217134967863e-01,-1.180371916465148496e+00,-1.388393881232096838e+00
7.980002843882635574e-03,-2.136927498122811464e+00,-1.584030441618611063e+00
7.141443701961111001e-01,-2.648494177039118824e+00,-6.873057364547934256e-01
2.962448747434883733e-01,-1.098640478153555033e+00,-9.169778102534009712e-01
-4.538463852176738422e-01,-1.629573090147381054e+00,-3.195316026518035812e-01
7.174271490755522729e-01,-2.772465929834992959e+00,-1.498280642232756144e+00
4.852287862387865552e-02,-1.887424142389380333e-01,-5.158185550386035212e-01
-3.741803663977329997e-01,-1.931322670597779734e+00,-1.469341106411191422e+00
-6.138467169710579707e-01,-2.598830898700960068e-01,-1.129868387273033070e+00
-6.747867976349756214e-01,-6.591660718874537972e-01,-1.737431219142321348e+00
2.042129841380286581e-01,-8.681747728435783573e-01,-1.091807962810283916e+00
-1.630235060100088951e-01,-3.251621854597729760e-02,-7.516774425203401333e-02
-6.088454442495800506e-03,-1.020036369926756309e-01,-1.392696770654979099e+00
2.023541861587109525e-01,-2.027066988838963191e+00,-1.651384792330226281e+00
3.212485221574113980e-01,-3.653851561300098805e+00,-1.333530745890691982e+00
3.177019070393600209e-01,-1.179183529312264334e+00,3.610151995179491230e-02
9.858859018315191403e-02,-8.367791970700140247e-01,-1.704666964815036767e+00
8.330609195338550821e-01,-3.069429046062342348e+00,1.632276905109805443e-01
-4.099042525788891556e-02,-2.042552934742834836e+00,1.607829560358851051e-01
-5.640211417420180062e-01,-1.238402399845849544e+00,-7.072952812706093662e-01
-5.384133530739274587e-01,-1.449135027563617450e+00,-1.137219466970774917e+00
-5.893158482235699713e-01,-2.781869813338002095e-01,-1.720854921786205471e+00
-8.182229606904801722e-01,-3.493750578627677905e-01,-7.598807438369993283e-01
-1.781668790459526031e-01,-1.612493063690217054e+00,1.409850834557046795e-01
7.952270092220402320e-02,-3.718593247742603136e+00,-1.149114833208402686e+00
-3.153055065961657411e-01,-2.307485030743647414e+00,-1.530928663419889091e+00
1.529676195800225421e-03,-3.345627346912880107e+00,-5.611567341169811929e-01
6.036478093757189356e-01,-2.188008326085919997e+00,-5.984531331661292475e-01
-6.407979734285239592e-01,-2.038196798817940303e-01,-6.771059259273878306e-01
2.238035404754455948e-01,-3.686297240087140104e+00,-1.193257948583459793e+00
-4.879650214073849579e-01,-1.294991303169048535e-01,-3.002870164319139668e-01
7.519380003519188227e-01,-2.850950529023016600e+00,-1.483160742783370623e+00
8.736149518064652009e-01,-3.368958184847536064e+00,-8.789829392908651284e-01
-8.867116927748366906e-02,-6.624394107226844186e-02,-6.482932847801857745e-01
7.556879113647154700e-01,-2.860614796940660121e+00,-1.501304127549184297e+00
4.965721286973887594e-01,-1.880970434337443598e+00,-1.249451240926501727e+00
3.750936068951091218e-01,-1.509607402217169936e+00,-5.123367242502239183e-01
-3.522353612390477506e-01,-2.083418207932655086e+00,-8.957786228460666855e-01
-5.434562323082809954e-01,-1.486059264132824520e+00,-1.477781278978279045e-01
-2.988806419267083792e-01,-3.404011542378968525e-01,-1.727950372846003502e+00
3.048113766883028264e-01,-1.259983590494919925e+00,-4.459486263926785155e-01
-2.188622976734515280e-01,-5.696541317812124916e-01,-1.726303084937202081e+00
-5.552226514421700065e-03,-3.260351510267125441e+00,-3.588575046698498916e-01
2.048840908414799322e-01,-9.072820383778649189e-01,-8.512322185671801211e-01
-4.086575942385336502e-01,-1.676540298008577512e-01,-5.873794152060131113e-01
2.387607004055252724e-01,-9.376542909301586182e-01,-3.929969512906120871e-02
2.718006873882208851e-01,-3.636729755243764295e+00,-3.208363327161237732e-01
-3.341966102704152508e-01,-2.082549695961042779e+00,-8.316249783532491113e-01
8.275123237735537707e-01,-3.419853191624244726e+00,1.721836365228217036e-01
1.485137152787046888e-01,-5.631009468062472267e-01,-1.716775843790797895e-01
-4.901463853163191831e-02,-7.970756230529156827e-01,-1.710494647518724820e+00
-1.222459020601198224e-02,-3.459052849820934306e+00,-5.482062157506973898e-01
-1.585685218747064917e-01,-1.425480913659603055e-01,-1.217574313248270368e+00
7.643222286196533766e-01,-2.973240345785552741e+00,-5.665126825561894730e-01
2.803028425989563810e-01,-3.641334796437601273e+00,-6.753904147099137889e-01
-6.884051915573730085e-02,-1.889934348435447609e+00,1.658241997927531186e-01
-5.469122996486376342e-01,-6.933784223585146567e-01,5.975823906089768045e-02
-5.318635962593470240e-02,-3.262938744527920765e+00,-3.417749900965789955e-02
1.653283970544431603e-01,-6.026916865326331640e-01,-4.288125046350958064e-02
-2.406836853052606584e-01,-1.726872816198464333e+00,-1.628374987202733992e+00
5.937984287834991992e-01,-2.391012358781987590e+00,-1.224280829205128818e+00
-4.045716222735599721e-01,-1.888775186146432805e+00,-5.171937854803437817e-01
-8.238365168468533284e-01,-2.874391833327121781e-01,-4.878310397822273325e-02
-4.593210339554671950e-01,-1.506200580317933913e+00,-1.662810507498314161e+00
-7.584786137700089137e-01,-5.886446144652373036e-01,-2.438458889787603334e-01
-6.743728386780404316e-01,-9.078736899502026780e-01,-1.449185674088618425e+00
3.567323244109202318e-02,-3.534895501857083122e+00,-1.563529220659739816e-01
-4.550552633731921870e-01,-1.775463034756262326e+00,-1.181471543829010873e+00
-2.573663169272797074e-03,-3.556942508256575319e+00,-6.697393612730945245e-02
2.794431691705286103e-02,-1.879683114918631270e+00,-1.621704642927539020e+00
-2.823574051916317162e-01,-2.416975537982423372e+00,-1.072804428059652704e+00
3.350768032106624661e-01,-2.571692205048880631e+00,-1.540553380132007044e+00
-1.381252943316752836e-02,-2.021927243169637303e-02,-1.368693187077809625e-01
6.014924273886903539e-01,-2.812394803887335204e+00,-1.551852173615096753e+00
1.580393244910493489e-01,-5.373557171390295206e-01,-3.459478464802671627e-01
4.652218984657707224e-01,-3.530081861660903098e+00,8.087943732987011580e-02
8.096053282328870004e-01,-3.024150857542140525e+00,5.485071160639480581e-02
3.545927266218532603e-01,-1.359789096488178917e+00,-1.518109792176461692e+00
2.305848496084872065e-02,-3.495019363066537377e+00,-4.430925123306045932e-01
-2.465646709082855992e-01,-2.657372807027019057e+00,-1.050518468272524375e+00
-3.292125413747964968e-01,-1.579776140361274783e-01,-3.036703728627940940e-03
-3.146315992215014679e-01,-5.295316680325387049e-01,-1.720763534340625567e+00
4.459064845152128087e-01,-1.813298744622423797e+00,-1.572313441322309435e+00
3.308093734077015013e-01,-1.265938360663512174e+00,-1.498936016954093287e+00
8.884251483796102855e-01,-3.466513575328904473e+00,-8.882423739914980798e-01
-1.204961272380541681e-01,-1.293735125856881052e-01,-1.223445566042187460e+00
1.685264776843628243e-01,-7.234374156631342423e-01,-4.432214937819509842e-03
-3.798942456991730859e-02,-3.305645717910259407e+00,-3.544194868199774251e-01
1.978186820245896593e-01,-2.256987925716480881e+00,1.895359569501745001e-01
2.449690887045211374e-01,-1.964482443555973346e+00,-1.595978601830211785e+00
5.826172959249574512e-02,-3.579297430510484990e+00,-4.252100178393607433e-01
-7.852711559598580804e-01,-6.016594458708606208e-01,-1.716716133127121457e+00
-3.041254004858138238e-01,-2.284233211448289502e+00,-1.157120399909568498e+00
7.812381742818476082e-01,-2.876602401577025958e+00,-8.844941580067805509e-01
-4.971089661868411946e-01,-1.582994047147810557e+00,-2.157446465638097055e-01
-4.031389460423859816e-01,-2.009528895339810717e+00,4.391768753378372941e-02
3.963149427518313228e-01,-1.845830260730542349e+00,1.896884038146928464e-01
-6.756097560667132518e-01,-9.367239743524300444e-01,-3.255562986096252054e-01
2.177795520496776382e-01,-7.909530180010286848e-01,-4.354482327822429832e-01
4.988247139647776322e-03,-9.594406611418712649e-02,-9.688348307737552068e-01
-7.948260931246849958e-01,-3.546632456086243890e-01,-3.084829246563737248e-01
4.893558330614303786e-01,-1.895146116768573252e+00,-1.036951821810745633e+00
-5.864436750564410161e-01,-3.202255519501404080e-01,-1.696685529929977898e+00
-6.210499813327714502e-01,-1.147685781903733160e+00,-3.436112896179436826e-01
4.450857605768033798e-01,-1.790770675386877286e+00,-1.013025531547247615e+00
3.651417866487313146e-01,-1.337861877351666839e+00,-1.571111135985016505e+00
3.311483571832790629e-02,-3.231191911383770599e+00,-1.510333242782176510e+00
-7.115114415312897567e-01,-7.468732365865428102e-01,-3.364115527249868509e-01
-9.927027135353165554e-02,-1.555787197863608196e+00,1.064463671085355834e-01
-3.051023803131008155e-02,-2.923240142763372518e+00,-1.536098420003189524e+00
1.954655981113724850e-01,-3.610240925588877214e+00,-2.426175124422962626e-01
1.748943335930167320e-01,-1.386204297097356708e+00,9.230313895789485357e-02
-5.803389355352808199e-01,-1.204644363290476416e+00,-5.623458602709725529e-01
-7.054373506367418722e-02,-4.735208349101493325e-02,-5.524606695128252420e-01
-8.619238446831180983e-03,-3.346609637917723035e+00,-1.499778122502885225e+00
-1.170448088594477493e-01,-2.983175330775797107e+00,5.926355627120052233e-02
-3.608406883900026063e-01,-1.426749440872636110e-01,-3.792535710513055269e-01
5.456705261565039100e-01,-2.037167540989491599e+00,-3.007830782585384499e-01
-7.722673664440014019e-01,-2.137349188213659712e-01,4.164201397159851548e-02
9.101733562925662380e-02,-3.624997502219740930e+00,8.647190352497668986e-02
4.114662638386243354e-01,-3.673784648558062749e+00,-1.328118065858542751e+00
-4.521445120975082221e-01,-1.842134446433182582e+00,-1.592959564823731800e+00
-2.960492685274948022e-01,-1.576337203231334527e+00,1.056362460721106816e-01
4.288501289086272261e-01,-1.704203234823754576e+00,-1.011781730930528811e+00
-4.447751957129265632e-01,-1.593356966882109482e+00,-1.669003975490771952e+00
1.332445501212196348e-01,-4.704511274598284221e-01,-1.280774206870714416e+00
1.555363016541136401e-01,-3.705407648057513104e+00,-1.105347583191614191e+00
2.851608029648833309e-01,-1.117199148964451716e+00,-6.732869787201967160e-02
1.951799990505511673e-01,-6.931892557160560520e-01,-8.923912673818412689e-01
-3.527391374264417512e-01,-2.218619220633755607e+00,-1.262368205755410644e+00
-1.182929804942145641e-01,-2.971476019144597913e+00,-1.300387313789259425e+00
-6.891447678857234305e-01,-8.287700694134619850e-01,-5.961220623214349978e-02
4.731975522696685310e-01,-3.372888959579804169e+00,2.941509304904189603e-01
-5.931449525216295759e-01,-1.265699998524836944e+00,-1.004351937010484086e+00
5.889856468668752676e-01,-3.582658853390393361e+00,-9.427813463572699559e-01
-2.114339646632470027e-03,-3.325040200583828209e+00,-1.312681779399444304e+00
-3.494206168653896799e-02,-2.448493812096567357e+00,2.083632316818702646e-01
2.842962264398861127e-01,-3.582573505736205366e+00,1.783293480909531326e-01
1.012633530952968403e-01,-1.619840693371176643e+00,-1.617690530391291848e+00
-7.950431735722995885e-01,-5.280129740619473599e-01,-8.648090243392040355e-01
1.614351908166449245e-01,-2.740348941805050842e+00,2.089909238639852673e-01
-2.937842941878037739e-01,-2.311734016312969153e+00,-1.192225218284862776e-01
6.116164469511291973e-02,-1.833563546880041750e+00,-1.636089265080563182e+00
6.671747544842148159e-01,-2.549886955120714838e+00,-1.451731292978715615e+00
3.691973991722571902e-01,-1.381026305830351131e+00,-1.396304647003476562e+00
-3.657195035967467645e-01,-1.162069739575100957e+00,-1.649412266197320953e+00
6.115214688356802597e-01,-2.309069008980155768e+00,-1.350889201361678560e-01
2.660221988847162253e-02,-2.967272575284523484e+00,-1.533566884301528654e+00
2.411636259544453209e-01,-9.954355586029887126e-01,-1.301837361774941471e+00
-2.693658572605031609e-02,-3.265172884485433524e+00,-1.524600622671737682e+00
-4.905876209688257716e-02,-1.695897937556858581e+00,-1.621199912846701396e+00
-2.851224029554473849e-01,-2.252571436316026077e+00,3.267247032635932358e-02
-4.374275956199110554e-02,-2.881320483505124486e+00,-1.558061190966024023e+00
3.230535860475334253e-01,-1.075968301180604714e+00,8.297249008870584419e-02
-7.233667761648066019e-02,-2.650596052007400116e-01,-1.758883959316743573e+00
3.969716025274786508e-01,-1.449409803642372374e+00,-1.968920664073243662e-02
-4.613125800925829134e-01,-1.620228704309792267e+00,-6.164388645393458210e-01
-3.296293173625810535e-01,-2.126168768396933917e+00,-1.382270067371764721e+00
-1.026939533005465088e-01,-3.106033142082443632e+00,-6.772902073594669892e-01
-4.511523269863804142e-01,-1.700713843529670477e+00,-1.502106352388748123e+00
8.475530369334152159e-01,-3.146063563130251151e+00,-7.215586974621608363e-01
-2.755203016390249116e-01,-2.385239850418528373e+00,-1.183886359390497578e+00
-1.602440510225325021e-01,-1.164506413657006717e-01,-1.357246202188693074e+00
5.977014904373157966e-01,-3.544258083695051020e+00,-6.580791171663749051e-01
-9.101658338347019123e-03,-2.025540742602744970e+00,9.199686796392944621e-02
-5.392271514256342657e-01,-1.396243483094393278e+00,-8.365616888641698168e-01
3.348325256644557046e-01,-1.261481578163217154e+00,-6.952451903788555709e-01
-3.175745533840835799e-01,-9.620773813544249986e-01,5.836868448011588856e-02
9.028531884135323482e-01,-3.424389014790991226e+00,-1.161482099646962363e+00
7.405037839943104938e-01,-2.790413165964102937e+00,-8.519464224298008981e-01
4.139929774842682209e-01,-1.604309406848601682e+00,-8.547948149021250552e-01
-2.683986209623566710e-01,-2.449624191077269142e+00,-1.534570470431226408e+00
-4.341085556557895686e-02,-3.164302763963455334e+00,-5.206827301144095754e-01
2.281406402985537984e-01,-3.084043228293121608e+00,2.230526110063629774e-01
-3.084595348051953345e-01,-2.298101730447136060e+00,-1.111474364497248235e+00
4.309848388310056344e-01,-1.598066349680027587e+00,-1.202663119773493383e+00
7.980616517414450550e-01,-3.101427404724545145e+00,-8.055259478066825185e-01
-4.589824737658143028e-01,-1.642367906277367506e+00,-1.604848224071110829e+00
2.776395696318136874e-01,-2.644007593446931814e+00,1.823043933774073921e-01
-5.046029888941360175e-01,-1.519132340166014172e+00,-3.520446165883292511e-01
-4.151941672868871280e-01,-1.843229321932506881e+00,4.221215756591117224e-02
1.753117502296299701e-01,-3.165440943645410066e+00,2.247340048669088652e-01
-2.222721008836116008e-01,-2.674024677437829567e+00,-1.440672789981170432e+00
-3.550330627190667609e-01,-1.122612975587657658e-01,1.425744170895408211e-02
-1.937496740994564329e-02,-3.242594441211866574e+00,-2.238690623582680894e-01
9.289012369454632823e-02,-3.768201375743482351e-01,-3.191605945936321631e-01
6.533830106804482812e-03,-2.410004958815027631e+00,1.973285370653165283e-01
4.063711427661811926e-01,-1.506972287331377558e+00,-8.210217690414355340e-01
-6.781569000173542916e-01,-8.263817335593502955e-01,-1.029756732995295021e+00
-2.805358647241771447e-02,-3.291455482153051726e+00,2.372909823307809696e-01
2.522477366845412572e-01,-1.976388783220150991e+00,-1.610121208816206684e+00
-4.707046995325782357e-02,-3.312329156193807300e+00,6.396466385818812272e-02
4.036732609208929512e-01,-1.788824000799415614e+00,-1.623785701234637058e+00
-3.617957356866539076e-01,-2.168935038104290669e+00,-5.710222680130720985e-01
-4.629844699199035518e-01,-1.751555500555984857e+00,-1.090639624229873927e+00
6.451410145628528880e-01,-2.460338247572341874e+00,-7.913278848649895059e-01
5.133712716307547996e-01,-3.574790320099647367e+00,-1.491408526478572139e+00
8.424830355408906568e-01,-3.460260539977022987e+00,-2.740813481380973693e-01
-2.049528290102069772e-01,-2.656327989619757801e+00,-1.207322882024548516e+00
7.562792547301801227e-02,-1.687781139625248172e-01,-6.004890234960331696e-01
-5.804485150555024342e-01,-1.314734649658003462e+00,-9.082805921513856795e-01
4.625085516455293977e-01,-1.725079011485685543e+00,-1.357066897775569325e+00
3.623928558036529357e-01,-2.649071311351111735e+00,-1.574981536290189332e+00
-4.701623318756894543e-01,-1.662966470942266739e-01,-6.108634429378436703e-01
1.558360468089440287e-01,-6.350542822775696594e-01,-6.082016868492102768e-01
6.038284507243020238e-01,-3.345942035440077511e+00,-1.531023487430758001e+00
-3.669092593959230597e-01,-1.995634533001063415e+00,-1.413525382381236373e+00
-7.135503776285894162e-01,-8.235218601244865821e-01,-1.578601067544327385e-01
1.789024723438490949e-01,-6.400999236460845898e-01,-1.621319876317248054e+00
3.381554785459491008e-02,-9.557342509730319957e-01,6.350795375055555414e-02
-5.319499757345282909e-01,-2.525214364666381606e-01,-1.468744124806022233e+00
-2.292710412417336696e-01,-2.560294974083488384e+00,-7.869449509496015960e-01
-8.293092920693244663e-01,-3.219572842508918176e-01,-9.265726874092992116e-01
7.078599757143660964e-01,-2.638997455966471062e+00,-4.771066228058700176e-01
3.538332913912359823e-01,-2.851764865712168362e+00,-1.507255350198637656e+00
-7.189148291947820013e-01,-2.923362066189526542e-01,-1.063967312487557493e+00
5.510717435063460130e-03,-1.421031679218037191e-01,-1.194105885837899672e+00
6.541249037494428764e-01,-2.673975102942711679e+00,-1.541426964034414926e+00
-3.038297499397624724e-01,-8.172727971779408795e-01,9.655473872273954983e-02
8.725833462042151822e-01,-3.479199227843612796e+00,-8.618165926340891625e-01
5.350036409283163152e-01,-2.084144911014439217e+00,-4.091255376085438100e-01
-3.829375799921357348e-01,-2.034379989428729107e+00,-9.877175310527328556e-01
-5.743727216920041512e-02,-2.583339618660465131e+00,2.037931994585706619e-01
7.066240859470157565e-01,-3.258362765245701009e+00,2.495632857237743418e-01
6.970744692579732005e-02,-2.222523243649044411e-01,-1.361446059252684693e+00
8.311073689036944934e-02,-3.292893368117989494e-01,-6.822264671683123671e-01
1.105856337988734943e-02,-3.590036085073401995e-01,-1.721935648972867439e+00
-7.237332883635737568e-01,-6.888072022648465964e-01,-2.748382559548301352e-01
-1.600354621710133388e-02,-2.475052100607200156e+00,-1.555451281114700324e+00
4.513214959315797054e-02,-3.607327929058256277e+00,-1.002099609467548946e+00
-4.733627686740131679e-01,-1.700219852308548552e+00,-1.248118048751367004e+00
-1.905296853545677127e-01,-1.018729485782656763e+00,-1.677590210847911489e+00
-8.150829774129105809e-01,-3.034607602165358964e-01,-4.870032544559197429e-01
-4.347770158108609229e-01,-1.894728549146651453e+00,-1.218215952824083903e+00
-5.619244658442152929e-01,-1.273681789296259081e+00,-3.780082376193898974e-01
2.875915363029305505e-01,-3.330337757162080692e+00,2.843767657447213715e-01
1.059758519855070746e-01,-1.460448495214353715e+00,-1.640310946328525255e+00
1.707939846384764482e-01,-3.571847009921896188e+00,2.731254109567010091e-01
5.546400128200474899e-01,-2.078590078923669981e+00,-7.496244815074800671e-01
6.027929628420882757e-01,-2.223169718047179000e+00,1.245331367721139171e-01
-4.135352450328363266e-02,-3.209849275909349986e-01,5.466109783632468883e-02
-1.509128554333793448e-01,-2.674374055023658769e+00,-1.565116908064671852e+00
-7.451424133654711568e-01,-4.746541373913837347e-01,-4.623474462275234953e-01
-5.323709424715096228e-01,-1.389837711427247546e+00,-1.310183073964222400e+00
-1.096172230401735309e-01,-1.699405781243018998e+00,8.875261195157527205e-02
1.474713682829411621e-01,-5.006450443342209677e-01,-6.666057112829389120e-02
-5.479307332065945779e-01,-1.367716226798728174e+00,-1.390701760249609009e+00
6.156974723772062896e-01,-2.323971404833029553e+00,-1.497995126363244056e+00
8.062011211100327257e-01,-3.093494073949552003e+00,-4.676399394338979776e-01
4.205874830004240339e-01,-1.588729227812803124e+00,-8.205957464415902791e-01
9.188604943456382679e-02,-2.978071961402485979e+00,-1.532173103324615315e+00
-5.362008856793265554e-01,-1.492300238523265765e+00,-1.236418645465323429e+00
4.367994109557581939e-01,-3.447165321355410761e+00,2.864160226349879435e-01
-1.500344743443880469e-01,-2.610623146960917129e+00,-1.576079386903771695e+00
-3.591582981651953443e-01,-2.022748034042576304e+00,-4.942848026655341509e-01
3.160411301103744908e-01,-1.220499039422359822e+00,-7.215585629785949973e-01
8.018547662759385464e-01,-3.249112614095162499e+00,2.495549954657964031e-01
2.761577717173476776e-01,-9.914774570756852423e-01,-1.556201422223391750e+00
5.509294637297142971e-01,-3.569884052126025331e+00,-1.189031469244767214e+00
4.410434969522451509e-01,-1.653794959679390830e+00,-2.826706218307697971e-01
3.991423960317801445e-01,-1.827181783035662477e+00,-1.635837406755198398e+00
5.712519791428794999e-03,-2.983417065530539869e+00,-1.536566670109956734e+00
7.624468487252682447e-01,-3.280701061159437604e+00,-1.539253250282178076e+00
6.170394038740169007e-01,-2.508847603393349779e+00,1.894464076293979893e-01
-6.385857599880430113e-01,-1.062381110837101739e+00,-2.499695324941346164e-01
-4.573015578563464634e-01,-1.734042567494444853e+00,-1.239690778498111268e+00
-8.426526775569245231e-01,-4.135536729273887047e-01,-9.126600857729344485e-01
4.875824693927011122e-01,-1.835513619539178132e+00,-2.795675398171618489e-02
-2.691128996101070925e-01,-1.020397288775266365e+00,5.801209682771452103e-02
8.632116684118642524e-01,-3.397057706848817471e+00,-3.891748844091662551e-01
1.426970318076356825e-01,-4.960062848104719313e-01,-5.855680602096225984e-01
-8.145735270002630868e-01,-3.730725689512239263e-01,-2.877941937940104999e-01
9.362223677018212398e-02,-1.771155540892516145e+00,-1.630815370247836515e+00
-3.458833099993342541e-01,-1.973607742499901230e+00,-1.638509438267694795e+00
-5.121232717242011345e-01,-1.598177176163039226e+00,-1.528289636205697244e+00
6.736133227361931208e-01,-2.565119605827662852e+00,-4.818575060527243714e-01
4.470934667791381933e-01,-3.661615846995009971e+00,-1.440589588963332224e+00
-5.892862285314329762e-01,-4.852992090561782934e-01,2.481989729493689137e-02
-5.640436399578284687e-01,-1.422664258967935913e+00,-1.298481808158423068e+00
8.188448125052000259e-02,-3.169512731582822540e-01,-9.832933891394762815e-01
3.683961106383669137e-01,-1.637820458860831385e+00,-1.602688719310611187e+00
-2.856007843605765650e-01,-6.974606584015594635e-01,-1.706536397621824630e+00
-5.858305008145328063e-01,-2.412401471199387137e-01,-1.450716239443491151e+00
7.693982954522935458e-01,-2.868078820329766909e+00,8.271819422235253405e-02
3.309566645634775400e-02,-5.242469120822466910e-02,-1.110405630311354572e-02
4.543008893999788689e-01,-1.775469233788676382e+00,-8.931705569231991326e-01
7.044827556833561655e-01,-2.704735158534302020e+00,-9.208157133801428973e-01
-6.614891095761225026e-01,-1.005891096774008675e+00,-1.385186073111116745e+00
7.961006643521537640e-01,-2.889390065336930213e+00,-8.693962641461447927e-01
-7.967234610039850562e-01,-2.043483079047992146e-01,2.617871192109665329e-03
-7.604160935301835789e-01,-5.113679962006922874e-01,-2.850261463175581267e-01
-5.483833516447454981e-01,-1.271427672967861966e+00,5.062496176326265751e-02
-3.943413308672175654e-01,-1.957444751906102010e+00,-1.621154710393748921e+00
-6.823871725983708947e-01,-7.759968003256471070e-01,-7.434978781178817053e-01
-2.929164584052282860e-01,-1.961524083812149766e-01,-8.749649948227650187e-01
-8.267993149842135514e-01,-4.492897736273990250e-01,-9.240179291447201404e-01
-5.775826169480002825e-01,-1.234936190278458135e+00,6.649005205303903931e-02
1.676723135353369587e-01,-6.712823275274237833e-01,-1.073700672894674524e+00
-5.520471905520376588e-01,-1.297999120990850352e+00,-7.136234934134166874e-01
-2.388195055969923875e-01,-2.728005587392950737e+00,-3.662057281486492677e-01
-8.365924596736422636e-01,-2.652058284887668926e-01,-1.220903969487412005e-01
-3.960397381661436289e-01,-1.984606460310519127e+00,-3.133071829586367429e-01
8.256097195993736815e-01,-3.231753849679860569e+00,-1.076922852984660617e+00
2.967721849732842254e-01,-2.268694523868890478e+00,1.626351457284699875e-01
-6.402316478724416893e-01,-2.082969938211402805e-01,-7.304124513197984836e-01
3.585941032453514310e-02,-7.333125361539089004e-01,5.150523477906190917e-02
4.760517447386885537e-01,-1.852222852857654534e+00,-1.570628865616354286e+00
-5.372453694354128312e-02,-3.261713293637574118e+00,-5.880179757688465125e-01
1.833829667567930255e-01,-5.730623595583745900e-01,-1.648650838353176828e+00
5.153128575526503274e-01,-2.775637224030617745e+00,-1.519825226393934692e+00
-5.742837230028922102e-01,-1.258996555826972230e+00,-1.592795214306856222e+00
-4.609171281565251910e-01,-1.691648425478065931e+00,-1.325181146103380225e+00
-1.253682555475325866e-01,-1.314724206280368235e-01,-1.377097722042069039e+00
6.790224578850555526e-01,-3.479423982544088023e+00,-1.625238361394626685e-01
7.906534343223587946e-01,-2.870035493433585660e+00,-5.773935336928424089e-01
4.135764711973545782e-01,-2.449654308913581158e+00,-1.601576784657600339e+00
-4.154096576262893414e-01,-1.784059230340115265e+00,-8.814815928721747573e-01
9.832695482421299760e-03,-7.333370463767752145e-02,-7.779897516067617591e-01
8.812008380747214931e-01,-3.333872223817593738e+00,-4.674998891725306582e-01
-7.850605260132039742e-01,-6.164210814433983554e-01,1.442463439821909180e-02
-2.804557705937481965e-02,-3.104127629926903165e+00,-1.546833541811652557e+00
-7.979605562503362670e-02,-3.155735928018528647e+00,-1.104463694837727772e+00
-5.677469054581947283e-01,-1.391880990681083397e+00,-1.397595023682092652e+00
5.496094329809316781e-01,-2.008364462194391464e+00,-1.274588941212614790e+00
-1.190930061955964153e-01,-2.949579232361139614e+00,-2.296543345488827326e-02
6.171024485296741080e-01,-2.772412836554887683e+00,2.067317346932537325e-01
-4.924157181868472066e-01,-1.691906632658489729e+00,-1.310532831488447236e+00
5.898201250240877602e-01,-2.442133547249808245e+00,-1.571641670265246482e+00
2.498107208458191231e-01,-2.207840921349824459e+00,-1.604244689795026213e+00
-4.081232269142494595e-01,-6.225574802051776491e-01,1.032813952652420451e-02
