-3.470296322160802305e+00,-2.854597589211718134e+00,-4.440034050116287823e+00
-4.880769428621164252e+00,-1.337461517869105963e-02,-1.028169959342786477e+01
-4.305098749052343798e+00,3.242367463148050355e+00,-1.267762096778536218e+01
-4.729990468583884500e+00,-4.552314028498340548e+00,-7.443942271944042233e+00
-6.679884100011752590e-01,-2.794493721903156924e+00,-5.072006399392954279e+00
-6.331623166896648058e+00,1.400163514777413809e+01,-1.296810296848808441e+01
-3.623908154784827307e+00,8.504576156205173376e+00,-1.420308969678855782e+01
1.013248308466083714e+00,3.078571551505341564e+00,-3.210511397470253492e+00
-3.581023559861010508e+00,-9.175022154681463649e-01,-3.021152973304018108e+00
-3.205881764027776804e+00,1.249727958533297922e+01,-1.580173239078668423e+01
-2.491534108673883197e-01,2.962855265616489042e+00,-8.308651360092596860e+00
-6.312589386179509710e+00,9.404893386527406918e+00,-1.452748491934106312e+01
-3.199363051876091824e+00,-4.447397812387205107e+00,-7.677134034756432968e+00
-1.834356659168985271e+00,-1.502258711098996002e+00,-2.429883684827522483e+00
-1.943106168011593304e+00,-3.567262406223012494e+00,-7.453353028339025244e+00
-1.661454910256067619e+00,1.438612205108043796e+01,-1.338643490645396916e+01
5.753036953199573977e-01,1.012662810763163357e+01,-7.407439394012746980e+00
1.339586374022416482e-01,6.973922016659325429e+00,-4.594610355416468117e+00
-3.737644243037060665e+00,1.272474645637571022e+01,-1.617033942128057333e+01
7.867103553551428874e-01,9.971636891077244158e+00,-7.555662988012620929e+00
-4.577022191225381675e+00,1.268179412216087343e+01,-1.563439844456942218e+01
-4.937863163207965478e+00,1.456267819247409001e+01,-1.250940352387373622e+01
1.845822271252967717e+00,1.099567874649084764e+01,-9.448912026033381650e+00
-1.764510448253397978e+00,-3.222965583462458206e+00,-7.451909790154863877e+00
-2.870191682008160772e+00,1.375050775838571226e+01,-9.084063252532786237e+00
1.693376136577205537e+00,1.427787572112923087e+01,-1.178466563407572920e+01
-2.741636415963170315e+00,-2.921222721241806930e+00,-4.833124902553624480e+00
2.938577855018524865e-01,-1.909335950426595208e+00,-3.473835494965358706e+00
2.098255174270941270e-01,6.389597003409691389e+00,-4.580781268658757455e+00
1.311225503778104207e+00,8.019334521912782066e+00,-9.468732353158303638e+00
-7.978643417982872243e+00,7.625987442964575536e+00,-1.160883692468920358e+01
-2.417073040246450755e-01,4.459016988381918623e+00,-2.571863913341356334e+00
-6.171654346689347648e+00,7.352328780412803688e+00,-1.385137610775736228e+01
-3.705897711622410995e+00,1.421351352258465006e+01,-1.293085508141222739e+01
1.114800841543425403e+00,1.239250181813676654e+01,-1.168975690799596201e+01
-2.853386259702870298e+00,-8.077258977084287306e-01,-2.374177474035539692e+00
-4.327391539809722687e+00,9.610232670342846006e+00,-8.516135959173967152e+00
-4.261173842690006097e+00,-4.607861347872619362e+00,-8.220007815195268464e+00
-7.681575978676816518e+00,1.198080732137178117e+01,-1.454318426414506682e+01
9.789277058402265919e-01,7.989471801823080810e+00,-6.576803990681198364e+00
1.599154676121515628e+00,4.088447213388976542e-02,-5.623172778541793093e+00
-2.234752225816594162e+00,1.485121132626435880e+01,-1.225787352409370889e+01
-2.215736123994304752e+00,-1.034942232276819807e+00,-8.798379710673149390e+00
1.701581223307985891e+00,-1.258922632767492500e+00,-4.819431847092547905e+00
-4.692079934491457216e+00,6.337439045327924347e+00,-7.089447472559564645e+00
-5.447415657882665130e+00,-6.068228345601242024e-01,-9.263393557900927888e+00
-5.129151288533471131e+00,7.879488585781498911e-01,-1.085345980814019207e+01
2.409943921117926047e-01,9.126808616646849615e+00,-1.101390809966810380e+01
-5.522322923485869062e+00,-3.397144528772494620e+00,-5.653785700274998938e+00
-1.718012331450974539e+00,1.625581924420339774e+01,-9.325743517311888553e+00
-6.959629278843090239e-01,1.562120541722846667e+01,-1.113071063612777145e+01
-2.737738700228800504e+00,-2.983444546032529399e+00,-4.971934801164469953e+00
-6.297478357714325625e+00,1.098655952309977479e+01,-1.107423701075503075e+01
1.265449374504225233e+00,-1.970053893837813708e-01,-1.817212903459807016e+00
-1.622786826416113160e+00,-2.837342871005558820e+00,-5.002600902201505662e+00
-7.303617861051986404e-01,1.449341294871387653e+01,-1.311464267590351440e+01
-7.530781126719919172e+00,1.320257245117801403e+01,-1.479899449666185163e+01
2.448108743013458211e-01,9.165127902786972314e+00,-1.079405128961377436e+01
-2.469041541087354297e+00,1.023721608802988570e+01,-6.781737575835044218e+00
-1.713389808282220317e+00,-1.926158374615313251e+00,-3.288645293593813967e+00
9.469972348366442194e-01,3.995321715090097481e+00,-3.500278548343053853e+00
1.936603561447656885e+00,-1.112839412906613257e+00,-2.589716828395569159e+00
1.233782859496543649e+00,1.231089947132118390e+01,-9.733375932557633448e+00
-1.392666443778368457e+00,2.721600840337076832e+00,-2.532972038219787780e+00
-6.730057999837962157e+00,1.154758616304305896e+01,-1.568069108390315414e+01
1.816114470313720419e+00,1.264034521680824597e+01,-1.082645191508897042e+01
-4.389977312679881116e+00,1.446036891999129992e+01,-1.255839589768857500e+01
-1.536644828291841458e+00,2.319216347231216335e-01,-1.662900314284129211e+00
5.330353740843184474e-01,1.105544165384628741e+01,-1.154582559437126221e+01
-2.108333688392753480e+00,1.079531616718484166e+01,-6.806948366825855246e+00
-1.824600283018846358e+00,7.368332578752560202e+00,-1.217142559568925542e+01
-5.981818652218886534e+00,1.124901214644353331e+01,-1.079560016344023587e+01
2.520427959840391696e-01,-1.428187610180538192e+00,-2.341994874965426465e+00
-2.218107965052594110e+00,-2.868582626091274790e+00,-4.924083437481387548e+00
-2.406107579576685085e-01,-2.243574807439328467e+00,-4.264152074924813185e+00
-3.971272621148772775e+00,9.849346243621759811e+00,-1.544069193744973845e+01
-2.039616194489699108e+00,1.336299111536903084e+01,-1.480520383579385957e+01
-6.831626822290619572e+00,8.398044748259572145e+00,-1.349406891664194852e+01
9.972793797449324149e-01,1.471906346652597897e+01,-1.104671144957894491e+01
-6.072427523689822415e+00,-3.870375719171383899e+00,-6.207740164995572130e+00
-6.779226982578727245e+00,1.373641430684758191e+01,-1.292997118725121375e+01
-1.918432454971518375e+00,1.449950677309747249e+01,-1.282528769302208715e+01
-6.700334527924215244e+00,4.468285741667606281e+00,-1.085810405507700693e+01
-1.005375685043898848e+00,-2.504330866320914506e+00,-6.750701635770003151e+00
9.410274517777301659e-03,1.075176556768656688e+01,-7.334288269140091465e+00
-2.949476124257256693e+00,-2.343360908663313591e+00,-3.964835926963073298e+00
2.088243072261874111e+00,-1.880052769973983740e+00,-3.512514230751121236e+00
-3.039988207809923182e+00,6.767023075160802925e+00,-6.027387867809559374e+00
-5.592986344225022499e+00,-4.198597829776670842e+00,-6.731274331631018626e+00
1.240994878251953759e+00,-2.155055921652566209e+00,-4.206671261123455352e+00
-2.184107026162148024e+00,-2.719583028918376222e+00,-4.590943603169539422e+00
-5.957560340949749289e+00,1.222562217916812344e+01,-1.676214594950329229e+01
-5.068883761361265172e+00,-2.978193792480090085e+00,-4.644668717645952682e+00
-5.694269304415872313e+00,-3.933489546661637082e+00,-6.795495366414534111e+00
-4.959231034246942116e+00,5.148360636230449039e+00,-1.378500610764015910e+01
1.274688063399227023e+00,-9.233543903053940127e-01,-2.130893825562790056e+00
2.742077878285918757e+00,1.819236534922288762e+00,-4.779162800405736711e+00
-1.630993275235477213e+00,-3.846219233660368442e-01,-8.490245079097910263e+00
1.360185230737443352e+00,-2.133857817809037272e-02,-1.676746289575512749e+00
-2.613125942220096420e-01,8.440526306443526749e+00,-5.225325278118969408e+00
-6.091037600066595559e+00,1.072986151064622540e+01,-1.102838975954065148e+01
-6.302869642043722465e+00,1.218770724453861831e+01,-1.653935930732527027e+01
-2.922515211587018324e+00,1.075051994832953328e+00,-1.040603134547538033e+01
-2.140791645913019181e+00,-1.007327856348906092e+00,-1.709158218111954008e+00
2.640497190434507591e-01,3.964666473798905688e-01,-7.280875019613471721e+00
-5.117209589027265970e+00,-5.521720419453345352e-01,-4.812132687185686208e+00
-3.497546709641140339e+00,1.302682312803352183e+01,-1.533047449098435244e+01
-6.997166719840322013e-01,1.501258586368907899e+01,-1.238135970136581854e+01
-6.652937230080695485e+00,1.349337054520606571e+01,-1.274131709342061569e+01
-5.636548630447236974e+00,-1.519872679279377914e-01,-9.531517083047534200e+00
-7.712787737254772624e-01,1.314732539817287460e+01,-7.599433154645099719e+00
-7.914924397793935640e+00,9.122965339923764461e+00,-1.270315529896389961e+01
-5.152244487734588319e+00,5.857757920248292116e+00,-1.411893371512512196e+01
-2.071540067949300123e+00,8.088459994587724466e+00,-1.285488140717658467e+01
-3.784375986636864475e+00,1.497872366530948796e+01,-1.195704998541580899e+01
-4.178435493435412873e+00,1.272996772659737097e+01,-1.603049963223278240e+01
-5.134590679982983907e+00,1.424512341321924502e+01,-1.146203203216874300e+01
-6.932764736415252038e+00,1.014563523018432889e+01,-1.473726641485385613e+01
5.438046480027959317e-01,7.691361121444529658e+00,-5.654138126028285249e+00
-3.266690234157968220e+00,1.377918469939986679e+01,-1.414710522846015195e+01
-2.549105330212363185e+00,1.389811935313575475e+01,-1.409093733516585800e+01
-2.123098139756495417e+00,1.433299651922588325e+01,-1.337671751533789788e+01
9.435472132539790557e-01,-1.293306207086880377e+00,-2.802056651218877370e+00
-7.148722757614053513e+00,2.193739156518328848e+00,-9.204096551075338084e+00
-2.020963737299011687e+00,-3.177714369722878462e+00,-7.775826826821871762e+00
-3.183947427192265422e+00,1.002006491887826556e+01,-1.483075614646370610e+01
-5.651461705837965255e+00,1.221864988542607122e+01,-1.666053293387546219e+01
-1.240063774189938295e+00,1.549629832250685268e+01,-1.070349065306906589e+01
-2.141658572908589964e+00,1.380720775152078339e+01,-1.437384432664094192e+01
-4.419421096444002828e+00,7.848450074282848021e+00,-1.475286309561523446e+01
-3.315889283693634892e-01,1.476884079052064536e+01,-9.638891116529022085e+00
-6.520657538322319091e+00,1.086801018227085081e+01,-1.553606574479390368e+01
-3.269935201386413581e+00,1.503099764975378072e+01,-1.176948949505851871e+01
-6.893913108247218702e+00,9.443705424702649731e-01,-8.392286194074497274e+00
2.405634824994767662e+00,3.614872350032047432e+00,-5.366318311160634735e+00
1.709614895890413377e+00,1.494728739607025325e+01,-1.224456960291695751e+01
-3.516896837965416189e+00,1.035183274556328037e+01,-8.154023970719961767e+00
-4.613400212625643704e+00,2.644378463472541796e+00,-1.269384254183442629e+01
-4.267097494952831305e+00,-5.147296932487996912e-01,-3.990466917243585598e+00
-3.176358370262402642e-01,1.588565946518175664e+01,-1.028900791952766625e+01
-5.745664727261565297e+00,6.934293673352564191e+00,-1.388564654327003112e+01
-6.960626587832843271e+00,1.398180998824641863e-01,-7.793746900280531520e+00
-1.786326888249214040e+00,1.569369540232858462e+01,-1.085350258601304674e+01
-7.445159922834323041e+00,1.120848466005177713e+01,-1.478927087947421271e+01
-6.697113930886060551e+00,1.397219934329455882e+01,-1.303563566592873535e+01
-2.101691780514330254e+00,4.739329287843730421e-01,-9.428353599820150421e+00
-3.976137457812229048e+00,1.378933573513193345e+01,-1.371837795961867634e+01
-6.194943914225169657e+00,1.403278272833279061e+01,-1.306070878443173910e+01
-2.603076499162489732e+00,3.211542626976476633e+00,-1.105625991853045598e+01
-1.000550349360298519e+00,-4.861248950419848613e-01,-8.372249042649793083e-01
-2.371326774651352665e+00,1.052539322611097994e+01,-1.393893148879345567e+01
-6.435663809955823211e+00,5.252762542252291667e+00,-1.169001973771636926e+01
-5.609270300207971793e+00,1.098383483634970403e+01,-1.707556371900939496e+01
-2.860326609560059907e+00,-3.776015760365755369e+00,-6.326024088863362316e+00
-4.938782709060907550e+00,8.350268246813035589e+00,-8.754865715668188386e+00
-4.249828245086460399e+00,-3.130942559503320233e+00,-5.143645141201965032e+00
-6.954408257274729444e+00,5.833075026060869916e+00,-1.145424091340211348e+01
-6.575049733357955617e+00,7.620558762991028523e+00,-1.359056267762260539e+01
-6.960451540848385577e+00,7.851383888579907655e+00,-1.019472155887756948e+01
-7.183555004262961674e+00,1.404737960968000243e-01,-7.150874244050983819e+00
-4.013594827683762745e+00,-4.561641436011116824e+00,-7.697670427835133999e+00
-4.298377682541438816e+00,3.586205090952016672e+00,-5.870261817383247482e+00
-4.585061552259492856e+00,8.900828886869707190e+00,-1.542826463472130705e+01
-4.929519900709406599e+00,7.874701464709803922e+00,-8.322060088125565969e+00
-2.083643760665482958e+00,8.546883245371322602e+00,-1.281591626011893048e+01
-7.406155825719467956e+00,7.688151182702095632e+00,-1.232409539712831403e+01
6.951079352122676580e-01,1.419683428448105822e+01,-1.032705658307785512e+01
-5.558359519556257844e+00,1.065570039781519895e+01,-1.681759408616049711e+01
-4.052500711353475005e+00,-3.110685300735530401e+00,-4.960361787763802432e+00
-3.157867951730144007e+00,1.362796975758269724e+01,-1.442071664017648303e+01
2.420284128006664481e+00,6.791105377068007432e-01,-4.985559974549882867e+00
4.898459083964941674e-01,-9.791122519518788980e-01,-6.036986102000283516e+00
-5.087190346153011689e+00,1.382116340629024975e+01,-1.137208181542492369e+01
8.494863190018585586e-01,1.486789974011692372e+01,-1.284463803259860448e+01
-4.247844807599947536e+00,5.642805735970189751e+00,-1.369468190343816794e+01
-2.543064798823562622e+00,-2.923627509410511305e+00,-5.466546092586867189e+00
1.566246094398969557e+00,-1.378650553696239900e+00,-2.641940327756072460e+00
-6.777483473885784093e+00,6.148684804760212508e+00,-1.195150448465466120e+01
-2.157004505860869170e-01,1.377041309651466250e+01,-9.125486970301912137e+00
-7.152743833136849361e+00,4.019515227143471314e+00,-1.016989082180414172e+01
-4.645150107074941026e+00,9.253953700434712104e+00,-8.575541622213153303e+00
-6.529450428720966038e+00,1.060205485371686152e+01,-1.546156221846709045e+01
-6.934201057545661406e+00,3.630940215138906968e+00,-1.019212128680404916e+01
-5.102637691406438414e+00,1.085066083131009229e+01,-1.701136674851942132e+01
-6.562496256871453326e+00,2.135805561699660071e+00,-7.458020477618992672e+00
-1.135709802925173095e+00,1.351372944034909551e+01,-1.442972713888879177e+01
-6.308245562276987961e+00,4.482329413220295322e+00,-1.162313277271034906e+01
-2.559669129759055473e+00,-2.782956550051694400e+00,-4.630679988403563208e+00
-3.793020580476059500e+00,1.479821886432576328e+01,-1.241201234362007710e+01
-3.485846781199152034e+00,8.994425881848549409e+00,-1.447315512702492590e+01
-6.785169585407687443e+00,1.364913631916619297e+00,-6.999421087810681286e+00
-1.531630227121484111e+00,-3.368990998906757017e+00,-5.995665315254182559e+00
-2.012384937801636298e+00,8.789137866770037277e+00,-1.275682095897505341e+01
-5.169839152052073672e+00,1.397136789946619828e+01,-1.344088683495192704e+01
-5.651572254419349184e-01,1.460603749179377253e+01,-1.311127537508722440e+01
6.658991844341384247e-01,1.032521827504025147e+01,-1.126932051108033939e+01
-2.587132767538374623e+00,1.576963770195978753e+01,-9.604301562956337079e+00
-3.774841467548603724e+00,9.314142387537399870e+00,-1.506242608527992033e+01
-4.517773209926154721e+00,-2.873220965315831155e+00,-9.003957927714171916e+00
4.015478867474518432e-01,1.409960383935919603e+00,-1.686651555123717339e+00
-1.396422729310422772e+00,1.623544754699486248e+01,-9.621875443975836717e+00
6.009805734798686627e-01,1.211297359996040868e+01,-8.635856640005201257e+00
-6.337680118309587662e+00,1.360632607136070860e+01,-1.392294614352792514e+01
-5.770043258551347698e+00,3.329125900035246333e-01,-5.846237891458149427e+00
-4.596991129875363846e+00,1.110328405624133374e+01,-1.659105973300810533e+01
-5.364176259978048478e+00,5.108914428772917127e+00,-7.582596427599959554e+00
1.933182984797619852e+00,8.253598307553781765e+00,-8.754810520768661064e+00
-1.896807456248541524e-01,9.980088817912760035e+00,-6.269098731494326060e+00
-3.424946508341593088e+00,1.558913546694898322e+01,-1.079051267093907640e+01
3.161012210583574733e-01,1.573760772920429041e+01,-1.073017947437292818e+01
-2.109756373937048402e+00,-2.139818511917184640e+00,-3.796769707514979331e+00
5.282486359482546634e-01,1.581808109395146822e+01,-1.121660917843905736e+01
-2.731455599339508211e+00,-2.012268687824951829e+00,-2.993276606917635085e+00
-6.973598531552778645e+00,1.001048250818680252e+01,-1.462416439540587909e+01
-5.929263113517067030e-01,1.569319289745776480e+01,-1.082565345784142963e+01
7.735224586697976301e-01,9.233460192383046161e-01,-1.917645353411149722e+00
-1.603132502465517195e+00,-2.673992412419929909e+00,-4.700985261507051760e+00
4.574782293831889946e-01,1.432012465448543104e+01,-1.010968490585894841e+01
-1.389563067973968558e+00,-1.400277895542096918e-01,-8.085245428395719358e+00
-5.529450367858880000e+00,1.511083624929965508e+00,-1.059063091194633444e+01
-8.286038326755223338e+00,1.032062536554344412e+01,-1.293668620550194781e+01
-2.602212578141500199e+00,1.119697047905948928e+01,-1.446804740727674243e+01
-3.417085688348189265e+00,1.563567576494596523e+01,-1.033989388783726504e+01
-1.628755092666250848e-01,1.481804730711287910e+01,-1.276700867424794517e+01
-3.781105016376461680e+00,-2.672214206787509205e+00,-4.413597196993480409e+00
-6.795035873379869251e+00,7.537560727660761906e+00,-1.332883804089416380e+01
-5.233117241686210397e-01,2.832742798573030019e+00,-8.965057507345035148e+00
-5.014700890746527584e+00,7.642838920081076459e+00,-1.534417684264355586e+01
2.265412328592785185e-01,-2.073520545257041547e+00,-3.668073465372625019e+00
-3.091474835357370665e+00,-1.206517389057511158e+00,-2.254741537275740004e+00
-5.952551107663609287e+00,2.840182041056191209e-01,-9.210648528716159689e+00
-7.012627805741434628e+00,-1.960637929066944896e+00,-6.232732619031311039e+00
-2.430670609532990412e+00,-1.921172725052746388e+00,-3.011195746616922353e+00
1.661456358241599318e+00,1.035358967714637757e+01,-9.215857666697848671e+00
-9.310377048601205241e-02,1.168453861962896490e+01,-7.748245758601367328e+00
-6.490461800759549149e+00,1.176534383418124285e+01,-1.162861722685170740e+01
-7.172542765775421714e+00,1.001161584223875067e+01,-1.162582774633305149e+01
-5.239519275164629342e+00,7.428132526920804501e+00,-8.365062966049542581e+00
-2.227446927797924747e+00,1.374518194203619537e+01,-1.422770762148628165e+01
-8.379502858565391676e+00,1.262337380729782232e+01,-1.424653656387804190e+01
-5.293668273924090784e+00,6.446862254656644531e+00,-8.260779837775160672e+00
-6.373124362372851515e+00,4.057284502250312563e+00,-1.140201042186774671e+01
-1.964238112461776042e+00,1.760219814218551670e+00,-9.777655496167859894e+00
-6.007922461657529745e+00,-3.414506488240828030e+00,-5.282639922889307726e+00
1.020460923616096860e+00,5.632633398893950982e+00,-5.362449793902281492e+00
-7.749968533250394920e+00,9.815483523112121134e+00,-1.300396495952171705e+01
-7.889195112019153022e+00,1.039442771577940583e+01,-1.353332118837857223e+01
-7.606338268954441872e+00,2.653897622242947563e+00,-8.956275990313445234e+00
1.275266023914666258e+00,1.018517073960279262e+01,-8.496723310877511537e+00
-5.317929229912523148e+00,-4.569858268483616426e-01,-4.696258636443626067e+00
-1.469784460305061380e-01,1.270617176508029011e+01,-1.296880504023486935e+01
-6.217930765414408256e+00,1.404416975898617892e+01,-1.306325082490856282e+01
6.816822419024329838e-01,1.545884129992003864e+01,-1.159469467335835979e+01
2.066978491686595643e+00,6.766855365894709706e+00,-7.955195697857515569e+00
-7.161255957279354156e+00,2.067449355336103967e+00,-8.931138994484578930e+00
-3.032780867139107439e+00,2.306233282997012690e+00,-1.081188429673247775e+01
-3.946443551678593398e+00,-1.922925447913234887e-01,-3.781620461966988422e+00
-2.567694323128554945e+00,-3.434694187986945479e+00,-6.041782523353727896e+00
-2.079059985059513060e+00,3.644404759024913787e+00,-1.063530453108756291e+01
2.407637258106864131e+00,1.423995788027039300e+00,-5.100766691250462337e+00
-2.765007215247263228e-01,6.520982570950409896e-01,-7.581927104673837903e+00
-3.606090859504693213e+00,1.420687915208298513e+01,-1.009610449352107686e+01
-2.131968886903961025e+00,2.031823110447980696e+00,-9.591270673439730388e+00
-7.481908395734885531e+00,1.087932439121361483e+01,-1.391040498558415983e+01
-1.217841049510335338e+00,1.481030225726967942e+01,-1.257505107435838276e+01
-3.882923212521890655e+00,-4.282339738845225341e+00,-8.715526090308726381e+00
-1.878902513618558645e+00,6.250929038599153387e+00,-4.480049071833052565e+00
-3.813586619271488676e+00,-3.561778332952314496e+00,-5.874573877779605269e+00
-5.348134809628283470e+00,3.162329117663752687e+00,-1.175575064011446358e+01
1.369490943198982125e+00,4.952033531610211980e+00,-5.193190746309446659e+00
-3.676435170172656086e+00,-1.707122118048802761e+00,-2.917234751924218994e+00
6.237266671512258220e-01,1.541781611597908253e+01,-1.110965211556923471e+01
-7.074390263357617670e+00,1.251461897824764158e+01,-1.572815943958378071e+01
-6.878177448114827897e+00,-1.933080942492706455e+00,-5.664127726094870141e+00
-3.324759633137825521e+00,-3.330778876146876843e+00,-5.485517898939424875e+00
9.895626769888080654e-01,-1.192729712999343938e+00,-2.140535019778724735e+00
-5.745191635168527711e+00,7.591490468058531782e+00,-1.422942140002083633e+01
-2.255230520945914918e+00,-1.733807777699384767e+00,-3.143184372431546247e+00
-3.504891966708009843e+00,6.915211833817815013e+00,-1.334424312541102609e+01
-5.423067405950439124e+00,6.291789835487981541e+00,-1.417596275492920377e+01
-9.052304667812702821e-01,-2.104282001490753284e+00,-3.708085974220475478e+00
-6.544369963134891721e-01,-1.597240339606446069e+00,-3.151108200368497148e+00
-4.302385144823412944e+00,6.784730095822901319e+00,-7.377820543005543463e+00
-6.248672782583423846e+00,-1.819455278802133202e+00,-5.433862945703245906e+00
-2.173627746009694217e+00,5.089584770223905430e+00,-1.131798712053276645e+01
2.047281182426141655e+00,-1.500353546893197443e+00,-3.119710517874370481e+00
-9.688342390575279545e-03,-1.894912484689711685e-01,-4.345246513210784256e-01
-6.025182335266914269e-01,1.430348006773652703e+00,-8.124910957186825655e+00
-6.505308865499401794e-01,1.083619905920167703e+01,-6.076216916824417780e+00
-4.702286889872616449e+00,-4.515146233028845657e+00,-7.404108354825271299e+00
1.804816610617927308e+00,-1.705275779549386028e+00,-3.576202657878709168e+00
-4.587973572803751843e+00,8.963821732822658817e+00,-8.539226544946886932e+00
-3.431255491381120404e+00,1.474484400670507078e+01,-1.214040329861398959e+01
-6.719254530811483939e+00,1.014020605926623519e-01,-8.276878700740587291e+00
2.684284220969399351e-02,5.490565285459048539e+00,-3.709149974767759428e+00
-1.586966869263481739e+00,8.182667503939441644e+00,-5.151387278983514229e+00
-5.947257350486446548e+00,1.265022046289383972e+01,-1.554847769025781190e+01
-8.215668419659353461e+00,1.332792002722249869e+01,-1.427301216100136472e+01
-2.746914368616612201e+00,5.857318474481159498e+00,-5.249586821212782084e+00
1.671247997549150766e+00,1.599334041389044225e+00,-5.919163672334858184e+00
2.234796498040978019e+00,5.207375286260762515e+00,-6.092342389953424586e+00
-5.733803209687001079e+00,-6.413031765705082821e-01,-8.858587096585793574e+00
-5.491925081552210486e+00,1.074978591779143500e+01,-1.690037403302273944e+01
-1.626890555888856227e+00,6.177105612456467165e-01,-1.594623731560973923e+00
3.099928588292198417e-01,5.073563569302097953e+00,-8.943374233975266208e+00
-6.357138495382496091e-01,1.069420459595335871e+01,-1.258180243459396408e+01
-7.341603403392963578e+00,7.565003988749162467e+00,-1.248078853557121271e+01
-3.023386939590935185e+00,1.463294087718986702e+01,-1.259863975469348141e+01
-7.780461567988625760e+00,6.553797197325224033e+00,-1.068027925686280177e+01
-1.422290724588209931e-01,2.208495607339678646e+00,-8.088251081285179112e+00
1.392655101125818140e-01,8.539423310871825379e+00,-5.739652292399721745e+00
-3.114640526828998279e+00,-3.999286694192664804e+00,-7.109868597009781688e+00
-5.065818430522699423e+00,-4.016612638225039333e+00,-7.688733936758314513e+00
-4.674344029267280654e+00,3.880625070588525460e+00,-1.327966566718339614e+01
-1.015760182947498702e+00,1.332843415286490263e+01,-7.287409666025332911e+00
-1.090946181316283292e+00,-1.967982688923429091e+00,-2.877181309190256275e+00
-4.214169411186026615e+00,-2.980373946533268814e+00,-4.879434824528560810e+00
-5.277854140376204484e+00,6.228631636201685140e+00,-1.394180018825646705e+01
-6.475588181440163460e+00,5.545795681966796842e+00,-1.255878100722803481e+01
-4.269264608824644647e+00,1.394079263474202968e+01,-1.349477670703502419e+01
-6.174914456243804084e-01,8.132597832236394098e+00,-1.119196203032132431e+01
-5.082412867544992885e+00,-2.351102015507688492e+00,-8.450383616751546256e+00
-3.361620740230990556e+00,1.508511431355125865e+01,-1.170809970542333645e+01
-5.051364275930398051e+00,5.888399493259726114e+00,-7.430516465272655857e+00
-5.259261887587681983e+00,7.356541744385509674e-01,-1.050370551413670661e+01
2.052915125593039125e+00,9.748537574425448327e+00,-9.496179412966450073e+00
2.244400086998564081e+00,3.400936572330043539e+00,-5.032633013719141957e+00
-3.170202934923259885e+00,1.519374172242365617e+01,-1.130493260613831730e+01
1.984575810728556045e+00,6.588765308825403899e+00,-6.982280425043509986e+00
-2.701641539938778980e+00,1.414572536018552285e+01,-1.333181468487961574e+01
1.018357304650977735e+00,1.526165332191412283e+01,-1.210383776399755540e+01
-7.247772710651845252e-01,1.409095616739802281e+01,-1.369066512136160085e+01
-3.538765300395153357e+00,-1.933832795826737838e+00,-2.699502428636688212e+00
-4.675844008517689332e+00,-2.064669848122187901e+00,-3.657588110281768223e+00
-1.893242912256851151e-01,3.063526702052798090e+00,-8.835952445316799242e+00
-9.134893051502394057e-01,1.503375387094269655e+01,-1.234023539115813151e+01
-5.041469256293320989e+00,6.935139622689682426e+00,-1.493105727087033685e+01
-2.306549840969715159e+00,-1.531422703623058990e+00,-2.431763108054556088e+00
-3.765611706683441362e+00,-7.603480291179819384e-01,-1.018790070526630132e+01
-6.311656478657662106e+00,-1.402877132486154643e+00,-7.561280205894851392e+00
-1.543669729980157168e-01,1.068144235297518208e+01,-1.190370945110642786e+01
-5.151935110175000609e+00,3.113508043756335830e+00,-6.420401331625959607e+00
-2.914522153968523099e+00,-2.104245996804785079e+00,-8.936461616690086984e+00
-1.583374443246981622e+00,1.440551244765235239e+01,-1.345704617998723052e+01
-8.597895112434226217e-01,3.849066743224964782e+00,-9.463575076328616831e+00
-6.649794540211671767e-02,1.479892845364912013e+01,-1.247343288635776126e+01
1.101167526294586141e+00,1.289029582811386376e+01,-1.181431394843651361e+01
-5.791626653225078414e+00,1.188194050471365237e+01,-1.701685585962848890e+01
-4.013856419618972105e+00,1.326461438461489273e+01,-1.513311854488868136e+01
-5.668243333623752545e-01,6.449938744390306233e+00,-3.581747140505302074e+00
-2.742681517699379956e+00,1.405640988940492164e+01,-8.966575752497679019e+00
-7.190833726701068684e+00,9.970794275315855160e+00,-1.422251240906791026e+01
-6.061552212551757357e+00,3.317533552656050322e+00,-7.476379032582832984e+00
-2.886357844685806917e+00,1.312115468403667506e+01,-1.534799514511870200e+01
-2.561158812498455006e+00,1.525758788320341175e+01,-1.144516368482348767e+01
2.894837421253408039e+00,1.076041033944830971e+00,-4.257034322008140137e+00
-3.996842282424970083e+00,1.429520961375964205e+01,-1.313165026467201812e+01
-4.669634469817533495e-01,-1.869966927065111140e+00,-3.462090766509144490e+00
-6.571602244428094153e+00,5.252702554942398017e+00,-8.838136186587082221e+00
-2.825792810507816277e+00,-4.363749742186366909e+00,-7.947393051154173271e+00
-6.204995807303641087e+00,-3.367909636435525655e+00,-6.717549180256442654e+00
2.452146079380956856e+00,3.130510502808829365e+00,-5.463289408645827905e+00
3.353758560100570940e-01,1.058615946508755101e+01,-1.136073837547815657e+01
-5.118203587513513675e+00,3.132406297065200906e+00,-1.240979279748128228e+01
-1.926098001526469039e+00,1.347606020296231755e+01,-1.480432291636173581e+01
-1.626244331852373382e-01,-2.420992535741245621e+00,-4.613524889538934026e+00
-2.074287653402985931e+00,1.556474848243928832e+01,-9.087437972287666810e+00
-5.458303597854950340e+00,-1.696046538471126963e+00,-8.606600274882655555e+00
-6.572120909354063123e+00,1.037743874203503402e+01,-1.125709560225213579e+01
-6.035122838741623141e+00,-2.814923845271083414e-01,-8.680217033018069017e+00
-3.975747843897144418e-01,9.196143064687568369e+00,-5.485283468273741470e+00
1.711389499787454582e+00,6.592685701871218384e+00,-6.410412324569686682e+00
-6.520975998572849264e+00,6.417389337615258427e+00,-1.272869582219292006e+01
7.920368138208877529e-01,1.532981800372782999e+01,-1.198142729912729010e+01
1.725372941040358432e+00,1.313937653119236337e+01,-1.119967003024443386e+01
-5.182323452769918681e+00,1.488543709881083998e+01,-1.182565831780072685e+01
-6.422448050445495049e+00,7.042226626374350040e+00,-9.580027930378314238e+00
-3.241855626176203486e+00,-2.833701173969175091e+00,-4.577447298155143507e+00
-4.519867159873480311e+00,-4.560491457998824494e+00,-8.391676255621078440e+00
-3.424621015756213360e+00,7.192760666915732237e+00,-1.366957337679676243e+01
-6.025771878152026417e+00,8.915981475802565726e+00,-1.491554401468620483e+01
-4.149727784751319426e+00,1.120069280552914748e+01,-1.611978463820867447e+01
-2.136282184486498203e-01,3.245642485200291638e+00,-1.969736948982935942e+00
1.359398165218392185e+00,8.860180494724435363e+00,-7.681756808121706470e+00
-5.540534782837947425e+00,-2.951749647984494462e+00,-7.683222292210135862e+00
8.918224148556930242e-02,-2.293966993336622462e+00,-4.426548573447417034e+00
-2.532098306273193433e+00,-1.556003965953282275e+00,-2.398131553169383423e+00
-9.571372742212540530e-01,-2.974370813047747752e+00,-5.622382512707215341e+00
-3.131322341057241943e+00,-2.376995945026826540e+00,-9.128116486864103152e+00
-5.572108055667272630e+00,-4.007859305810644868e-01,-9.206614304657433578e+00
-2.979660129725075546e+00,1.405126681222035145e+01,-9.310804177029703865e+00
-6.839405043611272994e+00,-9.114557029132749344e-01,-7.192617447301193678e+00
9.491651173027430000e-01,-1.207841641346725226e+00,-2.172275710097485213e+00
1.441584526712060166e+00,3.395879735033320301e+00,-7.286432697012259041e+00
-3.600072064798128135e+00,2.729404701370238828e-01,-3.706036981810916231e+00
-7.877459043036475705e+00,1.071751640861443278e+01,-1.362785169432804011e+01
-6.515265180523492461e+00,8.868101672075288988e+00,-1.437751227681786581e+01
-5.258955645001796242e+00,-3.919620027372651361e+00,-6.365954267368532093e+00
-1.168920936934983779e+00,-2.918348848902996728e+00,-5.362514498509951544e+00
-5.237658357303806689e+00,1.413048806787146994e+01,-1.298258338066626116e+01
-5.455481571118288464e+00,-3.324132053492928840e+00,-5.311432280772507397e+00
1.875234462545633418e+00,1.312596102511613516e+01,-1.127095647119817023e+01
-6.770480875317266722e+00,1.171110017000361481e+01,-1.585784894040458326e+01
-5.420781309085882071e+00,4.228467269645319604e+00,-1.246934234051154711e+01
-5.692477644965888040e+00,1.227686023683783567e+01,-1.625241554828345514e+01
-1.474330050971901729e+00,3.468371013312491424e+00,-1.021426539180552950e+01
-1.015654924756153266e+00,1.520732867406139022e+01,-8.368829202030845238e+00
-5.771937409256063134e+00,5.689296107532819669e+00,-1.321028446970729675e+01
-2.874097710344976964e+00,-2.430110328176601886e+00,-3.806729191304943249e+00
2.375188119216398996e-01,1.535970553917640657e+01,-1.135262823984430725e+01
-6.279097091145149356e+00,1.046407165923144866e+01,-1.545610666004103351e+01
-3.841747999970689609e+00,7.742204508621552961e-01,-4.108288095307271348e+00
-6.938107311194235294e+00,-2.024121521260276335e+00,-5.805314926615240623e+00
-6.239704598655866796e+00,6.669391608248063541e+00,-1.307387196985299482e+01
-4.591642173039863550e+00,1.408284854217438209e+01,-1.328741539527570836e+01
-3.006678099218595523e+00,-3.320239877700497111e+00,-5.401623858294500202e+00
-1.782669150178826767e+00,7.236416269666457346e+00,-1.221931897757212582e+01
-2.445891885872597538e+00,1.355907268992432257e+01,-1.450927332649835222e+01
-5.200326376276487750e+00,2.353390192632824007e+00,-1.209564987361321720e+01
-3.254648759644669931e-01,5.822660942820269803e+00,-3.343634737040172666e+00
-1.046152209719936943e+00,1.250548399453760950e+01,-6.975952669560370190e+00
-3.100408835271213359e+00,2.116274860427103555e+00,-1.128180953033292333e+01
1.797984370842419910e+00,1.153121595135452537e+01,-1.001101632611892356e+01
-3.995839204161434899e-01,9.106393189214525563e+00,-5.693618666401637718e+00
-3.615625744450792767e-01,-1.076799951706786995e+00,-1.715279228893345609e+00
-2.494867110094955431e-01,1.274213601308513510e+01,-7.882536955921278121e+00
3.902658640929187461e-01,-3.594232912344144659e-01,-6.410009714927398239e-01
-3.940299116715812122e+00,1.515037576928390628e+01,-1.144241738199917435e+01
-4.038149580567578667e+00,-3.885209417340417914e+00,-6.570272610062167118e+00
1.081500405773726109e-01,4.370584730227872861e+00,-3.149283867848297724e+00
2.493934639375859685e+00,8.186966876804447901e-01,-4.956322888115010983e+00
-7.295310117266847527e+00,1.092937642166424439e+01,-1.479634403779793139e+01
-1.714411269935201210e+00,1.171763611885540790e+01,-6.950288939212572181e+00
-1.889778879570794601e+00,1.454606121482764891e+01,-1.286223149682408895e+01
-5.533023568922924795e+00,9.231636242305674145e+00,-9.922051576847021437e+00
-2.283202400902062390e+00,-2.246186547294479752e+00,-3.871946425816862547e+00
1.399087929418141307e+00,-1.379618922653313096e+00,-2.616764617225843637e+00
-5.233817620942446958e+00,-1.249110443136309589e+00,-4.550002079003007793e+00
-5.486165918878008085e+00,8.865991315328735078e-01,-1.021805752146897461e+01
-6.135046768527028682e+00,-3.456671588131001283e+00,-5.626190182083666613e+00
6.400872369941029705e-01,1.331667934105909978e+01,-1.220592923061721535e+01
8.812108857419795882e-01,1.767991220797360041e+00,-2.547122608163132185e+00
-6.918297446018840668e-01,9.786059613528980128e-01,-9.549554122106762577e-01
1.634874540546243260e+00,9.185528931414632225e+00,-9.393671077480277631e+00
-6.514280400236372337e+00,-1.870454767036159316e+00,-5.486815632845106983e+00
-4.379385782035656760e+00,1.382003503699045943e+01,-1.394448006195066370e+01
-2.402274419092071511e+00,-4.097054896280551972e+00,-7.241649506064971042e+00
1.546068227750970081e+00,-9.715965449575771073e-02,-1.994337220413150646e+00
-5.444421251027761421e+00,-3.520733236616550244e+00,-7.197774978900117304e+00
-1.380750872961960196e+00,1.645295377333392040e+01,-9.452915917579375105e+00
-6.808550069228407331e+00,7.777202202644478035e+00,-1.291287130995617005e+01
-1.123365208885779065e+00,-3.595777280674747001e+00,-6.243189798574323213e+00
2.880776566706383601e+00,-2.024016452055079837e-02,-3.507560017007512521e+00
-3.640604092303841632e+00,4.174285935516652835e+00,-5.512401623651864035e+00
-3.262873122884892285e-01,2.220472041656317952e+00,-1.417194944480109076e+00
-5.457385536182758123e+00,-3.415801447875637109e+00,-5.542722414621531257e+00
-6.126677222597861627e-01,-4.712061726035136622e-01,-8.816601848251134355e-01
-3.650116234945132376e+00,-8.866843795245770155e-01,-2.984292581228445762e+00
-4.222399889048128685e+00,1.370868527390718761e+01,-1.390361426391861421e+01
-4.875915452753781132e+00,6.430090072802951973e+00,-7.594633902854766916e+00
1.445972871478039545e-01,3.755093853615645294e+00,-2.662162724163435801e+00
-1.168114236072860912e+00,1.236778325707254389e+01,-6.747871989320456620e+00
-3.243183361784855112e+00,1.253871174224425955e+00,-3.984163964570055061e+00
-5.878229522981502697e+00,1.280255721766954125e+01,-1.555161286515358121e+01
9.207253361236062972e-01,-1.063052748368318312e+00,-2.078487465946280643e+00
-2.790239777952532307e+00,1.595379405230266556e+01,-1.063174680703896868e+01
-1.280333662352300950e+00,2.033333274786976730e-01,-8.212061106012576772e+00
-6.721734832295414463e+00,-5.214843263238035931e-01,-7.491559207833526024e+00
-3.866622585018285374e+00,6.988450599412826314e+00,-7.040815452405544406e+00
-1.611356391588646852e+00,1.443753234320839951e+01,-1.331080480089587681e+01
1.615421326947791003e-01,1.123965681896527613e+01,-7.651758047117964701e+00
-2.400768613546518271e+00,-1.990673070912018394e+00,-8.375590975138353045e+00
-5.606557847831520114e+00,-2.476199177599232915e+00,-4.667079696863967619e+00
-3.679507013311784203e+00,8.457704032845912323e+00,-1.428017854123844899e+01
-4.009237604404811695e-01,-4.640352756306741489e-01,-6.975893606042796513e+00
2.674494528105239688e+00,1.470606951125900341e+00,-4.423682547793278630e+00
2.316717484931431148e+00,7.447088435140122975e+00,-8.112116732728843260e+00
-2.378457810340054712e-01,1.487717051235482657e+01,-1.289613619977124337e+01
-4.789765595052315916e+00,4.443548142063183271e+00,-1.365679476785380153e+01
-5.052677135923731022e+00,1.391431984041300751e+01,-1.357720726815187895e+01
-4.431968798489503314e+00,1.502281351852943425e+00,-1.195994150384707133e+01
-4.362137061654791648e-01,1.438945592525222139e+01,-8.998060774148592955e+00
5.508155153519453950e-01,5.014519363686851250e+00,-8.904815343884953549e+00
-5.740814000231382330e-01,7.969437731348716802e+00,-4.706889030275518415e+00
-6.848778747484371987e-01,-1.516877575598310823e+00,-2.171410358728091961e+00
-3.999159397155041873e+00,1.501481506953159339e+01,-1.202804807857831015e+01
-3.345053192993972413e+00,8.010701192987310648e+00,-6.938171356668417999e+00
-6.504519152838121876e+00,8.377537901892861072e+00,-1.395065492314072664e+01
9.063139874849974742e-01,1.773667233934165033e+00,-2.454562737277881102e+00
-5.612609852812184386e+00,9.756717363383433650e+00,-1.594215028146577495e+01
-2.214406381983616168e+00,1.609018256413251535e+01,-9.911500950767784701e+00
-2.061227370425948724e-01,6.306463647931776606e+00,-4.198433489100306559e+00
5.793588506694646173e-02,1.038208733965997865e+01,-1.162321549653040087e+01
-4.200040659825556411e+00,7.626888722913792051e+00,-7.699691831814104326e+00
2.702660775973830115e-02,-2.252721168554186804e+00,-3.846583498771880549e+00
9.218070669078842760e-01,1.551863278848706962e+01,-1.199018823090938390e+01
1.010367134467732714e-01,-2.860642414793410637e+00,-5.228992429797286512e+00
-1.523603759172785788e+00,9.387126850127140543e+00,-5.648555249679374057e+00
-2.949823201866722755e+00,1.549327473530439292e+01,-9.794410270727901491e+00
1.567596867167761143e+00,-2.219156908212267965e+00,-4.316255030886801514e+00
