4.810450248426916708e+00,-1.293846867772639568e-02,-4.070812709038494681e+00
7.421438064788584477e+00,8.434286975453772484e-02,-3.074893601129940368e+00
4.518985646179193516e+00,1.460210067693013203e+00,-3.297456391934142861e+00
3.357680403175254735e+00,-7.491600401875867510e-01,3.534606649685463342e-01
8.272967034962752209e+00,4.367738826886832237e-01,-2.819930473199033116e+00
7.571710218173697271e+00,2.480542272964366912e+00,-7.532542774169721511e-01
9.102106490898709268e+00,9.407103400942196103e-01,-1.322218633143173117e+00
5.667305344256299726e+00,3.845956977137784949e-02,-4.056767051115682143e+00
5.082954871768755822e+00,-7.319731271575449227e-01,-1.611949299409118019e+00
7.851195333980327540e+00,1.836904875483873767e-01,-3.334500287090175874e+00
6.061010456023598891e+00,1.868134741240276564e-01,3.968903890473744478e-01
7.096183979829933541e+00,2.393251696647976434e+00,-5.635727940683451509e-01
5.825052612788932827e+00,-4.448039703815960810e-01,-2.129693637246758531e+00
8.443073562066912174e+00,2.666460958891877286e+00,-2.542701915473883023e+00
2.206789478383052394e+00,6.038209829351901536e-01,-1.488712830871135928e+00
3.182161111198281933e+00,1.008337516622422880e+00,-1.776800778061177200e+00
4.082186836503355565e+00,-9.215869878973189655e-01,-4.093971406683461822e+00
6.313507752126328754e+00,2.107682516067079348e+00,-2.766715088452627591e-01
3.262660798777500037e+00,-6.130884823703672826e-01,2.743451038036595069e-01
4.996606992708644945e+00,1.564317057342528239e+00,-3.339641081825488467e+00
7.457844013884386669e+00,1.105497715888807825e-01,-1.126683168123511880e+00
6.525891389940911003e-01,1.944421546226224595e-01,-1.430102863673875291e+00
3.193109937348964422e+00,9.387617342503472573e-01,-4.152029932821924341e+00
5.060259907462784312e+00,-6.320161456286963464e-01,-2.822273761464981490e-02
5.447630472386680189e+00,-5.176137005370587962e-01,-3.584385558209276512e-01
3.069641024091645853e+00,-5.429520907949506731e-02,-4.136464421741878006e+00
2.394339260451524343e+00,-1.615940587583056365e+00,-1.632941996731343215e+00
3.627477045255897981e+00,-1.134663615628289213e+00,-1.331620418261869054e-01
7.241374734587678885e-01,-1.748855887653464780e+00,-1.657343506045948489e+00
9.193838294533545508e+00,6.320389077143856449e-01,-2.624063380073075713e+00
3.350793728702398666e-01,-7.575005843011096696e-01,-1.368161360023192330e+00
1.200087409108103964e+00,-5.145928458037861697e-01,-4.301270910769413369e+00
5.056824876496087029e+00,-6.818377019249785009e-01,-5.744721793651481195e-02
9.193096887725479505e+00,9.706836546145198863e-01,-2.940552736030753511e+00
5.477029002310845884e-01,-1.298248101146996847e+00,-1.039542687566356260e+00
9.193306244133860883e-01,-4.299617859695728517e-01,9.700997091491697644e-02
3.962488815417031240e+00,1.177933640050987441e+00,-2.717549466543323966e+00
3.088416817893469890e+00,9.779683524234659142e-01,-6.026924717680749444e-01
5.467914691444548225e+00,1.605903075063561891e+00,3.409058754676066449e-01
1.547131499448641367e+00,3.662661325750191654e-01,-4.303416768577736917e+00
7.867840582824501716e+00,1.200909008265496514e+00,5.461647238526972092e-01
7.287739141140285426e+00,1.883295474887304588e-02,-2.721761012024382698e+00
3.473552538216626129e+00,1.159313820490591729e+00,-1.246158435891662197e+00
6.894656864668455398e+00,1.067167694723323956e+00,4.779111829603915340e-01
2.153875507662934563e+00,6.024970386186794258e-01,-9.110962951525116704e-01
1.989072167576370509e+00,6.970885742684598263e-01,-2.112819607554827339e+00
3.769434900430858715e+00,3.639362797736294119e-01,2.254880193274196587e-01
5.673459091836280166e+00,1.763607254201229102e+00,-3.151421053884569279e+00
1.562686900340184648e+00,-1.776792403447519320e+00,-1.231581754358405389e-01
8.841994649079669699e+00,2.289591447792195922e+00,-3.414028265075244040e+00
1.967145431359872187e+00,5.652147651051163679e-01,-1.207343402025299328e+00
1.247501067299958827e-01,5.881914121113814009e-02,-4.710785362573144952e-01
3.326174261072558647e+00,-6.715054073602862994e-01,-4.169020567100509389e+00
2.284123673006424493e+00,3.382104164499556420e-01,-4.240437879301349966e+00
5.729111290220246566e+00,-4.219346669366537128e-01,-4.919236883061057219e-01
9.101796824014355636e+00,6.576210249100983285e-01,-2.497036955374553280e+00
8.204930117265746503e+00,2.668800695156569258e+00,-2.442601146120776168e+00
5.617109776156169465e-01,-9.600908850712375209e-01,-2.991179055652164909e+00
1.456581068520401478e+00,5.047055992972410143e-01,-6.405442830132653809e-01
8.108199353462760328e+00,3.458746117025248701e-01,-2.078843209717846197e+00
2.287004108073372066e+00,6.483272782139275492e-01,-2.522712214624091676e+00
6.308079498175874988e+00,-2.760693426788475846e-01,-3.897109367719351791e+00
2.481841309938782381e+00,7.740373676374467937e-01,-3.759280929484598577e+00
5.275746609756236438e+00,1.000381976635486891e+00,3.563666549521284921e-01
8.962593768814160811e+00,1.269512426341217637e+00,-7.077507030767880014e-01
8.757030666067024072e+00,5.443931870564058251e-01,-2.988207714858985398e+00
6.119958996622369973e+00,1.959050203672080492e+00,-1.181562331712400660e+00
6.134835981043730513e+00,-3.967911932346439574e-01,-1.179366751606432784e+00
7.567533379684238115e-01,-1.411056861731839751e+00,-2.508809361186875364e+00
4.973472196799060718e+00,-7.165529248128510442e-01,-3.657059043908894136e+00
3.811877991538604515e+00,-6.213677188893558245e-01,3.084084258459866001e-01
8.795835583926576717e+00,6.181580195370006692e-01,-2.636362939077662171e-01
4.996256531242174503e+00,-7.181188785337294656e-01,-2.577360994454342080e+00
5.712361156744158563e+00,-4.782355795752309402e-01,-2.724360987833764014e+00
6.860221838117360527e+00,-9.082438885446883492e-02,-3.023107789879115881e+00
7.293423222772336345e+00,2.338953494545545020e+00,-3.313398716753382267e+00
4.244364580718125168e+00,-8.436481648080744744e-01,-3.683509629833378041e-01
4.280222209184565862e+00,2.117283666453995822e-02,-4.108356905179039842e+00
6.085985353433033040e+00,1.865866043917434602e+00,-3.759385305590931647e+00
4.646397418712986394e+00,1.472774362635485002e+00,-2.161661805560862959e+00
2.321529536946496108e+00,-7.748321163414456647e-01,9.695142441633147756e-02
4.484052396263481732e+00,-5.616234676028235562e-01,-3.960487358711670236e+00
6.931913797014147782e+00,4.052642327733297911e-01,4.618029493686473530e-01
6.573468187216148451e+00,-8.269074396347188272e-02,1.132003747191887427e-01
2.648999973736916758e+00,-2.620701166042143648e-01,-4.272414815404549593e+00
5.126599841070745178e+00,-6.322370171020552654e-01,1.827576272997597506e-01
7.724742658205554058e+00,2.552175147662750776e-01,-1.005693602335318459e+00
5.444189618619895477e+00,1.878653178937477186e+00,1.256498412876033977e-01
6.899707477814365220e+00,-1.617633341396057522e-01,-3.176106100995518933e+00
3.301409799651138677e+00,-1.238592462805002015e+00,-8.853587954764460255e-01
2.496941387620696506e+00,7.459230647540897596e-01,7.806757622889509696e-02
1.889758841078810425e+00,5.429127533784875448e-01,-9.257228336756895271e-01
1.497338053774480704e+00,-1.320264224568129308e+00,-4.318018729920241938e+00
3.228536233816438283e+00,9.905983318145950012e-01,-4.054448029608729298e-01
7.667846747897248960e+00,2.483186451662431071e-01,3.995995167665363779e-01
2.084306445878965519e+00,6.878923677222057442e-01,8.929180563230028692e-03
6.589355974026731566e+00,2.100179848835313834e+00,-3.439075862865572653e+00
3.988406230665723307e+00,-6.784617059149878893e-01,-4.108762148092197641e+00
3.348123260515856181e+00,-1.106376363610817037e+00,-4.187877297925887810e+00
5.169174417811097655e+00,1.224012564543293990e+00,-4.120549351406173955e+00
5.143638508544132293e+00,1.628241455055517539e+00,-1.556153052472851461e-01
6.900641485931511276e+00,1.512144815985211332e+00,5.270999949522829908e-01
1.138709424216811872e+00,-1.957032869721005763e+00,-1.100923877930068517e+00
3.019345270789234537e+00,-1.343921785699157434e+00,-2.269182827854957285e+00
1.945558866640108020e+00,5.039837508577226233e-01,-2.448005534797039751e+00
4.349466685840186919e+00,-8.509723562222382132e-01,-6.295215807805829566e-01
4.375575337655816632e+00,1.461823900334336956e-01,2.848813046827310957e-01
4.455708511593186039e+00,1.539730490078526692e+00,-2.118393576863864869e+00
6.834324008465782363e+00,-1.643586552212576712e-01,-2.187559822656142128e+00
6.213067749311677268e+00,-3.605602272155487009e-01,-3.419140513074165888e+00
2.489176852146607999e+00,-8.087535031898035465e-01,-4.229887000778941974e+00
9.024247616070788069e+00,6.783925761027742585e-01,-2.851677898366843100e-02
8.933508447456791401e+00,1.248799190936820347e+00,-3.356938076307951491e-01
4.943179664063876988e-01,1.777052124003420941e-01,-4.119940158772491756e+00
5.770609496324887289e+00,-1.777061841963746003e-01,4.422157939256675663e-01
1.789804117612390000e+00,-3.878114417309516671e-01,1.548724771170512937e-01
5.807781480547375530e+00,-3.252105395856652037e-01,2.866110199317035978e-02
6.239573860074677292e+00,-2.933652179064079601e-01,-2.101466972144510059e+00
3.902899055270343087e+00,-8.904004110462437893e-02,2.079265314784387864e-01
8.166727257945817442e+00,1.492778528473453825e+00,-3.839282051694116404e+00
9.079086259913147217e+00,9.963417730689508867e-01,-9.332513142170046905e-01
3.863758892065839223e+00,1.303656318659913049e+00,-1.828887517220188164e+00
1.183226519396483267e+00,5.925818244064066931e-02,8.308490920833220411e-03
7.501362889169208792e+00,2.499824575803670790e+00,-1.533656251035615758e+00
2.739759307899806373e+00,-1.534902460813451386e+00,-2.864587087853531777e+00
5.908164866993347530e+00,2.002899184344455019e+00,-1.403867001654223845e+00
1.284915787918037511e+00,-8.911952398369509254e-01,7.373098446804404738e-02
3.721784890453354588e+00,1.171253818563569693e+00,-2.470664467667107900e+00
2.111990990430972825e+00,-1.728194251848423457e+00,-4.207105981582277110e+00
5.850335666840635884e-01,3.969835952638389037e-02,-4.125760509424268641e+00
3.109870748184637268e+00,-1.248572157414128636e+00,3.726349230074512547e-02
7.380192026947250739e+00,2.414171995026553663e+00,-1.350878174231114004e+00
2.850590325426051841e+00,-4.777267448678417239e-01,-4.181755527576076936e+00
8.012763492482196659e-01,-2.052422276186304462e+00,-2.245170549072094790e+00
7.141962149538798599e+00,2.287029658692026235e+00,-3.294284602110441273e+00
3.048247488877209310e+00,8.575030995791866895e-01,-3.724907262150102483e+00
1.217076060625560840e+00,-1.942973405973560386e+00,-2.380367009350337071e+00
7.094288999861490197e+00,2.177285424476771869e+00,-3.868847418538876592e+00
5.664819991657175535e+00,5.137345940964190838e-01,4.141560617642319198e-01
1.503574640111273952e+00,4.455301954191994707e-01,-2.264360269011545856e+00
6.693448279348448438e+00,-1.637705836611333954e-01,-3.749639567884840652e+00
1.325914453515051994e+00,-1.934915101259260917e+00,-3.155379521050665770e-01
6.481271105723500625e+00,-1.753528373731908785e-01,1.336193304271013349e-01
6.230013557697551718e+00,2.038753264203430948e+00,-1.430091025587393094e+00
5.287214853831658345e+00,-5.326590819254900522e-01,-7.684365793389053012e-01
9.022788307988559353e+00,9.070895738736384217e-01,2.977559674209258600e-01
3.642024296157807761e+00,1.151409630422584485e+00,-1.672931568574775651e+00
9.016279044756471350e+00,1.301632239646148381e+00,-1.935468395610393744e+00
4.908454574287649308e+00,-7.620739503341088517e-01,-2.210603935733284953e+00
8.478342990388039624e+00,2.710475914861209645e+00,-1.881566659803402430e+00
6.075589165333650676e+00,-2.830422721848233070e-01,-6.988820907372307323e-01
1.156280690762674590e+00,-8.706728865195171307e-01,-4.397630206516717877e+00
1.225471484562902669e+00,-1.332135081357072703e+00,-4.321089817056563476e+00
1.095112807728034765e-01,-2.051563806301192894e-01,-1.594191600499519801e+00
3.208295764299155639e+00,-1.033343885105270310e+00,-4.133852101786798627e+00
1.250343888048569552e+00,-2.010479010561186719e+00,-3.994085497551472574e+00
7.001864281436401605e+00,2.240096376958252922e+00,-3.113871282229050408e+00
2.841935447838024764e+00,-1.429470568260734487e+00,-1.518841834144501579e+00
9.636114179714831973e-01,2.389792853221677782e-01,-3.899307326946875651e+00
2.136413901506883040e+00,-5.641678518497751649e-02,1.056990904512018770e-01
8.738114902732053935e+00,5.743333757094345460e-01,-2.423388330353161368e+00
8.690526796520781971e+00,2.760604765645601422e+00,-3.526825399395963956e+00
8.922454637650698572e+00,1.295098104403591854e+00,-1.573765067107056881e+00
7.738307525002500853e+00,2.536397240322051605e+00,-1.331051925868931063e+00
5.361215588679455912e+00,-5.290498709563771218e-01,2.011433751193674735e-01
4.461726663181241115e+00,1.483176202361683904e+00,-1.111558608910446333e+00
8.784746375582194844e+00,1.780307755680053283e+00,-1.569492815244394324e+00
6.889570447528491570e+00,-1.441726115557468435e-01,-2.939193646923794923e+00
5.127005046705495950e+00,1.559364606561384203e+00,-2.157681961958119565e+00
2.217088558002984211e+00,-1.583100789092632299e+00,-1.572809431931043278e+00
3.026080011033386086e+00,-1.402754000836840209e+00,-3.460937390184543716e+00
5.321167178225494787e+00,2.649547063103101507e-01,-3.992702392537511358e+00
6.501873146703603723e+00,2.149765813980334173e+00,-1.789437071281497760e+00
2.690539027141371164e+00,8.609597613079253975e-01,-2.323506142804401264e+00
4.136476413246557016e+00,-9.034937654307431121e-01,-7.994463592969777155e-01
6.802698045352233436e+00,2.137114063477209669e+00,-3.820652525556968548e+00
4.588701078662890676e-01,1.245153507401236953e-01,-1.295640634409035874e+00
4.866404108203851386e+00,-7.150603674660672704e-01,-3.684604949835991405e+00
7.302840513888276819e-01,-1.549238078468546886e+00,-2.801376286678976424e+00
1.730739977240845828e+00,-1.670873547041259899e+00,-4.324137868751637193e+00
2.126844274520744094e+00,5.877906323844027670e-01,-2.753523023197866681e+00
1.050806151662123933e-01,-4.059793797419487538e-01,-1.807006090608174187e-01
2.413282027803493601e-01,-6.774137392522806833e-02,-3.486193617188579896e+00
5.016641627004596593e+00,7.306307198635100253e-01,-4.169132842540097528e+00
9.066250707712484314e+00,1.288451937364120559e+00,-3.401048379237880503e+00
2.898399052863017467e+00,9.731817787780674411e-01,5.941050916454838904e-02
2.058009730236834312e+00,2.893294231379414660e-01,-4.281669387636171997e+00
7.544367430247195472e+00,2.551766035637808017e+00,3.276601917733741320e-01
5.110863860261205538e+00,2.134859345144370923e-01,3.771840344750799212e-01
3.171818519939753944e+00,-1.256601732628217727e+00,-1.759308546593412403e+00
3.689978952067371587e+00,-1.181821101552989139e+00,-2.839195238849517189e+00
7.661843064778017798e-01,-1.514021831940302043e+00,-4.281702733816080908e+00
9.885686572521943383e-01,-2.028211893054559400e+00,-1.866874927037966758e+00
4.056938634098639085e+00,-1.949904236379584599e-01,3.399459369470859693e-01
9.266418721031403294e+00,7.034002332144490000e-01,-2.928804418626286932e+00
5.796657785147158570e+00,-5.142711447685801573e-01,-3.846549915828149757e+00
8.352493021982736465e+00,4.810065859918453701e-01,-1.448775946158779471e+00
5.369029475437295140e+00,1.808643258606777326e+00,-1.555662406935429676e+00
5.989806206674739286e-01,-1.602935320458506618e+00,-1.666328475047525126e+00
9.163482757927553735e+00,1.056777094922217053e+00,-3.045773605753018920e+00
3.941233049001250377e-01,-1.214005186542539416e+00,-7.297208436819877519e-01
6.993724064701537735e+00,2.235892471344142596e+00,-3.785516933351799285e+00
8.275770084700884155e+00,2.647413631063640249e+00,-2.286330453197086499e+00
1.721751096745546827e-01,-2.431166968345207235e-01,-1.618930034648802474e+00
7.017114371709117115e+00,2.245832080341156445e+00,-3.831228124442257688e+00
4.611368673626915715e+00,1.463127628010552073e+00,-3.175517839245354246e+00
3.709561099706373266e+00,1.139626736345222824e+00,-1.320167064119492917e+00
5.249020628569184055e+00,-6.093361419062343076e-01,-2.252377972310251941e+00
3.793243325666774357e+00,-1.140598276846848780e+00,-3.634322428847310826e-01
8.776766495439705107e-01,-7.795053533354052711e-01,-4.314241162384681694e+00
3.097217356523682241e+00,9.296602282340273860e-01,-1.147341916658228378e+00
1.438361471591404372e+00,-5.449732433115583863e-01,-4.317009503632529999e+00
8.142610338031515127e+00,4.603215818011233695e-01,-9.410624204820003946e-01
2.226939422929515633e+00,6.070966068283446537e-01,-2.152049980267157103e+00
4.744940524653366576e-01,-1.024148839947671030e+00,-1.452468257035623767e+00
2.306116899786112562e+00,7.358922130824296914e-01,-1.222741255632999180e-01
9.041437091367876988e+00,1.211738651930103439e+00,-8.642443800871263404e-01
5.244791043527833097e+00,-5.612794977200017410e-01,-2.092693004317396355e+00
8.420779506354945099e+00,2.591190038915909266e+00,3.456832618619126163e-01
1.382611507921681859e+00,4.475221123377436383e-01,-4.442286737813735398e-01
1.981049713967276915e+00,-8.564151411547889226e-02,-4.288632674746073015e+00
8.638080938744998605e+00,4.643868481518098612e-01,-1.417214013740477174e+00
3.674673258464483672e-01,-4.339678808963737255e-01,-3.041172916887847855e+00
7.306874826705461068e+00,2.329970659225361729e+00,-1.493885730381425692e+00
9.047983849264239709e+00,1.216380589390114286e+00,-1.751962130267958218e+00
4.733828287437688687e+00,1.211485759814198843e-01,3.931651326907496524e-01
1.815523882203275985e+00,-1.258653967329978363e+00,1.666101683648605336e-01
8.159633224556358755e+00,3.575594416519018992e-01,-1.263177293411121005e-01
1.480317929821912237e+00,5.017751236319285546e-01,-1.232583335054345947e-01
4.333806300798192623e+00,-4.201864322270480456e-01,-4.086275460639872570e+00
5.871206510632548614e+00,1.784136245585060232e+00,-3.123978149079414290e+00
4.774562627267465054e+00,-7.509591511436864986e-01,-1.299893968053222215e+00
8.420479803055763712e-01,-2.016897235338463545e+00,-8.630781014837762832e-02
3.815156113518738845e+00,-1.001280768320075731e+00,-4.159010535345949222e+00
1.582670885331359578e+00,-1.817727193305030076e+00,-5.815814223578280595e-01
2.355022422337046617e+00,-1.618275614430365383e+00,-3.606146398048722723e+00
8.824388436210236719e+00,6.145779590379341073e-01,-4.399363157824537351e-01
4.492210850162753566e+00,-9.265451479455605321e-01,-2.958273766007466943e+00
8.886172443108938168e+00,5.267243152422984576e-01,-2.147263797139256081e-01
4.675075595444440069e+00,2.741917029209410273e-01,-4.084521542016601892e+00
6.069974022803497959e+00,-3.931168814669586675e-01,-2.703162218781024695e+00
6.358406913417156581e+00,1.149698629471133993e+00,-3.905397289451873366e+00
5.118266530155643479e-02,-3.812770980216193678e-02,-3.421112547072074350e-01
6.919409646425718208e+00,1.850929124785066104e+00,-3.949671240082338830e+00
1.315046368889406514e+00,4.589351421909302897e-01,-8.804441368134579005e-01
8.749942469866400785e+00,1.698393328858906592e+00,1.331450880704269646e-01
7.433666412083039354e+00,2.481062700896180750e+00,5.818259561606156649e-02
3.327936971147111844e+00,1.016776106512157440e+00,-3.834071950456579447e+00
8.723697943126138554e+00,5.630707121724852771e-01,-1.156347183167206971e+00
6.665394770862760332e+00,-2.663690941954141578e-01,-2.652306564020808111e+00
4.443750698892179885e-01,-7.986658304870690728e-01,6.121581439214011586e-03
1.352643826195603083e+00,-7.899767085297474400e-01,-4.298012214100204176e+00
4.446608048010529224e+00,1.310619422331643857e+00,-3.980125458553807061e+00
3.097256116340341592e+00,9.441489954394119977e-01,-3.783701249173338610e+00
8.517164478682341056e+00,2.698668811260092060e+00,-2.311509210844389095e+00
3.287414343659098015e-01,-3.411397554769819984e-01,-3.057519781179845353e+00
1.781898095924031367e+00,5.298481796965489599e-01,-2.879989955747482358e-02
8.260716237266224837e+00,3.863436892510530019e-01,-9.289996083709972652e-01
5.610825656797843841e+00,8.437496947573263073e-01,4.348125435124487459e-01
4.854421378425972655e+00,8.303423829900561381e-01,-4.031698867820050047e+00
8.929122108164294858e+00,6.645870817836231348e-01,-1.114408614853259039e+00
1.603970446319348042e+00,-1.954515491477918587e+00,-4.266226779570908789e+00
5.740751653258046261e+00,-4.716217869547997821e-01,-2.911347918616697061e+00
7.059589628371757186e+00,2.342144595779748872e+00,-2.289142301237867994e+00
4.027715576583178247e+00,-1.013522935447179085e+00,-5.370287575657091139e-01
5.081845491695667683e+00,-7.018066240859547333e-01,1.025772061909577676e-01
4.553632120190959753e+00,1.277575961522206205e+00,4.311178772194032005e-01
2.438930945464090172e+00,-1.562219682470258997e+00,-7.946623851895018298e-01
1.938670008195692018e+00,6.420408592778613643e-01,-1.110652469583838231e+00
2.289085804427804516e-01,-2.031665374512874392e-02,-2.425959043043013796e+00
1.002924206450338085e+00,-1.946958392767262902e+00,-7.384764053179598831e-01
4.650076423186574992e+00,1.457602533148128376e+00,-2.643593723277216867e+00
8.710279057210532638e-01,-1.499328973339093540e+00,-4.221916912831889412e+00
2.957559116667744181e+00,-1.394999975179760821e+00,-8.452680407341164326e-01
4.396244719080839580e+00,1.332446049334634619e+00,-2.580205921591308016e+00
3.271012624365887245e+00,1.037235194525847115e+00,-3.966919904186728907e+00
8.051987107677737399e+00,4.963580584257882844e-01,-3.824024596760021488e+00
1.969927894879550667e+00,-1.681059316980730634e+00,-8.175797090442000759e-01
3.902993394702369390e+00,-8.150130462067162532e-03,2.504772488972775712e-01
7.291959443622585191e+00,2.897301881880270380e-01,-3.881351928729906309e+00
8.987598838156658942e+00,1.020880377305795284e+00,-6.644870209652297133e-01
3.437760588031463449e+00,6.504231169812112467e-01,2.041633743722675309e-01
3.091445872815311358e+00,-1.295384492705797586e+00,-1.395349688911869279e+00
1.232318281739859522e-01,-1.960117616092182102e-01,-1.379735377785251682e+00
8.346753481645578177e+00,4.100310043462336296e-01,-3.797138963381262222e+00
7.471300390731173025e+00,1.604128746802938599e-01,1.142973591477785822e-01
4.070221684460080258e-01,-8.983243093110154787e-01,-9.336130361256564925e-01
5.004018198894999436e+00,1.655589397409362951e+00,-8.059730959465600808e-01
6.510572653411754729e-01,-1.894787923143817387e+00,1.384761519441395083e-01
9.043651751459666599e+00,7.782521211097264136e-01,1.638603063629422152e-01
9.102480268060352486e+00,1.517077478471435814e+00,-3.392103468943300726e+00
4.654075490901178114e+00,-9.292862775500727590e-01,-3.989020756690945912e+00
3.984047148900689006e+00,-4.966260760103640703e-01,2.576326409701746312e-01
4.182434272568828604e+00,1.278896458356006294e+00,-2.575163229742433835e+00
4.030641883440576834e+00,-9.521046799759106394e-01,-4.176366066431170587e+00
1.141953229864254737e+00,3.413226817929924661e-01,-3.217704739270964787e+00
9.222449114811460902e+00,8.934209519400122534e-01,-2.822757240345239449e+00
2.747383683713127134e+00,8.775054693432415842e-01,-1.970296337923242991e-01
1.693100468843434347e+00,5.485624054403395178e-01,-2.251737344715739386e+00
5.583076999407480479e+00,-6.080820473050400077e-01,-3.171515911928194154e+00
7.428170511322016445e+00,8.922615324741811627e-02,-3.287923186626439787e+00
2.174024758459313311e+00,-1.599340312375863604e+00,-1.270704667317938963e-01
8.358225417073798624e+00,1.705010022675280679e+00,6.685478085686543670e-01
3.241337937191602236e+00,-1.339719791443857000e+00,-2.501636257893232074e+00
8.851997290235768645e+00,1.965553007797395946e+00,-2.435143571925200590e+00
8.293821845429970807e+00,4.321506818948871453e-01,-3.328968834139236499e+00
6.124624679489049761e+00,2.921340339665171038e-01,4.905671508439331530e-01
8.909421302252630070e+00,1.259126332802478876e+00,3.850035635764926245e-01
4.014866619566812567e+00,4.183449735740028541e-01,-4.074547754487754858e+00
1.430279861587280932e+00,-1.948487651611133131e+00,-2.132937931885051874e+00
6.824126242057957370e+00,8.267110847421503816e-01,4.788243993704746626e-01
5.818651589362650256e+00,-3.910293164786430853e-01,-3.149397027437363383e-01
4.554686757849645495e+00,3.495087601696336699e-01,-4.121501592805804748e+00
6.254690852271477475e+00,1.980291367601801023e+00,-3.698794282918420162e+00
3.380051248512538908e+00,1.062399911217892789e+00,-3.530246582001423938e+00
2.941399209358405376e+00,-8.187175520000854467e-01,-4.125408477557061637e+00
5.675093522449041750e+00,1.869164325800241722e+00,-3.981108360991779671e-01
7.393367836897870582e+00,4.391557186828661252e-01,-3.878346256993614904e+00
2.437028525342490148e+00,6.890397007001860530e-01,-3.282573792173582916e+00
8.145805578124422297e+00,3.507840905974164980e-01,-3.857293584576965362e+00
4.227552010512646063e+00,5.415334483919339442e-02,-4.077116826167036301e+00
5.671108662666455302e+00,-3.709076835147966378e-01,6.553714328268325784e-02
7.189000598374066797e+00,2.492836871599896642e-01,-3.935119569771435177e+00
2.640208961746274063e+00,9.732696858220204472e-01,1.778160004226595481e-01
6.549100038055607476e-01,-2.264903682901204252e-01,-4.401535466272610719e+00
3.560967270470282831e+00,1.209221963973397429e+00,-8.760098196973892248e-02
4.111181853043304635e+00,-9.380317790226023744e-01,-1.541954147719864610e+00
5.347370711112507280e+00,-5.701453563933601698e-01,-3.471444671152422945e+00
7.768441770105086519e+00,1.788693650374111044e-01,-1.731201179998723028e+00
4.301549322014292187e+00,-9.437048638158815894e-01,-3.759835604251194230e+00
7.724469562222745722e+00,2.556375802397778507e+00,-1.888173372848005682e+00
5.988503498374813105e+00,-3.862414698106412247e-01,-2.981044314550476582e+00
3.010725427387647146e-01,-4.489001476841046889e-01,-3.390265332059897663e+00
8.757692649886779535e+00,1.995416936635005412e+00,-1.722603844241322957e+00
5.062832281849511062e+00,2.872210922813152600e-01,2.037450937758240321e-01
3.561076001497836874e+00,-1.177168582618952852e+00,-2.086077387371060077e+00
3.093842167487282246e+00,9.927190049005991668e-01,-1.772652482440753685e+00
2.452174098384173995e+00,-6.453352128376931285e-01,1.485431851444009022e-01
8.406912052778803712e+00,2.715031173377056462e+00,-2.995407160352109965e+00
6.850748700478882292e+00,2.228982992686021625e+00,-2.204591397677619913e+00
3.936735575689174649e+00,1.234375389361179964e+00,-2.180272946463559514e+00
6.144648315062449129e+00,-3.758438469413637462e-01,-3.859805523268522887e+00
7.906688378516625981e+00,3.433776938913511434e-01,-1.342924142160571543e+00
7.672864597710636225e+00,1.045853010492979074e+00,5.062416846830627426e-01
5.776527658742053539e+00,-4.781305835602565057e-01,-2.797097720299612789e+00
3.914967030063843278e+00,1.258913866495068756e+00,-3.051523821103276912e+00
7.619557898647185468e+00,2.421924670233970733e+00,-2.095324697503756273e+00
4.155898887799519770e+00,-9.770732306877610851e-01,-4.015788957402278925e+00
6.565604280568450690e+00,1.101148236648977097e+00,4.077391021150484907e-01
3.867886318772598475e+00,-1.048520013270441309e+00,-8.769018988372990764e-01
4.668174522393189640e+00,-7.570820940533189436e-01,1.010977183926394796e-01
7.884220952188523590e+00,9.262488814338265541e-01,5.119064767469652111e-01
6.699284830612534769e+00,-2.222034799161551333e-01,-3.630030348446897648e+00
3.342389240772781767e-01,-8.692141530031827212e-01,5.124708249924433273e-02
8.101733596108227076e+00,4.296985660068253221e-01,-6.023627077063000712e-01
9.240903225288374934e-01,2.732946049287487966e-01,-8.081476211300133716e-01
6.022087374710692664e+00,3.893943561621056038e-01,4.614718586750420348e-01
3.695054806510510215e+00,1.202304410614871921e+00,-2.094098822201993837e+00
2.156345104789314959e+00,-1.619563758346983740e+00,-2.555288934468118001e+00
8.229895043527216458e+00,4.378777388541472138e-01,5.514275882705115261e-01
4.882921644391118754e+00,8.496296736134384409e-01,-4.067597726774457634e+00
8.283120898685018219e+00,3.850708712169911840e-01,1.183265017434498162e-01
4.391307073499142177e+00,1.198923670258395191e+00,-4.106576834243492513e+00
5.467480656158748786e+00,-6.044833300385707986e-01,-1.440373428877397277e+00
4.434620388387423340e+00,-9.455275416762484175e-01,-2.730274308138286976e+00
6.041138477572250309e+00,1.943953526113131103e+00,-2.043930263201492181e+00
8.838074422975701339e+00,1.748734434913956637e+00,-3.804308663242548239e+00
8.514845505123661340e+00,2.612916777846408412e+00,-7.723213716497521197e-01
6.654874591980236787e+00,-1.702308674036211167e-01,-3.046684849009055895e+00
4.040210585963703305e-01,1.850814022302712802e-01,-1.508560095829160508e+00
3.362921426463706176e+00,-1.295925404896425714e+00,-2.262485594918048903e+00
4.225927476923710735e+00,1.349282184624544190e+00,-3.441111098327202633e+00
6.547244270860239190e+00,1.227922129997774503e+00,-3.993892001744407949e+00
4.801490346718340629e-01,-1.179131857647981452e+00,-1.508262005909511316e+00
1.556746474898551780e+00,4.553763542905813755e-01,-1.537908948377606055e+00
8.252258946745371304e+00,1.938243773902779576e+00,-3.904748999822452937e+00
5.026557656904834914e+00,-6.844771081750892217e-01,-3.546133553852884646e+00
2.163580983163015503e+00,-1.665885868078406995e+00,-3.716868454403090549e-01
1.555369840549329030e+00,4.643494813327504467e-01,-4.074345309022625372e+00
2.383306767196190279e+00,2.316984780936710009e-01,1.446030645280428628e-01
6.960109491224650835e-01,-1.362303434237875699e+00,-3.653227821148362420e+00
6.422979928692109652e+00,-2.249580484691405535e-01,-1.992272719244115198e+00
9.200166387802021228e-01,-2.068168238277152682e+00,-2.283113483674942490e+00
6.481274421182434686e+00,2.142886332110322645e+00,-1.262999620569966286e+00
7.055637802414660875e+00,1.240411885523619473e+00,-3.826693099960511102e+00
8.279153852415951365e-01,-1.803580468652944857e+00,-2.631845596865922232e+00
3.418167516690016061e-01,-2.303589792993933349e-02,-2.990323194022796116e+00
6.565747688966325768e+00,1.962033588075059676e+00,-3.924273114569502674e+00
2.088721673193667083e+00,-6.309776431680331754e-01,2.453644375722403570e-01
8.551524196617981133e+00,2.662299255382614138e+00,-2.244787738460516380e+00
5.121872384772901299e+00,1.630745713332103053e+00,-1.077204404176618002e+00
5.130190605861218778e+00,-6.979063054820813239e-01,-2.480322222485936479e+00
6.464866610947378689e+00,2.560562047359266069e-01,4.784205331816338558e-01
8.036380898033298692e+00,2.268641772438644733e+00,5.472749573211184160e-01
5.306269660910802877e-01,1.412482706649344222e-01,-3.413230392680888237e+00
8.030566429095786773e-01,2.239933152956163354e-01,-1.715594494407545856e+00
8.774017833895422225e-01,-2.207418842328855157e-03,-4.314330099271368901e+00
1.827342793797062326e+00,-1.717342558339572500e+00,-6.621379607326119965e-01
6.169838448384163954e+00,2.574319775874683858e-01,-3.924524298964898072e+00
8.995157043624528725e+00,6.078853527749903396e-01,-2.557777945209960713e+00
4.306301747979649264e+00,-9.868730143170260094e-01,-3.123172931024298826e+00
2.556533163591295565e+00,-4.041008690041810181e-01,-4.202435962235703926e+00
8.762122466195457759e-01,-2.013985694361088097e+00,-1.183558079042081213e+00
4.786733975956561693e+00,-8.596975319954541783e-01,-3.052783005367157632e+00
3.263054265094065265e+00,-1.229986015022212609e+00,-9.358590227481998758e-01
8.279850003916862988e+00,1.234489768602081483e+00,6.535726591170800681e-01
3.615703378714907323e+00,4.049754656039383782e-01,-4.129262841298283249e+00
8.900748266898604655e+00,9.786134867326070630e-01,6.278209390424037695e-01
5.101500208346571696e+00,1.662353094741291892e+00,-1.930150160003013760e+00
5.464495943714435811e+00,1.847067634706044625e+00,2.531366609276752833e-01
8.087442106991959978e-01,-5.222421596679770878e-02,1.345087659695277105e-01
6.688090183204520756e+00,-4.997068104265397354e-02,-3.944877093360978471e+00
1.293604576763936587e+00,-1.812260821572566405e+00,-1.127493574690805911e+00
3.539128683598837810e+00,-1.184105014868406247e+00,-3.271527786063259668e+00
4.263181925968883235e+00,-1.319971870232622413e-02,2.047890942544208781e-01
1.227820650601622043e+00,4.406207563073274436e-01,-1.805507944344888482e-01
3.485377271757334583e+00,-1.230234602711543834e+00,-3.471978892278551054e+00
5.697570957385229562e+00,1.815379716642384178e+00,-3.809091678366924416e+00
7.602009676556893858e+00,2.457537188390025218e+00,-1.250073145744074132e+00
3.897169246384982966e+00,1.250165963495127874e+00,-2.094801955918697889e+00
7.410502560770090064e+00,6.039252449186542915e-01,-3.878138908569487953e+00
3.796458517194540860e+00,-1.174622393178971658e+00,-3.088114332898435510e+00
8.549210913272155210e+00,1.624915211611859034e+00,6.499540014953679723e-01
6.528572005427743186e+00,-5.792537577761266293e-02,-3.971505276902875803e+00
5.102651590989547792e+00,-6.161994123400985623e-01,-1.246527734123896503e+00
2.994019092410885818e+00,9.383161208979088341e-01,-1.837052548029894705e+00
7.998887274103338996e+00,2.505123711553970178e+00,5.428010519427971525e-01
2.419218507041130284e+00,7.634506106653645707e-01,-3.920731913038442595e+00
8.823277547730000947e+00,1.856557060241675217e+00,-3.049369749102605276e+00
4.062210686567837570e+00,1.337308059133897942e+00,-7.505274034831406205e-01
4.487697581656889589e+00,1.192802981703566578e+00,-4.137027272577950221e+00
7.436826432921786356e+00,3.892636459742106481e-01,-3.885063697255188853e+00
8.065221653429738069e+00,2.324217464557024382e+00,-3.932098702523374012e+00
6.176739433714004690e+00,1.928902276994928444e+00,4.110981447706780756e-01
2.748057357389087851e+00,-1.447100909144087399e+00,-6.089599036558464018e-01
4.388464112961279362e+00,-9.412418742833885688e-01,-3.103305341791519290e+00
1.151015757771967074e+00,-2.087006745150646214e+00,-2.248873756532604240e+00
4.511817346371052473e+00,1.493384227449171542e+00,-1.177732194489394674e-01
2.590554237608453825e+00,-5.155047448430353230e-01,1.445474082039448493e-01
8.352619403514649932e+00,2.649550773252085101e+00,-1.060491735161188220e+00
1.211575316858489293e+00,4.026903729050318459e-01,-1.478791259362640442e+00
1.052114090142947544e+00,-1.992500442878019529e+00,-6.859998824901344383e-01
4.393921753421093257e+00,4.214377828630089251e-01,-4.109034764631849690e+00
4.966019957943860419e+00,-6.462496295193643769e-01,-4.109858929720580534e+00
4.054314716494402226e+00,-1.112744900210604682e+00,-3.821065595152764338e+00
6.301825206451810324e+00,2.045968260372088565e+00,-1.272261332527321542e+00
9.065531822983455612e+00,1.598750969805007749e+00,-3.675106289679766380e+00
1.301707760945195025e+00,-1.397584113309398468e+00,8.397967998230668196e-02
3.626045834967997816e+00,-1.257699293831326726e+00,-3.241160287862686840e+00
7.692972633854053832e-01,2.043877643189966897e-01,-2.468771628993939871e+00
4.019594588351722564e+00,1.089060753352496969e+00,-4.050081886998959213e+00
1.767951441770873267e+00,-6.914414325959398200e-01,-4.266035598107958293e+00
6.761511898460383918e-01,-1.497714131506423074e+00,-3.605375292248702568e+00
7.050105824495125795e+00,2.358451192020035947e+00,1.319244950234903513e-01
1.258613178229706642e-01,9.003450453865846637e-02,-3.007391852275696428e-02
4.357866573144992373e+00,1.359001815863066787e+00,-2.280516347978869263e+00
6.641422162039281929e+00,2.122726337214722037e+00,-2.374063141840597080e+00
2.598621214112714739e+00,-1.568190354068937253e+00,-3.447912854223335710e+00
7.089449306272814333e+00,2.381934465815572111e+00,-2.252244878303776510e+00
6.308956600487080069e-01,-1.959195596191636524e+00,4.212069362793724459e-02
1.389472954359484813e+00,-1.836229041055388533e+00,-6.835125977043358114e-01
3.259819212473062056e+00,-1.175598850608279733e+00,1.361463371897376207e-01
4.933138033882342732e+00,-7.688844492828164068e-01,-4.063886644939281645e+00
2.034071347321604328e+00,-1.623769429319993352e+00,-1.838072561454212162e+00
5.252314733333987018e-01,-7.447648312516910174e-01,-2.178072260242887470e+00
1.237784792949835344e+00,-2.042571072844071800e+00,-2.278532530086496699e+00
3.173225415266109461e+00,-1.253265460802182929e+00,1.777355314151775612e-01
1.640645229797097704e+00,4.677053027564386234e-01,-2.703839255157836519e+00
3.318837730210592696e+00,-1.218012795987643448e+00,-1.776511564588244108e+00
6.847781402067655954e+00,-2.029992327595163959e-01,-9.411699036920827544e-01
7.876683188013600123e-01,-2.055688274087639211e+00,-2.688461287542210920e-01
5.014806580943798942e+00,-7.052523720949134267e-01,-7.913643420651386151e-01
7.938185452309565626e+00,2.497156676486997462e+00,-2.777532483869807667e+00
5.624848308325340440e+00,1.091379927857886400e+00,3.625846017729122406e-01
6.095285774381409283e-01,-1.603445011134713383e+00,-1.799811204292738553e+00
1.827186994883509108e+00,2.026753249269020452e-01,1.174236086028233317e-01
4.539318366939339100e+00,1.391871726025886602e+00,-3.977875553301838618e+00
8.150913705402377474e+00,3.290218090654515315e-01,-1.512224575226781331e+00
1.386926779377274599e+00,4.640986488045741876e-01,-4.142063961798907457e+00
6.840924713226568699e+00,1.631679049814498184e+00,-3.864896509277572889e+00
3.215643871667560827e+00,-1.322313082693092223e+00,-3.974993724161513420e+00
4.282209012068462606e+00,-9.608356629936539717e-01,-3.316502383867701020e+00
3.331288830272358670e-01,-3.604863222914673204e-01,-3.441817856661397279e+00
8.588567213512549259e+00,2.212937732033139149e+00,-4.855560490269060780e-01
7.044943496527192650e+00,2.379648713134593141e+00,-1.521008583945312465e+00
6.041025075839816516e+00,1.324403194190420407e+00,-4.060255171948732311e+00
4.510807803187746323e+00,-8.115884737422818240e-01,-2.209588105055940499e+00
1.736659917320533819e-01,-2.318796887660398882e-03,-1.948314334482020405e+00
8.191231427342660965e+00,2.681137510873831786e+00,-1.256519885401472969e+00
1.658757367197245758e+00,-1.867342602066495827e+00,6.563172085279371515e-02
7.743395709730498844e+00,3.226426442159075481e-01,-3.910737290980769831e+00
7.884731531038798202e+00,2.227303237790434487e-01,-2.801935014578230021e+00
3.548670807004029815e+00,-1.276425441992949716e+00,-3.488597632288361616e+00
4.921372063189341617e+00,1.613596174209483980e+00,-3.242664189300183963e+00
7.386822921785261009e+00,1.462201058325805769e-01,-9.093049490889980324e-02
6.835386522716339286e+00,1.969650713401205788e+00,4.508491635285904464e-01
4.287763380063953633e+00,-1.038762922946185885e+00,-3.278335803795152881e+00
5.995926323321831397e+00,1.764969002198229830e+00,-3.993713522477760680e+00
5.461598448478857115e+00,8.787338865369017649e-01,-4.055849751924511359e+00
1.617113931270213190e+00,-9.250627596633704819e-01,3.718633093384941801e-02
