-1.625741913748524947e+00,3.742790871808035380e+00,2.283297152999224977e+00
1.320524672236087049e+00,6.962586664643117373e+00,4.555581639721151710e+00
4.178586074029848163e+00,7.746882278349668915e+00,5.148098505181953222e+00
-2.303422859769384878e+00,6.238944471498077071e+00,3.121605466862215739e+00
-7.353962567217698920e-01,4.231534088907891622e+00,4.146122586347689154e-01
1.076506442009978670e+01,4.988340724042443775e+00,8.986470906194075070e+00
8.156445314981230155e+00,7.392039544276909346e+00,6.015448121543337301e+00
3.052257543912284543e+00,1.404047669025719092e+00,3.397709889376315795e-01
-7.402960378961720433e-01,2.239342082186042582e+00,2.631717852479645625e+00
1.125912006995084447e+01,7.424169438781485830e+00,6.792067660030231657e+00
3.923025598684843018e+00,4.914731076752845595e+00,1.767473224010581490e+00
8.156924012730868867e+00,7.305137632046234231e+00,8.126166302839736844e+00
-1.797762063716174641e+00,6.409288545272294080e+00,2.104360095909780792e+00
-8.345254930591300413e-01,2.033710931140744638e+00,1.217732532664058898e+00
-9.674238843982864156e-01,6.048571763192903461e+00,1.399369743354260009e+00
1.227747496935040061e+01,5.288794162018145784e+00,5.864041616587317485e+00
8.577205982324334954e+00,2.378345296527906605e+00,2.684927756439278834e+00
5.716677242665534564e+00,1.282440874921084717e+00,1.974802710830288577e+00
1.136664158235150524e+01,7.603287862118946805e+00,7.254763149819741130e+00
8.565166327013740144e+00,2.527576447612917221e+00,2.519781883651749599e+00
1.099805466981387347e+01,7.224919641192171227e+00,7.769942729332901976e+00
1.136336028357736261e+01,4.555518378153634806e+00,8.088236299510482397e+00
9.963415230936613298e+00,3.580949922887111558e+00,2.222386489008316257e+00
-6.989293899387707398e-01,5.958965157821645597e+00,1.351313403824084824e+00
1.050035166987329660e+01,2.467661132689022541e+00,6.081081738950205207e+00
1.264327896328732415e+01,4.298529660172717648e+00,3.321502076483154653e+00
-1.391370402346699953e+00,4.049645838585592905e+00,1.804840499714255309e+00
-3.143049814198454195e-01,2.915653137152089069e+00,-2.386895879473265314e-01
5.350972809782409634e+00,1.432743688392033032e+00,1.790394485660010249e+00
7.894505407968017252e+00,4.385762703533986340e+00,1.935175568794160972e+00
5.862512526474592534e+00,5.734540328316144020e+00,8.563316525691906378e+00
3.483587675939609163e+00,5.598723311986419926e-01,1.449659271900365809e+00
6.686154777894561363e+00,7.397830973471086757e+00,7.495307746427668505e+00
1.154529221673573502e+01,4.970804299918098579e+00,7.199329271430827681e+00
1.124666738540453892e+01,4.728360878653414368e+00,3.294706122725131525e+00
-6.480440681868209207e-01,1.782248885144714912e+00,2.076198064320025960e+00
7.298297865500679826e+00,3.159345632117060987e+00,6.111882778234315694e+00
-2.031670693892729140e+00,6.800070957560673257e+00,2.869805684627498188e+00
9.501310311954302534e+00,6.585616786908795817e+00,9.655064598438594103e+00
7.078246393000175551e+00,2.394029143755429079e+00,1.834778646287752002e+00
1.812329072665185947e+00,3.901175778734525590e+00,-4.728447347914657706e-01
1.215984471389305988e+01,4.371624239266195033e+00,6.240101159875319325e+00
9.488216935790266815e-01,6.283577326437833399e+00,2.303989127487288791e+00
7.914402616749096619e-01,3.701553520525647123e+00,-9.237830353322045163e-01
4.720863672178091441e+00,3.052376151395251647e+00,5.477567051591167413e+00
5.413861838741511612e-01,6.407621730853448661e+00,4.703953619051937984e+00
1.922791278396690062e+00,7.133555679954578288e+00,4.971268307869030068e+00
8.733064108654076563e+00,5.123861550116703079e+00,3.101289347597917523e+00
-2.188726034065674231e+00,4.674190262499443804e+00,3.729393123998151260e+00
1.247981751225573888e+01,1.985624813707633329e+00,5.862495467080761635e+00
1.276526792376863462e+01,3.425597609044915615e+00,5.212055824196506038e+00
-1.396696783200927161e+00,4.162152455198488532e+00,1.803900486424438343e+00
8.339234832385884033e+00,4.499921571935776576e+00,8.078941393399242443e+00
6.342584342414699927e-01,1.336185663976191540e+00,-7.213673912947856648e-01
-1.017299025596422934e+00,4.171544233481228936e+00,1.062748731120652934e+00
1.251124537264846914e+01,5.095809481534936403e+00,5.208374582434932343e+00
1.039875364570509930e+01,6.435305171254254830e+00,9.850507589812991682e+00
8.704693981558836668e+00,4.962194563695933702e+00,3.082417668425862178e+00
7.739706239741881433e+00,1.841757078573033724e+00,4.760981418117766317e+00
-8.688648759402404220e-01,2.742686281163838391e+00,1.135746558179104859e+00
3.705321591758927724e+00,1.354158321997946057e+00,6.224650414779622221e-01
3.942238750498268107e-01,2.132424530135356378e+00,-1.305951553081867722e+00
1.073968968889329467e+01,3.406115343418948171e+00,2.973521884679513949e+00
2.055349529631571581e+00,9.740352884597422989e-01,1.861017170740202564e+00
9.735742301333479176e+00,7.509751409401201450e+00,9.023487522213642364e+00
1.136900203882070493e+01,4.084318459949265012e+00,2.763906056496121977e+00
1.144462279173602681e+01,4.630553052614172493e+00,7.689125099155826426e+00
1.809102863470463396e-01,1.044208797538958677e+00,1.309686004817695704e+00
1.019477299197630060e+01,4.976149583125035747e+00,3.386582741150390152e+00
8.199398218473350042e+00,1.717251730802250131e+00,4.636552582947655488e+00
7.359777640717485525e+00,6.344850561854080695e+00,4.280049561587833118e+00
8.519871886185374166e+00,4.244959856832247524e+00,7.885963059193711544e+00
-2.904518089431938344e-01,2.005118753693350797e+00,-2.298598616459341382e-01
-1.204722410356677598e+00,4.111092818341054667e+00,1.461893624155303328e+00
-4.696362754534129658e-01,3.536938383708431388e+00,1.483935975231616688e-01
9.253082056232409869e+00,7.872188806685750606e+00,6.695916860991292907e+00
1.186684664882464446e+01,6.532956705564592959e+00,6.059652331701194328e+00
7.116235492297660947e+00,6.852690608414156337e+00,8.147700986994182770e+00
1.257609066357272098e+01,3.653754468429807556e+00,3.821779620450347803e+00
-2.496974415511477918e+00,5.169883253379971677e+00,4.069865336147413082e+00
1.047164854016383906e+01,5.022621959804594027e+00,9.235157601417776974e+00
1.214907518897638994e+01,4.865313619721731264e+00,6.005238335169322816e+00
3.934617745607284167e+00,6.102872609029240891e+00,6.885512858655322255e+00
-2.151558320854231876e-01,5.300740676763376236e+00,9.031706867421888107e-01
8.826505445439185138e+00,2.144910142238540374e+00,3.210167413917816237e+00
-1.280514590285711574e+00,3.290331845158555701e+00,1.980549945623385044e+00
1.593960799057845268e-01,2.979056181710435514e+00,-1.478476508082497975e+00
5.148449984204853891e+00,2.246013685047012931e+00,4.302157341148305392e+00
-2.462809845792687469e+00,5.631069413907678900e+00,3.721596578111086462e+00
-5.863055872113055039e-02,3.510321713037633184e+00,-8.710343189113108897e-01
-1.181402048818779082e+00,3.842249177478685773e+00,1.433858152937523389e+00
1.063670495170350705e+01,8.090466546292969241e+00,8.757560999191847273e+00
-2.052289680271253580e+00,3.877313343160275760e+00,3.393012409516993344e+00
-2.299159013473146551e+00,5.601117224607458311e+00,3.858383602404502177e+00
5.533008917662590953e+00,7.978025684843956356e+00,6.152564232769455188e+00
2.403002613112512620e-01,1.748757246754621519e+00,-8.540813429137503743e-01
3.047178484353568084e+00,2.867736527297211069e+00,-9.688279856277071111e-01
1.441883642255951115e+00,5.910165662401420050e+00,2.006421852619159729e+00
7.376293346810788298e-01,1.194331192922105656e+00,-7.641252879208111359e-01
6.730980577040694079e+00,1.310532850115555537e+00,2.647483268436350290e+00
8.211689482297614973e+00,4.542872208112578747e+00,7.872799306269995689e+00
1.047129904694399904e+01,7.938693708787030623e+00,8.964736476771307139e+00
2.546815278193022891e+00,6.802779621697797374e+00,3.446808769921027249e+00
-7.657610902458041879e-01,1.395977039113261320e+00,1.460316005459825872e+00
2.122594886839276995e+00,4.913399260936107460e+00,7.232935202762692528e-01
-4.406228159580702908e-01,3.335705402477851855e+00,3.985168587915346450e+00
1.141574619691327541e+01,6.949244077521062657e+00,7.060122410356528100e+00
1.267632224397218188e+01,4.451269062898584927e+00,5.219999187272456709e+00
1.029785326192016370e+01,4.961542020955002741e+00,9.071849776238225971e+00
8.573591106373340542e-01,6.464618394234604715e+00,4.967112768717762528e+00
1.026079130138452733e+01,1.660567341941523001e+00,4.316980599301349031e+00
7.124985251509724726e+00,6.085113086152407647e+00,8.975004065017976984e+00
6.030303097518551425e+00,8.011436365961912998e+00,6.482454918897352592e+00
7.937035767138926445e+00,6.614721284408349611e+00,4.689236684116032450e+00
1.178435917896690555e+01,4.091409356191815228e+00,7.314677985482914480e+00
1.122617761184890739e+01,7.494599631924314664e+00,7.547414763937372761e+00
1.084873177312291936e+01,3.915177610231161953e+00,8.036880476061138978e+00
8.538049242301449127e+00,7.233946081385807858e+00,8.746785585530028939e+00
6.547976981395519758e+00,1.828375278954579075e+00,1.967935144188217356e+00
1.167138849238713583e+01,5.936708022266624418e+00,6.933435510340400398e+00
1.191306187464682509e+01,5.883749615420536649e+00,6.453428648956468727e+00
1.212592749579181195e+01,5.284966219683588484e+00,6.172887825720593469e+00
8.267290037939342695e-02,2.302702980968982072e+00,-6.300630135846643221e-01
1.931342585857982019e+00,5.567459384083519147e+00,6.506005083390562049e+00
-6.530080010932506340e-01,6.163414231302172475e+00,1.576564546016825386e+00
9.409034986607185402e+00,7.425617244349611568e+00,6.116518690594591412e+00
1.068297636638075865e+01,8.029997270280686550e+00,8.531233151220030564e+00
1.244332057308369421e+01,3.151604458992858682e+00,5.515435056184885276e+00
1.202470771034159291e+01,6.113292193346172354e+00,6.181052871259197445e+00
7.667010722683087920e+00,7.928176967883156401e+00,6.485812534883960367e+00
1.193120693360663509e+01,2.637712640131978592e+00,4.600659210690418277e+00
9.308723834264128527e+00,7.599051665840637071e+00,8.710106381596595782e+00
1.189971460793479174e+01,3.960926472983284263e+00,6.946648512792862107e+00
9.791515829299752838e-01,5.352441573224347771e+00,5.959170132791775210e+00
4.279911490885439207e+00,2.778362266850878282e+00,-2.688619582181949741e-01
1.319751190678605646e+01,4.434712415437720878e+00,3.510826874998433489e+00
7.893551785563868606e+00,2.729711821492552648e+00,5.671201866854161722e+00
3.716110566613482380e+00,7.912006618199704633e+00,5.231789775342005733e+00
-4.083236270720472239e-01,2.780912365142100828e+00,3.308542855559868379e+00
1.282366458470535164e+01,2.783899282394074248e+00,4.912496366062381270e+00
6.527626811821856556e+00,7.545029503818473593e+00,7.109270949553680552e+00
2.900133241981854293e-01,5.156057703944134651e+00,5.759367826337450147e+00
1.247363624642044933e+01,3.187953531940227236e+00,5.956955340115410280e+00
9.117015377808607823e+00,6.969722586171628542e+00,9.346181434246954467e+00
1.067189802186953429e+01,5.033702358850184133e+00,9.242261232827321038e+00
2.116833304570498342e+00,6.312416023250569275e+00,2.631005667238925483e+00
1.139614603451830632e+01,5.621054770362493791e+00,7.381930135991606967e+00
1.084215433895244196e+01,5.047098417233409684e+00,8.908555134367794892e+00
4.180112311518389134e+00,6.681043193725836993e+00,3.772552090541869685e+00
-3.584049377641133072e-01,6.830361156857592819e-01,6.834258962633112944e-01
9.719866645468977495e+00,6.695110823803356759e+00,5.562204903446793303e+00
4.717408904429308159e+00,6.470327020290183029e+00,6.969133499328979298e+00
9.990597910785746549e+00,8.650617311493645545e+00,8.273853382325377481e+00
-1.609540047919174377e+00,5.305819342754111823e+00,1.865389265975036182e+00
6.383863597868398188e+00,3.649078535813208735e+00,6.284608475166042929e+00
-1.825513209834167760e+00,4.282615832114887056e+00,2.844307571362157727e+00
4.908994550912235688e+00,6.138187851832524800e+00,7.433243953418414485e+00
6.696620890232179768e+00,7.135676694835963119e+00,7.806787354111723864e+00
5.912738549864909210e+00,4.725139291101830175e+00,7.744695871096167750e+00
7.634718366587060767e-02,4.707614175661816169e+00,5.842563410839491489e+00
-2.069148179372900742e+00,6.434034735876645428e+00,2.648762663765120262e+00
2.722953345191009511e+00,2.966216160499519194e+00,4.454026293187308028e+00
8.479142403552687668e+00,8.104721373988525102e+00,6.911333924530802086e+00
5.969077838671403846e+00,3.479797810859895257e+00,6.123676281379484720e+00
8.223398740387695582e+00,6.463679366817306260e+00,4.795258499617477632e+00
6.221729656695939248e+00,6.224557342257252657e+00,8.258602016210202734e+00
1.198277079127680445e+01,3.291791976370713968e+00,3.835259465722524741e+00
9.725487273739672034e+00,8.562925262503743085e+00,8.136357649218068033e+00
-1.808634189864127162e+00,4.155835791457936246e+00,2.690659501957716415e+00
1.166734188312406140e+01,6.168712542017980915e+00,6.854735853389023248e+00
2.274744377963705766e+00,3.310023688121154883e+00,-9.749274320644256697e-01
9.741596109769318224e-01,4.434220816004478039e+00,1.199952764182116993e-01
1.056175586927095367e+01,3.969005632665048466e+00,7.899419661383583424e+00
1.308063205444541310e+01,4.847990093705025316e+00,4.160172726786019126e+00
6.009620822916326155e+00,7.799894496428797730e+00,5.756561779213354768e+00
-1.187220779347656796e+00,4.491446856338993321e+00,1.737168729493110408e+00
1.419014000155218169e-01,2.231012116187135241e+00,-1.101069864645594976e+00
5.281555193822596195e+00,6.399728615932537501e+00,7.436078767462221961e+00
1.118193996683134195e+01,2.556906666485275981e+00,4.240040333094890812e+00
3.359713023761167427e+00,5.738966256757363382e+00,7.023582800258278525e+00
7.001790834966897137e+00,3.288641515575926544e+00,6.260788825545560599e+00
9.114679287966852783e+00,7.619410761694936696e+00,8.648694858123951335e+00
3.165973770951346022e+00,5.864745066783020100e+00,6.787330874993064533e+00
1.001353821669983013e+01,8.655019159656422545e+00,7.883894997153630513e+00
1.607638644560578145e+00,4.395278012248405197e+00,5.888085756372137602e+00
1.209659899996980315e+01,6.256149198091685015e+00,5.420933042507415145e+00
4.230001644971674857e+00,6.635678247180703870e+00,6.701428578569080585e+00
-1.306067276104961428e+00,3.877391074363698564e+00,1.685991803490363372e+00
1.177687224718964565e+01,4.453293184191906562e+00,7.331738472986273791e+00
8.576886185647104810e+00,7.449056970145920609e+00,6.058565953962818718e+00
9.363407032940159747e-01,4.282282324967810361e+00,5.820215858634707473e+00
-1.096131582874930510e+00,5.001388409589517359e+00,9.926827350913948189e-01
8.384476685299754095e+00,6.359278763391067457e+00,4.792829904960010268e+00
1.115025932188641633e+01,5.351034418588115571e+00,8.223188288950110447e+00
1.262484333387087609e+01,5.067163065371786956e+00,5.117903023097566617e+00
9.683161805397197952e+00,4.986414305883969611e+00,3.100443124928686345e+00
1.201597116913703722e+01,2.287222227994971657e+00,6.391451203573758733e+00
8.859294520757794444e+00,7.761246929877180456e+00,6.397402577130510082e+00
-7.703045016599336936e-01,6.864694205336886235e+00,3.522695239983189008e+00
1.435826075819530923e+00,7.904160456386211120e-01,2.235126141104221420e-01
1.261944280304229160e+01,2.203070625914086644e+00,5.667138942547056857e+00
1.018254101954644497e+01,2.688047091468062089e+00,3.247069590884958057e+00
1.074160156770408037e+01,5.752592031570348041e+00,9.010187408944501541e+00
2.301694697162233183e-01,3.792357958455707667e+00,4.753398495649931554e+00
1.019988999283313547e+01,8.309883710277471636e+00,7.540374302683595431e+00
3.874725345227575612e+00,3.707305730514854236e+00,5.728220118648932768e+00
8.025201807848121760e+00,3.846287603972615710e+00,1.473471145116398651e+00
8.010704531295264275e+00,1.614984625871184409e+00,3.057441434784043732e+00
1.198346663835223502e+01,3.132033802800039624e+00,7.068697201612001102e+00
1.299326242620259819e+01,3.143510208010901863e+00,4.487496325060806868e+00
-9.810078139303030076e-01,3.140487155053139912e+00,1.421647957129369422e+00
1.321852358485848988e+01,3.462022259174825312e+00,4.412260085866578585e+00
-1.250492395273639978e+00,2.537204185446346294e+00,1.792934122535617236e+00
8.411834538755487145e+00,7.191571813897015275e+00,8.732458531263221246e+00
1.276241926945568927e+01,3.198627768928241188e+00,5.121933053475242303e+00
1.267767456910128043e+00,1.090279651865659449e+00,-1.179986111956978501e-01
-9.803899968006656307e-01,3.920173639030014812e+00,1.051451380093114008e+00
1.195054982684167832e+01,3.102857335438761410e+00,4.003851324573368231e+00
1.561248388892336747e+00,5.571162606145209750e+00,1.846991107192359038e+00
2.230222829260921635e+00,6.747134434226534694e+00,5.381550055233850216e+00
7.871758387666353940e+00,5.912978141678029154e+00,9.526339077187342852e+00
1.023131633745240343e+01,6.872217528389874097e+00,5.932039250854096224e+00
1.190445858052457062e+01,2.809330903534055679e+00,7.022873211152734108e+00
1.277785316950893346e+01,4.782796399331379789e+00,4.845946780077259319e+00
-1.590406839999477295e+00,3.667549311836698855e+00,2.537519077978914961e+00
6.523275625504276753e+00,6.972395313155798746e+00,7.912206149281881373e+00
3.932312606836820823e+00,5.395107394709562243e+00,2.003464379764257952e+00
7.531331960207970688e+00,8.376137618038951516e+00,6.921502326319248333e+00
-3.901038031776287163e-01,3.092116570096987704e+00,-2.064387621829602837e-01
-9.966959204767165126e-01,1.801859798565085047e+00,2.139998591544690409e+00
9.840913416599279540e-01,6.117935230299263338e+00,5.248243846249320832e+00
-1.478433446337153567e+00,4.647499893738660681e+00,5.152772125260307590e+00
-1.112050515647742932e+00,2.532411738164910275e+00,1.605571738860911202e+00
9.441339624157061294e+00,3.589415938098522663e+00,2.181842574087318631e+00
9.511703346304376083e+00,2.175310846834877410e+00,3.535672291602375950e+00
8.936247913578847957e+00,4.666393402364938936e+00,8.449047562325111116e+00
7.622581258690137140e+00,5.121502742387919582e+00,8.534039772627867393e+00
5.611555045350797855e+00,3.622395559310179092e+00,6.245245215382063897e+00
1.192687744210290468e+01,6.027283675482374647e+00,6.210607698334082549e+00
9.674021801536660803e+00,6.190271753617752282e+00,1.025106114982230210e+01
4.932366462186583256e+00,3.814459800579715676e+00,6.052984227962397767e+00
3.882068240531408421e+00,6.596671776738814330e+00,6.627225180324283649e+00
3.076144062339291718e+00,6.208715797740349984e+00,2.860617517529577380e+00
-2.412169825817854107e+00,4.411201079539511127e+00,4.022228609010016775e+00
5.251414095993635733e+00,2.195825927926396304e+00,1.144964078603649238e+00
7.691874244944137295e+00,6.109193054740915230e+00,9.047916519856366691e+00
8.165700243833638794e+00,6.313785416851313670e+00,9.333288303698820343e+00
2.056748871323486938e+00,5.261026225682606139e+00,6.899428557299694731e+00
9.058069817651441369e+00,3.130088456395249352e+00,2.332640482378240065e+00
-4.569472181309439662e-01,3.225182608157162178e+00,4.133202580794947067e+00
1.145424863007196414e+01,5.492977986265385582e+00,4.387814128550425075e+00
1.084450780339267340e+01,5.045198805594264257e+00,8.927395403365425253e+00
1.311567203923394054e+01,3.823310860935276612e+00,4.267949058334856716e+00
6.891190231918808529e+00,3.700814758277053862e+00,9.595523332013227158e-01
1.778440033338306137e+00,5.413309524334054323e+00,6.455939761446169989e+00
3.422714701185606057e+00,6.746749405455876314e+00,3.843181137354275467e+00
-1.700854939953730383e-01,2.557923060912869140e+00,3.133278164304765134e+00
-1.384559342311888486e+00,5.025107055807785272e+00,1.705373287874786481e+00
4.488414455356745769e+00,6.287201935850450063e+00,3.456246471396939857e+00
2.785890776779710976e+00,3.187711169807000644e+00,-7.874624479851836112e-01
2.229618790978660670e+00,5.038164404559817733e+00,1.190778544013727291e+00
1.086547875558934884e+01,3.022927709306213906e+00,6.809363352154649718e+00
3.165645770070954157e+00,6.002773377253984854e+00,3.016967427185133666e+00
8.676120280108825966e+00,6.452543909426636581e+00,9.199699720742508191e+00
1.246372925267630727e+01,4.626428330333551386e+00,5.557918354281483175e+00
-1.603143220778568079e+00,7.062743950784166280e+00,2.734328630681653660e+00
4.717597390811272717e+00,1.348843626510373817e+00,3.204020204844058917e+00
-1.817758525531156577e+00,4.913284278243013503e+00,2.526656310146527140e+00
3.639967007785095188e+00,7.107695952213402890e+00,5.753555232111537521e+00
4.852274067668115975e+00,2.271915794305197078e+00,7.312646226602410593e-01
-1.304631446410107198e+00,2.378829004206542308e+00,2.510887008011555732e+00
1.295472522482934608e+01,3.498931146639586043e+00,4.244647279069536872e+00
1.029277833998303926e+01,7.272487287303725623e+00,9.483923383288946241e+00
-1.567570606239938602e+00,4.251828879479142564e+00,5.001220935770477993e+00
-1.641962070132790830e+00,4.595095761128558109e+00,2.193564576476538797e+00
-3.726050553687808558e-03,1.821106185145655365e+00,-7.141883497174313922e-01
7.041296558005729622e+00,7.604148756701469836e+00,7.293801859452211822e+00
-9.137315104162764268e-01,2.577031682221695430e+00,1.539819497364487422e+00
6.937205577859782757e+00,7.233146161773925442e+00,5.482339643368399074e+00
6.260302042595571770e+00,7.926651368643454099e+00,6.774173506422034308e+00
-6.809876820933576935e-01,3.099803606891434082e+00,5.800436196425159396e-01
-4.256703120450104350e-01,2.585436866163199010e+00,4.553660320299971476e-01
5.180480250509363671e+00,3.139770235436339707e+00,5.337894381247054731e+00
-1.394211148136765610e+00,4.078220088531320009e+00,4.561836441558363653e+00
5.576162830235285917e+00,6.364360072427909465e+00,3.920423637035741926e+00
2.998513610860923384e-01,2.604902531153693968e+00,-1.409661096325765417e+00
-1.865542038886531390e-02,3.502123263611336412e-01,1.348968883842177786e-02
2.790472663607375114e+00,5.193619930246848426e+00,1.652205841798097596e+00
8.407124896914218937e+00,1.239282850188268892e+00,3.547374046379436319e+00
-2.282150172811488797e+00,6.202156556067387250e+00,3.106082481072391488e+00
2.188243319177067547e-01,2.968617298227798962e+00,-1.234891761481197170e+00
6.817773156176182070e+00,3.343476538877128590e+00,6.152316569747989128e+00
1.176469331947496144e+01,4.289684181799048979e+00,7.037165007544420092e+00
4.441668455272346216e-01,5.505160960121175506e+00,5.636946317474786028e+00
4.503917214408912351e+00,1.070936194161923094e+00,1.619889520487948431e+00
6.215745289839099463e+00,1.296301945414916723e+00,3.505763454923626288e+00
1.061638871900560233e+01,7.140164128620131834e+00,8.708280645942238607e+00
1.018071144668713579e+01,6.022152194455075325e+00,1.029656642274972356e+01
4.435684027487484471e+00,1.963561536054431400e+00,3.808032562994567716e+00
2.919768463464933905e+00,3.685572530420047954e+00,-1.431371553615931880e-01
5.455535382024932822e+00,2.843648495043344049e+00,2.861203550731236112e-01
3.478717030852923608e-01,6.131039552530370251e+00,4.850347402308215372e+00
9.823776733232923775e+00,8.596155715318735346e+00,8.120295325869742342e+00
3.932786321162919374e-01,8.906680255858484552e-01,1.450717154693982769e+00
5.595129651573611973e+00,4.795254262318978888e+00,1.918665584278336667e+00
9.925200335120102579e+00,5.758112294968074529e+00,4.237380317145317932e+00
6.196128134163570778e+00,6.367357139649311826e+00,8.203846846231963141e+00
1.190606272376035513e+01,4.645651946539105737e+00,6.779551621423252072e+00
4.982995855427872378e+00,5.389824727770193391e+00,8.082226033808572296e+00
3.403097840979345534e+00,4.969510327210832301e+00,1.500356290469881726e+00
7.021884124516025061e+00,1.647968797749037595e+00,2.448151140998773734e+00
-1.624610603103350703e+00,5.899630196496870482e+00,2.081165104260743970e+00
-1.976855180381404509e+00,6.254363571558307910e+00,3.502370661505938010e+00
4.652002857935160662e+00,7.979772176094604319e+00,5.615160216273770821e+00
1.024120001790406320e+01,1.390652262628368829e+00,4.492559917179101525e+00
-8.434032623184998245e-01,2.486135111681071930e+00,6.463198676412736932e-01
-1.783731333034552557e+00,4.060857796985655632e+00,2.823220575208613692e+00
6.197282618196118698e+00,7.786081937844739009e+00,6.632569304025947687e+00
5.113228747847948341e+00,6.988402703323812304e+00,7.159881928132071138e+00
1.136699223968062711e+01,5.418835061524073460e+00,7.594767019768733363e+00
7.915684963214849823e+00,5.493826584612862440e+00,3.498521924258013005e+00
-7.065584590586669878e-01,6.328291002552796307e+00,3.970095538097047516e+00
1.189710567606619485e+01,3.901740071634029139e+00,7.015682314558945087e+00
4.423134096548070104e+00,3.399678100397839575e+00,5.666471366788382369e+00
1.770017213875904272e+00,6.903591728487965540e+00,5.010971215360122244e+00
9.213051752412603435e+00,3.955746991145185465e+00,1.805956179616684754e+00
4.017962698779003361e+00,2.602379169472370357e+00,-2.416129750168134194e-01
1.191583947995111181e+01,3.599504066657511991e+00,6.861071605189033029e+00
6.514269901264199802e+00,3.076899275654072063e+00,8.679129714989932687e-01
1.184920296816361152e+01,5.290255045737801254e+00,6.529413889827033302e+00
1.319633484661142298e+01,4.235614393405878531e+00,4.046713100486779346e+00
1.239243164341355552e+01,5.601407182811326990e+00,5.179767659683056635e+00
-1.472134443204858201e+00,2.293593010356562267e+00,2.340009038257928609e+00
-1.602822647295121694e+00,2.960429721217469279e+00,3.211218774927352193e+00
4.133777936722241364e+00,5.252137067265692849e+00,1.807490962730881057e+00
1.262694938218108653e+01,4.411904118866046609e+00,5.369076392609341219e+00
6.961072401619522232e+00,8.282259561518213076e+00,6.736263466307140568e+00
-9.701968876714437418e-01,2.031129889100867114e+00,1.540566464826217841e+00
1.086751885822061503e+00,7.127659644845269149e+00,3.601631765570457056e+00
-6.126192273305340885e-01,5.429103881114223817e+00,4.937744047789785817e+00
9.868758731564664544e+00,5.306578063312633375e+00,3.822762401827457523e+00
2.338847874333009003e+00,3.451581356030000158e+00,5.005688913578911325e+00
1.122010712612926814e-01,6.650289103881990016e+00,2.568713561990847882e+00
1.232692977829968584e+01,5.334123965654174349e+00,5.821878339595136786e+00
4.634863388542473928e+00,5.455331657867079187e+00,2.520135705565845541e+00
1.271676821503861099e+01,4.588192529765583672e+00,4.741491687806344224e+00
1.159872243469745356e+01,4.679249148085621535e+00,3.428948752936073596e+00
1.051662466595934831e+01,8.362898436572811178e+00,8.594117825913693665e+00
1.139402974343084374e+01,6.736205494118217452e+00,7.450669837776580096e+00
4.950920348879869870e+00,7.091083554673921485e-01,2.232729245086912950e+00
1.070246895965984635e+01,2.307246095425561805e+00,6.047035023058455749e+00
8.232853949613677003e+00,6.920291565419790736e+00,8.829850926183167914e+00
2.507158658348337177e+00,4.100985619029870577e+00,5.803861033539515546e+00
1.163318705295776034e+01,6.951032002952250544e+00,6.657089357313386024e+00
1.214317734335758381e+01,3.693983187418016900e+00,6.466558034898929108e+00
2.471367333524224108e+00,2.712853999178109099e+00,-1.299354136682868255e+00
1.157601527144194264e+01,5.079755789604506688e+00,7.442874849149480276e+00
-4.802298318208199635e-01,2.877978929219201731e+00,2.990239334966808271e-01
3.979181051331281971e+00,4.503004529725617822e+00,6.743012336748386737e+00
-1.583792376812532599e+00,6.582095825506349307e+00,1.893000888158459238e+00
-2.076205674680690727e+00,5.381851447870563021e+00,4.331385790938135472e+00
3.999493486812532694e+00,2.977217782788353251e+00,-3.981088248218379588e-01
9.793956224111349584e+00,4.970609281947890423e+00,3.399139189456414023e+00
3.839040660508290070e+00,7.571916354392148385e+00,5.660225416852886937e+00
1.196852935840387921e+01,6.504615346226146677e+00,6.005583794946178777e+00
-4.797061214673187246e-01,3.827430604752693810e+00,9.388120269575640775e-02
1.188186082018666845e+01,1.999433142970957533e+00,5.930283057149676296e+00
-3.339626358032401487e-01,6.249455007463415868e+00,4.395367067467641498e+00
7.919009898853035523e+00,4.783647678008795978e+00,8.155444625692075178e+00
4.637503703212514927e-01,5.903448439060360542e+00,5.120328366617115989e+00
7.254223393748374882e+00,1.281924891864504312e+00,2.939778252027879457e+00
6.307807521457979405e+00,2.675219255568842325e+00,9.948519747677959657e-01
5.712409683549743988e+00,6.868701729243870346e+00,7.404506162907940059e+00
1.315442240700512677e+01,4.127256448000862221e+00,4.205844460909743177e+00
1.176416382995905074e+01,4.204193041316269586e+00,2.980142741654499439e+00
1.134433768722626290e+01,3.991330540284672157e+00,8.253487953872641114e+00
5.366589862483576390e+00,4.533933352932476346e+00,7.120575697477105059e+00
-1.521510715249091872e+00,3.837460996065125141e+00,2.144186301753003399e+00
-2.022531536044240852e+00,6.899045380762779622e+00,3.079960456127585733e+00
7.218499008731440902e+00,7.384165514082413395e+00,5.524730673125708869e+00
8.005044350364968864e+00,7.711664996312115328e+00,7.861167666482574035e+00
1.025793819671268459e+01,7.970148111256525780e+00,7.197286165828375104e+00
2.550434327594102157e+00,4.738786535052462168e-01,1.092448204022275382e+00
8.013445840381310248e+00,2.929086890421956468e+00,1.887588463075455358e+00
-1.401438220788215450e+00,5.950925517310347246e+00,4.069482059476036362e+00
-3.805915038518370985e-01,3.670605604096444097e+00,-7.440421076309089443e-02
-1.050477879159909422e+00,2.008997172958504773e+00,1.688517919799032319e+00
-7.884759980220374942e-01,4.651970262337562723e+00,6.380530976167398949e-01
-7.211897849168003027e-02,6.850595508575385573e+00,2.680712214351858691e+00
6.308142411207556810e-01,6.309725992852926346e+00,4.830303731779968857e+00
1.072536995766913570e+01,2.539788634390969690e+00,6.249788366210399460e+00
-5.140678298134636615e-01,5.029256132841079641e+00,5.373407422450678261e+00
-1.576117074386608821e-02,1.846043121148699173e+00,-6.858224328945765613e-01
4.372282458599980437e+00,4.135837542313770321e+00,5.703754705639669798e-01
2.005833050037706955e-01,2.388749623102595976e+00,2.986844601685376688e+00
8.402685023337802761e+00,6.291848652654615570e+00,9.407610132207343767e+00
7.719506437796390230e+00,7.341901259530239088e+00,8.131153090623165269e+00
-2.288250927171199045e+00,5.312404044016577842e+00,3.509737408718745399e+00
-8.686574278496020929e-01,4.452596010361610901e+00,7.688867835028753150e-01
1.112400884080972396e+01,4.990725769633656661e+00,8.254289008514906101e+00
-2.209096334348861213e+00,4.420357971553870335e+00,3.660529698786007646e+00
1.181019225298493325e+01,4.260642313600872200e+00,2.880728210432256908e+00
9.876124251346313443e+00,7.586548690984694865e+00,9.107964145781672016e+00
4.493571050719502580e+00,7.309136692951665459e+00,6.121618808907652642e+00
1.060995585751321713e+01,7.732191647776562426e+00,8.526852824856378632e+00
4.419584126634162224e+00,6.059891172959633643e+00,2.948235683965243936e+00
1.173380026562876743e+01,1.627530015818841269e+00,5.032085633890678977e+00
5.542277444594843949e+00,7.415796345054956440e+00,6.774668533899855127e+00
-1.357453820073142969e+00,3.206775886478720139e+00,1.890928516471302334e+00
1.288105650834585347e+01,3.672346773531132591e+00,4.528237190598328965e+00
9.085430292864694835e+00,7.659183256218812019e+00,8.442897243011005415e+00
5.669483344186887486e-01,2.524251625384369202e+00,3.312046245730678518e+00
-1.606936413691191889e+00,4.372172678543912561e+00,5.038624668744417612e+00
6.031796233950338149e+00,7.045298054941766530e+00,7.303354057385782028e+00
1.132846382121890549e+01,5.229611641604841488e+00,7.827726858914324737e+00
-1.576920569953963458e+00,4.542393944477586487e+00,1.964773503132243082e+00
7.295970449029782756e+00,6.414532161794431531e+00,4.226869797828709530e+00
1.182086753781632815e+01,6.266048254995571831e+00,6.353140205902751525e+00
3.232987368647403326e+00,7.564096537760478078e+00,5.508839617656550836e+00
4.542844844971901885e+00,7.206887550161045208e-01,1.898188402074920011e+00
9.619986179155086248e+00,1.397845182488122395e+00,4.295648460331700669e+00
3.398128919091325084e+00,7.120023916909105743e+00,3.900932499582630886e+00
1.043968645199035095e+01,3.822102417648799211e+00,2.438091220862634856e+00
7.246651952713520473e+00,1.449603670924731524e+00,2.944654006703129046e+00
-3.682711168471030083e-01,1.463274297815813307e+00,2.054630579405458124e-01
1.019586952526595880e+01,1.978038828330463517e+00,3.895023952929041577e+00
2.071392092161777193e-02,5.482926588482754937e-01,-2.798397903710792001e-01
1.173051601811001277e+01,3.686728435780600055e+00,7.403635624957954242e+00
-1.912549837509255335e+00,5.474206507462254123e+00,2.689500195031832241e+00
3.655317773044446383e+00,9.901275153752999714e-01,1.251108209715567687e+00
2.376829266617826786e+00,3.253994781113859425e+00,-9.985008659509740925e-01
8.973890349841497027e+00,7.053765027581443192e+00,9.180451195282454790e+00
8.934057961635531342e+00,1.576478790367874971e+00,4.583279571659529594e+00
1.219567125096783222e+01,4.878885333579897399e+00,5.999779105049700689e+00
7.099637784740065349e+00,4.199840860785724495e+00,7.026145992426205744e+00
-1.074830880946035627e+00,3.216688939886434451e+00,1.527334327277696469e+00
9.359193863880284348e-02,2.209774177121320626e+00,-9.876116500918217245e-01
-9.888488845373563096e-01,3.340660463664278712e+00,3.881927037097218758e+00
1.741627538738599323e+00,6.660430831347724734e+00,5.170557343699583974e+00
-2.386336308969761788e+00,4.656018745257211044e+00,4.140104299562611168e+00
1.185919446891183426e+01,4.822207152176768652e+00,3.889214797211901331e+00
2.000859787989444971e+00,1.298152642844116578e+00,6.564370369759070512e-02
7.025647217239285869e-01,3.758970404078672001e-01,8.073070503602181036e-01
8.716844479705892823e+00,4.026920371181198277e+00,1.960556545591259914e+00
-1.480269987503587847e+00,4.121856802589157986e+00,4.741573262545574430e+00
1.137200573657209368e+01,5.758421351955870016e+00,7.695252964150712138e+00
-1.479141114483078168e+00,6.034545617698896969e+00,1.577738629550978100e+00
8.127322866172593807e-01,1.438162962175802306e+00,-8.748165510004228818e-01
-1.868614382725120260e+00,5.772805289646059101e+00,3.821314855082813544e+00
1.272345399472683880e+01,2.028316937937424402e+00,5.685588080935828792e+00
6.573469167188122242e+00,6.620830067394679830e+00,7.928131253028990244e+00
-1.081642387443877862e+00,5.243310685296635576e+00,6.855325490030195201e-01
1.567734473943764639e+00,2.492690916745760266e+00,-1.617726245259339057e+00
3.181251872078115106e+00,2.577202139395805336e+00,4.086119298528772426e+00
1.717372602857916375e+00,3.676575873923806914e-01,8.807708168374511759e-01
-2.212223294379843441e+00,4.604366145351158401e+00,3.667487752564086545e+00
-2.414947462001060807e-01,7.192627867951559839e-01,4.213968372581082256e-01
-7.464380017663491129e-01,2.203907903673506308e+00,2.682582082700779136e+00
1.132822318034918574e+01,5.764284855552479492e+00,7.556471019074542106e+00
4.860487932917596510e+00,3.370653216938905850e+00,5.683142312850379518e+00
3.142596854303391751e+00,8.219393020484915269e-01,1.033994075319941475e+00
9.443585949954336201e+00,1.274959230645888342e+00,4.324363657405259076e+00
9.975795919728082106e-01,2.324033477710822915e+00,2.987584783606004102e+00
1.073363980738476187e+01,7.102866958792079188e+00,8.694407397736608090e+00
4.845090003420061964e-02,1.741612577237731552e+00,-6.443460153191079565e-01
1.233950523296550195e+01,2.939940746383443493e+00,6.689569657899880006e+00
1.843610751763729461e+00,5.568407315361164400e+00,1.861503534790656778e+00
-1.566934604580172141e-01,5.132647623791819491e+00,5.411769779887874776e+00
5.338181443090868505e+00,2.863478507382578808e+00,5.041575770839100024e+00
1.230474887796735572e+01,5.224063202897452740e+00,5.832050533940049242e+00
9.260868599832162928e+00,2.235452363882300286e+00,3.248376032631528965e+00
1.751509239744874491e-01,6.246140057017561809e+00,2.172798474667837265e+00
-1.852700925285728939e+00,3.743674109137888895e+00,3.881943715498388681e+00
8.131127394936060071e+00,7.456411481940079966e+00,6.052446402309250573e+00
1.321098447182621261e+00,4.919399804529444253e+00,9.610488640861803988e-01
2.715224329254379843e+00,2.715482666535405709e+00,-1.039264968994412452e+00
7.435551411540535227e+00,3.631237335183821191e+00,9.544515798757420288e-01
1.282971696789889471e+01,4.853873029735451539e+00,4.925878354099862300e+00
5.083680649337920521e+00,8.084456218936624694e+00,5.863250216225910805e+00
1.117578447838987010e+01,5.463248629110742272e+00,8.144175979442518809e+00
2.834929290900827237e+00,7.719819596533807449e+00,4.768724308124696165e+00
1.149951939770839715e+01,2.296342502284076215e+00,4.517094700298486920e+00
5.606824768416094784e+00,4.790656375208715900e+00,1.733345175257419157e+00
6.218092021441079531e+00,1.073053182185422783e+00,2.702363078536139440e+00
-6.228117919349762666e-01,1.888287297394318109e+00,3.842362844888815299e-01
1.177216537548064501e+01,4.125198855723923863e+00,7.480393630571945174e+00
6.108913482992199384e+00,2.529476165192722448e+00,4.893888610059691224e+00
7.296776646097693941e+00,7.180807288069693151e+00,7.966520476440211773e+00
1.987923734124791508e+00,1.233502076139309622e+00,3.899631960142262849e-02
8.909450166114259773e+00,8.201684670689529000e+00,7.875710608759526110e+00
1.239336402474507004e+01,2.421416753415295720e+00,6.237530413258888906e+00
5.099139938123169458e+00,1.181551946891014948e+00,2.018794176825780884e+00
9.656883328737217553e+00,5.199614632369958578e+00,3.576646927266213805e+00
5.834640486320815889e+00,3.136348961681788783e+00,5.490100670811042249e+00
-5.123694919668980718e-01,3.258515763655418063e+00,-8.715800144045993125e-02
1.331192014073602614e+01,4.085486366536032143e+00,4.158381846670430093e+00
-5.490251966545587337e-01,4.376671483912168092e+00,-1.184354331175705849e-01
7.139836762706616824e+00,1.314702130462354734e+00,3.785449491767110874e+00
1.179272867651157242e+01,2.483807628145074275e+00,6.604154944203222577e+00
7.635883961094357304e-03,3.611245261386318628e+00,-1.100599131793730479e+00
