-4.283370044829776901e+00,3.656775400864120673e+00,-3.895737198557217340e+00
-6.792370215663715349e+00,4.812631804669200264e+00,-2.630087252690525013e+00
-4.882374659500287706e+00,1.988847361751837406e+00,-3.417667038592488993e+00
-2.692833136286451268e+00,2.486149097430661037e+00,8.315667217977953385e-01
-7.790458145557944469e+00,4.916875703261903041e+00,-2.360515962681476676e+00
-8.385560161950648350e+00,2.207642006926149314e+00,-6.684655552751492813e-01
-8.902429620762227103e+00,4.587122475377394260e+00,-8.063490667210356788e-01
-5.105667983814900168e+00,4.090289540519449041e+00,-3.816606251440247455e+00
-4.221826842199229546e+00,3.893899940831753614e+00,-1.106840196487257177e+00
-7.236293167711854046e+00,5.024972514413375002e+00,-2.889295098804412820e+00
-5.727542126020071400e+00,3.157390170511663818e+00,9.136402209174160349e-01
-7.903447632314216875e+00,1.974680767397960057e+00,-4.901021133399692253e-01
-5.051489741899637842e+00,4.172402635386014857e+00,-1.653066643593380514e+00
-9.227665519373550396e+00,2.941782342202642120e+00,-2.531454699933995744e+00
-2.326790863890829897e+00,1.041716642253808667e+00,-1.516411121884018831e+00
-3.447934440084607921e+00,1.293404297373333289e+00,-1.823628740705981910e+00
-3.091722084023520889e+00,4.069629910077099844e+00,-3.788632485393353289e+00
-7.028182221213655545e+00,1.724798029702137692e+00,-1.928279125935717930e-01
-2.679320924851999131e+00,2.328221823990371586e+00,7.099324056099054481e-01
-5.381735858536827344e+00,2.174027188905178765e+00,-3.442898546552402461e+00
-6.916766724639051844e+00,4.362816172967394657e+00,-5.644877101807661557e-01
-6.585974463214540053e-01,5.207423651990641389e-01,-1.502599925027651828e+00
-3.326035136994862196e+00,1.906878763048297509e+00,-4.329012296380132518e+00
-4.319355702504123151e+00,3.427950781387215429e+00,5.507809130266063669e-01
-4.729896962393137727e+00,3.619035436622244806e+00,2.096542793660305104e-01
-2.647218946893367786e+00,2.727769862773693266e+00,-4.109482005107204294e+00
-1.231200890593977970e+00,3.178986763050866138e+00,-1.175003228827082413e+00
-2.704009573362965657e+00,3.096893700938472271e+00,4.217371973697066623e-01
3.901541359162413181e-01,2.362754720316950774e+00,-1.319039149252379417e+00
-8.760925019012237414e+00,5.215257359315687680e+00,-2.113736802802140158e+00
1.744792920006248693e-01,1.184602632306555936e+00,-1.259745018371162262e+00
-6.496829729906187234e-01,2.126105252240114041e+00,-4.349573513232414257e+00
-4.286684135073333124e+00,3.477570790371732556e+00,5.301861606563158524e-01
-8.940673416262262307e+00,4.982527963572210616e+00,-2.522686130091286838e+00
2.728206143543408513e-01,1.715943889757418628e+00,-7.757795507449245509e-01
-6.093295479362202949e-01,8.830805012472514592e-01,2.763495170868179862e-01
-4.229575893055613989e+00,1.796308432481344752e+00,-2.790199709337005007e+00
-3.389632606560285755e+00,9.986680544278764282e-01,-5.789984138455935847e-01
-5.984530657980033475e+00,1.558278303156251043e+00,4.964950212742937907e-01
-1.471943125056102364e+00,1.529179240666065365e+00,-4.511051649612300984e+00
-7.981671267270709080e+00,3.228669029443820726e+00,1.012471616837226307e+00
-6.645167642196870617e+00,4.715268328361480243e+00,-2.252873749100762879e+00
-3.824020249658040882e+00,1.200054662932616312e+00,-1.267255775423848485e+00
-7.002804787111344353e+00,2.816145376591982608e+00,8.833096793564784166e-01
-2.299573866161142455e+00,8.806279999383084256e-01,-9.076298720891108340e-01
-2.154227014628803616e+00,9.781332565613435337e-01,-2.218122196824019454e+00
-3.702231649358999288e+00,1.745467850237746088e+00,4.921955305371845668e-01
-6.128505323016084638e+00,2.332984903309887503e+00,-3.226545079043987574e+00
-4.292090954570296213e-01,2.508793124767915383e+00,3.892111835039522294e-01
-9.348212635942070747e+00,3.705757273164053345e+00,-3.340164358765787433e+00
-2.094121267240141471e+00,8.768662004063747517e-01,-1.230477829299827519e+00
-1.305281540760490910e-01,1.253889395121091654e-01,-5.017597187650336688e-01
-2.531914354646691567e+00,3.435524037889257531e+00,-3.988582517111708192e+00
-2.140061755691838208e+00,1.955438871030189096e+00,-4.373399210446383023e+00
-5.039500055044885407e+00,3.722174708355716177e+00,7.208699578180229051e-02
-8.695300414655878996e+00,5.111213359147399160e+00,-1.992493647699223880e+00
-9.012635862277717180e+00,2.782480346571909458e+00,-2.446625770402355737e+00
1.433347637268313490e-01,1.866922573242407513e+00,-2.919052342380589860e+00
-1.609520100179773205e+00,5.135656963293151467e-01,-6.606464888590053430e-01
-7.615165371235636194e+00,4.735895359002499916e+00,-1.568747106597488727e+00
-2.386077704966717672e+00,1.283970086340693983e+00,-2.616547738813371549e+00
-5.525503087317717998e+00,4.698056604582513174e+00,-3.523090369274368250e+00
-2.589714916599108907e+00,1.564178704138927900e+00,-3.939129393998564765e+00
-5.462748305421612827e+00,1.991565017537091808e+00,6.264212705532352654e-01
-8.984452913854216405e+00,4.071551733440574417e+00,-2.371520798967179933e-01
-8.292870380594610680e+00,5.131439100533610187e+00,-2.519786253669949350e+00
-6.729361546672857131e+00,1.957010009802885975e+00,-1.138376840638187115e+00
-5.402312174376139531e+00,4.085882021857353941e+00,-6.274050439512138810e-01
2.008522585806057914e-01,2.272265461291365085e+00,-2.292758076632215314e+00
-4.049765114720665693e+00,4.287264838695217684e+00,-3.290684852301201779e+00
-3.183899535738370812e+00,2.637458351855257455e+00,7.961324163804694987e-01
-8.476764320282907050e+00,4.462131842903404255e+00,3.598971507227161637e-01
-4.111959932481826563e+00,4.053933110003621998e+00,-2.142235629402314157e+00
-4.905094336298202684e+00,4.275340225128553051e+00,-2.287014226685037510e+00
-6.175620562951903203e+00,4.642104244854516892e+00,-2.586706425927410180e+00
-7.947965870723387560e+00,2.765311182381475774e+00,-3.380044899183538565e+00
-3.431050803447927233e+00,3.236559890052712607e+00,1.636158208352646859e-01
-3.810921924588047016e+00,3.335784365955154041e+00,-3.989526630084784031e+00
-6.544593203737192333e+00,2.612873261525830770e+00,-3.857678846249986027e+00
-5.051563809743949918e+00,1.788909023879441840e+00,-2.203520381343639034e+00
-1.709914269884895477e+00,1.984003807028952293e+00,4.737638703353533876e-01
-3.673481166741096704e+00,3.941473298657946600e+00,-3.689145500541785694e+00
-6.659895299988891182e+00,3.436759677984187356e+00,1.012026215949749730e+00
-6.037074230644343231e+00,3.753952933344652632e+00,7.155671897714233065e-01
-2.134621123235665330e+00,2.708891244870522019e+00,-4.246010846088243973e+00
-4.388796780863851943e+00,3.417165631805684445e+00,7.806153330791240075e-01
-7.250668331323574023e+00,4.355276928009576665e+00,-4.437587215238739669e-01
-6.109455057232755060e+00,1.348704901867682215e+00,2.071768348859419906e-01
-6.165810054033274312e+00,4.763313369301492628e+00,-2.730369296782168664e+00
-2.314009740966825657e+00,3.179143796370977437e+00,-3.829965594911685645e-01
-2.736997357778208517e+00,7.180614695803804182e-01,1.416346419557747427e-01
-2.020811751158444025e+00,7.887438334594359945e-01,-9.335318758821060658e-01
-4.653845767150379120e-01,3.022860452207246862e+00,-4.167730187028419131e+00
-3.534091655556841793e+00,1.021051672787129716e+00,-3.600259919726936375e-01
-7.248801832315800553e+00,4.007168665975187061e+00,1.044459957178699661e+00
-2.319635279107132853e+00,5.535589417801157763e-01,4.448322699969208677e-02
-7.155985917153397935e+00,2.612217981892363206e+00,-3.523897005470300492e+00
-3.142791495146827430e+00,3.801269144700968106e+00,-3.864930690749064812e+00
-2.303961795222907671e+00,3.843739710956799893e+00,-3.913020400503814944e+00
-5.317261094914355724e+00,2.756752968109437152e+00,-4.183392067794309277e+00
-5.678004785162960033e+00,1.469229422005914776e+00,-6.387108668056128147e-02
-7.263525365552638391e+00,2.407621757702546716e+00,8.402234506036131423e-01
1.035591896171488835e-01,2.656280521543322060e+00,-6.471355443125041962e-01
-1.939332633345745682e+00,3.432297266129683333e+00,-1.854040799797766370e+00
-1.991028146719481473e+00,1.204320502436709406e+00,-2.536163326339995194e+00
-3.513927270420002635e+00,3.362288910089947791e+00,-1.028069622455786841e-01
-4.141215160364912329e+00,2.269575884614012384e+00,6.553959441667635000e-01
-4.914991181854404978e+00,1.611214561830098146e+00,-2.188765256052755959e+00
-6.142326565157548046e+00,4.502110180996564459e+00,-1.686204002500657273e+00
-5.408135953878547397e+00,4.610963705442083338e+00,-3.005875017635374125e+00
-1.677296695286514261e+00,3.101231856149890387e+00,-4.097181383598497817e+00
-8.731453499854819000e+00,4.482742712730611423e+00,6.165772686174878503e-01
-8.960240108087063504e+00,3.988488479816162169e+00,1.596948963110262631e-01
-3.980209818921916498e-01,1.063398814428146988e+00,-4.368190997470095205e+00
-5.253240103156812779e+00,3.311478588509470189e+00,1.014736532170864569e+00
-1.440664415297712830e+00,1.322549506023885213e+00,4.051805985197902138e-01
-5.187571580198000909e+00,3.560064240037409178e+00,6.107757078362072711e-01
-5.522170353071341076e+00,4.263253648988242439e+00,-1.619293247128773983e+00
-3.567163560552387036e+00,2.232548050303801102e+00,5.828301709824439403e-01
-8.253588299637435455e+00,4.140003096859337539e+00,-3.679314812541528923e+00
-8.927938120956843804e+00,4.434866465376079425e+00,-4.074595234346070072e-01
-4.244399763103243295e+00,1.423686209775764766e+00,-1.882626154802126806e+00
-1.128406195659794387e+00,6.117287005681589784e-01,1.000257401166356613e-01
-8.301104754756403636e+00,2.329580803815368473e+00,-1.507203580991649083e+00
-1.548875939579482441e+00,3.583168532946015450e+00,-2.469506849440142204e+00
-6.549782866030499306e+00,1.849120556630726719e+00,-1.402408242063916566e+00
-6.840256038584264786e-01,1.509752358294259356e+00,3.830891299342698009e-01
-4.012755990428224173e+00,1.610024469816812909e+00,-2.547840500863407520e+00
-8.060017571915683021e-01,3.711170695855249058e+00,-3.908138672614254183e+00
-4.031459152218406228e-01,1.240118905888440981e+00,-4.336678392699685247e+00
-2.167077956185790466e+00,2.868591949507146577e+00,5.816949974527166889e-01
-8.147395666467362574e+00,2.296477974051054805e+00,-1.305384482835241222e+00
-2.201850630109225548e+00,2.995896647196604867e+00,-4.085619848938863541e+00
5.144661118081100826e-01,2.814336349705955254e+00,-1.870871774333672688e+00
-7.779070867710177417e+00,2.722297125227419290e+00,-3.361881759283241067e+00
-3.162422793304073831e+00,1.800434516043547317e+00,-3.870847005755099879e+00
7.286190923063796954e-02,2.981186463100763628e+00,-2.001418695586775431e+00
-7.650157042405970387e+00,2.925980443278107579e+00,-3.952341129358968086e+00
-5.547857843992468396e+00,2.635767855681577121e+00,8.267525574474003935e-01
-1.556116822191750071e+00,9.656887750361726752e-01,-2.367470220089998190e+00
-5.951583207685624544e+00,4.780368939450058363e+00,-3.356871932966458250e+00
-1.127347069557452924e-01,2.561798604051846784e+00,1.982454593553015509e-01
-5.899855334352305469e+00,3.780723862139129032e+00,7.490958734120343188e-01
-6.866844457007225344e+00,2.004280244574134784e+00,-1.409686385510109163e+00
-4.557012838731615112e+00,3.636171156300840313e+00,-2.364179362825619413e-01
-8.872969123188173768e+00,4.201204271379753941e+00,9.135404970405301972e-01
-3.958732642520268463e+00,1.400001572636519143e+00,-1.703774182226666989e+00
-9.004614949541227986e+00,4.354423728852668596e+00,-1.542586195156602002e+00
-4.020005714438607214e+00,3.959911471895848134e+00,-1.751168620032709233e+00
-9.311064271043273166e+00,2.770431933635339128e+00,-1.836032833273034903e+00
-5.430955410173457842e+00,3.839895487071092628e+00,-1.470677906767436371e-01
-4.027439311600487515e-01,2.444090204717520365e+00,-4.379026675947915948e+00
-2.070617586477343230e-01,2.881000978233646759e+00,-4.192322091796926387e+00
7.751777057216480138e-02,6.119993932050628027e-01,-1.638446641967191031e+00
-2.218307482046401713e+00,3.686778542423999827e+00,-3.883686119626303501e+00
1.433084496732140722e-01,3.430756657185146441e+00,-3.696935964740893699e+00
-7.629802557506097038e+00,2.644208004156965330e+00,-3.172574207143745273e+00
-1.755752732054145282e+00,3.237251476561003649e+00,-1.054712092121961931e+00
-8.755269503287971267e-01,1.222180568756972230e+00,-4.105946770939035595e+00
-1.947949646521559774e+00,1.230851171901112151e+00,3.120720825238086915e-01
-8.314394897948014673e+00,4.964302319479534376e+00,-1.928334733698045200e+00
-9.471823052018214284e+00,3.222181968207303182e+00,-3.574642184617766727e+00
-8.928193171331360034e+00,4.224475633505504923e+00,-1.165471603643416953e+00
-8.548952584714777814e+00,2.383760601694705716e+00,-1.279193288300036535e+00
-4.665237881066842007e+00,3.452301985687634911e+00,7.985256515522642928e-01
-4.927545702062084310e+00,1.434646527443409258e+00,-1.107292291148512797e+00
-9.077165338157376695e+00,3.709030365864701029e+00,-1.277527313593041836e+00
-6.175665395533603608e+00,4.687435715336444098e+00,-2.483563329228578365e+00
-5.545513185379603804e+00,1.980956762491434153e+00,-2.175713132557135499e+00
-1.088295065358828140e+00,3.035715559721197110e+00,-1.133818658638218180e+00
-1.865702037732516416e+00,3.762341646708396325e+00,-3.105838488703313693e+00
-4.916937296493695264e+00,3.676564838760855825e+00,-3.827791464521327125e+00
-7.167487798300989255e+00,2.139983171081695001e+00,-1.791154717586227907e+00
-2.888080465877863823e+00,1.274327519212232307e+00,-2.415421544726177316e+00
-3.280428532684854126e+00,3.328477278136826811e+00,-2.905881946434303309e-01
-7.359478154783990256e+00,2.786725802789614903e+00,-3.918152280454086256e+00
-4.448599925279145828e-01,4.436653389118619395e-01,-1.361829787961492233e+00
-3.950516574725659424e+00,4.231883340184070974e+00,-3.329654363332644529e+00
3.153675618856058294e-01,2.448839158244040970e+00,-2.575888981445799697e+00
-4.814582767225644711e-01,3.471489615696832232e+00,-4.078212953782877292e+00
-2.194510020649168336e+00,1.301116922054740055e+00,-2.862591895767172989e+00
1.409181470236665623e-01,4.661779124782781114e-01,-9.515398482989273488e-02
-4.899063390015837710e-02,9.964425535045261517e-01,-3.664835248972337922e+00
-4.893472199743294837e+00,3.126107882168173369e+00,-4.142116123772664693e+00
-8.986302769863772966e+00,4.730530642711412881e+00,-3.091084305915756669e+00
-3.236926351737344998e+00,7.440379056124143409e-01,1.081646903643026930e-01
-1.901504814783722574e+00,1.881441322555326146e+00,-4.426508401911584123e+00
-8.442870582204509589e+00,1.880241322780030089e+00,4.611949740683666255e-01
-4.863175593387116358e+00,2.602297962636095807e+00,8.034904701920791981e-01
-2.149894507969822399e+00,3.322712187645661785e+00,-1.318211302006976116e+00
-2.629678994380659773e+00,3.795101735359657003e+00,-2.435096023977418422e+00
3.197217822801470821e-01,2.776823592938747254e+00,-4.151699299573587965e+00
3.127410849134969473e-01,2.811369332413676148e+00,-1.458064066957242888e+00
-3.654465674640435591e+00,2.384495102819432777e+00,7.593217489692900557e-01
-8.856813209190946168e+00,5.261803609957151906e+00,-2.446212663784511410e+00
-4.918882253983735353e+00,4.612630100960418922e+00,-3.463061416604887643e+00
-7.942541495421508557e+00,4.607462455495469733e+00,-9.075598973998975083e-01
-5.934668962279642024e+00,1.754908816265236871e+00,-1.569079889286247420e+00
4.232052272566950712e-01,2.162890297056411448e+00,-1.370998252799287220e+00
-8.958191796279397323e+00,4.912451784456014714e+00,-2.655521586674688184e+00
3.548598291466912302e-01,1.482481167297957647e+00,-4.785371910301179366e-01
-7.593745959255815414e+00,2.797418965039813354e+00,-3.885342545233082756e+00
-9.072062776079386381e+00,2.805833468012231435e+00,-2.269912620063339936e+00
4.212943751273937054e-02,6.871718290217800895e-01,-1.651025785748069907e+00
-7.619258123097454316e+00,2.812137356280436151e+00,-3.933950673598523906e+00
-4.974224276090170704e+00,2.010335278390573244e+00,-3.280738884503935360e+00
-4.028216931459465577e+00,1.367788050914375830e+00,-1.320839453629802041e+00
-4.420301438243587455e+00,4.023956226183744711e+00,-1.798479684539908030e+00
-2.844987016435826632e+00,3.248482341388019723e+00,1.931466986521599982e-01
-2.002012628884480283e-01,2.185840112617747355e+00,-4.334621788252793095e+00
-3.349082834913410966e+00,1.172014573566354523e+00,-1.145972587127189524e+00
-8.521559883205791497e-01,2.291381130817052192e+00,-4.338801096440854543e+00
-7.756405739848792891e+00,4.391350961728862856e+00,-3.826044381990271748e-01
-2.321480041200510769e+00,1.202235645025976352e+00,-2.219484837619259743e+00
2.005870543744677492e-01,1.522589344794216482e+00,-1.279564446187923865e+00
-2.547000666315015760e+00,6.654648749648134354e-01,-8.563719616363127396e-02
-9.018401254815263002e+00,4.203895556667327504e+00,-3.839021810648428068e-01
-4.449955996355912546e+00,3.941688804076694197e+00,-1.639693252045830940e+00
-9.276595982056951684e+00,2.334648024511859710e+00,5.488450384376909463e-01
-1.516197793903599544e+00,4.783349196670115266e-01,-4.464405547104393079e-01
-1.616628895338651839e+00,2.177246079984855420e+00,-4.359911757075038530e+00
-8.198447449216542893e+00,4.776173816861777333e+00,-8.453835262699215258e-01
2.547621092922557409e-02,1.295217318987142541e+00,-3.102490452265377563e+00
-8.026095026889903394e+00,2.363749443451948817e+00,-1.445497734096454101e+00
-8.992555577400212385e+00,4.406968957686221877e+00,-1.326647607288599096e+00
-4.462524563076160078e+00,2.469230737286955080e+00,8.072102556685936126e-01
-9.692442226112606418e-01,2.118385053851843836e+00,6.074374484547188091e-01
-7.745363310433329040e+00,4.306635861430719636e+00,5.058807212506103435e-01
-1.649934710764223489e+00,4.109658805076214505e-01,-1.088256328240446158e-01
-3.610128321030405374e+00,3.758286719965139078e+00,-3.866331267714579578e+00
-6.324152456497701635e+00,2.419679715277632148e+00,-3.184459483059751683e+00
-3.937934163875389526e+00,3.665595302875248152e+00,-7.985995120935732716e-01
3.725312571803222617e-01,2.310287841090641336e+00,4.167141679213893224e-01
-2.796857243539399906e+00,4.005767974472616899e+00,-3.863973386023859646e+00
-4.065547522471416042e-01,2.662032966770035092e+00,-8.683823533942154616e-02
-1.116726925256749547e+00,3.611400777532052686e+00,-3.272530729193805055e+00
-8.494274703157714157e+00,4.521877533559975681e+00,1.760328107187905111e-01
-3.512319300451141935e+00,4.044797955296084879e+00,-2.545982728751897017e+00
-8.510177056287160369e+00,4.584157958125963717e+00,4.394435878643699889e-01
-4.321058274693210244e+00,3.325101907453366756e+00,-3.984018244431219546e+00
-5.285119532057796832e+00,4.395432210185334476e+00,-2.251419302976610748e+00
-6.383244454386099775e+00,3.444692438278318392e+00,-3.834507178101373093e+00
-1.232465751072605101e-02,1.416278377529563148e-01,-3.504462565097731797e-01
-7.299512858051425468e+00,3.139756725273261218e+00,-3.983221353679872401e+00
-1.443229542173092517e+00,5.300015652848176773e-01,-9.178821266003750479e-01
-9.064604523802669789e+00,3.372728671142658730e+00,5.444216344926872120e-01
-8.289755603045598775e+00,1.943287932735749735e+00,1.806408958319566382e-01
-3.507511777948676190e+00,1.839732763786319225e+00,-3.996450359023474785e+00
-8.343953329706888411e+00,4.675770710138746900e+00,-5.821995857759412196e-01
-5.909939257504357002e+00,4.605296755367768391e+00,-2.172412533001796486e+00
4.334718230805434391e-02,9.681378839127466884e-01,2.175382645597469244e-01
-6.341650975996745432e-01,2.459285092938748196e+00,-4.273405249698612351e+00
-4.703725592270478373e+00,2.239268734588794718e+00,-4.116471986831331975e+00
-3.254779582460944010e+00,1.763534468559412760e+00,-3.947610436607988493e+00
-9.323519639414328708e+00,2.901535609552211792e+00,-2.286467196726706508e+00
9.093712207165986078e-03,1.193561870714753503e+00,-3.143236242645661260e+00
-1.948517339444702401e+00,5.340318989045073073e-01,1.189653077280627622e-02
-7.824003466279718211e+00,4.521764221077583912e+00,-3.434906884611767519e-01
-5.686560320530299251e+00,2.303478382982136363e+00,7.728660051129292441e-01
-4.805537868190353556e+00,2.913377932705605744e+00,-4.031955617567609451e+00
-8.593360941496024807e+00,4.690555102034547730e+00,-5.414929157171015639e-01
-2.050209235256494622e-01,3.642115964355281399e+00,-3.966796015696942845e+00
-4.927840832321599862e+00,4.328267370890677590e+00,-2.484432351777984049e+00
-7.773367598095892284e+00,2.395754417312263573e+00,-2.314020406755677328e+00
-3.127421648289372413e+00,3.306054378395123727e+00,2.109010683177593628e-03
-4.304686427683551919e+00,3.472958011648191068e+00,7.065524876345357086e-01
-4.955553396674704736e+00,1.317807242563612480e+00,5.826256564607741328e-01
-1.335639149086332855e+00,2.963532042520864440e+00,-2.928119694316859145e-01
-2.115274826429448307e+00,7.694750918350372615e-01,-1.146886151234770335e+00
-1.057527424417826767e-01,7.036226882647207415e-01,-2.550690204070229949e+00
2.093078814131408005e-01,2.487555569141549849e+00,-2.764947309338836590e-01
-5.027578109496056769e+00,1.915153842907046267e+00,-2.711505257952770531e+00
2.120637418797991502e-01,2.808986321847684042e+00,-4.082187819579506716e+00
-1.908521880344790755e+00,3.116937363682634743e+00,-3.369706519690581770e-01
-4.724041852653349416e+00,1.870213228734237898e+00,-2.639569492703332187e+00
-3.461338522557900088e+00,1.819688285068154165e+00,-4.146877467579643373e+00
-7.580918821090786075e+00,4.968913459063503346e+00,-3.458620207998182927e+00
-8.333301764784177834e-01,2.811402821714503286e+00,-3.327569144478939589e-01
-3.614947345884227392e+00,2.150017886728734062e+00,6.105866979354082069e-01
-6.758137945429477433e+00,4.739660922947230404e+00,-3.541758082041301936e+00
-8.867747297815769869e+00,4.299572417938890112e+00,-1.354868369278049156e-01
-3.557701763488192004e+00,1.305465833796414676e+00,3.787203461554350947e-01
-2.067646670011867638e+00,3.228863417370369859e+00,-9.305756780512944859e-01
5.127794930998695599e-02,5.623238005695539998e-01,-1.411562988121388917e+00
-7.805455965769738214e+00,5.206629282038273132e+00,-3.385589708238958107e+00
-7.005882333656185956e+00,4.040940526337045924e+00,7.432694804620996187e-01
1.711848522779431947e-01,1.252295801753436910e+00,-7.618196895207678399e-01
-5.539130546339597672e+00,1.515037086896535490e+00,-7.723897604325039579e-01
4.709278894104506619e-01,2.041144949358816962e+00,6.122461701692006875e-01
-8.813723863089506949e+00,4.359662293152716472e+00,8.009875132237744833e-01
-9.150287945690685376e+00,4.543068058050499403e+00,-3.127640635458253104e+00
-3.620357758888974598e+00,4.374869063613179954e+00,-3.625317686947088003e+00
-3.412161556524461847e+00,2.633847224412458221e+00,7.304982563647900440e-01
-4.496007644980946516e+00,1.796743231582371259e+00,-2.641471699665795647e+00
-3.023472521075876607e+00,4.086943314652234704e+00,-3.874052330357469653e+00
-1.125247643126986885e+00,1.074272974536938374e+00,-3.388788290551230986e+00
-8.928428374251357269e+00,5.041622618028040570e+00,-2.378427311065426597e+00
-3.032818262187349845e+00,8.038531437125985279e-01,-1.567143712359236885e-01
-1.790542277171938146e+00,9.768689064820561541e-01,-2.359605781972073935e+00
-4.694215229059164329e+00,4.421901831771491764e+00,-2.745070814955143490e+00
-6.793087058908369613e+00,4.860880135423460757e+00,-2.856680287004305541e+00
-1.095479073419761917e+00,2.694539328522889576e+00,4.005606002627293827e-01
-8.726908953937737579e+00,3.023187748429752908e+00,1.076912592474309482e+00
-2.137997913406211925e+00,3.606955211383040982e+00,-2.082191271259929977e+00
-9.211118531146928134e+00,3.778663417460567775e+00,-2.230407662871506158e+00
-7.787307466483522234e+00,5.049521245990425733e+00,-2.898037054764387666e+00
-5.849969632563383648e+00,3.076947293027333608e+00,9.959877182784663274e-01
-8.971883851793647224e+00,3.800350113058220014e+00,9.203817163580501060e-01
-3.792874623832111158e+00,2.820872336336343267e+00,-4.062485716887644038e+00
-1.308175099926449092e-01,3.049596106789776329e+00,-1.718849068793063539e+00
-6.800744508833910906e+00,2.992663530756727308e+00,9.298643850785617282e-01
-5.146792433604153949e+00,3.704240026228413196e+00,2.611694156481782492e-01
-4.251141727619369703e+00,3.197909852982167234e+00,-4.050070873348315281e+00
-6.768113389741437835e+00,2.591060087731117623e+00,-3.803178766087788265e+00
-3.593502271927080827e+00,1.758363909979129946e+00,-3.679182761322039585e+00
-2.093946781355979780e+00,3.341162377610711331e+00,-3.944394849643204193e+00
-6.297234391790095032e+00,1.607511669152025924e+00,-3.264677580231258314e-01
-6.937096319904136443e+00,4.661606186138953056e+00,-3.561836008744231119e+00
-2.518438759183203590e+00,1.506128542697661610e+00,-3.418733357709457188e+00
-7.583538449513305579e+00,5.160489628430956266e+00,-3.454342366666508291e+00
-3.782195192058415145e+00,3.269237823967646062e+00,-3.968095399451259109e+00
-5.036589337189739446e+00,3.515707383752129989e+00,6.477517900146168017e-01
-6.637798853374398789e+00,4.730366884445646569e+00,-3.599169510947061834e+00
-3.002786330286978167e+00,5.712655150758799705e-01,2.111477399466171467e-01
-3.055340897885351348e-01,1.582398658229487109e+00,-4.565952162343534404e+00
-3.978357600382188775e+00,9.387291849993498749e-01,-4.050261903789443424e-02
-3.208483148095201631e+00,3.515577826942990924e+00,-1.073552200167821935e+00
-4.486134780649884135e+00,4.323655941598110175e+00,-3.092328831091315955e+00
-7.219398584446592437e+00,4.615013008061043642e+00,-1.193610639246467819e+00
-3.295021103953450936e+00,4.136576948240180407e+00,-3.409906059847140458e+00
-8.525846696125405799e+00,2.485726511450502496e+00,-1.876101448624714729e+00
-5.202868667994207108e+00,4.407038300372136064e+00,-2.555033118318964291e+00
1.089670649341278191e-01,1.351284498705848547e+00,-3.475673725779230061e+00
-9.168621304163027119e+00,3.535224900762320654e+00,-1.488757395181771637e+00
-4.853971293586960556e+00,2.548609220644330264e+00,5.992839411807924233e-01
-2.542411314208380180e+00,3.545553304838102271e+00,-1.647982446488045483e+00
-3.357520825988380864e+00,1.256729185807549554e+00,-1.823622207753477165e+00
-1.906460515732064875e+00,1.929230197497595833e+00,5.121211276295222214e-01
-9.204249594974848847e+00,2.981479463696607102e+00,-3.025642822331041870e+00
-7.519093587223704134e+00,2.360523078228835114e+00,-2.218249677049278112e+00
-4.258788870766830215e+00,1.607773569233190925e+00,-2.234293152645530078e+00
-5.319009272415741840e+00,4.687204389172162422e+00,-3.476365728872155003e+00
-7.456004709597921831e+00,4.455798351439484328e+00,-8.047304724560255806e-01
-7.711531893307090435e+00,3.267514398164986122e+00,9.863523481447120655e-01
-4.961670729969267057e+00,4.328095577426092966e+00,-2.358609416207023912e+00
-4.218720092671047084e+00,1.773196555187416479e+00,-3.166331583769173452e+00
-8.344227589375071474e+00,2.595137396311946620e+00,-2.076258702134565315e+00
-3.131358275314821249e+00,4.143208263947848025e+00,-3.687215092570194752e+00
-6.715077798191155800e+00,2.616156543948145785e+00,7.725904394799215646e-01
-2.946452459888081243e+00,3.325403049306703718e+00,-3.651768104682468485e-01
-3.890567091417607593e+00,3.289876079232178174e+00,6.805372858150725568e-01
-7.839157601835788469e+00,3.493037850039591330e+00,1.036693929616976595e+00
-5.928376848883783801e+00,4.808839228021652090e+00,-3.216809126590343570e+00
1.836096773079163302e-01,9.592218505835357067e-01,2.709546864214064099e-01
-7.714348740438986773e+00,4.318211888426414902e+00,-2.006843631422538035e-02
-9.787887779410284761e-01,4.601755600518230294e-01,-8.355131605956644947e-01
-5.809360236914174358e+00,2.938254338317837000e+00,9.351478977633126410e-01
-4.020359824421354311e+00,1.480651433691162699e+00,-2.157147910529030099e+00
-9.731299501001107188e-01,3.259594440454629982e+00,-2.174215247962445918e+00
-7.882435587655593601e+00,4.118517526244259486e+00,1.214191056620081532e+00
-4.841478498616584858e+00,2.920310927477030472e+00,-4.071711896148162424e+00
-7.884754320561985885e+00,4.295377753185320557e+00,7.704989176704343246e-01
-4.584082981083945185e+00,2.337652976715313802e+00,-4.231506681452347429e+00
-4.656711709658889475e+00,3.956532670805720464e+00,-9.183784166374242552e-01
-3.457121981368445507e+00,3.977141810742522043e+00,-2.304931547769613509e+00
-6.614312139831223014e+00,2.123919814598199896e+00,-2.057463484010839672e+00
-9.021556091078741346e+00,4.279981854920749562e+00,-3.638320895250457543e+00
-9.332459376187065558e+00,2.624481371760839732e+00,-6.343412672662166463e-01
-5.939583049863980335e+00,4.603246969756203733e+00,-2.612676814693133842e+00
-4.203184463824718997e-01,4.070431384666383656e-01,-1.605708323397124326e+00
-2.284681906459865353e+00,3.581223720912546593e+00,-1.827078426474287864e+00
-4.542600429475748491e+00,1.956461459724720742e+00,-3.572019804100012852e+00
-6.598977882816982721e+00,3.501007268558274266e+00,-3.928697996755783794e+00
2.857408681426730768e-01,1.678103974903230267e+00,-1.304917338376801572e+00
-1.639166758171443306e+00,8.202148876549358869e-01,-1.593783368243893994e+00
-8.583697522046792372e+00,3.802172353882568689e+00,-3.837224736917339563e+00
-4.121436517654793796e+00,4.262874628953729150e+00,-3.175179436874245642e+00
-1.038424934824130563e+00,2.804656730001418019e+00,1.543109475902900152e-01
-1.544303232142165694e+00,1.392989420933651745e+00,-4.288288577310757077e+00
-2.341801251189625788e+00,1.101710339500797442e+00,3.130169154933636344e-01
2.738143999412139262e-01,2.456557857864283267e+00,-3.523405829208837492e+00
-5.734985648239885769e+00,4.280012637897630867e+00,-1.501998580104297432e+00
4.150830980858919439e-01,2.904147178625295478e+00,-1.897324201774073460e+00
-7.165005279537358440e+00,2.013848194336739006e+00,-1.232664700960005355e+00
-7.082800921864687460e+00,3.738003691863245326e+00,-3.709232992473818324e+00
3.632387823154492046e-01,2.693986109895910364e+00,-2.332578839513770319e+00
-1.866721575839392633e-01,8.991312840041911780e-01,-3.139261652295477489e+00
-7.036641006485031546e+00,2.834544932228891589e+00,-4.011263013294811941e+00
-1.582246512742138567e+00,1.689223779600155018e+00,5.798701328296419488e-01
-9.337194089426922972e+00,2.938348209312585890e+00,-2.204790353134673531e+00
-5.623438085539174125e+00,1.666034454001585674e+00,-1.044598717869847260e+00
-4.251114750301290712e+00,4.088982220982122051e+00,-2.031812341649695597e+00
-6.143648627957655428e+00,3.304008235984986275e+00,1.020759696407418371e+00
-8.745326307973495972e+00,2.362129323593047392e+00,7.985215670230029206e-01
-4.383517365981187131e-01,9.546334547523370739e-01,-3.606970256580984469e+00
-8.034742003556301082e-01,6.444216223665937271e-01,-1.798794703338268297e+00
-6.423648894436739809e-01,1.485895881681885911e+00,-4.502132617146053839e+00
-6.868515320575142580e-01,2.728049522290033391e+00,-1.724689782686704420e-01
-5.700236056983795763e+00,4.146099670529079795e+00,-3.679228830187430077e+00
-8.565998319113024451e+00,5.109806574013594727e+00,-2.055630353075879047e+00
-3.299619955530260551e+00,4.032127792935944477e+00,-2.724368527945337792e+00
-1.970981646690161737e+00,2.768592702792280758e+00,-4.149265935296549301e+00
3.819719930312324152e-01,2.578534936849217196e+00,-7.456527315118937072e-01
-3.819091496047341217e+00,4.172308864619171054e+00,-2.634821834673826579e+00
-2.281468634251315297e+00,3.161354492819115070e+00,-4.418266705516797344e-01
-8.386027569872265275e+00,3.406055920167842643e+00,1.155456887560057710e+00
-3.413953816250689499e+00,2.620447454010041088e+00,-4.152760773887194112e+00
-8.813648843635174757e+00,3.992329504075356361e+00,1.237781501625649483e+00
-5.589396551321090811e+00,1.821682823663030026e+00,-1.958605690466790339e+00
-6.115219117292213902e+00,1.359354432128879964e+00,3.510916006784539078e-01
-7.235085474212545886e-01,4.720629224996956697e-01,2.250915166432897463e-01
-6.003802954645844459e+00,4.719663139947838815e+00,-3.589096248502773090e+00
-1.210690585980217782e-01,2.619347762061895235e+00,-6.929061131094197412e-01
-2.472036242344494372e+00,3.811261675433454510e+00,-2.906784268526763082e+00
-3.943430196139270816e+00,2.368079063240812410e+00,5.948246945226655091e-01
-1.379365381396510104e+00,3.368288280868954043e-01,-1.786588385491576503e-01
-2.388266188850949767e+00,3.868458330487563046e+00,-3.114354011533981836e+00
-6.154682696961308430e+00,2.450775627342541174e+00,-3.933699464621557951e+00
-8.381157653566496890e+00,2.359358857769917162e+00,-1.188227090370948869e+00
-4.234507863444307851e+00,1.551654292414669678e+00,-2.150441995505108395e+00
-7.046735402874684695e+00,4.522873706629333412e+00,-3.595593678801532356e+00
-2.722572313643158104e+00,3.905722715048254301e+00,-2.691520189143490782e+00
-8.857237766323475370e+00,3.207220214622750643e+00,1.091205101517538134e+00
-5.850702387262868065e+00,4.643010550344050635e+00,-3.629665783432948878e+00
-4.320159309840230222e+00,3.716975996444702002e+00,-7.421429845775650014e-01
-3.231724574704396336e+00,1.264205979024072946e+00,-1.889038997568614153e+00
-8.845075187080867707e+00,2.129112849153178111e+00,7.395512516330503550e-01
-2.519487588320191485e+00,1.575431862627532320e+00,-4.113733838845317514e+00
-9.098617054454738451e+00,4.001452267524734374e+00,-2.861465826310991112e+00
-4.489060757483773756e+00,1.257978147392885049e+00,-7.277458299976915512e-01
-4.668564951447991440e+00,2.404481397308124713e+00,-4.254042394785502168e+00
-6.948631856169580345e+00,4.732562535839741180e+00,-3.554403692581474594e+00
-8.629332309047608618e+00,3.355514733897847712e+00,-3.965811281517489295e+00
-6.826691126566506895e+00,1.650947342582746780e+00,5.637293224956428928e-01
-1.694296260919700980e+00,2.991560550678564745e+00,-9.331571460035370524e-02
-3.402356459618179230e+00,4.032804677428097229e+00,-2.705886194925871457e+00
2.108244566671793607e-01,3.043470376632781083e+00,-1.836624108900210439e+00
-5.018354359330400527e+00,1.225807741319520527e+00,-5.017638715594276849e-02
-2.108188160425193747e+00,1.891263575513009387e+00,4.920795476824523784e-01
-9.192056095184724995e+00,2.566132775052690551e+00,-9.623805507729417119e-01
-1.292234048035131533e+00,6.595194361604566069e-01,-1.550012798576506201e+00
1.876922441902098282e-01,2.544252530623043018e+00,-2.066606352263711532e-01
-4.143877342704182176e+00,3.039669397557911434e+00,-4.066453306675597013e+00
-4.065268428970685299e+00,4.323600549548959115e+00,-3.787131067348946001e+00
-2.967759743913758630e+00,4.163440005058514970e+00,-3.460223232519696435e+00
-6.943510411931677950e+00,2.002072866837226517e+00,-1.237392458182890786e+00
-9.151589313917920521e+00,4.513603957231691055e+00,-3.448885970166785331e+00
-4.117294459227572312e-01,1.972775212405883716e+00,5.044952932210947649e-01
-2.511718421903609499e+00,3.919551028846228746e+00,-2.851063015463601413e+00
-7.317838614205756098e-01,8.157532798764777215e-01,-2.597043836918647486e+00
-4.179956521201187769e+00,2.214074610480251781e+00,-4.180539167874751882e+00
-1.075607406880472183e+00,2.597349051049446800e+00,-4.224189304832862923e+00
3.673933234258317526e-01,2.556301575874895704e+00,-3.445194042382149657e+00
-7.868085838284256006e+00,1.820553595157724747e+00,2.516205782773955901e-01
-1.664833524903232831e-01,-3.214779516088463272e-03,-4.025366236851727481e-02
-4.715322756637458035e+00,1.755949340089059563e+00,-2.330537122907053504e+00
-7.258416079771936147e+00,2.377051227443607750e+00,-2.393656119307062902e+00
-1.376693645178847625e+00,3.667340632376864029e+00,-3.093945724026329724e+00
-7.825067806313068530e+00,2.368302135442539758e+00,-2.280798536455942216e+00
5.299839984533801784e-01,2.109862003419571863e+00,5.220626460042070427e-01
-2.133707199313921721e-01,2.593158515216463122e+00,-2.080306499450871316e-01
-2.351146357477599480e+00,2.864744451552280413e+00,6.841208333358803628e-01
-3.966844026595606643e+00,4.404932572476411679e+00,-3.714810711446260960e+00
-8.855546575149436661e-01,3.029990561900661739e+00,-1.422721321955546570e+00
2.287577883984151170e-02,1.466045545556989849e+00,-2.105507730638950470e+00
1.064348895649450955e-01,3.059177202408442930e+00,-1.870052267940950808e+00
-2.228468764859062645e+00,2.876318818177141523e+00,7.373849797975521314e-01
-1.678412669269738089e+00,1.123767707861539789e+00,-2.826712787690473849e+00
-2.307165702105893779e+00,3.374789687291206874e+00,-1.331864400600973442e+00
-6.181279208100314726e+00,4.258675496898616686e+00,-3.536452009758162540e-01
4.520084069080904099e-01,2.356415803533553177e+00,2.265234527929362585e-01
-4.205936582061793771e+00,3.643259783691700893e+00,-2.475236779067455928e-01
-8.655197467759336405e+00,2.863452317257084712e+00,-2.788633120193801940e+00
-5.837665019454463255e+00,2.105001349380771103e+00,6.440999420751148952e-01
4.189337011369003716e-01,2.199903927401435144e+00,-1.511654879785654604e+00
-1.809874657802185594e+00,8.205880339442492843e-01,2.415508062178388926e-01
-4.835807058072838949e+00,2.217861287103461976e+00,-4.123435241754816794e+00
-7.667127413230162780e+00,4.645215116689055179e+00,-9.598934209504272896e-01
-1.385734093241015374e+00,1.313792443386588848e+00,-4.374919293315662649e+00
-7.105429234302766517e+00,3.273468315589395772e+00,-3.852912621508371327e+00
-2.066810089602737044e+00,3.914654996606594217e+00,-3.652180796518617711e+00
-3.284633906384935020e+00,4.039437307147417222e+00,-2.937313781434274684e+00
3.100123041122119019e-02,1.301576225652475438e+00,-3.546620560597951943e+00
-9.184142945997404439e+00,2.960385691588148571e+00,-2.373232377923710501e-01
-7.811057631499910947e+00,2.177592617597568836e+00,-1.508002484837514867e+00
-6.183113430336430127e+00,3.144006319848050790e+00,-4.064400865410886965e+00
-3.624083104131065713e+00,3.780103536228550443e+00,-1.774367634096573942e+00
-8.348948837383544930e-02,5.467502761779633458e-01,-2.052395610603717113e+00
-9.053140627383257311e+00,2.491671638213076356e+00,-1.191449399799078046e+00
-4.738706588109527496e-01,2.601180025242078031e+00,6.175551177104730005e-01
-7.193256469910850548e+00,4.971242417600300278e+00,-3.540371956107999818e+00
-7.310254235089411523e+00,4.886606565517005230e+00,-2.329432415771542253e+00
-2.419868246739098172e+00,3.949533836474887316e+00,-3.116486234653649490e+00
-5.343973995285464795e+00,2.065013016588237438e+00,-3.357179692285299222e+00
-6.911685936091283011e+00,4.053159198124492768e+00,5.210516999074951139e-01
-7.460607176174305799e+00,1.976425110227495008e+00,6.550240625273514583e-01
-3.246901696253020386e+00,4.103975091193724722e+00,-2.879529783534765297e+00
-6.394751913017008071e+00,2.706679388126077779e+00,-4.092605490148135239e+00
-5.393713534742091475e+00,3.217614237464936799e+00,-4.014661873293738914e+00
-9.705736661728218140e-01,1.735883756468249661e+00,3.807795720965408970e-01
