-1.973858559536801449e+00,6.906680099774577641e+00,-7.983115810956403102e+00
-4.754782495157278355e+00,1.067976130117557076e+01,-7.125006625025931406e+00
-4.184444581032704669e+00,5.223582636950386160e+00,-7.230451508718657827e+00
-1.893012247751065136e+00,5.580925520696302655e+00,-5.942585975945142290e-02
-6.079307520967370593e+00,1.162819680721842275e+01,-7.087869581453858814e+00
-9.385192477795113675e+00,8.894277035645544061e+00,-4.338452696233281891e+00
-8.204525998936498254e+00,1.245645959375215561e+01,-5.076460892496609034e+00
-2.761417702113519557e+00,8.116681320348106965e+00,-8.219958576974121911e+00
-2.385286819293010563e+00,8.020816830304443812e+00,-3.756434291717511531e+00
-5.123390548571642888e+00,1.121291809669788897e+01,-7.708637031959251651e+00
-5.466986755784131624e+00,8.723793313049778675e+00,-1.118645129999826571e+00
-8.961638668080610159e+00,8.281096654404178636e+00,-3.861042158875232833e+00
-3.150745183218853995e+00,8.838174562502004505e+00,-4.924032970409609078e+00
-9.494962432827472654e+00,9.943405949641979547e+00,-7.577589596622257950e+00
-1.948827681037692550e+00,2.650484930567686082e+00,-3.288605516792390215e+00
-3.184335232248413750e+00,3.715276648330493980e+00,-4.193483399112958310e+00
-8.096449564607326177e-02,6.631912212663261030e+00,-7.453004270646725438e+00
-8.052350831813784637e+00,7.394644179161012687e+00,-3.059618679505830663e+00
-1.967511661157394842e+00,5.320364452475356387e+00,-2.166736450672534509e-01
-4.705317322307313255e+00,5.830472768226710123e+00,-7.474402552137752842e+00
-5.771550621627450361e+00,1.078025004983316570e+01,-3.965171182090104107e+00
-1.161031952814761820e-01,7.343660522278089298e-01,-2.594856973329597860e+00
-1.937465942856070100e+00,3.706563277281407220e+00,-8.046251660817642204e+00
-3.279365686299335003e+00,7.957394116121718319e+00,-1.204732866293498406e+00
-3.599712095012863600e+00,8.412840479379463332e+00,-1.897846742937308040e+00
-4.445473709030089426e-01,4.392097705520186857e+00,-7.587842645872588498e+00
1.092349753056255590e+00,4.854958206263085607e+00,-2.685563937676675561e+00
-1.335938795173966298e+00,6.294440216897450036e+00,-7.744397885583549357e-01
2.672116744821802392e+00,2.525034941052000104e+00,-2.205910153664457862e+00
-7.211021845053091184e+00,1.281302618383994485e+01,-7.103487285470743373e+00
1.456715810353394813e+00,1.101679990804703468e+00,-2.023081690222047424e+00
1.829490623411794692e+00,2.050707425574637366e+00,-7.150379337738486107e+00
-3.192119355796908309e+00,7.994747864256393832e+00,-1.231489416488388500e+00
-7.533003160354193817e+00,1.250534310789536896e+01,-7.755865438032084391e+00
1.882232946982494992e+00,1.896148314637531751e+00,-1.328928867713914386e+00
-2.017922474976402425e-01,1.724072060130664941e+00,7.434380692911063404e-02
-3.609610774359119922e+00,4.675885496727441470e+00,-6.015134663067443377e+00
-3.636460579172357654e+00,3.646736065922984160e+00,-2.238363717181071522e+00
-6.947788078911506737e+00,6.616464667421753099e+00,-1.614025903075721802e+00
3.032071281997696932e-01,1.790745425656435241e+00,-7.604251661608013357e+00
-8.461468871678066606e+00,1.049002499381874642e+01,-1.786211897313335628e+00
-4.724160960169122347e+00,1.055385201014481211e+01,-6.484901104254007898e+00
-3.896517946941936206e+00,4.029290227751125997e+00,-3.469110267232259126e+00
-7.435360976488642137e+00,9.179571912920028609e+00,-1.572351864891412765e+00
-2.184813660746207642e+00,2.594947794694447918e+00,-2.330329237813885346e+00
-1.595932502677926079e+00,2.228034863357064133e+00,-4.284145484450472274e+00
-3.738488566954280223e+00,5.208708968568460662e+00,-8.299772947692611869e-01
-5.637249835944929011e+00,6.654311887923562097e+00,-7.436014779483680393e+00
1.270330703311112419e+00,3.832053044024654742e+00,7.586999142863189161e-02
-8.869244294842641096e+00,1.082458104591497694e+01,-8.960147372694871493e+00
-1.833526154654281370e+00,2.343454567324439797e+00,-2.746883747572532730e+00
4.369775764039789817e-02,1.144019903173179170e-01,-8.274731650343424283e-01
2.284226788244743400e-01,5.304515675869126312e+00,-7.464887576405090819e+00
-2.972327387431620282e-01,2.896310275036020787e+00,-7.695869330777720840e+00
-3.902064249680557761e+00,8.736675972118984390e+00,-2.232724055442889100e+00
-7.232885901744927182e+00,1.266055693473097321e+01,-6.880690982153145896e+00
-9.350192312497020097e+00,9.596359906553983521e+00,-7.348645939051660747e+00
2.345892067291360572e+00,1.551694143769346113e+00,-4.654655887721909302e+00
-1.602569335623103441e+00,1.669194836536800119e+00,-1.654786034391010796e+00
-6.176379705286374033e+00,1.149288906993586856e+01,-5.795555515569153826e+00
-1.573730158055717032e+00,2.691933112996740984e+00,-5.016890548101677005e+00
-2.926032789909587262e+00,9.334611540719922829e+00,-8.011922286956394856e+00
-1.308985548599794324e+00,2.823097427657968783e+00,-7.140456122822390839e+00
-5.943761719659321763e+00,6.863589434288589253e+00,-1.292141777667975999e+00
-8.851778164054076470e+00,1.198768720574164348e+01,-4.166341807025506050e+00
-6.548980883726138735e+00,1.223692222705522070e+01,-7.540878207930541421e+00
-7.241903067641638714e+00,7.208358684084505086e+00,-4.423212283088675534e+00
-3.937736358387354141e+00,9.283959865436671066e+00,-3.478323206705418613e+00
2.584556262554359662e+00,2.247685461254206540e+00,-3.740624458350433112e+00
-1.319489539430000136e+00,7.773582182277473329e+00,-7.070771354967067879e+00
-2.426477514634186594e+00,6.132775708537875126e+00,-3.110262754181226663e-01
-8.013185994178613214e+00,1.232737512037923366e+01,-3.133365183542682786e+00
-1.862480471244190916e+00,7.847117551773418853e+00,-5.313861524064297903e+00
-2.720603221319122245e+00,8.680976690984719468e+00,-5.849977045447483981e+00
-4.069417143056639041e+00,1.001279436633686970e+01,-6.813532171787039182e+00
-7.707664496581897673e+00,8.518297592771327587e+00,-8.383475523236359805e+00
-2.141054612017227576e+00,6.935314976673720544e+00,-1.447355878401329177e+00
-1.565270575889271765e+00,6.099421339558761090e+00,-7.910112667271236297e+00
-5.825886179955489297e+00,7.147183081379452574e+00,-8.584708877172065655e+00
-4.861173310737151532e+00,5.439974904850511273e+00,-5.416834338326615317e+00
-8.752604169413996660e-01,4.077318884227640439e+00,-1.786959775942864592e-01
-9.851538924097602568e-01,6.911175993567467479e+00,-7.491708974242241581e+00
-6.526203540715343365e+00,9.810556728985147856e+00,-1.343409273471488197e+00
-5.372796246262449671e+00,9.698697784210676076e+00,-1.616644467674184682e+00
2.620508748245863329e-01,3.952587838353406546e+00,-7.609001167026305801e+00
-3.436750112590312600e+00,8.062283269319658885e+00,-8.787275218066369353e-01
-6.254893301305771480e+00,1.104918167402466622e+01,-3.900201223142831797e+00
-7.207327683232778170e+00,6.336221386620553453e+00,-2.068277732012227421e+00
-3.927573275049948354e+00,1.012693684380070458e+01,-7.045857416051237720e+00
-5.533343259896255084e-01,5.880686823591404710e+00,-1.869710728381867026e+00
-3.152614193376142460e+00,3.007671705818292018e+00,-8.687976085892528122e-01
-1.875439492513564010e+00,2.259739591035164530e+00,-2.256580786134033456e+00
2.726488526971144744e+00,3.187591954137576788e+00,-6.937346695698424881e+00
-3.866237916461500390e+00,3.847930305203546286e+00,-1.960526395668025890e+00
-6.883235560473638159e+00,1.102243239348975479e+01,-1.587368661702568184e+00
-2.696077990049497330e+00,2.451741527627386841e+00,-8.432139769566261434e-01
-6.728123050997248278e+00,7.691288619682561389e+00,-8.296318776081601953e+00
-3.386018406068592168e-01,6.282151565848319130e+00,-7.548548882696390017e+00
8.318635807947069027e-01,5.715073798602449351e+00,-7.327273301795039551e+00
-3.988051496289836351e+00,6.351675657488275561e+00,-8.660849893475544903e+00
-6.469119657402942813e+00,6.104449608885388123e+00,-2.343072584442189132e+00
-8.090912421938883270e+00,8.802184574754734925e+00,-1.672300113651669751e+00
2.351304044711826080e+00,3.333390468563910414e+00,-1.329697077848274400e+00
5.027899729328588752e-01,5.509859124602944469e+00,-4.007851674861968583e+00
-1.124622402915939290e+00,2.320629860969561253e+00,-4.741704747884975646e+00
-2.090302115279639938e+00,7.086163545219321236e+00,-1.900119252468717379e+00
-3.961873712980972684e+00,6.287970796112557714e+00,-8.147977606062534184e-01
-4.818919784063099954e+00,5.104021280479257960e+00,-5.319848104238501740e+00
-4.351792197949650998e+00,1.006902844757101079e+01,-5.412735211402584845e+00
-2.961521913820233554e+00,9.286369406609507493e+00,-7.171197643207585237e+00
1.143287144091333696e+00,4.196740971675339438e+00,-7.275569657643724319e+00
-8.401452135783681996e+00,1.261767757488031805e+01,-2.837447965647058368e+00
-8.979946222722345439e+00,1.197654415694768915e+01,-3.542517089270428521e+00
1.349619712334695798e+00,4.205667734969631977e-01,-6.935209513882035104e+00
-4.735696209237843846e+00,8.618096947286268517e+00,-8.173093870154217733e-01
-1.008947536971680714e+00,2.963645653099418631e+00,-9.105612501506711587e-02
-4.357095785030828949e+00,8.786232218503428726e+00,-1.443627661669394824e+00
-3.720434735375903301e+00,9.313965080632479854e+00,-5.054419667275839245e+00
-3.202368514065669025e+00,5.798338259577860754e+00,-7.141058836750214800e-01
-6.981624503502696477e+00,1.051544037139445642e+01,-9.146141862671399281e+00
-8.453461659938461992e+00,1.238824810790393727e+01,-4.457361117930561001e+00
-4.138268526260262092e+00,4.453708601041689086e+00,-4.587266979721238869e+00
-1.065630878872900533e+00,1.680700038578857303e+00,-3.404525296827541903e-01
-8.973740482183426792e+00,8.746432611017983305e+00,-5.600587769723204268e+00
1.293120282924833830e+00,5.245673076299921078e+00,-4.825190770032013354e+00
-7.020193883929994882e+00,6.852106403985737337e+00,-4.744618145113669527e+00
1.568566281757202696e-01,2.660483352588412398e+00,1.194108030126078829e-01
-3.521580945139229701e+00,4.338231469442197508e+00,-5.542226826899422143e+00
2.738759485102219671e+00,4.446956269739284373e+00,-6.764113516916226310e+00
1.471809322248734953e+00,6.734609417241989027e-01,-6.914644312831765838e+00
-8.307275809213237050e-01,5.642173506006412431e+00,-3.060383353248505300e-01
-8.842061080935154749e+00,8.650297561456032014e+00,-5.234004046867373638e+00
3.548973465039096387e-01,4.438946656014375769e+00,-7.430711999616143260e+00
3.322406220927339948e+00,2.881459813943860304e+00,-3.065256536012981758e+00
-7.518655176503175497e+00,8.342534680095777588e+00,-8.289160545576862660e+00
-1.911509035497586328e+00,3.580701628801870928e+00,-7.275918996985651255e+00
2.890460696474107749e+00,3.389851782017680115e+00,-3.445941778939358713e+00
-7.044597976080589241e+00,8.347763179842775827e+00,-9.169803618512199606e+00
-5.608262880233882974e+00,7.859453453230377029e+00,-1.111084378844543474e+00
-7.664626772060355586e-01,1.731193621743638111e+00,-4.295082990140432599e+00
-3.474637368116033631e+00,9.806135357377446127e+00,-7.923796688552230627e+00
1.782519877877911663e+00,3.616384466452621460e+00,-1.086550114755453628e-01
-5.176046222096684524e+00,9.645249368983884963e+00,-1.520390421918486723e+00
-7.323960864064088305e+00,7.291043905883022980e+00,-4.891645707452619618e+00
-3.246037748362569531e+00,8.176392570105969426e+00,-2.516371625030408676e+00
-8.881361201928948290e+00,1.242790110307494444e+01,-2.396172048752220007e+00
-3.816601663968987701e+00,4.267454023784098105e+00,-4.209678355330801480e+00
-8.342867730332054421e+00,1.199413404989570786e+01,-6.198502705617432440e+00
-1.906796281995028375e+00,7.770093352141142162e+00,-4.672973815069755510e+00
-9.908409569426549268e+00,9.980433397987878763e+00,-6.525773736314617324e+00
-4.283182197059532292e+00,9.115343603290709140e+00,-2.723031795467507621e+00
2.414117891240504132e+00,2.293535645652417188e+00,-7.152558912545008418e+00
2.969445047615505651e+00,2.799859545503104563e+00,-6.861719207621615801e+00
9.755561934717045247e-01,2.818414937822168453e-01,-2.550796978317825481e+00
8.182708305710816310e-01,5.448662989061744177e+00,-7.229359827490653423e+00
3.744722068770053092e+00,3.439383220714829381e+00,-6.062580334031986595e+00
-7.424701809087613569e+00,8.184854197834676270e+00,-7.936693899056304069e+00
4.041226933246457875e-01,5.351713559878994886e+00,-2.699049510450711065e+00
7.678238152949953266e-01,1.062055333430250048e+00,-6.730588650422570041e+00
-1.738180852661011633e+00,3.180361983656831981e+00,-4.010676410779775991e-01
-6.850859961075098425e+00,1.220343808670172692e+01,-6.625529523738479476e+00
-9.352330487903818934e+00,1.018818639338907595e+01,-9.291047175761713461e+00
-8.432438049637601907e+00,1.187548988672051564e+01,-5.579202459390247171e+00
-9.319887750688700123e+00,9.068684141636758511e+00,-5.350637928201503968e+00
-3.784971824239661498e+00,8.316430308681864503e+00,-9.556042343749447943e-01
-5.235093890095479097e+00,5.198330977088451377e+00,-3.655141952425852825e+00
-9.003962558590460574e+00,1.125107015049949766e+01,-5.728520467031396279e+00
-4.059461543667628902e+00,1.010528030386425691e+01,-6.663320894445385889e+00
-5.382352897484451226e+00,6.068166725025201380e+00,-5.579223917544697819e+00
1.163316077663770320e+00,4.569023832484313097e+00,-2.551104994685907457e+00
1.161060643859481489e+00,5.528159568412561953e+00,-5.931696636177874460e+00
-2.825463626949298312e+00,7.414840862232574104e+00,-8.109663062020072033e+00
-7.529843463429092054e+00,7.579307966554240217e+00,-5.598716397802281364e+00
-2.303865512156684225e+00,3.104441753873200760e+00,-4.889640377864761689e+00
-1.757429323829276191e+00,6.814055986885679594e+00,-2.097003687260643900e+00
-6.770475310517595879e+00,7.957671888019856254e+00,-8.993620138179096557e+00
7.695829002814985609e-02,5.165854303633327094e-01,-2.293213547172499922e+00
-1.219653090978483068e+00,7.614559560135308658e+00,-7.086457544752365223e+00
2.943655234995754100e+00,2.318881921157291526e+00,-4.155406002067837612e+00
3.030260358313552338e+00,3.834685896863370580e+00,-6.871769982872409699e+00
-1.243560846859770752e+00,2.501959581711747482e+00,-5.324701398612453396e+00
5.729334327014014017e-01,5.012445942777492558e-01,-1.613975128033198203e-01
1.595443193562860129e+00,2.869856590266228746e-01,-5.731486375618771056e+00
-3.143484550263221156e+00,6.556758537220057192e+00,-8.499586325776624207e+00
-7.651135300003636175e+00,1.202608421804270122e+01,-8.599764637059562844e+00
-3.795419298640708927e+00,3.396556252637991324e+00,-1.102505850401845233e+00
-2.137652301650938211e-02,2.606444900193667369e+00,-7.680456242546673806e+00
-9.989841780464390197e+00,8.831022114212801810e+00,-2.594779002858404571e+00
-4.709487339058711974e+00,7.308964968822208697e+00,-8.963378775889131456e-01
5.212455953665183668e-03,5.675264731542311480e+00,-3.253064624037050212e+00
-1.986938828801837649e-03,6.329755933396621792e+00,-5.190641171879081917e+00
3.586056190119322196e+00,2.287513045712252335e+00,-6.596237426984778551e+00
2.949062709248613245e+00,3.148121525040741275e+00,-2.509666138795338064e+00
-3.244867029139484771e+00,6.120938806633983376e+00,-4.990515851846135664e-01
-7.222950160184108626e+00,1.284610616089497803e+01,-7.649882447935491214e+00
-2.192466663347147016e+00,8.795443414495984769e+00,-7.691050082699823598e+00
-6.875786511978397186e+00,1.175534591761862302e+01,-4.889364581879240390e+00
-6.226953594284291960e+00,6.226784081028221784e+00,-4.763998253781816850e+00
2.574471998321482324e+00,2.214292907243499808e+00,-2.244209023068990394e+00
-7.578464434269370997e+00,1.238315626857835205e+01,-7.953927956611841488e+00
1.739519015798584256e+00,1.609030113841406262e+00,-8.140803234126198218e-01
-7.084620134509783895e+00,8.152455891173371327e+00,-9.029217127811822508e+00
-9.454818785593740671e+00,9.724321469278034868e+00,-7.104717256862000063e+00
9.892707246490800577e-01,4.057747975895285020e-01,-2.593438100543263403e+00
-7.095668650902435814e+00,8.176387244940141130e+00,-9.114359225293489075e+00
-4.324368946465123820e+00,5.360657625485086619e+00,-7.058337743965804378e+00
-4.027814527504111730e+00,4.389272045060677030e+00,-3.647899944229523683e+00
-2.383053128549150301e+00,8.133975753191094782e+00,-4.897519510477415849e+00
-1.352356205502642350e+00,6.533991347523156357e+00,-1.194246102757838157e+00
2.475393676083347039e+00,1.809223586890740920e+00,-6.975254012905343082e+00
-3.310186564877306115e+00,3.682150793369127317e+00,-3.110589723742058776e+00
1.682972644114323790e+00,2.425422596877161663e+00,-7.230382187929500937e+00
-6.920669110667749813e+00,1.148439602609468402e+01,-3.993627605399778346e+00
-1.646715752720608439e+00,2.653277347410330833e+00,-4.378462269408185392e+00
1.758065367916872512e+00,1.535185641169072079e+00,-2.092613008017781162e+00
-2.883072513462218378e+00,2.729876011312362127e+00,-1.138577508952069772e+00
-8.759305315116023394e+00,1.214784061811556093e+01,-4.420641449614651997e+00
-2.525078502907464273e+00,8.091631121217872646e+00,-4.654934713741795349e+00
-1.077864497793017406e+01,1.008023329424150383e+01,-2.825781336163473600e+00
-1.556599909361497058e+00,1.617823482348161201e+00,-1.290700944639045167e+00
5.736786529618995711e-01,2.820424257735255402e+00,-7.519859716572411479e+00
-7.103854565252445852e+00,1.218902572320735445e+01,-4.910875494970046162e+00
1.789943670278855148e+00,8.068974469199706734e-01,-4.893205689492449828e+00
-8.593161292230414361e+00,8.611235027487445848e+00,-5.413213650656601317e+00
-8.338484900781139686e+00,1.212146199827719784e+01,-5.873558192538252953e+00
-4.275565084640600588e+00,6.838114404955029535e+00,-7.279616072597969723e-01
1.904036623619899116e-01,3.760889128601764053e+00,2.704181469462776377e-01
-7.187224284006928698e+00,1.162819136996259495e+01,-2.627041805192988910e+00
-1.870245912313257541e+00,1.725094171574690582e+00,-8.157495557564518052e-01
-9.988020256408368658e-01,6.563416457700527396e+00,-7.711890888797488408e+00
-5.843008621547001624e+00,6.926873665944372149e+00,-7.454642832403940211e+00
-2.255742657826397046e+00,7.597148725186951168e+00,-3.153303506998096140e+00
2.186212555383356460e+00,2.987789406465198194e+00,4.335172566925996618e-01
2.837136757926762010e-01,6.308156632423362886e+00,-7.452672192751332858e+00
1.534940563816951098e+00,3.880510796824604203e+00,-6.616694469623402020e-01
2.090092187427872616e+00,4.728499067623591401e+00,-5.894970754155322012e+00
-7.945800519834804732e+00,1.236595469203568953e+01,-3.427712655049937940e+00
-9.665962229521586346e-01,7.277277110981206221e+00,-5.711389325737262546e+00
-7.982949806846488805e+00,1.254108161049691716e+01,-3.042036374581301938e+00
-2.259607419770149228e+00,6.457709088963380140e+00,-8.082945651822990740e+00
-3.146429435252926510e+00,9.131025101754961071e+00,-5.949338195390547313e+00
-4.971386645562382967e+00,8.165047746194581180e+00,-8.611694392456662683e+00
1.781630307760934950e-01,9.586234446687168231e-02,-5.574905184662091173e-01
-6.401048670202929891e+00,8.373367689944837267e+00,-9.121967974813912861e+00
-1.304159787419510552e+00,1.493286175225660539e+00,-1.988559278786035112e+00
-9.689887215205647664e+00,1.133274641928509929e+01,-2.906323588853945594e+00
-9.667391086703023717e+00,8.720921469132012049e+00,-2.975438230005360118e+00
-2.313790859075587569e+00,3.847350132456978766e+00,-7.596114296209430350e+00
-7.440774016346049180e+00,1.223770517502845934e+01,-4.548502014211964095e+00
-3.841923865513738434e+00,9.893962843645395466e+00,-6.083361735784446722e+00
7.543609374738045048e-01,1.346966935362629680e+00,2.064942024802061127e-01
2.089589091926721487e+00,2.514214133387021821e+00,-7.077119122468508827e+00
-3.581150061025859976e+00,5.223497774593757192e+00,-8.264695102533487159e+00
-2.045376438564255217e+00,3.574793882559908376e+00,-7.420353263271354471e+00
-9.714274670224668284e+00,1.003209773143112926e+01,-7.233764698263555282e+00
1.699204112593597493e+00,6.686965344382181931e-01,-4.946338380929189427e+00
-2.205133870821267994e+00,2.145483722412229177e+00,-7.569796846861681638e-01
-6.920006939920892997e+00,1.172220996416599270e+01,-3.977208521117559403e+00
-6.038430640557723272e+00,7.493460487910626355e+00,-1.194735534037929092e+00
-3.216798491282914174e+00,6.237308895890192773e+00,-8.269962711073484130e+00
-7.773993431685426891e+00,1.245142355417567259e+01,-4.578110221560289794e+00
3.506253543897938307e+00,3.898466605065848523e+00,-6.628014923388473534e+00
-2.662228737554581670e+00,8.710047717287508817e+00,-6.165816955691654222e+00
-8.018189085381006720e+00,8.210043706987310230e+00,-6.647363772825278794e+00
-1.640506217985889359e+00,6.760201213456232594e+00,-1.594086655798624852e+00
-3.262695594003279354e+00,8.054535646150515760e+00,-9.692137564515991288e-01
-5.773605892898697078e+00,5.567564403411877194e+00,-1.079813048942576348e+00
5.711689132391729595e-01,4.903539394072922164e+00,-1.351051492261001741e+00
-1.965311885039543682e+00,2.238272750459232796e+00,-2.611917610151732738e+00
1.022053249725351609e+00,2.655796757913148065e-01,-4.016187117528059680e+00
2.272669960651529042e+00,3.138870081839300497e+00,-7.041363116316738946e-01
-4.607903866579956542e+00,5.441260202871982976e+00,-6.198541048093722416e+00
3.449548868187665374e+00,2.430328543617456649e+00,-6.533793336341747526e+00
-6.837384005316027302e-02,5.515134842994457109e+00,-1.645523571405123731e+00
-4.252724640425890712e+00,5.181076052906725238e+00,-5.973986547107337230e+00
-2.230779918204206069e+00,3.741409963517052795e+00,-7.805316017865546740e+00
-5.491034940743478643e+00,1.121667349496836863e+01,-8.689322062361886978e+00
1.137401701049731706e+00,4.319767989833881217e+00,-1.209874263682480855e+00
-3.337100832290443186e+00,5.729488998544610467e+00,-6.771299552342684436e-01
-4.543822254452074993e+00,1.028218082680017531e+01,-8.487864651515506509e+00
-8.543412540227835805e+00,1.224259538358563937e+01,-4.002909213027957769e+00
-3.857344629881064524e+00,4.472672644163449007e+00,-8.871954073809251717e-01
-5.116449741021066033e-02,5.604506240927176641e+00,-2.620894335992996371e+00
8.467872287074921234e-01,3.016644420777611080e-01,-2.208189891324414678e+00
-5.626247760865027203e+00,1.172438955314641973e+01,-8.693053602351083597e+00
-6.457880167538767147e+00,1.080109503443438257e+01,-1.962999063053972870e+00
1.383707886468755976e+00,1.345381538355973960e+00,-1.277231120839479095e+00
-6.075157817081549894e+00,5.852844264537330865e+00,-3.376809590489114221e+00
2.062557617610760285e+00,2.609839142361674025e+00,8.047834409697954827e-01
-8.651902054484464699e+00,1.256594435109960806e+01,-2.568878144185932300e+00
-8.007400045863048987e+00,1.188013209295763950e+01,-8.687026374300032217e+00
-5.940468646351453330e-01,7.479553957009975385e+00,-7.438191426430749154e+00
-2.719713433511417477e+00,6.274233591963299439e+00,-4.920330348965352707e-01
-4.003023927269822480e+00,4.914954680707194434e+00,-5.884589640922190945e+00
4.478947501658490232e-02,6.580100420823081997e+00,-7.560882572788108824e+00
1.439866635882743884e-01,1.258405666029557057e+00,-5.708698902719291368e+00
-7.505891200476069614e+00,1.261990030204039037e+01,-7.540745349314515344e+00
-3.410830635447297698e+00,3.249680970101041844e+00,-1.440607163270513968e+00
-1.074382522392798966e+00,1.919263874628417188e+00,-4.368721062049944592e+00
-2.212885076886451419e+00,8.588844347437847304e+00,-6.491777916677325067e+00
-4.663371130666488007e+00,1.067770060229881679e+01,-7.476622786970278156e+00
5.169752988268395688e-01,4.572119611881376500e+00,-1.723552041295987047e-01
-9.636399093429666607e+00,1.077281389875271600e+01,-1.925590611185137968e+00
4.266819048149673721e-01,5.822801696771351843e+00,-4.450982865640613184e+00
-8.898410596829666730e+00,1.115690238663971456e+01,-7.234835025236611372e+00
-5.841876871867705212e+00,1.164445434820528824e+01,-7.922855530952207737e+00
-5.713556735265783892e+00,8.728467599407242261e+00,-1.025737164192144446e+00
-9.325922597712176909e+00,1.195819206977896698e+01,-2.363378266403339811e+00
-1.921697057050560264e+00,5.365955764447218890e+00,-7.940253214932710080e+00
2.601354227754173021e+00,3.715651925183030890e+00,-3.099297648295103347e+00
-7.038885943026200742e+00,9.285980942707054098e+00,-1.454675019824385185e+00
-4.105886578952525845e+00,8.847169818279441600e+00,-1.981185711044335385e+00
-2.248120853360994431e+00,6.214490014018028141e+00,-8.139943176709110162e+00
-6.156023376545152637e+00,7.296568007968250669e+00,-8.578798996927677223e+00
-2.569237328375468810e+00,3.894787230465131866e+00,-7.132964873474295864e+00
7.325481629242441839e-01,4.871167129873816393e+00,-7.227220200875851042e+00
-7.129508151264902338e+00,6.663670734793033290e+00,-2.983969624856103842e+00
-4.839541858775906924e+00,1.030047085636813975e+01,-8.571228673774191620e+00
-1.384643647523866594e+00,2.848735249327079444e+00,-6.315598253562245468e+00
-5.347372804967065463e+00,1.147971970805652120e+01,-8.711396741483174111e+00
-1.583403445133838794e+00,5.994692145224512103e+00,-7.857648079517705497e+00
-4.197739007521210652e+00,8.627327380395966472e+00,-1.326942067723980045e+00
-4.375540190884948721e+00,1.016479185787823880e+01,-8.530674338854430161e+00
-3.639829944926489702e+00,3.022786183897143264e+00,-8.371805016485333040e-01
1.923338757408555422e+00,9.978890661412361807e-01,-7.277529675640168172e+00
-4.603867826679438835e+00,4.155396255512382453e+00,-1.622155970836538508e+00
-1.325903914812128548e+00,6.780442999372989554e+00,-3.288250002178082720e+00
-1.925240418999587311e+00,8.199951749555161484e+00,-6.930860949935718551e+00
-5.829812551610704219e+00,1.115362464224956085e+01,-5.066170644975305670e+00
-3.940508199992994731e-01,6.984319507907169822e+00,-6.959864159099648617e+00
-9.064981536957768427e+00,9.010981132911920710e+00,-6.264311651263806624e+00
-2.953293003378515191e+00,8.995780633269822246e+00,-6.383010413208229927e+00
2.036043031014845628e+00,7.101725805078284992e-01,-5.438586587349948154e+00
-9.209875736637519239e+00,1.101843793486671785e+01,-6.057256925935061709e+00
-4.689063575091699576e+00,7.168138787648951293e+00,-1.195668572838774368e+00
-2.691298812744613578e-01,6.164082250557210152e+00,-3.927043801388457211e+00
-3.091353120531677767e+00,3.599756214393220688e+00,-4.155793559883431243e+00
-1.190770807066535486e+00,4.157526036141751646e+00,-1.829035817276160047e-01
-9.312769070028547702e+00,9.831853451926754417e+00,-8.326044746933506602e+00
-7.727410730791371307e+00,8.006023215046386809e+00,-6.405630471815123350e+00
-3.929730132046133750e+00,4.608298938315734894e+00,-5.153477963645429760e+00
-2.668611717754659551e+00,9.183694829005164095e+00,-7.865367550299941612e+00
-6.365047632177841308e+00,1.122654277633922781e+01,-4.536901785623423500e+00
-8.062473785879575416e+00,1.033834767474549032e+01,-1.734742565278076576e+00
-2.738335568093040795e+00,8.772199952507959253e+00,-5.986672804980337936e+00
-3.521548814227510871e+00,4.523717967025636888e+00,-6.579594284042455499e+00
-8.687930521055552191e+00,8.967169194147253108e+00,-6.519253553188956829e+00
-1.018775644444338269e-01,6.790997157351278624e+00,-7.323673811434387559e+00
-7.176987230473009127e+00,8.665743862189740909e+00,-1.608709681252317170e+00
-1.293406702384220175e+00,6.544526016158044079e+00,-2.090287049082045545e+00
-2.842167138828583184e+00,7.497119452054139543e+00,-8.339914565240738042e-01
-8.071527795946799699e+00,1.075221128121615699e+01,-1.736483416304385852e+00
-3.455486473346731202e+00,9.869919243104842366e+00,-7.706709354273429291e+00
9.227549456748438406e-01,1.248868703415684900e+00,3.392143826934472250e-01
-7.008872611038664324e+00,1.146343191700494302e+01,-3.416991534153603904e+00
-7.547930628077157422e-01,1.085421478209924295e+00,-1.686916341470222624e+00
-5.751572162085143880e+00,8.492534469247710049e+00,-1.083651250917315290e+00
-3.726788736483466202e+00,4.285572229977851144e+00,-4.932472866065872097e+00
1.743844663974682518e+00,4.476569757765725299e+00,-4.123446342015852473e+00
-7.688818915463748738e+00,1.168539138215986206e+01,-1.572445187023437940e+00
-3.250018381902868292e+00,6.260924214163766877e+00,-8.344263499637314396e+00
-7.447315237974893698e+00,1.179377016381934773e+01,-2.273158557911711508e+00
-3.316496824802063426e+00,5.235372162717226274e+00,-8.410870317388379647e+00
-2.966338691293395780e+00,8.478730250648414568e+00,-3.634816046419295343e+00
-1.003408366315196920e+00,7.217718877493851437e+00,-5.315481761533927596e+00
-6.735074488817145877e+00,7.075134424470018502e+00,-5.802997347798037886e+00
-7.914094964828126244e+00,1.127631227851505358e+01,-9.379138889276131152e+00
-1.034196613837698386e+01,1.015879603271312170e+01,-4.685931409767662537e+00
-3.776348210430927832e+00,9.780574048511979868e+00,-6.762842942182378358e+00
1.408098335538915669e-01,3.758405074122863065e-01,-2.649809593142239184e+00
1.479132977514037994e-01,5.971200609248109359e+00,-4.112071335571486408e+00
-3.715940341264828195e+00,4.886129358100330222e+00,-7.338662604156817260e+00
-5.194505687758898205e+00,8.370102198512167746e+00,-8.840261636043658555e+00
1.998840158204099327e+00,1.676566825460501287e+00,-2.123077832842959811e+00
-1.178434120366056215e+00,1.826562906239549422e+00,-3.127920364627236882e+00
-7.647726550795008293e+00,1.024994998612742414e+01,-9.455666402196527542e+00
-1.462620170275986675e+00,7.827316461801772540e+00,-6.917370855276127273e+00
7.385717404327105662e-01,4.606049267194298302e+00,-5.420778120060307792e-01
4.660006097563629268e-02,1.725534876970328035e+00,-7.271947973491818651e+00
-2.366973297897519313e+00,3.292004281609731908e+00,-5.220904008698995513e-01
3.124027300060451484e+00,2.075122051525633893e+00,-5.611535878397731381e+00
-4.021615292756509419e+00,9.526733864817945374e+00,-4.954798181349830521e+00
3.264918969431340745e+00,3.067639914837884785e+00,-3.154020333392797859e+00
-7.759769728778845632e+00,7.574078487687075700e+00,-4.730781061185881597e+00
-5.713875909598642444e+00,9.109434718879812820e+00,-8.714207676297169414e+00
3.138468519969986215e+00,2.689621378271732421e+00,-3.803816671014823569e+00
1.207677164302105144e+00,4.129402138816952728e-01,-4.967950023063402831e+00
-6.277529625631811605e+00,7.759717193005978508e+00,-9.026387800850988796e+00
-9.577370516692402802e-01,3.616452367526702183e+00,7.083643749069418183e-02
-9.723989663220034885e+00,1.011649960285380168e+01,-7.119833525268658647e+00
-6.005371112917182508e+00,6.037271118263406677e+00,-3.842525414843313669e+00
-2.048969928821480213e+00,8.029044426793568334e+00,-5.200935093287900379e+00
-5.938095889056490329e+00,9.257543934839645772e+00,-1.126048382628056066e+00
-1.010493569524356339e+01,9.805967745777083522e+00,-2.259945760203893261e+00
1.026417148921190403e+00,5.309072356512589685e-01,-5.776986655748158839e+00
-1.429244979558914608e-01,9.186014436687625073e-01,-3.114785467769998650e+00
1.381060271562224218e+00,1.131195387660156149e+00,-7.287271186183817306e+00
1.230587445314065498e+00,4.148264448003651239e+00,-9.017544223416263938e-01
-3.549674253847693084e+00,8.666173582479379078e+00,-8.232202529575213035e+00
-7.045080209808152638e+00,1.254562693124644390e+01,-6.930129567993074780e+00
-6.475673311748258998e-01,7.051798291329967050e+00,-5.904494634647960538e+00
5.043848156366064206e-01,3.943564332287580854e+00,-7.411950926031550146e+00
2.688788030630356207e+00,2.995813903415966983e+00,-1.368481299152264130e+00
-1.258130160861267832e+00,7.646740070111622600e+00,-5.974706600514323007e+00
-5.091276385674279314e-01,5.815221843115910616e+00,-1.944902983361520343e+00
-8.901713863608506472e+00,1.106773002568568387e+01,-1.739332384657990671e+00
-1.546221548067977292e+00,4.791330474265982353e+00,-7.912806622501872944e+00
-9.042105350885748294e+00,1.219876772196446524e+01,-1.851974112495422764e+00
-5.617222560790763985e+00,5.949229887135576433e+00,-5.241984709937224984e+00
-7.241785727452433541e+00,6.398065366586229707e+00,-1.853142938311238330e+00
-6.605916507732382259e-01,1.234239689185816058e+00,1.483071622653133435e-02
-3.535283149673579040e+00,9.692065729158750642e+00,-8.286703238658780890e+00
2.032340135557012317e+00,3.432970296291672163e+00,-1.474404225046537453e+00
3.366974059331889202e-01,6.095382217112977230e+00,-5.853419001075939043e+00
-3.605471875276418103e+00,6.259508786178735740e+00,-8.502181920552246419e-01
-1.547466104094848749e+00,1.406729767682621590e+00,-8.142673604743433380e-01
5.438137399185136722e-01,6.049706060755561943e+00,-6.147146846348398697e+00
-5.409469625166692275e+00,6.620829727845232604e+00,-8.537189483218419639e+00
-9.135640809309643728e+00,8.940824116425204693e+00,-5.148748816830111430e+00
-3.960926346650402774e+00,4.539687117145366990e+00,-5.009238243549284597e+00
-5.085838830327408466e+00,1.018192027174040426e+01,-8.641798461957485245e+00
2.120275657409873352e-02,6.470400775287378892e+00,-5.629616394966405757e+00
-9.672424656076476168e+00,1.112154265249267304e+01,-1.977104991558738645e+00
-3.379231661380387219e+00,9.464533083267244962e+00,-8.282461156969290528e+00
-2.742749725188594834e+00,7.961859780307129597e+00,-3.211832418138776291e+00
-2.900826287283235327e+00,3.498741982687205265e+00,-4.211235153556337707e+00
-1.040477779353929755e+01,9.544764895705071694e+00,-2.351691194569065058e+00
-1.163600416050846631e+00,2.734852000574361952e+00,-7.382303295735423099e+00
-8.421739072264852410e+00,1.118779742841243241e+01,-8.185819898946542494e+00
-4.875419508574668548e+00,4.753644244383198547e+00,-2.895703304800649303e+00
-3.372715413477030744e+00,5.380714015978510290e+00,-8.485027490576587894e+00
-4.801933905833979388e+00,1.040734027361371972e+01,-8.574301343438374801e+00
-8.023310781418949489e+00,9.638693928073085004e+00,-9.603014835426041174e+00
-8.022820913727841230e+00,7.375018018759983640e+00,-1.826893004094654493e+00
6.298132180214822962e-02,5.262372324364092080e+00,-1.180362606088333655e+00
-7.894322295289137870e-01,7.133005851967033628e+00,-5.913304321975005884e+00
3.083796631873950478e+00,3.423440683900184744e+00,-3.155033663270497613e+00
-5.775355257715099278e+00,5.298485707170801362e+00,-2.050833490385479685e+00
-1.486046307404816691e+00,4.246767595013459129e+00,-2.801523996930431748e-01
-1.011896281664833097e+01,9.879025452067502044e+00,-5.125803774230726972e+00
-8.477202199136996130e-01,1.369341012331386054e+00,-2.913928599900117877e+00
2.270556770182690087e+00,3.252465163107782331e+00,-6.139183627292511547e-01
-2.222591366790864775e+00,5.916897773221502455e+00,-8.103588587827729839e+00
-1.191587878917923948e+00,7.685106033126021252e+00,-7.836115690193485861e+00
7.822450387603963051e-02,6.767568441163516191e+00,-6.922981737187109630e+00
-7.470428517596180207e+00,7.395549578735681528e+00,-4.656921809643177035e+00
-7.953903979852785966e+00,1.174467046989047070e+01,-9.171502600981364495e+00
8.510842743731258375e-01,3.126885744853296067e+00,3.346817855702495237e-01
3.536783391760615625e-01,6.287864322641403270e+00,-5.798566227843361176e+00
2.797717259598541117e-01,8.591960563544035479e-01,-4.327080079402408685e+00
-2.882046009633372652e+00,4.789048538935408494e+00,-8.170806157960855742e+00
1.591920909286566266e+00,3.037410093688905466e+00,-7.180371920894315529e+00
3.307803807462733392e+00,2.165817405833820430e+00,-5.473528724884396013e+00
-9.213601099973871555e+00,8.268987921747783076e+00,-2.698794799918447396e+00
-2.161719897003658297e-01,1.046711798065080856e-01,-1.203571328191522655e-01
-4.404496019366450632e+00,5.112520431099446760e+00,-5.484680328190593812e+00
-7.322116603452747619e+00,7.786139695626271617e+00,-6.581232580037310598e+00
1.741046594321443264e+00,5.047116193694387576e+00,-5.724737672090467022e+00
-8.116893578936471343e+00,8.220392707053109760e+00,-6.611429977744792907e+00
2.216898506528850898e+00,2.633009962679585314e+00,6.789555939290718989e-01
1.770397394953318937e+00,3.610163554205897185e+00,-7.667290855001704930e-01
-1.105653125071767828e+00,5.801614206199189105e+00,-2.157451365939999643e-01
-1.014120973881943000e+00,7.745533765433013862e+00,-7.702670922311583901e+00
1.501198097993704073e+00,4.327031729791529280e+00,-2.916754421315935542e+00
1.676426811474412970e+00,1.339812604166069843e+00,-3.403468242678171940e+00
2.963951521326515515e+00,3.510653286708449894e+00,-3.245502603347389936e+00
-9.449726857497371402e-01,5.744056682079706988e+00,-9.251193556408827956e-02
-6.967521140464830731e-01,1.896712023300356931e+00,-5.059701372016292886e+00
-1.622781767591637558e-01,5.856219076026810910e+00,-3.337668346433005695e+00
-4.916127337525528773e+00,1.016722398253532056e+01,-3.366213682868416601e+00
2.374781351544710706e+00,2.935440088742728992e+00,1.662627933276191461e-01
-2.766621112320621911e+00,7.927265804219690182e+00,-2.408507737108307900e+00
-8.724690216082588989e+00,9.343479039924563523e+00,-7.752099182734792926e+00
-6.363528045056337845e+00,7.295514880538378932e+00,-1.415943631865550945e+00
2.631543984861687058e+00,2.225378823473022294e+00,-2.464863049455969790e+00
-1.853127410046959245e+00,2.502255196384988611e+00,-3.996027967739400610e-01
-3.773308147903676080e+00,5.288459162093317012e+00,-8.319505747598933354e+00
-6.464188720872840577e+00,1.159047915775320980e+01,-4.875691089849128801e+00
2.192126513217096118e-01,1.476744318277244838e+00,-7.335388194648008842e+00
-6.068744618590263151e+00,8.452660685816452357e+00,-8.873675297559310948e+00
1.141682992476203085e+00,5.717044576819160895e+00,-6.856099037735385870e+00
-5.700673439049788183e-01,6.986881137493638150e+00,-6.223836159856691808e+00
1.910169595234264328e+00,6.781684310051564468e-01,-5.567177128309960921e+00
-9.979452407349377552e+00,1.062571155542352308e+01,-4.077832266093593283e+00
-8.433366673404959712e+00,8.183525254005060035e+00,-5.404325391679957846e+00
-4.879545645725505310e+00,7.542580675447089433e+00,-8.846037658622602606e+00
-1.508843620626079352e+00,7.231201615646007497e+00,-4.540462140721839290e+00
8.095200090496881273e-01,1.861954923790338501e-01,-3.228222335969556323e+00
-9.934464750018470625e+00,9.608194501809062871e+00,-5.413459459965388021e+00
1.226390380517222045e+00,4.058411426060718696e+00,3.936023872992894801e-01
-4.949031138725684897e+00,1.091326525359236399e+01,-8.675040117571024112e+00
-5.465719978697998194e+00,1.124712313837953204e+01,-6.864235263038331425e+00
5.646396619691627095e-01,6.182028175745601040e+00,-6.173404955661023763e+00
-4.759795893499512154e+00,5.680867089713893314e+00,-7.314863874746053263e+00
-6.268008937335578956e+00,1.068242748451950774e+01,-2.268766582521386521e+00
-8.644063029476949822e+00,8.305081501784751907e+00,-1.962177824501043499e+00
-4.835269739037186265e-01,7.064318453237451223e+00,-6.131804127455193765e+00
-5.495115806011380499e+00,7.094884686503610816e+00,-8.901629294330726694e+00
-3.775102564255707005e+00,7.083067845429126486e+00,-8.498271597931058352e+00
-5.225137102424127350e-02,3.174980789266661052e+00,-1.937301885894617340e-02
