1.575005585697080601e+00,-2.954396624497679369e+00,-2.445188975659734254e+00
2.231978766299262062e+00,-2.379094973199736618e+00,-6.719479986332057564e+00
2.108680569222177503e+00,-6.548627586511214238e-01,-8.767068205756821442e+00
2.942942867256158834e+00,-4.325342660557648600e+00,-3.880713685994158446e+00
2.808485327007152144e+00,-1.580578386710197236e+00,-2.061615418714553893e+00
-2.676004803803482268e+00,3.170705667281973117e+00,-1.252708526387800347e+01
9.089154300737538605e-01,2.017624838425742695e+00,-1.089955056742594230e+01
4.192688991739064730e-01,1.853797552745050314e+00,-2.313353069775248905e+00
2.345799239507370959e-01,-2.139855068238525337e+00,-2.276687357461424366e+00
1.340739344693687163e-01,3.996770227009822651e+00,-1.277705047039023434e+01
1.986135267968560658e+00,1.182553637399695212e+00,-5.310242917357173908e+00
-2.843960313898362124e-01,1.124809259589442112e+00,-1.203401245740935011e+01
3.545314833527854148e+00,-3.542523682677486629e+00,-3.632520245187563557e+00
8.621291398747991108e-01,-1.558889226333432410e+00,-1.338298916755366497e+00
3.571212432751696308e+00,-2.544697666575276962e+00,-3.435940426558244276e+00
-9.767359615972436293e-01,5.588624912354542396e+00,-1.163301462913379147e+01
-8.395758841158765806e-01,4.778347568538340973e+00,-6.663943444510206149e+00
-8.694173135075708991e-01,3.165726601194377210e+00,-4.389861490954025669e+00
-2.957906638641334424e-03,3.841513773682561972e+00,-1.317670078933888611e+01
-6.457496552013428648e-01,4.810559558579045714e+00,-6.642646523599646358e+00
-4.972406381504647088e-01,3.419703103944152556e+00,-1.310096527765441365e+01
-2.568057013554032597e+00,4.092859703298404206e+00,-1.207888925478562747e+01
7.454220247076820405e-02,5.772702848263196351e+00,-7.659574850874910190e+00
3.501815678001259702e+00,-2.305105853960057516e+00,-3.486700132594623192e+00
-2.836026186091371581e+00,4.733549793310214859e+00,-9.491062554878237023e+00
-3.451778638117339870e-01,7.158506718069709507e+00,-9.873920111516937936e+00
2.016330716960929692e+00,-2.634425065452272285e+00,-2.443044705476771217e+00
2.192981663281639015e+00,-7.189161230147365078e-01,-1.216181292015118487e+00
-6.211532403215391795e-01,2.941505838431302866e+00,-4.195660630361812693e+00
1.041649111637386493e+00,4.187175455187884587e+00,-6.959831114707982991e+00
-1.329303153860380116e+00,-4.638288241641813636e-01,-1.041783170411981985e+01
-8.159932709662247596e-01,1.867458078310270553e+00,-2.699034630072639995e+00
2.989137172771821338e-01,2.782565795362103023e-01,-1.105260098711022998e+01
-1.824649852647438397e+00,4.528873144290968433e+00,-1.187896046418204143e+01
1.391375630314297396e-01,6.038946934133764266e+00,-9.436734039621594405e+00
2.037534132701849243e-01,-1.739181141317275525e+00,-1.774655894016649915e+00
-1.979315789688294025e+00,2.186036954939021726e+00,-8.389670744853789941e+00
3.434750778258854442e+00,-4.126377470840916217e+00,-4.152643267642877944e+00
-1.769843012693790074e+00,1.615532012023414232e+00,-1.313760666560177093e+01
-1.886341996751261518e-01,4.020820976911466893e+00,-5.507634357304185713e+00
2.742885539569691833e+00,7.744024193213805418e-01,-2.568735978925392960e+00
-1.801575283480378431e+00,5.522983479636736526e+00,-1.131893304703092795e+01
3.014107994306078009e+00,-1.549012365708932082e+00,-4.943093754155541752e+00
2.971323960194588665e+00,2.455490205038866058e-01,-1.744970505198277788e+00
-1.397251238468805168e+00,5.534172267642250009e-01,-6.794918413718416872e+00
1.862163318175898752e+00,-2.914182209572949933e+00,-6.159534607202768797e+00
2.053864374171264107e+00,-2.142378980526089549e+00,-7.316297795126686765e+00
8.259502348415534989e-01,4.162717519670157351e+00,-8.375055902592990265e+00
1.515187849568433442e+00,-4.186856710781471591e+00,-3.471079921198478413e+00
-3.296373100400153078e+00,6.405438725068744787e+00,-1.003258767433771581e+01
-1.981500393853924846e+00,6.609763471543345759e+00,-1.053853857710171660e+01
2.095678909461193840e+00,-2.660646727392628197e+00,-2.497721341245142224e+00
-2.230989537685695190e+00,1.846129047041174864e+00,-1.065402688005069010e+01
1.238050740494253565e+00,5.167098212603730145e-01,-5.736175285556862624e-01
2.453485208120037786e+00,-2.058993961582701981e+00,-2.263156445318940335e+00
-7.876078952319519599e-01,6.085202497719501835e+00,-1.127549376281754334e+01
-2.089219911311994693e+00,2.232714033220671190e+00,-1.358258030318485510e+01
7.272001908861897013e-01,4.182177291622402926e+00,-8.268622395668105085e+00
-2.224083742428787591e+00,3.364216739295733394e+00,-7.163119576252914733e+00
1.403071141421662116e+00,-1.691890892029634275e+00,-1.640016145787579038e+00
1.528128544746989448e-01,2.230337778816665395e+00,-2.746092029600365247e+00
2.134608012132023447e+00,4.291378232849922814e-01,-5.447397460100157351e-01
-5.452733653334721486e-01,6.064438722310967478e+00,-8.346578674967242151e+00
-5.738544421769423698e-01,5.383559532198235464e-01,-2.483966361876696727e+00
-8.173412158922770399e-01,1.877377306939735924e+00,-1.336629033346285134e+01
-3.857159866682447619e-02,6.489082063795641453e+00,-8.866548078978805592e+00
-2.311661023068912080e+00,4.310734787416179437e+00,-1.193183071403729834e+01
6.052577656699198233e-04,-6.399059828766225921e-01,-1.349729251850079859e+00
3.909843723312296238e-01,5.162659715687125228e+00,-9.131118305868335838e+00
-2.300182616128076951e+00,3.786791469826307210e+00,-7.241300495792997616e+00
1.210209604601614863e+00,2.381240124798345015e+00,-9.027280913813271468e+00
-2.326753909681557264e+00,2.115812738897977940e+00,-1.049870202165563349e+01
1.552508216060316082e+00,-5.216285167945480250e-01,-7.654994237296485204e-01
2.220220243551929151e+00,-2.359222921864543743e+00,-2.368869758602662579e+00
2.436055023163300692e+00,-1.127145067381416954e+00,-1.679264820981130946e+00
7.429614190224442805e-01,2.447645103521176591e+00,-1.203009883666680935e+01
-1.667080134721000972e-01,4.946692330252586700e+00,-1.219090446860659327e+01
-4.828245471384381426e-01,4.281832368976050129e-01,-1.133544531299164504e+01
-1.053559518584262111e+00,7.022177733078634354e+00,-9.791998798243435331e+00
1.714738610135049468e+00,-4.664074682997128463e+00,-3.773429121767220007e+00
-2.749685071210474341e+00,2.837047073393769825e+00,-1.254855663450141812e+01
-1.331092252847382529e+00,5.516898342645607300e+00,-1.143579669796222831e+01
6.352243969644641441e-02,-1.256067945837900268e+00,-8.782688213967507096e+00
3.225578965654914754e+00,-1.617436197449390267e+00,-3.121680457769619554e+00
-1.314276019688670250e+00,4.785182427764683055e+00,-6.952339333141824618e+00
1.380721145795303473e+00,-2.474497517394138590e+00,-2.203073831501491053e+00
2.844390451843803458e+00,1.575363023653952310e-01,-7.742027815833593118e-01
-1.379218127847502862e+00,1.542652888876760553e+00,-5.921983687230129689e+00
2.217990793502500058e+00,-4.581080486755648273e+00,-3.830974228083129152e+00
2.914316542208476690e+00,-3.745421244237170932e-01,-1.285379712036385680e+00
2.045565516206228729e+00,-2.275576363445993788e+00,-2.226176962049372765e+00
-3.814702755757701791e-01,2.549120423427448934e+00,-1.392982273056864351e+01
1.125183839929522200e+00,-3.779295986692030596e+00,-2.937641372931973027e+00
2.103697119862150799e+00,-4.511664066752718583e+00,-3.967301192970714929e+00
1.564174860535740397e+00,-1.217005550618157766e-01,-1.006954953594309110e+01
1.644306785850931041e+00,1.962682660027298132e-01,-5.296835372619153048e-01
2.139483947734321934e+00,2.120005271244164380e+00,-2.330242889955759900e+00
2.853857780801770883e+00,-9.766826927051063256e-01,-4.812385817807752098e+00
1.149740566885461890e+00,6.410249937948954146e-01,-5.246013742103283750e-01
-1.335272598999019955e+00,3.628506730766318356e+00,-5.246536424069515370e+00
-2.074864159353347226e+00,1.831025112524302889e+00,-1.050223752433431201e+01
-5.778684399569721242e-01,2.366563910613432853e+00,-1.389165958971505965e+01
2.565684335904495850e+00,-9.513362533691659406e-01,-6.582501258515453202e+00
2.802837238923752139e-01,-1.483766510498234492e+00,-1.178613388828545272e+00
2.766347049613277154e+00,2.866767320739673219e-01,-3.898169086372903269e+00
2.333839243699676602e-01,-2.720309802104028396e+00,-3.732217757714327178e+00
-3.590630749332183735e-01,4.093853486981315015e+00,-1.275543688153872601e+01
-1.262030995065982264e+00,6.333379740799628621e+00,-1.102764316265171729e+01
-2.683179894481231287e+00,2.789806624612008346e+00,-1.234610417568946161e+01
1.721799371473266449e+00,-2.802857082154186497e+00,-6.481064321590289445e+00
-2.420757633443417767e+00,5.477921715176921502e+00,-7.982080484894566119e+00
-1.461381287910567650e+00,2.322741703458159612e-01,-1.140816385976458491e+01
1.349375443676318787e+00,1.012017691961671767e-01,-1.049967345048156098e+01
1.107384816174476816e+00,2.582149792150599144e+00,-9.659644633873178066e+00
-2.527034622472072112e+00,4.834907938875891098e+00,-1.160272741495572291e+01
-2.183467876777534233e-01,3.632063135983999214e+00,-1.321982538862842205e+01
-2.922435875023155383e+00,3.858970764233621953e+00,-1.148533460008622242e+01
-7.136907438483520716e-01,1.156440019015702259e+00,-1.251945720194228429e+01
-5.882199894299564580e-01,3.680594266600427655e+00,-5.048200951867126918e+00
-1.026106735177326534e+00,4.543507848683799644e+00,-1.228343365694795786e+01
-8.349106062868235645e-01,4.942026494713530838e+00,-1.209940314542329176e+01
-1.126581433148358569e+00,5.342792739268563906e+00,-1.173381837686157780e+01
1.928381050792845386e+00,-1.297712758679087086e-01,-8.661371109559160564e-01
1.406798916598971660e-01,-2.482945416798670202e+00,-7.374819742603005324e+00
3.517379961264865074e+00,-2.409090220485403222e+00,-3.738387332196198454e+00
7.244543383356053523e-01,2.904149577437617591e+00,-1.154942784003291933e+01
-3.076940883366690027e-01,2.693548379221322175e+00,-1.379372520482930575e+01
-2.295284402491537978e+00,6.293211375719359957e+00,-1.041945944063900420e+01
-5.428790763850950274e-01,5.096850933289573504e+00,-1.211627437487177339e+01
1.089070344566401838e+00,1.340704929691722613e+00,-1.121181495656904303e+01
-2.098679411138820949e+00,6.408274347338835497e+00,-9.409663834950853456e+00
-5.347350101644616771e-01,1.675218495422515330e+00,-1.304059619049985663e+01
-2.434332245101354264e+00,5.106235958919540963e+00,-1.138339719477102996e+01
4.014664488465303216e-01,-2.915942586735231323e+00,-6.521212605343952085e+00
1.550569907283004589e+00,2.758031699017791549e+00,-3.242446321044005320e+00
-4.200878681837003636e-01,7.463959732564784844e+00,-1.030439920890002448e+01
-2.114355664484939723e+00,2.907863693461676835e+00,-8.197239303152587198e+00
2.235214889650123382e+00,-1.070118406385922816e+00,-8.685670509500203806e+00
2.070061774292275281e-01,-2.292564175954994177e+00,-3.084907865302634278e+00
-2.273853107198627654e+00,6.911835508799566874e+00,-1.006928150236836395e+01
6.278406081016125739e-01,2.966127862884536115e-01,-1.083951281765715891e+01
4.566984728034520491e-01,-3.305662944309728957e+00,-5.991973009249042192e+00
-2.510709706755667181e+00,6.118077921061422231e+00,-1.069860775090074512e+01
-1.290002024595525709e+00,1.384055001239127947e+00,-1.298514604925365390e+01
-2.770344906565677334e+00,2.981531139217202142e+00,-1.265032207861084146e+01
2.715452604378548518e+00,-8.222787880162693019e-01,-5.677818411828680745e+00
-1.452455218203687837e+00,4.207664177214828882e+00,-1.224553474333140102e+01
-2.602800458447233289e+00,3.250156848138681109e+00,-1.254914441604810271e+01
2.106026576805219097e+00,1.542674320502263330e-01,-7.453399735958774031e+00
1.518316238481476899e-01,-7.004046438601417846e-01,-5.668055961857292324e-01
4.761667036731950242e-01,3.522820117460954581e+00,-1.100851719845939591e+01
1.780583518792037412e-01,-7.806025130473384088e-01,-9.377788634465204609e+00
3.466456730465089509e-01,2.161814337301247058e+00,-1.364949794594104659e+01
2.883603203494607303e+00,-3.076551137909382394e+00,-3.020197629006426077e+00
-1.619564529952206344e+00,1.328988392213585890e+00,-8.316422017183562332e+00
1.673563202648433057e+00,-3.454510576428873048e+00,-2.943219235550315727e+00
-3.253558748682405244e-01,-7.706959960840711332e-01,-9.554916724357815028e+00
-5.173952568969973631e-02,2.044594700211233018e-01,-1.109703172300195106e+01
-1.597614516166142806e+00,1.300839990748265951e-01,-9.466513467045178487e+00
1.265758986884537862e-01,-3.411116965995018901e+00,-5.710346470865396817e+00
3.303591716734791905e+00,-3.985371628519238207e+00,-3.824388329478484394e+00
-6.628628716952196243e-01,-4.819988303325333789e-01,-5.260056099473078284e+00
8.838256378984620243e-01,1.729026711940798045e+00,-1.191352594466478010e+01
-1.599990370756141367e+00,1.122247998720123485e+00,-7.948988498533489100e+00
9.104045595555049220e-01,2.780994529516417568e+00,-9.773191010584604044e+00
-8.692373089596953095e-01,-1.623016327887520649e-01,-1.066400760921675150e+01
-1.239620712568308969e+00,6.645430535201563238e+00,-9.341102390216072138e+00
3.919960422333537697e-01,2.040492931666638476e+00,-1.340581628737506392e+01
1.665848908522413963e+00,-3.350078672632817334e+00,-2.800210172754560300e+00
-8.221309647974590629e-01,4.527742217508508915e+00,-1.235650703127651262e+01
2.544832031862340749e+00,1.455870058490195351e+00,-2.198137027379126085e+00
2.897906914812611756e+00,-2.155772513266252244e-01,-2.787386937521282082e+00
-2.776069128453724666e+00,3.692797305577890654e+00,-1.130413309576790759e+01
-4.670515407362618165e-01,7.013202482605444210e+00,-1.082504777411886998e+01
1.594490529030918147e+00,4.414921809123401042e-01,-9.976368808659994869e+00
2.334671541258913408e+00,-2.541449859114255805e+00,-2.725559137423843481e+00
2.124093230364429541e+00,1.321726603206416495e-01,-5.936040156009884106e-01
-1.907807366099928403e-01,-5.458961230378502894e-01,-9.861909772701936916e+00
-1.869438285019766610e+00,6.019702456934141743e+00,-8.822177825507811377e+00
-1.930167125068218137e-01,-1.672404150239735099e+00,-8.408847032570694324e+00
-1.933029192593124224e+00,1.873993558948662042e+00,-8.402684055114384876e+00
-4.638378170824120628e-01,1.552478904885646882e+00,-1.292746643225238223e+01
4.494817927066299679e-02,-1.740697947449900473e+00,-8.252234926859218334e+00
5.561897758380252021e-01,2.346333380989328532e+00,-1.344452668502598947e+01
-3.026426326617677187e-01,-2.222548501395483989e+00,-6.280155287911403761e+00
-4.443936283341910071e-02,5.449822850756826043e+00,-1.179804657174433302e+01
4.964067491163267065e-01,-1.062942883775252811e+00,-9.088793648809774695e+00
1.949946758550502812e+00,-2.484676306473705854e+00,-2.327644382715245541e+00
-2.283768614427344801e+00,4.749113861484245191e+00,-1.179425151505133584e+01
8.738593004400612152e-01,2.302020056270455139e+00,-1.114626259580802881e+01
-2.624541094332917268e-01,-2.672629730821714400e+00,-5.875533732622923111e+00
3.077486199483660645e+00,-2.254743959399244879e+00,-2.612999471026587361e+00
8.194048492636890613e-01,2.923534362979415935e+00,-9.792436937761905824e+00
-2.061490634557020307e+00,3.715136551836082379e+00,-1.246387067904747070e+01
-7.728848483413974790e-01,6.214968581359372024e+00,-1.126254701628879218e+01
6.144108232217764254e-01,4.901382339518570497e+00,-8.741222467340467261e+00
-3.313804339267669707e+00,5.769582756113827315e+00,-1.026915927719784172e+01
8.743488225612908726e-01,2.304228613172060403e+00,-1.162538424673787674e+01
2.974619792937732488e+00,-3.477617331079891905e+00,-5.130641072611848763e+00
2.533533245478670204e-01,8.184285424758868110e-01,-1.190378838467178291e+00
-3.057516081369758165e+00,6.550395597480465071e+00,-1.009914442058191497e+01
-1.122840515660816330e+00,5.674211157641692260e+00,-7.875082478528630858e+00
-2.154712254496885304e+00,2.989109236566087624e+00,-1.292116278835133691e+01
5.620004007326093176e-02,-2.641940267028266121e+00,-4.703837261847574780e+00
4.778537572512904785e-01,2.703391102410896529e+00,-1.316154953123150406e+01
-9.728873778152078433e-01,-3.194179336662199553e-01,-6.881259736871351507e+00
8.985031604752968803e-01,4.592708303095212052e+00,-6.485663183862176773e+00
-1.500590843885382109e+00,4.347541517500159713e+00,-6.220204997212501752e+00
-3.086174976281018445e+00,5.283046240245792724e+00,-1.106533562267793869e+01
-1.816613869645600898e+00,7.149677357162687485e+00,-1.009422725172237278e+01
1.539837184129786651e+00,-1.979183089309371590e+00,-1.951940180919739420e+00
-1.582485396405108657e+00,7.286520231381735435e+00,-1.031905194851517749e+01
9.543227563501660571e-01,-2.219519795302362208e+00,-1.726181026389546291e+00
-7.199785227882914418e-01,1.076745932749392010e+00,-1.243167980067332756e+01
-2.090522093696670414e+00,6.692196400950590096e+00,-1.037059084394583586e+01
6.656513122407708982e-01,7.797200792622013266e-01,-1.076002833870324693e+00
2.280324620813621195e+00,-1.975921874451620486e+00,-2.145016285415707546e+00
-1.457464132834988435e+00,6.586617330038572860e+00,-9.323617370931357229e+00
2.689191336106926844e+00,-7.503880429846666589e-01,-4.604543919678151909e+00
1.527414334991812339e+00,-2.011674981693840181e+00,-7.488840681329167914e+00
-1.968468032373381860e+00,5.876041848764949060e-01,-1.197139709832052468e+01
3.380605767133270101e-01,3.710156100923413636e+00,-1.154109469222505879e+01
-3.276169729466781089e+00,5.308669672626405323e+00,-1.083803538968629354e+01
-8.433098340131532922e-01,6.503981071355196875e+00,-1.103533805930594802e+01
1.381936934810697792e+00,-3.022507440944438351e+00,-2.564863313353742402e+00
-2.005482497483678517e-01,6.218349717781985336e-02,-1.099249085868625642e+01
2.192192175074625826e+00,9.910007530752451554e-01,-5.692468957367175619e+00
1.183188119163604446e+00,9.610877821619775441e-01,-1.162226761918882367e+01
2.307603987987647542e+00,-8.250406517898658532e-01,-1.289748193957012123e+00
2.258800851512845209e-01,-2.031432918324139969e+00,-1.659946259911717625e+00
1.314435444995886604e+00,-2.759585333576179966e+00,-6.518716734874515417e+00
6.456150591033944508e-01,-4.264326239775233951e+00,-4.579071876926477103e+00
1.034581376588909141e+00,-2.034169019352423557e+00,-1.682776064612271583e+00
1.661861389720826199e-01,5.397998892780260682e+00,-7.401101220992353014e+00
-1.551847913526154255e+00,5.151127603967786683e+00,-7.464912443329583702e+00
-2.387121605454848972e+00,2.099486299198878747e+00,-1.122066807939399347e+01
-1.955404682535532679e+00,9.886479268576544577e-01,-1.089702262030184876e+01
-1.522307136316081833e+00,7.736845053878257383e-01,-7.925482188704473074e+00
-6.065238090232607515e-01,5.028236515353416536e+00,-1.204370177467226277e+01
-2.385656251048398513e+00,1.567140412671250926e+00,-1.334731790452203448e+01
-1.202375655790847375e+00,3.099726282282133094e-01,-7.604084211341946009e+00
5.517759475520143120e-01,-1.283318419697986990e+00,-8.867306089544342740e+00
2.402546938729239745e+00,-1.829454548223677923e-01,-6.194220197623401702e+00
1.202635229946597217e+00,-4.427397511754993964e+00,-3.397065572562633751e+00
2.677972720170873622e-01,2.991929527529883615e+00,-4.180434355400245217e+00
-1.553272417020811424e+00,6.199812422222243935e-01,-1.172200732997646000e+01
-1.622331737960422293e+00,8.100854680344431458e-01,-1.220419156953445139e+01
-2.988173956968006584e-01,-2.497214470485827231e+00,-7.495199480132976433e+00
-1.869927542412742338e-01,5.138711485884617680e+00,-7.073628871502888771e+00
7.912081694360911799e-02,-2.774144668795276658e+00,-3.750745315284582215e+00
5.840145323241154041e-02,5.568702966940578314e+00,-1.053450887066935415e+01
-2.614521049925536467e+00,3.244170885931727977e+00,-1.255977538138577998e+01
-1.241331886419350328e+00,7.199140163675573412e+00,-1.037627949802269534e+01
1.212244792204402177e+00,3.995517949616632869e+00,-5.602433200753197617e+00
7.916232907922206297e-02,-2.544685645255397421e+00,-7.197529146086101726e+00
2.206630774185302180e+00,-4.559339494666277415e-01,-7.178089859319426225e+00
1.168939075211618966e-01,-1.993874407385957115e+00,-2.982357304075419435e+00
2.746815115294801490e+00,-2.782738996640176321e+00,-2.890485180649510877e+00
1.964284333206401501e+00,6.006001289373499308e-01,-7.216763581229428404e+00
2.296550995630916248e+00,1.781923650650496072e+00,-2.475295448093009831e+00
2.589030720134142260e+00,1.399209010774675188e-01,-4.272412992444882818e+00
-2.885763105951451024e+00,4.580681758981496543e+00,-1.035029051945678980e+01
2.164532181026488367e+00,-1.420099715676435836e-01,-6.217178919738143961e+00
-1.516767853087043427e+00,1.221569810418856594e+00,-1.243549794070490755e+01
-1.295603094305970648e+00,5.993321089720212491e+00,-1.120831926061820383e+01
3.637486251838335516e+00,-3.800270136256953979e+00,-4.408719767956319480e+00
-1.360535368188069860e+00,1.874746074304389110e+00,-4.650764946286042090e+00
2.281408101271030109e+00,-3.438590134685273636e+00,-3.092562007497316134e+00
1.405522905588133087e+00,-1.190308068507328398e+00,-8.529878946213822033e+00
5.916473715485660589e-01,2.856563539816848962e+00,-3.804770879954494145e+00
4.655535980339114976e-01,-2.537897683604784849e+00,-2.021074381889129246e+00
-1.434535435493348610e+00,7.154096864548356471e+00,-1.012300388394853634e+01
-1.297645619706245590e+00,2.143117430451150440e+00,-1.375810055342994076e+01
4.628955679638527276e-01,-4.185977570575999174e+00,-4.250675368386911401e+00
2.217496421271677676e+00,-3.099350328957140022e+00,-2.824361820613820129e+00
1.649419960397378482e+00,-6.117164520885812196e-02,-5.326245332292354195e-01
5.069178792696603653e-01,5.893043364135696072e-01,-1.120916473670997249e+01
1.076570707309909114e+00,-1.866445639657233757e+00,-1.760152317511340492e+00
1.234077207537334520e+00,1.367667445541152382e+00,-9.959519302458943457e+00
1.105685926989407264e+00,1.644349968163686670e-01,-1.072494899898611287e+01
1.926486935438097792e+00,-1.383483505901684341e+00,-1.599099452563409018e+00
1.604626280881850553e+00,-1.035201604895843452e+00,-1.383346340566616650e+00
-1.317891729342951512e+00,9.398651842113080468e-01,-6.973135278892548250e+00
5.568128451314111604e-01,-3.831799215020557536e+00,-3.996079917270400905e+00
1.635433224472329528e+00,1.198397422713134652e+00,-8.015925402175636094e+00
2.530205901355306430e+00,3.082041538848755424e-01,-6.855195051383140559e-01
2.384400719361122190e-01,-9.025804031051314069e-02,-1.784112598381547288e-01
2.380661551139919396e+00,3.290493527488865255e-01,-4.867774968564233085e+00
-2.073249758717392144e+00,4.508283182025776270e+00,-6.483660829129021863e+00
2.923099404281687352e+00,-4.295330145298740909e+00,-3.862979319750834417e+00
2.699114513977452390e+00,9.899333425697526279e-02,-9.322270128397860400e-01
-1.814142545862203137e+00,1.772119217253761203e+00,-8.285551462129488343e+00
-2.237879500019818835e+00,4.900025679524417477e+00,-1.154030006712927126e+01
7.461294251711442227e-01,-3.207804756798279477e+00,-6.173410536910756363e+00
-6.772544029529252718e-01,2.454322557713371822e+00,-3.525368141190737603e+00
-1.742654890892531672e+00,2.875691862120469455e+00,-5.481545277528423910e+00
-1.012978805058347476e+00,2.746446228539002998e+00,-1.340599058889276129e+01
-2.589034182061832556e+00,1.960327871413391154e+00,-1.351967289346633017e+01
-1.222938376189454557e+00,1.279566820178388742e+00,-5.173400339885104060e+00
2.280327004883820230e+00,1.503866102921553205e+00,-3.151838940550114820e+00
1.153958979232938553e+00,3.384768252531984878e+00,-4.126661748023233045e+00
1.615092453204950429e+00,-3.066419397887328646e+00,-6.010539794992653562e+00
4.116627241325407360e-01,2.114251717856546975e+00,-1.345909016617911647e+01
-2.078309908757798585e-01,-5.110081620309465666e-01,-1.447507214038705525e+00
1.616975043091124720e+00,2.392038260013302775e+00,-6.102670114652571698e+00
5.108479896036353107e-01,4.436576010437510043e+00,-9.882954361352181749e+00
-7.374667844106831405e-01,-1.865667866013341891e-01,-1.069482612899517271e+01
-1.869550939698154224e+00,5.045268442319494007e+00,-1.164387351626788103e+01
-1.202850021569114025e+00,-8.447304095069645413e-01,-9.567911915063792350e+00
2.231308489877922963e+00,8.978894185440564613e-01,-4.949955451443136312e+00
-1.029434843203571370e+00,3.864179783729080775e+00,-5.441951801883095463e+00
3.182331538681067329e+00,-3.300430759196359087e+00,-3.438056245191312144e+00
2.709263153718461048e+00,-4.248465893194175891e+00,-4.251491100827968772e+00
1.961821896218969963e+00,-5.491494562182008821e-01,-9.365033117432544074e+00
-2.700179987695758843e+00,5.441838588172321245e+00,-7.932810862638798532e+00
1.484333264993251023e+00,-1.410050766700966962e+00,-1.246934245628646742e+00
1.525639899346469042e+00,-3.369529949687052550e+00,-2.837027893826437275e+00
1.091718528386626641e+00,2.066848983618149727e-01,-1.054484445388196789e+01
3.872145488985756501e-01,-6.711111806585460249e-01,-9.931882160137956106e+00
-1.703654622675165653e+00,4.134729479439013033e+00,-1.224736254749378084e+01
9.700700895278119296e-01,3.305504308574872319e+00,-8.410462824983722996e+00
2.353884612444309798e+00,-3.515009834503567632e+00,-5.134956020650266240e+00
-2.512197824217617725e+00,5.086412098864943943e+00,-1.139042137279397870e+01
-1.220770938954918616e+00,1.793259478190115108e-01,-6.941420240935898711e+00
1.891461111854222610e+00,-2.227494875379100847e+00,-7.150349677587064967e+00
6.505112198117340983e-01,5.315694954419207363e+00,-7.273880566505148693e+00
1.445750286150328856e+00,2.585766195308848658e+00,-3.046981112979767481e+00
-2.641562583559482924e+00,5.227959244238850722e+00,-1.115781886501410369e+01
8.740209339332760674e-01,3.878703913660636715e+00,-5.058147820032179887e+00
-1.280336366581722007e+00,4.980926703060741367e+00,-1.180833668135087677e+01
-8.459331879715427105e-01,7.271943519883832252e+00,-1.050111012592476634e+01
-4.063048536677983380e-01,5.906919173968149472e+00,-1.146394401182375766e+01
5.185622807257759259e-01,-2.572303933300564616e+00,-1.804910534956532198e+00
5.304337887763033166e-01,-3.180143658490997005e+00,-2.573042744136076365e+00
2.173314691601849535e+00,1.255015818526151516e+00,-5.602440891069504048e+00
-1.363348867794821562e+00,6.240054430112924599e+00,-1.106801360649839872e+01
1.287271035115532536e+00,6.333702787748505258e-01,-1.120837594996380737e+01
7.036966111971340032e-01,-1.799132617161635528e+00,-1.454856777930309431e+00
2.887360451145406959e+00,-2.175591899821159636e+00,-6.163774075619632420e+00
1.198092007765400036e+00,-3.681264083172038237e+00,-5.257801968313358110e+00
4.264884186232044683e-01,4.664122277083529333e+00,-9.394057778404166115e+00
-5.745400756809110332e-01,-1.104993951441725075e+00,-5.640160163959726525e+00
3.229444915578185693e+00,-2.362792429538437933e+00,-4.893980160708578886e+00
-9.286650857109036705e-01,5.634683290899591412e+00,-1.165544669118460064e+01
1.870617894176046292e+00,1.281444626072616222e+00,-6.335068133157119696e+00
-9.150061854808773099e-01,6.542525074405957319e+00,-1.084918116360548979e+01
-1.020200979020485441e-02,6.254236377228118648e+00,-9.648493277914573341e+00
-8.969054568344411726e-02,2.474991901310077402e+00,-1.392290690740668424e+01
-7.140733439106452529e-01,3.951986328997621811e+00,-1.285438816076323398e+01
-1.312438140213674442e+00,2.597077965052936754e+00,-3.887842835232857563e+00
-2.954016163966683095e+00,4.931700616849926000e+00,-9.482826411697290681e+00
-9.388464268430983806e-01,9.554539811463211851e-01,-1.226472204855610038e+01
-5.722367497634844868e-01,-1.454173472119368427e+00,-6.496117982646206102e+00
-1.681614275804284853e-01,4.430018633508912451e+00,-1.263130002375710781e+01
-2.392027472917823250e+00,5.549196058095767548e+00,-1.109049063284883729e+01
2.279828119032637268e+00,1.863097076547572284e+00,-1.801398142920606738e+00
-1.883411034797890959e+00,4.424847946651528474e+00,-1.208493697017711810e+01
1.898539091995799843e+00,-1.067434246001148335e+00,-1.420842709695778527e+00
-9.773468955723546570e-01,-8.392622940383482888e-01,-7.903784150834257893e+00
3.752623877387190277e+00,-3.326071687357568862e+00,-3.701466292537096692e+00
1.670110920980198754e+00,-4.504849144162522911e+00,-4.221664897805379013e+00
1.792516522787432232e+00,2.564030900503846855e+00,-3.143165474397916270e+00
4.295295225656874383e-01,4.858561674130645436e+00,-8.950904809619231628e+00
1.753838268786684029e+00,-1.094571568356141000e+00,-8.807217430112650902e+00
-1.698504015662537225e-01,5.051778877997119110e+00,-1.219296269348623873e+01
2.668435703124671932e+00,-1.169622726380353361e+00,-1.793046117228901171e+00
-3.249857594129445193e+00,5.926164072966146001e+00,-9.802444102622695610e+00
2.025169034680249780e+00,-3.403937948019911897e+00,-5.503463877476770350e+00
-2.023349859389957484e+00,1.441706455816653021e+00,-1.064882655303801862e+01
1.297811002996275276e+00,-3.050423710170838909e+00,-6.097998731896550062e+00
-1.576176945831788245e+00,3.899520200678479931e+00,-5.635821080534433314e+00
5.520375332899216669e-01,3.750353336134117921e+00,-4.828227677682390251e+00
9.927832647611908867e-02,-3.043979233949670737e-01,-1.028279888603830194e+01
-1.001511135111409878e+00,7.193746146620495274e+00,-1.051517335722269131e+01
-1.197596125060311489e-01,6.667227079899902265e+00,-9.230522684538204459e+00
-3.046522037644002978e+00,4.120883677758383712e+00,-1.187331904213436218e+01
-1.328574179476583517e+00,2.934306472136898047e-02,-8.768737561892963939e+00
1.702685871787277705e+00,-2.835470155105293877e+00,-2.463960898630499941e+00
3.389622949650354933e+00,-4.230132222686297183e+00,-4.324930255300273529e+00
1.281798997409523189e+00,1.529380256343493505e+00,-1.018998324632270780e+01
1.589830830164019326e-01,1.043723534586691759e+00,-1.202446703992424659e+01
4.187667320027774753e-01,2.963209237658460893e+00,-1.282255778322922879e+01
-5.696445208427891593e-01,1.340919988469316815e+00,-2.026200583559519153e+00
4.023741876016683622e-02,4.589843070365585476e+00,-6.241525072043621947e+00
2.123460907597512382e+00,-4.001684122086341056e+00,-4.677422569758332926e+00
2.637615631573388519e+00,-9.913195843837587784e-01,-1.664297229067333239e+00
6.187480641843466911e-01,-1.918558518866219309e+00,-1.489210252965627257e+00
2.987265864368382928e+00,-1.801300750370019133e+00,-2.377426847340945670e+00
3.331139120531907416e+00,-2.589292363142631892e+00,-4.974378929845574504e+00
1.715350099404378659e+00,-2.882104166083696128e+00,-6.221071939174356302e+00
-2.904030331331821646e+00,4.814550346193949615e+00,-9.725755208466868140e+00
6.742939267101187850e-01,-3.715043059248004376e+00,-5.341548889250114840e+00
1.653001721943430757e+00,-8.743071005698541120e-02,-5.557080195794985578e-01
2.032242756408774387e+00,2.191826839941167560e+00,-4.449241058372910729e+00
3.247461931120043666e-02,-1.619401751955311664e+00,-2.984406782285696114e+00
-1.706518469049661757e+00,9.596901226841897392e-01,-1.234347660331262020e+01
-2.079006296455716829e-01,7.880869504245231472e-01,-1.185441199036239190e+01
2.088831909976221812e+00,-4.294975802249538788e+00,-3.629665143551864759e+00
2.788311791087322078e+00,-1.877594795264137417e+00,-2.311442287924508232e+00
-2.325375059428048452e+00,3.754600285201104448e+00,-1.228453019271456625e+01
1.378234757240203168e+00,-4.121295202659877255e+00,-3.293179295994846711e+00
-3.281312610667806717e-02,6.733185626227310649e+00,-9.225103363523578182e+00
-8.265170013295595197e-01,1.930474068098583240e+00,-1.351740091979905145e+01
1.243335433186078420e+00,-7.511872077298850092e-01,-9.231337563238293242e+00
-5.033630250353968716e-01,2.700758638612139606e+00,-1.360508259557345667e+01
2.087401519386495874e+00,8.140465574578709118e-01,-6.784909793728834515e+00
-3.008098203746710553e+00,6.277795226693543285e+00,-9.042141026284358674e+00
8.384025545044037075e-01,-2.700179146986549372e-01,-1.013313614992831369e+01
1.380183794562443778e+00,-2.476561567868878377e+00,-2.074812086863746963e+00
-1.457190224435030768e+00,6.941739409134336292e+00,-1.033635425832997790e+01
-3.221559274987477184e-01,1.611387910365157161e+00,-1.281945993564432307e+01
-9.280570224001964685e-02,-1.512953457559175652e+00,-3.403995719531130337e+00
5.312835745858177638e-01,-4.255780057158712104e+00,-4.315122770475635861e+00
2.371480388941287210e-01,-5.740928475966972089e-02,-1.046372861811212651e+01
-1.955472879231816119e+00,4.043485267883382583e+00,-1.226277553445907387e+01
2.295691986888132252e+00,-2.941383607354198126e+00,-2.699503706928788382e+00
1.295001836901969128e+00,2.342434792945176092e+00,-9.003935541274252330e+00
-5.040894509643093491e-01,4.839395666334172397e+00,-1.219688479994598751e+01
1.903948960150620318e+00,-1.480987477486944703e+00,-8.439864485883445511e+00
-1.074811686674965294e+00,2.433859111922834106e+00,-3.519219851210361849e+00
-2.513342778575710756e+00,5.060703598545824633e+00,-7.540751920725362822e+00
2.438069803008872771e+00,-5.743657935965540418e-01,-7.390309587927417212e+00
6.798342394265001476e-02,5.987335506070361468e+00,-8.122711546488304180e+00
-1.461330975687728406e+00,3.858006066215240004e+00,-5.720984789936860437e+00
9.518276005462746880e-01,-6.586006308412338806e-01,-6.951572469528579656e-01
-1.965689223960714438e+00,5.547519839027298616e+00,-7.879246765714222889e+00
5.287120631184999420e-01,2.587890871595733416e-02,-1.342090414457648151e-01
-2.849427493527827870e+00,4.837701637340919625e+00,-1.142026715377578228e+01
2.595461401333662099e+00,-3.692641263307381738e+00,-3.427332790474443502e+00
-4.314573955078890299e-01,1.994975971023791539e+00,-2.887626566702016895e+00
2.506030612538532765e+00,1.553672840071066430e+00,-2.203222907555875576e+00
-1.125098180019425298e+00,1.331592263236999862e+00,-1.286981513399942401e+01
-2.459485181673624510e+00,4.387605654102403108e+00,-7.477376620792298034e+00
-1.324442080807616717e+00,5.551374319776999577e+00,-1.146113793554440008e+01
-1.722531215351827738e+00,1.433578319360571118e+00,-9.342052319215524037e+00
1.547574360135184790e+00,-2.110293780974612066e+00,-2.006849795352358523e+00
2.054360342000721040e+00,5.136217421854716997e-02,-6.238603541644827111e-01
3.594443397318686229e-01,-3.086815957659863940e+00,-3.424900312496480304e+00
1.640294961642833282e+00,-2.268643243335355386e+00,-7.101810507412676721e+00
1.306347863998753800e+00,-4.508204651347329950e+00,-3.600231938207001381e+00
-1.898106930462587771e-01,6.221706971123283303e+00,-1.009861860011471002e+01
6.216892310696796597e-01,1.206976267738330888e+00,-1.622325038840302103e+00
-2.581762073155242643e-01,1.015273876356447280e-01,-9.666774866368302854e-01
6.778277639041360159e-01,4.863524446337050833e+00,-7.168422533151191267e+00
5.012218123800094016e-01,-3.982497319284844739e+00,-4.079228897809825227e+00
-1.522193327844062027e+00,4.026779202458363294e+00,-1.247980186153637128e+01
3.528460706479214171e+00,-3.001576474212825918e+00,-3.292962501916315787e+00
1.369403859301149051e+00,6.958825313450045513e-01,-6.222800467218442266e-01
2.190134550307885508e+00,-4.208194171985321752e+00,-4.232640229026037204e+00
-3.201620119123948616e+00,6.655403432884071435e+00,-1.006774653309671486e+01
-4.595821422588456384e-01,1.636122068942699737e-01,-1.084432201596501244e+01
3.408695584187661609e+00,-2.160077217328903121e+00,-2.572099216574961655e+00
2.408466439736062004e+00,1.368885414472391204e+00,-1.095082164571075101e+00
-7.919425174284705493e-01,9.781717278025203743e-02,-5.066078260401475575e+00
-4.277337801520022520e-01,8.305275023849191252e-01,-1.470322532197919418e+00
1.502767019093123713e+00,-4.163669922728114869e+00,-3.389918181729404623e+00
3.033123595904624326e-01,-5.071995998641233294e-01,-4.928158270818214226e-01
1.834068599940029687e-01,-2.159262706869712112e+00,-2.284110458120424347e+00
-1.438264558617025957e+00,4.052728517393009433e+00,-1.238515974635192407e+01
-1.303504254748497626e+00,5.050988975111886381e-01,-7.137052155534610698e+00
-3.689646291334436334e-01,1.739003481253620143e+00,-2.444324052576780648e+00
-2.592534595626574845e+00,4.941106127533573478e+00,-7.412668898632546188e+00
-1.106008026000210032e-01,-1.010573395495094395e+00,-3.318298071328636745e+00
-1.045827319552204759e+00,2.847637644273333546e+00,-1.343306933113291102e+01
1.550291141586987331e+00,-3.627952747164216868e-02,-5.548972399318197191e-01
-3.059838980522631591e+00,5.751584098935333067e+00,-1.091895745177414057e+01
2.644873487601389517e+00,-5.448985829756911592e-01,-4.741131328809640166e+00
6.817506690259235169e-01,-3.485100774661118450e+00,-5.580356293368525122e+00
-1.370204148409934541e+00,1.241272530373076721e+00,-6.738616673166085036e+00
-1.007896472842152447e+00,5.635855099267013557e+00,-1.159452516842682357e+01
-1.325104657430878019e+00,5.075361784583401814e+00,-7.219893498571725132e+00
3.153343540635321407e+00,-2.063552027879799411e+00,-4.494733583750782913e+00
7.454218164631201127e-01,-3.814062819050791031e+00,-3.234030356758783142e+00
9.368992021878808085e-01,1.969769571537850705e+00,-1.094155223383661912e+01
2.741163049023131126e+00,-4.165986037291521393e-01,-3.665312513254097126e+00
2.112167247936050263e+00,1.932748982576884655e+00,-2.060178176254999105e+00
1.099895495534545020e+00,4.418883332067942149e+00,-5.814352248346459362e+00
-8.431708431998019559e-01,6.493981931559398291e+00,-1.114025811741794669e+01
1.848504068047895466e+00,-3.543776151317413192e-01,-9.755811118402165860e+00
-1.944224972106948224e+00,3.745733594647010722e+00,-1.248898900284557634e+01
2.458203258858734142e+00,-1.490740096611137266e+00,-7.923211779064281757e+00
-2.238157865391555923e+00,6.190147038207382657e+00,-8.989478597467909893e+00
1.711810398635127406e+00,2.481667131956784900e+00,-6.002198193068954524e+00
-1.466899603085935810e+00,3.269003532159523218e+00,-4.919550172043112291e+00
1.182459265761873768e+00,-1.011657505163302995e+00,-8.956908199208274413e-01
-2.590998832778664163e+00,4.747489330751389680e+00,-1.170697994290090449e+01
-1.617547161601275985e+00,1.948691868395580062e+00,-6.839542829408733482e+00
-1.796768667897337135e-01,5.753535783818424232e-01,-1.148545256858421837e+01
5.926457515429339740e-01,1.221809232824456082e+00,-1.568363366971547990e+00
3.808671406403578152e-01,1.615287755797099933e+00,-1.269974201417167237e+01
-3.184192351461886172e+00,6.091258672504070049e+00,-1.042557579323565520e+01
-8.874429098516439796e-01,2.705157362847375957e+00,-4.078646428380207745e+00
5.102174690926021272e-01,4.633361085518067135e+00,-9.104329680663651558e+00
-1.482152488341320185e+00,1.364171656847058545e+00,-7.357316691970365419e+00
2.374217622141680639e+00,-1.001443906721028343e+00,-1.385385427329028030e+00
-1.024374013272653983e+00,7.340432785591968212e+00,-1.053971596261552079e+01
3.172602841677339747e+00,-1.240408586921098788e+00,-1.924033031465410382e+00
-1.993260475149515987e+00,3.442503977294352424e+00,-6.072278192614448677e+00
-3.263974879399043072e+00,5.471270278018280031e+00,-1.038598665745400673e+01
3.099544981966023460e+00,-2.462443018020366858e-01,-1.239375409394202876e+00
