-7.851174003648623057e+00,5.511608347782984474e+00,2.413088366761193981e+00
-1.158731057627589678e+01,3.500104222172028212e+00,3.534852232031175934e+00
-7.997791486591318666e+00,4.287988309801950670e+00,6.555805839558860593e-02
-4.545518381532636099e+00,-1.100265872771159614e+00,2.755887083558709705e+00
-1.297450749278712401e+01,2.938089804405751959e+00,3.423080880420576122e+00
-1.255952269916509145e+01,-2.574257661169230826e-01,1.098755820796970539e-02
-1.417897344416490135e+01,4.351301978374392809e-01,3.061819758419368487e+00
-9.142967534121439144e+00,5.338309090364552034e+00,2.755341980245826328e+00
-7.462810956107534643e+00,1.663541440036641950e+00,3.593903119442041660e+00
-1.231895813341338197e+01,3.825554573913318990e+00,3.599482072049214665e+00
-8.998027660608460820e+00,-1.681578657040747826e+00,2.681561775464375685e+00
-1.177851385932145334e+01,-4.664432433933489164e-01,-9.330138928718612057e-02
-8.794991370037081424e+00,2.328461484429241946e+00,3.533767446509655574e+00
-1.426242886847282065e+01,2.372667603363747713e+00,1.779495920718214275e-01
-3.830572486758587303e+00,1.909515058243353325e+00,1.937342046064874646e-01
-5.524179804584229636e+00,2.170317171461286776e+00,7.033967457685920410e-02
-6.334062511539630513e+00,5.716571045576501753e+00,3.412382415109661338e+00
-1.042848828766257441e+01,-7.644302527786714929e-01,-5.306182907754297684e-02
-4.485241652737965268e+00,-9.666977283593161108e-01,2.507270039669148076e+00
-8.763585290823185048e+00,4.265870541030094998e+00,1.442981005385336468e-01
-1.130387821202205600e+01,4.547366200904982558e-01,3.493858921594176881e+00
-1.318399121846673738e+00,2.107421619309694183e+00,4.361985123277083848e-02
-5.933383543297736651e+00,5.875308653499761391e+00,2.034962861104192278e-01
-7.193246736767195060e+00,-8.066387203285758645e-01,3.417697258981665875e+00
-7.882125979181889619e+00,-3.644164784577539895e-01,3.439857927809728544e+00
-5.264112623319619821e+00,5.918633300998523694e+00,1.624072941531401471e+00
-3.053391057373086692e+00,2.204894058416019043e+00,3.597632036381898324e+00
-4.844907911366465925e+00,-3.704949281916289916e-01,3.467725891159581408e+00
-5.189246623570578087e-01,2.539571738061536355e+00,2.979287766724643571e+00
-1.439851113507315539e+01,2.463463946346352351e+00,3.580228941656326214e+00
-3.733750732898690750e-01,2.110267714231798042e+00,1.307508713333435990e+00
-2.300151675847052157e+00,6.522116531301124454e+00,1.397936034531284566e+00
-7.169149501992151841e+00,-7.581579664232395155e-01,3.490620524015509485e+00
-1.461919586703532836e+01,2.941361776822984719e+00,3.077988828103182417e+00
-3.659637501742470378e-01,1.585996541924309167e+00,2.214680318144587545e+00
-1.135029809240097665e+00,-2.911717409130748502e-01,1.089903929864456833e+00
-6.931759110360276033e+00,3.493634902752022597e+00,2.085376141081315415e-01
-5.159519381914257075e+00,3.572584096831982192e-01,5.790866454196905849e-02
-8.820549424377849945e+00,-1.557052502613526235e+00,2.755337619005219785e-01
-3.243565102015987023e+00,6.424197304550713028e+00,2.539058121784417699e-01
-1.214154055778391417e+01,-2.275656863724186074e+00,2.051205392340688327e+00
-1.129389393899292671e+01,2.975762682279540883e+00,3.563598735751994706e+00
-5.933982226632996237e+00,1.285206920149452259e+00,-1.769804920915105800e-02
-1.064706986288481794e+01,-1.993777357179397303e+00,1.775421224615037374e+00
-3.647737913788414943e+00,1.018108553438259012e+00,1.639865917990815380e-01
-3.665639050109490871e+00,2.916206680594926048e+00,-4.553455783893983061e-02
-5.720491891725344225e+00,-1.024025041696409621e+00,1.298401456395379405e+00
-9.829449260312582481e+00,3.845417679679910883e+00,1.761798069016392854e-01
-1.471776488820739637e+00,2.806669188186790721e-03,3.415534049496005586e+00
-1.482643648353905874e+01,3.679445624954905458e+00,9.439529351936116752e-01
-3.406213515118783786e+00,1.514247614038529255e+00,1.312669864959127020e-01
-2.980990332962902278e-01,7.101201243920696182e-01,-2.195058535383061227e-02
-5.349421001666725850e+00,5.953452665498940810e+00,2.670415342443889894e+00
-4.310317011888973759e+00,6.199132117841547718e+00,6.555472026572234379e-01
-8.369674064668066293e+00,-2.096695217710866643e-01,3.436167070399327450e+00
-1.425179566909655904e+01,2.280211500859832263e+00,3.495774790553065170e+00
-1.389280842253061543e+01,2.257887270904888943e+00,5.698045773443337347e-02
-9.021210508863167776e-01,4.611015523486495127e+00,1.736924452329123181e+00
-2.518569011438667626e+00,7.220448830003313168e-01,-3.391701945991376643e-02
-1.255298271583054692e+01,1.815397814039495294e+00,3.470575253181215292e+00
-4.156895379362117282e+00,3.505800043387917064e+00,1.770456660464842791e-01
-9.910313922115840057e+00,4.992532306444443790e+00,3.536215866557067322e+00
-4.728960140637155085e+00,5.394243769714345937e+00,9.735078498873069031e-02
-8.238243666701979606e+00,-1.519617132374870838e+00,1.084513990298727526e+00
-1.402199113807250619e+01,-5.140114949036450609e-01,2.496973031505568930e+00
-1.377421558819407998e+01,3.111303038891672923e+00,3.501008819510099013e+00
-1.023202323418743731e+01,6.871166636076285750e-01,8.311742595506546594e-02
-9.106475969471413023e+00,7.905264262757387694e-01,3.604045678401614161e+00
-8.847543490109395226e-01,3.845889785446237941e+00,2.500035428939427984e+00
-7.675677083793288169e+00,4.870777806267978072e+00,3.538052111088472174e+00
-5.288662810869965369e+00,-1.114938916516911682e+00,2.787874447075843420e+00
-1.337797150363718401e+01,-1.147260259795646942e+00,3.382402480196656569e+00
-7.514627423157635100e+00,3.183329095381853602e+00,3.540606704811538830e+00
-8.718648756185141124e+00,3.276868872058015469e+00,3.534533376412270389e+00
-1.066135610124564792e+01,3.525089093851033084e+00,3.521116541745728412e+00
-1.253843635813239210e+01,3.789545820599515835e+00,1.119665288569621081e-01
-5.942703527099562955e+00,-1.245639295089673720e-01,3.337759354355586794e+00
-7.089086778075346373e+00,5.660775114266645147e+00,2.103278191547287790e+00
-1.059959474913221200e+01,4.716918793499151441e+00,2.315652262715181542e-01
-7.988529475657543344e+00,2.494217535548626241e+00,9.763941583912184863e-02
-3.044229643401574759e+00,-5.189108725754713047e-01,2.290030430563652075e+00
-7.080657072992077694e+00,5.421825924022786403e+00,3.070692703459271478e+00
-1.038283705990235539e+01,-1.944396071336684573e+00,2.781016506565234359e+00
-9.676895908887292563e+00,-1.315825591322389077e+00,3.337013553432075508e+00
-4.564257634228568783e+00,6.213420680921317718e+00,1.729619980404395241e+00
-7.253494412846957395e+00,-1.147144205308159748e+00,3.448336358316702377e+00
-1.174794753620583876e+01,2.129450347722380843e-01,3.407396469244764248e+00
-8.956906696167241222e+00,-1.229948945607515443e+00,-1.406908989532446586e-01
-1.071279957128897919e+01,3.760085513515019962e+00,3.647778952106336181e+00
-4.446465758299790849e+00,8.639273270111632597e-01,3.470876582373149333e+00
-4.048007477988037728e+00,-5.906040912278367472e-01,1.078427507242250838e-01
-3.230106436608774612e+00,1.089614028697884374e+00,1.238337544311581551e-01
-2.351162911039231140e+00,6.533958598692602315e+00,2.745116627623568561e+00
-5.337784936983146267e+00,2.473869351340566083e-02,1.056026809568806485e-01
-1.140775343183491941e+01,-1.968095408285479797e+00,3.375642224091437438e+00
-3.420923874386886165e+00,-4.083431763122137292e-01,-6.710211190325094874e-03
-1.140179103423966822e+01,4.119043076100189715e+00,1.250306812945435331e-01
-6.316191420356490838e+00,5.744650600896284764e+00,3.004052727673628187e+00
-5.173560754402547701e+00,5.999236908477894481e+00,3.329938980670009485e+00
-8.993843399849927422e+00,5.469326385024657178e+00,7.441501024035166445e-01
-8.440298154555202714e+00,-7.274779868698403318e-01,8.864937056619492939e-02
-1.086377926542815153e+01,-2.092185192865793297e+00,1.114178871821499550e+00
-9.316743411442638401e-01,1.609527072015135785e+00,3.486899608811945939e+00
-4.226037517277988265e+00,3.075650582398169242e+00,3.504026595625421514e+00
-3.567385849884868509e+00,3.455393929169959133e+00,2.245867457965320946e-01
-6.141764739346476709e+00,2.647384981545451432e-01,3.402726956960344662e+00
-6.501678359371785731e+00,-1.211932755588880140e+00,1.919014400173049140e+00
-7.730884086164831359e+00,2.456801695406384045e+00,-9.592016815955287101e-02
-1.043702400199738456e+01,2.230149146838029228e+00,3.609671607629374002e+00
-9.642528051321153981e+00,4.267688931020455989e+00,3.610929335328975309e+00
-4.053652587072274827e+00,6.200293043982117780e+00,2.466390138752020622e+00
-1.370340314335150822e+01,-1.556398583549518655e+00,3.401892853696930175e+00
-1.390195527066236636e+01,-1.088134862455543583e+00,2.509877459768535157e+00
-1.559201500351615088e+00,6.329951399229025277e+00,1.839288362210845379e-02
-8.382196033715748840e+00,-1.684821350934923467e+00,3.082750733086029093e+00
-2.434618965342346009e+00,-5.347328162793539841e-01,1.452167142024158641e+00
-8.439754226760154410e+00,-1.039584203371979765e+00,3.325113091402299936e+00
-9.477707278594014184e+00,2.205327190401224602e+00,3.510341226924000857e+00
-5.700773626892877033e+00,-9.988124897870614971e-01,2.039453387788245919e+00
-1.351455149052826066e+01,4.496979371416277793e+00,1.806433682333695945e+00
-1.410205941660172257e+01,-1.699620577643820019e-01,2.963653254375661295e+00
-6.687022216893260484e+00,2.119286049525538118e+00,-3.625047835188671685e-02
-1.780117442750760670e+00,-2.214758383855165991e-01,4.902040435580067301e-01
-1.260495461826425867e+01,9.707830075815859772e-01,-4.427985866585519570e-02
-3.825881292926479826e+00,4.061548291412944600e+00,3.658158600606677968e+00
-9.979589320747416892e+00,1.068548730204258668e+00,-8.361325652662111863e-02
-1.456167111961434113e+00,-2.970272955465916298e-01,1.956850366738179803e+00
-6.527574228672241574e+00,3.150840031971207988e+00,9.828357940851302488e-02
-3.043093039234428421e+00,6.273069901598100628e+00,3.653014097520668635e+00
-1.627424444400505932e+00,6.329661091760765856e+00,2.686507921629922024e-01
-3.992063239714314982e+00,-5.409326404946338540e-01,3.382752032372659645e+00
-1.235090297080487076e+01,7.108299184464348386e-01,2.235945579320118906e-02
-4.741572316818037258e+00,6.047015885930107970e+00,2.148938854024941669e+00
-5.910113167323566286e-01,3.456847613233738237e+00,3.475721957365671688e+00
-1.228535210565659597e+01,3.788492840234885417e+00,1.151424344326791444e-01
-5.602463905062492699e+00,5.238268197244962288e+00,2.495233401253883765e-01
-1.284543492151871025e+00,3.590264827412112503e+00,3.517201220532113926e+00
-1.226454940059283771e+01,4.697788976138206785e+00,2.613211303269165620e-01
-8.567230187558186216e+00,-1.654785895505531013e+00,2.000031584964903519e+00
-2.851191109631304954e+00,3.248616170056166208e+00,9.375331579862987430e-02
-1.050935600271511738e+01,4.690351393784172096e+00,3.555702116398614887e+00
-1.078612097116466551e+00,3.513019429265942239e-01,3.537520056010823311e+00
-9.491529235368521000e+00,-1.327327309125029497e+00,3.429919998706761231e+00
-1.047852716262629258e+01,1.051803342972506217e+00,2.058034789843423903e-02
-7.710853270075297416e+00,3.034838873705486550e-01,3.387992851136227390e+00
-1.375397050655820230e+01,-2.075519824920484702e+00,3.056782594181178592e+00
-6.256393987913067889e+00,1.921737882670708775e+00,8.080173487064067073e-02
-1.433779766786226695e+01,1.389524810876951122e+00,2.487744082995248629e+00
-7.297247282903684962e+00,2.628760270890237116e+00,3.559513310077794923e+00
-1.421729186372706621e+01,1.333590139258068685e+00,1.228622839285734986e-01
-8.987751816138359828e+00,4.633297550092335682e-02,3.400555540949336653e+00
-2.079181292846844720e+00,6.696525161356236211e+00,1.908570691596005009e+00
-1.943208869594714505e+00,6.586577430603925087e+00,2.629893393009565372e+00
-3.488215185911653360e-01,2.476286567089985180e+00,3.756723300744064797e-01
-4.992283859087353726e+00,5.935920625469888634e+00,3.152082185954166782e+00
-1.590962054731706932e+00,6.103865091504282248e+00,3.650480938178894075e+00
-1.202254279560821715e+01,3.533720199590824063e+00,1.148004079747691614e-01
-3.786727911038530792e+00,1.940479382237468187e+00,3.537264452074905030e+00
-2.244568821968377037e+00,5.901463374959091013e+00,1.542851569093273978e-01
-3.118275805544355350e+00,-5.337264319845572702e-01,1.127911726147804661e+00
-1.365926783299106262e+01,2.232486423189603109e+00,3.441388262866428516e+00
-1.485169591358123853e+01,3.859792746067206792e+00,1.685133062942164306e-01
-1.413062683591201640e+01,8.421454625730103727e-01,2.447944142977521498e+00
-1.293734708522146448e+01,6.119603514737657068e-01,1.500353620758470598e-02
-7.647982230707804696e+00,-1.221406228216877388e+00,3.408990902697772274e+00
-7.531315828318072114e+00,8.884371658336900346e-01,-1.881442988177882067e-02
-1.416214264252340627e+01,8.368955884807420809e-01,1.656875884440569990e+00
-1.066377233027689719e+01,3.391616846422043974e+00,3.614188252669141121e+00
-8.741920606176835307e+00,2.400410272571784187e+00,2.034986192467311550e-01
-2.796008224237577000e+00,2.140429498749333082e+00,3.461357526161367382e+00
-4.421541850490989134e+00,4.935499345410629068e+00,3.607124633918522338e+00
-8.729000761469384528e+00,5.288088921372048112e+00,2.247599611917176166e+00
-1.099988040950888646e+01,1.559693274801287499e+00,-8.400246831083799104e-03
-4.822407869300113781e+00,3.115128118508406541e+00,5.524774500669963478e-02
-5.831217352196997439e+00,5.691793572110991350e-01,3.378615200723467105e+00
-1.180438256541980913e+01,4.675214044368726007e+00,1.781422268823037447e-01
-9.732202124832547430e-01,1.934692836190628373e+00,5.181293707151191086e-02
-7.522750641559089679e+00,4.932280057142885532e+00,3.483741857988715829e+00
-8.308351141141555596e-01,4.313106743844783431e+00,2.696144000181997402e+00
-2.527277761077484364e+00,6.519195052414426428e+00,3.382250816737727206e+00
-3.931646644530238266e+00,3.896364537170376785e+00,1.913417548338931795e-01
9.559749195045038478e-03,2.823464440141519871e-01,6.587265299061335622e-01
-9.510233685003248727e-01,5.397154777038121409e+00,2.543304970385752428e-01
-8.536367366241851329e+00,5.594523936801357955e+00,1.405909672501698404e+00
-1.466879145272884699e+01,3.666706541747688952e+00,2.546669454430628310e+00
-4.756718541638955244e+00,-6.418829454597342332e-01,-3.458146354972539693e-02
-3.958973639384176124e+00,6.305016409939466548e+00,6.182855232486696995e-01
-1.235944475353832139e+01,-1.941434726240397479e+00,-1.195493064541850586e-01
-7.607072385916629820e+00,-1.486855053149872541e+00,2.177300117327635842e+00
-4.402790186162794051e+00,2.250038774800017016e+00,3.443201115125472000e+00
-5.400846306287424348e+00,3.840308448969265598e+00,3.596005750694836411e+00
-1.167201577455223349e+00,6.613481674220311746e+00,2.676154627387442364e+00
-8.122577573942196816e-01,2.833280736647709741e+00,3.527382773439554420e+00
-5.853638736506224127e+00,-1.226535761012258474e+00,2.271474618420049829e+00
-1.459554349449094168e+01,2.922706162201772262e+00,3.512374928570875632e+00
-9.027647150926556563e+00,5.013697675007978916e+00,3.640859488582449455e+00
-1.286743392039564249e+01,7.841819894965442739e-01,3.382129303476245852e+00
-9.113635290797198252e+00,1.408021798188572093e+00,-5.602008322845162397e-02
-4.061970681283356699e-01,2.568569706326405022e+00,2.700532679711686423e+00
-1.463616093124924866e+01,3.106582602627453671e+00,2.936164213596348382e+00
-1.238037900024392540e-01,1.125690731510677001e+00,2.010789799628197816e+00
-1.212914234160398941e+01,4.582619418178408566e+00,1.238847772940700059e-01
-1.395924732496788323e+01,2.002890386422824687e+00,1.219426901569492377e-01
-4.276085056306722088e-01,2.505726498722626427e+00,4.631858670197268046e-01
-1.217684636815755184e+01,4.649366950321320857e+00,1.209618913061168699e-01
-8.114148160807943100e+00,4.081649791412525374e+00,1.051538218355462795e-01
-6.287303646500181920e+00,1.360479103876359730e+00,1.278361151246080740e-01
-7.883623583055531014e+00,2.627577951933687928e+00,3.498689209151632173e+00
-5.128956431012763773e+00,-3.998941906211485320e-02,3.559976899968250841e+00
-1.695883720690067875e+00,6.610713740918725101e+00,1.635498640208719046e+00
-5.246913884093203251e+00,1.207236506964452616e+00,1.397734739306258633e-01
-2.641149869643599324e+00,6.506631691533714346e+00,1.559937408520768898e+00
-1.245521081283306408e+01,2.997112797295453310e-02,3.305198146983358232e+00
-3.981228264486442292e+00,2.940191759555700557e+00,2.054146114431497083e-01
-4.652002231122177589e-01,2.229866416687383168e+00,1.774242768561329564e+00
-3.796452446149052751e+00,-2.445627796285193556e-01,3.150562851054347635e-02
-1.413877553565717093e+01,-2.810207424931804865e-01,2.623283617783154220e+00
-7.872061767194898252e+00,2.377086737075754463e+00,3.423329855028520718e+00
-1.367366309021717541e+01,-2.123780802399335865e+00,2.500875789104607949e-01
-2.345868575528645916e+00,4.314520974292673783e-01,1.320875498685220722e-02
-3.663627258668185060e+00,6.346673920723483242e+00,1.139976989820337128e+00
-1.327671996874804172e+01,6.860748380900315579e-01,3.546267821124456265e+00
-8.795644697463487205e-01,4.698313562486311490e+00,8.577347964712842554e-01
-1.222699399106646112e+01,9.504807739326078808e-01,1.135338012112303563e-01
-1.431027041820141221e+01,1.101831908623509770e+00,2.628543600091954868e+00
-7.000720255607030040e+00,-1.441917320646440848e+00,2.130463693181403162e+00
-2.046547339516640029e+00,-5.170604782262117061e-01,2.763465360339649735e+00
-1.228396464729250681e+01,-1.238637106981929747e+00,3.458547141096105726e+00
-2.459339999330057758e+00,-8.854421393427316933e-02,-2.317119177842802413e-02
-6.949571949977842777e+00,5.637524872349498395e+00,2.787536274717638207e+00
-1.012744417076539527e+01,3.767283688531247066e+00,2.419942848811180436e-01
-6.940652331919745954e+00,1.231470185494190739e+00,3.468240366401313945e+00
-2.807260525402038298e-01,8.182060020087816854e-02,3.420834687338522251e+00
-5.911381824853337186e+00,5.868124999747229786e+00,3.401307255334009128e+00
-1.563831732371345096e+00,7.160460608403130811e-01,3.490998716745368657e+00
-3.348627767445548464e+00,5.288631883008857670e+00,3.601850356392858554e+00
-1.345020832720713599e+01,-8.771571074988921968e-01,3.403489862725253889e+00
-6.734928581132908931e+00,3.874617808322037948e+00,3.608813692296407361e+00
-1.345847659729266788e+01,-1.234988051430667033e+00,3.562458813138055014e+00
-7.792922205130381030e+00,5.543190410160041992e+00,1.918773579983913180e+00
-9.286032395372764370e+00,3.177670028714817629e+00,3.582261179527721495e+00
-1.068064102578798646e+01,4.930481537720916130e+00,1.434417938356122635e+00
-1.187348020049697195e-01,5.263196486628953785e-01,8.535924980613958379e-02
-1.186109875838652350e+01,4.869386876019016874e+00,6.633639060549367805e-01
-2.329734255087306138e+00,1.122856978975413478e+00,-3.244351976825643469e-02
-1.376470750701201418e+01,-1.808148404187520653e+00,1.744801280529554965e+00
-1.220945936649406605e+01,-1.498706506845040476e+00,-6.551027360372627117e-02
-6.113955115389069661e+00,5.352450407640846564e+00,1.498616285646361124e-01
-1.340472030202677978e+01,2.598358953191865495e-01,3.438316077631877743e+00
-1.022063082624844554e+01,2.988938250911540084e+00,3.683902842211834283e+00
-2.682531597633008302e-01,-4.972884561535807074e-02,1.408453460317805161e+00
-2.391453400237084193e+00,6.503295673696516843e+00,1.883240177442404351e+00
-7.940418141321486267e+00,5.372000052340312415e+00,2.601784020133428577e-01
-5.727820984324226927e+00,5.317397692186657032e+00,1.448563608186096696e-01
-1.434631722951071886e+01,1.997791151035396284e+00,1.638083181823307144e-01
-8.703394339262003898e-01,4.726226077879112530e+00,7.005101812489439306e-01
-2.902775865654265708e+00,-2.895820062320603738e-01,8.149404194189061035e-02
-1.259197334720523287e+01,-5.941371890257405100e-03,3.473173162830153871e+00
-8.644236964570316317e+00,-1.692933462546267975e+00,1.481207325957392795e+00
-8.319921052307401865e+00,5.403804470851782504e+00,1.176466265540528022e+00
-1.375091921775197612e+01,1.540024087004273901e-01,3.386947774940296085e+00
-2.190961072390714914e+00,6.464114971862215064e+00,3.742711253778002067e+00
-8.797529633556191442e+00,3.563190748719763157e+00,3.540445622074593679e+00
-1.200952984530348644e+01,2.232952543604278528e+00,-1.751481973597517061e-02
-5.569366339458792226e+00,1.840194400937654184e-01,3.486875051924129387e+00
-7.167730577438547357e+00,-1.011105680345401492e+00,3.531021192400545239e+00
-7.290097676917254965e+00,-1.523471602214761855e+00,3.171721095379304023e-01
-2.994954238844491190e+00,8.875257127272007107e-01,3.530835447157659512e+00
-3.384065943182454905e+00,1.364862397648084480e+00,1.778413006478979201e-03
-7.651790405982978882e-01,3.743901887114652993e+00,1.667968410700138571e-01
-6.702994293780790702e-01,1.067513143922082186e+00,3.401799435280140393e+00
-8.073201876667440047e+00,3.245752600529727694e+00,1.269430319609370361e-01
-1.318920379252886299e+00,6.501343235520224972e+00,2.704910662808218014e+00
-3.853739351931405821e+00,8.684760212722109074e-01,3.535584595488177051e+00
-7.624854737003246896e+00,3.196868324734401856e+00,1.888300428371888218e-01
-6.063468595081564771e+00,5.568547633886652193e+00,9.285205588089051609e-02
-1.285662826380557888e+01,4.539422621294832538e+00,3.236298963816625740e+00
-2.246452702056350503e+00,1.010341726592778988e+00,3.478942300097794593e+00
-5.732656163067911592e+00,-1.068934726360665444e+00,1.918423868052063774e+00
-1.164045689270611028e+01,4.770581598887990715e+00,3.173358950003010381e+00
-1.393018406401982823e+01,-5.742724053970579279e-01,2.879592396439416113e+00
-5.372510000319380197e+00,-9.464005063844374011e-01,7.091207046679797177e-01
-4.199436906909014944e+00,1.698300924377885712e+00,3.458055052882369029e+00
-3.350581865158202555e-01,2.139076966092815724e+00,3.665737856753605861e-01
-1.324640670467756465e+01,4.450248646557432686e+00,3.508940226930382877e+00
-1.112506945797258595e+01,-1.484964289651278246e+00,3.413514718775146672e+00
-3.332764986323715761e-01,1.426711755391410819e+00,1.548331403005843709e+00
-8.363670274869930310e+00,3.096268299864728957e-01,-1.384218621658029127e-02
-1.686957684061776014e-02,-2.411395503359417269e-01,3.143031496886872223e+00
-1.374620122115235610e+01,-1.864382259164999445e+00,3.260498421919496792e+00
-1.483218253791546815e+01,3.635839537624800499e+00,2.223308517011369556e+00
-7.158610558373087684e+00,5.453826566098991968e+00,3.702492370734760119e+00
-5.613571804357319728e+00,-1.071499658558444423e+00,2.686540579556959241e+00
-7.281147374903627068e+00,3.228675066141048600e+00,1.640804320877999045e-01
-6.257654005927609120e+00,5.855429296423913854e+00,3.433523740347284470e+00
-2.436094977252421412e+00,4.802881413446247194e+00,8.196659587357853216e-02
-1.460388316200931946e+01,2.756168889598054061e+00,3.206387321522391698e+00
-4.532510343817258480e+00,-2.113131123608838480e-01,3.685600645096150096e-02
-3.179845887226481427e+00,3.191188570227835086e+00,3.264552206013208308e-02
-8.544266779493101538e+00,4.002625718554344125e+00,3.669492188288857371e+00
-1.163794621680951025e+01,3.830880876310724936e+00,3.533016863733310586e+00
-2.464486880322409590e+00,-1.056492503634604424e-01,3.449890151516675108e+00
-1.309144538474286357e+01,-2.575180955374274383e+00,1.537942098081366282e+00
-4.598704595554288233e+00,3.399311549940593480e+00,3.608679281921582938e+00
-1.450754074042892050e+01,2.166394365881750605e+00,1.422235611716145653e+00
-1.309463117085776318e+01,3.728414701407556819e+00,3.445325768187041060e+00
-9.126712913481592082e+00,-1.843602168986565815e+00,2.554642428510054852e+00
-1.374178261224935582e+01,-2.208199716956211756e+00,2.475403012321037988e+00
-6.883335562513956951e+00,5.635756187119395300e+00,1.380789352760237954e+00
-1.553217677489435289e+00,3.167630938037502730e+00,3.627191884092534124e+00
-1.042533456037891959e+01,-1.971767388511155517e+00,2.099552829467014714e+00
-8.485556011337255455e+00,-5.026452398064789051e-01,3.432072596335927539e+00
-7.657907999684871569e+00,5.618290850134207481e+00,1.747936841044404943e+00
-1.089433498714330995e+01,4.587786735944400895e+00,1.427971722453996728e-01
-6.158768487037215245e+00,4.867517494412910040e+00,1.042280330149526202e-01
-4.699916807112595407e+00,5.959200419771622848e+00,2.701358563813078817e+00
-9.388459853011998035e+00,-4.529701807714359707e-01,-8.313217919477831896e-03
-1.186290011754923945e+01,4.741319252249039273e+00,3.000059244207963438e+00
-4.535515706637819555e+00,4.662661496061295985e+00,1.973832342468205270e-01
-1.293069568907865019e+01,4.581744480537342845e+00,3.499638229442175064e+00
-7.021510310621172479e+00,5.619690611321125573e+00,2.028013621007887846e+00
-8.208416362110849462e+00,-1.071194074338691404e+00,3.326054705272154521e+00
-1.147790759907919877e+01,4.874204366221466245e+00,3.183874657080236314e+00
-4.353016121961212903e+00,-7.816148055747538237e-01,-1.621812894440823050e-01
-1.650873706191152035e+00,6.759885110164077560e+00,7.026282128373183555e-01
-5.879565176275784566e+00,-5.388365297445003588e-01,-6.110535027212847525e-02
-5.910369221514069515e+00,1.732965112280443920e+00,3.425269514033928875e+00
-8.267482174407417617e+00,4.509529051908435449e+00,3.500670387957649954e+00
-1.190588724095492701e+01,1.340166217890163880e+00,3.549979610201679847e+00
-6.588192005737905532e+00,5.158436643697667634e+00,3.549271663298661394e+00
-1.302670039380015865e+01,1.482151138225124454e+00,-1.592485352803894860e-02
-9.218634986052974156e+00,3.624816709068642506e+00,3.534974109490131244e+00
-8.366774939837939851e-01,5.254888722299750903e+00,8.510667324751374219e-01
-1.425433207469187380e+01,1.070353329182340607e+00,1.324364454248800893e+00
-7.602996943900404148e+00,-1.211485803040057929e+00,2.045590494682742566e+00
-5.076816610044859956e+00,2.688182246275050868e+00,3.518405498966127976e+00
-5.384998852754948828e+00,2.179933256827528254e+00,5.039893526309711241e-02
-3.291545392264218162e+00,-6.280915584096841142e-01,2.160260441895013095e+00
-1.431387120570844118e+01,3.082597741893917220e+00,9.240349719447070453e-02
-1.162986674461916969e+01,2.142687708569039451e+00,4.827126700600480741e-02
-6.824537727196680947e+00,2.657723681054321663e+00,1.063254082277527851e-01
-9.612927799143795582e+00,4.967420463947470388e+00,3.604721618535376759e+00
-1.212100566059835849e+01,7.030483657062320813e-01,3.368302442896391025e+00
-1.178438524293602718e+01,-2.172296423228916140e+00,2.187516031264976402e+00
-8.826823859088907653e+00,3.379122607054203531e+00,3.566494038794460586e+00
-6.960817551699824968e+00,4.018899776414746938e+00,6.789571218819386023e-02
-1.284304763402382221e+01,1.829648877012323815e+00,1.353930798079217013e-01
-6.402184798509916952e+00,5.584420463648377186e+00,3.530397352169353908e+00
-1.018879087508539172e+01,-1.828713557670320622e+00,1.564523291104084057e+00
-5.376644114635942273e+00,7.433997023635466883e-01,3.464344672280969650e+00
-6.528294598154054995e+00,-9.342922228751707747e-01,3.411167658355302557e+00
-1.203821477695142939e+01,-2.212330052203695718e+00,2.469211269941256059e+00
-1.046805203941511486e+01,4.505545290196445229e+00,3.644497501332128131e+00
-6.264100947151041154e-02,-9.766258450647825884e-02,1.459354535849917811e+00
-1.231887707911252328e+01,-4.896279648191452782e-01,3.327453516794488753e+00
-1.647205980265357361e+00,1.086737244052793594e+00,5.250152505252628915e-02
-9.027411189329122010e+00,-1.784919975938709547e+00,2.359728610571729224e+00
-6.435423657107421036e+00,2.566872397016098262e+00,3.508987491115896779e-02
-2.864837655907330305e+00,3.684654154339952914e+00,3.495974113505537328e+00
-1.230535612161499159e+01,-2.311385913733772668e+00,3.366259731133501187e+00
-8.377983118615556890e+00,5.453928950396427666e+00,1.162001366730322616e+00
-1.243632174294031678e+01,-1.642860526409800626e+00,3.475432394417341975e+00
-7.826833258027360962e+00,5.583978989481754418e+00,4.010034647445088751e-01
-8.063669408005640804e+00,1.323213275273608103e+00,3.590076168723618455e+00
-6.599399239380061566e+00,3.529998107932019735e+00,3.606653370656681457e+00
-1.026289302377285750e+01,2.046204197064693808e+00,7.581073098498462837e-02
-1.462739527907253922e+01,4.313807415900702047e+00,1.752658225539174719e+00
-1.402450889543382218e+01,-3.978583051335247145e-01,2.749982370875132531e-01
-1.032273782096840442e+01,3.601251415082140639e+00,3.539360374917816632e+00
-9.597282989646687135e-01,2.273420795440795228e+00,-6.319002747654883789e-02
-4.757157314022060213e+00,3.003229040304387976e+00,3.600403257222540621e+00
-7.535474243057224797e+00,4.568103511773498937e+00,8.913411690212899585e-02
-1.101436759719652514e+01,5.031997360395296326e+00,1.410998034098786436e+00
-4.081342694739646948e-01,2.323079870412957160e+00,2.008725941531148251e+00
-2.804196568149452506e+00,2.106165927750243583e+00,9.772239027956461377e-02
-1.386993982138745096e+01,4.563496524799568910e+00,1.184526721908027325e+00
-7.749998904869106475e+00,4.687091531994001414e+00,3.515051624107215833e+00
-2.460572736930707549e+00,2.806849153518715112e-01,3.546508353768301536e+00
-3.262363429320974895e+00,6.061020845355010067e+00,1.093285159847000448e-01
-3.617314510874964029e+00,-6.507065572410497545e-01,8.185475749437010062e-01
-1.024184890279700388e+00,5.638665570424950424e+00,2.409192978447333378e+00
-9.763080428977573888e+00,1.999989634630625401e+00,3.496905755512997871e+00
-7.660567692703555975e-01,3.496093435209896683e+00,3.557661791667700690e+00
-1.087140789779099492e+01,7.427279275446591056e-01,-1.353998495806171820e-02
-1.174350231929766153e+01,4.682294355728125801e+00,1.639313768652443937e+00
-8.211390398931988077e-01,4.043594532772637251e+00,3.121521355476684967e+00
-1.032534593172411919e+00,4.604398662551863808e+00,2.317815118663021090e-01
-1.138674555271968458e+01,4.886126837052240823e+00,3.244352714615322819e-01
-2.742741938649134514e+00,-7.165245974365355153e-01,1.960116457403891399e+00
-1.436751423380627557e+01,1.889467159435410659e+00,2.341814860731043779e-01
-8.574898430058164323e+00,7.132128381628302094e-01,8.359360999631038069e-02
-7.705431884102520002e+00,3.007787283874896467e+00,3.574980344844563174e+00
-9.615339719097418580e+00,-1.882155954820485588e+00,2.774973550050493731e+00
-1.291094424078559655e+01,-2.356290320872835409e+00,5.411256917297765368e-01
-1.468227756608976531e+00,5.223367040930537719e+00,8.337457887939886403e-02
-1.606989197285627835e+00,2.525045519313957154e+00,7.602137109447092145e-02
-2.074002222058403344e+00,6.574797488426871617e+00,4.760459424961359653e-01
-1.989632840988065698e+00,7.944448172076485903e-01,3.461752264566222426e+00
-9.970251070813661798e+00,5.034541522959636417e+00,2.673181901065968979e+00
-1.408052348136133602e+01,2.395779299928726402e+00,3.518415399979476277e+00
-6.459792892198843894e+00,4.166875343650414898e+00,3.609538560047137246e+00
-4.345544375323804331e+00,6.126980764490372877e+00,1.895525126589413745e+00
-5.299452963351043433e-01,1.786672154447308980e+00,3.444302119218570990e+00
-7.220752498634243288e+00,3.967661164472855884e+00,3.654108271335963831e+00
-4.402915000424804326e+00,9.489421292881186076e-01,3.439793032773346138e+00
-1.274891389454768564e+01,-2.516346581317966180e+00,2.201531671316362182e+00
-6.295363988665164889e+00,5.791109883276891246e+00,1.206067973170466212e+00
-1.354869959027632120e+01,-2.572284593304489331e+00,2.887082087132529562e+00
-8.713399276957428441e+00,2.045274839290520230e+00,3.511853810963387612e-02
-8.948695057049775414e+00,-1.430801809094979893e+00,-8.494072277362575696e-02
-1.148416683953915163e+00,-3.479562417163345467e-01,4.720554889650746544e-01
-1.059192156853142386e+01,4.990428926647915375e+00,3.385327484039683643e+00
-1.236398466595983292e+00,1.617295773588003360e+00,3.346997974069044979e+00
-5.253971209403428766e+00,4.540778567153544998e+00,3.530011296225427753e+00
-6.271967868668728130e+00,-1.060097580324420141e+00,2.102571659896194323e+00
-2.065823885381807834e+00,4.754194344432538522e-02,-5.486802741865991206e-02
-5.187908455760723569e+00,4.864829532012396207e+00,3.574552699013455737e+00
-1.000857142109876285e+01,4.864317141080182871e+00,1.174087605764440739e-01
-1.268248986749836860e+01,5.130567430656902683e-01,6.514391486784812391e-02
-6.758255610717535333e+00,2.530597214035791076e+00,6.255907495274266872e-02
-1.196848058051420338e+01,4.730363174463374065e+00,2.762687713028417757e+00
-5.606818220030674205e+00,4.209593151334011019e+00,3.639862541532254969e+00
-1.333869779175377523e+01,-2.575680953387132988e+00,1.750993083924008875e+00
-1.035653366707065892e+01,5.060060272502878931e+00,3.319446970508142858e+00
-7.482693191820668943e+00,1.084941715298526788e+00,3.427165429469479552e+00
-5.222209353674564625e+00,2.300237926250384479e+00,8.337137350169848693e-02
-1.297136390082262558e+01,-2.353777662720471398e+00,1.701277673499169696e-01
-4.660054751442006093e+00,5.657374284377212348e+00,8.414776304101921622e-02
-1.452230687305991808e+01,3.134206230886183775e+00,1.576968929535810249e+00
-6.803584765285811464e+00,4.017385001611802897e-01,-2.964733990232874534e-04
-7.972111769403487536e+00,5.614981522672864322e+00,4.575812445594979461e-01
-1.190418883995406496e+01,4.746553342496775407e+00,3.095793816629152317e+00
-1.378574225375087536e+01,4.620742042983237319e+00,5.176612813012536618e-01
-1.001522779132446317e+01,-1.804772236938011920e+00,1.397375122746501996e-01
-3.475558074255962193e+00,5.388569723772572706e-01,3.508441719280762428e+00
-6.600152688171288418e+00,4.119488276291000339e+00,3.581462337710413557e+00
-1.092916854382677272e+00,3.403407114076492324e+00,3.698385191997049848e+00
-7.431889241529100687e+00,-6.703446008938178657e-01,-1.959671100639907848e-02
-3.560472486983488061e+00,-6.519560616443461631e-01,2.034338531756184842e+00
-1.385382552074072393e+01,7.799229933055344677e-02,1.439367096802991186e-01
-2.256602458046237381e+00,2.076458309647486900e+00,6.894202541886051104e-03
-7.115583104593444785e-01,9.792481173733728061e-01,3.493250116020708784e+00
-7.452546990425008566e+00,5.623468365109106415e+00,1.561906569286190205e+00
-7.780247516135858632e+00,5.574853427000854289e+00,3.434133250865190945e+00
-6.150643762335964659e+00,5.304758245358992319e+00,3.681097037669604610e+00
-1.056005321129562979e+01,7.928780860433567446e-01,4.334280734712694927e-02
-1.486808085624099718e+01,4.079754211321077406e+00,2.086287930888169662e+00
-1.232610830123789247e+00,-2.924081833816027931e-01,2.720224496807660763e+00
-5.341429938871126382e+00,4.481729847925973509e+00,3.681975759258799830e+00
-1.682790729870070390e+00,3.706246355934425196e+00,9.637244770364165880e-02
-7.212551269607951454e+00,5.565632295358925674e+00,3.824993579743142802e-01
-3.048898608317978542e+00,6.376634555876068866e+00,1.939064726180375731e+00
-9.202270892719528472e-01,5.573792787444455499e+00,2.600957640070148180e+00
-1.156831883048926990e+01,-1.541293586678528005e+00,-7.096913855883320299e-02
-2.356903005106535942e-01,2.082426256181462224e-02,-7.242591202863749023e-02
-7.527076517799276445e+00,2.735006967292984204e+00,1.274214352662783045e-01
-1.129849847042009259e+01,2.448280829427454730e+00,1.060914060767870620e-01
-3.705431413932246176e+00,4.997211211663018737e+00,3.644683287792621407e+00
-1.206650689348705008e+01,2.168378046311461915e+00,-6.263045548371984350e-02
2.704363738164308056e-02,-8.439603742021897781e-02,3.230208451349893650e+00
-1.286949952471954761e+00,9.094433159707244752e-01,3.425139425749326172e+00
-4.231951105308233707e+00,-7.245854111256173624e-01,3.346247801022189439e+00
-7.663558726222872153e+00,5.514583700583659542e+00,3.600493420173375814e+00
-2.552766514551411792e+00,2.587767247161704365e+00,3.435190932461603452e+00
-8.068091628599366461e-01,3.339491466140775966e+00,1.389704006741558029e+00
-1.248419179542478386e+00,3.432500266636934416e+00,3.674846007583989493e+00
-4.058382290481160837e+00,-7.707685292216516215e-01,3.419315039665327127e+00
-3.144017954468825593e+00,3.909022926580298929e+00,1.321620900411735189e-01
-4.642457593836849306e+00,2.249503624813533165e+00,3.457722178443312977e+00
-1.021414722843779366e+01,2.861239479799981833e-01,3.661274055142079931e+00
-2.140869961695103241e-01,3.777087936677664404e-01,3.453942353248008690e+00
-7.227400623364485632e+00,3.946241670688832026e-01,3.512418821170537608e+00
-1.347427956620230916e+01,2.834501658095010868e+00,1.859171821236045574e-01
-8.798574638242707024e+00,-1.594249515907586012e+00,1.119462132170749635e+00
-4.455628238663294494e-01,2.774896931186654037e+00,2.707801985929230160e+00
-2.784266573041340287e+00,-5.102663402070894971e-01,5.901332570788374587e-01
-8.116915085967717047e+00,5.348595199622232954e+00,1.843110050467850758e-01
-1.250622032026955210e+01,9.252312773219327768e-01,3.510867887222935746e+00
-3.024890817250186270e+00,6.195918284950266752e+00,2.800881905907493322e-02
-1.162283590029626801e+01,4.761030994661695104e+00,9.511279099878210408e-01
-4.833904365256866065e+00,5.700358546210153143e+00,3.585058462908411236e+00
-6.471526798509968259e+00,4.471311937223448219e+00,3.560877746707810765e+00
-9.364820634226853624e-01,5.325592660552644908e+00,7.353989625348323900e-01
-1.388740719329796569e+01,-8.392506643367462216e-01,9.047093883734889097e-01
-1.186805143105957505e+01,1.036016703614434542e+00,-8.838571012139873062e-02
-1.032339602990631988e+01,5.219029083624779908e+00,1.020198394896004723e+00
-6.683905383245355658e+00,2.698628558101378694e+00,3.438879043678607861e+00
-6.062703409092370377e-01,3.007887681978276717e+00,1.081039113882471953e-01
-1.366536652716478351e+01,4.102554205804910259e-01,1.988067244635990244e-02
-1.536066619718293946e+00,-3.040722971250152118e-01,3.595661496882939012e+00
-1.233049300648765900e+01,4.736366436361209686e+00,3.345348140009732241e+00
-1.229193697220748582e+01,2.987487108270431069e+00,3.552268181848726947e+00
-5.262161114398741013e+00,4.881881299946568831e+00,3.674567655316979486e+00
-8.658705689833515962e+00,4.125450569543970936e+00,3.302395962656785172e-02
-1.102990140208957115e+01,-1.149604962258285568e+00,3.395444615108454300e+00
-1.100360339132939558e+01,-1.983189668100435732e+00,4.006788148194260213e-01
-6.434948429299775619e+00,4.414452800681408107e+00,3.679434452462176264e+00
-1.045916717264774753e+01,5.102651702160715175e+00,3.403769370213359235e-01
-9.247258317080943257e+00,5.333624311601781187e+00,1.401482682764234156e+00
-1.938339400091048992e+00,-2.962413524806282727e-01,2.170197815261022622e+00
