5.946656767731592352e-02,-5.065352089725135842e-01,3.075872762364125546e+00
-4.820982434520001414e-01,1.865804062154117648e+00,5.276507810154331679e+00
-9.647966239664373944e-01,3.802758780527943472e+00,5.553053487918388598e+00
-3.283280590035082547e-01,-7.351096693777094959e-01,4.832058011665002262e+00
-1.253982994864721201e+00,-3.432189715790238127e-01,2.566613554973819156e+00
9.364419395600682705e-01,8.764634525655258912e+00,4.560099476334816160e+00
-1.068224202340907647e+00,6.496997953378719437e+00,5.158269826323068408e+00
-8.821820826650704772e-01,2.009735215653578599e+00,5.024885215650432002e-01
6.553034966264539296e-01,1.159780443411965040e-01,2.260428953729741952e+00
-1.213327602012006290e+00,8.622318604268842890e+00,5.055668787126519348e+00
-1.614155651934086055e+00,2.892736572131808792e+00,2.827889386055863596e+00
6.525898868977737799e-02,6.950927458674951431e+00,5.860595512584986011e+00
-1.010824621487629971e+00,-6.336765817925387179e-01,4.499559574787284078e+00
1.188016949731627615e-02,-2.493448067393709278e-01,1.656938630498614451e+00
-1.386260020666455928e+00,-2.641199634899218385e-01,3.944736675808805160e+00
-1.067612828215683818e+00,9.049260536367810914e+00,3.422345396836188769e+00
-9.850280460324315479e-01,6.008250383850296750e+00,1.165719792986906977e+00
-4.455797950213816194e-01,4.042098375426401269e+00,6.764544901528780629e-01
-1.058302784887710235e+00,8.791091095462707727e+00,5.304807036276089072e+00
-1.125411044179243092e+00,5.966224470154921633e+00,1.190571645665010392e+00
-5.828601806115742967e-01,8.666547312470259001e+00,5.327051655341718650e+00
5.276882277473793348e-01,8.945632037407852621e+00,3.926610164581937568e+00
-1.920679414981683264e+00,6.792449051989291497e+00,1.485154261241781182e+00
-1.424043841733488858e+00,-1.056996861077208610e-01,3.844125065532927987e+00
4.189050730745721984e-01,7.953446091603613155e+00,2.176163321635325332e+00
-2.083094450862862601e+00,8.725486277841216776e+00,1.927840106225548578e+00
-3.465510797962587652e-01,-4.593183227497260601e-01,3.044522551108153952e+00
-1.170855993331479494e+00,-2.279283706527178988e-01,1.557540670261836180e+00
-5.350896071795060438e-01,3.772755654531016578e+00,7.402185691169425041e-01
-2.015602608586312794e+00,5.431068309593650056e+00,2.089581736107910537e+00
1.284090007674100420e+00,5.585396249007568592e+00,5.445908609563915981e+00
-5.941849274598220293e-02,2.514491821940913141e+00,3.779540520705655937e-01
-4.371456428126310745e-02,5.887719750125486762e+00,5.875170652376211500e+00
-1.242302180975300707e-01,8.872228558889609928e+00,3.815670449891856997e+00
-2.017198280927508414e+00,7.841603116128871065e+00,2.332891839716966675e+00
5.221868655643333579e-01,5.121710612563165621e-02,1.800032326963056706e+00
7.290217944547545681e-01,5.944596720739772522e+00,2.976166178705025089e+00
-7.186305786245109628e-01,-6.136220790025381788e-01,5.016215563172521819e+00
9.011546139579230674e-01,8.122977702084881457e+00,5.836863603487413066e+00
-1.174398299807409396e+00,4.879481315331610780e+00,1.063641508807517511e+00
-2.033822838188727999e+00,1.071045329486783437e+00,1.744285485542864667e+00
-5.047988383645046762e-01,9.049114564727954502e+00,3.067010080838490804e+00
-1.335491855665541072e+00,1.141572519875249325e+00,4.150639295533695261e+00
-2.016602274033185704e+00,3.282723719912992166e-01,1.604711058797153145e+00
8.855217009227400737e-01,4.180795545402794744e+00,3.021132890162288476e+00
-6.008286137224424367e-02,1.401917768431593769e+00,5.123780304565749510e+00
-4.342975635348602093e-01,2.336605657707414352e+00,5.441273498089057803e+00
-1.831554289703033911e+00,6.216728425719077578e+00,2.802520693573200994e+00
5.595609934026406496e-01,-5.436114089268744287e-01,4.173541301706970685e+00
1.436883765862854712e-01,9.151935549159771810e+00,1.580775007426872714e+00
-7.887127440691045210e-01,9.202836969115709920e+00,2.104456989131333611e+00
-3.885973699667671366e-01,-4.620412311087363499e-01,3.106694083427154141e+00
1.068197320826378416e+00,7.034850852617780426e+00,4.278987854047385575e+00
-9.906842016480721380e-01,2.549748870671996737e-01,3.968919605692128871e-01
-8.444444820907872629e-01,-3.820667145238411111e-01,2.799996788049675445e+00
-1.377215998649908180e+00,9.054223620403579531e+00,3.053417014366329951e+00
9.042222439185326754e-01,8.730247541246768606e+00,5.709104176681865539e+00
-1.775435469349059936e+00,6.193556001273338829e+00,2.710596868022372874e+00
4.454676738498018485e-01,5.922555612262286218e+00,1.715635701510848543e+00
-2.926128562085342222e-01,-2.833627398535691344e-01,2.021787403867516986e+00
-8.291554564477569000e-01,2.482319053208993154e+00,4.921339320393944283e-01
-1.554567901568160826e+00,-1.636545016965729876e-02,6.573435463715439075e-01
-1.597545147630319740e+00,7.442670622700678251e+00,1.556885273667389269e+00
2.463777521655917957e-01,1.704834865208958439e+00,9.341532378679697768e-01
1.822040629532432066e-01,8.141889649160916065e+00,6.090298590202512408e+00
-2.072052298312792917e+00,7.799749232046725211e+00,1.774704931887249426e+00
2.771273624210389697e-01,8.911574910719862075e+00,3.815622368410576559e+00
2.573750669920309986e-01,4.038403333785757221e-01,1.016172510572110443e+00
-1.880450740969176193e+00,7.199433714675053331e+00,2.636055912825112646e+00
3.478794856947134417e-01,6.184932564420972056e+00,1.544284588057891039e+00
-1.439717598017179245e+00,5.612940038866773840e+00,4.067805740684028670e+00
1.032503472529381794e+00,7.105402834725421890e+00,4.047225421323465966e+00
-8.265926691373639557e-01,-2.177786557751589525e-01,1.057269717799298459e+00
-5.809646777157083664e-01,-4.148858795448532866e-01,2.932569016925218985e+00
-1.176637391861927062e+00,-2.379982381528091551e-01,2.056359688339108427e+00
-1.084797100823362337e+00,7.339067799347091636e+00,5.523901186976477362e+00
-1.364164116310432551e+00,8.841530692748346354e+00,4.228009039854224049e+00
4.277708360297886592e-01,6.295458370591658692e+00,5.752531217177821787e+00
-1.567095528987802799e+00,8.785941434706140640e+00,1.759897171328638654e+00
6.034069490958992033e-01,-6.611493073503305062e-01,4.606308854199631320e+00
1.104066551100889582e+00,8.633254736023488363e+00,4.704794546604358807e+00
-8.118185846928914762e-01,8.995459063156545199e+00,3.256211398824970793e+00
6.043157706544144414e-01,4.010452820312521816e+00,5.298256842355616669e+00
-1.493107944890322392e+00,9.821523117764825728e-02,3.261358887959334041e+00
-6.661997178102148087e-01,6.276869992788791208e+00,1.192269506848564031e+00
1.255850499790413938e-02,-3.572195165801357875e-01,2.675547891484819640e+00
-1.923489702406134816e+00,-1.953586263102418952e-01,1.091266667936594326e+00
5.028584316606405924e-01,4.191621703527975029e+00,2.105668988450249746e+00
2.417263122121860452e-01,-7.110997855593075290e-01,4.731605877072754041e+00
-1.769492214027883925e+00,-1.982382972004931576e-01,1.626939569450133405e+00
-4.981204773400531027e-01,-4.082122201847561693e-01,2.771890260730784039e+00
-3.319630039077426931e-01,8.657544578081301623e+00,6.199838996857212514e+00
6.613592846475192522e-01,-5.358647062230704750e-01,3.598662737235077014e+00
2.959948467266361183e-01,-5.786123895119746896e-01,4.742858949527752443e+00
-7.630830802550466752e-01,4.875375160636432170e+00,5.864073236775333875e+00
-1.147362062942570260e+00,-1.911187498697633144e-02,6.267600626197461500e-01
-2.116396463781119675e+00,1.735824548941268919e+00,8.424012491673602554e-01
-1.435178417883944846e+00,1.385884262348358265e+00,3.776712923828542845e+00
-9.773459841169195306e-01,3.099443922662416528e-01,2.905409548104223583e-01
-2.812528868502247037e-01,4.827158190345371302e+00,8.014160093455189315e-01
9.665912898203578019e-01,6.910317973902381894e+00,4.245617934911646074e+00
-1.379336430453239892e-01,8.596620782277016204e+00,6.211190450283909925e+00
-1.212623116795400247e+00,2.399822790334012801e+00,4.638017268447918617e+00
3.672578694921132536e-01,-1.585063835197506044e-01,1.383918017154141644e+00
-1.846016318215790708e+00,1.531837925979688153e+00,2.686005829277568147e+00
8.952172054239248000e-01,6.045722589376805178e-01,3.305647497659275569e+00
-9.213734761834178055e-01,8.775300365547455073e+00,4.869946678751388092e+00
-1.156414970071224069e+00,9.156081045173539934e+00,2.682273315761265042e+00
1.072097626732622766e+00,8.487977657806336396e+00,4.635387152972092473e+00
8.482469805564789864e-04,1.658375495449136539e+00,5.208272097857454597e+00
-1.548096732451048063e-01,7.416565484752732473e+00,1.136284841595073702e+00
1.147515694670220743e+00,6.473300152718292289e+00,5.623630285860590661e+00
-6.898855210251789716e-01,5.260441109361845058e+00,5.936162212673407268e+00
-1.428312923136795254e+00,6.067300202955148158e+00,4.287804611623508677e+00
2.265093124300640581e-01,9.041346369379416714e+00,3.342881392644669436e+00
-8.402894473028541533e-01,8.764625238486036807e+00,5.367027010984772417e+00
8.319155221585440296e-01,8.605039910651766988e+00,3.622201363491273529e+00
3.497116445168633181e-01,7.324475499890807484e+00,5.993363499958280549e+00
-7.994343774553579474e-01,4.569288510406576798e+00,8.678477545002518667e-01
-6.494605788604217445e-01,8.901791400066114690e+00,4.235857536887118968e+00
-9.216964199628109311e-01,8.950594096111307962e+00,4.005296918882897295e+00
-8.788246553142672335e-01,9.020069401155673461e+00,3.549359907910604850e+00
-1.212359115524259900e+00,-6.622923342372728783e-02,1.030914830709812380e+00
9.559136270818279213e-01,2.660612560738372601e+00,5.125010296627680262e+00
-1.391731037052136521e+00,-2.671417547745225454e-02,4.030663696465494716e+00
-1.245384525325042624e+00,7.309444579276747511e+00,5.052664471681847402e+00
-4.351860740542401462e-01,8.637581082914479680e+00,6.080263775701146400e+00
-4.712218711420417816e-01,9.062920319252762980e+00,2.102828685682250676e+00
-1.169770400640023800e+00,8.964141169579280088e+00,4.020376113192767775e+00
-9.404927835518934742e-01,6.293381111959457819e+00,5.682566484417875152e+00
-6.654540986941689384e-01,8.539031457114276691e+00,1.560729315548027962e+00
5.909845679501530419e-02,7.805641068854789033e+00,6.082534508640471849e+00
6.384447092356997089e-02,9.033957465075317828e+00,3.125648385068424684e+00
9.170246154354442236e-01,1.940436881868417451e+00,4.934120387755760007e+00
-1.931362083844411215e+00,2.663718577888634531e+00,8.846119111849815031e-01
-2.131879922197368327e+00,9.116998012036839683e+00,1.999176357890433797e+00
5.582090696985686495e-01,6.222174876617391881e+00,2.507430509185346157e+00
-9.033074085471354264e-01,3.530161086531410142e+00,5.732603323169715104e+00
7.462273857390685494e-01,4.751834488862213823e-01,2.756178627919153801e+00
-7.127717916409785914e-01,9.170421195338251508e+00,1.637906292201223080e+00
-2.731260932535575225e-01,5.705696663153617010e+00,5.839110764229648254e+00
1.006468139339527390e+00,1.461088746914841252e+00,4.843208109971819830e+00
-2.599469958488722643e-01,9.177348177691367681e+00,2.275846353736719063e+00
6.616756880638823279e-01,7.816860412096183985e+00,5.987244938870219357e+00
1.068865455669425257e+00,8.761233229757758423e+00,4.687832809911724574e+00
-1.378365143833163886e+00,1.949239949237409064e+00,4.133532202402249389e+00
-2.486595622039732556e-01,8.822268748040835717e+00,4.256944386540218339e+00
8.602560037095783319e-01,8.796951574469902724e+00,4.554851671898378918e+00
-1.279984666221801515e+00,3.499708131052158055e+00,4.478287722144275840e+00
1.606595437151976669e-01,-7.397751107397021464e-02,6.640078892340900429e-01
-1.312538717661631882e+00,7.380834431871562629e+00,4.414532314619656006e+00
3.734519964416599946e-01,4.525173447676690053e+00,5.429925233772856963e+00
-6.836875999649267843e-01,8.149900498304658569e+00,6.418267596578857592e+00
-7.514442836841670470e-01,-5.745764968897579816e-01,3.784205706144641024e+00
7.927460063563606107e-01,5.408379467044071021e+00,3.423462385380815931e+00
1.828523791328127146e-01,-5.078241688787050734e-01,3.597416087149454711e+00
7.076763525742731931e-01,4.743478993767971552e+00,5.387880449978601938e+00
2.158922313859107656e-01,5.959403468430773287e+00,5.840472032528695401e+00
1.229588826405035196e+00,5.433362794709884369e+00,4.593866656617436206e+00
1.256224429332927661e+00,1.340810457238756248e+00,4.653632884517601376e+00
-6.892017544968823684e-01,-6.875807123379290564e-01,4.741297672048457201e+00
7.306950783148770112e-01,2.699086171419522895e+00,2.865190584353837888e+00
-9.260576498105331789e-01,6.898775756820196392e+00,5.827087831748238855e+00
8.446560947925899621e-01,5.110728930079184273e+00,3.326218750781594569e+00
-1.365645788462958699e+00,6.269698592826966177e+00,4.205909398014968659e+00
8.778753312191281966e-01,5.750158536420635791e+00,5.561013150192921195e+00
-1.320519923714609467e+00,8.411725460637351048e+00,1.641557149045213881e+00
-6.763137701116948008e-01,7.952355677878593099e+00,6.355072221282460632e+00
1.476660313366705279e-01,-5.311886766974018848e-01,3.470985409732198157e+00
-7.774003291975387642e-01,8.884033201721448947e+00,4.335897355018733634e+00
-2.152638452533526259e+00,1.250374156087296296e+00,1.181935087874215862e+00
-1.780583480843090927e+00,6.736969482715388091e-01,2.354949643054204955e+00
7.896644950446998212e-01,8.394761972098773839e+00,3.639579963699388632e+00
-1.929018401289064544e+00,9.186083826699693589e+00,2.471986060336958335e+00
-9.849848646991944401e-01,5.089579615050931594e+00,5.564576055457322923e+00
-5.840534450351900775e-01,-3.417539391653307002e-01,3.237180074240171734e+00
-1.441193684115218865e+00,-1.307607786967503183e-01,8.165601646217588439e-01
5.458039134809470339e-01,4.981146511680182520e+00,5.485029028989205635e+00
-6.930908591126593299e-01,7.987991281651998676e+00,1.483855962876617030e+00
9.134068595605888685e-01,3.674657897954848540e+00,5.220775561016252730e+00
8.092709818334570260e-01,5.790501011821761246e+00,3.138007399110581463e+00
5.303095955333531064e-02,7.670124734411125189e+00,6.096679764825267966e+00
7.763021432489968232e-01,3.502492059313508044e+00,5.230675071450712643e+00
-8.926933486835616494e-01,8.080481485618545179e+00,6.279166837140916613e+00
1.132378415462149901e+00,2.314591193161020577e+00,4.302602117101624657e+00
-1.632582853537225764e+00,8.846979466067823594e+00,3.819554156302335635e+00
2.559229917887551053e-01,4.161215529455269291e+00,5.487899012366745488e+00
-3.582835302589282289e-01,-4.323541189048962785e-01,2.896730954097168187e+00
1.000665625835767403e-01,9.042997427736182203e+00,3.548765501816978585e+00
-1.140168105385235719e+00,6.772021897245342537e+00,5.151228772620773277e+00
1.256046960580964322e+00,1.875519168092947053e+00,4.302123625020188413e+00
-1.180643301514666454e+00,-4.406933889644328306e-01,3.241185017450865846e+00
-1.355423225616750216e+00,6.370043619172760962e+00,4.127102980856893311e+00
3.346504504661907409e-01,8.846143946666112257e+00,4.438945233111127209e+00
-1.433278570705415644e+00,9.106223609795339513e+00,2.991013368944864137e+00
-1.944840050558705791e+00,6.815075655858906067e+00,2.605345220485207669e+00
3.860950594149301085e-01,8.975323957955039234e+00,1.993740860379803026e+00
-1.130305253509393815e+00,7.025493075835867351e+00,5.407138261858837502e+00
-6.212572531909541507e-01,3.233594641106548595e-01,5.122664136534341495e+00
-4.308408431783413151e-01,9.600846216843423875e-01,3.304101993954798866e-01
-6.450355964670773101e-02,9.199624965860989434e+00,1.613005620139502216e+00
-1.087157751453206922e+00,7.144592492075348744e+00,1.330663291870770149e+00
6.643167789031092507e-01,8.760642878283245949e+00,4.991501001814365956e+00
1.007122901011224148e+00,1.196626969097670745e+00,3.743944487797413512e+00
-9.738396834559005510e-01,8.121565692488079691e+00,5.943619484503934736e+00
9.156694392044443243e-01,3.705682341799879875e+00,3.578181545969899346e+00
-2.075354593120093849e+00,5.410143387524287917e+00,1.612345720382131642e+00
-4.043062295032592846e-01,5.725231632061457354e+00,9.509751029195029348e-01
4.259403567484729147e-01,9.106883578520692524e+00,2.702829195026126285e+00
-1.099599396221799141e+00,9.188662154791771286e+00,1.662817868918927244e+00
-2.742678567025912395e-01,-2.896252300012928105e-01,2.356320349420951032e+00
-1.298156525356952251e+00,9.316999693536645921e+00,1.782340176282693367e+00
1.938716724854349371e-01,-3.842805337193303528e-01,2.191172127993163521e+00
3.801242714859636718e-01,7.241427964338821077e+00,5.981105737938920086e+00
-7.495204377687711972e-01,9.179946950142984008e+00,1.948065615604452017e+00
-6.930218578363244175e-01,7.827708544735149099e-01,3.952852356221666086e-01
-7.618248020997507863e-01,-3.630849749632703571e-01,2.653133090522397097e+00
-1.155674279269493843e+00,8.426265853402435724e+00,1.601764722072165359e+00
-1.411020862118574914e+00,1.424362855951365248e+00,3.518515791681948723e+00
-1.277366840865732101e-01,2.616024625026309280e+00,5.335473238079844194e+00
1.370548700976107037e+00,7.061923381992847304e+00,5.629604303132663468e+00
-1.275220690390610923e+00,7.784503634851936305e+00,4.577973958878274630e+00
5.375867126259535889e-01,9.044752269895010244e+00,2.519300490140767401e+00
-1.494267002378408815e+00,9.142123894330744349e+00,2.718552149186932443e+00
2.143274858725216225e-01,-4.300846890383470678e-01,3.120362216422929880e+00
3.625767410479902586e-01,5.871483119836320874e+00,5.810349270383076359e+00
-1.674072769401812932e+00,2.952977183624064583e+00,3.174553085243771555e+00
-8.588901792890656361e-01,6.304879204899434875e+00,6.100903734245066268e+00
-1.207522009277559372e+00,-2.675013861681879157e-01,1.675654603632783735e+00
6.085087642582370782e-01,-1.549206863400217626e-01,1.878012372187708667e+00
2.563842022252967312e-01,1.796265310750005950e+00,5.101487689151433358e+00
1.188780359635237982e+00,2.107621720390564224e-01,4.574021446620353260e+00
7.396542918808006462e-02,-3.372778455925186658e-01,2.104269214750040806e+00
-1.854495242469182070e+00,6.454332045040145793e+00,1.542075454236408572e+00
-6.267342326937981323e-01,6.779545602140414573e+00,1.237147175458752191e+00
1.094836403346385101e+00,7.492493619176129549e+00,4.425754039882600743e+00
1.195104373596384217e+00,6.685200939742657944e+00,4.873832382063360669e+00
9.162060953224540061e-01,4.912345196240935685e+00,3.493446947793238166e+00
-1.104919571181487647e+00,8.908123954158732261e+00,3.996110467337151917e+00
1.331296072629288618e+00,8.357285543425719609e+00,5.809367941326983420e+00
8.611891622152085812e-01,4.443801164167664908e+00,3.617406515788634369e+00
2.922827352664046363e-01,3.925391422491057547e+00,5.484529405921684031e+00
-1.385804913321423415e+00,2.603253251938217883e+00,4.035628911515121153e+00
8.503185080031847587e-01,-6.235547310733028370e-01,4.161632153842844239e+00
-1.142543588590845705e+00,3.576718888288813680e+00,9.428839920032725530e-01
1.078153046218156996e+00,6.846906161866758822e+00,5.590374186515644439e+00
1.067569088650210718e+00,7.208860056060538923e+00,5.743707421921082634e+00
1.255043385588242799e+00,2.822134365548975676e+00,5.080421985365433990e+00
-1.535966146900903606e+00,6.241494176692147455e+00,1.392206148121371445e+00
1.016979101854543988e+00,6.253054482452256035e-01,3.299607981316575067e+00
-1.771828039993270654e+00,8.213572354967247691e+00,3.115043988773138040e+00
8.703905041775333862e-01,8.802477401733611373e+00,4.560202971785497716e+00
-1.491995273268545752e+00,9.223735765407203857e+00,1.942726038411651812e+00
-2.091809458608072436e+00,4.582834326602725383e+00,1.494592496131818660e+00
1.014519616833399640e+00,2.552196873836944047e+00,5.042036158475455387e+00
-1.136632087159373139e+00,3.037446616894009299e+00,4.636229057225852657e+00
6.977116908037083176e-01,5.861357006786414026e-01,2.540924588536755735e+00
-7.679141875051054278e-01,-4.691397010275784596e-01,3.544343912920167927e+00
-1.349693512960731701e+00,3.623242174028725504e+00,4.110072224920740425e+00
-2.097321671530290921e+00,1.612364612511155926e+00,1.116063324861220396e+00
-1.667885031913564964e+00,1.700921119955130623e+00,2.907041260934641880e+00
5.257437580239169295e-01,8.344750672747627718e+00,2.693492540507862021e+00
-1.242027780259724601e+00,2.691844538932684827e+00,3.966593433895753584e+00
8.570063897428161770e-01,7.503244396789623849e+00,5.707292509713503215e+00
-1.009461138134799763e+00,9.095961826627656066e+00,2.925774987575991748e+00
-9.627654218785122175e-01,-3.703964023412785744e-01,5.057682858367096301e+00
3.436279375436132599e-01,3.676684981490693893e+00,1.277403779961514996e+00
-2.222738969263248210e-01,-5.665846136824963519e-01,3.830102421536466739e+00
-3.143130794670193628e-01,3.588397782395900126e+00,5.485771926066392190e+00
-1.317811937086981633e+00,3.236373325059371364e+00,8.886471258458282785e-01
6.374749103772769931e-01,-2.651076068915041994e-01,2.366213191479735301e+00
-1.353762634642887708e+00,9.114732036658924841e+00,1.776745185328740151e+00
4.153228747326802583e-01,8.590729576371641585e+00,6.052409880340999138e+00
1.274596465715957638e+00,1.189387311466889585e-01,4.314113439150396800e+00
-3.063257031561017474e-01,-5.297154141020025131e-01,3.514417627421831281e+00
-1.059411362328329220e+00,-1.424550904230584281e-01,7.474015418748047868e-01
-2.882809928769468066e-01,6.070003568793294946e+00,5.871575487404665949e+00
-1.155945585615026153e-02,-2.259472954910606846e-01,2.080092176427275064e+00
-1.074841328040664568e+00,5.611675571916486582e+00,5.037206831863522360e+00
-5.456199761230894341e-01,5.467732550476083198e+00,5.963871544115109558e+00
-7.498309393714323035e-01,-2.817356509872560588e-01,1.996542750318883064e+00
-6.649098544830646107e-01,-1.512950989619450959e-01,1.636966324198273481e+00
6.999890013251254262e-01,4.441427303033541385e+00,2.960818101941725455e+00
1.080945188041028127e+00,1.324735806650658709e-01,4.040414178580972404e+00
-1.325363620775655171e+00,4.410140977640264026e+00,4.178515328395275397e+00
-1.770685183868518697e+00,-9.470954653831427372e-02,8.921776059889644506e-01
-1.219615386595999107e-01,-6.252508145997547756e-03,1.996276721538763621e-01
-1.583192086790067066e+00,2.155317894543057111e+00,3.084827055804121088e+00
-7.568437351904684640e-02,6.078029574662747514e+00,8.680076996260502886e-01
-3.262217774813492288e-01,-7.253013831309327308e-01,4.803608383798732007e+00
-1.802821591212437013e+00,-1.055093740321751267e-01,1.164509364158874849e+00
7.639051575785215098e-01,5.651441103418581413e+00,3.153092262235521748e+00
1.033078152003276233e-02,8.970690324148000272e+00,3.355723161594939441e+00
7.840827259240796820e-01,1.534627197150456146e+00,4.971853282609772329e+00
-3.405256928314070453e-01,3.198823766769319565e+00,5.889826048652080370e-01
2.610580310292404671e-01,4.686636474054904689e+00,1.164429899020459569e+00
4.669603409830427876e-03,8.627017522123502147e+00,5.662703545646699865e+00
1.330648217626067220e+00,8.685568224271763782e+00,5.668441236756771140e+00
4.754048164226795103e-01,3.633375123884600821e+00,1.865876440587084906e+00
-1.972494842918553815e+00,1.839241650392950067e+00,1.601543630204643076e+00
-1.870431211416621720e+00,3.525525686845575546e+00,9.675796958519233826e-01
1.542470967859564668e-01,1.309241952481003501e+00,5.048534101830560950e+00
-7.142801349114386023e-01,8.011172236823330906e+00,6.355071476042124523e+00
3.520735248015463004e-01,5.670608057561609128e-01,9.547966932930227468e-01
-1.780128812195284516e+00,3.979560333868214173e+00,2.602410442952094893e+00
-1.685260822080721477e+00,7.218275049124342146e+00,3.402564446634927187e+00
7.998417126960148948e-01,5.723285097644915886e+00,5.623295351183525526e+00
-2.829333155962187596e-01,9.007116179188304983e+00,3.441726603555354647e+00
1.315856489505210281e+00,4.924262212945686557e+00,5.197829941321291614e+00
-1.683990008151514894e+00,2.507557093047505958e+00,2.829463358203025969e+00
-5.630540488308694025e-01,4.970352168588440200e+00,8.788505938722509514e-01
-8.605103669644272868e-01,-5.332099349996667348e-01,4.189131089494857463e+00
-1.922030151458192782e-01,-4.469651892550094985e-01,4.934145478449304179e+00
-8.912414897117526547e-01,4.203769858580652219e+00,5.786561177228693786e+00
4.206621920207131299e-02,7.439974615751363096e+00,1.052861828026186553e+00
-4.553999972838945198e-01,-3.745483620716015261e-01,1.703613416429564209e+00
2.483408225703003513e-01,-4.876531450598363682e-01,3.462723716617248648e+00
-5.554649488330579699e-01,5.396437466727205923e+00,5.844347991367081718e+00
2.086837770878784970e-01,4.819878810113008782e+00,5.731859711290575810e+00
-5.625555415884486710e-02,8.848167989567738090e+00,4.225184259482356097e+00
-1.622355636526074507e+00,5.789181877987925162e+00,3.251394643095813386e+00
-1.964558811369324920e-01,4.558696146488089851e-01,4.978759496376101268e+00
1.226457275176948414e-01,9.046726605738882654e+00,3.117991476228426873e+00
9.045287174545665332e-01,4.036165779431654776e+00,3.317145547693221008e+00
-3.002736284886835527e-01,2.247024858688978721e+00,5.348524424627497886e+00
-2.149256182342457411e+00,6.232109051345109840e+00,1.638951599011430726e+00
-1.805284532683778975e+00,2.502966335608088233e+00,8.310441491496350919e-01
1.528834438458969713e-01,9.023014438516943514e+00,2.894564134200375172e+00
-1.838669819534825667e+00,4.320595281952535061e+00,1.167305485483107752e+00
-6.469084432710396904e-01,8.922215615675787248e+00,3.714316841199631014e+00
-1.777033090671085835e+00,9.230103108389123179e+00,2.080369150918104371e+00
-1.562433940000624855e+00,8.976867293581124230e+00,3.336263986497476797e+00
6.095877704715026990e-01,-4.082237185429314907e-01,2.280037376351121026e+00
8.348097151427389395e-01,-2.982067566585283602e-01,2.972797620084038694e+00
-1.757225158251481512e+00,3.036864925885206290e+00,3.000608287907228444e+00
-1.055246022784158688e+00,9.156715288330957492e+00,2.719928518151612629e+00
-8.211681221946214304e-01,5.904449397041925174e+00,6.056314028068201516e+00
2.047394265586107154e-01,-2.654975831503545991e-01,1.787581883781145908e+00
-1.001382355301830840e+00,1.514203115082735085e+00,5.058046182386473966e+00
6.314012016186349996e-01,7.166922997941280737e-01,4.816533736363044937e+00
-1.721212528070122483e+00,7.090048443156302227e+00,3.014289373315806042e+00
9.017309633279451120e-01,2.579054914404039334e+00,3.377027317769532022e+00
-1.190832423495663539e+00,6.733404873176088712e-01,4.553090042673629156e+00
-1.115291804296064893e+00,9.071732991039720417e+00,3.425954403739136733e+00
-1.549182144849146070e+00,3.507969668497007198e+00,3.301543193158213985e+00
-1.464671854709008070e+00,9.079641201153339836e+00,2.582290849935480637e+00
-1.989690629370663322e+00,8.092291662747358671e+00,2.308649505272720504e+00
-4.992419158429782233e-01,8.548626913138409833e+00,6.306796674564290051e+00
-6.334968381293557549e-01,8.844059617712048293e+00,4.894449112149985126e+00
3.818389793819979006e-02,3.610098006118399816e+00,5.508597514198074752e-01
4.266722195292457220e-01,8.072465386403848697e+00,2.050097103311146807e+00
5.643777042281934442e-01,7.147417067525632994e+00,5.889501937754817895e+00
1.043600767076719782e+00,2.861904612960991301e+00,3.996063338665519105e+00
-1.169935988677897498e+00,8.825786832823578010e+00,4.699921735519708044e+00
-1.279500088549940517e-01,9.082272526938860224e+00,2.777239211083899484e+00
-2.130446398515146278e+00,1.300166347893858321e+00,7.133624340738461411e-01
-4.368399013289091248e-02,8.944847086363783006e+00,3.958173518259428203e+00
-8.474394872631287878e-01,-2.171875061644548965e-01,1.749130634626678393e+00
1.126343123034979410e+00,3.995951328826514271e+00,4.362751658703969859e+00
-1.223398553029244606e+00,-5.428500345553821660e-01,4.492077784555140951e+00
5.867992290466267358e-01,-3.377553006871753527e-01,4.761994952723969554e+00
-2.025225260060806498e+00,2.460430402850793730e+00,9.837685768093599181e-01
-1.802311458401538946e+00,6.949160545666355659e+00,2.688665102026492892e+00
-5.727811400291245025e-01,3.697404277125665661e+00,5.682279000757851861e+00
-1.399291409513563123e+00,8.893848673208058386e+00,4.180232318536978298e+00
-1.313002388369275408e+00,-2.539147131340938057e-01,2.197905371375590722e+00
2.775083703783282063e-01,8.789289440821722366e+00,1.688823895475865422e+00
-9.513147706208808022e-03,7.819346041402048808e-01,5.038990119040957616e+00
1.073830937115956008e+00,6.788254361963343086e+00,4.515761743119936611e+00
3.608840108402729951e-01,1.438772694580414901e+00,5.004617377716110482e+00
-2.087444247533213060e-01,5.220044083012233216e+00,8.227486481296688581e-01
-1.585006826447654671e+00,4.214626924292440791e+00,1.018054245659931967e+00
2.775588130965526146e-01,5.249744738864761118e+00,5.676493725524855982e+00
-1.645864425099922146e+00,9.237093635425146942e+00,2.082731274323628590e+00
-2.073063535768883803e+00,8.096549822087176551e+00,1.866959931650144178e+00
8.301894504279242470e-01,8.964978597351500156e+00,3.677733499966651110e+00
1.070999068188175141e+00,4.952963197711599541e+00,4.336736498703822384e+00
-6.689877532881725875e-02,-4.699930501045317954e-01,3.065144859253877030e+00
-6.479882899149935760e-01,-5.618850444633551877e-01,5.144125634136996084e+00
-1.158529693498433932e+00,5.799436857995168282e+00,5.099335528730732925e+00
-2.000990212255998324e-01,6.801087647317729079e+00,6.009211052855634172e+00
-1.034552241916646187e+00,8.081817756599660285e+00,5.627579799545274319e+00
-5.143455881314643041e-02,1.848105377719972964e+00,3.229265052551765769e-01
-1.511039524628927211e+00,5.484999775659297860e+00,1.256997108930949514e+00
1.183462841895069756e-01,3.593865052839016749e-02,4.895457000268115699e+00
-1.358737143208276876e+00,-2.287594809453693256e-01,2.039259236024908439e+00
3.041741147536792811e-01,-2.844813589918284702e-01,1.838254061227265312e+00
-1.286999314905076686e+00,-3.254836841376508860e-01,2.883843543010946586e+00
-1.176094984648406783e+00,5.826272482511224426e-01,4.726508439964554498e+00
2.726626832997734035e-02,1.484813187988807126e+00,5.103466900787174687e+00
4.406364817198180628e-01,8.132291789719712227e+00,2.247018294380116021e+00
9.924867989551692249e-01,8.696604845732799349e-01,4.739053398159935426e+00
-1.051947074833872398e+00,-1.437584793118930060e-01,7.727232807335213671e-01
-2.022258492717426748e+00,2.912775318407893721e+00,1.917044827734297296e+00
6.209494798255956738e-01,7.872651607353168268e-01,2.348576580775914469e+00
1.073519518341609968e+00,7.374240512822761495e+00,5.727799263615879433e+00
1.298241083479462210e-01,6.676244366118768703e+00,5.938436144923693760e+00
2.212927622072487222e-01,-6.489229634968026739e-01,4.458902715154533958e+00
-1.129587044218328451e+00,-3.494130559061435215e-01,2.831020534366676777e+00
4.914647154415579533e-01,8.833580200506967017e+00,4.255351896634001818e+00
6.230209169602999308e-01,-5.731835984484081603e-01,4.012181618182022014e+00
-2.154203753822248490e+00,8.104621315507325008e+00,1.856770095660125852e+00
1.729211613761162392e-01,8.249232431820924916e+00,6.144594206833565053e+00
-3.464338657792181420e-01,4.207783164937619169e+00,5.618257425408891059e+00
-3.123653385390867121e-01,8.588333882482055870e+00,5.924380994925578570e+00
-1.516863186186954371e+00,3.468772636652028840e+00,3.813404593818765509e+00
-2.481393890847636771e-02,8.499764136582744101e+00,1.184147093618124202e+00
-2.279750001507613588e-01,5.010914929936963524e+00,5.775023353579871177e+00
1.070968611885833241e-02,-4.256847431391394543e-01,2.607607029420798028e+00
-1.258572137980376260e+00,9.130574590681851177e+00,1.982237231859495852e+00
-6.423941735741399428e-02,7.607671868816811234e+00,6.049131657929592620e+00
6.758568919183346457e-01,1.089462250960778755e+00,2.491822858965240695e+00
1.255489810992495014e+00,1.030463862408360076e-01,4.398566361249751644e+00
1.027493794512655545e-01,5.430841779792275226e+00,5.696797774558548966e+00
1.433611496586319756e-01,8.872579443945108224e+00,4.208914861918930939e+00
-4.170207728933197355e-01,-5.383062125523473407e-01,3.395838143965220546e+00
-1.482697440338987205e+00,5.561749783883414011e+00,4.095346989448231056e+00
-1.102357830954779683e+00,8.873687052187449353e+00,4.191512708293592127e+00
-5.436914609737873993e-01,3.282315914935999945e+00,5.701583290275822336e+00
-6.989619735666169342e-02,3.280668565422548699e+00,4.904471426890480434e-01
4.437426847590879297e-02,7.005633201101781893e+00,1.066172617394186783e+00
-1.243190259418010868e+00,3.037150246679976018e+00,4.865017855603325003e+00
-1.981823385531821691e+00,7.141225152659989028e+00,1.633506530608170193e+00
-2.682000728079291241e-01,5.217568350543161593e+00,9.175923679919966158e-01
-3.814887058955147014e-01,-1.772428891148348229e-01,9.241630455417456647e-01
-4.834751083288529316e-01,7.287153705144557847e+00,1.169073501322960063e+00
-3.565513857172007972e-01,-4.306010696338210403e-02,1.992016207575207642e-01
4.350346009591794516e-01,9.023490998875772107e+00,3.158990532094799075e+00
-3.327033748467309593e-01,-5.871635407038029442e-01,4.208324530562148169e+00
-3.551945653260799585e-01,2.583343361029423413e+00,5.218933360031349222e-01
-2.161477960715974422e+00,1.309302331805783259e+00,1.129729817830609884e+00
5.683309195193197993e-01,7.691500635009189679e+00,5.992808065416887153e+00
2.458640862245339564e-01,6.636019980359011861e+00,1.354164405944611849e+00
-8.278694110535218531e-01,9.023789814447697566e+00,3.255778100285902976e+00
8.473984050508448496e-01,6.023778182445732376e+00,3.898243819094008078e+00
-2.316551920804431619e-01,-3.255164292971185480e-01,2.447738612641546574e+00
-1.365628970481717719e+00,-1.369860960159194618e-01,8.513819553241757099e-01
9.345640974771145526e-01,2.364328276787760197e-01,3.341696678229284068e+00
-1.203144061810331455e-01,2.261639572347442062e+00,5.275243320305773587e+00
8.148752273442615435e-01,-5.800537441605319033e-01,4.334759101335703413e+00
-1.848800201059389581e+00,8.356790072760816201e+00,2.517518819391591389e+00
-8.028522915964365625e-01,1.286463902638451007e+00,4.811541910343368755e-01
1.572667777368239594e-01,6.199115697580435125e-01,4.037497035803641054e-01
-2.009465015660162557e+00,5.952784389114325059e+00,1.796381883358266540e+00
1.173125150273764072e+00,1.171760786199068372e-01,4.139262720709266041e+00
-1.329398617028199059e-01,8.875495949389950567e+00,4.446867875702507966e+00
-1.199214907889605719e+00,-5.487531619520807924e-01,4.065775720738277421e+00
-1.140159288664535309e+00,3.353363015304165473e-01,3.756016905156806529e-01
1.371844465000326141e-01,-3.136137857204254198e-01,4.769043973461394081e+00
-6.934564156116935184e-03,9.267925924653512837e+00,1.510246616607568759e+00
4.949206132138205816e-01,5.903958318959794838e+00,5.616404083821073812e+00
-1.434680280443237033e+00,-4.958485055616861925e-01,3.263117058451777019e+00
-2.056667401313335031e+00,6.597653301427101047e-01,5.946382295480385771e-01
6.062446745008213123e-01,2.906205207090436726e+00,2.462131711053155314e+00
2.272828612025994816e-02,1.276052629251311243e+00,2.957222017137888792e-01
5.577149942604956445e-01,-5.722844879576032273e-01,4.116171173879424217e+00
-9.940203367794123168e-03,-5.632589595186947296e-02,5.758597562833186467e-01
6.962735673762567856e-01,1.227846186017943209e-01,2.259818343060911339e+00
-1.999379006042696361e-01,8.818041735031741268e+00,4.406359204477624303e+00
8.483473565862017507e-01,4.315527729625082465e+00,3.251262780130848906e+00
-3.160149085601732244e-01,2.211807608961145810e+00,4.177912128421532034e-01
1.363347450329555899e-01,6.899578406432904210e+00,1.031378191002963352e+00
5.075764635419441895e-01,1.289883052758448390e+00,2.211486248354543438e+00
-8.813540901926757154e-03,8.697743948801459624e+00,5.622302282988187017e+00
-1.002020498004241977e+00,-9.509119415594086133e-02,7.218755376443801719e-01
2.390172616016807694e-01,9.248528171081439098e+00,2.417056174491440057e+00
-1.451372077311100295e+00,1.605649611945621613e+00,3.486096809034199495e+00
9.114885572424480387e-01,1.104209497783547933e+00,4.763860711436276318e+00
6.224330825511352749e-01,4.475105026319790902e+00,2.683536806990180601e+00
-1.064584768128626902e+00,9.059102771194249115e+00,3.371921170664354150e+00
-7.557759548449617393e-01,6.559873455611517912e+00,1.200128375670044933e+00
-1.255623645892520956e+00,6.248348370987418798e-01,4.182252942665344086e+00
9.321916882229254186e-01,-3.056836782763068250e-01,3.673497984991382470e+00
-1.068844572586498787e+00,6.489465024866611031e+00,5.210026487643969695e+00
-1.585316410638437867e+00,1.077271433639916065e+00,2.876165602776548091e+00
-2.038083885783385174e+00,1.510048585126202214e+00,7.760969738292434750e-01
-2.162587714976682118e+00,4.924734161650789588e+00,1.385020776304315415e+00
-1.488411710946702771e+00,9.192586617692109385e+00,2.779394117884424809e+00
-8.762370886028428840e-01,4.530355854346237443e+00,5.877125408753002489e+00
2.466498541035133385e-01,8.846084610068556842e+00,4.469269191915300254e+00
-9.194430183674492385e-01,2.872995648972790583e+00,5.574961740858880965e+00
-5.052889894594803089e-01,8.246080690094045096e+00,1.398572878228000027e+00
-1.877066513270516657e+00,3.947020792275450329e+00,2.532527903450404683e+00
-7.403473889319772683e-02,4.513538496708291881e+00,7.559234999923126752e-01
-4.045955190498934928e-01,-2.962182560051497826e-01,1.253763445074991045e+00
3.022874535125367190e-01,9.069569912405066603e+00,3.421901717193260417e+00
5.378838262823066874e-01,4.927191860302110982e+00,2.349070490553662349e+00
1.780907382543840400e-01,6.372845520764397698e+00,5.845390820006851840e+00
-7.900956525533925356e-01,1.272082452717935963e+00,4.378087796105658014e-01
-5.343520370269043696e-01,7.378601432488033574e+00,6.168150017261862850e+00
1.897182946469266884e-01,9.181351820646424855e+00,1.964581799501587289e+00
-2.774677316506709013e-01,3.661117519735083370e+00,7.155179489815688409e-01
-1.772438926653951086e+00,6.902576020257004785e+00,2.895101742023977298e+00
6.672301182213478121e-01,4.886966008442965581e+00,2.929484051205339945e+00
-1.186944241966639835e+00,-3.177414641298726972e-01,1.825102721695502472e+00
-1.682154318308066943e+00,9.325954937468369010e+00,2.022794297889216608e+00
-1.619086841240761743e+00,-3.392502001161894487e-01,2.433124318342292813e+00
2.397371038457762338e-01,5.330114189885267528e+00,1.155918285888472008e+00
4.615047695249424042e-01,8.881695154659563940e+00,2.205875764002122708e+00
-1.938808209966589979e+00,-2.050748031976652452e-01,1.592349826000620583e+00
