-3.669745262637788663e+00,-1.636050318462882958e+00,1.288760277310099411e+01
-9.481037503343898720e+00,-2.304573040976372056e+00,1.417618337303422393e+01
-4.481467337554657426e+00,1.578185254335776166e+00,1.143750914775695193e+01
-6.132548982808238236e+00,-2.709167021837054712e+00,3.152159016404587621e+00
-1.138328893646130702e+01,-1.844010842103700476e+00,1.478033775018359286e+01
-1.316071160779424432e+01,2.714254753481362137e+00,1.064668496623750293e+01
-1.475785773695983849e+01,-1.055859683171667340e+00,1.316643603132022022e+01
-5.212433390474698669e+00,-1.814121417576873840e+00,1.387278714020752979e+01
-6.857181094575583558e+00,-3.249564703076180283e+00,8.681122303157053466e+00
-9.960020617883827754e+00,-2.238123576249874347e+00,1.516017905117126752e+01
-1.121474241385351434e+01,-1.633691575866597079e+00,6.404675973011952905e+00
-1.252166378621939558e+01,2.688662898520204791e+00,9.736359367765235362e+00
-7.634442194421944272e+00,-2.890165461589904616e+00,1.052566851843567086e+01
-1.263401320351064427e+01,2.816633256799581986e+00,1.489510668857842113e+01
-2.301688613592312027e+00,5.394753476301614725e-01,5.348077324354510331e+00
-3.794844640557067716e+00,1.068993565925709488e+00,7.076507039521003684e+00
-2.103703394487030476e+00,-3.314834938680921272e+00,1.191076219045480755e+01
-1.140029569480370064e+01,2.346318928082938626e+00,8.257055222386473048e+00
-5.909365560179183241e+00,-2.389423795196062628e+00,3.207596943420764735e+00
-5.303317635365074167e+00,1.638601233739195973e+00,1.208991851885738100e+01
-1.185626714389408853e+01,-2.262044044103102447e+00,1.074356047471736986e+01
4.853836521470508147e-01,1.935080232269973111e-01,3.352591987463464207e+00
-9.861154548968280587e-01,9.190123207386530213e-01,1.131919924718938120e+01
-8.717753421612860265e+00,-3.031071027527464601e+00,5.844131364257394878e+00
-9.042667681626861409e+00,-2.918552973770220049e+00,6.907522183802704774e+00
-5.093066880413025244e-01,-1.140826487672922385e+00,1.096400785726333993e+01
-1.842005170152550608e+00,-4.219936866748986937e+00,5.415306540188260520e+00
-5.925452005945446743e+00,-3.614961614182359728e+00,4.265394264385967027e+00
1.170660436585084119e+00,-3.942087526857184887e+00,3.483608254925742997e+00
-1.329410037963967106e+01,-1.739177438427256028e+00,1.554205205940702150e+01
1.238210942077308641e+00,-1.714405085998173206e+00,2.695509152499885985e+00
3.112537260590915622e+00,-1.488887536135244272e+00,8.989878944917220949e+00
-8.663220121697479570e+00,-3.135325250681725073e+00,5.883131330220185973e+00
-1.301314723199308077e+01,-1.022287621361328114e+00,1.616897917044438060e+01
6.255498543637457720e-01,-2.929842739118597716e+00,2.257111318221061591e+00
-1.616559668221028367e+00,-1.217501243030693292e+00,8.211692800686518634e-01
-4.106527601075924849e+00,1.166988375677332046e+00,9.699606691595292318e+00
-5.009307024954907206e+00,1.035673289081285420e+00,4.864169889453886064e+00
-1.049854427697242976e+01,1.567441511749631644e+00,6.073715320658943817e+00
2.256752756963477324e+00,2.587142086397488661e-01,9.561535771525660365e+00
-1.486224663495555376e+01,-9.287454573292899807e-02,8.435441923663956842e+00
-9.644423206678592209e+00,-2.398562272018693875e+00,1.337716053142435157e+01
-4.978571471538025150e+00,1.290699103688257132e+00,6.496839754833444225e+00
-1.302722464384747880e+01,-5.007035294045256157e-02,7.396027214612405309e+00
-2.890972373400304551e+00,5.541682209504376067e-01,4.254266598129973431e+00
-1.205647389545823289e+00,8.099280275160626319e-01,6.225797908615015253e+00
-7.018583843772013608e+00,-4.917985130581877806e-01,4.066992014594844385e+00
-6.775695537025714366e+00,1.833635110738638163e+00,1.258102450089703694e+01
-2.115075065912058072e+00,-4.282464626231158533e+00,1.717438108000400643e+00
-1.220224178859677977e+01,1.886030121011816663e+00,1.684792421420840469e+01
-2.200816344941255220e+00,5.379006104959883627e-01,4.558461448121726711e+00
3.205089870731969159e-01,8.287247341512772592e-02,9.980168010938974543e-01
-7.510041425822150396e-01,-2.532609645095691864e+00,1.120793785879838822e+01
8.898666721371091270e-01,-4.736585316457220252e-02,1.030465962870003693e+01
-9.408160098234542801e+00,-2.810280443662666272e+00,7.492372902071951835e+00
-1.328906364894425529e+01,-1.654288172759931230e+00,1.521236784793496888e+01
-1.233288266058525728e+01,2.901260175364009264e+00,1.443858632028186761e+01
2.814111952439408704e+00,-2.218304929935786429e+00,5.821946634412118016e+00
-1.953358719285646528e+00,5.805604130349270031e-01,2.938527979906365495e+00
-1.194350981963305891e+01,-1.981466814654913700e+00,1.324736225171955795e+01
-1.232978162756439344e+00,6.071836739800583471e-01,7.296951093847050984e+00
-6.443865658609254865e+00,-2.694165719440610118e+00,1.427799560320295669e+01
-1.496447503524853950e-01,8.084158389716407100e-01,9.756519050319099051e+00
-1.000865484371536773e+01,3.505671586676908369e-01,5.709955862279810113e+00
-1.533014447860041862e+01,-3.136954273285748607e-01,1.196654843793130851e+01
-1.206838690957665428e+01,-1.778272206855708859e+00,1.566615150058117045e+01
-9.947310805925624777e+00,2.096963035986771029e+00,9.619932467462268377e+00
-9.318117361282574507e+00,-2.892630182293820074e+00,9.198831346820268706e+00
2.025586553263504008e+00,-3.237951110183581616e+00,5.104938483652032843e+00
-4.250072271226798648e+00,-3.179519261801183827e+00,1.220915705994564604e+01
-6.916298519958107072e+00,-2.590794624329020301e+00,3.786700933192077123e+00
-1.537914821018587119e+01,-1.636213445059577776e+00,1.085833313838840830e+01
-5.566531597390634190e+00,-3.190866405347619672e+00,1.030687613602546904e+01
-6.723116002978434480e+00,-2.922956157955631351e+00,1.145010080366559002e+01
-8.503207614785187829e+00,-2.487363832768684890e+00,1.339587894605395313e+01
-9.602922975681602580e+00,2.508790740932688390e+00,1.486857487167674741e+01
-6.816993223220390696e+00,-3.205618930408422607e+00,5.459693699987671067e+00
-2.699413738003074936e+00,-1.386377602102584650e+00,1.234166043738412455e+01
-6.813173013458569294e+00,1.912143322011472302e+00,1.416768313207473362e+01
-6.052796393417708920e+00,1.561692367419108107e+00,9.559835697249637221e+00
-3.994017315178912675e+00,-2.416556188421085327e+00,2.395404580808131900e+00
-3.071087394432849838e+00,-2.687772707981872955e+00,1.220809784481896898e+01
-1.288902485227251127e+01,-1.463025356183645931e+00,7.346222096427426962e+00
-1.170812569147143734e+01,-2.375351515046248529e+00,7.460245193979649692e+00
4.516091688708901430e-01,-1.439594402130757622e+00,1.067722074383983433e+01
-9.084208936166614734e+00,-3.053823995820264425e+00,5.544712224279939150e+00
-1.251062224885698271e+01,-2.045333491466529097e+00,1.086586203214142188e+01
-1.027834026233157338e+01,2.152563173848396350e+00,6.480815674765835865e+00
-8.372141879837805334e+00,-2.650619559342764830e+00,1.370220447761578875e+01
-4.431709968314931025e+00,-3.725431034169163880e+00,5.208989242364845396e+00
-4.705940960882184498e+00,7.424284946446049194e-01,2.914530328088990263e+00
-2.391061000382489254e+00,5.165103762131638687e-01,3.960918442251056604e+00
2.832951849075486805e+00,-3.293062092265973906e+00,9.218365382880016057e+00
-5.493280576877881849e+00,1.015419679952268783e+00,4.677824351567672068e+00
-1.407001749506319754e+01,-2.041415592953414571e+00,8.287940074627789144e+00
-3.879979250424036685e+00,7.577921284213784414e-01,2.545373325400885900e+00
-8.145456067411418033e+00,2.239301898962070325e+00,1.422668215667905933e+01
-1.988669765359392105e+00,-2.769020826868444640e+00,1.187249443245672964e+01
-6.459620589247964118e-01,-3.460072298829486304e+00,1.118704092704972908e+01
-4.589326492866897311e+00,8.610978993660608483e-01,1.362359473892949957e+01
-9.345557245682233116e+00,1.723438956412340461e+00,6.585994442916987879e+00
-1.322023847626303983e+01,8.894137498777054951e-01,7.397233833442556694e+00
-1.605514476016687841e-01,-4.521539451980266300e+00,2.935520328269843660e+00
-2.268335823730670775e+00,-3.853354551132383232e+00,7.331960554266085950e+00
-6.785961960551658567e-01,4.160384128857572139e-01,6.738078975684180350e+00
-6.691552205591157154e+00,-3.256198338492503730e+00,6.047614562617957823e+00
-8.097385659369257027e+00,-1.155450343164043492e+00,4.628696508049375602e+00
-5.786234999986514360e+00,1.767174930510884368e+00,9.272177259216409340e+00
-9.424978670154285254e+00,-2.634597768098605020e+00,1.185957442060305311e+01
-6.817817974608917808e+00,-2.841312777849857696e+00,1.329766954726114037e+01
8.359930887565614199e-01,-2.542813930757564123e+00,1.031374446733838113e+01
-1.607697260370528625e+01,-1.585311406605738549e+00,1.071624464146931288e+01
-1.571298663757828251e+01,-3.479261114541267186e-01,1.126417225970728175e+01
3.949914804319770489e+00,2.120878875552754395e-01,7.969351424489504510e+00
-1.065417426507299226e+01,-2.307772077496431873e+00,5.917291449862998931e+00
-3.232502879615658742e+00,-1.419714129938109970e+00,1.742286324438091283e+00
-1.018954294779091541e+01,-2.632156192509771842e+00,6.672208700237146850e+00
-8.441446256134456760e+00,-2.708507417484895541e+00,1.098733693882896389e+01
-7.106758884106949559e+00,-1.494897578442696551e+00,4.170689621412114967e+00
-1.028547614793618692e+01,4.262853172775747379e-01,1.667185095169608644e+01
-1.519272092719671896e+01,-9.305928747082884422e-01,1.245502007653600174e+01
-5.018265057793147577e+00,1.465711890343279755e+00,8.020115645908855839e+00
-2.113906750675243362e+00,-2.706848547849983189e-01,1.378078619219524459e+00
-1.211919233998230183e+01,2.778895040929129756e+00,1.196206531887558988e+01
-1.017684604769302226e+00,-4.163630670866818484e+00,8.033717837286152630e+00
-9.323030647568254281e+00,2.260719026447458813e+00,9.777739072879333193e+00
-2.105191576228341077e+00,-2.315767259472141237e+00,1.204670115821729448e+00
-3.971926708378354043e+00,1.233332959320802225e+00,8.976239590226025911e+00
1.731332264800165444e+00,-4.361967384610892395e+00,9.662906384485276945e+00
3.835298634226219860e+00,-1.102774202031975570e-01,8.060245744106762089e+00
-5.181959287537592829e+00,-3.682780367767234608e+00,3.335405759109470125e+00
-1.209761736041816427e+01,2.638157609826380146e+00,1.147825422315121457e+01
4.898606472775336035e-02,-1.963404836838916312e+00,1.071095561560777476e+01
1.814440807804251099e+00,-4.609988322541013872e+00,4.567712059230020216e+00
-9.343803084380926549e+00,2.449619166537166493e+00,1.464795058630114077e+01
-1.212897003553657926e+00,7.954100048228134323e-01,1.037206829222175308e+01
1.210151057615649561e+00,-4.517540981660447486e+00,5.315041828415173697e+00
-8.549643748776222907e+00,2.233590959377452556e+00,1.559833505222456296e+01
-1.062748772102504624e+01,-8.093638002880684246e-01,5.971394824362339371e+00
-9.964272813077207358e-02,4.402361424404196422e-01,5.883031283553984636e+00
-7.329504442957675003e+00,-2.585608841419296144e+00,1.448539742325961299e+01
-1.425696410564139205e+00,-4.537701143292633077e+00,1.755361877488376132e+00
-1.154372730079292708e+01,-2.540557249993570021e+00,7.298994978160417091e+00
-9.869864378613408817e+00,2.228857933842162797e+00,1.020710909034266933e+01
-8.270642848083104681e+00,-2.896535985302130189e+00,7.449740524319431678e+00
-1.652408218153624375e+01,-1.101056891615782130e+00,1.017392271156663774e+01
-4.768951342914967917e+00,1.217743132541571516e+00,7.454474775848516366e+00
-1.398210527435609940e+01,-2.632417997000427445e-01,1.422817966964836423e+01
-5.833023017738262261e+00,-3.254617072870309435e+00,9.541099544314793235e+00
-1.349029783632450830e+01,2.897707283793947486e+00,1.376347107680430248e+01
-9.813516085856354820e+00,-2.632303680499999743e+00,8.292351345054111533e+00
3.403225789947609048e+00,-2.227600501147287471e+00,9.045152558819610888e+00
3.319544910200244558e+00,-3.227175587180748373e+00,8.904125772816296802e+00
1.749163878383497739e+00,-4.701362895471254966e-01,2.937679123372538559e+00
-4.835508220962808079e-01,-3.258762051310383878e+00,1.094069404293646386e+01
3.078469879750660443e+00,-4.670900095061441881e+00,8.223940521751403665e+00
-9.296854664655590739e+00,2.397142414392017695e+00,1.415339920417832076e+01
-2.818689229709538058e+00,-3.975261445864667564e+00,5.768676771538243209e+00
2.843950271349492631e+00,1.845642333695723947e-01,8.134676918475758356e+00
-3.878435931616612820e+00,-8.345346592748525971e-01,2.296085060307149650e+00
-1.271125328988255987e+01,-1.708804491511593193e+00,1.464067588625571048e+01
-1.193319772553661018e+01,2.933368376773017427e+00,1.695937793001906257e+01
-1.424244810426137242e+01,-2.457974799041789116e-01,1.347129876560060069e+01
-1.278701338489277006e+01,2.776888139427288849e+00,1.188365817194710594e+01
-9.548697062462137453e+00,-2.914035463022108807e+00,5.804931858334973604e+00
-6.971597222255795145e+00,1.645120239750720748e+00,7.470321855003425604e+00
-1.414007478991098310e+01,8.269282022975794622e-01,1.339232764251419461e+01
-8.639310232548874424e+00,-2.610096348567798596e+00,1.327042598692712083e+01
-6.929610179286326499e+00,1.584028486448800788e+00,1.013004077481352461e+01
-1.609564363532601350e+00,-4.091143970477593150e+00,5.106926836232992706e+00
-8.545833322648791475e-01,-3.979639723470196788e+00,9.457738537357252895e+00
-4.740771214160757197e+00,-1.219051930793007665e+00,1.339584741053272232e+01
-9.955593990573504470e+00,2.372879627221339494e+00,1.118699339702301820e+01
-2.239868288173008093e+00,9.219316083704600651e-01,7.451664497915317042e+00
-6.100180519354355013e+00,-3.295967232377210010e+00,6.092684490895987182e+00
-8.080966563402800062e+00,2.246180816756770504e+00,1.516426388269198533e+01
6.876921195094345407e-01,1.103463989406649748e-01,2.873250467397194363e+00
-4.029020318840577985e+00,-3.140511771695636334e+00,1.213358232559293093e+01
2.456830947165095314e+00,-3.521351724260489480e+00,5.571129889754443454e+00
2.526336277944836173e+00,-4.113024344641577734e+00,9.437232299782552403e+00
-6.605795181255772475e-01,5.327946677843585777e-01,7.511004902799845340e+00
1.416792970557737841e-01,-8.940980853745690293e-01,3.706213175158306061e-01
3.715435824251580588e+00,-2.227961897505558175e-01,6.496563092248679894e+00
-4.124957521476116717e+00,-1.317493793933571800e-01,1.344121237094151944e+01
-1.233359848586604457e+01,-3.073037616268481376e-01,1.690199747356479776e+01
-5.455637368191595726e+00,1.088900858288315288e+00,3.458672119515675547e+00
1.351200643578546634e+00,-7.508779090780680343e-02,1.010519529660431992e+01
-1.441050327436819956e+01,2.873698575919838127e+00,8.697110267512288218e+00
-9.522576164612399197e+00,-1.259205080738243554e+00,5.335040846582834284e+00
-3.164635645063493818e+00,-3.719828108381322274e+00,6.615394015304095099e+00
-2.822775920184566356e+00,-3.734640743911455729e+00,9.163331485861650805e+00
4.134082395929133291e+00,-3.458298027985610812e+00,8.263780462523769188e+00
1.029925076386604799e+00,-4.621598041471393081e+00,4.115204023193667737e+00
-7.505039565252117129e+00,-1.770684645936877688e+00,4.095242999565821940e+00
-1.308174065168829081e+01,-1.612367444914021064e+00,1.618432975443682409e+01
-5.534829692462562178e+00,-3.026995633132726571e+00,1.354641365028497724e+01
-1.315728378822265654e+01,-1.777557927366794521e+00,1.243216580811617256e+01
-8.138098919428363942e+00,2.030225055644668597e+00,9.383349281718095014e+00
1.361336470735774462e+00,-3.591443809477206095e+00,3.380392785877587958e+00
-1.286052826308991648e+01,-8.301741460696849817e-01,1.633822115075351888e+01
5.066230522996062469e-01,-2.700306069052102576e+00,1.539854932759718631e+00
-8.487125225494731140e+00,2.391225652247235267e+00,1.534283890480225843e+01
-1.263667331675410566e+01,2.832236997229225839e+00,1.423824366219825066e+01
1.678463324960392633e+00,-5.714209476445528679e-01,3.048056196820394970e+00
-8.477116746213697596e+00,2.404444161746326358e+00,1.545364316711491171e+01
-4.789458192586756979e+00,1.553388878147824004e+00,1.132813719225244320e+01
-5.301942917572548097e+00,1.170072530959059609e+00,6.901059824678050347e+00
-6.427140074035778028e+00,-3.045428880299245300e+00,1.004166745915737913e+01
-5.943965541894274729e+00,-3.682918850292281832e+00,4.869230513654530412e+00
3.770689162482243617e+00,-1.941477336376770335e+00,8.587611155596315271e+00
-4.367314242150142078e+00,9.307200124868115765e-01,5.838414537779603286e+00
2.719253783899508115e+00,-1.632919891021975323e+00,9.290688126851822659e+00
-1.338156704352218718e+01,-1.751261450265254371e+00,1.127631072504221521e+01
-1.553784294674559918e+00,5.399114218578436875e-01,6.557098118982856327e+00
1.166415911371168734e+00,-2.325228130963271855e+00,2.959750262763086059e+00
-4.129577430600916976e+00,7.851552301772987130e-01,3.047659312520185626e+00
-1.526806047974115543e+01,-4.622685372941956472e-01,1.232751509437007087e+01
-6.621922170100469351e+00,-2.942392561364395753e+00,9.760355576821641677e+00
-1.598905370744394006e+01,2.663744347194095141e+00,9.695823521020331626e+00
-2.039019152457518302e+00,4.842545096586867714e-01,2.490917260029074320e+00
1.599950003992151926e+00,-8.427073615313994681e-01,9.958578766096600532e+00
-1.369381623797889524e+01,-1.908330037495809428e+00,1.270628479556462587e+01
3.068968420802729913e+00,-1.040067987591602572e+00,5.781422437827123950e+00
-1.177564623116058407e+01,2.484595528427126609e+00,1.163253562560573151e+01
-1.423121718253710810e+01,-4.543035096964103681e-01,1.392169804662931831e+01
-8.850489086739248279e+00,-1.328377611639296907e+00,4.849090998498319927e+00
-3.048513963847024666e+00,-3.270901992302777561e+00,1.590725759279032925e+00
-1.434629880594489748e+01,-1.974696325381936068e+00,9.821905268767403996e+00
-2.606087986341339313e+00,5.662194009144219109e-01,2.041712940891386552e+00
-2.696779879839311445e+00,-2.338173270777633483e+00,1.228339038627195023e+01
-7.162759540658113266e+00,1.810868769636078346e+00,1.276675723740730639e+01
-6.676783660763736528e+00,-3.186625386006951111e+00,7.760016289964354996e+00
-8.201816097456762211e-01,-4.549284292916981443e+00,7.656306706990687605e-01
-1.533422993879503871e+00,-3.394047067856340583e+00,1.170035026400379152e+01
-1.596831395398181419e+00,-4.375592986636976711e+00,2.552083911963634044e+00
5.612464907859425756e-01,-4.210972708125474639e+00,8.893578259986192336e+00
-1.522005553875099615e+01,-1.653279378996195925e+00,1.120593681862434998e+01
-4.168627523116110289e+00,-3.463001959996365731e+00,1.036011614395905767e+01
-1.557082136260676464e+01,-1.859930709704314511e+00,1.085961432680327121e+01
-3.494899347776398990e+00,-9.832059235686584353e-01,1.280693838979420995e+01
-7.402883550866407703e+00,-2.862569874823947647e+00,1.184562140623789617e+01
-6.921103977814760277e+00,3.057057680477791584e-01,1.461457668747653749e+01
3.248825193592783100e-01,-9.767604117701852995e-02,6.638415760889553319e-01
-8.054380332634730522e+00,1.601637334088227727e+00,1.547825066440990405e+01
-1.407196911142313711e+00,5.311834893078644093e-01,3.193294636756462523e+00
-1.606909095347339544e+01,6.646172289583859305e-01,1.029524127487313834e+01
-1.387680162331648859e+01,2.761257511503302009e+00,9.036124121725151781e+00
-1.621750107928096041e+00,1.038828438635019502e+00,1.092311498029453709e+01
-1.418089661071106455e+01,-1.728286645007353295e+00,1.235851540624921086e+01
-8.548904196580213721e+00,-2.793715578230740348e+00,1.247360208745371857e+01
-5.681514533986611326e-01,-1.838607666726568945e+00,3.607672354258822933e-01
2.916453953854162950e+00,-2.122625813722416321e+00,9.111444541468021185e+00
-3.504761507437061940e+00,1.286158052534111862e+00,1.254479331637678641e+01
-1.254041964851067892e+00,9.623573657292662231e-01,1.055031252761812866e+01
-1.304710184173168486e+01,2.859892559193122796e+00,1.457461816336324389e+01
3.130691953654097137e+00,-8.306884349929175571e-01,5.782513674175475238e+00
-3.257691273964637091e+00,5.246338137673121071e-01,2.230406105873282474e+00
-1.358353784105447382e+01,-1.947326073154005632e+00,1.137906346915804079e+01
-1.064883286351092195e+01,-9.303474954770343808e-02,5.932306972133326362e+00
-4.029118991212920164e+00,1.334741900251609492e-01,1.302464392881108957e+01
-1.462126649279139201e+01,-1.582270766361387970e+00,1.254226049121909803e+01
2.760741593528809101e+00,-4.670756897689498643e+00,9.133404063881977564e+00
-6.553947417238508599e+00,-2.918395027753703630e+00,1.181848462282995982e+01
-1.040241043692851441e+01,2.593427857537308423e+00,1.276647821587327947e+01
-6.187861765828725602e+00,-3.492465989005425264e+00,5.476616029495931848e+00
-8.891007852924735388e+00,-3.186012081129256490e+00,5.622828939702803730e+00
-8.900466875272842415e+00,1.178755043816967607e+00,4.784145066062718499e+00
-2.926913848184500289e+00,-4.121513743472822178e+00,3.979926533396254573e+00
-2.286370287831295034e+00,7.099484426311899465e-01,4.366660300323600197e+00
2.470416388519503847e+00,-1.186950836467249581e-01,4.596967794957735443e+00
-3.523831662968914813e-01,-4.454908432791465422e+00,2.131364273938564313e+00
-5.485184442334262833e+00,1.528541285313320230e+00,1.042218197008199709e+01
3.874311722463865237e+00,-3.462327119071080261e+00,8.282154226580779266e+00
-3.828782503716522179e+00,-3.941283674744644028e+00,4.706914778576042124e+00
-5.077351586616549284e+00,1.348670226197172584e+00,9.989398499090240691e+00
-1.369947587059155092e+00,1.101221325361467551e+00,1.109770095960409186e+01
-9.822763501223052529e+00,-1.643591893583861596e+00,1.632678444367443404e+01
-2.039172920789654064e+00,-4.215962088668695706e+00,3.451153684115493725e+00
-7.179834090361485899e+00,-1.323794094913391950e+00,4.109714703759185461e+00
-8.356367224412577954e+00,-1.826359078380137779e+00,1.550337103760317170e+01
-1.535596947695628778e+01,-8.481504388095891800e-01,1.187261213087753653e+01
-6.488227380719565396e+00,2.253952492699541899e-01,3.770537916516758070e+00
-3.442370346503849099e+00,-3.775120697284754190e+00,5.864247080647321475e+00
1.468817090386965951e+00,-4.554612029584742539e-01,2.572320231101489441e+00
-1.035048895102720046e+01,-1.924924949682859543e+00,1.660711860797159289e+01
-1.336134464093237284e+01,-2.161513357619419207e+00,8.551781382917202023e+00
6.367838210094979301e-01,-2.036612702378678197e+00,1.977351799030738322e+00
-8.337846646313844090e+00,1.828283758031622019e+00,7.589662284603620357e+00
-7.831281760724017049e-01,-4.227073162737384315e+00,1.635618809648595462e-01
-1.636657769890663516e+01,-1.380591079063883786e+00,1.041369595849991114e+01
-1.247195415856158007e+01,1.643035790049909572e-01,1.697050717030437994e+01
-3.234618291661707445e+00,-3.522594273457810843e+00,1.238983100705828022e+01
-7.194853974252933604e+00,-2.384471030064216457e+00,4.101499249795011792e+00
-4.691137616852858017e+00,1.306934405122261111e+00,9.720786286358134021e+00
-1.906811641359216880e+00,-3.362121072866980587e+00,1.199210622722292641e+01
1.694753261775716169e+00,3.411540649122300484e-01,7.144347018584788600e+00
-1.318263973067411854e+01,-1.195633634624334807e+00,1.597859885226909071e+01
-4.859251120086351960e+00,9.371102361002182635e-01,3.722704931735584477e+00
-4.777225132965063903e-01,5.947920465378216948e-01,6.100851868888775620e+00
-5.930012540740177585e+00,-3.154247990205210517e+00,1.207387539718674674e+01
-9.242380536878531672e+00,-2.296413957915510284e+00,1.456547026896904917e+01
-3.238579702749954770e+00,-4.111634813614788442e+00,2.471191453770125612e+00
-1.601293670550339954e+01,8.095353324132068540e-01,8.882583054921640908e+00
-2.386297650622383415e+00,-3.918684044666605359e+00,8.007237861375719135e+00
-1.328686964443556029e+01,1.196695259991776616e+00,1.505130886011923153e+01
-1.081687392252017865e+01,-1.860581645478152968e+00,1.571310957741062886e+01
-1.146716226986672282e+01,-1.432177837686801514e+00,6.331074097231040199e+00
-1.652557034544448200e+01,-3.182844680835895668e-01,9.950602695576115764e+00
-2.382171592294831886e+00,-4.572098499229262369e-01,1.204459997542510052e+01
5.429675621172441735e-01,-4.600667668836390334e+00,5.121074555985112298e+00
-1.283670482449777062e+01,-5.352325574792095031e-01,7.267663087386040388e+00
-9.784042185851880902e+00,-2.774927995879648890e+00,7.286518721997084391e+00
-3.259811268104475079e+00,-7.835342574158605800e-01,1.274627449170422544e+01
-7.214422794117788307e+00,2.097756504680612810e+00,1.427760476481831908e+01
-2.085698567881611787e+00,1.117802799252352486e+00,1.044969315884417682e+01
-8.260736755513738150e-02,-2.715308894306741827e+00,1.065347061527367245e+01
-1.006374079530158561e+01,2.055392854870373043e+00,7.684321487190379329e+00
-8.580570754838786840e+00,-1.544142441748170613e+00,1.564400832798203922e+01
-6.105280735151042970e-01,6.433938008245856377e-01,8.836984805114051156e+00
-9.908283416648870912e+00,-1.982996376522905502e+00,1.646893699830472357e+01
-2.652641603870786291e+00,-1.298977118211277038e+00,1.223042366743738185e+01
-9.979255524838064773e+00,-2.683109800655023580e+00,6.438278289921267827e+00
-8.099844477185014213e+00,-1.877454048849706902e+00,1.547169821674289203e+01
-5.140154747859396522e+00,1.175466581187329052e+00,2.945625538425299172e+00
4.112462627303916207e+00,-6.967793188292150663e-01,8.585360713724520920e+00
-6.516682073651551832e+00,1.366599975279685353e+00,4.538678794047797282e+00
-5.167921641559058088e+00,-3.360297664269262352e+00,7.383069857713321582e+00
-5.170106138189908052e+00,-2.994968103352744215e+00,1.234131796262678016e+01
-1.170851038585685622e+01,-2.221228771164649896e+00,1.219875210170595459e+01
-2.879641896428959846e+00,-3.435186661713761858e+00,1.156604613821891014e+01
-1.210940647844424767e+01,2.824001934466469965e+00,1.286633553198915081e+01
-6.932483778459614499e+00,-2.820646965044588228e+00,1.224809854751427274e+01
3.603065180574779536e+00,-1.049306377480178076e+00,6.324684160898639718e+00
-1.397138173976988718e+01,1.291180950116224357e+00,1.367390169642914977e+01
-9.253346830904282783e+00,-1.087049278366725158e+00,5.602346057245839894e+00
-3.487187176499419117e+00,-3.681932830896107234e+00,7.668381191207751968e+00
-3.639568847443932942e+00,1.065508676440670932e+00,6.963061143570610234e+00
-4.321685904093800268e+00,-2.186310176229228297e+00,2.479726628810557720e+00
-1.204847571821157892e+01,2.931675785439825432e+00,1.567047171608569478e+01
-1.010232835923657113e+01,2.423868380270400191e+00,1.235065332739745081e+01
-4.712164964608487772e+00,1.294828587227061956e+00,8.720231727732532079e+00
-6.171770175578686235e+00,-2.850582329755179778e+00,1.400207266852447852e+01
-1.245748711510610818e+01,-1.919575369209554294e+00,1.169700943366930623e+01
-1.442773867972476332e+01,-3.556704692223566777e-01,8.250424065029609011e+00
-6.750344092664654738e+00,-2.944185125952667903e+00,1.165499110687558293e+01
-3.650394784099471934e+00,1.354363571709481517e+00,1.025559911279845871e+01
-1.164181097260009601e+01,2.574718557463912649e+00,1.308902251558166085e+01
-2.310700381793429958e+00,-3.456938872954228525e+00,1.184696881981144578e+01
-1.237320312765984376e+01,1.319982133553328496e-01,7.143311701061376695e+00
-5.494218318190208450e+00,-3.512886563899468406e+00,5.890578840161533769e+00
-8.143991811032838868e+00,-3.164497518316655711e+00,5.132114804376778139e+00
-1.477391861565052800e+01,-6.794849323200676805e-01,8.465104060382850903e+00
-7.464913176854859778e+00,-2.711243008801426768e+00,1.426778475460943696e+01
-4.074950540006857524e-01,-1.951028473229472038e+00,1.385116570223441645e-01
-1.370139443684974268e+01,-1.802500225991115146e+00,1.061791847463162775e+01
-7.510794963797994273e-01,2.692335911786044589e-01,2.573282269977258174e+00
-1.127902172878787646e+01,-1.192055907865645858e+00,6.281224018178447999e+00
-4.378714292510522021e+00,1.307836819284686536e+00,8.278108850371159733e+00
-3.304696194121197195e-01,-4.147590961107170848e+00,6.784201362673897506e+00
-1.529410045784091565e+01,-1.828529110348301678e+00,8.708167036020579843e+00
-4.042339545712660964e+00,1.647568486866809456e-01,1.312561358310076187e+01
-1.486113069919813690e+01,-1.957913688068152691e+00,9.534217336241614049e+00
-3.226473086629845000e+00,1.068385001900105991e+00,1.268547241568487394e+01
-7.774080233917407767e+00,-3.108592744480626724e+00,8.847282319599257150e+00
-4.331320338156767313e+00,-3.483974540317889002e+00,9.882087388278785411e+00
-8.784318356839184716e+00,2.091729632090313817e+00,1.106548594664550578e+01
-1.158276188377869964e+01,7.431159383024033005e-01,1.744071558111083320e+01
-1.483908519596588960e+01,2.678649685051392559e+00,1.180672741778134593e+01
-8.090860939230505977e+00,-2.586631117853484430e+00,1.318350393264127618e+01
1.019311829352198551e+00,2.569352285176406125e-01,3.200685659398660565e+00
-2.895822304533966385e+00,-3.866809611724423501e+00,7.730142256209940221e+00
-3.763583439802191677e+00,1.441628231331132159e+00,1.133136277278422455e+01
-7.171472021244403194e+00,4.080386924589963216e-01,1.500763770560156196e+01
1.265702893545620933e+00,-2.655021175640097209e+00,3.037428458226036909e+00
-1.055201545157289811e+00,4.429969061058741109e-01,4.649332247766695403e+00
-1.048339300031410914e+01,1.340218542323584616e+00,1.697086038748541981e+01
-4.483853657383141567e+00,-3.129462782110169261e+00,1.207893670466635960e+01
-2.912317562304664875e+00,-4.248847272886512094e+00,2.883662848898070230e+00
1.943953654262043917e+00,4.634000728150294290e-01,9.180072898239611590e+00
-4.440500526961931094e+00,-3.075828093908576921e-01,2.568105205759468657e+00
3.472362897039418694e+00,-3.114032071297419435e+00,7.087195591558356433e+00
-8.913249293905893822e+00,-2.625200929824196727e+00,1.101912293399777987e+01
1.654215119146243751e+00,-4.683036269677097074e+00,4.771269592593406550e+00
-1.053982157924738416e+01,2.365020170927419230e+00,1.022131988953876380e+01
-8.269609678143881482e+00,2.642267444080368954e-01,1.530507877246496129e+01
2.155163078641201935e+00,-4.092246897475592782e+00,5.335422889734828367e+00
2.939313164670439793e+00,-1.620296984810616903e-01,5.736432961635959060e+00
-7.491491488794455478e+00,1.955090224565517065e+00,1.504030631168950727e+01
-3.798955514915433707e+00,-2.034309186149119597e+00,1.884922262344915111e+00
-1.317645827373173972e+01,2.771413503244914089e+00,1.448886025670946687e+01
-8.218113808952042021e+00,1.736370959884597998e+00,8.207216588094951248e+00
-5.923217576615836144e+00,-3.192968145443500383e+00,1.029370240384775492e+01
-1.204300047833794984e+01,-1.622398337876918450e+00,6.743512973075589834e+00
-1.545915042829194341e+01,2.109874164305363564e+00,8.827263621503011137e+00
3.060383596272155948e+00,1.225300947678267388e-01,6.742679096029828401e+00
5.492464272796145908e-01,2.057753563559907017e-01,4.043744115666700445e+00
3.554163410221875541e+00,-2.967376226200521550e-01,8.730828315876067336e+00
-1.961283267480339987e+00,-4.245062954867965033e+00,3.000267058741247883e+00
-6.316572448855124478e+00,-1.519071704262258793e+00,1.426391103941558036e+01
-1.301520637635248256e+01,-1.723802902826142791e+00,1.518713838796083948e+01
-3.628796388467778744e+00,-3.528354983086559482e+00,1.042639949062437665e+01
5.716705876009189335e-01,-1.709185334551290181e+00,1.041802296010805939e+01
4.161839826755394656e-01,-4.554145961356380390e+00,2.766027360389607281e+00
-4.595164263140219418e+00,-3.420112824296694498e+00,1.088526141466651609e+01
-4.306729975376440755e+00,-3.694363207570316554e+00,5.255983859593329477e+00
-1.572552754493064064e+01,-1.597756867697663063e-01,8.730999603591421021e+00
-1.609507386772190296e+00,-3.518645767548557179e-01,1.167365229479930733e+01
-1.671903723831672650e+01,-9.089966706078806968e-01,9.454998713051949721e+00
-7.182426753616525161e+00,1.810388390025677641e+00,9.712821427407130059e+00
-1.045609155259648659e+01,2.078887578620660204e+00,6.270984374838414865e+00
-1.571306394887599156e+00,-3.812616880709460143e-01,6.947011670910523407e-01
-7.120977620027836963e+00,-2.342957895394125689e+00,1.484887242551595676e+01
-4.428485385637008220e-01,-4.267061451043028697e+00,3.190599704476315246e+00
-2.044781823925145403e+00,-3.688815774921636148e+00,9.758970861060756619e+00
-7.759868817348610115e+00,-1.455027525610435024e+00,4.611087662442020729e+00
-2.075787066553262505e+00,5.213662087009024448e-01,1.837858154588000170e+00
-1.700039602395294169e+00,-3.768351282310562933e+00,1.004573562012802768e+01
-6.055027747993134035e+00,1.935355018478263078e+00,1.379349662117694031e+01
-1.262027409793962285e+01,2.655624567593791951e+00,1.156527029650198557e+01
-4.747835917697021735e+00,1.341450977765703323e+00,8.524259605510474458e+00
-8.657069838323810274e+00,-1.201250061265011881e+00,1.569404419231436343e+01
-2.718308596446154191e+00,-3.754957539832472602e+00,9.733655866946145707e+00
-1.630552794798593652e+01,5.761446714418018145e-01,9.124089830917307964e+00
-6.805835936202274006e+00,-2.306383040625232805e+00,1.470865495483546326e+01
-7.356365611964567286e+00,-3.011335538003985679e+00,8.072751254696784784e+00
-3.372107718937134013e+00,9.838384284609700270e-01,6.951468575399217364e+00
-1.545376580545247513e+01,2.622787022056986661e+00,8.835084318478218179e+00
1.547050662791379094e-01,8.070385412661064128e-01,9.969814633169608697e+00
-1.247945792483641014e+01,9.759209709425616941e-01,1.609481704542367453e+01
-6.652904088151698758e+00,1.470079245805077539e+00,6.331897485740857867e+00
-3.358815857901982671e+00,1.023181064667000983e+00,1.285131781671399942e+01
-8.635364404229708413e+00,-1.664251133209194045e+00,1.569756320650051862e+01
-1.022887959968935156e+01,2.219499492612530211e+00,1.687245335853975803e+01
-1.192232206517516779e+01,2.013567637482873707e+00,6.835810351795450046e+00
-3.724036841944488252e+00,-3.981483820955292963e+00,4.030505823231859353e+00
-3.809991291521507506e+00,-3.459316058598840282e+00,1.049529247207595795e+01
1.211445375646840850e+00,-4.800231382634423838e+00,4.976437305854062743e+00
-8.237932798045155991e+00,1.649577199503243774e+00,5.755567049416323577e+00
-4.597365304739298608e+00,-1.957926769617336360e+00,2.672438118730400269e+00
-1.422235758526585592e+01,2.810572686882844007e+00,1.213874996764925740e+01
-5.014146136950661248e-01,4.470385414747721775e-01,4.130861085103621377e+00
-4.884978582058064345e-01,-4.567753885123781998e+00,2.086680759396543738e+00
-3.011011329765903799e+00,-5.775346415327801131e-01,1.254950277500506495e+01
-3.721144273371880029e+00,-3.028102606584732737e+00,1.302223194526960093e+01
-2.323835018024976051e+00,-3.710070100259025949e+00,1.135547100924870456e+01
-1.018520196065596117e+01,2.220026652222383934e+00,1.001039248354050670e+01
-1.209494097046357908e+01,3.495871676549834883e-01,1.744792937698089474e+01
-2.005490615780129993e+00,-3.392836024316963961e+00,1.112568380357369602e+00
-2.213478969224449422e+00,-3.873635772261544652e+00,9.792669797049601499e+00
1.504884639259028045e+00,1.758772768674984055e-01,5.346055188095996336e+00
-2.606788086175483965e+00,9.603338925255868741e-01,1.213013949863583640e+01
2.118405429116312799e+00,-2.053168352130928742e+00,9.557574596503419784e+00
3.488640280957315820e+00,-3.393911473172914306e+00,6.953545770301144735e+00
-1.325304624583382385e+01,2.630191693497259564e+00,8.433793970655285577e+00
-2.116406271289636432e-01,1.483813027895330983e-01,2.173309193317466692e-01
-5.371430523957503311e+00,1.417591665014022340e+00,9.414153302653360811e+00
-9.502946783601931457e+00,2.269177100052883755e+00,1.238928127498778764e+01
-6.962198853900948559e-02,-4.186599574602307250e+00,8.904692598838561679e+00
-1.050983480937553516e+01,2.667608456006191009e+00,1.274278562216019317e+01
-6.156308306853192081e-01,-4.356565226095463927e+00,3.002472341045160920e-01
-1.130280787608723525e+00,-4.350032274814410016e+00,2.505093026795038647e+00
-5.583816699801939620e+00,-3.578609401978246396e+00,3.347374778852853616e+00
-3.683237546135512908e+00,-3.276590498882288038e+00,1.287908764721292698e+01
-9.616502386221755794e-01,-4.115831131155078815e+00,5.359488673866530384e+00
1.856860759173127651e+00,-1.750802589518178687e+00,4.366651077552627491e+00
1.081019894943954451e+00,-4.735245211785133357e+00,5.138956438688412121e+00
-5.458525515140965290e+00,-3.713970488317313912e+00,3.157619948468349591e+00
1.719998847852766688e-01,4.414392783505991513e-01,6.832234398675023357e+00
-3.414453966822341702e+00,-3.687385100932518256e+00,6.824956856583643372e+00
-1.091173338527409697e+01,-2.721330184033275756e+00,9.641808754296279815e+00
-4.975619423261721241e-01,-4.613088974183654933e+00,1.021018700254706646e+00
-7.714721168639236737e+00,-3.170525607401200041e+00,7.140690429315433185e+00
-1.141828672526497535e+01,2.627500947270736908e+00,1.469364073408363680e+01
-1.065733438760728014e+01,4.262476796177944727e-01,6.123379440454941758e+00
1.500707299987189991e+00,-3.596002634404860121e+00,3.631051286037088488e+00
-3.419110098407349696e+00,-1.828304144206333026e-01,1.961762106645357218e+00
-3.693683396161187460e+00,1.427042011158807799e+00,1.266404624131565626e+01
-1.268416558213779410e+01,-2.031636385291137437e+00,1.228202431706298015e+01
2.321277191819710595e+00,5.192780992290965125e-01,9.104249946202020993e+00
-7.954913233642671777e+00,1.163975959600302312e+00,1.519471066526420167e+01
-6.036431862876897592e-01,-3.872697764708842083e+00,1.061221386925428156e+01
-3.364958885761892393e+00,-3.465126282807802216e+00,1.074839589941467821e+01
3.582772064035759207e+00,-8.729466036834440112e-01,6.470519500003834246e+00
-1.519651581406126795e+01,1.807567944219370837e+00,1.130682081031473452e+01
-1.129533329229901462e+01,2.677393874047514277e+00,1.138421575466687763e+01
-6.226842499715640855e+00,7.816509605327296439e-01,1.455271965309552940e+01
-5.118837744415247748e+00,-3.226277943940203397e+00,9.065706816042862215e+00
1.998056567126516914e+00,-6.230296780839398446e-02,3.682575397506592463e+00
-1.371465326649716587e+01,2.931501140273010453e+00,1.230623197951675785e+01
-2.482513017721619253e+00,-4.506284495011686708e+00,1.475719294198238218e+00
-9.127268524681852568e+00,-1.907820074882849992e+00,1.608920150345646150e+01
-1.065982893146003896e+01,-2.166947514023249699e+00,1.425525866728930779e+01
-1.779153375211798727e+00,-3.887264356870122395e+00,1.014082623669064454e+01
-5.299018895760174708e+00,1.768015504547284511e+00,1.183791097128255387e+01
-1.296566570319275158e+01,-2.163188487782685243e+00,8.817082076010208880e+00
-1.314273877413757674e+01,1.879300338645763402e+00,7.541610609669667120e+00
-3.398121973246565730e+00,-3.631882476098438950e+00,1.067233413929708874e+01
-6.349018354727971492e+00,1.728894050207048450e+00,1.446245163890113794e+01
-5.085302195989250151e+00,3.263123280532534420e-02,1.378588225809040146e+01
-2.638606077649031878e+00,-2.498609360255511280e+00,1.651702528331554953e+00
