-8.616519674548819285e-01,-6.209749573677411760e+00,-4.661066989845195074e+00
7.299341445934556249e-01,-9.170517003143428880e+00,-3.814793174982817003e+00
1.020697454073506982e+00,-5.294431839151726216e+00,-4.721944532396515903e+00
5.857574831526991543e-01,-4.199646404715664971e+00,6.325363611967855793e-01
1.535224327380323883e+00,-1.004034691963337522e+01,-3.811669992444227439e+00
4.651303243953178068e+00,-8.300408424063155266e+00,-2.810984739926635001e+00
3.245154829213310332e+00,-1.068866167828779545e+01,-2.566753522636246121e+00
-5.098845792084897299e-01,-7.211761612860446924e+00,-4.731088844543892336e+00
-8.728402417315615780e-03,-6.478976026942565802e+00,-1.595107343814530676e+00
8.193707356424150268e-01,-9.680499805724643636e+00,-4.181522005568259814e+00
2.488274647774275650e+00,-7.110191629224438259e+00,-6.686510493826756940e-02
4.516118776374052679e+00,-7.740216835673281004e+00,-2.523899065418173215e+00
2.219242070966295499e-01,-7.330271540039047906e+00,-2.374272745545832564e+00
4.047434423943601089e+00,-9.487588648464965857e+00,-4.900693028000630669e+00
4.604843490932278849e-01,-2.606630669196118966e+00,-2.108005082000740771e+00
1.030401671622239279e+00,-3.670729465446209261e+00,-2.727620033575894443e+00
-2.054148834484539776e+00,-5.639827820131511515e+00,-4.079809795078175760e+00
4.132748196548068798e+00,-6.867154372168792875e+00,-1.990966951801013352e+00
6.448421570767132183e-01,-4.051666780152816116e+00,4.695649259380136886e-01
1.263666941059705007e+00,-5.834369475473760502e+00,-4.861223827148107191e+00
1.955740132087816718e+00,-8.976901185616993573e+00,-1.742135759933899575e+00
-4.504422452230882890e-01,-8.817651650244503481e-01,-1.695639264096057808e+00
-4.838907562060771328e-01,-3.984870730456692378e+00,-5.234801206561685127e+00
1.050644821214977487e+00,-6.233820468563537887e+00,4.450284526972540095e-02
1.098136830010781217e+00,-6.696730403083342331e+00,-4.046639323790373610e-01
-1.534269522810284725e+00,-4.157944458035370161e+00,-4.597565828853977798e+00
-1.839278677549150309e+00,-3.566462151283771309e+00,-9.046339480746173889e-01
-1.433813608566138556e-02,-4.702950839251772486e+00,3.313183979133106916e-01
-2.556689842872346130e+00,-1.623577907649969232e+00,-7.447530055135748173e-01
2.166918961181445447e+00,-1.105062724656373163e+01,-3.779306414038020367e+00
-1.496219190502504182e+00,-8.050132530032813039e-01,-1.021910973566038772e+00
-2.740393137278116953e+00,-2.100271489074066800e+00,-4.373934119498043671e+00
9.806076300224971787e-01,-6.249308178170505990e+00,4.409488455333907680e-02
2.321052611079240435e+00,-1.097708024070992927e+01,-4.327946778421805085e+00
-1.778303140755076450e+00,-1.194957986919529036e+00,-3.487292228726555088e-01
-6.996713497469028709e-02,-1.222720967773288869e+00,3.121927304473727793e-01
8.958513517035958662e-01,-4.655269078782996672e+00,-3.890638990795186825e+00
1.682599608274814695e+00,-3.431255426811105291e+00,-1.442817622254290999e+00
3.707810089831846678e+00,-5.950482582169971835e+00,-9.657584929268845375e-01
-1.721051506288627131e+00,-2.228223204690488846e+00,-4.941453740698559471e+00
4.231376889545181541e+00,-8.915469963744122595e+00,-6.450211889585329983e-01
8.325299124347461666e-01,-8.991135588718393024e+00,-3.387004247889839892e+00
1.607166698529450599e+00,-3.906538638461866775e+00,-2.269382022695768164e+00
3.722739705547570388e+00,-7.807987384196990455e+00,-5.751203671792234351e-01
7.929953416556125845e-01,-2.476312722021066115e+00,-1.483910989815198533e+00
1.021504431929792095e-01,-2.390334153559782848e+00,-2.821880228572467342e+00
1.788471985507575468e+00,-4.344124443010215941e+00,-2.173883986928075163e-01
1.812093528320220415e+00,-6.553669975581396301e+00,-4.824350719462469073e+00
-1.366584071622524599e+00,-2.451239608182008034e+00,8.669559707668583748e-01
3.265658825689367717e+00,-1.018696738571985350e+01,-5.628202218774703169e+00
5.110290823240473124e-01,-2.300786895986371317e+00,-1.767245510262779096e+00
-1.843261193436760703e-01,-1.847261800970692036e-01,-5.496988978528304370e-01
-2.099829324929006091e+00,-4.667318797923464935e+00,-4.267597232620889969e+00
-1.461569966569493229e+00,-3.107523827504318437e+00,-4.902453837100107847e+00
1.210355253137558984e+00,-7.016548075097666093e+00,-6.245200400462350698e-01
2.239304146117587102e+00,-1.091783687118261703e+01,-3.653016912010112360e+00
4.030056835128576154e+00,-9.191515989032202683e+00,-4.779859021798199770e+00
-2.615587886772342774e+00,-1.330890109356136941e+00,-2.653061305133814329e+00
6.211098051835275413e-01,-1.645965455594925020e+00,-1.089727863480777881e+00
1.837550692482647907e+00,-9.786703767015682232e+00,-2.949868817550526767e+00
-9.647257715845736215e-02,-2.808980124299869541e+00,-3.250304027263722251e+00
-5.178099131877363925e-01,-8.058017540447835358e+00,-4.405536693042137131e+00
-6.547016418003644977e-01,-3.145250894011071274e+00,-4.667282509503014154e+00
3.031342753335996232e+00,-5.916134528635041079e+00,-5.635124553189334584e-01
3.909165554081883265e+00,-1.034388438893967965e+01,-2.101438272128402396e+00
1.707179411231779520e+00,-1.060160445257859507e+01,-4.088858710581766864e+00
3.363616738384350047e+00,-6.790982939685936692e+00,-2.858443739719590315e+00
9.549932786859599565e-01,-7.572141957837892789e+00,-1.403173992643281354e+00
-2.717951416837063761e+00,-1.652764076846168884e+00,-1.869162818244254121e+00
-1.275657644538253255e+00,-6.583443171947171990e+00,-3.792907533758314020e+00
8.433185669082976510e-01,-4.704349757693245593e+00,4.770216912944670873e-01
3.455409521978055842e+00,-1.030438245145045073e+01,-1.212398052823936201e+00
-6.119256449353694949e-01,-6.484462926127422477e+00,-2.634474087960946953e+00
-2.127502017092037789e-01,-7.276657210041333812e+00,-2.984903226171389257e+00
3.916240409919520271e-01,-8.552946634793316960e+00,-3.616148131402671773e+00
2.852495118448760358e+00,-8.315165267469815547e+00,-5.454184401188293840e+00
3.498999363590218903e-01,-5.370766401744994312e+00,-1.391416063732072161e-01
-1.029329242529004818e+00,-5.571712532005252960e+00,-4.689384400003527631e+00
1.686497823309628830e+00,-7.083043573241615043e+00,-5.565709855473643053e+00
1.768556093557988707e+00,-5.308880032184780440e+00,-3.518538228515771582e+00
5.189304276328079307e-02,-3.004228191413552018e+00,4.376050156441494976e-01
-1.467588360578726325e+00,-5.986014386175084745e+00,-4.183711480203875510e+00
3.047034734346195872e+00,-8.068812603852604681e+00,-1.862562667552276618e-01
2.212968062867536112e+00,-7.841048328017964586e+00,-2.369692102345266060e-01
-1.972687553501487390e+00,-3.740354237118754810e+00,-4.589060571859731930e+00
1.201413386907332459e+00,-6.288145767628805061e+00,2.669607389308459311e-01
2.268226330600215057e+00,-9.233631053570638514e+00,-1.718176770641318241e+00
3.848259662923503743e+00,-5.859056628707573822e+00,-1.363643987160502835e+00
2.391047653101488202e-01,-8.640904143632958778e+00,-3.739049683326577611e+00
-6.895735221769631051e-01,-4.436581290449592707e+00,-3.915973247169245441e-01
1.658812991300750772e+00,-2.722330143985398188e+00,-5.320817502547252609e-01
6.334551650988589078e-01,-2.182840300943854839e+00,-1.446386080062585400e+00
-3.475713090281937312e+00,-2.717371314528487680e+00,-3.913230896891523702e+00
1.863193117573671787e+00,-3.570880004991437318e+00,-1.247626340334510919e+00
3.097785544968010285e+00,-9.003315056782264847e+00,-2.020132720943592086e-01
1.417307520255423059e+00,-2.257895076232778298e+00,-5.447733897964508465e-01
2.292459007875674804e+00,-7.568922592644820924e+00,-5.397866060225637419e+00
-1.845723506826891347e+00,-5.451076049764905562e+00,-4.239880948405538419e+00
-2.549664511938893874e+00,-4.836640122919078522e+00,-4.020836182348059396e+00
4.976985375668998568e-01,-6.241755108113711259e+00,-5.500147469104437192e+00
3.318344630547756413e+00,-5.615329581791963953e+00,-1.492280378521921191e+00
4.210880354105153600e+00,-7.665095429027883434e+00,-7.973015766604802934e-01
-2.290632157604610253e+00,-2.119472305306543181e+00,-4.487966044851806474e-02
-1.736030516541673840e+00,-4.297135555527390238e+00,-1.794342762167038252e+00
-3.147092748185466582e-01,-2.440427188888447230e+00,-3.059769912334497910e+00
2.189562637349619645e-01,-5.528921735012451322e+00,-4.214948343467445069e-01
1.806941118367947796e+00,-5.129525786249173436e+00,-5.701872435734026828e-02
1.798892477751680818e+00,-5.055032992102821865e+00,-3.501537427405578384e+00
8.163696865171965467e-01,-8.447959225972262232e+00,-2.672325595084370065e+00
-3.455205217151099961e-01,-7.916217089052978828e+00,-3.834452127336585914e+00
-2.561387002335655083e+00,-3.722273886985729252e+00,-4.196087293608918856e+00
3.737806083694560577e+00,-1.052927014574783016e+01,-1.011435382259203930e+00
4.104679340563705203e+00,-1.027233297395145506e+01,-1.687499089727023449e+00
-2.159562784717426354e+00,-1.014169522469109630e+00,-4.562569116935783597e+00
2.043744140069253312e+00,-6.877241800532601701e+00,2.248283365522014410e-01
3.036252894196856400e-01,-2.238808791748345683e+00,2.940599614016081720e-01
1.653254997912058322e+00,-7.017820843064439984e+00,-1.303453284493834574e-01
5.349049849746830843e-01,-7.771470176054643630e+00,-2.463255040054086908e+00
1.358675769294581448e+00,-4.651952540610177600e+00,3.498912442203638146e-02
1.960870687210100272e+00,-9.691052492877989977e+00,-5.550848592694332950e+00
3.531286624321562151e+00,-1.059760037099187002e+01,-2.182155407647648371e+00
1.532513817953382596e+00,-4.392732447088829595e+00,-3.008235469973434828e+00
4.669895062677634212e-01,-1.388771528473525363e+00,-1.013621740391931619e-01
4.171898253156958170e+00,-8.301909505077896156e+00,-3.656140952263310151e+00
-2.389246389520998104e+00,-4.095947175925077843e+00,-2.298140416138295894e+00
3.201357197390031217e+00,-6.550639463689222453e+00,-3.110919085902349224e+00
-4.330076710104460158e-01,-1.810300063430786199e+00,5.490688054582880673e-01
9.577614617258504159e-01,-4.341857613483812273e+00,-3.606529476637187148e+00
-3.617930878684204377e+00,-3.568517373246275604e+00,-3.580731713466614341e+00
-2.273822608939283896e+00,-1.167612067212957294e+00,-4.489300620672931785e+00
-2.028048579291270859e-01,-4.103538427737762007e+00,6.167837748775614193e-01
4.154335362475807258e+00,-8.163953803093816575e+00,-3.399550846554721062e+00
-2.070191329525477464e+00,-4.039681186369049826e+00,-4.371224070376953819e+00
-3.199753304112872510e+00,-1.882777031157093051e+00,-1.193161275384383213e+00
2.759555009263517711e+00,-8.149400074674945316e+00,-5.392189639511661525e+00
-3.561591343506171903e-01,-3.788624392678375585e+00,-4.717181220795298557e+00
-3.028919628243214479e+00,-2.358275075105105589e+00,-1.431719444804166574e+00
2.280941563444523368e+00,-8.195588700109778912e+00,-5.938197305819869598e+00
2.699590283190734130e+00,-6.530414222204748320e+00,-2.254019311809568604e-01
-4.126363082256311876e-01,-1.911536252772243705e+00,-2.799048650982325803e+00
-1.822089983287768500e-01,-8.463206375431903794e+00,-4.340559980388515982e+00
-1.726130251428175111e+00,-2.243117092458798645e+00,7.727973826472361862e-01
2.099155298733898167e+00,-7.758906419779200370e+00,-1.521253828814262687e-01
3.331264870963522196e+00,-6.925341051122269498e+00,-3.181242736590637943e+00
7.786057329344445721e-01,-6.558670401942658934e+00,-8.254543644956024995e-01
4.170474733913330567e+00,-1.041513211104128267e+01,-8.022756647480830949e-01
1.396250882659979320e+00,-4.159761571354651188e+00,-2.733073326465339292e+00
3.212528004696689088e+00,-1.054137656884260998e+01,-3.442366784919969280e+00
-4.633737111373188999e-01,-6.351149158808945039e+00,-2.208222591394627177e+00
4.507191019123368392e+00,-9.437785113856788755e+00,-4.220427789271592900e+00
1.344159674510941649e+00,-7.408370344476630009e+00,-9.539551315781416019e-01
-3.178958221973889220e+00,-2.174839582375692526e+00,-4.254887131156884550e+00
-3.581931171334295616e+00,-2.397847941907414793e+00,-3.892265206759412788e+00
-1.144152709178170690e+00,-3.838643227108076150e-01,-1.591330304649815952e+00
-2.489302448366254250e+00,-4.640126259118328989e+00,-3.999207784288760781e+00
-4.069708883110165765e+00,-2.609017879433634057e+00,-3.124206346408953561e+00
2.773826135455462971e+00,-7.976632129093361279e+00,-5.160853152580175518e+00
-1.426869542777429389e+00,-4.025618770164929749e+00,-9.251235025530284428e-01
-1.803251182702343636e+00,-1.527254544220828292e+00,-4.392803138976496768e+00
7.309132823853357053e-01,-2.549880158358290849e+00,1.517686185787745813e-02
2.075472696074239121e+00,-1.050313644981634376e+01,-3.499912074809671036e+00
3.628443138644961596e+00,-9.867141311013183369e+00,-6.030508720849129034e+00
3.394320608317786814e+00,-1.038935320954356811e+01,-3.044257756024467909e+00
4.413127700858034075e+00,-8.548441301273745907e+00,-3.476007527269828312e+00
1.397938539657309187e+00,-6.531913506158509186e+00,2.084002920538857717e-01
2.356191737822808108e+00,-4.962458602083749781e+00,-2.386332124283593092e+00
3.847626568556430815e+00,-1.006758060796557253e+01,-3.330526671792300331e+00
3.979965597105435959e-01,-8.595347466034423789e+00,-3.494985448780568049e+00
2.022698899191362365e+00,-5.852638290645235664e+00,-3.597643217342406441e+00
-1.829087502827992928e+00,-3.337698868133797792e+00,-8.493151643673447770e-01
-2.519919109983526084e+00,-4.463986992526767672e+00,-3.037617221959380220e+00
-3.560424599618270403e-01,-6.718652409325013508e+00,-4.780537358153578609e+00
3.318374547748400794e+00,-7.255218564338951737e+00,-3.652388367958669502e+00
3.796522031534123043e-01,-3.197207953685973880e+00,-3.192846305141519014e+00
-1.059639120123512593e-02,-5.312251929130072270e+00,-5.582018500975497455e-01
2.170249125769807996e+00,-7.855740219030001192e+00,-5.843512031310026167e+00
-5.059102327707735158e-01,-6.579892024979759890e-01,-1.496093874187870432e+00
-1.327207314584298192e+00,-6.458695765366361918e+00,-3.816724892464411489e+00
-3.046771319213640972e+00,-1.700349872693778908e+00,-2.096263996584802669e+00
-3.759717593427283067e+00,-3.109676204344384409e+00,-3.717970409109077945e+00
-3.534130399261345423e-01,-2.664958035679499293e+00,-3.450707406415117973e+00
-4.906058896210138687e-01,-2.779262750528185832e-01,5.003864850116554464e-02
-2.110955436674442964e+00,-7.181620350495199201e-01,-3.715111020375320816e+00
-8.938212741718905285e-02,-6.225761799783460226e+00,-5.238315558480220346e+00
2.323318695163577807e+00,-1.077702647612896314e+01,-5.010416133676272032e+00
2.016533031558719991e+00,-3.128892350849011628e+00,-7.173626764170641934e-01
-1.613457215750704776e+00,-2.858954383722779546e+00,-4.902457843658629244e+00
5.373397838480140187e+00,-8.117998935230717805e+00,-1.693043012534373615e+00
2.181459370978100054e+00,-5.972445919183360097e+00,-4.528637945988591568e-02
-1.284270934665334929e+00,-4.390595714613409584e+00,-1.310458298992360104e+00
-1.689652701072985153e+00,-5.110006990496017032e+00,-2.547975378715437778e+00
-3.900121332072694624e+00,-1.905284383746052024e+00,-3.709131305763141206e+00
-2.881023269699750866e+00,-2.053587874451938244e+00,-8.137286310257892952e-01
1.382702090278880469e+00,-4.854242985281882028e+00,2.324793946440224524e-01
2.079072682497165925e+00,-1.114965845044964610e+01,-4.154958183011871142e+00
-9.046012796446668558e-01,-7.520319150191410174e+00,-4.172410004449766951e+00
2.442661371489452726e+00,-9.959906639023028418e+00,-2.372201868319513185e+00
2.726970449825771414e+00,-5.989424906089424461e+00,-3.120382063871478540e+00
-2.455012634224968959e+00,-1.428294442285357624e+00,-8.366508509213953504e-01
2.335180335612004221e+00,-1.092624679565599877e+01,-4.492170119477012946e+00
-1.555313717237895021e+00,-9.484364374633305061e-01,-5.860475561113718396e-02
2.357677198773608929e+00,-8.047067326192291148e+00,-5.878657946511207655e+00
4.127331385102373851e+00,-9.264477271893701626e+00,-4.603341603242755653e+00
-1.176887102734501589e+00,-4.736896712054951553e-01,-1.598360732281529195e+00
2.347955771510251477e+00,-8.077058412086143946e+00,-5.935312809955287427e+00
1.129280666560895430e+00,-5.389193346370476867e+00,-4.598618232214358059e+00
1.621929386008282403e+00,-4.202632793566578151e+00,-2.351371796390230529e+00
-2.167717216290454829e-01,-6.712071883792446236e+00,-2.368534200905241249e+00
-1.044681672687009372e-01,-4.929269299957316441e+00,7.749526076370148731e-02
-3.129174348837282960e+00,-1.803751688874271286e+00,-4.204287523140033400e+00
1.304332366157209488e+00,-3.521267498061145140e+00,-1.998149608036317915e+00
-2.700333622672412837e+00,-2.395696360953525783e+00,-4.386922214062502157e+00
2.659527695508291600e+00,-9.657148413834198308e+00,-1.801411007713644707e+00
6.665525324930804407e-02,-2.707354041336460071e+00,-2.823270150348789365e+00
-1.773643061388487041e+00,-1.067351861556748771e+00,-9.565318881024151842e-01
1.461807427444273833e+00,-2.521847542135952303e+00,-7.290392334898851967e-01
3.781357695639015581e+00,-1.047485012865360687e+01,-2.238667893473532011e+00
-7.168290254930781424e-02,-6.672730056225074868e+00,-2.226530735725436028e+00
5.721943960154129094e+00,-9.146714149286875539e+00,-1.752624633256919751e+00
6.569802669256226135e-01,-1.553399347799684582e+00,-8.391166882329066379e-01
-2.028180054619737493e+00,-2.889684614290355835e+00,-4.673734967080301672e+00
2.541678623314759022e+00,-1.030166374405347973e+01,-2.345859741807370558e+00
-2.172561764259649308e+00,-9.348975120462603705e-01,-3.019302938622978605e+00
3.956058972474471691e+00,-8.120716255584383703e+00,-3.496517195550554291e+00
3.247653383944413275e+00,-1.058524592577559176e+01,-3.194766083164168435e+00
1.968699695580375941e+00,-5.551540802728070823e+00,5.233806688118469719e-02
-5.732175870991020883e-01,-2.550362795505132230e+00,8.424717624058080112e-01
3.056193415616607734e+00,-9.615184448493618419e+00,-8.645541791253443797e-01
9.412174449845553958e-01,-1.614517268487888790e+00,-5.341728220613664035e-01
-1.450155319717068236e+00,-5.776006531043974768e+00,-4.396649313031829820e+00
1.916900623919747249e+00,-6.779269281400194913e+00,-4.819882863369860715e+00
5.730948821216421546e-02,-6.081309702359120273e+00,-1.229236556930458857e+00
-1.834612873148105505e+00,-1.666635339758926193e+00,1.099575948954521376e+00
-2.265996375085338688e+00,-5.355316391355679606e+00,-4.083803357968625924e+00
-1.680983149290022238e+00,-2.542066439439913950e+00,3.989273505139820930e-01
-3.056823328832206865e+00,-3.751804232443579856e+00,-3.018668971528496225e+00
3.354041517797554217e+00,-1.036021816113272820e+01,-1.401197866416065585e+00
-1.228489741873442176e+00,-5.996495112627427737e+00,-2.883299743389880820e+00
3.422098628446653024e+00,-1.043585786518349856e+01,-1.109102893055124106e+00
-6.215604776984166024e-01,-5.957076580334247140e+00,-4.844542086898863786e+00
8.669253301898277239e-03,-7.672414187522835327e+00,-3.036956168400153810e+00
9.557801200727457092e-01,-7.656721878499507028e+00,-5.297439475740204351e+00
-2.301011474115691735e-01,-1.134272413517931344e-01,-3.468618161395089494e-01
1.837867629099474653e+00,-8.102621325072473013e+00,-5.812653246732479850e+00
3.800854992152432610e-01,-1.520400787035888213e+00,-1.310159711749220746e+00
4.788880686725327074e+00,-9.853018894565824581e+00,-1.450292753821220249e+00
5.099253989980509161e+00,-8.040701458575304272e+00,-1.931756138236974119e+00
-1.645441745700190195e-01,-4.082841387590776527e+00,-4.950066750103236934e+00
2.830756187686922498e+00,-1.034103107957381340e+01,-2.132093663144709161e+00
3.714570993518157005e-01,-8.334373712078262386e+00,-3.097681829034755641e+00
-6.643256501432368566e-01,-7.873388559998958369e-01,4.717613659335376797e-01
-2.968982576550963426e+00,-2.370821758281699942e+00,-4.209994860581727671e+00
4.270163554775480708e-01,-5.336798081310670128e+00,-5.357858232138255516e+00
-2.865301499612463720e-01,-3.825789224244418030e+00,-4.836811421391949750e+00
4.246384884441082086e+00,-9.538260734756692116e+00,-4.677035672542790401e+00
-2.100489119492021217e+00,-8.606083314925756511e-01,-3.091722469367912396e+00
1.129780582081887363e+00,-1.953453284594566464e+00,-4.688983023440542741e-01
2.631083835049362829e+00,-9.820352928893910871e+00,-1.750167690100591145e+00
3.032167254410200741e+00,-6.356714562111304367e+00,-4.035261453312629087e-01
4.153849588823609051e-02,-5.984152979569256736e+00,-5.142230233523457983e+00
3.030016283078812656e+00,-1.054781775299821689e+01,-2.162524255633066161e+00
-4.058193113212109182e+00,-3.043880121147213291e+00,-3.472873191370749346e+00
-3.102324765112297045e-01,-7.330248294029440004e+00,-3.191454489376030601e+00
3.400327364219801307e+00,-7.915570635647929620e+00,-4.342208201138638479e+00
-4.342590620258523267e-04,-5.187636485906846673e+00,-2.018609958544979044e-01
1.066086794484051747e+00,-6.266809017042504593e+00,2.266205517513998069e-01
3.116187951102801890e+00,-4.957633890039755187e+00,-6.093560524690779800e-01
-1.258518220753886308e+00,-3.503838748237780631e+00,-4.080252849212406829e-02
6.390213038975354198e-01,-2.230634920147081868e+00,-1.709100074102232858e+00
-1.420793251311807337e+00,-5.636628714228748560e-01,-2.605608676194655082e+00
-2.105587762911647065e+00,-1.912011748229799579e+00,3.463925621665843724e-01
1.460720203060464906e+00,-5.374696561814800155e+00,-4.026682851054765422e+00
-3.813097628395440086e+00,-2.018355186962669467e+00,-3.660559244724899575e+00
-9.420762922798223693e-01,-4.073134337242261260e+00,-2.306231816674170487e-01
1.284964500952433530e+00,-5.105579043460102717e+00,-3.865596501963889597e+00
-2.437857038530356624e-01,-4.024004451319996178e+00,-5.101737750262681281e+00
9.098158549086512448e-01,-9.875646700513110332e+00,-4.912411929931344901e+00
-1.553319943145037074e+00,-2.986574166856247992e+00,3.715491136346730366e-02
1.467545477709286894e+00,-4.620852482622764157e+00,3.073587875310756709e-02
4.053888193327264133e-01,-9.044331434877964426e+00,-4.799082508400061897e+00
3.689118277352426922e+00,-1.044918606792584193e+01,-1.903123084911113816e+00
1.956708404671902102e+00,-3.858804522733821241e+00,-3.964121312951779386e-01
-1.129602126799220452e+00,-4.264780004659955104e+00,-8.908649939097694759e-01
-9.995074463881234994e-01,-3.720881386403102065e-01,-1.367643277493469478e+00
9.376390301980640496e-01,-1.025147894362323164e+01,-4.848642989998274366e+00
2.767262407275040470e+00,-8.831227510041934181e+00,-4.417477511290341941e-01
-1.351516201638987891e+00,-8.853716434605045649e-01,-4.730679767802269398e-01
2.902926317310004833e+00,-5.516476899671713063e+00,-2.198516598364803176e+00
-1.637284693139186453e+00,-1.373262909694799916e+00,1.277388004360962448e+00
3.963923763774185094e+00,-1.049744373252713103e+01,-8.677830241897342978e-01
2.575417840373912970e+00,-1.074500437277417220e+01,-5.144161833156757346e+00
-1.804215598359888872e+00,-6.311006255740115201e+00,-3.998036850210152426e+00
9.986422570479012162e-01,-4.874881045726763951e+00,3.348156390686078954e-01
1.160647253866326611e+00,-4.867747032337636170e+00,-3.813817785837927410e+00
-2.153093817776325025e+00,-5.598005065774334099e+00,-4.146203359681823741e+00
-1.222725400335943347e+00,-1.626509147419572532e+00,-3.735478023934788006e+00
2.323547426668046256e+00,-1.102326446973089169e+01,-4.155659870259890809e+00
1.711060862597501897e+00,-3.010156220178319408e+00,-9.241593551124163142e-01
-2.350680554776952702e-01,-2.102338118246890097e+00,-2.860890038436461502e+00
-6.620412336614828197e-01,-7.217240708505455515e+00,-3.376668937177687013e+00
6.074727527361133417e-01,-9.201933308612906259e+00,-4.046879992804520931e+00
-9.797792625036290115e-01,-3.122138601419124360e+00,7.151632316675912149e-01
4.988946579377991242e+00,-9.321639294264308262e+00,-8.553027515653979229e-01
-1.798035046325023645e+00,-4.587376953418401015e+00,-2.060267490842283333e+00
3.533083753107775227e+00,-1.018912669804325155e+01,-4.378175199620146785e+00
1.227515846459975135e+00,-1.012637521327686230e+01,-4.356488899927166258e+00
2.674864841984436747e+00,-7.140813973226225464e+00,-3.527628742134132633e-02
4.546054285442697740e+00,-1.015578485134003017e+01,-9.188161074706385767e-01
-6.915615567100992234e-01,-5.123016327627349931e+00,-4.881668316833297716e+00
-2.811582139531161761e+00,-2.584923644057371295e+00,-1.176021988323445733e+00
3.452886606846936601e+00,-7.801843893520473472e+00,-4.213554840831438830e-01
1.380191818316009789e+00,-7.092396318757512752e+00,-4.592058751785860760e-01
-6.076942215919988177e-01,-5.793641585900675572e+00,-4.923214359082982661e+00
1.897901953099705885e+00,-7.239734439038414848e+00,-5.581798921162011595e+00
8.494620145622039376e-02,-4.094477344726685786e+00,-4.655359835122454548e+00
-2.354636802487771963e+00,-4.251746304792602515e+00,-4.105968712741859150e+00
3.597815282874436082e+00,-6.198509838579537856e+00,-1.934347559662795923e+00
5.947809677064165301e-01,-9.116293670085486411e+00,-4.894387430078077195e+00
-4.666798625898168629e-01,-3.063538333076289533e+00,-4.100366659264143010e+00
7.721327815180571985e-01,-1.003845609200166500e+01,-4.864128707947981134e+00
-9.943513359183242528e-01,-5.494639199992795042e+00,-4.672924896620703095e+00
1.582530297299313826e+00,-6.865563611712271808e+00,-5.404980230913933315e-02
2.962692446867481455e-01,-8.941147830003957964e+00,-4.825419289233988884e+00
2.001198945072785396e+00,-2.807532001583945558e+00,-5.742429412197341820e-01
-2.690970442199139612e+00,-1.369451289620955192e+00,-4.625384068393232795e+00
2.393609884368613550e+00,-3.858584036164225850e+00,-1.062097372035338827e+00
-5.068175800687605426e-01,-5.380403867681884833e+00,-1.332277554255684393e+00
-8.857476878742529536e-01,-6.959443025342569200e+00,-3.707323325947543768e+00
1.762892201968576877e+00,-9.395498970143767892e+00,-2.452501535792817933e+00
-1.798933304201821848e+00,-5.869024135590314550e+00,-3.721183483346563126e+00
4.089589967850320029e+00,-8.590821913446099245e+00,-4.085457125991436733e+00
-1.811556648476728981e-01,-7.605760276152012445e+00,-3.334386652362336001e+00
-2.423002568305904436e+00,-9.016158908117942739e-01,-3.380647705679643344e+00
3.965709724411400572e+00,-9.983588740048684684e+00,-3.625930450077451184e+00
2.135124261359174991e+00,-5.911687779705575352e+00,-2.739572185850000507e-01
-1.269887196989765821e+00,-4.866684424475366200e+00,-1.734462538022299327e+00
9.869722633052417926e-01,-3.570138157198706974e+00,-2.708027035792484938e+00
2.603611953670297297e-01,-3.111766627325133872e+00,4.049267141504906409e-01
3.809234210783995156e+00,-9.481873148342955915e+00,-5.414322062834984628e+00
3.265012087210430902e+00,-7.693656708319942972e+00,-4.168611634963044210e+00
1.272217900320611772e+00,-4.543298101019323632e+00,-3.347184026930815293e+00
-6.527821291170290419e-01,-7.891377411468623926e+00,-4.293742750965829025e+00
2.214893594931113707e+00,-9.461256028516579875e+00,-2.145880896992308440e+00
3.982002737424554351e+00,-8.738244478119813863e+00,-5.800376792047854391e-01
-2.351881752093789857e-01,-7.361561017774681304e+00,-3.067036821627351362e+00
7.593387495623984407e-01,-4.611595717611821854e+00,-4.296122251478081466e+00
3.790021401831744630e+00,-8.533774441337499184e+00,-4.218293309902111154e+00
-2.038417243759135022e+00,-5.736420760652925388e+00,-3.966243443578131966e+00
3.603265899349133328e+00,-7.413373662933162578e+00,-6.509104669622520767e-01
-2.975083133806072366e-01,-5.048518799354327236e+00,-5.351072813162842667e-01
8.682635046910116561e-01,-5.792312573412377930e+00,2.849143647221328846e-01
3.934507294461578208e+00,-9.028030374610496622e+00,-5.133138611774318294e-01
-1.672799914542940081e-01,-8.475071915981031268e+00,-4.176481661181458804e+00
-7.465036518124995579e-01,-6.737694726921299448e-01,5.705944499026058825e-01
2.820567983123831723e+00,-9.578680445819045985e+00,-1.416425429205880882e+00
1.012596727576471484e-01,-1.106561696345388368e+00,-1.093642928848538087e+00
2.722080517572478264e+00,-6.990598036122467995e+00,-1.201392478676778924e-01
1.209883756561370927e+00,-4.255801540993914500e+00,-3.219842141696796833e+00
-2.485460883415054223e+00,-3.392405275442306856e+00,-1.877566586167644713e+00
3.575146211126993379e+00,-9.593332471071274625e+00,-1.910441044246670439e-01
4.910847766764722677e-02,-6.016047886202871453e+00,-5.194440082720747753e+00
3.275270812473000781e+00,-9.724621889557436560e+00,-6.266376897784525779e-01
2.167474955173445683e-01,-5.321985170423087830e+00,-5.421209072100843684e+00
3.568415189181808334e-01,-6.875409531719075318e+00,-1.513578744487540151e+00
-1.128607661821001251e+00,-5.907333389531101986e+00,-2.623275992707046811e+00
2.796173450626080470e+00,-6.803151470453843608e+00,-3.769833697527003924e+00
2.472181583110380831e+00,-1.040339995306183418e+01,-5.713088386540562169e+00
5.095166716684808250e+00,-9.382793493957803932e+00,-2.971895171364876465e+00
2.262386247628184188e-01,-8.336930813438570453e+00,-3.579658616487587874e+00
-5.921031053655888554e-01,-5.980120481031356849e-01,-1.758589218649181829e+00
-1.566257368954004248e+00,-4.689912681140643969e+00,-1.838177420987031407e+00
7.201241754283344010e-01,-4.998272308148126619e+00,-4.789422940507500392e+00
1.046095443402577985e+00,-7.866604574273542205e+00,-5.452461907352263104e+00
-1.964583199137225789e+00,-1.130870130169811416e+00,-9.211266848919490435e-01
5.794542725515557796e-02,-1.886467285668632421e+00,-2.028705825014742725e+00
2.406649382756738564e+00,-9.656170877874640013e+00,-5.901351484052439034e+00
-1.157215802424661488e+00,-6.623249338151598664e+00,-3.696948119234362728e+00
-1.200525642107426183e+00,-3.159961501546637574e+00,4.943232198778186870e-01
-1.478191028259498552e+00,-2.179373404572606088e+00,-4.756624014228650665e+00
1.133670450811641084e+00,-2.745912154563190377e+00,-1.362483876990063791e-01
-3.385600172135723618e+00,-1.698837839569644403e+00,-3.123819221212003949e+00
7.337224176544314691e-01,-7.954884147829488050e+00,-2.399693171088995047e+00
-3.198744747054167892e+00,-2.033724011679681976e+00,-1.231566965476205144e+00
3.624975570383176304e+00,-7.171183640332597697e+00,-3.081811670294366756e+00
1.333109763277043669e+00,-8.448329883073952828e+00,-5.312378814849029851e+00
-3.171142321401891007e+00,-1.879176540206620505e+00,-1.763421358299014363e+00
-1.729035809272464030e+00,-7.651769295156254369e-01,-3.216720687400865142e+00
1.847319566129177026e+00,-7.642494103671282346e+00,-5.831925469775436355e+00
2.108187528734810079e-01,-2.662967979066242830e+00,5.226304892502955379e-01
4.261389975983378875e+00,-9.583140859087487584e+00,-4.585116694252177716e+00
2.752219205449557116e+00,-5.696676281610400849e+00,-2.481651153249165631e+00
-4.866905745631956437e-01,-6.626015830132175211e+00,-2.551135389664721309e+00
2.745844652743731018e+00,-7.559085287040768542e+00,-4.724516729610356985e-02
5.383745381476306768e+00,-8.769902577682044509e+00,-1.313249589782321536e+00
-1.754188462492439982e+00,-9.863461033773615050e-01,-3.783790631251212400e+00
-5.430161916096833963e-01,-1.084838626425765673e+00,-2.029679941837170709e+00
-2.332503085152685340e+00,-1.551455417768601963e+00,-4.684052975224827442e+00
-1.544184077014683298e+00,-2.810320505635434785e+00,2.352709129297081703e-01
-3.447987938657610246e-02,-7.723671664348799482e+00,-4.755585454939403434e+00
2.115166805200628275e+00,-1.081409918827949035e+01,-3.680876634819224780e+00
-1.453801855868189774e+00,-5.814014150850028706e+00,-3.011482075344187326e+00
-2.107014787693017421e+00,-3.668083141219224075e+00,-4.420538716713426020e+00
-2.488347137777880747e+00,-1.835050708928136043e+00,-8.207512384368777225e-02
-1.117665632512062190e+00,-6.336618812141626478e+00,-3.044341350011128267e+00
-7.245138865514769710e-01,-4.394040808248565355e+00,-4.487232118687803917e-01
4.470915153497736938e+00,-9.382598234726440722e+00,-5.761256591297129193e-01
-8.739317379294084809e-01,-4.658453584325326524e+00,-4.907279404887059826e+00
4.403448970833766296e+00,-1.020791625579446915e+01,-4.845390045107371702e-01
2.258209039597419920e+00,-5.762198420350657102e+00,-3.415391064971776469e+00
3.900414362097957000e+00,-5.878525379023999520e+00,-1.208579785441797450e+00
3.026009288067384451e-01,-9.641874099540415077e-01,1.262210173829554916e-01
-1.862812722957924993e-01,-8.442831170779673045e+00,-4.620011384425904311e+00
-2.105888711051785211e+00,-2.260102115897854702e+00,-1.723893597617688067e-01
-2.006461930003324845e+00,-4.981819458665889933e+00,-3.001209676557090589e+00
1.556666661327079870e+00,-5.056750662507568883e+00,-3.762536454248901346e-02
7.580208568303121730e-01,-1.340393434479954848e+00,-5.421979981889580857e-01
-2.194063677472937623e+00,-4.956275047204504958e+00,-3.184546424645711582e+00
1.472773831948377854e+00,-6.642725183961476709e+00,-5.563708907458363662e+00
4.335396061462254202e+00,-8.402209071721122413e+00,-3.331932453287774543e+00
1.327047587735070477e+00,-4.481041247558470886e+00,-3.262724196505740082e+00
7.696243969758858050e-01,-9.083259028761295539e+00,-4.996915087730290139e+00
-1.797779673705981240e+00,-5.263657861680911765e+00,-2.826226719760047246e+00
4.960270572329419814e+00,-9.577205087088563218e+00,-8.377297475342699862e-01
-2.647401250337192424e-01,-8.258582467291136098e+00,-4.633746168930863440e+00
3.391985725452613676e-01,-6.422045704260284538e+00,-1.275558089075407464e+00
8.581331258511540883e-01,-3.476459727698361313e+00,-2.737358621425686867e+00
5.610728771687313099e+00,-8.649119617616204181e+00,-1.461653956663611531e+00
-7.851220524584876514e-01,-3.093046971445772453e+00,-4.830140329391992893e+00
3.037505917875796158e+00,-1.026229340176379168e+01,-4.968397769513027917e+00
2.291094552970297293e+00,-4.491672770809060466e+00,-1.883915097685886275e+00
2.246086307241004221e-01,-5.442319681567929557e+00,-5.456120397393148913e+00
5.542795298955609518e-01,-9.185004511776309499e+00,-4.873515393750751379e+00
2.722241808586862710e+00,-9.311536584956446205e+00,-6.157247968197392396e+00
4.322005831751679850e+00,-6.681593514579438065e+00,-1.133904902039358564e+00
-9.225906810044344208e-01,-3.812842307610210923e+00,6.822028994336172547e-02
-1.367066171639028660e+00,-5.894728661111658496e+00,-3.023435689783966041e+00
-3.118879801035057131e+00,-2.310883409638791353e+00,-1.197580720692737799e+00
2.988924991092886785e+00,-4.902252436926953116e+00,-1.329079494096057745e+00
4.379373799686085977e-01,-3.234927147708221984e+00,3.118961661522045015e-01
4.902200603674986112e+00,-9.211537497074422376e+00,-3.293702384629197510e+00
-7.708997476201766286e-02,-1.485592836027282981e+00,-1.911235759450324645e+00
-2.103633405927366251e+00,-1.979195274368701574e+00,4.277585005136053109e-01
-5.808743294523469602e-01,-5.577427238645487506e+00,-4.944207054237026000e+00
-1.481902511191843352e+00,-6.604879745129395907e+00,-4.321838577210304955e+00
-2.093338831148801482e+00,-5.636602398240022183e+00,-3.667184279932623969e+00
3.459138777144775911e+00,-6.990004529175958936e+00,-3.020763448835928511e+00
2.474246141172889768e+00,-1.070771917701331333e+01,-5.496021657977434138e+00
-9.401781226396380697e-01,-1.993251481483848897e+00,8.715264576402722563e-01
-2.033938503073707160e+00,-5.105614218349812994e+00,-2.928612945401684264e+00
-1.033298360027734564e+00,-1.139321387154337062e+00,-2.823895329472604576e+00
1.250275383441467984e-02,-4.908348811777552001e+00,-5.269615578696318359e+00
-2.707683259645229157e+00,-2.829666920915788531e+00,-4.262353296530528191e+00
-3.501999568250050654e+00,-1.713474122115309362e+00,-2.987655025745461934e+00
4.888427904701122984e+00,-7.615066845746954804e+00,-1.753045228113392362e+00
1.166527719978970451e-01,-1.242124745189300272e-01,-9.568252882759820110e-02
1.481706782449158766e+00,-5.016125309625175888e+00,-3.557924084608096837e+00
2.981892853384225273e+00,-7.498715997942110079e+00,-4.271899460959676098e+00
-2.826510717128158934e+00,-4.007082673836618980e+00,-2.894914057666023055e+00
3.473713793873301370e+00,-7.933900900234474030e+00,-4.329019928996587829e+00
-1.768833080534114810e+00,-1.381434093369541038e+00,1.214968878180794576e+00
-1.827538247915566405e+00,-2.329962826491857264e+00,3.129736145104505818e-01
-1.693106491883828238e-02,-4.246840965457018946e+00,6.685443871899161561e-01
-1.590765655484669416e+00,-6.600088467456191488e+00,-4.194765563228379790e+00
-2.094394873067179308e+00,-3.164058429267404104e+00,-1.097534745308766713e+00
-1.911983675358433388e+00,-1.122293182817613921e+00,-1.910928504746327805e+00
-3.061972716402578953e+00,-2.403279044005222076e+00,-1.262242343965093605e+00
-1.005777522214716946e-01,-4.164027479407592658e+00,7.665080481271793200e-01
-6.111030124106661132e-01,-2.119106615027462670e+00,-3.292984095700773661e+00
-1.205342668948470530e+00,-4.555170352779984277e+00,-1.361895836582546204e+00
1.540460686196136075e+00,-8.330342936771980789e+00,-1.311514009571651318e+00
-2.003994640144596495e+00,-1.635863184140305293e+00,9.309761302589937282e-01
4.953511297810770930e-01,-6.292932579305346330e+00,-7.265827160290568854e-01
3.559663510696465138e+00,-8.968803955771544878e+00,-5.016812891657312257e+00
3.246778954316548393e+00,-6.301607566326000942e+00,-6.347429582955327332e-01
-2.533259125511146959e+00,-1.456673760322805045e+00,-9.802661729075836661e-01
8.988072390027075365e-01,-2.096294920475562318e+00,-1.128662988724545013e-01
5.431137381690424037e-01,-5.420591457114358747e+00,-5.411361342667314389e+00
2.179867916379210957e+00,-9.776581371779677454e+00,-2.333953341092893652e+00
-1.576805589062489688e+00,-1.986818572611804612e+00,-4.818661200872743855e+00
1.638134223413993729e+00,-8.070296799013425115e+00,-5.581467667668650989e+00
-2.686281318875817004e+00,-4.723922636375339934e+00,-3.650826953561111754e+00
-1.553030691736459357e+00,-5.799556746831777687e+00,-3.233558225271855324e+00
-2.352898507858399935e+00,-9.171720329081890499e-01,-3.492540296065871352e+00
4.884798991669005552e+00,-9.566612339230632145e+00,-2.421854587673302639e+00
3.901654919279177403e+00,-7.795891595527520757e+00,-3.539969374691405157e+00
9.329418655587210507e-01,-7.240317698711339567e+00,-5.551697331551538994e+00
-6.483384159520615420e-01,-5.893573741291525003e+00,-2.151803895535189248e+00
-1.130154631360014594e+00,-4.360323955415680852e-01,-2.100597484897682055e+00
4.760465741417243102e+00,-9.032109958152181761e+00,-3.513546831742492493e+00
-1.311848495670884018e+00,-2.572851970853451853e+00,1.119487930418014532e+00
5.742932507183964308e-01,-9.574666920940778425e+00,-4.879056838075204183e+00
1.195131437904698446e+00,-9.645322908942860707e+00,-3.636078243668139365e+00
-2.230076319549031627e+00,-5.048566134587774812e+00,-3.177821631872078001e+00
1.347740357999657634e+00,-5.717433942678392000e+00,-4.782858690286042602e+00
2.599072227090853282e+00,-8.759302407684527836e+00,-6.480063624638907616e-01
4.611308486411942908e+00,-7.448022325315366565e+00,-1.157416377911871130e+00
-1.607785593859582196e+00,-5.826956808842826518e+00,-3.144847834133628783e+00
1.409809277772019254e+00,-7.035991991346437935e+00,-5.749348375968128089e+00
2.823040746318561389e-01,-6.694308866617051379e+00,-5.235840686812347045e+00
-3.773494748519518049e-01,-2.221137735372539446e+00,5.100495310062955756e-01
