-2.183294127274008289e+00,-2.305286677058115519e+00,-1.271821725241107037e+00
-1.964472309743310774e+00,-3.773504634089170029e+00,-9.560695368603110422e-01
-1.352134133668267291e+00,-2.295185458389700006e+00,-1.658583307254292372e+00
-3.962807181807839751e-01,-1.770855760386288669e+00,4.799396359099466491e-01
-1.819780606516586907e+00,-4.268457461248827300e+00,-1.014643632395881401e+00
-2.147611770312398416e-01,-4.160812487091209100e+00,-1.228883477353110765e+00
-1.093038403934565084e+00,-4.842720905778644003e+00,-7.314530581027721690e-01
-2.238931382040619589e+00,-2.767857843792751904e+00,-1.279191082256950773e+00
-1.388356246969498553e+00,-2.565910563612980422e+00,-1.513748154128612688e-01
-2.082698372936113262e+00,-3.992767548174864345e+00,-1.079013910818673150e+00
-3.232265479031026234e-01,-3.280128378331078842e+00,1.218586532761876812e-01
-1.183723767799382265e-01,-3.913259720831693489e+00,-1.134629389453055692e+00
-1.585002190659221988e+00,-2.947436755565072897e+00,-4.364354423144954365e-01
-9.994178125030138693e-01,-4.521540737452512282e+00,-1.885652458620739047e+00
-6.434836037061734126e-01,-1.121745849607666212e+00,-7.228522880539164364e-01
-7.254823822648679421e-01,-1.650686881402132045e+00,-9.805452966372172341e-01
-2.419093456439703527e+00,-1.855572161627223382e+00,-8.952907215882831560e-01
-1.619249450725783815e-02,-3.494991018796196336e+00,-9.264456054336216440e-01
-3.776532797832456989e-01,-1.723623190883481815e+00,3.940318628234797949e-01
-1.380250202059048581e+00,-2.554618155547594860e+00,-1.711714184060104671e+00
-1.126521266247078268e+00,-3.922446994169705548e+00,-3.280911622984292730e-01
-6.083372951304369947e-01,-2.678242104033118909e-01,-5.452305318725447769e-01
-1.764253677790334374e+00,-1.496268594160885534e+00,-1.729239366786322396e+00
-6.770981676899165969e-01,-2.664094427085410555e+00,3.244882235364821566e-01
-8.167979645223859553e-01,-2.857025294559614625e+00,1.713737019269043760e-01
-2.065836598818425518e+00,-1.367151046805303860e+00,-1.296286027527483897e+00
-1.436429112769349592e+00,-1.069336914864659649e+00,1.917562212546527478e-01
-7.529534135705809872e-01,-1.858372566490037681e+00,4.902519115607246181e-01
-1.337237329509165074e+00,-1.657652871984456322e-01,2.212465098011104914e-01
-1.757244527207435736e+00,-4.786481655709666327e+00,-1.023820759379673540e+00
-8.591630021975891207e-01,-4.060932800140570204e-02,-1.171641293531458655e-01
-2.113808677667520008e+00,-3.266069837414414812e-01,-1.173685925658475071e+00
-7.053073282238198072e-01,-2.657124649944690553e+00,3.364028234425368025e-01
-1.783518795740440810e+00,-4.787184608582419010e+00,-1.274020643674098174e+00
-9.120591246504951011e-01,-1.409935350823892375e-01,2.269212544336424997e-01
-1.807417744096994905e-01,-4.703623908600759740e-01,2.286888269223169290e-01
-1.144274084753305720e+00,-2.017330212821022428e+00,-1.353033843563814509e+00
-2.247802852374089222e-01,-1.675589121878357179e+00,-5.835136409322796425e-01
1.635260175011243600e-01,-3.050801260370672452e+00,-5.171025972601561715e-01
-1.862985788134283061e+00,-5.689536668700091449e-01,-1.551059084707792302e+00
-9.799480078007932748e-02,-4.321846623451111924e+00,-2.460066271518420999e-01
-1.822389968723152176e+00,-3.720921669334117610e+00,-8.135443630908515411e-01
-4.766495821849662806e-01,-1.851100124803655156e+00,-8.683196951374964057e-01
-8.141002478005586462e-02,-3.788181160364448630e+00,-2.222052860958438347e-01
-3.921563313050057120e-01,-1.131240813662690137e+00,-5.334958901334230230e-01
-8.604114095934015660e-01,-9.703751221609022704e-01,-9.704398055038171433e-01
-1.304325293038450240e-01,-2.054552774707880669e+00,-3.832438774693245481e-02
-1.297424166290355618e+00,-2.941874526300949810e+00,-1.728056931401660279e+00
-7.668842918529871211e-01,-7.131256793325714272e-01,7.464533093635096206e-01
-1.529550805442609684e+00,-4.653452029923207611e+00,-2.003684127023388939e+00
-5.137571448687421327e-01,-1.009522453347319715e+00,-6.167582554479942303e-01
-1.938392689840516825e-01,-3.962866918530677518e-02,-1.784173677936401470e-01
-2.301738490000647896e+00,-1.462399092348225516e+00,-1.037058120911775072e+00
-1.912331573614712177e+00,-9.654912533187655077e-01,-1.509465061522183182e+00
-8.687600770796606309e-01,-3.005010154838385628e+00,8.960121727883187115e-02
-1.686313549088259922e+00,-4.747231018421019577e+00,-9.943256013354159206e-01
-9.341450643884202654e-01,-4.400873915705872719e+00,-1.856685617022556523e+00
-1.638845377851749108e+00,-4.231011601306639697e-02,-5.591022109253768191e-01
-2.443408600143260057e-01,-7.696903345416740150e-01,-4.108339612026888910e-01
-1.517185424715369546e+00,-4.223061876539947690e+00,-7.342921916252915793e-01
-1.078507651315582017e+00,-1.099708358151268328e+00,-1.080211923180870892e+00
-2.330337866509965661e+00,-3.100779377031851691e+00,-1.083193756661195106e+00
-1.584459930292560825e+00,-1.130937797848631021e+00,-1.537735786767985946e+00
-7.149434973918953815e-03,-2.909942296297382658e+00,-2.525472340076695410e-01
-7.118429501373810808e-01,-4.829618394144578275e+00,-6.737698977644571707e-01
-1.901257758320248348e+00,-4.523292802843095650e+00,-1.110565242630658034e+00
-4.331857507193966894e-01,-3.322519355735072288e+00,-1.161241277883727330e+00
-1.191563465768164409e+00,-3.178568155124779082e+00,-1.418496488320532545e-01
-1.595524404601712742e+00,-1.491689759510161917e-01,-2.036227397245914950e-01
-2.247670448052327963e+00,-2.374210794540425606e+00,-8.299995000787425692e-01
-4.158650621964003480e-01,-2.019099714678543656e+00,4.153485232035415975e-01
-7.163377421268383172e-01,-4.727507104585899178e+00,-2.485281466421226659e-01
-1.788692691710084492e+00,-2.457111260887405724e+00,-4.749866932446046297e-01
-1.839691029789786381e+00,-2.845997759912809677e+00,-6.183376669136387838e-01
-1.947487423648476046e+00,-3.465400229867295678e+00,-8.700684578045723150e-01
-1.329361662862299509e+00,-3.834905722341551026e+00,-2.010541711333517778e+00
-8.161481797606739974e-01,-2.191703923606474369e+00,2.946891584314295098e-01
-2.139991821772222469e+00,-2.021406446178329208e+00,-1.305220708289049902e+00
-1.562060931408104647e+00,-3.129260720037041033e+00,-1.966702162591178915e+00
-8.741755032334329600e-01,-2.438642449299019077e+00,-1.290032722564716794e+00
-4.196586234222963174e-01,-1.198137087750350993e+00,3.945324915613284134e-01
-2.282882749635107178e+00,-2.102518339088719657e+00,-1.002334366348593298e+00
-3.046535683527810123e-01,-3.764332245342274064e+00,5.911656508788336317e-02
-5.779663794777837316e-01,-3.518241511867607585e+00,1.514701227966643859e-01
-2.152424042376430702e+00,-1.119822781527555655e+00,-1.256070906334037396e+00
-5.930299416296350712e-01,-2.713403035661242857e+00,3.945633382488411556e-01
-1.052606038823806989e+00,-4.082483948361533166e+00,-3.477677324839210105e-01
1.614243261640550264e-01,-3.041596787503413779e+00,-7.058920123234176947e-01
-2.039318934778168391e+00,-3.471907823881129840e+00,-8.890999596932925852e-01
-1.078197932698919947e+00,-1.627916683558144895e+00,2.846178811523744634e-01
4.554605306212222010e-02,-1.388880512247992582e+00,-2.670261165659973401e-01
-3.934818151458503444e-01,-9.851595117460962836e-01,-5.156904992043541691e-01
-2.407302404927022188e+00,-4.325077914019583303e-01,-8.273103157230549121e-01
-1.491796063218134294e-01,-1.764291187977104824e+00,-5.226154501607409575e-01
-4.488854436594838515e-01,-4.143773986904704110e+00,1.153696839708958227e-01
3.496772225113807531e-02,-1.159881652179250322e+00,-2.695441915973739722e-01
-1.395671401260118349e+00,-3.434645566740929912e+00,-1.956945045915942982e+00
-2.338637793904358553e+00,-1.820130768154422540e+00,-1.006371972878165044e+00
-2.451715788854152311e+00,-1.444835028217029471e+00,-8.549728898578696779e-01
-1.839313880343944163e+00,-2.573742933289700385e+00,-1.818609778637235497e+00
-1.195839024376989072e-02,-2.846222074379965328e+00,-6.934607241616191908e-01
8.223683635097618627e-02,-3.823328616051070661e+00,-3.983789389974605744e-01
-1.204176341790487381e+00,-4.105777539778811547e-01,4.986697294694381610e-01
-1.677922284187878477e+00,-1.379480952996969378e+00,-1.270129013345478175e-01
-1.061858804648354138e+00,-9.126524202288199827e-01,-9.973925701839605473e-01
-9.397418945878736052e-01,-2.230321008652693671e+00,2.134671177438225154e-01
-2.304051284813662670e-01,-2.368618802139105917e+00,8.254085301360584992e-02
-8.167383782433984551e-01,-2.343802157649141904e+00,-1.307070863294081731e+00
-1.611594551982867385e+00,-3.501602440099156777e+00,-5.645875843728648258e-01
-2.144525862476807099e+00,-3.075852768461119879e+00,-8.910626906464708119e-01
-2.295549500065890314e+00,-1.001837970834833280e+00,-1.007689880467707244e+00
-6.172868049347164376e-01,-4.868993412324953418e+00,-1.947357374500232330e-01
-5.568027445199791314e-01,-4.837125838797832422e+00,-5.431548567998407684e-01
-1.749160956331548888e+00,-5.666154939125693513e-03,-1.421960485680906494e+00
-3.946337012823661894e-01,-3.104238229728990994e+00,2.908414746808057338e-01
-2.218655928268630784e-01,-9.424949939312456948e-01,2.398491103374702782e-01
-6.222732779573735273e-01,-3.087477374888957904e+00,2.194398308597706182e-01
-1.562032597032232184e+00,-3.180790153665983055e+00,-4.876937410394375227e-01
-2.958557552077298869e-01,-2.095554646876335081e+00,1.533464162416294241e-01
-1.906095609598670082e+00,-4.212931113966448926e+00,-1.806727287387008385e+00
-9.067597003390890364e-01,-4.859509185934534514e+00,-6.282259515376382719e-01
-7.149222781443537178e-01,-2.030918685082757413e+00,-1.117150405308883210e+00
-8.533860908416200652e-02,-6.372785724990196465e-01,-8.746457725341315673e-03
-5.357532121008444781e-01,-4.073243933991903987e+00,-1.493976646677303899e+00
-1.968388132194820894e+00,-1.178552922547603687e+00,-2.430396314706493865e-01
-4.947872410605584914e-01,-3.197480323542367220e+00,-1.255630757587356428e+00
-3.724441813108880783e-01,-6.346180693939285078e-01,4.248299592198540586e-01
-1.018920811254697911e+00,-1.904338779202191301e+00,-1.272063540733901821e+00
-2.547214110925752006e+00,-7.422316447381122062e-01,-6.072303376736468694e-01
-1.804327631858571035e+00,-4.490090583888534798e-02,-1.363120370771269352e+00
-6.695209767363042852e-01,-1.585330196485591925e+00,5.891959438841848362e-01
-4.741194271151781270e-01,-4.014889129400214252e+00,-1.398457495008364582e+00
-2.201445393858283861e+00,-1.219680605842032417e+00,-1.130696580149102681e+00
-1.693233931145819771e+00,-1.488800537741835628e-01,1.606437680303224036e-01
-1.324077239620340629e+00,-3.751791376978668602e+00,-1.983636604381410429e+00
-1.594589683986511464e+00,-1.441550570081695293e+00,-1.555775649784853387e+00
-1.753752431715904114e+00,-3.694887177068126305e-01,7.396307305059408865e-02
-1.600656281284066118e+00,-3.681523888588465798e+00,-2.125176556019810814e+00
-1.745155009337099050e-01,-3.090438589038477346e+00,-1.855351885253489139e-02
-9.618328465266724470e-01,-6.845066351459763165e-01,-9.171838869329778099e-01
-2.266325910219334716e+00,-3.323833686094457729e+00,-1.078776178559467169e+00
-8.783957527368124740e-01,-5.636525623628031445e-01,7.488961799071042202e-01
-5.906382747285303658e-01,-3.464283743825602002e+00,1.971239917314516754e-01
-5.238272228082324622e-01,-3.370231654237103136e+00,-1.275882686763158969e+00
-9.822726711668926525e-01,-2.743357212479748064e+00,4.151024493992066383e-02
-4.040951879519176226e-01,-4.904372858983809813e+00,-1.866310505685715160e-01
-6.770051207090443945e-01,-1.912714884974168861e+00,-1.002838998720280594e+00
-1.231244362804842174e+00,-4.779885460881639681e+00,-1.089617418951057015e+00
-1.638038627756445376e+00,-2.431363426713506026e+00,-3.367636214042811771e-01
-7.058456732367032194e-01,-4.586609131718510923e+00,-1.687454740683408394e+00
-9.441582416537138700e-01,-3.185732224807217960e+00,-3.417034984819239396e-02
-2.265568236963099835e+00,-2.738723607215867162e-01,-1.051865645920677217e+00
-2.387629829068645293e+00,-2.861185117376046083e-01,-8.264360344243146805e-01
-7.574992101697823887e-01,5.922198498019060064e-02,-4.327762185524338667e-01
-2.392365706849239437e+00,-1.378298254683461010e+00,-8.705023377273503060e-01
-2.468355644387904668e+00,-2.770877144007582449e-01,-4.256383476886528849e-01
-1.249270100416186580e+00,-3.685656459434970333e+00,-1.905858630545043120e+00
-1.368496327343181385e+00,-1.328275336071326862e+00,1.539087752005174892e-01
-1.677946161761758592e+00,-2.751171091138572833e-01,-1.370487854263286565e+00
-1.678893320134698386e-01,-1.146060931515250569e+00,8.459734887726223784e-02
-1.648444294607193106e+00,-4.552151990954130589e+00,-9.385152009915073146e-01
-1.412408837016585261e+00,-4.595434290686072565e+00,-2.246116341824864637e+00
-1.070161577665365904e+00,-4.753000010541342135e+00,-9.693016977957982228e-01
-4.589935862261930732e-01,-4.215634556952775114e+00,-1.440515184686341987e+00
-5.733772014067933798e-01,-2.846765080945623083e+00,3.587872623617919254e-01
-4.050708820542650579e-01,-2.409406396782576731e+00,-9.523794453072630395e-01
-8.996615220426031900e-01,-4.710936793869185735e+00,-1.179316500844391546e+00
-1.931456713729952757e+00,-3.483159255539070909e+00,-8.191358522816836185e-01
-8.884649150871557488e-01,-2.701569723111806542e+00,-1.320416281420388360e+00
-1.383985181762480643e+00,-9.805888447496549087e-01,1.951584605653862159e-01
-2.206928649825813160e+00,-1.301122539056876803e+00,-4.923074746954303471e-01
-2.107091577639762736e+00,-2.601528693007006954e+00,-1.360241213510805958e+00
-6.665315027508663670e-01,-3.499246236576582181e+00,-1.438465453625167756e+00
-9.617554261874762256e-01,-1.342348811703148126e+00,-1.101988326925753547e+00
-1.009848179812314450e+00,-2.101857571749643494e+00,1.779036937584856370e-01
-1.566373664539428834e+00,-3.526119802444755980e+00,-2.095491491263784312e+00
-5.556793243291833218e-01,-1.685094193434025223e-01,-4.732216433942255107e-01
-2.249197105410803754e+00,-2.315229656295080485e+00,-8.409580658548746479e-01
-1.762636762804658863e+00,-1.069033168377445664e-01,-2.401406948869148072e-01
-2.544017170508924952e+00,-5.343240032642866399e-01,-6.749482988901195357e-01
-1.182041084646914486e+00,-9.949933112825702919e-01,-1.131644692025067567e+00
-2.174533290670675190e-01,-1.815300269804669131e-02,1.175154685468284693e-01
-1.534127062444475165e+00,1.039345971633163640e-01,-1.111048989967839074e+00
-2.004904668347373686e+00,-2.457122246147183109e+00,-1.623063236543623056e+00
-1.866565438495074503e+00,-4.709641631728393563e+00,-1.563926620592994254e+00
7.405922073989042176e-02,-1.617064866892925501e+00,-3.665941253406534983e-01
-1.925054102759655938e+00,-8.386835243002802587e-01,-1.504557111092397426e+00
2.727291849444086203e-01,-4.221677753050371962e+00,-9.055401002064215055e-01
-2.363793138224776769e-01,-2.772323133836523290e+00,9.250423864593360079e-02
-1.445773438022485369e+00,-1.500116059751840591e+00,4.261534545221887585e-03
-1.930631068927986416e+00,-1.711280560876586865e+00,-3.759977246468517720e-01
-2.387407041486288239e+00,-3.128915741253932709e-02,-7.403770618344436283e-01
-1.540815171972445885e+00,-2.754367716952631495e-01,2.764702033406329362e-01
-2.875611481318464668e-01,-2.179770969078728804e+00,2.442863553316869385e-01
-1.871180978443811149e+00,-4.809923805226047122e+00,-1.153737499789674326e+00
-2.338700898241892645e+00,-2.815161236052533322e+00,-9.697479086713531871e-01
-1.226649998787852081e+00,-4.403780830562824988e+00,-5.831755788923119743e-01
-5.729874752673771443e-01,-2.886602654547916647e+00,-1.227873121170014459e+00
-1.282711286449123023e+00,-1.076476164168052030e-01,1.537181871560545920e-01
-1.798098383132251676e+00,-4.769999583527755327e+00,-1.346100139668460649e+00
-7.384969469368156680e-01,-8.460124514624625669e-02,2.902637168427971148e-01
-1.537001914338349318e+00,-3.636979681709433532e+00,-2.124390008754387438e+00
-8.806851922008995803e-01,-4.447635224038128499e+00,-1.795346820397320409e+00
-7.860052075127964555e-01,2.977563595265097368e-02,-4.237281063152463778e-01
-1.555479171213242306e+00,-3.647134649074057489e+00,-2.143397477058611056e+00
-1.307496802507022604e+00,-2.352787118238745645e+00,-1.618752939015501990e+00
-5.361546766729528013e-01,-1.971216652545600967e+00,-8.812559901525485184e-01
-1.637828132437382678e+00,-2.620650832042866085e+00,-4.124230205344938116e-01
-8.684253523306529887e-01,-1.931555324900118054e+00,4.192876184188482069e-01
-2.175168922808105698e+00,-1.362002633368260829e-01,-1.067265488951816055e+00
-4.739580235568410793e-01,-1.641456656596105512e+00,-7.411293860465451022e-01
-2.152051024882029484e+00,-4.510669101268778292e-01,-1.162863740210217323e+00
-9.971131301478691755e-01,-4.323478736842392145e+00,-4.102489148466739732e-01
-9.278383342633832465e-01,-1.089229185637090813e+00,-9.415544109816060825e-01
-9.937137138325928820e-01,-9.244266882458605783e-02,-2.786451873058932993e-02
-2.591480354020272991e-02,-1.273021083779232621e+00,-3.306688824056840392e-01
-8.045239256757703572e-01,-4.857798916802380518e+00,-6.991686861589522239e-01
-1.553716912404312200e+00,-2.631963400931269792e+00,-3.808845826299434023e-01
2.131554061713680226e-01,-4.694197993656629819e+00,-9.061946103988788304e-01
-1.720669593289962940e-01,-7.393089145435629561e-01,-3.226190416090310986e-01
-2.041650761519775426e+00,-7.728591157468087669e-01,-1.345650735555565358e+00
-1.244561381687798951e+00,-4.557539434619797269e+00,-5.622255917334750830e-01
-1.473222050490147428e+00,3.091241703346514144e-02,-8.052763397218556385e-01
-5.556550061615709302e-01,-3.960857651499551935e+00,-1.409827844161161359e+00
-1.183118448015992863e+00,-4.803377627063588839e+00,-9.922048692975747874e-01
-2.248556138898972767e-01,-2.565734890004635282e+00,1.331565977937764211e-01
-4.993758554758969681e-01,-9.008156284308124206e-01,6.204944640839276104e-01
-6.834331397574923139e-01,-4.379388399801543486e+00,-9.844081923150442559e-02
-2.631471642733994656e-02,-8.161253051471686337e-01,-2.396505976130110238e-01
-2.277442314038935489e+00,-2.023030259902258265e+00,-1.106527363702313860e+00
-1.297129868829586696e+00,-3.050774700950307672e+00,-1.725568397185092806e+00
-1.232926854257788030e+00,-2.420192635434438522e+00,-4.452237437844026868e-02
-7.626314184899628534e-01,-3.145750979032549410e-01,8.537246786879253424e-01
-2.448173904962319902e+00,-1.703327790970208477e+00,-8.853580039234605348e-01
-9.778492658603189502e-01,-6.911064656238661286e-01,6.140595902004301054e-01
-2.277118807512994447e+00,-9.187389985592693264e-01,-4.547736395074787885e-01
-7.954612384696718719e-01,-4.730985990904941652e+00,-3.044527206684535248e-01
-1.972599010851595391e+00,-2.149061389528798216e+00,-5.158172979183300866e-01
-7.330889494295118602e-01,-4.773134829071476126e+00,-1.918797943481893031e-01
-2.084423021531919495e+00,-2.250507753575100800e+00,-1.402070029412083807e+00
-1.835871101722819976e+00,-3.044169383282602226e+00,-6.439091176343596512e-01
-1.879751812652111997e+00,-3.219179224831566710e+00,-1.701707768183552849e+00
-1.631861156305931537e-01,-2.478722900522817383e-03,-9.509227734279257493e-02
-1.724252499746265821e+00,-3.561615776169571923e+00,-2.012679370040018512e+00
-3.487082879317706663e-01,-6.752948185839129369e-01,-4.714084040992483904e-01
-1.949797774913955839e-01,-4.798704099686984748e+00,-5.859759607513898017e-01
1.448825355546143057e-01,-4.140226044475280531e+00,-9.646660828593223158e-01
-1.615531135290898312e+00,-1.594276890355182497e+00,-1.657087584755391196e+00
-1.109104777936937625e+00,-4.626814872298923298e+00,-5.183199886714298099e-01
-1.827676819670325026e+00,-3.374176630291156442e+00,-6.749091448618421696e-01
-2.948867669081318144e-01,-1.865498915931456114e-01,3.526056123033699530e-01
-2.214935544178156412e+00,-3.906491964906460557e-01,-1.051737318527268705e+00
-1.685493569051794926e+00,-2.202041366995765248e+00,-1.818643053896774608e+00
-1.596317914882968259e+00,-1.469501587659749475e+00,-1.611929212097046982e+00
-8.969827095176884368e-01,-4.578414065994631521e+00,-1.822876281965131851e+00
-1.446810732335147343e+00,4.670767433851624045e-02,-8.512320841472423849e-01
-4.418288078260385401e-03,-9.854479760451997361e-01,-2.172057579886685907e-01
-1.026533559154736652e+00,-4.382670103946326279e+00,-3.728983471518360626e-01
-5.458095732223465502e-02,-3.084211909752119229e+00,-1.550997142765700165e-01
-1.899271410203828614e+00,-2.385800054883403298e+00,-1.623042480452680181e+00
-1.077257587203735101e+00,-4.745999235854035270e+00,-5.459991546307739751e-01
-2.598952293548949299e+00,-4.520059978616137730e-01,-5.348473493281069580e-01
-1.920088533034038036e+00,-2.849346820671105451e+00,-6.821757979034784869e-01
-8.691406954824602016e-01,-3.777211806855009346e+00,-1.678834765298812037e+00
-9.231443732534280189e-01,-2.053790883609292628e+00,3.102259301663936597e-01
-6.456060130002423403e-01,-2.679714871977528556e+00,3.978116102029491397e-01
1.798739578026877228e-01,-2.546476218752128595e+00,-3.565069761514877422e-01
-1.064857284643053292e+00,-1.151636613384794394e+00,4.439598807417865500e-01
-4.451069379716861563e-01,-1.005591174972681356e+00,-6.186050511557057430e-01
-1.064495730652745165e+00,3.797930897778280246e-02,-7.840197279564443678e-01
-1.033603409685759589e+00,-3.623682024197455442e-01,6.115473992843072359e-01
-1.085413690287023947e+00,-2.408022640018000704e+00,-1.441468577709777321e+00
-2.366687744795648918e+00,-9.223958841214568993e-02,-7.258701107292877541e-01
-1.080009005570074843e+00,-1.436525072439447381e+00,3.612725223878613945e-01
-1.075424125351525095e+00,-2.268327279873068036e+00,-1.369608482665234606e+00
-1.660546219471038309e+00,-1.556435393564024938e+00,-1.710177827703750042e+00
-2.209688789070700654e+00,-4.088245293544190417e+00,-1.372316455119689804e+00
-1.070098035446563234e+00,-8.915931154844695117e-01,4.822143441821674648e-01
-2.516491507605168043e-01,-2.103616755955670659e+00,1.323302325002214952e-01
-2.231331447210768371e+00,-3.664609503855806860e+00,-1.310872567757114471e+00
-7.756234515061302126e-01,-4.829783722698930859e+00,-5.517931947340734000e-01
-1.711399221674416229e-02,-1.894231962938537128e+00,-1.731391592874917951e-01
-1.295329298550515595e+00,-1.478492480702287670e+00,1.394197001350370446e-01
-6.641309558501978794e-01,3.722708678666974969e-02,-3.662393974145403130e-01
-2.252864025509152324e+00,-4.242107643554605900e+00,-1.322653858787002701e+00
-5.811991752727773131e-01,-4.014255346577598083e+00,5.746500461106392871e-02
-7.252698477626503548e-01,-9.850314786292425906e-02,8.707860761833541297e-02
-2.684424306480206468e-01,-2.730649130941246394e+00,-9.202240387332299987e-01
-6.098257864073715062e-01,-2.350381931206510233e-01,8.723628367911236969e-01
-5.046894730890006953e-01,-4.898435369568213460e+00,-1.745898362038130203e-01
-1.792490046513708357e+00,-4.744363689770140446e+00,-1.659401120646164518e+00
-2.428883519238349997e+00,-2.167862390952018270e+00,-8.507077553299123851e-01
-4.131458080340393302e-01,-2.115914113482748604e+00,3.468271694769333169e-01
-1.070989494334260161e+00,-2.150834364094283746e+00,-1.347360446165973835e+00
-2.459432122002279897e+00,-1.820626997663241209e+00,-9.097329518759412759e-01
-1.369911799336330338e+00,-4.218221320354035297e-01,-1.189084560215343034e+00
-1.760698616650970827e+00,-4.805624235578968673e+00,-1.201638471554211662e+00
-5.257052528750160575e-02,-1.513292233779932827e+00,-4.111303095302158983e-01
-9.405795659104170259e-01,-7.933620751747991751e-01,-9.553219128430785467e-01
-2.060825979688672760e+00,-2.739135315661687553e+00,-7.103820727579218675e-01
-2.054583511498446313e+00,-3.763449031902299513e+00,-1.027958607101795208e+00
-7.672416281297894658e-01,-1.051327541259045706e+00,6.757628152471975014e-01
7.176819874852899406e-02,-4.624716819341028184e+00,-4.179466881178514059e-01
-1.796196220379072894e+00,-1.483250314652122759e+00,-2.024031860718481513e-01
-1.216254595244406600e+00,-4.702090189103113715e+00,-1.542470137243113326e+00
-2.040779756363092279e+00,-4.245928014927591754e+00,-1.179323538088305812e+00
-2.550993024512960283e-01,-3.327097362024378668e+00,1.078056182830872817e-01
-2.431913545578417712e-01,-4.872176538892325048e+00,-3.115706227611195756e-01
-1.973543506304551665e+00,-1.907319595060076312e+00,-1.469014821839055740e+00
-1.669205454808749600e+00,-4.994038556282146546e-01,1.600352688751848218e-01
-1.519480643578772217e-01,-3.734994386024801827e+00,-1.187932773823468097e-01
-7.913273143412330457e-01,-3.066507916639848119e+00,1.353486649558205412e-01
-2.065015319634260660e+00,-2.188547426872508694e+00,-1.448197914916361517e+00
-1.514736564585205114e+00,-3.230860776129454770e+00,-1.994284598686138832e+00
-1.475724764820226298e+00,-1.645024559289838040e+00,-1.576555966995212499e+00
-2.295351864941129527e+00,-1.249941448860637738e+00,-9.637134738380893628e-01
-8.659850513405269179e-02,-3.130143156835605289e+00,-8.707846657242954702e-01
-2.191223338755020844e+00,-3.728694441215791855e+00,-1.373275066663607102e+00
-1.403930430051793188e+00,-1.132747199633576951e+00,-1.345199147606378265e+00
-2.279307204004319409e+00,-4.126851094452899993e+00,-1.319168951766601428e+00
-2.111220422618146131e+00,-1.997410711177751264e+00,-1.309864348919273169e+00
-6.087417126795600097e-01,-3.013840121607386013e+00,2.496544300105085767e-01
-2.257935866390390789e+00,-3.603399728339601094e+00,-1.312249458311915085e+00
1.482615919024000695e-01,-1.486730288190318605e+00,-3.308908220724540161e-01
-2.014236655888526961e+00,-4.701001725311465540e-02,-1.337638660828435411e+00
2.670408488278640594e-02,-1.977065892476003173e+00,-5.089275237023376253e-01
-1.336067302868081619e+00,-2.037399431380273018e+00,-5.095623525302141188e-02
-2.155331496598876129e+00,-2.595832918819296342e+00,-8.279565513748780026e-01
-1.391304446891005631e+00,-4.053347030548672514e+00,-5.521522061653596491e-01
-2.303384094818953898e+00,-1.993396774137280447e+00,-7.735331144217181265e-01
-6.894671951349279349e-01,-4.172982158198088598e+00,-1.632013714809607663e+00
-1.945017666969917958e+00,-2.982809026315611955e+00,-7.389810462455763673e-01
-1.621202137032050183e+00,9.028675029101354554e-02,-9.140918274149162359e-01
-8.934382870219842454e-01,-4.700307412906274962e+00,-1.322846895850930737e+00
-2.824171839823217955e-01,-2.740014738975863562e+00,3.176718632803393269e-03
-1.595422725740877512e+00,-1.692025296742681872e+00,-1.325818951981233840e-01
-7.206759692878211832e-01,-1.602709007487014725e+00,-9.734886815301351248e-01
-3.678596582228160217e-01,-1.279760842860572678e+00,3.570279985322798444e-01
-1.174018781058325578e+00,-4.475641189804891340e+00,-2.055537843413592469e+00
-8.503498202266842609e-01,-3.663744263567314530e+00,-1.604682448358209612e+00
-8.940845797981443743e-01,-2.042436062662759344e+00,-1.201554977181825246e+00
-2.331580657251739908e+00,-3.009366796596184557e+00,-1.029779718288488688e+00
-1.185004972612577534e+00,-4.163379051234936234e+00,-4.942936087546766499e-01
-1.471592744009175557e-01,-4.204927588770110525e+00,-1.943949586230722393e-01
-1.876605952800628252e+00,-2.875556671774916584e+00,-6.414682404948677252e-01
-1.256654792766623396e+00,-1.975233085510498698e+00,-1.498131585711527825e+00
-8.117081438357535150e-01,-4.094600505171289484e+00,-1.643072044377276830e+00
-2.410248524756330113e+00,-1.896547314111744154e+00,-8.447829213632684908e-01
-7.045285437511651649e-02,-3.609761458725166516e+00,-2.638418789152310318e-01
-1.065114053783351222e+00,-1.943747987381381215e+00,2.119910626010031440e-01
-6.262798389417947309e-01,-2.454777216320273681e+00,4.162772480436347511e-01
-2.025024350328678002e-01,-4.310634231380579884e+00,-1.383020318982400854e-01
-2.234526618942556553e+00,-3.331029044284334439e+00,-1.014221045805149268e+00
-2.882453244480733257e-01,-1.260442179546629182e-01,3.965865754929623899e-01
-8.584452954938706082e-01,-4.321851535395868638e+00,-2.864293576768029426e-01
-3.418592019230423107e-01,-4.589320002175276692e-01,-3.721176026728475472e-01
-2.268897535344312488e-01,-3.276619257040625399e+00,5.499015308394194362e-02
-8.455137615099187487e-01,-1.916742747248483703e+00,-1.162320690374399890e+00
-1.810174894249435784e+00,-8.813057875036843791e-01,-1.119865985514181123e-01
-3.742729254809897266e-01,-4.466606784386629059e+00,8.992729692808459907e-02
-1.911012730564186413e+00,-2.399935232370150384e+00,-1.642812363863656255e+00
-5.812655381624031170e-01,-4.463263223688341164e+00,-2.863248030086393281e-02
-1.770441260126411231e+00,-2.156958084937906417e+00,-1.812482167808061151e+00
-1.309074763056961466e+00,-2.791075472401242319e+00,-1.456297535227089601e-01
-1.875984313032961426e+00,-2.131984824256235367e+00,-4.335318701846497258e-01
-7.995053070107992488e-01,-3.222823662469843864e+00,-1.438451745069971421e+00
-1.870047358065860532e+00,-4.590849271341512328e+00,-1.897887856381658356e+00
-2.663728488409048967e-01,-4.672589698889365373e+00,-1.281088093108076587e+00
-1.964378718632226350e+00,-3.348888324180419485e+00,-8.459258186369131849e-01
-6.222096912597386842e-01,-1.291149706846050349e-01,-5.698840939653180282e-01
-1.690964517304666126e+00,-1.566797231374677413e+00,-1.414586723870691620e-01
-1.422496402963975726e+00,-2.121846880952452885e+00,-1.661238715584687720e+00
-1.909644375295641572e+00,-3.319433169717364240e+00,-1.762287870373542731e+00
-1.067944563700772731e+00,-8.180511970503007158e-02,2.091009495311983019e-02
-6.529654477988385830e-01,-7.612295745703745453e-01,-6.825810418199335095e-01
-1.798563681848860396e+00,-4.283139944235553997e+00,-2.019759673406011480e+00
-2.194774379605274550e+00,-2.411951795163396639e+00,-8.068564071371939761e-01
-8.922699699410708840e-01,-1.025402451898354217e+00,6.241907832945864376e-01
-1.734254684174244332e+00,-5.947150642406170418e-01,-1.518245677792190662e+00
-8.108736713227103488e-02,-1.299271550945745757e+00,-2.425283645400615889e-02
-2.063524358514152723e+00,-4.476551082167349455e-02,-6.007134726059033536e-01
-1.510077778236212032e+00,-3.290471152269860866e+00,-4.792671465803322595e-01
-1.725353902799546590e+00,-2.088894885952639335e-01,1.564283962368858694e-01
-4.418186033983543815e-01,-3.522311400514834823e+00,-1.263103914981185127e+00
-1.880535170687232860e+00,-3.603145537276103649e+00,-1.706779431927841317e+00
-1.780902888227319902e+00,-1.538294150821902240e-01,-7.342035903432210520e-02
-1.316932362167570814e+00,1.477509520101447787e-02,-9.665649647268459432e-01
-1.645381133056551759e+00,-3.381278467286827016e+00,-2.056612808470124065e+00
-2.886892897826019433e-01,-1.092626705485134186e+00,3.782254387565199272e-01
-8.832962569679265741e-01,-4.598821775151457736e+00,-1.784862054378863139e+00
-4.031371253933720422e-01,-2.774296705492794057e+00,-9.970186369720526187e-01
-1.752926404317281861e+00,-2.536421782307379580e+00,-4.503019372711912216e-01
-3.029425868057727955e-01,-3.505967852687332798e+00,1.234880987550185105e-01
2.306304868129825381e-01,-4.480986413808828672e+00,-7.052369715670624428e-01
-1.462091712343921435e+00,-6.908582080389059910e-02,-1.174015002267517760e+00
-7.346029523912601666e-01,-3.314921893837500799e-01,-6.498278909134331816e-01
-1.925097148464473662e+00,-1.862164930056991186e-01,-1.403344794389522088e+00
-1.002312566838714725e+00,-8.231773486608398027e-01,5.471693975830667078e-01
-2.157797994327724567e+00,-3.059469789827524711e+00,-1.324483839697007559e+00
-1.718551824233342407e+00,-4.682995395822227458e+00,-9.940173030719434699e-01
-2.045539360781554183e+00,-2.034909458785430836e+00,-5.460339298062611979e-01
-2.159768629031827647e+00,-1.065784823233237644e+00,-1.172824775379307738e+00
-1.233875562676524096e+00,-2.610721405412660956e-01,4.930552071919201973e-01
-2.018365375144091978e+00,-2.304718040615318042e+00,-5.721879442109256697e-01
-1.093517779397574996e+00,-1.604643599106813756e+00,2.638780183506473920e-01
-7.886596770555787117e-02,-4.551442806327186119e+00,-2.203760058207661909e-01
-1.964816040343118297e+00,-1.689355306094190601e+00,-1.485950242805974764e+00
-2.288490548996270912e-01,-4.865357870146231001e+00,-1.107744105060154000e-01
-7.557351603866576673e-01,-2.709497473491881081e+00,-1.290631863477202268e+00
2.039087724455018735e-01,-3.058781516107378362e+00,-6.501874115369234985e-01
-3.308988999481519977e-02,-4.380493421693711364e-01,7.635731710421299334e-02
-2.312685660328459125e+00,-3.315507567867058469e+00,-1.192062889542501170e+00
-1.183088663274969976e+00,-5.010326980949333375e-01,4.292200032478939997e-01
-2.102420472107550786e+00,-1.602087801058469374e+00,-5.185880540047655973e-01
-3.056681128143971526e-01,-2.292959465361907423e+00,1.238376560059504666e-01
-4.744475435590386064e-02,-6.733595557897946726e-01,-2.350188410645432935e-01
-2.198048712093460200e+00,-1.557211792351369972e+00,-5.650212540823695839e-01
-1.564114814645652052e+00,-2.914978876198571101e+00,-1.965819959434074171e+00
-4.373124425603005516e-01,-4.142950010959021157e+00,-1.381496353787396991e+00
-8.488561933255179826e-01,-2.027896954405294938e+00,-1.180826420829355516e+00
-2.139685761445845991e+00,-3.748508128619378876e+00,-1.444236499601424750e+00
-2.044440514826752153e+00,-1.752375342012691739e+00,-4.594643167890614666e-01
2.062490078763977441e-02,-4.720486069331456314e+00,-3.871333567845287038e-01
-2.312074050036052597e+00,-3.227921266303422687e+00,-1.199263353356847528e+00
-1.196690620817540296e+00,-2.607885642980828145e+00,-8.135938645680119985e-02
-7.566020201028426095e-01,-1.541578423373544782e+00,-9.722810281502927143e-01
3.082235498876242374e-01,-4.475900848073193217e+00,-8.093899211812425332e-01
-1.651171177350871044e+00,-1.086168414308825492e+00,-1.586851948742826091e+00
-1.511277868002866009e+00,-4.639407790556503208e+00,-1.697113699096824524e+00
-2.612133249335848451e-01,-2.209969138415176282e+00,-7.757014444556002974e-01
-1.794222303690859111e+00,-2.206125255163336352e+00,-1.818669041319635804e+00
-2.214112154298603752e+00,-3.748279726325870254e+00,-1.353388580811573094e+00
-1.669008772578070010e+00,-4.206211613933488636e+00,-2.197831652072022024e+00
2.327808372584242724e-01,-3.455403280423422707e+00,-6.252504082954846165e-01
-9.766376847101728709e-01,-1.336598389079124427e+00,4.587842311101583692e-01
-2.029861357171846237e+00,-2.083106406478853145e+00,-5.582639432668852209e-01
-1.737853808461547134e+00,-3.334809175540681125e-01,1.785630219072878999e-01
1.847677010347953050e-02,-2.502038225910432789e+00,-6.303035229189716260e-01
-3.404222868206522867e-01,-1.361898073949352472e+00,3.012430733689176465e-01
-3.629751175151358922e-01,-4.569279039380334417e+00,-1.393364868402904078e+00
-6.131512646983932058e-01,-5.770740519152410819e-01,-6.445443367217392749e-01
-1.030310738793193126e+00,-3.891822773310194550e-01,6.490331482594076107e-01
-2.021875747878647100e+00,-2.108014251327760658e+00,-1.477128817502159741e+00
-2.417938953378397038e+00,-2.345064371454599339e+00,-1.008968439731898759e+00
-2.361388249123120175e+00,-1.846224525329382082e+00,-7.234877753787484211e-01
-4.605872360820290057e-01,-3.419461026840857176e+00,-1.226386473509823993e+00
-1.883822568943698927e+00,-4.711310068132409157e+00,-1.787957154110698443e+00
-5.325185618809000765e-01,-6.115884690866992823e-01,6.473171396642160014e-01
-2.121046787162252034e+00,-1.645821587767067662e+00,-4.757736357067923194e-01
-1.059806488343069786e+00,-2.627702237594696788e-01,-8.887435189442863814e-01
-1.747722558384460889e+00,-1.954743197197004179e+00,-1.750903757953769180e+00
-2.207455582291035334e+00,-6.212546262369915695e-01,-1.078884900971381677e+00
-2.084822386747832379e+00,-2.854120851547961926e-02,-5.267170502415359223e-01
1.719534643700187659e-01,-3.931981940564182487e+00,-8.920620200936294486e-01
4.627626045023576148e-03,-7.116196629467531898e-02,-4.728150141461026634e-02
-9.352642414291530981e-01,-2.269168507319890171e+00,-1.283271501202606801e+00
-9.378852738698029157e-01,-3.533802044155101907e+00,-1.616822306561001454e+00
-2.215586885457229815e+00,-1.062650930919059045e+00,-4.216249008028057355e-01
-8.432899282757710946e-01,-3.798171922758652563e+00,-1.683580262934388116e+00
-6.698995554435684951e-01,-2.137770046081386432e-01,8.683692716687259061e-01
-1.009749456508973742e+00,-5.798851903645056982e-01,5.863222656589349713e-01
-6.174524696108580901e-01,-1.676733109350982520e+00,5.918670199542813704e-01
-2.434742184410239041e+00,-2.322575774312087837e+00,-9.412676649138066454e-01
-1.493768919654943073e+00,-8.626700803115400218e-01,1.235650256677738729e-01
-1.218643672204017925e+00,-9.002422170773115295e-02,-3.859890588986177318e-01
-1.744152773103142540e+00,-3.808165318630378215e-01,1.506638355391537731e-01
-6.167609433955957288e-01,-1.628128888502073268e+00,6.380472526668424793e-01
-1.155077423456209562e+00,-7.304329487667994281e-01,-1.069249353040839567e+00
-1.454125933762639988e+00,-1.580119118175221438e+00,-1.630494503721442723e-02
-1.092434910314038943e+00,-3.588053835067544384e+00,-1.389949862652684054e-01
-8.481837204914081108e-01,-2.710115357019056703e-01,8.099854210588708359e-01
-1.022749396480296502e+00,-2.585002337531503880e+00,1.053511276566101579e-01
-1.108211600990322010e+00,-4.225146394238425529e+00,-1.895502161235703253e+00
-7.065548313477155312e-03,-3.102958205172932971e+00,-2.856748456967897476e-01
-1.340900218215141493e+00,-1.045020969262864530e-01,1.102919195722898843e-01
-5.130453860682548939e-02,-9.981467176391356499e-01,-2.726778895246690163e-02
-1.666848723708872493e+00,-2.257024027922196474e+00,-1.851924268979222132e+00
-1.284280831947246959e+00,-4.281984920142248185e+00,-5.406853409826883894e-01
-1.747915945588601971e+00,-5.001570628813853947e-01,-1.542358164992544189e+00
-1.751391914149116769e+00,-3.511043192529802237e+00,-1.891030077827860367e+00
-2.418097519001771722e+00,-1.373996891714306168e+00,-6.933911693388815634e-01
-2.117610477444209938e+00,-2.011022856907052514e+00,-6.209768234584945867e-01
-1.617719204325075877e+00,7.081447332270507378e-02,-9.688377328997879179e-01
-2.791973842500708458e-01,-4.705015769706789364e+00,-1.013246457635113895e+00
-5.273683036574697836e-01,-3.822177803868465507e+00,-1.443331271487376499e+00
-1.860785837184676828e+00,-3.050530668157042768e+00,-1.831814459961409458e+00
-1.617254250524108095e+00,-2.215532618207912474e+00,-3.197787092703061607e-01
-8.494764612457704755e-01,3.503969319303752022e-02,-6.358280840046924842e-01
-4.218878421290552239e-01,-4.472134262184863651e+00,-1.473233532242192334e+00
-7.240770411111594473e-01,-7.710516508676962255e-01,8.486588371552853394e-01
-2.274492681790413862e+00,-3.906280143259551085e+00,-1.329339964074469860e+00
-1.845531185536043228e+00,-4.048155204727960310e+00,-9.208477538380368532e-01
-2.225789128297200214e+00,-1.586996296306490528e+00,-5.497446592289466638e-01
-1.316074333284924069e+00,-2.523915967040114783e+00,-1.702117008818373911e+00
-6.657908029529313598e-01,-3.954691945184475532e+00,-4.709165501930986757e-03
2.027902288905131523e-01,-3.812951384618244788e+00,-6.219561214158394469e-01
-2.126873412792361862e+00,-2.011467471667913287e+00,-5.747044587707461627e-01
-1.686479311354862398e+00,-3.059206982309906397e+00,-2.001001304509824497e+00
-1.949424358326725892e+00,-2.712118969579998318e+00,-1.644623157624992116e+00
-4.292723483354446978e-01,-8.077283958640467665e-01,4.314598811471107020e-01
