-1.604163300564756645e+00,2.751246212073789721e+00,3.574255131338838876e+00
-4.201444750462935751e+00,9.087795429379974532e-01,7.477625776187842632e+00
-5.321248051853311622e+00,-1.638647385524201638e+00,8.830881219049317110e+00
-2.075933876170425130e+00,4.033925797030107674e+00,5.999332842148189293e+00
1.183296628215142476e-01,1.544010674644693104e+00,4.137306225621925293e+00
-1.077829756767727254e+01,-7.745920920391511366e+00,7.484963749947689315e+00
-7.051671216601111070e+00,-5.423526396468759003e+00,9.262455826859564922e+00
-8.527967394012732072e-01,-2.688096133743764771e+00,1.999781371840309019e+00
-2.271722887328554652e+00,1.698179974867078501e+00,2.246230053165092055e+00
-8.473684179788929072e+00,-8.300321307600452059e+00,9.914690676369595224e+00
-2.146446543189309608e+00,-2.624571124460247873e+00,5.764374569552183303e+00
-9.166374846179952129e+00,-4.970489385871854182e+00,9.282325557506268865e+00
-1.151219109756777659e+00,3.339620638652540219e+00,6.213549587683350417e+00
-8.589844933791077608e-01,1.441752802116325283e+00,1.950109664597689640e+00
-6.536348853618051402e-01,2.303601827697487892e+00,5.970501965797565092e+00
-7.951453029699293573e+00,-9.876251834240878935e+00,7.911480678774637454e+00
-4.263475848295716020e+00,-7.439490406424599023e+00,4.131983083048688776e+00
-3.053613715429818853e+00,-4.969343920533494163e+00,2.459043750243349535e+00
-8.942035019109010108e+00,-8.272673496091847767e+00,1.013835779952964700e+01
-4.082775213249741242e+00,-7.438617025568436070e+00,4.271365906294525949e+00
-9.412902197147340999e+00,-7.860539239736977102e+00,9.715181384180564095e+00
-1.004567967894425884e+01,-8.608780049602094309e+00,7.116205725362935830e+00
-3.984572730586867007e+00,-8.700028508225495116e+00,5.576813737097230828e+00
-6.698975703604095333e-01,2.013178847986687892e+00,5.928219006571686656e+00
-8.048104295732274593e+00,-8.563775027592992473e+00,4.753982287444530108e+00
-5.578691600119985772e+00,-1.097105539625304438e+01,6.855375452659074220e+00
-1.148238535374048963e+00,2.467099183287271291e+00,3.902293287290835799e+00
5.646489850996875282e-01,7.580602210144978814e-01,2.860109416836929874e+00
-2.779533755115837668e+00,-4.624366480272912305e+00,2.532355028558864962e+00
-3.192735537079387953e+00,-6.588406495942371599e+00,5.984197259468579944e+00
-9.262647062876856907e+00,-2.884738375220248230e+00,7.296346624401627068e+00
-2.126410858418643191e+00,-3.011650524198808299e+00,1.288193825319491559e+00
-8.220416245581439796e+00,-3.646535754096394744e+00,9.068302655716482974e+00
-9.159387708658565330e+00,-8.913741177044485653e+00,7.522600725294515733e+00
-5.221081833460925026e+00,-9.528045987929317562e+00,7.024806029220870052e+00
-1.777394290725205384e+00,1.405425652948177451e+00,1.775788013733435644e+00
-7.346527144709329882e+00,-5.285416268456231137e+00,4.851770581371872559e+00
-1.831351328877740992e+00,3.807024465682050440e+00,6.601482820590620193e+00
-1.103827948672723025e+01,-6.078537173375146985e+00,8.888152931557392833e+00
-3.099609613071018455e+00,-6.149700613806751370e+00,3.824138810281917600e+00
4.411411879871934283e-01,-1.218107820229189286e+00,4.236840337064951889e+00
-8.384160637686948192e+00,-9.834761771135710262e+00,6.986553101178712311e+00
-1.936844867210835597e+00,6.581963943609585588e-01,6.611197572137821332e+00
1.087181028676095451e+00,-3.474328316431731234e-01,3.822265920940627559e+00
-6.183229217429211388e+00,-2.907029982081645869e+00,4.229797893626890293e+00
-4.235993447136574552e+00,1.613324681216738332e+00,6.781487252503773711e+00
-4.727200082747730292e+00,4.374989781558835666e-01,7.783281723137042363e+00
-4.466330340206111416e+00,-7.028207084073191169e+00,6.942276801236018535e+00
-2.846469425895007177e+00,3.786705816106036515e+00,4.478636434711248171e+00
-8.287497253012734433e+00,-1.064406584824041957e+01,4.628668322690006498e+00
-7.569330308109452510e+00,-1.082173719819664903e+01,6.096628138209662318e+00
-1.136129752300654827e+00,2.491489531808903202e+00,4.014349049245280021e+00
-9.408125637183413659e+00,-5.643054605187822759e+00,6.494026396109847887e+00
7.066487644576495697e-01,-5.546813673256396626e-01,1.425287332359331582e+00
-4.749466228278209079e-01,1.955082232825227972e+00,4.057155132658904151e+00
-7.363190566423273964e+00,-1.028512706924530029e+01,7.727935008851089194e+00
-1.143471964941910635e+01,-6.944581823689974343e+00,8.914881910403067877e+00
-4.456001549104925630e+00,-7.032276411108503211e+00,6.773491063978331894e+00
-6.208298148556659513e+00,-6.246490441847852182e+00,3.541248233581334670e+00
-7.065947371824375933e-01,1.579332843009876752e+00,2.652238046969513707e+00
-1.276179892476402733e+00,-3.276900392192676037e+00,2.086167537599113775e+00
1.411583643025925205e+00,-3.111232009661261122e-01,2.151141724502496633e+00
-4.912502614717372929e+00,-9.327665275163017355e+00,5.584426613541412898e+00
-2.200926991807006239e+00,-1.442954144462150978e+00,1.458196900247202610e+00
-1.037435979657681706e+01,-6.290534534616354811e+00,9.828965569764077870e+00
-4.774435146203551028e+00,-9.877093005286077698e+00,6.373311960408103438e+00
-9.657612474194079866e+00,-8.764456989655574404e+00,7.186581532770034642e+00
-1.251834618965744994e+00,2.922024893833319870e-01,1.150045070045002449e+00
-5.070379281292217044e+00,-8.429401226838688643e+00,7.081754717915174524e+00
-6.191484152878504510e+00,-6.748107846119133946e+00,3.495779047081258639e+00
-5.246235042633318635e+00,-5.204491555057990659e+00,7.972596665004971328e+00
-9.276114130443579242e+00,-5.907590081512111624e+00,6.261721637943053587e+00
4.694625968813679329e-01,5.798926826339630969e-01,1.949683440707612680e+00
-8.395142428646218402e-01,2.217794412315652774e+00,3.981578390464627137e+00
2.663304102527837558e-01,1.103781621364796406e+00,3.475257470738572607e+00
-7.917609023101292109e+00,-6.269574950799168711e+00,9.984860464471823960e+00
-7.949523584108409757e+00,-9.214521709100750968e+00,9.095305932677733907e+00
-9.010389068481728714e+00,-4.018953496787382562e+00,8.633871083521272638e+00
-6.121606201836596206e+00,-1.090479666898242783e+01,6.220022471316180024e+00
-3.077466928240289779e+00,4.251028100855723579e+00,4.936552827790531950e+00
-1.096202245068819003e+01,-7.395951418280493961e+00,7.477150731833666519e+00
-8.103351611866008497e+00,-9.791353472731442409e+00,7.468909846819041576e+00
-7.151312633374797834e+00,-1.295671787979486789e+00,7.220744696182205935e+00
-3.827082369440329424e-01,1.324188500402194713e+00,5.334289420386807201e+00
-4.860815388028610684e+00,-7.608519816005032688e+00,3.970622130315702325e+00
-1.414700743492037782e+00,2.266327423543008202e+00,3.168634478719132286e+00
1.708630601952469519e+00,2.743152483796411009e-02,2.949545101415745663e+00
-5.171584517454232532e+00,-3.727598457931379006e+00,3.439520035714027646e+00
-2.695774562055599066e+00,4.219435999195823683e+00,5.388885626192407408e+00
1.195441102179530590e+00,4.682991944371379112e-01,3.473653709271061540e+00
-8.404411910932010343e-01,2.142362187685995067e+00,3.714256875572070182e+00
-1.024568104599703489e+01,-7.136680100117647640e+00,1.056781647406682545e+01
-2.610496852804805368e+00,3.440632399956933707e+00,3.686008925121040392e+00
-2.869255105120115168e+00,4.083522343202970362e+00,5.396338049726903563e+00
-6.586821508533797775e+00,-2.709423754880468049e+00,9.367644816570981803e+00
9.584857945694424952e-01,-1.252948306714590787e-01,1.759588458202207661e+00
5.852750214595661138e-01,-2.721725133732673108e+00,3.403815643171619332e+00
-1.776444179458958494e+00,4.247795088718386153e-02,6.312964197174783187e+00
7.150042926275631539e-01,-6.903470960898885345e-01,1.299855048067499963e+00
-3.934939397429523922e+00,-5.813830282698858376e+00,2.711206650048781697e+00
-9.171816258058251847e+00,-5.555844677783055019e+00,6.502875884088957115e+00
-1.043140444977765391e+01,-6.953961470687856306e+00,1.039481171388044167e+01
-3.365776005479396371e+00,-5.721209449980177997e-01,7.490134713017849499e+00
-1.172517801450392527e+00,1.318179571515955217e+00,1.334191435322710007e+00
-7.272999079722551885e-01,-1.083963841022034691e+00,5.373170247864625715e+00
-3.587449190714790070e+00,1.892141989210444519e+00,3.473146934810270370e+00
-8.816489124422451695e+00,-8.476735566698456736e+00,9.480171695167120660e+00
-7.466965677492788167e+00,-1.055595373452876728e+01,7.111471012101883815e+00
-1.076808155873330541e+01,-7.271596944257610495e+00,7.374941778999792419e+00
-4.559738661089991929e+00,1.370450349373451226e+00,6.911261470834180187e+00
-6.309217087892051268e+00,-8.858296774023365572e+00,3.808263224027339522e+00
-9.906604407721156136e+00,-3.976003610852618220e+00,7.905876011599057840e+00
-7.017251781520355003e+00,-3.120061960773347298e+00,9.511021371814454284e+00
-5.751426820817171048e+00,-5.635578490883414560e+00,8.372666956476903621e+00
-9.403179430970345365e+00,-9.274795755971693367e+00,6.689152117767774186e+00
-9.214449512708908330e+00,-8.088128214098903257e+00,1.001767035314999355e+01
-9.943886047798436323e+00,-8.223669531201617033e+00,6.373592949525773044e+00
-9.872022272731825865e+00,-5.220225440443956977e+00,9.313570231347446438e+00
-3.172038752407321915e+00,-5.695391253257904296e+00,3.163046333918576813e+00
-8.834060521839637303e+00,-8.930731958269523929e+00,8.503695194514643063e+00
-8.410275354660313951e+00,-9.284312158839735929e+00,8.471309587892294601e+00
-8.228339692786695636e+00,-9.659160652818135517e+00,7.894954925479848562e+00
8.173945932537035608e-01,1.749113834432181325e-01,2.298335007713091738e+00
-6.400873425570493325e+00,5.002814841572820193e-01,6.288428310386488640e+00
-8.860778864507050656e-01,2.053132754097641399e+00,6.153772213873556218e+00
-7.411844434847102647e+00,-6.628534556246886922e+00,9.535702011738155903e+00
-1.003486292183482576e+01,-7.242870442141464693e+00,1.050419723602606759e+01
-7.829224437534672454e+00,-1.048457261262893780e+01,5.776352627014481378e+00
-8.141263721156317246e+00,-9.415193876068311596e+00,8.709126144213872323e+00
-7.370767381540506591e+00,-4.745033768042260292e+00,9.733723180628958360e+00
-6.854823953782854140e+00,-1.027181426788360596e+01,5.117498945276198974e+00
-9.964157119139988694e+00,-5.924310484081911632e+00,9.822933905907559549e+00
-9.071643702871833526e+00,-9.492495991312747350e+00,6.560882875090870314e+00
-5.674874416695884882e+00,1.279389059180813026e+00,5.866362844720816483e+00
-3.795230672517647674e-01,-3.795415224775465557e+00,3.580146180642457487e+00
-5.871552182056881009e+00,-1.145126898742393173e+01,7.105584327641077280e+00
-7.069699572424101852e+00,-6.043181283199603904e+00,4.508874271526611466e+00
-5.293186251513737339e+00,-1.136343054648112583e+00,8.914595000463584995e+00
-2.968415207416263968e+00,1.614726909571130298e+00,2.887125125772467715e+00
-7.339901008708626051e+00,-1.105610969913721853e+01,5.447265468586790504e+00
-7.788738236944777071e+00,-3.550814516894357897e+00,9.167021535027343404e+00
-5.348687136264241637e+00,1.879739405867630664e+00,5.529862531299745143e+00
-8.273032148533989272e+00,-1.041017394450732603e+01,5.840977180244780520e+00
-1.061516477667498215e+01,-5.702660968356121352e+00,9.186703747720812885e+00
-1.101005451482516406e+01,-7.589620943346539583e+00,7.526117073263440815e+00
-2.505261632855086518e+00,-4.142100496525009667e-01,6.875324162033669140e+00
-9.252306411573544054e+00,-8.614509569217203122e+00,8.157644464826576680e+00
-1.071141612856638581e+01,-7.829003036084429823e+00,7.554499965164908737e+00
-4.043809126034101809e+00,-2.128803132796315278e+00,7.689882772853430914e+00
-5.460742273218716081e-01,6.220485579753940453e-01,6.542717297087770056e-01
-6.988925754735547891e+00,-7.183256653472435360e+00,8.831362326262874873e+00
-7.365853353878354604e+00,-1.984582252692267845e+00,7.740843053724065115e+00
-9.577506666522625167e+00,-6.511556357670605699e+00,1.098548135332956832e+01
-1.050722467230632118e+00,2.911437575794372901e+00,5.127346331602837815e+00
-7.283685315404719418e+00,-4.262539094247141946e+00,5.181762506810385638e+00
-2.074064054169182381e+00,3.165308208024788517e+00,4.108027026898512624e+00
-7.898912533052591556e+00,-2.127338110360275536e+00,7.466356204433997945e+00
-8.556944406216071997e+00,-3.632808862447885812e+00,8.822534591565430517e+00
-8.546263256482150794e+00,-3.289525842810101075e+00,6.249465361265141183e+00
-5.427067702933280557e+00,2.031417947466762630e+00,5.043299456737862840e+00
-1.635581219543884357e+00,3.731892712012658375e+00,6.215283619172166318e+00
-4.750913214362173065e+00,-1.182010072827617053e+00,3.717416924709918913e+00
-7.949786334008711819e+00,-5.419791635557446696e+00,1.008474914328178684e+01
-7.051323152721357346e+00,-3.919008382780949429e+00,4.925813029562396750e+00
-5.930716653895097501e+00,-5.919966042286404218e+00,8.279788885326032855e+00
-8.989917403948044949e+00,-3.221729188002527611e+00,7.840690890278304792e+00
-6.043171432608015259e+00,-1.037993150302304812e+01,5.745824142391430911e+00
-9.392587596630546543e+00,-6.296148237149450821e+00,1.084074493561101704e+01
-1.935563808301501210e+00,3.092778693253447564e+00,3.975937145718295262e+00
-8.733923069209488688e+00,-8.904302052804935030e+00,8.732171521481944865e+00
7.926382054782531439e-01,-1.886503094541174264e+00,3.703602766556294501e+00
7.254258135322591561e-02,-1.696234537034475298e-01,4.645967170177909722e+00
-9.741775079315674546e+00,-7.962380291113433373e+00,6.367033826869421986e+00
-6.458293242650749555e+00,-1.112098144764757102e+01,7.532134459598560206e+00
-6.307269062729442766e+00,-3.297198638766150935e+00,9.257647541984857398e+00
-1.083954165191874042e+00,2.327092630463741152e+00,4.381186254459711549e+00
1.268725658546079993e+00,-2.708471962649443504e-04,2.213439324365344518e+00
-7.956380559443546829e+00,-2.448513456238088359e+00,7.799126937740720855e+00
-6.345195363866124261e+00,-9.628073906680212346e+00,4.877772927958619498e+00
-7.201268664277669096e+00,-7.616195086583461560e-01,6.754361967258502020e+00
-7.421515755075324350e+00,-4.938203245431737720e+00,4.933830137206888899e+00
-9.860406460182771227e+00,-5.743394497922926334e+00,9.803977163516918836e+00
-6.913641277363450577e+00,-6.016728493406110490e-01,6.832563179734671088e+00
-9.192675643911908168e+00,-6.619932989765022313e+00,1.097440421659108623e+01
-5.821070088828069089e+00,4.801810212269106426e-01,5.018133001293745288e+00
-7.384827909297894344e+00,-9.630099995905904819e+00,8.827603788304633881e+00
-6.981800640805277958e+00,-1.535682547310202040e+00,7.802283221301817839e+00
-1.062865780854866937e+00,2.327104102289475396e+00,3.739057473605579052e+00
-9.386297793192435179e+00,-9.201381804103309747e+00,7.052409935240817163e+00
-7.177653263413684037e+00,-5.818085905149722237e+00,9.400627654418309831e+00
-5.622855584038029875e+00,1.106594018879222041e+00,4.775495571783205939e+00
-3.143356226044871082e-01,2.159906410123697995e+00,4.873070216264598464e+00
-5.971352587807169598e+00,-6.097052156074798113e+00,8.204852204087607959e+00
-1.006466217865599688e+01,-8.232167499631010799e+00,7.882896578575982360e+00
-7.299232787117079013e+00,-1.042197573105753783e+01,7.715799452697097216e+00
-4.676718226213389507e+00,-7.987443559273352811e+00,6.981826022582129809e+00
-8.691396893824045122e+00,-1.001811067995630466e+01,4.871920249650335322e+00
-7.547100785780233245e+00,-5.967216756766745789e+00,9.784502651832918119e+00
-2.741391870387403173e+00,2.721188591882488073e+00,6.935590841246724203e+00
-4.531177214533016473e-01,-1.228033412231574140e+00,1.074575516039457668e+00
-8.102303207999577594e+00,-1.078748147624208542e+01,4.863468808231893981e+00
-5.133058212642000129e+00,-8.841954061525770570e+00,4.772212961170713363e+00
-1.072875319228034208e+01,-7.586079949208679452e+00,8.250060140558584720e+00
-4.453915888320176819e+00,1.480787294659597242e+00,4.096709700024880441e+00
-8.919654458084142590e+00,-6.939019532310766181e+00,1.064487776205301905e+01
-6.197708182216536521e+00,-1.905677579488655571e+00,4.742591708328304456e+00
-2.807462758806463565e+00,-6.912361515799650746e+00,5.442893866161599981e+00
-4.584904935138282234e+00,-6.930398136340193638e+00,3.277511725377901364e+00
-9.285086887765734431e+00,-9.690462686525314950e+00,5.749483406865610213e+00
-6.919056077083611811e+00,-1.125554475000994081e+01,5.818932089792176576e+00
-9.329348339842205018e-01,1.821630366207469320e+00,3.045667512839809632e+00
-6.862660685260300930e+00,-1.143922510514113711e+01,6.177451803984177481e+00
-1.301026552426173710e+00,2.065565956118948776e+00,2.407628109465162591e+00
-9.835079645326835873e+00,-5.106432436244577211e+00,9.246630289821935023e+00
-7.499061971265879478e+00,-1.087798124668244881e+01,5.863353476620103422e+00
-5.024341719415204022e-02,-1.086783201819097489e+00,1.327241655727906533e+00
-4.938647108916062178e-01,1.872992372592062527e+00,3.810790914254139405e+00
-6.221592101011810705e+00,-1.034329436305788263e+01,5.558422111838434709e+00
-1.672599394216816471e+00,-1.687452214852854515e-01,5.986413570017698582e+00
-5.235638825704010735e+00,1.594036868243782212e-01,7.473169028478909404e+00
-1.062868254828978465e+01,-4.618475135480342608e+00,7.900541125030380307e+00
-7.449347678127931083e+00,-7.574245614329393916e+00,9.123868911800890658e+00
-9.251644303460460961e+00,-9.678362811872341709e+00,5.407969827730648937e+00
-7.085231570136375723e+00,-1.068189850629396176e+01,7.444756623934117634e+00
-1.872041442209180451e+00,2.759936220411850272e+00,3.518132285943079474e+00
-8.640464336045990734e+00,-3.466837677489086111e+00,8.631309931537677116e+00
-2.341015243385581535e+00,-2.498696873620420700e+00,6.261001269392044044e+00
-7.737209084471548870e+00,-4.437690809616428034e+00,1.018077670443504168e+01
5.641008149331494526e-01,8.702022687711421511e-01,3.024958640812610788e+00
-1.766317862780456993e+00,1.766218899156904332e+00,1.733507719633072819e+00
-4.897874652690425101e+00,1.248431861973919865e+00,6.600731692835859477e+00
-4.418349978198044425e+00,3.398715803609007491e+00,4.656952857049769356e+00
-1.143426465377421986e+00,1.886857113150048448e+00,2.419202473464110881e+00
-3.834025263454623911e+00,-8.193569544903477109e+00,5.485585425585166597e+00
-5.326483552503291641e+00,-8.205646753692857231e+00,4.145907217042496207e+00
-9.887686146676928800e+00,-6.120052824749540044e+00,6.791864821579557621e+00
-9.656768243708539146e+00,-4.729546213423572176e+00,7.007900334722865665e+00
-7.085059516328567675e+00,-3.515502191843915547e+00,5.008440854410942222e+00
-8.157965682323936818e+00,-9.327113619029393732e+00,8.605860011135606058e+00
-1.170467898216158531e+01,-6.184313205337870656e+00,8.553290014919358697e+00
-6.733765965800380116e+00,-2.856447564511428450e+00,5.064681973361818024e+00
-6.838363384719253979e+00,-1.216309784983280684e+00,7.694205674320595101e+00
-2.944596873301775553e+00,-1.325562976930739545e+00,6.962220275844366313e+00
-3.115482155478924486e+00,4.026443294950772689e+00,4.187317862756321674e+00
-2.046243195708208340e+00,-4.538319943331768691e+00,3.248072534877175954e+00
-1.009593594849460629e+01,-4.513799876812076839e+00,8.039849646519366289e+00
-1.046171581231067726e+01,-4.881764424730661744e+00,8.348660093410670058e+00
-6.847220356490427484e+00,4.114152816559791259e-01,6.023812739859582877e+00
-3.945341947147209094e+00,-7.861779078161738710e+00,4.959779448311595118e+00
-3.741670523093846956e+00,1.922055276295652426e+00,3.366501090214592207e+00
-6.287309801799658260e+00,-9.358269158600002413e+00,7.887781289322811418e+00
-1.073088433685260235e+01,-7.827465439438462624e+00,7.553987005356514572e+00
-6.664788350780336934e+00,-1.130783911448552104e+01,6.514077174575295004e+00
-2.070031021770470936e+00,-5.934975886606499884e+00,5.058392175457539608e+00
-6.332659707741478350e+00,6.131885088232204017e-01,6.102315790294082554e+00
-3.949838487235285633e+00,-1.356140475550108526e+00,7.617810714404005701e+00
-2.863288804237712704e+00,1.302912997488130165e+00,2.698637799800286619e+00
-9.631995931342425266e-01,2.606130062932435099e+00,4.879125101682582510e+00
-3.827842136016424757e+00,-2.570292777153186492e+00,7.335592104639200528e+00
4.875534882474443776e-01,-2.369179316986121719e+00,3.685796948313450283e+00
-1.205185045261214949e+00,-1.064113734348651752e+00,5.542347411463196316e+00
-8.801877021036357718e+00,-8.666093335685367549e+00,5.417461123110699717e+00
-3.137806615018579048e+00,-1.414408819122626726e+00,6.779873808344998309e+00
-1.042285231373825027e+01,-5.390067878125859302e+00,8.576869700463712221e+00
-7.744092235877626962e+00,-1.024151675665573435e+01,7.264930623143130539e+00
-1.762379977381478557e+00,3.400245377218147347e+00,6.938842478799744029e+00
-4.065430930878600080e+00,-3.701476965553904375e+00,2.401263040823395034e+00
-1.702255399239071654e+00,3.195669588995667443e+00,4.727348899312562303e+00
-5.869932362130323433e+00,-1.083944035212556667e+00,8.118280242378039802e+00
-1.542925034369561077e+00,-4.224080701891892886e+00,3.228884713057007971e+00
-2.020477165731056068e+00,2.250966102554702086e+00,2.274731498807573971e+00
-6.636818630286084542e+00,-1.121035761599668312e+01,6.156690328983060567e+00
-1.097179627661242662e+01,-6.777582363316699166e+00,9.718043878010574232e+00
-4.283775065457703590e+00,3.384769738039099085e+00,4.234824382147801103e+00
-1.435025379855430661e+00,2.893925536796094544e+00,4.423465975613443568e+00
8.764147416917501543e-01,1.584519659021471627e-01,1.793762394260889792e+00
-8.075207376215869814e+00,-4.005413800245156253e+00,9.331927663783352145e+00
-1.115334836140442043e+00,1.684688327165920985e+00,2.497825896834664494e+00
-6.278437962453317311e+00,-4.368798579999328524e+00,8.847542449615426463e+00
-7.364172746702279504e+00,-3.296344750291506642e+00,9.483629929679356252e+00
-1.593377862736158890e-01,1.332463624242580691e+00,3.018183500075640069e+00
-1.343233789297488268e-01,9.649352053023144693e-01,2.542545180734221422e+00
-6.132245331517286679e+00,-3.375502476735888546e+00,4.396557946326544730e+00
-3.897015785432984991e+00,3.086706740061601728e+00,4.070432385983113299e+00
-4.512041847873567768e+00,-3.524922987424445431e+00,7.640237955027007644e+00
1.577091109212281461e+00,-1.599455294427507834e-01,2.603190355179671123e+00
2.174139771476922903e-02,8.160929439645374373e-02,3.492538608934585009e-01
-1.769311659614902332e+00,-1.487139126834408520e+00,5.826981472069234336e+00
-5.190524084070399446e+00,-7.276583861302960088e+00,2.998868047931692260e+00
-2.068181773170779003e+00,4.003208133872599994e+00,5.965543078679861111e+00
1.452116693561460004e+00,2.118841907073939351e-02,2.962534660833301636e+00
-7.269809259635501064e+00,-4.771672794622832114e+00,4.949018397744339381e+00
-9.104338191790208867e+00,-9.282915989598318873e+00,6.870706656240691323e+00
-5.227569408109307147e+00,1.760857211481961171e+00,5.903435351831646472e+00
-2.464306970841454003e+00,-3.890497397818660108e+00,2.001499156475960550e+00
-4.685023977403059980e+00,-5.118523079956786681e+00,2.644066014017428135e+00
-1.027716947083838228e+01,-7.291099941995936362e+00,9.606198874611326488e+00
-1.187122577291538761e+01,-6.701988893679612147e+00,8.481395774084132810e+00
-4.554360696371853479e+00,-3.184115242098667142e+00,2.997136827964375527e+00
-1.391247344715818846e-01,-2.272333980885913096e+00,4.244039100137898757e+00
-1.173822915629741948e+00,-4.818450665635729990e+00,3.893908402321493600e+00
-4.366315769260062041e+00,1.788755630441325906e+00,6.474670387961859674e+00
-9.394166467108876262e+00,-6.390765649338356447e+00,1.089172541521475246e+01
-1.450798427399252910e+00,8.800530676068574198e-02,1.042587561851180844e+00
-2.658173851333464732e+00,-4.257811697586212141e+00,5.964794761142639068e+00
-5.793277212194968051e+00,-7.840645363438852655e+00,7.860591290017103105e+00
-8.917139436780511019e+00,-3.184109700566149836e+00,7.976674448262997430e+00
-8.844986726846391534e+00,-9.418035706582331912e+00,7.241925904427311877e+00
-8.629081063540342100e+00,-2.184902062824804592e+00,6.760833913764255243e+00
-1.766053275723773686e+00,-2.162545551310880221e+00,5.708604755028038547e+00
-3.766730392601711497e+00,-6.086424386201153780e+00,3.094732715584550320e+00
-1.209874507914509900e+00,3.076320634127470033e+00,5.732422432111922816e+00
-2.523003331024045170e+00,3.799569614271566032e+00,6.095262186072018196e+00
-5.865768966791204519e+00,-1.961016160895221017e+00,9.177284511641591536e+00
-6.504494538181861074e+00,-8.846474561910508072e+00,3.542171324837401603e+00
-2.463286998436854947e-01,1.401504815845252327e+00,2.374254166975250602e+00
-2.081584270736033915e+00,3.081342496306946455e+00,3.891846355032475113e+00
-7.222196075990415132e+00,-3.289910764780649810e+00,9.323340179459904675e+00
-7.592832299715766453e+00,-2.242818255326932686e+00,8.345392191989152053e+00
-9.476720337460205812e+00,-8.573357787239249461e+00,7.959707049234222787e+00
-4.658609787600580532e+00,-6.071660439718566948e+00,7.181424264384311584e+00
-3.249258188134714231e+00,2.665446031504535185e+00,6.430995384629810907e+00
-9.145293973895675776e+00,-9.484787945666564468e+00,6.504400320939967450e+00
-6.278402467869503845e+00,-2.512231518580021472e+00,4.532815000223671120e+00
-4.755392226280826584e+00,5.571602906354279350e-01,7.525535911298675273e+00
-3.378286672218620001e+00,-7.989216262633040522e+00,5.792055749725824931e+00
-3.675987592855851638e-01,-3.561745239746618719e+00,3.355607068320567432e+00
-9.021902446999074954e+00,-9.589541621009757932e+00,6.196227175521076269e+00
-1.955395725740951551e+00,-5.691558615538681920e+00,4.356011886227403984e+00
-8.525791930197065938e+00,-9.306677874656275051e+00,7.866593491525067705e+00
-6.424000637809908376e+00,-1.136542577349927363e+01,6.932417590700825194e+00
-7.264569632666493249e+00,-1.008752000799563753e+01,8.212517277425947171e+00
-1.822456563465562507e+00,2.363289810764825916e+00,2.149032107640715061e+00
-2.605100483808563183e+00,2.800034001257183380e+00,2.839157000624175531e+00
-2.200366438272309377e+00,-2.765136882893906023e+00,6.145023578186671998e+00
-7.608948368424955255e+00,-1.048103001896163455e+01,7.070227898061952843e+00
-7.441290049498965331e+00,-3.933513782658939917e+00,9.970304474903425529e+00
-1.153046131525982787e+00,1.646532433166858933e+00,1.938517841227981320e+00
-3.185544434469874009e+00,9.556127079551229864e-01,7.551407616218869023e+00
-4.315161829070921939e+00,2.633031320723427715e+00,5.593759531305420474e+00
-5.407958442983990643e+00,-7.954777408078959056e+00,7.375068999430759220e+00
-5.177751481436390968e+00,-5.979085126194618738e-01,4.161478160717907215e+00
-1.993121485983352814e+00,1.603718037812310593e+00,6.836748376895941171e+00
-7.915671711102166164e+00,-9.926501308954602365e+00,7.964162418628169426e+00
-2.998466509305826477e+00,-3.065349645573447912e+00,6.479217613168277268e+00
-6.985570040736726050e+00,-1.067841986636400975e+01,7.232395059807164905e+00
-5.433186449968015808e+00,-9.853310718573736082e+00,7.048119350158278174e+00
-1.003304556908257794e+01,-7.007864462566612218e+00,1.081092177627428796e+01
-9.220811077223565633e+00,-8.405325762284576285e+00,9.281770495523280928e+00
-3.201959159452660408e+00,-4.256818433497303822e+00,1.752505480538331772e+00
-8.070780034765260069e+00,-8.797919556496410110e+00,4.628809284231810040e+00
-9.919060201408841593e+00,-4.955273976195823771e+00,8.945375309541821807e+00
-5.951659829623825892e+00,-4.747479920760228067e-01,4.886314317813570618e+00
-8.459569076903202145e+00,-8.779956023869864623e+00,9.502194459146656058e+00
-8.667274443688372187e+00,-9.884669128836897301e+00,6.313714240605708738e+00
1.021924445070752085e+00,-2.254822675947053323e+00,3.123603645022529296e+00
-9.399181320782924232e+00,-8.871192528612796835e+00,7.650237635362985067e+00
5.930150595452209766e-02,1.034279118655116347e+00,2.818486194709463710e+00
-7.161392230467199305e+00,-1.646404701269993387e+00,5.613542370210996779e+00
-9.696088852149085113e-01,3.111779430690650106e+00,6.416573714168402276e+00
-3.407670045680917692e+00,3.931275470436059294e+00,5.241640238092030835e+00
-1.740224642552919143e-01,-3.513809754026931298e+00,3.721023452814407051e+00
-4.999477658498749477e+00,-8.032949985848246044e+00,7.001829268694982567e+00
-5.776970524554710273e+00,-1.220790840611240879e+00,8.617458721039760405e+00
-7.919379591760246306e+00,-9.331507542369699593e+00,9.083095509028686010e+00
3.488136126459495667e-01,1.151571670933152713e+00,3.762630796289611279e+00
-8.228715277458487520e+00,-1.003793696936216584e+01,4.534111990734047914e+00
-3.758814277178025964e+00,2.379436359050508987e+00,6.443043541270542462e+00
-9.371136279686965054e+00,-5.163539162799083648e+00,6.704507792597516058e+00
-4.680405707633340739e+00,1.695436051162824143e+00,6.281264132524908561e+00
-4.338819546054116572e+00,-6.269029204048679915e+00,2.795184095189963358e+00
-2.074768277816121831e+00,-5.529218968373042387e+00,3.920027237296815681e+00
-7.973171985024511521e+00,-2.799032081173665976e+00,8.349584473608064883e+00
-6.583747370651868103e+00,-1.130748479829555109e+01,6.823723766167018923e+00
-5.062306505955127989e+00,-1.019752837889104491e+01,6.578730292835128779e+00
-1.025706787286560662e+01,-8.650434833690203718e+00,6.553871050361150807e+00
-7.826017345040240158e+00,-2.923236978127536911e+00,5.923385353730900249e+00
-1.478673004342294650e+00,2.634038961410952950e+00,3.681865094824103402e+00
-2.034187610061222173e+00,3.861695944359050170e+00,6.713356742312747372e+00
-6.366156051027640039e+00,-4.610352537198830092e+00,9.054140487017228622e+00
-8.833727296975228072e+00,-4.809836687647330855e+00,9.649128964454545709e+00
-8.619715945771918797e+00,-7.130761943492280430e+00,1.029679584636210343e+01
-1.582142058228826365e+00,-2.187003977021432011e+00,1.009020361645731834e+00
-3.300330746229247492e+00,-6.966666893464520172e+00,4.539676360052748549e+00
-3.236682326962500689e+00,3.306716830114107442e+00,5.926671480565810946e+00
4.820190955474768502e-01,9.896610429836888434e-01,3.614980862015733543e+00
-1.285892935662432013e+00,1.754600918168150780e+00,1.908757757987145309e+00
-5.600943220768146713e-02,1.718189881186872325e+00,4.561370668545914775e+00
-2.048415783077999208e+00,1.844504123192459488e+00,7.009309900234794277e+00
-4.389586574595051083e+00,1.536480831927249158e+00,6.706220800206537547e+00
-8.257172680809816256e+00,-8.735461490166619214e+00,4.877155005183151815e+00
-4.806396464186343920e+00,2.563908994875439440e+00,5.232356165838105255e+00
8.528498301764623202e-01,1.808865561552714385e-01,1.818018937870563345e+00
-1.115236440230574111e+00,-3.466562889767522471e+00,5.004664228523393987e+00
-2.809861457422208275e+00,8.763736759868573367e-01,2.590491608183700833e+00
-1.058748562632913881e+01,-5.102362575991011617e+00,8.374720343901193687e+00
-9.076472484522723150e+00,-4.532405734166735201e+00,9.237694883457104211e+00
-2.549337643895734473e+00,3.945734985789808302e+00,5.090445577828000445e+00
-1.876315791306831515e-01,1.791869589302371280e+00,4.352583889710277099e+00
-1.012241113697040795e+01,-8.261405826330822322e+00,7.517354610707401186e+00
-2.796153150092223427e+00,3.747809513175132334e+00,4.216158439994969420e+00
-4.967667947887661306e+00,-1.025519802913712120e+01,6.639042987231778881e+00
-1.048121305734079201e+01,-6.396784553385844063e+00,9.936721608705587627e+00
-6.398058300650003360e+00,-1.808002154574446019e+00,8.499176817712990939e+00
-1.004181639795225678e+01,-7.223184212230568058e+00,1.019093622377267039e+01
-3.326668322628083541e+00,-2.654381480915419367e+00,7.068417397565395888e+00
-7.334404537114602718e+00,-1.015549473720873408e+01,4.086952228812513965e+00
-7.259971267338211298e+00,-2.677200080438371987e+00,8.835762199692485552e+00
-1.316600952704225724e+00,2.307811381647228988e+00,3.065693169925804540e+00
-6.888962113439375479e+00,-1.104505419076556549e+01,6.331632235655604291e+00
-9.645308000745792754e+00,-5.753430924389601131e+00,9.828040596319292277e+00
-3.199070729162209137e+00,6.111621020637432178e-01,2.811762964362221506e+00
-4.302111294910204720e+00,3.452531419320870931e+00,4.350336183674277990e+00
-7.923301608842012733e+00,-3.105548224603827734e+00,8.581735385009707784e+00
-9.718095657450513514e+00,-8.516274426595042968e+00,7.774101915237681126e+00
-1.224984765356328165e+00,2.770044989363048327e+00,4.371042039016095337e+00
-5.173564268124633436e+00,-5.141486480060093456e+00,8.028007994715157025e+00
-8.256698492872299511e+00,-9.150033614941142091e+00,8.833284387981796826e+00
-5.499655798365282067e+00,-6.590552908704448987e-01,8.488519996135707402e+00
-2.781548440486834473e+00,-3.927311073364488703e+00,1.670814195293367277e+00
-6.177221541905165481e+00,-8.277334327738543607e+00,3.423177076008205866e+00
-3.968974402500554000e+00,-1.254901505065651346e+00,7.991385558513913523e+00
-4.278058157339849288e+00,-9.079572959596516668e+00,5.919298349663754344e+00
-4.327114768532597466e+00,-6.231646256984818777e+00,2.962578189374523774e+00
2.808610365071139564e-03,6.599093909133272318e-01,1.412517935316992101e+00
-5.846068238454767751e+00,-8.833413358485794120e+00,4.093843720019876287e+00
3.239908297299887718e-01,1.182310993686377931e-02,5.408555878421579255e-01
-9.516866793260644997e+00,-9.271660790330351176e+00,6.276778035453002502e+00
-1.794818866004464164e+00,3.421634582077827780e+00,5.281760215264667657e+00
-1.925731200980640656e+00,-3.150772941492939072e+00,1.742770869299231640e+00
7.897844124991845183e-01,-2.001879925426233164e+00,3.665181938561524078e+00
-1.041225804047803472e+01,-5.584074020044507591e+00,9.235998122594638815e+00
-6.304726664765760269e+00,-7.507446304694240347e+00,3.489015140016937799e+00
-8.106446574468476385e+00,-9.836105696633852702e+00,7.490994213588731299e+00
-8.124516852869668071e+00,-4.707914067678159675e+00,5.906992693157217644e+00
-1.011970049813082140e+00,1.950567943076190192e+00,3.110081488318738874e+00
1.163693865136942618e+00,6.881900496881593332e-02,2.188809765613045411e+00
-3.369157326679778741e+00,2.409827675481561737e+00,3.370313823931213371e+00
-4.930472406276450670e+00,5.786978756841175686e-01,7.283881306322299132e+00
-3.216670222700198867e+00,4.069287967151613117e+00,4.444243729448662528e+00
-5.934371611505084410e+00,-9.983007848925744554e+00,7.263929225501951414e+00
-3.684774800743049750e-01,-1.732017877324488309e+00,1.682695266744290263e+00
-9.193424989666515446e-01,-4.478555427952365942e-01,5.503095163789462063e-01
-3.422336983878016436e+00,-7.454126895368171191e+00,5.778611118964493976e+00
-4.054501557619023089e+00,3.218832824785820002e+00,4.107321032530707683e+00
-9.547721121118664556e+00,-8.497571196463271193e+00,8.307123254514698019e+00
-7.257768791845430334e-01,2.844579291117589559e+00,5.869712975195640503e+00
8.315578262230785000e-01,-7.469081996492933362e-01,1.553406085886210874e+00
-2.907065164803630530e+00,3.680945784104733942e+00,5.647605503188524168e+00
-8.158116566656108404e+00,-1.091585292919825001e+01,4.708190455187344803e+00
-8.698291361441283343e+00,-3.573201661125544160e+00,8.288089935413532672e+00
1.083727725091030575e-02,2.119090469509766539e+00,5.103388490738681504e+00
1.509252929123160225e+00,-1.473701733941116920e+00,2.717047871657205960e+00
-4.514417221812416336e+00,-1.781798283683273532e+00,3.393424160790853072e+00
-1.205906071452636175e+00,-1.432080659515527321e+00,7.356273958971771831e-01
-2.785998083506797673e+00,3.784088083709653549e+00,4.400905326285025509e+00
-3.057700450468672781e-01,4.550233518104799812e-01,6.992628745351240349e-01
-2.324374360066297829e+00,1.709419998840972621e+00,2.212041681086200473e+00
-9.399502378218798526e+00,-8.484258712275750014e+00,8.297781319999645078e+00
-6.389217746098502460e+00,-2.944114314530704046e+00,4.586312662560196429e+00
-1.616685368429311209e+00,-2.723103000782447491e+00,1.466744075844625295e+00
-6.179928925925038286e+00,-8.118429835772975167e+00,3.268095840827196508e+00
-2.983273467165498349e+00,8.073499491001151496e-02,2.674590630159165094e+00
-1.029120724930059438e+01,-7.416033022220180904e+00,9.589938584328640658e+00
7.886704468353413766e-01,1.089073883222099470e-01,1.727157065039189421e+00
-8.998378364361256487e+00,-1.015818575775190347e+01,5.603747784554400369e+00
-1.746457435386614243e+00,-4.439935147662213422e-01,6.037210732571741012e+00
-4.910281160628906960e+00,2.238363050639705421e+00,5.405105459337131713e+00
-5.894187219179658044e+00,-3.644061933873398385e+00,4.133273768065040876e+00
-7.931017138279848666e+00,-9.921340031520685443e+00,7.849887393876233688e+00
-4.981816299247602942e+00,-8.012108435062575751e+00,4.144851268314594606e+00
-1.647236452455001166e+00,1.384343924351617572e+00,6.422148853407261271e+00
-3.152266339225556990e+00,3.329654781244740125e+00,3.613826329731015363e+00
-7.077546764855019212e+00,-5.379314388629562238e+00,9.324308330695684432e+00
-7.962501624073927697e-01,-2.410633653207197302e-01,5.241310014159858532e+00
7.114853977149638853e-01,-2.436730965502575508e+00,3.185074286216185158e+00
-2.185146080335249597e+00,-6.484019490071837311e+00,5.090039463035730627e+00
-7.169523913158925232e+00,-1.070299232368194531e+01,7.529969278556542633e+00
-6.194439072168416160e+00,-2.312946443089814785e+00,9.375881248054762196e+00
-9.981111049236373489e+00,-8.255529400910834426e+00,7.996467786774636544e+00
-4.663631475797425985e+00,-4.046272411740847730e-01,8.533018907388349561e+00
-6.711528321599258717e+00,-9.924077252303007413e+00,4.689317199912318657e+00
-2.476054105192377452e+00,-4.311247429559943889e+00,5.952953892941969194e+00
-3.903545070433691588e+00,-5.337548734023931374e+00,2.379298013097283615e+00
-8.435049459881212297e-02,1.023307365001309366e+00,1.801222429435187289e+00
-9.563017070891856264e+00,-9.220198230238969117e+00,6.729250127466796627e+00
-5.938012349830957604e+00,-4.493111355875600843e+00,3.934217931597657092e+00
-8.838021560815365163e+00,-4.180466736462560284e+00,8.988301169999841633e+00
-3.449483986435773475e-01,-1.736318193112973196e+00,1.613930713788822358e+00
-8.993829042185517153e+00,-5.612726741191968571e+00,1.031168692317102220e+01
-8.604790882832132226e+00,-1.040074215476629327e+01,5.069620206268591112e+00
-2.977230192120795760e+00,-4.368950488893212025e+00,2.244313721784556126e+00
-5.127489080796221010e+00,-7.819203850179425430e+00,7.215406366800048765e+00
-6.421457187378628362e+00,-3.986352675483641139e+00,4.523238802563050776e+00
4.855133330068130970e-01,1.045676767818900954e+00,3.175414190151728544e+00
-6.573084873080192736e+00,-1.148026645716862681e+01,6.808792163702609201e+00
6.243429165258400637e-01,1.267184679517375567e+00,4.291021813750901970e+00
-5.156053877412888120e+00,-5.963082405235105021e+00,2.849658780265952540e+00
-8.839393373047233382e+00,-9.717293529215886849e+00,5.038570515605103495e+00
1.419727646191128567e+00,3.694697289705096699e-01,3.575855370384003695e+00
