5.720200572394960048e-01,1.387461715322185540e+00,-4.803216936752381372e+00
1.205663171226705188e+00,-1.442150616781077699e-01,-6.299251453911347554e+00
1.715524140039573098e+00,1.141043234938321937e+00,-4.131599562779801893e+00
6.878718457918821250e-02,-1.432362029697383354e+00,-2.360135821060214134e+00
1.654973357722912430e+00,-5.466769185096103101e-01,-6.767412320069401410e+00
3.261668102183253204e+00,-1.507077290316397367e+00,-5.285233882446797260e+00
2.311299710666435026e+00,-1.811544428061900636e+00,-6.773850750564218259e+00
7.713536674346909150e-01,1.112094880396640617e+00,-5.398553762707428483e+00
2.525786405392628220e-01,-5.689029791863986496e-01,-4.252784809905608476e+00
1.342341738448285415e+00,-8.022216044564789428e-02,-6.679074355818988451e+00
1.295857643195380549e+00,-2.187195709323058068e+00,-4.133389393209993656e+00
3.120552363080427050e+00,-1.504558598433054950e+00,-4.895266773829701989e+00
5.727234253080975002e-01,-3.916328878624589227e-01,-4.916690727699990937e+00
3.431233101326314650e+00,-4.732957025688168673e-01,-6.489659622802938621e+00
7.624853223917290590e-01,4.539949565472310988e-01,-1.990887515709445221e+00
1.233889436676471663e+00,4.093878000338381784e-01,-2.725530842455766933e+00
-2.669671229262620127e-01,1.502909576984263307e+00,-4.418771259686386621e+00
2.776671064729220983e+00,-1.503036404114133306e+00,-4.281379944260035764e+00
1.504202573114540031e-01,-1.325417342787057029e+00,-2.301362798805437482e+00
1.881188274071974975e+00,1.034485398215430951e+00,-4.470292673273957185e+00
1.380062622658050797e+00,-1.549880671636513663e+00,-5.654847285624241771e+00
1.628655627852044485e-01,8.468422102646795402e-01,-9.252904385854843206e-01
1.002413766434613107e+00,2.100027580298523322e+00,-3.555506919143968769e+00
4.454838053475500548e-01,-1.683422863077148168e+00,-3.681185862885320237e+00
5.806168789086497695e-01,-1.553065578505868238e+00,-4.053087189104723542e+00
2.129970392845984550e-01,1.982770120891469645e+00,-3.597833330837197696e+00
-9.298649493733661675e-01,1.727609350708044778e-01,-2.475202779575305101e+00
-2.161533671029441939e-01,-1.225537268863599483e+00,-2.770276107649414232e+00
-1.343488850797771805e+00,7.025844438182271556e-01,-1.318193800223759871e+00
1.991134039589538940e+00,-9.518248159378339679e-01,-7.326315665510661823e+00
-6.271573647854942202e-01,7.641087620698134852e-01,-8.086625642472008435e-01
-5.012390139097396835e-01,2.628876735842155199e+00,-2.392165311186355670e+00
4.041191700979846479e-01,-1.668654259291702635e+00,-3.695531754887101172e+00
2.228863521371190259e+00,-6.749130266583943660e-01,-7.388002036199150524e+00
-9.810163227612778147e-01,3.814414252405945449e-01,-9.204608004311112257e-01
-1.549781592310449652e-01,-4.252673272723907494e-01,-6.767212160490860828e-01
1.438204892586538497e+00,8.607921427064195719e-01,-3.577267454460088203e+00
1.281899704503239201e+00,-4.076766727556588310e-01,-2.261486194859125387e+00
2.279012028226512943e+00,-1.750410926489025965e+00,-3.539185103967246615e+00
2.438163367761143896e-01,2.648893377895900514e+00,-2.518932742340977970e+00
2.425464732716232863e+00,-2.721101768523032760e+00,-5.224565958012735045e+00
1.156997674414307564e+00,-3.646237976627371147e-01,-6.092597865093491549e+00
1.444673484925691476e+00,-4.203796543343148173e-02,-2.729881332061071753e+00
2.136845680867204944e+00,-2.381857360977453819e+00,-4.576557017930278803e+00
7.953744621770674206e-01,5.618763417455269193e-02,-1.755927309702556949e+00
7.470901837315596650e-01,9.847890656132513021e-01,-2.037483863619374613e+00
9.958419539360632289e-01,-1.308659887217139772e+00,-2.544206280471195125e+00
2.174734219223958043e+00,7.131071568170512798e-01,-4.858361532327085008e+00
-1.093862537638960797e+00,-6.693251269134103953e-01,-1.391198337991343070e+00
3.147751245957321586e+00,-3.027992693820185169e-02,-7.121754932839669650e+00
7.095881030023563074e-01,3.227498952232756291e-01,-1.730059545166567458e+00
3.291318690314731094e-02,3.069087927341725419e-01,-2.415817261043701480e-01
-2.191791729224100982e-01,1.834082968414760817e+00,-3.874735627376498126e+00
3.632482465743717692e-01,2.364944995147508333e+00,-3.023407387475403496e+00
6.965677160845260563e-01,-1.532896856028438393e+00,-4.285189891612533053e+00
2.003493540267821782e+00,-1.009920142724462622e+00,-7.214151439054683479e+00
3.396554699199580085e+00,-4.689565591276811940e-01,-6.286348933574752884e+00
-8.646509258946128984e-01,1.826862859995385335e+00,-1.552175038452105138e+00
6.112277750955770195e-01,6.975007331518497111e-02,-1.182579978121431452e+00
1.610283447111573674e+00,-1.039282602432637148e+00,-6.409450196632629826e+00
7.335022036562633962e-01,1.176903828945626396e+00,-2.395479570738974662e+00
6.588205855255913068e-01,7.474664221271728470e-01,-5.840754568506342892e+00
7.731800210908464921e-01,2.020558416653822409e+00,-2.939553348578591407e+00
1.776487757357568587e+00,-1.788978472609785708e+00,-3.480132448439212656e+00
2.586181099739295774e+00,-2.159885889263998049e+00,-6.419995415180897780e+00
1.815004638998697795e+00,-5.642956873665968542e-01,-7.153338276986663580e+00
2.557486075606383746e+00,-8.138827475366483544e-01,-4.474097766614542948e+00
7.390609075860848920e-01,-1.165128859001478778e+00,-4.804478080284168229e+00
-1.140718102172794790e+00,1.352616769790264906e+00,-1.586687981240129108e+00
8.950985116524771967e-02,9.356531836777760569e-01,-4.872901403865570025e+00
2.482120872367540865e-01,-1.525936482908627490e+00,-2.679989718248110719e+00
2.085355731481407293e+00,-2.520828925751296801e+00,-6.238508819775550052e+00
1.742052404836596236e-01,1.534472004669074630e-01,-4.519810274324856714e+00
4.810339734873724238e-01,6.604733538539772630e-02,-5.044872811611003094e+00
9.703208679043239249e-01,-2.833499840493664684e-02,-5.907710772021214751e+00
2.907013073049454999e+00,3.977917952900276721e-01,-5.983341252206477279e+00
1.051771311751168864e-01,-1.210582070325728177e+00,-3.248254955043207381e+00
4.974494515255418192e-01,1.588214792805934916e+00,-4.435720830609936272e+00
2.284118489804728647e+00,1.032971633746719853e+00,-5.344779117422698178e+00
1.834746199937860034e+00,2.873425298862621324e-01,-3.831525887960386179e+00
-1.621751972076465320e-01,-9.221661215316182547e-01,-1.717221046360987602e+00
9.577930466351407268e-02,1.331884566480916021e+00,-4.608858835014430610e+00
1.630790551841319269e+00,-2.479074934618043180e+00,-4.698541742106265851e+00
1.160849119672146434e+00,-2.186259138392652179e+00,-4.630246217763944294e+00
-3.575002590542304681e-02,2.183825673920384070e+00,-3.374575728595816226e+00
4.735500557621212248e-01,-1.855963215189786464e+00,-3.656029321000906940e+00
1.550443239426742004e+00,-1.700491175374285291e+00,-5.782875513949484514e+00
2.469204124600091088e+00,-1.548467999548033713e+00,-3.558913440609869028e+00
9.112063247197895732e-01,5.848835933111713042e-02,-5.997695083092686730e+00
-4.137427685959750856e-01,-5.972092437216287575e-01,-2.810764129085296492e+00
1.044573973134107936e+00,-7.418020247312069326e-01,-1.641024200023469382e+00
6.993356143734189567e-01,1.420506863474326475e-01,-1.581896831635348111e+00
-1.070388445278396716e+00,2.428288698561631875e+00,-2.718155663134232736e+00
1.332512736463490111e+00,-5.919723911634212632e-01,-2.291557431357002628e+00
1.640908021996437816e+00,-2.691734830452122029e+00,-5.262640174315971642e+00
9.181331895756850159e-01,-5.693105401862618153e-01,-1.380200218510809318e+00
2.582638474182545441e+00,6.771772605416815916e-01,-5.559960959729330021e+00
-9.747278214539623065e-02,1.578978824846355433e+00,-4.324297434070540014e+00
-5.527515504756399523e-01,1.776952735415668672e+00,-3.955918868158443402e+00
1.590936936191870599e+00,1.490045393719096056e+00,-4.906086833946969428e+00
2.198718045410231969e+00,-1.287622024082364369e+00,-3.476272934382496071e+00
2.485694499786985201e+00,-2.353905569288706978e+00,-4.503412321812957586e+00
-1.385631722056817949e+00,1.408571351236236613e-01,-1.449879967740570486e+00
-6.520628380986300821e-01,4.701191192758407689e-01,-3.098750165820627789e+00
5.643862175828103789e-01,1.210877560156125687e+00,-2.147623272106482073e+00
9.920020421778154296e-02,-1.057718547683153654e+00,-3.413090019350084159e+00
9.441334607229564524e-01,-1.576148526216721857e+00,-2.983005629504962286e+00
1.854503897260213696e+00,3.268129316670405626e-01,-3.672493429651725538e+00
9.718966140899252260e-01,-6.303919015628685063e-01,-5.613461520218503864e+00
6.120835824283196169e-01,4.223864147579367012e-01,-5.621380174578201938e+00
-4.847534659434022397e-01,2.124153050651185648e+00,-3.321173021112829638e+00
2.191973909767761075e+00,-2.753440453868453375e+00,-6.311704019565575585e+00
2.592936018010715049e+00,-2.420622451063187963e+00,-6.274895795296919765e+00
-8.287171066829739086e-02,2.824839140481893551e+00,-1.735824544199103148e+00
9.637406279543173637e-01,-2.180629254782315396e+00,-3.961717144994707507e+00
4.304075372756379497e-02,-7.377643118051611104e-01,-1.267972873241018039e+00
8.252900703700775109e-01,-1.917321064400837827e+00,-4.149637879897568382e+00
7.686332726992882725e-01,-5.216928276659386077e-01,-5.180139092497924480e+00
6.690023692232595076e-01,-1.404875737272626823e+00,-2.706425864325305408e+00
2.374608722790238158e+00,3.731868757558673422e-01,-6.897229332707357052e+00
2.379479686109256420e+00,-2.075167776234583261e+00,-6.616873051366784608e+00
1.584373143308119403e+00,2.729875481200175202e-01,-3.186122025526870960e+00
2.653611448372777404e-01,-3.740127505819473841e-01,-8.274856177694719372e-01
3.204514405373059649e+00,-9.218895184613370430e-01,-5.499800262496425951e+00
-8.964906834432415650e-01,9.583978617720754212e-01,-3.130368605324443720e+00
2.535380971338079714e+00,-5.805177621633434981e-01,-4.394128461160333288e+00
-4.456873630136746200e-01,-5.924946519424165725e-01,-1.006493626921910467e+00
1.407185343008660050e+00,7.593029123255111701e-01,-3.323143644509456429e+00
-1.263652606264827005e+00,2.093277765144819558e+00,-3.171237632249976013e+00
-1.732236125035423735e-01,2.779926034738946949e+00,-1.820874421839330681e+00
-3.870904490802089537e-01,-1.199701176422039772e+00,-2.360703760821390773e+00
3.129705058922314986e+00,-1.027000758748180420e+00,-5.363056179253026023e+00
-1.583207857182731826e-01,2.023014319807632244e+00,-3.515741210863269739e+00
-1.608384722723240401e+00,1.055364235759682190e+00,-1.615303159390986121e+00
2.840292876548865308e+00,4.246979111403263452e-01,-5.876546808454214954e+00
9.451053172306206340e-01,1.827776767327174756e+00,-3.317768642010780145e+00
-1.457066157738009959e+00,1.036011237396304852e+00,-1.941291234233184282e+00
2.703155464524334306e+00,8.360777995268144913e-01,-6.054304115747973114e+00
1.476610019090565551e+00,-2.025574733104982705e+00,-3.802266408508168993e+00
4.513140969069868169e-01,1.211270230828727756e+00,-1.779564077399896416e+00
8.280988425610581460e-01,5.353963338743447098e-01,-6.048070494955801735e+00
-1.274472938250731602e+00,-4.790514720289661410e-01,-1.310775590190396578e+00
1.073697102908447665e+00,-2.185123107629915129e+00,-4.570541453704782597e+00
2.620664290310068978e+00,-6.589248504465742284e-01,-4.626273243192528639e+00
5.082844749517400063e-01,-1.210005333358745494e+00,-4.081761863592106465e+00
2.393199686635000933e+00,-2.953603309042344360e+00,-6.167904999820899903e+00
1.437443141787942302e+00,2.093901659872075827e-01,-2.996362287055704066e+00
2.528056511541516560e+00,-1.291344028934181321e+00,-6.873761347317844717e+00
1.517268129981858837e-01,-8.819473566876914750e-02,-4.338082421571533231e+00
3.521809211065122902e+00,-9.524690762364851349e-01,-6.282434978744238840e+00
8.523942275287306192e-01,-1.474375669279654799e+00,-4.582607511546542334e+00
-7.919266202894176265e-01,2.659829647579960099e+00,-2.442553887387613365e+00
-1.130098758962343020e+00,2.515313820461007932e+00,-2.528186868315195124e+00
-2.589658874919164577e-01,1.078984554860968226e+00,-6.510106961694910321e-01
-5.180719295634491628e-01,1.793400537765048153e+00,-3.828417332767314551e+00
-1.625195601736377116e+00,2.173436535928218838e+00,-2.526228217673173848e+00
2.791737356640500600e+00,3.329787824596143753e-01,-5.721931838535356363e+00
-6.942550782980668744e-01,-2.431791970738541447e-02,-2.727935736484770501e+00
6.802161510436546821e-02,2.526080300385225019e+00,-1.984515390162835402e+00
3.596567669162882841e-01,-7.643160737498820856e-01,-1.485297161486580197e+00
1.877386710516417256e+00,-9.591676954267677191e-01,-6.942592379521785872e+00
3.475341538622258586e+00,1.678460598451076979e-01,-6.988929822497616406e+00
2.533012256945589069e+00,-1.521963200954828954e+00,-6.684403113018289488e+00
3.291957718803765420e+00,-1.137351408743599857e+00,-5.593387316348433558e+00
5.981252722564472935e-01,-1.928746660909849142e+00,-3.801936555992918798e+00
1.888071890354994009e+00,-4.058241693120021587e-01,-3.339937467293045970e+00
2.882981305730969890e+00,-1.410141071216516107e+00,-6.519337169470017734e+00
9.408554153647306073e-01,-1.057017935935049696e-01,-5.907052422614438747e+00
1.990913170367698770e+00,1.441444283451490949e-01,-4.158922240189045105e+00
-9.327209232972851760e-01,1.908567828923662113e-01,-2.324564220011202664e+00
-7.864698265908548480e-01,1.314487837337366294e+00,-3.519319864409495402e+00
8.872663336804442746e-01,1.209495721220565700e+00,-5.100548795243152966e+00
2.729600883860721527e+00,-4.713843719550493416e-01,-4.926756577145029681e+00
9.876257543035914521e-01,9.366176893635536072e-01,-2.584310665354957681e+00
6.331181616021243526e-03,-8.756674026742072847e-01,-3.327464332364820532e+00
2.621794949404021580e+00,8.884541131531388247e-01,-5.836668471404832026e+00
8.313573514422621658e-02,8.018004618899824409e-01,-7.515338622516377631e-01
6.877004606148338917e-02,9.897263103139929408e-01,-4.806259205480332142e+00
-1.274581593173250260e+00,1.550739667181068260e+00,-1.686846736813423897e+00
-1.298730160178290793e+00,2.307031580113926061e+00,-2.933341893009196788e+00
6.396044015298940622e-01,1.384648656579642978e+00,-2.369212241664251373e+00
-3.081000716423696884e-01,3.676053131939601565e-02,-1.915350569747304998e-01
-2.714891444536486342e-01,2.414715059636141081e+00,-1.373112226582182238e+00
1.177597204029120048e+00,1.501231483500059971e+00,-4.881772598216684855e+00
2.416225705166070714e+00,-2.575776790266804950e-01,-7.412451655930797578e+00
1.293137356818992778e+00,-8.229605849820805785e-01,-1.900940912026013008e+00
2.805025737572728328e-01,2.459365526772856914e+00,-2.883951386161378139e+00
3.393456128122448678e+00,-2.263538510022714778e+00,-4.886302755224238403e+00
1.139192798498907644e+00,-1.866633231711106289e+00,-3.463262381201270834e+00
-5.177663670442841370e-01,6.850502161471723472e-02,-3.020437033479918654e+00
-4.457875751508565410e-01,6.893347984635791459e-01,-3.746923837847405458e+00
-1.352715345773082944e+00,2.606653386049667009e+00,-2.214026495699916719e+00
-1.526392621847003861e+00,7.278362485931006987e-01,-1.615273007493210011e+00
6.255790521296067386e-01,-1.564161978298807210e+00,-2.784816871161305496e+00
2.036676638527960659e+00,-7.458225067304121714e-01,-7.472308060682231634e+00
3.838652562351068109e-01,8.391430713699248312e-01,-5.493494096065000498e+00
1.807626536303008624e+00,-1.549373760783182785e+00,-6.348564045977265202e+00
2.273963174758353745e+00,-3.283860260308893442e-01,-4.090492043788958476e+00
-1.254511164091397069e+00,7.702453502256231266e-01,-1.212729188721167750e+00
2.281983692320387114e+00,-5.773789057085169096e-01,-7.391306858349519615e+00
-9.208603935511372462e-01,2.203658053656434024e-01,-6.941615968594705421e-01
2.736164080834501799e+00,8.168850696178319160e-01,-5.946558094908018788e+00
3.404950208459189387e+00,-6.067725883106517282e-01,-6.285981739178898131e+00
-2.785914457055132520e-01,1.071225723877319513e+00,-7.090427732108719461e-01
2.744717682526200075e+00,8.436925853203763870e-01,-5.977420371669129651e+00
1.744098275480873594e+00,1.024561260990568323e+00,-4.154937259186863407e+00
1.467519489229057728e+00,-6.695937599976570231e-02,-2.925111855394660676e+00
3.296616057107246700e-01,-1.442898438851670240e-01,-4.572904628705382279e+00
-2.074940787811457021e-01,-1.113957328934217061e+00,-2.967333150098679706e+00
-7.666810199030674733e-01,2.702048161178784547e+00,-2.204204656271354867e+00
1.204971611588502967e+00,-2.674610808323343858e-02,-2.460662666626126427e+00
-4.818323027022240468e-01,2.559857477352112554e+00,-2.570517571859764150e+00
1.791216254476359238e+00,-1.849880656334018214e+00,-6.028935291248880723e+00
7.185574391769782299e-01,9.240274154313121713e-01,-2.231698363540285168e+00
-8.138923707554919229e-01,7.411720700701539544e-01,-9.725811518665024025e-01
9.863548952580926121e-01,-5.387616831418573504e-01,-1.575730146607104531e+00
2.544262232521444567e+00,-2.081157974377433995e+00,-6.537271671979237198e+00
3.781143687169189471e-01,-2.504866408660256227e-01,-4.508727387757192062e+00
3.587451732774283197e+00,-2.549739224986437680e+00,-5.495765451769684340e+00
5.681857793394579081e-01,-5.593491345240246548e-02,-1.070774671779175069e+00
-2.416015596027003276e-02,2.433963308892713506e+00,-2.882830130640674948e+00
1.850004590797646786e+00,-1.665382327054376166e+00,-6.542383466909420520e+00
-4.976169233557870553e-01,2.001613580107659551e+00,-1.360051135971237946e+00
3.040222400228909549e+00,-9.133726662662762230e-01,-5.371498546979416311e+00
2.481897072335007781e+00,-1.445593150391380144e+00,-6.845035847282203711e+00
9.992556438966732069e-01,-1.771575606018004345e+00,-3.203205438948907968e+00
-6.245767166503315426e-01,-8.818811484260002942e-01,-1.400687600033148072e+00
1.776562545030959450e+00,-2.454955425650103606e+00,-5.776193981408721534e+00
6.524920633931745595e-01,-3.094079521148505596e-01,-1.022794244376394435e+00
1.678113269292970666e-01,1.490687645753483892e+00,-4.526194409855134104e+00
2.229268855677245753e+00,6.334608637349102844e-01,-4.986294393439075101e+00
2.044521645286975220e-01,-6.974048273796676911e-01,-3.930074284409981189e+00
-1.410035450335651364e+00,-5.014776821926767436e-01,-9.006438333228765636e-01
-3.829063851525833506e-01,1.622928930513558798e+00,-4.262662602378851417e+00
-1.156497105767126721e+00,-3.527460973445127324e-01,-1.567790952477465805e+00
-1.088238245989855413e+00,1.600782655195377879e+00,-3.122848209042930812e+00
2.074531777358334050e+00,-2.403942406484523175e+00,-6.319553456213369280e+00
-1.090107985889235548e-01,5.567319483205357411e-01,-4.321364347990940047e+00
2.035081224249572163e+00,-2.598073311677010722e+00,-6.298225048146860239e+00
7.679215624745892033e-01,1.482440824452382344e+00,-4.672912506242197672e+00
6.146097366220689695e-01,-5.056112511502726392e-02,-5.279427730943893948e+00
1.769792161426555710e+00,9.461454975582759275e-01,-5.685227766320336329e+00
-4.589179924490101314e-02,2.235986239454954561e-01,-1.585175545909175976e-01
2.412372366349647912e+00,9.019677077295621404e-01,-6.002458449380113414e+00
5.315042965070736480e-01,2.802485768262004684e-01,-1.170610400662467132e+00
2.942034894738316364e+00,-2.632757749931141866e+00,-5.923219096089130886e+00
3.297923526169797004e+00,-2.045284626651926896e+00,-4.909694621272758575e+00
1.111730478474848072e+00,1.840376241021682180e+00,-3.531626090529528916e+00
1.961876943714957022e+00,-1.865374364957355313e+00,-6.500356684497035076e+00
8.266124480769256877e-01,-2.580699384619144499e-01,-5.666672002624568272e+00
-5.347822449572858794e-01,-2.628148761656484700e-01,-4.214588057593965931e-01
-6.856709507857920993e-01,2.537645328971893655e+00,-2.536621461796382704e+00
1.534830583654767100e+00,1.632024745140247202e+00,-4.334266121720572684e+00
1.016711958652339653e+00,1.867046110414272819e+00,-3.360821364998045624e+00
3.487333940211072569e+00,-6.580588750167836176e-01,-6.458665943664086306e+00
-4.342516358732989024e-01,2.039264550705827350e+00,-1.325572520445488678e+00
7.371405760540996610e-01,-4.690950431694942968e-01,-1.200341505144646881e+00
1.756787070766059333e+00,-1.906971479772005207e+00,-6.118560491911642529e+00
1.723323614991719044e+00,-1.974885598352422722e+00,-3.712030251070946196e+00
1.235070663981214789e+00,1.468866371481310162e+00,-4.706233150700732892e+00
2.081541485036719763e+00,-1.946008132640041355e+00,-6.617747910955046997e+00
-1.537092043390130502e+00,2.264310572323756432e+00,-2.862300480557687266e+00
4.772524564339766795e-01,1.921463388964554098e-01,-5.128072017010869565e+00
2.943712388441206418e+00,-2.622317187894058765e-01,-5.466743223038476707e+00
-7.900249427913727529e-02,-1.045443244752261469e+00,-3.175579943296664709e+00
4.054176464840373306e-01,-1.794367663788716927e+00,-3.661221153697264086e+00
1.862842554041556298e+00,-1.572115381595374783e+00,-2.905167940618762046e+00
-8.166573663593316157e-01,-4.350669226148313751e-01,-2.212647925004110672e+00
7.710309568018105519e-01,2.736855509352391080e-01,-1.666342663519995826e+00
-1.569041791945054998e-01,1.664856453743334352e+00,-9.950699725051650457e-01
-1.375542785762412068e+00,-7.450431036605627277e-02,-1.228274999537026568e+00
1.787234041137617746e+00,6.297533457083202002e-01,-4.001103601901935036e+00
-1.317434584184286717e+00,2.532525021291458511e+00,-2.265858162785180596e+00
-5.952497516168604452e-01,-5.393978321638925877e-01,-2.574689915777346627e+00
1.648305650914021037e+00,6.467628073350135676e-01,-3.816589202543136494e+00
1.106964359962944622e+00,1.956819142397304701e+00,-3.533964950552160644e+00
1.584183268017510304e+00,2.528788312261844862e-01,-6.946303767561953890e+00
-9.970426837648476148e-01,-2.866971179002800185e-01,-1.904342745908916834e+00
7.347766940042226302e-01,-1.423593836076140651e+00,-2.680925058058127863e+00
1.279478816865406099e+00,5.057447406844696181e-01,-6.455509627674638651e+00
2.401858900038023048e+00,-2.235294340731718954e+00,-6.456743895804887501e+00
1.154350776467726547e+00,-1.145810505221510844e+00,-2.277504332039796076e+00
-5.350831390244811248e-01,-1.727372102699498424e-01,-2.844226945103979443e+00
-2.331315872944550727e-01,9.220748972710675062e-01,-5.861060648507784299e-01
1.574013703499668848e+00,1.270970493765090359e-01,-7.157712834597067086e+00
1.514995623056911489e+00,-2.437312675292549802e+00,-5.232960827475326759e+00
-6.898418313187765216e-01,4.087798430614852929e-01,-7.301097593426753019e-01
2.144822461841330519e+00,-7.725088901170240607e-01,-3.596159126118602778e+00
-1.333960086215477459e+00,-5.840799554932186721e-01,-6.717815018754909051e-01
2.287322618480568170e+00,-2.883034968696640110e+00,-6.246036791496013763e+00
2.600360186784717254e+00,-2.420565566247517841e-01,-7.403949818494405477e+00
-1.591689098615493847e-01,1.244392762702757560e+00,-4.789127406888372462e+00
3.726648963166321327e-01,-1.526055724608620157e+00,-2.802381817469034697e+00
1.567728106994525028e+00,7.033790570749586246e-01,-3.670652351442204253e+00
-3.063317055705265246e-01,1.573973829120711931e+00,-4.414594865447970307e+00
2.317121271672656357e-01,1.995208305986658548e+00,-1.863725819695420505e+00
2.183473500231369435e+00,-7.800935437163860620e-01,-7.379007170153671247e+00
1.171825209132732359e+00,-6.048823150846179830e-01,-1.894704726159749830e+00
5.669910364371287814e-01,1.156955313133266827e+00,-1.895515176921878098e+00
3.228953521312399322e-01,4.090482830437143780e-01,-5.123942891097405195e+00
1.194566222366016062e+00,7.212819727205368493e-03,-6.376251232180000450e+00
-8.438582174874732500e-01,-8.351798608207346986e-01,-1.801561272798768210e+00
2.915184286511235179e+00,-2.891240982094665402e+00,-5.461558991359013682e+00
-6.253289729006754616e-01,5.668478598157278281e-01,-3.335014868997466575e+00
2.973144850952933904e+00,-7.832944063338520557e-01,-6.837986277513491196e+00
1.616743491536673405e+00,-1.887403609627553991e-01,-6.956999930353117811e+00
1.396140332253198668e+00,-2.259245639522853288e+00,-4.132077756784688916e+00
2.650991896226063904e+00,-2.928567709066586477e+00,-6.009816700004163792e+00
7.579727423755255877e-01,1.706594617562983585e+00,-4.182082044851195946e+00
-1.403162031479709082e+00,7.897825929765740494e-01,-2.008445664606180792e+00
1.937963920647670424e+00,-2.395263194386259897e+00,-4.558991110357951904e+00
7.504185299540667708e-01,-1.683872948632746613e+00,-4.283869354640525096e+00
8.010784410712721293e-01,1.558333608290053851e+00,-4.590013577196566885e+00
2.408380795733175539e+00,9.525349950576924574e-01,-5.428013648702918914e+00
1.179632772520146089e+00,1.612457964137173461e+00,-3.458381588876261237e+00
-4.008823943075820462e-01,1.903743957797878528e+00,-3.607207591725442253e+00
2.464961629966554213e+00,-1.247557588520118221e+00,-3.903034219111084724e+00
1.413992262661974753e+00,4.931790061167695693e-01,-6.506001275262552674e+00
7.352434963754214126e-01,1.680326687941757990e+00,-2.756248868470386526e+00
1.486478402300855928e+00,2.255652421318201928e-01,-7.043974293175818246e+00
5.155659552620533992e-01,1.587397460618383382e+00,-4.383222839097414614e+00
7.674638220745265693e-01,-1.906956515435727084e+00,-4.046396793153009597e+00
1.225091499488587088e+00,5.711839990344242945e-01,-6.406458781386274559e+00
1.254393966705902308e+00,-8.257027948479165325e-01,-1.677468846848034545e+00
-3.869557946133770909e-01,2.916582163058142552e+00,-2.000974192967862830e+00
1.587088806289860266e+00,-8.938694387104832995e-01,-2.388596353588253063e+00
-8.122928457697869975e-02,-3.398946115035972326e-01,-3.568311016459782437e+00
2.859220744932049474e-01,7.048590950732328553e-01,-5.054396053930181765e+00
1.444609956268843254e+00,-1.205005238223332054e+00,-6.072481248384610453e+00
-2.181998166369153169e-01,1.190073812918643226e+00,-4.462879898533072875e+00
3.262691121582117493e+00,-7.302655625409051332e-01,-5.771497915800074985e+00
5.838269704481257039e-01,1.757754014759270178e-01,-5.315849967090845674e+00
-5.478581199776987321e-01,2.271053117359891793e+00,-1.434489739533008512e+00
3.032696218331658145e+00,-1.260169204621134131e+00,-6.523286273405672020e+00
1.174189569945195410e+00,-1.716095702715677795e+00,-3.478541692493200443e+00
-4.090587762769689606e-01,1.906681185224115282e-01,-3.397254615490443719e+00
1.205787694225441298e+00,4.322443081247427932e-01,-2.663657112244088854e+00
-3.398365017511000702e-02,-9.818205149756431549e-01,-1.774515295321439368e+00
3.427841143996736228e+00,-1.298383744787346139e-01,-6.612332824159680378e+00
2.823982801598849957e+00,-2.729759127324995482e-01,-5.305233864232067553e+00
1.517726834079185849e+00,4.917403854174050015e-01,-3.367494895757095374e+00
5.542677189055456033e-01,7.581257854548938413e-01,-5.725766078785516910e+00
1.626749780585158511e+00,-1.503537659983527952e+00,-6.015191440696274761e+00
2.266493335554495392e+00,-2.653079896072072064e+00,-5.121174115556324402e+00
4.874838457136444481e-01,9.782397250067756400e-02,-5.115213521752111525e+00
1.466751084477176947e+00,1.127418121392766981e+00,-3.646853666082217948e+00
3.123660716070070453e+00,-5.679100340911864553e-01,-5.786340265443859820e+00
-2.903111177056281744e-01,1.415217561970248950e+00,-4.451799487859088522e+00
2.096926542225109547e+00,-2.221763993825420336e+00,-4.362789077008734751e+00
-1.613457437528086902e-01,-7.558080873660212307e-01,-3.183390023121678958e+00
2.860344037206659640e-01,-1.669690621044622958e+00,-3.376136781969297562e+00
2.213558672320683929e+00,-2.741950353743965785e+00,-5.285271524329363757e+00
7.930528763661328640e-01,4.391585543812732140e-01,-6.019230214686333902e+00
-6.062874540693972136e-01,-2.704572460077050433e-01,-3.375797167483863270e-01
1.785604286759738368e+00,-2.084378918128150904e+00,-5.888243318267850412e+00
3.211180661366533906e-01,3.256688696887950485e-01,-8.941170201407798723e-01
1.450161378915986177e+00,-2.191481348789686479e+00,-4.056143699631255650e+00
1.454736714411019260e+00,5.021603530562033235e-01,-3.171125886018849371e+00
-1.046484701002239115e+00,9.098226850395546572e-01,-2.622667948311541153e+00
1.902936397862250217e+00,-2.951872938786156642e+00,-5.583139850459689413e+00
1.252538972107481552e+00,1.488374878921027600e+00,-4.736086543042971719e+00
1.839189563832015928e+00,-2.665785621788472337e+00,-5.776237398698098602e+00
1.428677478709389881e+00,1.724011357579282810e+00,-4.353550525959235529e+00
4.352692733219526988e-01,-7.957774247926688860e-01,-4.449187618817989076e+00
-1.170911795804009808e-01,4.086909830139978106e-01,-4.205124668702963753e+00
2.465984078086941089e+00,-1.722173072236618252e-01,-4.715385650696896747e+00
2.699350720204100718e+00,1.718181503815472688e-01,-7.326123897718265887e+00
3.537064204193831163e+00,-1.774298987747323642e+00,-5.942016720962457477e+00
8.691533582623378607e-01,4.233648475600625127e-02,-5.781082368512109326e+00
1.037027548199269955e-01,9.809091325361817271e-01,-7.772839939624685002e-01
-5.508812600370579515e-01,3.629498642259384455e-01,-3.333372987660155218e+00
1.564673566482695621e+00,1.321185799469819733e+00,-3.988199692231389371e+00
1.858511042362187338e+00,9.609729393145779452e-01,-5.838667268940230137e+00
-9.368876666381460439e-01,7.567135439837644473e-01,-1.016770015017844031e+00
5.237278154471568525e-01,6.745273961131070806e-01,-1.567324555605527081e+00
2.729877692346117435e+00,4.581528010309479093e-01,-6.919615085588624481e+00
1.325227285622929685e-01,8.438546820771406498e-01,-4.868194703757777297e+00
-9.157458948349216366e-01,-6.660769354888556038e-01,-1.886919136407783748e+00
3.385022719203195085e-01,2.496264335269779977e+00,-2.433039545928898484e+00
6.310271876287699699e-01,-8.286544751961797406e-01,-1.607717055974536180e+00
-1.200851725557507965e+00,2.200256476931995220e+00,-1.928607820877454415e+00
8.637153326232475115e-01,-6.484223725449552722e-01,-5.263421291444644545e+00
-1.601459829969783311e+00,1.042478475188564513e+00,-1.714564325621081631e+00
2.760301621894068358e+00,-8.435711229162461411e-01,-4.732962163285746371e+00
1.974879728935143852e+00,6.809629739238726165e-01,-6.139985667217655596e+00
-1.440327920755690716e+00,1.360770507341345636e+00,-1.732626979365154085e+00
-1.808164546034732312e-01,2.033461168284353526e+00,-1.268555497428182299e+00
2.434756833602667925e+00,1.012613587331601561e+00,-5.728055931552490598e+00
-8.280347192301820702e-02,-9.334714652550981651e-01,-1.481901828765136431e+00
3.470621345388003043e+00,-7.221988373606317291e-01,-6.465130724497615056e+00
2.126899071879229997e+00,-6.190517357052320868e-01,-3.775856515344755415e+00
2.219542515037679353e-01,4.413455708450646220e-02,-4.578756165015995805e+00
1.430279980961067343e+00,-2.364142017106376503e+00,-4.382227089081461635e+00
3.282215438819442888e+00,-2.619226270916670707e+00,-5.198307369368838415e+00
-5.086935594497351415e-02,2.300851005735269794e+00,-1.524692798795065141e+00
1.919509436376612144e-01,1.008112209766766298e+00,-1.125573817079850381e+00
-1.657954422095755664e-01,2.816008723872028163e+00,-2.098263187644082706e+00
-1.039714010723102433e+00,-3.581469893001772986e-01,-1.755060829970690017e+00
1.043628756573063310e+00,8.892655824964674771e-01,-5.679582070485611034e+00
1.940715947016172338e+00,-9.396653693089482839e-01,-7.166142634539685474e+00
-2.025243736482456869e-01,7.254116662153581307e-01,-4.254270099683885142e+00
-1.573700268497811583e-01,2.142258179229573845e+00,-3.304439803185505564e+00
-1.484482000246738931e+00,2.753878048259665312e-01,-1.299909598783071552e+00
-9.988047732361253137e-03,5.405601227081789917e-01,-4.553295165620190765e+00
-4.180063297222529894e-01,-5.475013601064713242e-01,-2.799695598638358707e+00
2.535782586602266964e+00,-2.924433746059659445e+00,-5.475178965337635262e+00
6.696441266833518258e-01,1.870986736030635589e+00,-3.919790669306205455e+00
2.450889335160730820e+00,-3.141108255150200090e+00,-5.958757711789067102e+00
2.083031750025412077e+00,4.081829667460705989e-03,-4.048979144790630258e+00
2.458187535329004803e+00,-1.651034378303319228e+00,-3.533976922830120770e+00
1.194342550415673637e-01,-3.616574535569006543e-01,-5.341286204701622964e-01
9.003164929065792244e-01,6.938544652670576296e-01,-6.095593582406889865e+00
-1.247057609626065933e+00,1.318018016197215758e-01,-1.549023735895455278e+00
-5.081739302464385322e-01,1.047243849665240978e+00,-3.788281933942102775e+00
7.940575616808904780e-01,-1.506230699581877053e+00,-2.952462588194921800e+00
5.541610331975358461e-01,-1.968599401646293767e-01,-8.718098363599928735e-01
-5.689488029682802095e-01,1.201434547112830931e+00,-3.825062899122555926e+00
2.169461884883840952e+00,1.184912979859950699e+00,-5.093441098498124653e+00
3.211898836607112617e+00,-1.163607152857282667e+00,-5.479833866230578998e+00
1.529081086919290344e+00,4.453213823291409246e-01,-3.308064505573961700e+00
1.544564509521197948e+00,5.116996766509291916e-01,-6.495649033296857944e+00
-4.393547717231240379e-01,8.350952322228981650e-01,-3.906566403979515378e+00
2.887190588466908459e+00,-2.950434324628401939e+00,-5.614146522987271126e+00
8.626380375543151180e-01,7.625854429505092291e-01,-5.992758685943442742e+00
3.733776543274133219e-01,-8.204262254459433468e-01,-4.125947314442902858e+00
1.140386164454204598e+00,5.022708732055695124e-01,-2.622365567326931046e+00
3.457768407709989500e+00,-2.569453632688814437e+00,-5.141090374097453619e+00
7.411933544991570200e-01,2.154793734208327649e+00,-2.951866613199634504e+00
2.837091735220106159e+00,-3.493796358523734158e-01,-7.042643382969217214e+00
1.728696494896924341e+00,-5.590327280832381174e-01,-2.953167948077909166e+00
1.439475605869138697e+00,1.714274705430082646e+00,-4.433101823079264037e+00
1.382952198870533556e+00,4.768572083777353754e-01,-6.545882532489295080e+00
2.991606292751686436e+00,5.938409159670334780e-01,-6.743920990821991701e+00
2.665185145096500730e+00,-1.979166714325186982e+00,-3.973460388805068355e+00
-6.564124581262359426e-01,-6.498826387019718265e-01,-2.352475073233578406e+00
-1.505413497740401285e-01,6.916774288571274631e-01,-4.299479586442434886e+00
-1.570694486994497874e+00,9.416041569119193433e-01,-1.869089703061920238e+00
1.980421942078592235e+00,-1.133354875516545457e+00,-3.033989796092832592e+00
9.169122482902669624e-02,-1.004002931036130919e+00,-1.856266115796398219e+00
3.513568638474585892e+00,-1.510511342077186736e+00,-5.920689172100537689e+00
4.236051088951282573e-01,7.342932624204799863e-01,-1.309689359720474178e+00
-1.397680726232010118e+00,-1.344877869804782522e-01,-1.251370436837222933e+00
8.278868029967128006e-01,1.611105771571456957e+00,-4.462046962170006736e+00
1.082247227657395783e-01,1.273219756995251251e+00,-5.012991861264121773e+00
-3.992634415970855999e-01,1.287975321761956060e+00,-4.331653190150916544e+00
2.651470306178388192e+00,-7.939810790428556420e-01,-4.622168835096648110e+00
2.635255152668224188e+00,-1.526943716184105473e-02,-7.463492271671854361e+00
-8.333035561944798220e-01,-6.793385375038634155e-01,-1.083795940117272094e+00
-5.466920922063971400e-01,9.870051045257485223e-01,-3.849492230878818422e+00
1.135616380770375217e-01,1.556422115139555418e+00,-1.362041382478849982e+00
1.279241166153272102e+00,1.785737982884597397e+00,-4.085787340494505315e+00
-5.302325266692895500e-01,2.396898350828899904e+00,-2.806543141533346386e+00
-1.305594074431110529e+00,2.152417346926552622e+00,-1.916588947354368244e+00
3.137743839426699211e+00,-1.994027600055807037e+00,-4.629369636700934265e+00
9.061859107849970507e-02,-5.311324058636208816e-03,-8.721933801059776614e-02
1.684410397997766484e+00,4.478321196488380673e-01,-3.683234971543579039e+00
2.690282219239571670e+00,-1.002840585118730810e-01,-5.229361612863081987e+00
-9.924740733082236810e-01,1.417018255339241195e+00,-3.234494011149179560e+00
2.982790935433073276e+00,-2.923880837894722307e-01,-5.469860539933606880e+00
-1.394775406823078656e+00,-5.179525213018676411e-01,-6.992311688622867560e-01
-1.214258602941102216e+00,-2.208034804314497335e-01,-1.468294050188234889e+00
-2.954486718903835407e-01,-1.307710788956020442e+00,-2.423186037568924256e+00
1.080803374019460167e-02,1.232746496190935792e+00,-4.990650736248046115e+00
-1.018094130590148305e+00,4.335089604847477962e-01,-2.291186067996993980e+00
-6.434077334793923963e-01,1.286571321711065252e+00,-1.218797831173011881e+00
-1.522530572200224919e+00,9.417651220967281356e-01,-1.934672805302422027e+00
-3.683689445218032987e-01,-1.321353613624473011e+00,-2.358166951197158134e+00
4.605674727625065912e-01,1.486217194389979124e+00,-2.024049642962296947e+00
-4.620328562926273586e-01,3.968942042827574429e-02,-3.125244850167601562e+00
1.038815275846729058e+00,-1.534664061084411779e+00,-5.201768668632752224e+00
-1.463897704181926773e+00,-3.588655446889720824e-01,-9.298516368178596503e-01
3.227141346408767264e-01,-1.132092269595798006e+00,-3.920075357459464005e+00
3.189159773953900157e+00,-1.688338937861814659e-01,-6.235306891787784522e+00
1.911900696445716363e+00,-1.891266961239195243e+00,-3.712982687743753729e+00
-1.263053021277984467e+00,8.625910448572324807e-01,-1.265947249596243385e+00
5.036399334086374413e-01,-6.363387305563387164e-01,-1.226919933674874619e+00
1.614971581191591010e+00,1.612788995834149253e+00,-4.388130452974905005e+00
1.648027857821991127e+00,-1.461919314756054966e+00,-6.248125302189084351e+00
3.020196160086913162e-01,2.598448776658945913e+00,-2.336892660781712650e+00
2.234759075136875772e+00,8.340257641353937546e-01,-5.947675020270945190e+00
-7.281004224893757870e-01,1.634764488212209654e+00,-3.818590010901155463e+00
-2.014794384343437939e-01,8.756157238877964044e-01,-4.299808584881994022e+00
-4.774732560285986360e-01,2.310782741891082015e+00,-1.462812217840111062e+00
3.263169839779975323e+00,-2.062099258377385613e+00,-5.950559081340304424e+00
3.028115102949411774e+00,-8.032410375468638231e-01,-5.188423717736174723e+00
1.834421255267585815e+00,1.183892458153836147e+00,-5.489556717027807231e+00
3.995103495865157811e-02,3.043337903379225370e-02,-4.062714422711047213e+00
-1.170717631801392600e-01,1.342352971738869138e+00,-7.900385309027707637e-01
3.493297543844616104e+00,-1.313844919249814280e+00,-5.869113341584062837e+00
-1.131809772306495709e+00,-8.486346222508373005e-01,-1.406993182518406771e+00
1.386224839274696308e+00,3.879159375744973270e-01,-6.780957645607176509e+00
1.419023139108265275e+00,-4.673185175356701637e-01,-6.515292393656750392e+00
-5.942066803871325353e-01,1.186443965465386663e+00,-3.881882822445362535e+00
1.912704315383573217e+00,9.960702944733852426e-01,-4.377094482331467695e+00
1.472865381530968465e+00,-2.265235542592866747e+00,-5.245258824106403317e+00
2.821558063082881596e+00,-2.211429906772088394e+00,-4.421007436916625899e+00
-2.578110542533195715e-01,8.350515315944752048e-01,-4.301289054396704614e+00
2.171721157162397553e+00,1.215011507398820578e+00,-5.374878695873388956e+00
1.382994811979679550e+00,1.299961715336211965e+00,-5.138136058687821084e+00
-4.131731029421833457e-01,-6.769998690616063630e-01,-1.258991087980524837e+00
