8.499292374724156218e+00,8.487681187647792003e-01,-2.428641865089729901e+00
1.131824253226604426e+01,8.722558699134849713e-02,2.169175513154163182e-01
7.683242828842296035e+00,2.534335184167797017e+00,-9.594426277823175919e-01
4.147783510214763325e+00,-1.749778296975788017e+00,1.866446636903254408e+00
1.227529866376013246e+01,2.955774419199409531e-01,1.142226589695634953e+00
1.020307455916635853e+01,2.265301590556918931e+00,4.237078770845027265e+00
1.250729536143645149e+01,1.819868428817983941e-01,3.643604607482939794e+00
9.599350066089188616e+00,7.576001272034686984e-01,-1.933558674949615197e+00
7.478802643999032718e+00,-1.201689971636577203e+00,3.880800899846412189e-01
1.201888258841849577e+01,2.526945631809514037e-01,1.734029383725725904e-01
7.615572266742877794e+00,-1.006595150714049813e+00,3.783992366487708647e+00
9.482322107188549509e+00,2.153787480317434611e+00,4.176469042779864971e+00
8.727029593973261612e+00,-7.325064614279546138e-01,2.813797043251349828e-01
1.233056700046326348e+01,3.116479155177045435e+00,2.598759745806064281e+00
3.684459052265920853e+00,1.040507044036441009e+00,-3.703966635809105568e-01
5.105348331306874599e+00,1.526605884766346843e+00,-1.880493324128644159e-02
7.574322261896729636e+00,-2.207952001733156921e-01,-3.261810188652731757e+00
8.310791353457915420e+00,1.792033477429312294e+00,3.980404135837412039e+00
4.068587013542030562e+00,-1.517947805487941615e+00,1.782147385490261415e+00
8.324092070724086412e+00,2.605235516383592742e+00,-7.097933649240685261e-01
1.027497737246325826e+01,-7.116706930115516139e-01,2.628174846767785233e+00
1.643430930267320900e+00,7.491691087304666041e-01,-1.311401387487726611e+00
6.449005353235133242e+00,2.440583742154939006e+00,-2.946581996574749951e+00
6.562755696577208475e+00,-1.737010246027011373e+00,2.356756419786981027e+00
7.248027360135317565e+00,-1.513910530254872988e+00,2.211456731742073245e+00
6.284885832842136644e+00,1.133727204457728233e+00,-3.450738203451948483e+00
4.017264020305426619e+00,-1.887786098670634960e+00,-1.470286296269070148e+00
4.770676742919321534e+00,-2.104872003227951094e+00,1.237341101825670586e+00
1.871481058062612446e+00,-1.754926363329052386e+00,-2.446763160915705448e+00
1.335577882948386907e+01,3.073017228986614224e-01,1.959664689908729995e+00
1.202236488458486185e+00,-4.878365360476538126e-01,-1.842820479262721411e+00
3.961267706275078293e+00,9.260007953488078591e-01,-4.855306262849613752e+00
6.574881730036822525e+00,-1.790328738870358594e+00,2.296272018738978016e+00
1.353047438795833735e+01,8.927754623039197979e-01,1.728744547227084150e+00
1.295641267028479815e+00,-1.385581005520347242e+00,-1.577913487361231049e+00
1.136496630044818046e+00,-7.785941780265072110e-01,4.076823114407432946e-01
6.640238866637752757e+00,2.011989916503956088e+00,-6.761604777397229871e-01
4.327201990580189062e+00,1.004414985734140231e+00,1.351759150783122143e+00
6.873772892492124420e+00,1.013234254627056519e+00,4.055275257111839338e+00
4.407501204348799995e+00,2.037662099852504127e+00,-4.267949553772056426e+00
9.864383787931034320e+00,-4.357083702176841461e-02,5.391591047940460513e+00
1.094800034084832063e+01,-1.259855369591826313e-01,5.472232952165559938e-01
5.184593067187092785e+00,1.450073951124669636e+00,8.534724530833982525e-01
8.644571785557472410e+00,-1.817611237365992019e-02,4.730667573601584408e+00
3.292794004536997221e+00,8.029597431240306227e-01,3.065423783799171020e-01
3.751747864976956670e+00,1.468758865261368118e+00,-1.205215204460764022e+00
4.747119983701010071e+00,-2.870361074465709317e-01,2.441443394985260085e+00
9.093253426713278742e+00,2.669323341422315199e+00,-2.920062015873478578e-02
2.097522784172142440e+00,-2.593951298791945526e+00,-1.409913481169631222e-01
1.333569833898971346e+01,2.913085095638724642e+00,1.572142067317824354e+00
3.217245607601533663e+00,9.125920195455687889e-01,-1.715178952257735701e-01
4.247013269373704492e-01,2.559893676013641484e-01,-4.822129993809166071e-01
6.637522554546658071e+00,2.796540739980433732e-01,-3.638997743029014575e+00
5.325502749598494567e+00,1.841405694755126055e+00,-3.813254157707774095e+00
7.686344104950506129e+00,-1.380293380059902431e+00,2.241713553223434907e+00
1.316555000701974798e+01,3.039330611075332089e-01,2.077834882147813644e+00
1.196655768415560850e+01,3.119791888746516140e+00,2.595874069540367035e+00
2.404455912535297557e+00,-1.090709014330518006e-01,-3.798688556879981526e+00
2.240026329680664396e+00,6.828887913433600021e-01,2.223182279133121830e-01
1.164788284593398338e+01,-1.106085694661829155e-01,1.918274218298684275e+00
4.366641080991890078e+00,1.524455206331408741e+00,-1.570463942724682704e+00
1.034004562056020404e+01,1.560674819840104643e-01,-1.543810731294380290e+00
5.310070638776092977e+00,2.182000166083934989e+00,-2.919792313343321677e+00
6.619200029671914010e+00,2.347962853958953655e-01,3.693194453739827576e+00
1.198159393460668909e+01,3.839263742972490734e-01,4.471813507841210011e+00
1.299502682705120371e+01,4.235422059218552082e-01,1.242878833745336475e+00
8.567505415937930024e+00,2.013058726478041738e+00,2.703904068477774647e+00
8.595643541281800637e+00,-1.127656029374882074e+00,1.628624041719846538e+00
2.388697318348182108e+00,-9.493938913870231255e-01,-3.313901901211475209e+00
8.481607132846553654e+00,-2.931116958332631306e-01,-2.161099351866649254e+00
4.759842569956537872e+00,-1.641919930892643320e+00,2.111092589205133763e+00
1.152020158403482775e+01,-6.421197356400019096e-01,4.625708708837654726e+00
7.906871875006971528e+00,-7.577533473267922259e-01,-8.308142155904367776e-01
8.914214508239560075e+00,-5.043049554710458127e-01,-5.201981550016310241e-01
1.056421574818734221e+01,-6.738798693448069810e-02,-9.807141264645549694e-02
1.127646340143874681e+01,3.213769311712226351e+00,8.968929878014861856e-01
5.698837085303622096e+00,-1.728095701805655748e+00,1.411198913617354389e+00
7.834431664915791238e+00,1.005212100780810580e+00,-2.739866241023369398e+00
9.966540576579880906e+00,2.989681336331536876e+00,-5.060516256999363360e-01
7.212365494741276528e+00,2.045928344961728484e+00,5.013463174745613760e-01
2.951423368722363438e+00,-1.489245332143422917e+00,9.919862691170707736e-01
8.017793830535781652e+00,1.298021518143843145e-01,-2.719799794070867804e+00
8.704614380729211121e+00,-8.994289349521497057e-01,4.425657894241338042e+00
8.438228541456473053e+00,-1.336904209897018525e+00,3.584889041573131152e+00
5.817858605209464073e+00,9.902031542526718022e-01,-3.935568256670818776e+00
6.530485216724435382e+00,-1.838788442742138818e+00,2.649550302350009989e+00
1.055181876778925343e+01,-6.182610497060092580e-01,2.984140208805575067e+00
6.962376772864351082e+00,1.472095294652214115e+00,3.905462792589191157e+00
1.070120513649318994e+01,-1.039654825733661442e-01,-2.967347265148253532e-01
4.770368538863160701e+00,-1.865393885404254215e+00,9.772182139303235704e-02
3.182307328999251617e+00,5.124061928788342657e-01,1.762850208472285241e+00
2.959663047463727548e+00,7.771863439826346420e-01,1.211983113069791396e-01
4.358526387594801932e+00,-1.930472701846867312e-01,-5.089534795321601912e+00
4.397977451438653596e+00,9.123509172204994355e-01,1.672812648539849567e+00
9.691853206747936156e+00,-1.213973327795984325e+00,4.667464999125430225e+00
2.687601847912533870e+00,5.384804783891652402e-01,1.432899721969886908e+00
1.043727591099884222e+01,3.075426630792700067e+00,2.600749707463357874e-01
7.460271218430834850e+00,1.260551640396714579e-01,-3.217532307828643301e+00
6.678330120155782090e+00,-2.953628684858229936e-01,-3.850836667029001514e+00
8.985732770843064543e+00,2.452727146903754818e+00,-1.729099797170892794e+00
6.732160020986089677e+00,1.311965549863437053e+00,3.287130260429971695e+00
8.622872197750092838e+00,5.524097330279866824e-01,4.999025558918332557e+00
2.097149254669396612e+00,-2.342752365790806479e+00,-1.643236693563633333e+00
5.180437368328999703e+00,-1.367463957248902906e+00,-1.790794250190554493e+00
3.883876694768577664e+00,1.361746386985113855e+00,-1.726741453217076616e+00
5.980946474177397221e+00,-1.645794686729259437e+00,1.144501069973280938e+00
5.498717844658168374e+00,-7.109145020361348211e-01,2.734956510824420040e+00
6.941253565001590964e+00,2.150909771551804628e+00,4.839750024714973287e-01
1.006345947343681857e+01,-5.154623905789139648e-01,8.749881121164259090e-01
9.950058275183954137e+00,-1.423655763540792873e-01,-1.049248403513716177e+00
5.589716408004915316e+00,2.728220079329375380e-01,-4.220318726122590292e+00
1.168376454934022135e+01,-7.027056826942285062e-01,5.061772756819515884e+00
1.173586184247493946e+01,2.035733539323088814e-01,4.901341880268358153e+00
2.944072274395377331e+00,1.897444239263757160e+00,-4.688847214015626541e+00
7.216210013540537815e+00,-1.459174523832827974e+00,3.517400023029769063e+00
2.229685961673606442e+00,-9.031245761057805632e-01,9.592478666492342265e-01
7.496345909952363051e+00,-1.486654405940251333e+00,2.963931572643049073e+00
9.246667583733332307e+00,-6.171614993858627329e-01,6.054069604666426629e-01
4.931498935800618710e+00,-9.067090941255514513e-01,2.281957923779375452e+00
1.270380105575463858e+01,2.153683820945847760e+00,3.274269795770721192e-01
1.225961562972669761e+01,9.502864400042428106e-02,4.132194090902002515e+00
6.014711996740678579e+00,1.819758695983422436e+00,4.150129288384027393e-01
1.525318446294885666e+00,-1.367883424079291144e-01,6.647133962408917629e-01
1.054873361185629577e+01,2.634973962669773684e+00,3.255356958919565002e+00
5.152873477718130424e+00,-1.318820269564671133e+00,-2.754363374197747127e+00
8.417815049444888231e+00,2.203824293296698933e+00,2.340277666688701519e+00
1.624304070574807080e+00,-1.448457629015225567e+00,3.604584024028241185e-01
6.190815258275867095e+00,1.941422247959539549e+00,-5.052533355003314686e-01
5.093119922009510248e+00,-8.935734387466693907e-01,-4.816229848032265615e+00
3.065241733721987938e+00,1.699874646760023422e+00,-4.711476908406762476e+00
4.006393934845195126e+00,-2.236109238326755122e+00,1.118632726890378182e+00
1.029011190009480359e+01,2.465031159262397686e+00,3.374919718924800804e+00
6.028761212084708276e+00,6.283830558707383940e-01,-3.817354495875857623e+00
2.301499774249059271e+00,-1.923389131959742482e+00,-3.263862293601329956e+00
1.107011123371974826e+01,3.163668710859116828e+00,8.160172498699845844e-01
6.022988017692171070e+00,2.176984587986516395e+00,-2.539068926137238336e+00
2.914424610573617791e+00,-1.794794353915983853e+00,-3.158144226500116503e+00
1.133045927078218895e+01,3.270054121604399011e+00,3.829212915868308864e-02
7.092126596304900943e+00,-5.075449382793163489e-01,3.745739218453126185e+00
3.209756832128118909e+00,1.285181149255705257e+00,-1.763652106935994501e+00
1.075542060150861445e+01,1.738857788695507278e-01,-1.107614030855269771e+00
1.899650876413009115e+00,-2.680365745534198929e+00,-5.743961217742725722e-01
8.307965200989736232e+00,-1.452434199543205740e+00,3.518247249609547378e+00
8.848571004264755402e+00,2.204991877351350382e+00,2.495387019543587215e+00
7.270070850826739317e+00,-1.331083562064376835e+00,1.618640733368268414e+00
1.149830921616822188e+01,-5.364484486399054841e-01,5.564975140843270829e+00
5.641331116679595858e+00,1.590559066567592827e+00,4.178054003456724286e-01
1.273792618234864271e+01,9.383957680090857512e-01,3.015332577847829931e+00
7.588269492240470981e+00,-9.562767056036203250e-01,-4.495993470814168558e-01
1.200601357514218392e+01,2.888029537620652842e+00,3.445368075603154612e+00
8.249649618307127952e+00,-1.169588013396469339e+00,2.236591483636348965e+00
3.960068250365618603e+00,5.006052014285621299e-01,-5.160362359514927277e+00
4.008701139522624857e+00,-1.588010227358715165e-01,-5.242879464570121328e+00
1.034631787303732953e+00,3.841096195387130319e-01,-1.983925396334821123e+00
6.466949544406473294e+00,-1.959779144330800471e-01,-3.825304279346110725e+00
3.860789284438169489e+00,-1.205421215085576758e+00,-5.142895557858945033e+00
1.078816882904857621e+01,3.049683823860956267e+00,9.405041293957651094e-01
4.531470475768576200e+00,-1.768187556972492747e+00,-1.007678232455934353e+00
3.427260586678544829e+00,1.801200320825769197e+00,-4.142304741892884223e+00
2.704036744329685771e+00,-5.031006591741918887e-01,1.235669094796674861e+00
1.265435739143716631e+01,2.269648824933815090e-01,1.936618521834655660e+00
1.320090812452555795e+01,3.615359082773645483e+00,1.571154610837265819e+00
1.241420244006707208e+01,7.929292175625750616e-01,3.404429304331181072e+00
1.074162896308752657e+01,2.555155931371997369e+00,3.645318487412678277e+00
6.823172618106812415e+00,-1.751258367061206300e+00,2.843944839629586330e+00
6.385846398432097892e+00,1.646990059314782817e+00,1.691019505362925335e+00
1.223163295102848558e+01,1.461929175978350814e+00,3.560288047924522470e+00
1.055544147349034212e+01,-1.793232151025561105e-01,-4.595153772964927566e-03
7.831318019730794333e+00,2.073364538423908332e+00,8.008981735376595745e-01
3.754240448667635288e+00,-1.837805836845584073e+00,-1.475657584266058420e+00
5.856315941971630856e+00,-9.409612690899108456e-01,-3.270154397660240964e+00
9.114877754084783845e+00,1.094072515661684841e+00,-1.934397934766114213e+00
9.400772728159603631e+00,2.456659897276326276e+00,2.251705648387200664e+00
4.776126296676716620e+00,1.650654972432257006e+00,-1.015191890906083083e+00
5.800811215182346103e+00,-1.605386575107996983e+00,7.998075548149368164e-01
1.092655799161409824e+01,3.248382373651877764e+00,-7.592794366547174489e-02
1.317955735882897716e+00,6.336925416151109047e-01,-1.282070771109753871e+00
8.358548476468151023e+00,-2.602284454309587991e-01,-2.250819529698676380e+00
2.518782485867680165e+00,-1.004421816450203009e+00,-3.749015376513958664e+00
4.665307849439772170e+00,-6.991841485671631551e-01,-5.134880962394167803e+00
4.288936245943231640e+00,1.570570628148068248e+00,-1.965222049200048726e+00
2.387635822221099990e-01,-4.827271814798886895e-01,-3.521565310927792236e-01
2.263295248571322915e+00,1.346857521134865232e+00,-4.161925737245093515e+00
8.817776415221645792e+00,1.843705272228466807e+00,-2.096716893543889348e+00
1.362276022313451307e+01,1.534211126376296308e+00,1.245437546507930815e+00
3.710961283484011997e+00,7.509661510975118581e-01,2.057627126045311172e+00
5.056361651648944466e+00,1.834367916470138971e+00,-4.006018800486484288e+00
9.562518149245459398e+00,1.906061110751992915e+00,5.575826569788416620e+00
6.397696337453053772e+00,-7.923336785881546218e-01,3.268522698019771688e+00
5.091920029507700285e+00,-1.495033769809614776e+00,-1.046869984933241904e+00
6.366029797773395948e+00,-1.029816566674160772e+00,-2.056874540578482069e+00
3.393462705474082686e+00,-3.353750561936001962e-01,-5.522076970800847917e+00
2.331916436114238600e+00,-2.085369334019686605e+00,-2.691300895846850505e+00
5.057288844598074817e+00,-1.131476919051517926e+00,2.476053997863805645e+00
1.361987327831886319e+01,5.187158048142500588e-01,1.658769633249452369e+00
9.651373466320114503e+00,-9.089309668246171869e-02,-1.862954491637546006e+00
1.161064689548999773e+01,-2.420126617198803676e-01,2.879735922027164996e+00
7.806352403197982071e+00,2.106278634554570761e+00,1.779506832845328290e+00
1.714021176052187068e+00,-1.534356010136657344e+00,-2.456829616958627671e+00
1.355068793844074371e+01,1.057410343778500739e+00,1.624192683702880169e+00
9.232814676070495441e-01,-1.377420514721158451e+00,-1.242030334405439751e+00
1.115351802269556813e+01,3.330745463994211342e+00,1.137879208600184600e-01
1.197081390916275190e+01,3.012252477485512614e+00,2.814465852661527379e+00
1.129679591675323946e+00,3.328285078294248578e-01,-1.998422456292565430e+00
1.120930547385126985e+01,3.359197417827829657e+00,7.492941287692135577e-02
7.734467966581365594e+00,2.469876014547286225e+00,-7.601671998903186678e-01
5.531314606989023552e+00,1.412964271142420181e+00,8.791041092999496431e-01
8.051431390036560387e+00,-7.962162840091773219e-01,-2.496892562663104997e-01
5.113942738145746070e+00,-2.044719854511550583e+00,1.041190020512268832e+00
3.552702937788876802e+00,6.365553854049841309e-01,-5.164169244524959623e+00
4.643581473109794189e+00,1.169782048063044311e+00,6.688301120517844423e-01
4.278356698394214952e+00,8.495021834547805684e-01,-4.762221335455499194e+00
1.105518161124050280e+01,-4.475120843391120484e-01,3.379147482735330499e+00
4.081713195788003290e+00,1.322927785312064675e+00,-1.168518844067882867e+00
1.430861365450940559e+00,-8.321140318467179497e-01,-1.994803886137444415e+00
3.047677166032124685e+00,6.183373467388352251e-01,1.412335390084098252e+00
1.217138258830366659e+01,3.593068511292511480e-01,4.295812667476010205e+00
7.956393794385022034e+00,-7.992708934794917619e-01,-3.471466240246720569e-02
1.068569383185833033e+01,1.793752319557456065e+00,6.080616937322875337e+00
2.034750203059418006e+00,5.366440229054062483e-01,3.965622647225475750e-01
4.962340719754895879e+00,1.351801368011916971e+00,-4.228153607913244905e+00
1.196239620428597661e+01,-3.287563852360406158e-01,3.062026331148812730e+00
2.178963216413532411e+00,6.475912058806045923e-01,-3.720232558266450607e+00
1.027568368716542224e+01,2.426777930604913536e+00,3.122549032101572308e+00
1.267660363837858029e+01,7.412647244976846572e-01,3.217011961685253052e+00
5.901544077979883340e+00,-8.544709434923611902e-01,3.045611129011042806e+00
2.260123310885062242e+00,-2.072362820177520160e+00,5.858342249472011654e-01
1.062170042503113265e+01,-9.333699382586461146e-01,4.336075762095041419e+00
1.981259350885255177e+00,4.550756256962158464e-01,8.654527203440907090e-01
7.893270257442222437e+00,3.984989346819463596e-01,-2.887916465723827653e+00
9.333547252366971136e+00,2.649548259200658062e+00,1.186146874211382735e-01
6.905423292697387971e+00,-1.304180632382656579e+00,5.970424532418386887e-01
1.145957728634076522e+00,-2.800108927836357342e+00,-5.886688932090643478e-01
7.265720418065143349e+00,-2.514178869929451499e-01,-3.519550461492255700e+00
2.380080798601663883e+00,-2.457385146789066166e+00,-7.092618533761734234e-01
5.070648854236351255e+00,-1.045966132750882460e+00,-3.902615665549818758e+00
1.165580228770915916e+01,-5.771449665387792249e-01,4.423831900547567031e+00
7.469066361590020797e+00,-7.831709977255968402e-01,-1.659397961874850003e+00
1.161005351291698950e+01,-8.008431418678866320e-01,4.691201557085590501e+00
8.330654696363710698e+00,1.261215853858468794e+00,-2.384809523589621616e+00
9.364472970033537180e+00,-4.640851467701253008e-01,-2.654922679541834585e-01
1.040364129820326511e+01,2.049161159123891185e+00,-8.700940150324284472e-01
2.578048660524461799e-01,8.532034256140984263e-02,-4.083542303702851206e-01
1.115092691574838923e+01,2.901146124984894659e+00,-3.035701713858516837e-01
2.191431516428932191e+00,7.491870498261553601e-01,-1.668632656148649474e-01
1.123416397585592286e+01,6.361011838016967790e-01,5.583976194089733447e+00
9.570458516358055334e+00,1.946188553842046032e+00,5.155367264345725786e+00
6.445104801443128473e+00,2.385279589318144655e+00,-2.450740982358382336e+00
1.192671399709820079e+01,-3.234697264583717424e-01,3.471566174853778275e+00
1.010550429443271092e+01,-4.236664136822874127e-01,1.706956805492943763e-01
5.747011835896953524e-01,-1.145811892331661586e+00,-1.250694902447906653e-01
4.157923409582119589e+00,5.305513034398562366e-01,-4.897381735032897865e+00
7.972309978680323539e+00,2.637994722399597869e+00,-1.900689484086756531e+00
6.118898195277247432e+00,2.308542698265941162e+00,-2.544972974166665125e+00
1.229687018226283612e+01,3.047911489890767989e+00,2.935300360455987967e+00
2.137629274001660917e+00,7.850896341120463529e-01,-3.717944641597221267e+00
2.318301308095284341e+00,3.982709620498674497e-01,1.153653199514969696e+00
1.120149111485806159e+01,-5.723238373985417571e-01,3.422395541953200837e+00
7.009319577964856052e+00,-6.717546449015256160e-02,3.894458921791263517e+00
8.530645189716306476e+00,1.947214690244345903e+00,-1.968868627086556744e+00
1.216847584015074624e+01,-2.429312221167906349e-01,3.678487067005616229e+00
4.470173293354098298e+00,-1.078749972277255997e+00,-5.262076905712543606e+00
9.055541907630351162e+00,-4.211886397728746290e-01,-7.305173300190176411e-01
1.040085891404827301e+01,2.825019900103415527e+00,2.025606770935530321e+00
5.513776763953084803e+00,-1.843832570092189593e+00,1.011998891156378200e+00
6.517774781924754457e+00,-1.889357544622745300e+00,2.495813191353594807e+00
5.642293348989146473e+00,7.016613312655668455e-01,3.529465398690636579e+00
3.605593526085936862e+00,-2.180203162546538120e+00,-3.978678997386294047e-01
3.125980097585566053e+00,9.789444650480564336e-01,-3.308786247155320881e-02
1.653713358670360511e+00,9.620307925272324479e-01,-2.851498254418253886e+00
1.718671338749251598e+00,-2.458894125875844328e+00,-1.267819963228927094e+00
7.486881790761330535e+00,2.229707476969398527e+00,-9.241069206313758111e-02
3.495533209473230318e+00,-3.599963912111840969e-01,-5.386692529151624775e+00
4.303916506874585046e+00,-2.029037250262764047e+00,-1.076771937612816532e-01
7.123676382117187345e+00,2.081644633395570931e+00,-2.072257781639865737e-01
6.445741556044088050e+00,2.479142028247282248e+00,-2.633770997593147811e+00
1.255115696806297265e+01,8.409139121068828215e-01,-1.740285654727263542e-01
3.012384970049018396e+00,-2.244623168531704405e+00,-7.292657478284653161e-01
4.907461484203824220e+00,-8.170786398036151699e-01,2.371270263886156915e+00
1.160121064703980487e+01,7.263888439113765916e-01,-7.422015152123933035e-01
1.199079011902040470e+01,2.998508751765569316e-02,4.423319980245170591e+00
4.328879923250464223e+00,1.629883371877752229e-01,2.371613776099974924e+00
4.784469358639947600e+00,-1.686813501356967171e+00,-6.627508919533329212e-01
9.323252417089997746e-01,3.027623174405023598e-01,-1.710463321190087704e+00
1.291769297665221039e+01,6.616855208499666796e-01,-2.471424192955216231e-02
9.597702507336045130e+00,-1.174640273123455314e+00,4.174237709676042130e+00
1.052705871462603859e+00,-8.727841051169915598e-01,-1.338758461166515756e+00
6.915422423366226035e+00,1.649579588734231272e+00,2.431261405266398778e+00
7.726406651680088888e-01,-2.698706407133290242e+00,-3.590446613311369939e-01
1.160077409514373414e+01,-6.548977659298593768e-01,5.353088663999066910e+00
1.366362613207535404e+01,1.828361534298713398e+00,1.380947898392151485e+00
8.255226334632176588e+00,-3.781611812874353662e-01,-2.833985156409458472e+00
5.010380848495277206e+00,-1.485121596060243965e+00,2.197832083249322999e+00
6.844571573163441336e+00,2.046534441496379753e+00,-3.390926925695530447e-01
7.553901028893724501e+00,-2.172036186903827104e-01,-3.403852265546928990e+00
3.276032908012682210e+00,1.616076683399011227e+00,-3.167964110903136454e+00
1.350284730165735780e+01,7.346072931537613870e-01,1.852588619455413310e+00
3.659576087281610768e+00,7.595316681078454479e-01,1.620212118214027441e+00
3.447356715578141273e+00,1.383037272707760668e+00,-1.600271706229549729e+00
8.997805959618810689e+00,-4.641552910949470201e-01,-1.194814426275523589e+00
1.144614151197278140e+01,1.829795761456994851e-01,-3.749355734142417740e-02
2.889569756245715659e+00,-2.465611207008726158e+00,2.601020973756453802e-01
1.042792662471176257e+01,4.878056163238099208e-01,6.033402070215633906e+00
5.597597028534169183e+00,-1.302968690327873658e+00,-1.955133464884856398e+00
1.280223519434195545e+01,2.064128824432629461e+00,2.623867419583301164e+00
1.258715143731122410e+01,5.018337620182476977e-01,5.293243871992729943e-01
7.644967125738173941e+00,-9.175317158897151604e-01,3.980692443463156760e+00
1.130135812776047999e+01,-8.438430130138152574e-02,5.773716248987311062e+00
7.470629998643089742e+00,1.567325334447091656e+00,-2.656172367609016760e+00
3.051713434717107098e+00,-1.945433465166734877e+00,-2.745410115432861176e+00
8.553879760477878236e+00,-3.261164989265594727e-01,4.583562837908731424e+00
7.702968650890777091e+00,-1.430347228413050509e+00,2.519623999700160155e+00
8.195330893742875489e+00,1.398800822631386387e+00,-2.459088759064391727e+00
1.015032197805158987e+01,3.086073667582800883e+00,-2.898607230677422986e-01
6.342282895595491965e+00,2.307675870320028633e+00,-2.030940952111234044e+00
6.116134468233402899e+00,1.340986581740220285e-01,-3.857551673945666337e+00
7.554137843992597467e+00,1.640458888999235754e+00,3.383684573869250922e+00
1.173003400812058850e+01,9.059083693838521079e-01,-6.158985070687534868e-01
4.985711985675147062e+00,1.874426586707824471e+00,-2.400393424519915886e+00
1.269173227036130669e+01,6.443667920466942256e-01,-2.320316619765954713e-01
7.748691280636036183e+00,1.045309144278558255e+00,-2.714424423985277723e+00
7.299152350646960663e+00,-1.538657324289285588e+00,2.915462826907589733e+00
1.149832050678918982e+01,7.138223367551097542e-01,-8.811054810211152999e-01
3.310792591347171410e+00,7.471022325434057976e-01,2.065436963269101867e+00
3.311080561035610437e+00,1.449981170311682499e+00,-5.134004002920954157e+00
4.649090233784764159e+00,1.008901699118062822e+00,2.338077116425903323e+00
6.183760781316466115e+00,-1.331552684356226646e+00,-1.365471961712949878e-01
8.860655399905491336e+00,-2.440134911321644451e-01,-1.668665580599692833e+00
1.101466154011362875e+01,-4.196932798054860414e-01,2.085856262724819388e+00
7.671125442773542247e+00,-4.314667548346372561e-01,-2.747545671512457766e+00
1.103541681370226080e+01,2.820811155450072327e+00,2.966627437857972005e+00
9.414585787999682154e+00,-3.223240081871286411e-01,-6.449652258397211568e-01
2.288516565597256580e+00,7.878471708554447561e-01,-4.188753627051885253e+00
1.228140291909590864e+01,1.818242018198277687e+00,3.458057863174454738e+00
6.432319820110218522e+00,-6.118856071792151408e-01,3.065177985940223948e+00
5.777853335131085899e+00,-1.320302339422453564e+00,-1.203076614812550682e+00
4.988874456461584117e+00,1.519883206983140278e+00,-6.775588814776294100e-02
3.090953256251728121e+00,-1.362136948976678807e+00,1.183953858863509456e+00
1.253692955057413450e+01,3.379872782314709223e+00,2.048964824880448177e+00
1.008394378461328422e+01,2.675875840134958494e+00,1.966023045405342229e+00
6.306026075933985453e+00,1.863624484765920242e+00,-7.476012882687512254e-03
1.010823952410159698e+01,3.666992006410824817e-02,-1.630867206989497609e+00
1.097546045363055178e+01,-3.902919479188179941e-01,2.709276404420871032e+00
9.635236427003000870e+00,-1.981338144491533448e-01,5.167993693038187786e+00
9.037902285925150991e+00,-4.847850594240963318e-01,-5.749870081716641490e-01
6.765327470722231951e+00,2.270162289902724950e+00,-1.072001066291331517e+00
1.101624006027731362e+01,2.748546320941932297e+00,2.595990705184217706e+00
7.626138264779832809e+00,-3.410986804948342166e-01,-3.152803152306126844e+00
8.258143181445383618e+00,1.158746717466999782e-01,4.486172556615925622e+00
5.497421864019344184e+00,-1.717456110047615114e+00,4.959602131429731164e-01
5.983855106859285122e+00,-1.888158449426120766e+00,2.249233621696943963e+00
9.905919779776677814e+00,-3.977073791382675916e-01,5.231830015905514664e+00
1.069628565183513835e+01,4.423854804839440213e-02,-9.853414830377663636e-01
4.073168708670467653e-01,-1.239168830519643105e+00,-1.608476807651319507e-01
1.081290967410931891e+01,-6.247824914805688579e-01,3.757109219571009184e+00
1.646162924448267617e+00,5.413872553360731255e-01,-3.713660987976798999e-01
7.528223340204426961e+00,-7.572755292720866338e-01,3.935622477919407558e+00
5.945383457610015299e+00,1.827662743937694012e+00,-4.510978910668683728e-02
4.225643751296469297e+00,-1.458279874303259671e+00,-2.724834349716350523e+00
1.033295016606093064e+01,-1.126804624626707829e+00,5.238257450232536527e+00
8.587509913894203706e+00,1.983031428917969796e+00,-1.988723271708195073e+00
1.064437918977485076e+01,-1.022761003625135334e+00,4.713069875107352757e+00
7.972034688748601994e+00,2.552868225809831859e+00,-2.135957526408025497e+00
7.879532147591748803e+00,-1.173727763768390497e+00,8.602790099820808445e-01
7.267077950271406905e+00,-8.949368445079292078e-01,-1.420159408759385178e+00
8.948223031669902738e+00,2.373275404783703024e+00,1.601717293479837378e+00
1.355135760948752832e+01,2.359289584372434412e+00,8.440179277603840902e-01
1.143289728540751682e+01,2.280553767502387252e+00,4.774774604819909563e+00
1.031218308363034808e+01,-1.262948603941310144e-01,-2.723307930365621021e-01
1.365912679211663816e+00,8.145912429107164954e-01,-1.543327710152265331e+00
5.620817434302232130e+00,-1.368002666302794879e+00,-1.578354482631606270e+00
7.385108864252569738e+00,2.500169701092583630e+00,-1.341411449522218469e+00
1.069704373218003290e+01,2.157042106613515919e+00,-8.420357916584613189e-01
1.470063612419634236e+00,-1.015816838589532312e+00,-2.131396526934208779e+00
2.871951380567370649e+00,9.802860040589485013e-01,-8.435141182099771262e-01
1.284913695061498906e+01,2.759341802964411006e+00,4.981191371873279206e-01
8.488047855414965426e+00,-3.070196743315852239e-01,-1.982670003162397165e+00
3.013238652707446619e+00,-2.448481559580871547e+00,-7.492278890819349668e-02
4.289543599825490716e+00,2.069525486990017260e+00,-3.938546719748505343e+00
3.000324570373511968e+00,-1.802284086838613908e-01,1.546873064140722898e+00
2.950358085784283713e+00,-3.876272708872197659e-01,-4.721620404959575801e+00
9.422459722411170802e+00,-6.053227964835034003e-01,8.675526661524448624e-01
2.476363029209686317e+00,-1.949537238110544024e+00,-3.254523414423681427e+00
9.079563908618473178e+00,2.227652158899615209e+00,2.880696052414561503e+00
1.126091050189146259e+01,2.011513754312364899e+00,-3.625245459653449465e-01
2.551267972672922379e+00,-1.432606765651713632e+00,-3.607396144772105906e+00
2.115567900031410709e+00,1.177808840593879136e+00,-3.482308070994228899e+00
1.067885850697782857e+01,3.101728602150541469e+00,-4.088174626188402772e-01
2.566670099210255351e+00,-1.318958503705222940e+00,1.116172578517260927e+00
1.230412476493262197e+01,2.964987538956836310e+00,3.018256790130245282e+00
7.219728959408231894e+00,1.710536496278874052e+00,2.150958786031814451e+00
8.025693212295177403e+00,-7.960594873408293193e-01,-6.319570793719144763e-01
8.091941747224741022e+00,-1.021426851666386026e+00,4.129594282873644495e+00
1.007713957718937081e+01,1.347563459655439333e+00,5.974430473908293848e+00
2.595705328856479976e+00,1.542296976906860850e+00,-3.823106169179800951e+00
1.997661424835803778e+00,8.827672356543105892e-01,-1.566763534142655123e+00
3.549055900279724174e+00,1.671717567914140057e+00,-4.806153335467608478e+00
2.741154440701093709e+00,-2.333376471480085979e+00,-6.316931704820759608e-01
1.017431192241863513e+01,9.029250173551854886e-01,-1.404684114425776897e+00
1.306184172639567187e+01,2.826179241400850750e-01,1.924179595661800635e+00
7.321175350743437171e+00,-7.601483013870568017e-01,-1.987194220718294879e+00
5.659724517565625668e+00,7.879360683762514084e-01,-3.964566953914292924e+00
1.804159071035275952e+00,-2.336434018886629271e+00,-1.909585583466560266e+00
7.902562934614531187e+00,-7.068356649425422411e-01,-1.587904226653966910e+00
4.748988114359537605e+00,-1.825611685400128970e+00,1.966604234852673341e-02
1.033696945173663195e+01,-1.183416311869567583e-01,5.756689512798942587e+00
6.985083577342217964e+00,1.644331676055619029e+00,-2.940777018747169347e+00
1.115546479447232464e+01,-5.594763260892283707e-01,5.936444029626369634e+00
7.670562140988447020e+00,2.118464214210178831e+00,1.112793170305285351e+00
6.917431262598075392e+00,1.372259163292786299e+00,4.057403510997704466e+00
9.708709465636183866e-01,-2.716798299777265502e-01,5.689716952835585095e-01
1.085725855260575479e+01,4.092896668948804995e-01,-1.296498708217407536e+00
2.311715673323734954e+00,-2.166462003434244110e+00,-1.526852641557602031e+00
6.412887528963111095e+00,-8.222273458069007113e-01,-2.666021001059521556e+00
5.398869045324825144e+00,-8.689895914753533734e-01,2.504074245622478934e+00
1.687038272257860072e+00,4.432450982236694759e-01,6.334251524495069230e-01
6.455745256659453979e+00,-7.888992616600930541e-01,-2.960642965928879100e+00
9.492251868664737913e+00,3.013207443522691431e+00,-7.959474007822370245e-01
1.052038262959941761e+01,2.440197682349824593e+00,3.635637808074807964e+00
6.206958255517018408e+00,1.855453130015445318e+00,8.323621459424838942e-02
1.175136938597302816e+01,1.122160250773038825e+00,-5.306166064707030783e-01
6.643002119516055792e+00,-9.336257356911812355e-01,-2.301182193251344099e+00
1.068567058658732094e+01,3.547976416871831962e-01,6.075016336170266484e+00
1.066589519955228305e+01,4.386080542334073185e-01,-1.417257014856492470e+00
7.299285020255221745e+00,-1.206222351109103696e+00,8.982724486514186424e-01
4.896049678612381051e+00,1.492684469529181213e+00,-2.244185327312475664e-01
1.003013755489259395e+01,1.671093399904117538e+00,6.058087873345404439e+00
5.319477744425718413e+00,2.247688438742736050e+00,-3.155093413021528459e+00
1.310928769918737302e+01,2.184954247086931201e+00,1.808083122179029667e+00
5.667758237384156850e+00,1.371082357619983760e+00,1.853020790141612473e+00
8.113759566266955048e+00,2.540363571152112865e+00,-2.124877612266753868e+00
1.179021099246970294e+01,8.345301014473130996e-01,-6.240622468120075039e-01
1.262089456016032862e+01,3.318468971468115480e+00,5.434595458886174457e-01
7.749800819511061256e+00,1.286441798380185686e+00,4.665657597997085126e+00
3.900959644819175232e+00,-2.161192926334689624e+00,4.591502652093046311e-02
7.416118647001891162e+00,-7.225537013594128810e-01,-1.898336514272862541e+00
2.756025705337218135e+00,-2.030584016737125630e+00,-3.098923114972226944e+00
5.894452257444378951e+00,1.229611560646122648e+00,2.936258621183149842e+00
3.271593097887792290e+00,-1.212367421818923319e+00,1.312271812130795023e+00
1.138420141012252707e+01,2.480791793013128910e+00,4.353639979927190318e+00
2.392698132136135136e+00,9.469189909685435946e-01,-9.785633047138548868e-01
1.753116244119343303e+00,-2.550642926140895828e+00,-1.198630770949295599e+00
7.980133776352015929e+00,1.518117668066908843e+00,-2.495930867357686100e+00
8.725057849372632290e+00,-5.885413446887891205e-03,-2.685773395662990115e+00
7.386377621397785198e+00,-5.862330256995034183e-01,-3.031319769882726334e+00
8.853088488540469925e+00,2.134703663408668017e+00,2.729581531402994532e+00
1.377386176279425101e+01,2.063917144496929978e+00,1.053297355759059029e+00
1.642462035485768634e+00,-2.130144415677288627e+00,1.484761402558677224e-01
6.508616684033760258e+00,-9.487083471369968102e-01,-2.616769389825136738e+00
2.375570222681930410e+00,1.182534058847562575e+00,-2.513756382962422542e+00
7.460170025088259216e+00,2.449235505106962751e+00,-2.314634494595184666e+00
4.676707289628391884e+00,5.737149363907425581e-01,-4.592740917586181304e+00
2.898477606045357202e+00,-5.847029478675436209e-01,-4.736106316329882659e+00
9.033674406325355122e+00,1.820380387755588414e+00,4.985601729686183425e+00
1.792143339178532413e-01,1.100942741838951827e-01,7.148251231938639039e-02
6.906220396503197634e+00,1.996632135888882553e+00,1.507615372094247563e-01
9.908524163480230129e+00,2.643879021307534494e+00,1.599057640861162310e+00
5.296921953740486799e+00,-1.090142436207114818e+00,-3.557100537594522383e+00
1.041865616926491178e+01,2.856983383086185935e+00,2.104848647716417886e+00
8.007646056833908066e-01,-2.739943176574432648e+00,-5.171244323247371488e-01
2.187346205001039934e+00,-2.404096587496044268e+00,-9.447238028757924955e-01
4.144667325588036633e+00,-2.207812143699233065e+00,1.352550410694508543e+00
8.657333571529282068e+00,-1.828148407199613468e-01,-2.703570830470265030e+00
3.666169424445019587e+00,-1.746505415801838268e+00,-1.915461285539463487e+00
1.901331311811689906e+00,-1.610629172382035124e-01,-2.725511284956900315e+00
2.884647144628234461e+00,-1.974377070002202528e+00,-3.068674336851856310e+00
4.009738999405652926e+00,-2.313367906755613657e+00,1.321651670300117765e+00
3.632865925316952183e+00,1.476746807642268955e+00,-2.217622549027887136e+00
5.291515558023526467e+00,-1.462705366287731623e+00,-9.721607105930283321e-01
9.383539228619206085e+00,-1.098583506509045238e+00,2.386866573341184239e+00
1.177947271879516977e+00,-2.764502223190059116e+00,-8.583596859313757932e-01
6.931347890233437781e+00,-1.502331667142122962e+00,1.366672754143474000e+00
1.180975500295238945e+01,3.081277972326874615e+00,1.966211297359804266e+00
7.066809437722629816e+00,2.907325667522812074e-01,3.927798112881373704e+00
1.802362704748173394e+00,-1.480245538733840238e+00,-2.614531585006521386e+00
2.296450246107230253e+00,-1.076147049340513834e-01,1.205484481232786065e+00
8.090600431233673007e+00,2.728613185499401350e+00,-1.811342950216439318e+00
1.138611160858989990e+01,-3.813121834356874573e-01,2.625315402204407178e+00
4.109599484613851494e+00,2.128151147114535569e+00,-4.110680382571668012e+00
1.100292710879605984e+01,2.587261368833967623e+00,-3.426743272431909682e-01
6.388796269746341849e+00,-6.495521228278373638e-01,-3.760542997278451871e+00
7.398093978890646127e+00,-6.390626897258059325e-01,-2.224130939506941296e+00
2.358443000096336561e+00,9.217243823398518776e-01,-4.193983569577541815e+00
1.136948190011410098e+01,1.612940492025265460e+00,4.979802900105331886e+00
9.951902306414934785e+00,2.551416234918952419e+00,2.973459239678059252e+00
1.007909199878898221e+01,2.404471896220238047e+00,-1.146989747720208674e+00
7.073652148866239386e+00,-9.513391125194478048e-01,-6.819806533773526969e-01
1.314898814673856720e+00,7.930814939290872223e-01,-2.289010647319822844e+00
1.128504758929298823e+01,2.635032207780833247e+00,4.043181604957307052e+00
2.116507960279212508e+00,-2.811923380634769210e+00,9.882163508728228352e-02
1.220133913112455737e+01,7.017446464135325135e-01,-5.236129755207962200e-01
1.176405787112152623e+01,7.252521685509599747e-02,8.597418857591181407e-01
6.547098967688852689e+00,-8.547011759459477442e-01,-2.968681011186476315e+00
8.172312626246638345e+00,2.643168774648056552e+00,-6.084989989802945809e-01
9.603359195673952797e+00,-1.091246093685929841e+00,3.872212379461049014e+00
8.579184338962418721e+00,1.205718914589895885e+00,5.082159311439895077e+00
7.384253878260655490e+00,-7.600357638324710674e-01,-2.210481294376191119e+00
9.981636359783605528e+00,2.970975003314070051e+00,-8.865475465209775585e-01
9.329191643395638778e+00,1.913033499587709407e+00,-1.654190075572440799e+00
2.074519806171589931e+00,-1.537606965358598643e+00,4.763108990344754878e-01
