7.772806680027736448e+00,1.183786410951271240e+00,-1.388716786097039080e+00
5.825912071258326108e+00,2.661969102188583403e+00,-3.967915051720519504e+00
-1.669121038112898470e+00,4.167065294791830188e-01,-8.298121960418157528e+00
-7.650940249277045080e-01,-6.179950395960730702e+00,-1.008636194809670039e+00
2.774484535690602716e+00,-6.104069429250202461e+00,-1.377192137012772655e+00
-1.969065765687372682e+00,-1.754975432771454402e+00,-9.777825775932851293e-01
2.223296529990802295e+00,-4.550222143284027965e+00,-5.338045474352927755e+00
4.226805397982421830e+00,-5.853552475849920889e+00,-1.819336707225016836e+00
6.275038026476311259e+00,-2.604884719540706772e+00,6.803703057668928356e-01
5.524456520951324556e+00,5.143651259548385646e+00,-4.467034762838985706e+00
6.385497926589546180e-01,5.267053171779562781e+00,8.200201309153801188e-02
3.397662753846032668e+00,2.590680460726090484e+00,1.809437452425366022e+00
-3.343173919671515448e-01,5.707505690221768901e+00,-3.216641317358527097e+00
3.407464384253817702e+00,-4.661699846093236843e+00,2.132777005012015614e+00
5.056250201036672776e-01,3.069124968865378111e+00,-7.171197052085752865e+00
7.648979012603758676e+00,1.786317082072162554e+00,-1.765130676949620003e+00
5.844362279174291075e+00,-3.777164043028519824e+00,-3.900630033250767487e-02
-4.184223711687709013e+00,-3.431189351120282893e+00,-2.850944787587831986e+00
2.105260690792123857e+00,5.965298789901028798e+00,-1.967459438714148634e+00
2.169103931024056298e+00,4.592515340554221837e-01,1.261965821915097097e+00
3.791324652397711770e+00,-3.227229651456722248e-01,-4.967343379386242042e+00
-2.974302017199386583e+00,2.995000729080345092e+00,-5.401798644967778174e+00
-2.110010563615203338e+00,5.296629495319033154e+00,-2.605753356635894580e+00
3.655301893914098432e+00,1.807491766973194025e+00,2.049729920002105299e+00
7.541025630773634525e+00,-3.445081584671356167e-01,-6.848287291770931429e-01
4.603257024986160850e+00,-3.867556766920736133e-01,2.717226652149196120e+00
1.325148785807702234e+00,5.825267406880151100e+00,-3.552690805828985443e+00
4.011910768396496074e+00,-1.107155150710866232e-01,2.358133804811202161e+00
4.281492539469586411e+00,5.311478388005645535e+00,-5.021874158887550621e+00
-1.962807582682434826e-01,4.003643642533636360e+00,-5.936934270454268248e-01
3.535564832804966695e+00,-4.107686102941772610e+00,-4.604744230289019136e+00
6.655340271865126667e+00,-3.975730124305373536e+00,-2.838115237969280891e+00
-1.972600292241334374e+00,1.631720580686429223e+00,-7.906760559188859006e+00
5.102848830423742044e+00,-3.044358189009736204e+00,-3.775461014694574402e+00
8.204094382695377163e+00,2.230478113539921814e-01,-1.793432556754360530e+00
4.001518685913891815e+00,-5.139083064067790474e+00,3.861217373598760383e-01
2.518536414030879467e+00,-6.529177185220959245e+00,-4.730964600743426729e+00
6.799989341398445575e+00,3.798257138059109472e+00,-2.150607640454417435e+00
-1.671342672252229322e+00,-1.595404516084939273e+00,-8.121878082053623160e+00
-3.410211733262902722e+00,-2.696427001416933589e+00,-5.460422231573508256e+00
7.653972777066706534e+00,-2.610970446263194411e+00,-1.777615525267426166e+00
5.515445950778283368e+00,1.256143513766275532e+00,-4.087901165791159031e+00
-2.213506140973816372e+00,-4.186119493223134924e+00,-1.031720998251866250e+00
-2.659946339171651575e-01,5.174355254408573579e+00,-5.121803531436176726e+00
3.266551842020282148e+00,-2.326578646689946517e+00,-5.031590320825625184e+00
6.743606938178713150e+00,-2.859365858537388672e+00,-3.625392116543249554e-01
-3.124868549401026208e+00,2.108756348638411104e+00,-5.993877344011687036e+00
3.822976797054181031e+00,5.273174551668281806e-02,-4.988132247001034969e+00
-4.766817193240418526e-01,5.705830652702876371e+00,-2.921003077249032298e+00
6.863603276671751630e+00,2.404393564831365904e+00,-4.930229735571528549e-01
7.989820238656734297e+00,-2.295140156259301012e+00,-1.765244767761043665e+00
5.442724333161929273e+00,-2.261646016295058459e+00,2.274630789562412048e+00
-2.248276842670855480e+00,-9.515333489736903516e-01,-1.223168246801124237e+00
5.088052879775367687e-01,-6.244342043739863790e+00,-3.566331668702061641e+00
3.753375774438342471e+00,1.264285050538745070e+00,-4.977472979893065919e+00
-3.196687302595047964e+00,1.598669884950234987e+00,-6.168797825984339234e+00
-5.705175443518937239e-01,-4.762678414311806385e+00,-7.159414009144912328e+00
2.879637649670788169e-01,-3.137766203475866433e+00,4.715719182958333366e-01
7.929154901195121674e+00,2.334010513116109298e+00,-2.435026342525277609e+00
6.757009413985126223e+00,3.927067966034109237e+00,-3.616210553368339742e+00
-3.613904207642660626e+00,-7.358756150357778081e-01,-2.038332215558416483e+00
2.777137798428275794e-01,-3.652839679081966384e+00,5.016705007014199413e-01
6.339057822473534110e+00,-1.464128445654616639e+00,-3.178870898243756127e+00
-1.621558096136322735e+00,-5.194771077806969117e+00,-4.536874465070278362e+00
6.292096402181141634e+00,-5.217851098063296611e+00,-3.020488972581840237e+00
6.894202903112851999e+00,-1.431934296657580985e-01,3.798977241940831862e-01
-1.411260413433571115e+00,5.433182616009790245e+00,-2.801476422746833173e+00
2.532815323963508281e+00,-3.662152677312221716e+00,-5.533439559310385114e+00
-5.558197263263383592e-01,-1.095343157023684011e+00,-1.885110962435484483e-01
6.936203660661234949e+00,-2.510070481268315223e+00,-2.843253563928932248e+00
-3.819683461500783306e+00,3.126221421143736912e+00,-3.718713700003867917e+00
5.780925538171421962e+00,1.764770846735782106e+00,2.027985169061728765e+00
3.419909365346257335e+00,-3.684788667918899030e+00,-4.915669743384393442e+00
2.110710386752472800e+00,2.395601606544166984e+00,1.014488222045721200e+00
1.653925383948395389e+00,2.830415002317664186e+00,8.267837756253729742e-01
1.874215792115376811e+00,-6.121383085649521050e+00,-4.087081690233014819e-01
5.504346517153632767e+00,-6.535116150754334274e-01,2.915769406756495652e+00
-2.927531806084173738e+00,-2.520381731102340428e+00,-6.288377012964210699e+00
4.712860086210500121e+00,1.240943233876036444e+00,2.608986327605921751e+00
1.106922842810847074e+00,-2.480202224232199271e+00,9.332098078057542434e-01
6.947095615578213312e+00,-3.207986001199042425e-02,3.864215798852600470e-01
1.586732546445170033e+00,6.015211240894435818e+00,-6.042642128438020510e-01
-1.875186237259274247e+00,4.678466719318966405e+00,-4.382973471978170998e+00
5.990812180154362565e+00,-1.133666326473270480e+00,1.685146322875162417e+00
1.159788895338618842e+00,5.795970437816476917e+00,-3.664956546881283028e+00
2.191772293358949519e-01,-6.327021946311813805e-01,2.077768458244954874e-01
5.522168565945583474e+00,4.030286539717808925e-01,2.739752876423083183e+00
-8.889613452445999098e-01,-5.760997005780750690e+00,-3.814075529252631824e+00
-6.311040042665757577e-01,6.471847181949815786e-01,-4.932489483259606122e-01
-4.336932298362000004e+00,-1.618626157884167638e+00,-4.328360693624629718e+00
-3.453457768370113090e+00,-6.445823669301325998e-02,-6.415321503533134795e+00
-1.997476967197497455e+00,-5.422103151997586856e+00,-3.156520437606831653e+00
-2.435524505509372162e+00,4.811765375133801648e+00,-1.824595163691711708e+00
-1.328446123381079369e+00,-5.563450365512138340e+00,-4.049120148966983024e+00
2.308495455272776997e+00,-5.849279996317925168e+00,-5.275456227830049194e+00
-4.154835197408126568e+00,-6.206246553300804880e-01,-5.189940874892991829e+00
-3.604953078224971907e+00,3.815486078549267912e+00,-3.482682889693248018e+00
6.398203126156410292e+00,2.657447726181055625e+00,-1.596467000514319168e-02
3.594130194676705692e+00,3.714897358689166929e+00,1.768568315687157000e+00
1.867593306250143081e+00,5.955993835991455931e+00,5.330363146114156514e-01
4.048280646152371709e+00,4.180503759052234258e+00,-5.142228798603055928e+00
-3.819902336582162938e+00,-1.602400023329669576e+00,-5.414933861633735468e+00
5.842661269508315769e+00,5.010068700584121570e-01,2.302096207894773983e+00
-1.432024166786367569e+00,-5.864940678086170145e+00,-1.674393091999671901e+00
2.042673125081197139e+00,-5.323813705906142779e+00,-5.489306490607506639e+00
-5.246618497470267428e+00,3.119407619494251604e-01,-3.121136582086263100e+00
5.725662177436742439e+00,-3.905610504160850649e+00,3.093219557756650070e-02
-3.356281677146174758e+00,-4.135449506516830631e+00,-3.304223779846255038e+00
-1.762499969036112335e-01,-2.074438966295038433e+00,-7.251597309240766620e+00
-1.596596904533376993e+00,3.950727153430521277e+00,-1.193362825871999489e+00
-9.260670140699350794e-01,-1.999478244253318326e+00,-7.555671327287842409e+00
7.166917249423623737e+00,2.459495826037839894e+00,-1.416628637975960725e+00
5.956707176277640237e+00,-4.311568065596217636e+00,-6.017664608371209312e-01
3.367215621662505765e+00,3.462853855172335127e+00,-5.495358060930359834e+00
7.197277024899650932e+00,-3.008343343402057446e+00,-2.707535027959118157e+00
5.834029750989395247e+00,-4.962820810414485528e+00,-1.816278496067390780e+00
7.824437082434123614e-01,-2.456168598779321588e+00,7.604665456309732674e-01
-2.869338000140477796e+00,-3.282917990770506389e+00,-5.724277867307654866e+00
-8.471603957336305557e-01,4.887447370755776177e+00,-4.993341801952505321e+00
8.600984254780489335e-01,-5.169060558566369146e+00,-6.174682638495454512e+00
4.347238338188898155e+00,-1.136815219605448846e+00,2.668294382836076117e+00
5.533851879690426578e+00,-5.382496977403412597e-01,2.826401022351048731e+00
-1.720066428198349762e+00,5.163418091469994309e+00,-3.112155576225942077e+00
7.997694916353830230e+00,1.278829353350769749e+00,-2.500409540465643676e+00
-3.131922527802974088e+00,-2.585619902931536984e+00,-5.751216508885648615e+00
6.920712186351109629e+00,8.180700814440133861e-01,2.119732399271780365e-01
7.823932036358370645e+00,-5.289777818283393218e-01,-1.111543334495887381e+00
6.023503319082109897e+00,2.168551628128746689e+00,1.107115437061743979e+00
7.565699664406454694e+00,-8.417799758931272525e-01,-7.296991181222112210e-01
5.566616709744407032e+00,-2.799722451294368142e+00,1.429851424799275295e+00
1.558546480127971368e+00,5.890832490143405487e+00,-9.293584653173023735e-01
5.704316257527569434e+00,1.441283663762295886e+00,-3.902108220040883424e+00
-2.364969800053788873e-01,-1.415872284797437208e+00,-5.550898673648504977e-02
-4.409606059583624504e-01,-2.157240785234201930e+00,-8.381540861172488699e-02
-2.351239551121445004e+00,3.294207602137179780e+00,-1.678972370575443129e+00
-5.100745299552738032e+00,-1.834995364869260293e+00,-3.042411284057375376e+00
-5.035759366040311047e-01,2.650671128856755931e+00,-5.848074896062839256e-01
-2.721311559241602396e+00,-1.487879969860623763e+00,-7.163523685677325226e+00
-1.754873244711051772e+00,-5.771240855446714058e+00,-2.234926791655902800e+00
3.743247161033349535e-01,5.395040729318012040e+00,-5.093323896714036181e+00
-4.068294815970522116e+00,-1.659358299005449400e+00,-4.886489275304151114e+00
-2.472140406576543104e+00,-1.452564636732087910e+00,-7.759258248600867880e+00
-2.663838828665313851e+00,4.368653705799677489e+00,-2.079111175248345322e+00
2.921523777179844128e+00,-3.859779767657319116e+00,-5.075462547683830650e+00
8.081471826146774617e+00,7.663360478146673260e-02,-1.597861294616387928e+00
-9.580910302713160354e-01,-2.353816338570916766e+00,-2.333918304783652864e-01
8.505893183900054666e+00,-7.649016315422294543e-01,-2.141709611758536802e+00
-4.123454225308276655e+00,1.692001559391380916e-01,-5.001375072295129343e+00
4.022306228392034555e+00,-8.423016580286992738e-01,-4.795040188270230708e+00
1.586155001935400710e+00,1.559100504221901107e-01,-6.258848608501186739e+00
7.209723742813503589e-02,-6.125643038531387141e+00,-4.257670902477499020e+00
3.819636998763787261e+00,1.249282636147557746e+00,-5.104631818675045452e+00
-1.621433233056655210e+00,-3.976719907610159588e+00,-7.237410119754062343e+00
3.383372889546015116e+00,-6.462390967646102879e+00,-4.688284164413802024e+00
-4.005433614679728471e+00,-1.634628328261100716e+00,-2.225864118026172900e+00
2.632162483158523081e+00,-4.433488104865277890e+00,1.954306582540105364e+00
6.360254886611785174e+00,-4.688051155907653644e+00,-2.062016582951090804e+00
-4.391644180033750899e+00,-9.930232363015095709e-01,-4.734761004061779133e+00
1.811134247660868279e+00,-4.313827903811985109e+00,-5.756983912952374993e+00
5.294264164403248429e+00,-5.323310919365829008e+00,-3.516352736855894001e+00
-3.695641773970245403e+00,7.264904733456476471e-01,-5.574572908373005120e+00
-1.751996942175292338e+00,5.639889791603263980e+00,-1.428632033346857177e+00
7.260030396595468893e+00,-3.858740454982981571e+00,-2.487093578780450009e+00
8.379011784857102185e+00,-8.629863304236974342e-01,-1.900999689384023306e+00
6.549134835120796971e+00,-2.085537853855193635e+00,7.330039148520225423e-01
4.556464759420181920e+00,1.356219283679831189e-01,-4.502042619233257881e+00
-2.566323406416004094e+00,-3.048244570057883074e+00,-6.447860357041740542e+00
1.901007144160755447e+00,-5.855473218071004737e+00,1.193618747277569891e+00
2.871997334530492996e+00,-1.394705160068760774e+00,-5.241783215575899213e+00
9.963645752873105943e-01,-3.733264753974763206e-01,4.916748858414021206e-01
7.263323548374390093e+00,-2.301058341666319118e-02,-2.437454957770603114e-01
7.374320625204892898e-02,-6.206059509724267009e+00,5.281255116410290551e-01
4.882086112486493157e+00,-7.482543428007193409e-01,2.918708384159959923e+00
4.166613972423008683e+00,-4.181559261997410459e+00,-4.300685681534255345e+00
1.732197703890406171e+00,8.735084642898864951e-03,1.023792484415144033e+00
4.474979493729642321e+00,3.826610291168772715e+00,1.537219444671307667e+00
3.331110027630642900e+00,-5.179421381948341896e+00,1.093418038418218163e+00
-3.917496750378580916e+00,2.170379154543308431e+00,-4.656540297015924423e+00
9.463449620055078837e-01,1.056756664776574012e-01,-6.580766308631017303e+00
-3.536276842985314417e+00,-1.007853333082344705e+00,-5.745525182982785140e+00
4.969142800562684315e+00,1.116928846649120954e+00,2.873871841816402650e+00
-3.592694036839435334e+00,2.670260869071414245e+00,-4.524698096992073815e+00
8.076330421489927858e+00,6.146400919569202648e-01,-1.547601256758385002e+00
2.474407920089937818e+00,2.819622012881181750e+00,1.105938158408171113e+00
-7.741744561821323201e-01,-5.659191248682000186e+00,-4.534073202798728275e+00
2.656464989892793671e+00,5.714496187359845436e+00,-5.203718680947479136e+00
5.030996667851383997e-01,4.043543048309232724e+00,-1.228555509786082162e-01
-2.419399074051057141e+00,3.324564981688475029e+00,-1.728397693094387177e+00
6.443109714315802705e+00,1.771229746735978772e+00,9.260097215750543453e-01
4.191976808143691891e+00,-6.170511161952314971e+00,-4.133754031210537860e+00
4.996764856770086638e+00,-3.860503050018276650e+00,9.621260753530810339e-01
-1.123781331941299033e+00,3.958750587887279071e+00,-1.098110164598663951e+00
-2.451060491833720878e+00,-2.370836514322816058e+00,-7.386977768961077828e+00
-2.470800344472005694e+00,-2.437324916519904683e+00,-1.358225740802322834e+00
5.511324521484731065e+00,4.250288046546153886e+00,-4.357595137031225363e+00
6.427761871304797481e+00,3.904873440138110219e-01,-3.424615630862109406e+00
2.256638191632132084e-01,1.828014927726530958e+00,-7.346491220711445891e+00
-1.846957472265395306e-01,5.386164833525577400e+00,-4.623891180294032566e+00
6.515132779879055036e+00,2.201935135865154880e+00,-3.634234069849594295e+00
2.534076296949197005e+00,-9.652062996226654645e-01,1.604475352958212087e+00
6.186661670930049262e+00,4.616812292884030278e+00,-3.382365375666398499e+00
-3.898236907796305495e+00,-3.440606295757410726e-01,-5.426175232463277709e+00
-2.642953569856698604e+00,5.053792190636173132e+00,-2.045752775809390744e+00
7.666085243159561635e+00,9.590473991825905486e-02,-9.369829365991243497e-01
3.743666637779841544e+00,-4.926095169714168165e+00,1.180189002837400025e+00
3.879053146556959319e+00,1.816904411321851320e+00,2.153453014482138883e+00
-3.397618418214344960e+00,2.347737652077718451e+00,-2.311774111772921358e+00
1.061170937423414173e+00,1.886923480471111914e+00,4.586873818256536062e-01
-3.544818270569259910e-01,-5.163508074716308682e-01,-7.234599578206580617e+00
-2.851137267583939039e+00,-4.669585275263351321e+00,-1.358992969802371942e+00
1.367015250533035520e+00,-4.846087126066655593e+00,1.260642646020482927e+00
2.316941637970052259e+00,2.682123356308605100e+00,1.021917745090337837e+00
-3.429618669841633771e+00,-1.174077091463218148e+00,-6.362380195197650856e+00
-1.617300848449252371e+00,-2.118380190002740360e+00,-7.843678381429256774e+00
-1.839507382930771318e+00,-1.254753442660611895e-01,-8.418150907863106269e+00
2.898371058449800142e+00,5.858719258250839168e+00,-4.503271942463811683e+00
-3.652413810248233084e+00,-1.780984429314380391e+00,-2.036271261971717372e+00
7.176510937302436055e+00,-1.665009912571243866e+00,-2.612041115738263919e+00
-1.656894831902042675e+00,-1.357500362399679084e+00,-7.985328018766852942e+00
7.722821738053012197e+00,-8.615839116316513779e-01,-2.385182977655131875e+00
2.671537825794840337e+00,-7.477402334599850819e-01,-5.586685757500175598e+00
-3.674681152591049216e+00,8.573662611873398287e-01,-5.765623219164147883e+00
2.723209806952179957e+00,5.673962445994144232e+00,-4.894082231249017312e+00
4.272578392425463001e+00,4.166093806123325471e+00,1.525610389848785831e+00
3.449583525767955905e+00,-4.915079813456181057e+00,1.678218631645371994e+00
-1.268312546001811647e+00,5.033602210354021445e+00,-4.374708994566898212e+00
4.627542883853355882e+00,-3.102688360707857473e+00,2.734252366610404383e+00
7.015742424287173762e+00,-1.486842011199348779e+00,2.708664428234679455e-01
4.893455266365964285e+00,4.296896585220792097e+00,2.713748115808163885e-01
2.706857580358124515e+00,-6.439676794817286165e+00,-3.370071164416309717e+00
3.417781469469863609e+00,-5.429633795515468542e+00,4.730967420982482019e-01
-4.508479475777432022e+00,2.447078055440030653e+00,-2.799593444495979799e+00
2.480251829985293366e+00,5.748028767006151618e+00,-2.133883703691168143e-01
7.240953359875942574e+00,2.439911921274638296e+00,-1.150816768906644194e+00
2.384820629023506555e+00,5.745682569806686679e+00,-3.701038354057984758e+00
7.252882806782839253e+00,-1.091845014126416047e-01,-2.855178874657027688e+00
-2.274801901999565779e+00,-4.536769340262472028e+00,-1.049608747875077741e+00
4.615368163056253970e+00,8.202655254785098382e-01,-4.594277991320281807e+00
-1.077392221229814540e-01,-6.093302950717084165e+00,-4.376446194358087460e+00
3.566437261264532754e+00,1.653266044266162194e+00,-5.259492051176558824e+00
6.062889068898194900e+00,-3.694035731340373108e+00,-1.716098295432198217e-01
-3.459039561226804782e+00,-4.220696447091143888e+00,-2.956262344925080665e+00
5.821240850950765849e-02,7.525972128051421350e-01,-7.340021751326347044e+00
4.697573273327658505e+00,1.777258760398238380e+00,2.623667251646371046e+00
2.028872742675996932e+00,6.001232329979047542e+00,-1.177264815061002112e+00
-5.784809290058380293e-01,-4.740191099068836955e+00,-7.127881802930788879e+00
5.063319054044814749e+00,1.263032280934288876e+00,-4.259332097646946202e+00
1.981032700232602695e+00,-6.121407718394175745e+00,-4.397167623147708593e-01
5.612018247145784677e+00,4.247710259842612857e+00,-1.343285545117437030e+00
-1.986696593849468950e+00,-1.015846966048177702e+00,-9.551036726588187920e-01
6.521484466354770859e+00,2.394217174137699633e+00,-3.455167176033917542e+00
-3.233427550123802341e+00,6.966894947353423628e-01,-6.323227945348730117e+00
-1.357110235942149634e+00,-5.861906379871860473e+00,-3.273665545979050906e-01
5.744519844071512615e+00,4.862013631815598202e+00,-2.893879169447199029e+00
-7.649256007552936998e-01,-6.052695128492062260e+00,-1.029113748474794976e+00
1.561476958993931241e+00,5.894278719997507743e+00,-3.081642592808119474e+00
6.188921727485568347e+00,-6.001985933358554570e-01,-3.533132980272351453e+00
5.579502379387411004e+00,-2.907579773072477280e+00,1.590963406452101658e+00
-3.377659013117623399e+00,5.669865746702845710e-01,-2.067887467422128367e+00
-1.428023169627683719e+00,-5.710552016264771602e+00,-2.553007531574090994e+00
3.562768269205845328e+00,-2.459119596638819516e+00,2.307568306162214089e+00
2.300011280124168778e+00,5.850156053837108239e+00,-2.708155835141170087e+00
1.650422688106669034e+00,-5.939906364294240682e+00,1.001542604208625731e+00
5.607789074516718486e+00,2.630677418947897639e+00,1.588194504026510412e+00
2.699235506183812472e+00,-1.125211424922562431e+00,1.597960967006380573e+00
-5.869640471787225255e-01,5.865001870564888087e+00,-8.867927206624667269e-01
4.572406539270665426e+00,5.692005593476950231e+00,-4.953612823121449793e+00
-2.387937266364756894e+00,-3.215684830198939359e+00,-6.459387713392482411e+00
2.288935381714510164e+00,-2.674322722553418963e+00,1.833344312895985873e+00
5.320370127780797098e+00,2.626313272951749767e+00,2.102566929725147027e+00
-3.270161428913138213e+00,-4.468014000460271973e+00,-1.487291177429281852e+00
6.024132951166345507e+00,2.917842290057231391e+00,5.204797491974738621e-01
-4.518672566256721979e+00,-1.633198917019226037e+00,-2.575939651413898801e+00
2.251536687103429912e+00,-3.614775636721778262e+00,-5.481122577249247563e+00
1.520148304714866061e+00,5.770204248388965951e+00,-4.364764582871528020e+00
5.635493921793227834e+00,-5.260932815248646754e+00,-3.419616641584173777e+00
-3.490443090793863945e+00,6.663778583840018754e-01,-5.881948147619663558e+00
2.531785577233992335e+00,-6.647618586608608382e+00,-4.443168302193122088e+00
1.757378777655415281e+00,-6.498318589453961458e+00,-5.508912882541925349e+00
-2.652482365924424990e+00,-1.744908048416149660e+00,-7.381344068562782468e+00
-2.452030245244052331e+00,1.302724290885275860e+00,-1.527109171818480382e+00
7.381208285739378816e+00,-1.766208841850281042e+00,-6.893369493005337967e-01
1.829853591882209418e+00,5.919104829426634851e+00,-4.465032712944651538e-01
1.942919331253923243e+00,-3.415158362660412728e+00,-5.739364276385772179e+00
3.172613024151357042e+00,5.657686193234904515e+00,-5.899870163876106410e+00
-1.709850644003409803e+00,-5.861913264425148817e+00,-1.771118556877085082e+00
5.178942239592299934e+00,5.020535367792065884e+00,-2.534038624543768492e+00
-1.985225315337673546e+00,-5.413123214119288207e+00,-3.146307773641897843e+00
2.000428016941111942e+00,5.976487976348483500e+00,-2.802031969127374289e+00
2.548451283309587367e+00,9.375346242620046233e-01,1.247581548225051851e+00
-6.240225846769716922e-01,-4.136818023182322612e+00,-7.177820934981997247e+00
-4.403777544775880237e+00,2.229082448547362372e+00,-3.960850223509662982e+00
1.938548572217446253e+00,6.019730869790106631e+00,-9.077638507862373363e-01
-1.683691833966943774e+00,-9.700853655738246317e-01,-1.010852255450803927e+00
-3.128494439045634845e+00,-4.877713608173846360e+00,-2.038796688925165856e+00
6.118597746564875095e+00,-4.028035874844054121e+00,-3.242394122086851738e+00
2.796532798330263248e+00,5.813642887710945395e+00,-1.479494265843303236e+00
6.696700328825231807e+00,-4.077079471149223977e+00,-2.821999333786073816e+00
-1.021239596936699190e+00,-5.508616691191056347e+00,-4.701816156697352866e+00
-2.949513525014390680e+00,2.779141969999449735e+00,-2.009439978898389878e+00
6.381324926441928058e-01,-6.018696445905436399e+00,-5.999957308711049819e+00
5.344228641504320976e+00,2.156465699085189924e-01,2.913534359657039996e+00
8.004254481856129644e+00,2.122215901368698532e+00,-2.434804173960920526e+00
9.502332918757384617e-01,3.382596851936079840e+00,-7.012446711393850229e+00
6.724608908970631127e+00,-4.496317708765109167e+00,-2.092454341865375156e+00
6.042830232406743995e+00,-4.226667002238517767e+00,-7.321643911985069586e-01
6.514743109722174630e+00,-2.994686054272102105e-01,-3.155032122394994865e+00
5.170493084297032915e+00,3.671080193261953006e+00,1.143648986894036934e+00
-2.277126323395600060e+00,1.871965865013792973e-01,-1.203233957131016885e+00
2.546459203564361840e+00,-5.273072201622485133e-01,1.518783856397377896e+00
6.035599891946878515e+00,-4.186879215897648665e-01,-3.565587917754783120e+00
1.670348842509313814e+00,-2.141141591079188111e-01,1.021887149118051008e+00
7.761523938082898200e-01,3.946013719826861443e+00,1.038636285643048246e-01
1.031930905071145155e+00,-5.123293876909874811e+00,1.063371415668841191e+00
3.134967799994694992e+00,2.443557721834309859e+00,-5.561498544923378695e+00
4.922583037204538492e+00,-3.017120611519636397e-01,-4.321719052865038435e+00
6.950439370305246278e+00,-1.777729721525525663e+00,5.724149915986248560e-02
5.456380169632404353e-01,2.097932966145931832e+00,3.138456797210053585e-03
2.676134675963083520e+00,-4.127102596099531340e+00,-5.130045993977560670e+00
-2.337362293952924552e-01,-4.779210250732470300e+00,-6.833343522917872725e+00
8.054029413647751934e-01,-6.393834189751618879e+00,-2.271402745618057217e+00
6.034614918162896302e+00,4.712037291666004712e+00,-3.600249019997695310e+00
1.208021278136006460e+00,-2.475766266053600617e+00,-6.189467957157289035e+00
-1.684235274004320937e+00,3.836525748704015193e+00,-6.146757883917624454e+00
-2.810602231061484879e+00,1.291521151555568458e+00,-1.839382296534430861e+00
5.129327709684538661e+00,1.025398912677295327e+00,-4.239894837280839823e+00
2.153044665108480693e+00,5.861595132450635681e+00,-1.629656550249041658e+00
-2.881063078192524163e+00,-2.648541380047607863e+00,-1.586131225496559161e+00
2.907677587854806678e+00,-4.588526364417838010e+00,2.106505555614291758e+00
3.740338428163924256e+00,5.625144246685360727e+00,-3.961059633750664943e+00
-1.719063768400350023e+00,5.623797381242122695e-01,-8.299491895923800655e+00
3.692330393581773951e+00,2.972584149852560031e+00,-5.282903114077310391e+00
-2.292249850054060900e+00,-1.906050976790175877e+00,-7.868634266064780114e+00
7.407634119473798684e+00,1.473081749059411694e+00,-7.830846671556669358e-01
3.046706686729370173e+00,-6.075172450076650854e+00,-1.532084040555845572e+00
7.313322561437476388e+00,-1.079827221257821268e+00,-2.684204976029341161e+00
7.851473521795077737e+00,-2.553945758746539951e+00,-1.790074679564896520e+00
-1.791329414372993201e+00,-6.534162952921274137e-02,-8.305839954351087684e+00
5.636836864766698874e+00,4.661632792670274306e+00,-2.244502766814784334e+00
6.172952730742447436e+00,4.593158893434161172e+00,-3.579391600662857442e+00
5.403604166930144004e+00,-5.225906468037369024e+00,-1.705479195415452898e+00
5.921612295931253378e+00,-2.131330320751648966e+00,-3.478416510440655696e+00
-3.639025054163184114e-01,-8.761116207967394320e-01,-7.365519311436307781e+00
2.346846116518177983e+00,5.501826853208925172e+00,-6.365124639346118052e+00
4.749997344693190016e+00,-2.867721556661628313e+00,2.917267984938580305e+00
4.435123552871942820e+00,-6.053709701703812840e+00,-3.927981329742970651e+00
-3.765039839623228524e+00,2.977041215403640972e+00,-4.375185633742491476e+00
4.737254253422765182e-01,6.090500432659021968e+00,-3.912672406673712300e-01
2.062998456334793840e+00,3.759939185968840469e+00,8.189901942848775152e-01
4.250901924258716491e+00,-5.663492354339353163e+00,-1.155000956174159210e+00
8.253706875757531591e-01,4.759744928964601662e+00,-7.248998180136839942e+00
3.942352790038037291e+00,5.598522302898411240e+00,-3.748797993434044518e+00
4.855671747352089618e+00,4.410554645657905226e+00,-1.268897579031911804e-01
7.226370359034422819e+00,1.448338764676009971e+00,-5.812579324883770937e-01
1.231620039214370403e-02,5.428874379094576597e+00,-4.530069473155613480e+00
4.725566597687690162e+00,4.470396691656777222e+00,1.898589156549171375e-01
1.776886247826193088e+00,-3.189930413094537620e+00,1.439349236558445488e+00
6.581299069751272990e-01,3.586281345268048426e+00,2.100853561247278956e-01
2.192788961790461677e+00,5.500139516924807737e+00,-6.468426762255438334e+00
4.891868282310646521e+00,-3.946568931524557233e-01,-4.327338403727016392e+00
-9.307540681178076980e-01,5.320963010541005289e+00,-3.640783705321835484e+00
-4.810632212104921202e+00,-1.082828623077435548e+00,-3.792872030637008063e+00
6.317629554981405882e+00,2.568295641802295304e+00,3.695098368914241649e-02
2.063011989271231528e+00,5.595586216612923103e+00,-5.989020910342820692e+00
3.942610983302136329e+00,5.342615881528196553e+00,-1.382174708428779653e+00
-8.855445507443636677e-01,-5.050703825935896896e-02,-6.985408179351535463e-01
3.856244922789168417e+00,-3.132724221942316589e+00,-4.589452096459878838e+00
-1.647779968319737831e+00,-1.153719687331306032e+00,-9.117840808516178841e-01
3.869883172847114139e+00,-5.991326084339787528e+00,-1.749294951019072508e+00
5.218957313395732101e+00,2.431562413232269293e+00,2.464915058622392685e+00
1.750087175218470570e+00,4.142916625619260884e+00,5.905914427294950420e-01
-3.853606046027100884e+00,2.025720128206672133e+00,-2.408233583592434446e+00
-5.231765966513170163e+00,-3.289615912597667058e-01,-3.118281893558322082e+00
6.947258757359790593e+00,-3.491690108128933545e+00,-1.058474573993291035e+00
4.143922081152371928e-01,5.138002352718495480e+00,-5.425285047969437890e+00
6.091099622435712568e+00,-2.685905644013897864e-01,-3.592782270851393456e+00
3.727176245575769986e+00,1.535384195390611994e+00,2.041822842447348130e+00
-2.482584169469224555e+00,3.120361851251537644e+00,-1.695204534062942248e+00
7.542107317229620467e-01,9.028786337852275912e-01,-6.882333396276358428e+00
-1.398367272950185036e-01,5.639268904577749986e+00,-6.384492435929446374e-01
4.553180391886702871e+00,-5.951046545641020202e+00,-3.896236748864917665e+00
3.447841290724453334e+00,-2.465206550243618011e+00,2.193516401446017117e+00
7.120964345998473277e+00,7.058971297493338293e-01,-3.091727616867532280e+00
-7.043567076818779693e-02,3.354677544381495125e+00,-7.672403138889376528e+00
4.531422640726823658e+00,-4.926639471241392343e+00,-4.047215212060915057e+00
3.141516015842836518e-02,5.619743023495418655e+00,-3.416146491061073043e+00
1.575355740631040558e+00,-2.475617376659175140e+00,-5.922295670924395239e+00
1.758076709092050383e+00,4.767003633562760356e+00,-6.550303547455144759e+00
-1.734030187508760257e+00,-5.785869821912938527e+00,-1.357282834898084989e+00
-2.996207379401119031e+00,3.471038672788669288e+00,-2.153430269272509356e+00
4.475321011865998955e+00,-2.160383379872619969e+00,-4.444289181523417120e+00
-2.347424831292266312e+00,-1.604182615473394913e+00,-1.179887948358051553e+00
2.713249688339476773e+00,-6.422910193540886326e+00,-3.403303206805995185e+00
6.627372356341021842e+00,-2.348170642310434264e+00,2.705109426553547469e-01
-2.166739164623912028e+00,2.155926848135854890e+00,-7.304667586960344572e+00
-2.974749009435372904e-01,5.162028246699670753e+00,-5.330430019646438922e+00
9.805082269945137874e-01,1.642523706986975585e+00,5.388145377968178718e-01
1.420133584990418418e+00,-5.129469065483037049e+00,-5.894616114638344229e+00
3.330993981637175305e-01,1.877779103267044114e+00,-7.206875167383039127e+00
8.085346778280117164e+00,-1.453125063716129484e+00,-2.259638054271554619e+00
4.649639101442966549e+00,4.772987397717924019e+00,-4.769658060490800544e+00
-2.825851950137507451e+00,-3.930111056334627317e+00,-4.915065206182043234e+00
4.456001010055318012e+00,-6.021932204521734278e+00,-4.096777754787597203e+00
3.708038269233012940e+00,5.722445627026038650e+00,-4.732416071909875122e+00
2.713643891155791188e+00,5.821389726244551532e+00,-1.990840032670219140e+00
3.724469815106831838e+00,-5.935171005575077707e+00,-1.607349976216275067e+00
6.913470392976620360e+00,-2.875416264286528190e+00,-3.914243881962952143e-01
2.217381976106778951e-01,6.113809696758430334e+00,-1.671576043473553153e+00
8.212112926397722390e+00,2.572037841646161449e-01,-1.720317274033268617e+00
1.360383210988422575e-01,-6.171294135407114467e+00,-4.016965243136321639e+00
-2.795342873243310766e+00,-1.902769585886078918e+00,-1.507569857322567319e+00
4.946754738801823592e+00,1.839385323938300232e+00,-4.312543655016360944e+00
5.619088289226212840e-01,-6.214082297167812463e+00,-3.451582327129895322e+00
-2.065650276814660347e-01,-6.241655056487894093e+00,-1.710612015388498497e+00
-6.764015325435741577e-01,2.240425002691847356e-01,-3.348995603024165768e-01
-1.163383106666323830e+00,4.720801986755716939e+00,-5.377152896053283726e+00
3.726667492025631523e-01,-2.795577618175315138e+00,4.505578478157423183e-01
7.247722610743317695e+00,2.604112818858204115e+00,-3.162385434850745636e+00
1.195619475828825440e+00,4.255269969713660672e+00,-6.991392066586178622e+00
-1.434847071139853991e+00,-5.195628917603104746e+00,-5.164889976333035371e+00
5.234534099200701007e+00,1.740798969814628672e+00,2.911480286439939391e+00
6.140118432981808816e+00,-6.520643363588815022e-01,-3.542951144536107932e+00
6.742395151371659567e-01,4.909520989049405593e+00,-6.920841168249296516e+00
8.173158123555785082e+00,1.599005168905222929e+00,-2.299750453903627090e+00
3.028798275712670574e+00,-6.425733572828008278e+00,-3.563316560552465262e+00
6.283441919710270440e+00,-4.637121091536892337e+00,-1.629070121867101317e+00
8.029854343238421066e+00,2.957084328236482262e-01,-1.278770736942075992e+00
-1.837464990873963477e-01,-6.210651296350573780e+00,9.886464745201486645e-03
1.367571942083080971e+00,2.422272042180609652e+00,5.471097667255366837e-01
-8.101474951451116402e-01,-5.464639413366209064e-01,-7.584410918389749234e+00
-4.178631194844470542e+00,-1.346996598177420346e+00,-4.784072336318304863e+00
1.265949481080607342e+00,4.140529946237558434e+00,4.184793356000111597e-01
4.790904852161812499e-01,-6.047617275063941200e+00,8.122503621499925774e-01
-2.295127281356702742e+00,-3.709756045252025736e+00,-1.071418461241619990e+00
3.115090768715117253e+00,-4.877707486375447488e+00,2.144258245622728154e+00
-1.896459506907604009e+00,3.481842997949583296e+00,-1.413702137401402048e+00
5.572186397098332300e+00,-9.656931407588699168e-01,2.701761648681157535e+00
-2.636614758907455780e+00,-5.060312473140442524e-01,-1.424647026877585931e+00
1.592884358113170196e+00,-3.604149136499487996e-03,-6.170190031159314081e+00
6.758597514958908370e+00,-5.629307333068259700e-01,8.820931009948791424e-01
-2.371319047967715754e+00,4.153659258482721661e+00,-1.777117889118882132e+00
4.147809689652205423e-01,-2.067726247641879844e+00,5.853158177324893074e-01
-1.217967383705211404e+00,-3.203533992085700000e+00,-5.439820800720998051e-01
-3.776443858573186763e+00,3.447756726732648769e+00,-3.728544871148144146e+00
7.452037671222286441e+00,-3.407943123154265841e+00,-1.695357449637425962e+00
4.820134917768413296e-01,-6.253370904746312853e+00,-3.548014458701333140e+00
3.226984426838610531e+00,5.112591290305492642e-01,-5.240481223726419557e+00
2.989318962079988928e+00,4.544394607383400952e+00,-5.854914389919074758e+00
-4.008948168187465910e+00,2.537316360688103067e+00,-2.580545693196615087e+00
5.686540519584009523e+00,3.344935687565255389e+00,4.115780197224176429e-01
5.100596243587433243e+00,5.280404438076257811e+00,-4.035473221944378963e+00
-2.359747680744573195e+00,-3.355441142400215071e+00,-6.550194014697898304e+00
-1.681206091566857186e+00,-1.440512497763903665e+00,-9.693076224224204118e-01
5.292975150716501709e+00,-5.511395118487520506e+00,-2.369765207851998401e+00
2.023810782894225557e+00,1.506647611084791283e+00,1.086766482982377546e+00
3.669576647685861115e+00,-9.707616434813693962e-01,2.123263796490224564e+00
-2.931437215439563815e+00,3.121830446004248749e+00,-2.029498515759678323e+00
3.831971003115629770e+00,-1.024994855243903880e+00,2.387407961528285938e+00
-1.993884008063614433e+00,-2.519869311671403711e+00,-7.990300967836164503e+00
3.385232227155130502e+00,5.626792870751685882e+00,-2.269859924296992570e+00
1.459403319081574280e+00,-5.936506911196984149e+00,8.511664677248641508e-01
-4.458557376938947492e+00,-1.547576882010872901e-01,-2.616307959766067892e+00
-1.449301169385454724e+00,-4.686953842696409467e+00,-6.213915472082555347e+00
2.298758353221539430e+00,-2.736230286753044805e+00,-5.548350681694777187e+00
2.914929059680922752e+00,5.673216449873097034e+00,-1.661925624688892267e+00
2.906507302766117906e+00,5.764104379545753609e+00,-3.104299914723672060e+00
3.752732073128679957e+00,5.219342521961304548e+00,-5.261473834331714672e-01
3.589015947258781036e+00,-5.353143046974549790e+00,-4.587065311326798067e+00
-2.067207030636796450e+00,2.616727079848629067e+00,-7.091165715083951326e+00
4.770277115263837686e+00,5.203600395854051541e+00,-2.430664787592144549e+00
-4.665567708668667990e+00,-1.319444098253314546e-01,-4.137845376669848640e+00
1.510345164553687169e+00,-3.666636143038927820e+00,-5.938451558846804090e+00
-1.431531102856895998e+00,1.620848448616083015e+00,-1.003136231308874748e+00
3.317225115766077037e-01,5.726919261450002629e+00,-3.846866090288880269e+00
-1.136012093517024146e+00,2.920053234426753797e+00,-7.941577248491372920e+00
-2.324669757301460304e+00,1.583136729700669765e+00,-1.541700733839529214e+00
9.436861500869963004e-01,-3.775527772954805794e+00,-6.275740822176379297e+00
1.318580759407525616e+00,9.288456935753603982e-01,6.578463447935056774e-01
2.955002141376835922e+00,-5.667869412998382650e+00,2.029634092520192501e-01
5.832533390812258745e+00,-1.020904438777775480e+00,-3.624760060959861363e+00
7.290143007456171276e+00,2.409226627999271120e+00,-1.345516366683507714e+00
-2.439072023066662709e+00,-1.809790920378707035e+00,-7.585762774087042359e+00
1.449947928429887067e+00,-5.749980545337018079e+00,-5.823281581950621622e+00
5.602053757597786010e+00,2.917410730829113064e+00,1.040524981100793500e+00
1.519264775827785519e+00,5.299472500077908599e+00,-6.727746734680804863e+00
-4.036494525727991167e+00,-3.075420349644882201e+00,-3.858961569123524171e+00
-3.610470196167721024e+00,5.439126308012016686e-01,-2.125647276543086939e+00
-2.180942026675318779e+00,-1.163802846487252296e+00,-8.396438050629500438e+00
-1.912697514021850731e+00,4.091159556378246798e+00,-5.353468142756071302e+00
-3.370115493615245761e+00,4.497882440473124355e+00,-2.293110793424361304e+00
-4.583776282000740387e+00,2.305670009748627347e+00,-3.223096956716980266e+00
4.292034208710452603e+00,-3.564022515353704623e+00,2.485229511610995257e+00
4.474616743243334249e-01,-6.105710929088843386e+00,3.544952180145451437e-01
-4.059448783352773482e+00,-3.428639808153047142e+00,-2.117821937062814186e+00
-1.856160069592565298e+00,3.930381137214563836e+00,-5.712173784626577877e+00
-1.554694592068847081e+00,-4.487337651174317266e+00,-5.163013985932176642e-01
1.992864335741604043e+00,-6.365571147257384155e+00,-2.683010628788597529e+00
5.662876245142022924e+00,1.512393179070004701e+00,2.009556331031612242e+00
4.491752932033952206e+00,4.955810829646784654e+00,-8.797686410407937752e-01
1.852540558378828583e+00,1.189843528353000890e+00,1.075624234903755916e+00
