-2.342699913340689832e+00,3.123525328316270500e+00,1.378499893428616785e+00
-1.477201867189614548e+00,3.613443062265989880e+00,-1.730068428149924009e-01
2.728274815576221979e+00,2.830822640133065171e+00,-1.964405163271751187e+00
2.432982717211380042e+00,-1.592857942633209845e-01,2.181319249543863137e+00
1.434969680493600075e+00,1.132733653799913087e+00,3.042929066675863936e+00
1.420515652094878956e+00,-3.303517944034840559e-01,3.608884326398426740e-02
2.242686579550905890e+00,2.633083791884458513e+00,1.612162713135458558e+00
1.039859792943092831e+00,1.791539568672000593e+00,3.258823172727467909e+00
-1.298226582520948913e+00,1.610880696985842686e+00,2.873942389095898164e+00
-2.012787095535942150e+00,3.846098673461079365e+00,-1.359130387820812080e+00
-1.849366065533253556e+00,4.450194633206067119e-01,-1.988614020308409724e+00
-2.350188915752323915e+00,4.980838406139184160e-01,1.381024735044279750e-01
-7.556647363067449108e-01,1.484948283578609862e+00,-2.966168375869779883e+00
-1.981772475097665354e-01,-4.416247916423798707e-03,3.186170013021801140e+00
9.248643323884444545e-01,3.213674303082111994e+00,-2.291377472758265643e+00
-2.385063192380864727e+00,3.266644632992314889e+00,1.035577148516851453e+00
-6.002278622790548912e-01,1.701701971389515178e+00,3.125395819555349952e+00
3.145060190500068575e+00,-3.747487603318370164e-01,-1.714931309155356687e-01
-1.932630616690157899e+00,1.779845528927576748e+00,-2.213805430550066067e+00
-1.160551115670536149e+00,2.130947637839760433e-01,5.984984534890996910e-01
3.503303086130895028e-01,3.207099905249104488e+00,3.494543736441431681e-01
1.507670104814301082e+00,1.375997351809231883e+00,-2.910902382362841045e+00
-2.600812565379409524e-01,6.456922065026837743e-01,-3.175593963029777367e+00
-2.254122105192355896e+00,4.435902595928315484e-01,5.695612989810731053e-01
-1.997869993637181985e+00,2.685959425182176119e+00,2.060795514827663766e+00
-2.052274524711655612e+00,3.660220825567718217e-01,1.838303083588886722e+00
-1.202815652659745771e+00,2.160781600776941591e+00,-2.622564088436676766e+00
-1.855911719116717817e+00,3.347595467176360806e-01,1.507107848398749672e+00
-1.528896391076522310e+00,3.678412376862607580e+00,-1.852717220821830990e+00
-1.012320269171080200e+00,3.834040837128417367e-01,-1.801247693386874849e+00
1.498094976457668093e+00,2.782689427659600589e+00,1.901389200549534308e+00
6.339116743009532914e-03,3.081360566610061191e+00,2.972502871343056796e+00
2.333638576062579073e+00,2.638160837559603955e+00,-2.484170271367669880e+00
4.563138450981103489e-01,3.007801623854802653e+00,2.018579592405014722e+00
-2.062003399594535047e+00,3.375873592733086515e+00,1.825558975758160285e+00
2.629953416049686798e-01,8.665356715936987086e-01,3.260328935496803915e+00
2.593883973118753072e+00,2.380899388305431685e+00,2.606611531542795568e+00
-2.640422662678839849e+00,3.252901776764690389e+00,-8.564066471688636106e-02
3.302345650631805185e+00,2.654918192552608414e+00,-1.106066859557342186e+00
3.420112354421191547e+00,9.648250580265540499e-01,-6.888274870118251680e-01
-1.020937584768983442e+00,3.045761706220027065e+00,2.849680674729178964e+00
-9.131439240611386454e-01,3.489147279504695831e+00,3.042076172901114761e-01
2.263361234701011249e+00,-5.130815787962231811e-01,9.649172214909942369e-01
-7.211854039544476902e-02,2.247696724841394822e+00,-3.036138682889670815e+00
1.149177617303084986e+00,2.960392075551433688e+00,1.024826109438866206e+00
-1.067036189349761965e+00,2.169153538909070811e+00,2.936253784562392610e+00
1.995662798184617781e+00,1.520452654583905883e+00,-2.681506925671397035e+00
2.302652868568325906e-01,3.245100224084305651e+00,1.996557338801076831e-01
-7.954297725931925855e-01,1.319802738126133246e+00,-2.955935348042411981e+00
-2.697193058237046692e+00,2.532764718544009863e+00,7.750486642935748849e-01
-1.224633470323491569e+00,3.165230029764289910e+00,2.811723101885955423e+00
-1.602095201282516035e+00,7.177475660681956748e-01,2.766355889757865505e+00
1.326191504539214971e+00,-2.797006112229902253e-01,-4.103586136546507057e-01
2.788567158830792092e+00,1.278977755090091817e+00,2.136712980511640936e+00
-1.268316458134288727e-01,3.281084031121015432e+00,-3.173636777259934982e-01
2.225065802246290136e+00,1.541484203901352990e+00,-2.518634679262241605e+00
3.675522307010272272e+00,2.457256598340446185e+00,6.531350805560852679e-01
7.507243696773552299e-01,-2.598362797305112659e-01,1.448802249796092845e+00
-2.450510882620496655e+00,3.655342301224163926e+00,7.765066667367800379e-01
-2.252412386763991137e+00,3.836799539000659287e+00,-3.876075329872035735e-01
1.906332365530257977e+00,-3.794123553550748373e-01,-9.988360843640584630e-01
9.048799670877254453e-01,-3.019255834662944449e-01,1.663488994657946307e+00
-5.788169497065061009e-01,3.246923954348789554e+00,1.795675736284448654e+00
3.387452455733902745e+00,1.038895026570517244e+00,9.731156764044587293e-01
5.534311957492296097e-01,2.973705633853625852e+00,3.357853175782464561e+00
-2.164436698328259912e+00,2.058753743778622081e+00,1.975985328172758182e+00
-4.599551513660307123e-01,9.566325025431823281e-01,-3.075581707760683958e+00
1.928561130484318875e+00,2.857475681066710127e+00,1.297322586135322142e+00
5.620576987085121878e-01,-1.595789404669083200e-01,2.719542208172396891e-01
-5.318164955395852100e-01,3.249684557726578049e+00,2.442373762243382984e+00
1.248319484485133968e+00,4.318648049773283204e-01,-2.920126792935470839e+00
-2.882598735475374152e+00,1.134427472994583130e+00,1.155728509607077736e+00
1.490349270108538349e+00,2.892733818938514112e+00,1.645401933857450816e+00
-1.672517919872292369e+00,3.942941353156843576e-01,-2.564166399878335945e-01
-1.614857979744368732e+00,3.454447671351401628e-01,-5.891817985642053834e-01
1.440612717823903655e+00,4.514406309794459227e-01,2.964560546525057738e+00
-2.300478553689258465e+00,5.622260558086944471e-01,2.223037497633142845e+00
3.452802132459429352e+00,1.463226955584661981e+00,-7.656036698573462917e-01
-2.559244644359551568e+00,5.291788521256214350e-01,1.178520139960768320e+00
1.667690893822343368e-01,-1.483499174801320708e-01,1.472549953969039871e+00
-2.216823010909510394e+00,2.078899136057079211e+00,1.945418967533461219e+00
-2.175877192837085250e+00,1.065735725526606892e+00,-2.153290536784310483e+00
3.628392965664031800e-01,1.406043619279531143e+00,-3.144959592826298778e+00
-1.951708917893407280e+00,1.190287091232426597e+00,2.352916393090789704e+00
-1.111566158396465553e+00,2.151309354414324027e+00,-2.673147988829533084e+00
7.037742043457068108e-02,-4.597532648199630784e-02,3.537380001590959000e-01
-2.583368719641154332e+00,6.936174938172111615e-01,1.763302835487288167e+00
3.134986679228164874e+00,9.539334032211731484e-01,1.520959364832380700e+00
1.314842363360574085e-01,2.924690449762769318e-02,-5.167840654173816439e-01
3.048294819088741558e+00,2.657105414409556277e-01,-1.199795024461715709e+00
2.888274661931037102e+00,1.472192485759861613e+00,-1.941262323345871232e+00
3.181763732159076152e+00,3.494285271674282267e-01,1.189207714518857539e+00
-2.317679888081466133e-01,2.007787894303124931e-01,-2.936644756623807417e+00
3.274268766739967695e+00,9.174685922900095436e-01,1.283108157699118124e+00
2.601403462981179526e+00,2.568052874603608871e+00,2.181350252335747975e+00
2.927504565299078099e+00,7.234399748946416242e-01,-1.702133261813201903e+00
9.025599613208498129e-01,4.414648486723980469e-01,-3.108593758332068191e+00
-2.768753716263947950e+00,2.203642518519949967e+00,6.225838740634694890e-01
-2.746742629409486547e+00,6.359821946572411511e-01,-2.796084190692771365e-01
-2.565028296577832823e+00,6.944195691558002759e-01,-1.869168545650842228e+00
-1.073418773298417950e+00,3.593356213310455960e+00,-1.468203700762696240e+00
3.193218125564286858e+00,8.712001982186403648e-01,-1.243231621366262418e+00
-2.587530520494571995e+00,9.783640304370461172e-01,1.738274921160056774e+00
2.727106751221942904e+00,-8.918806126443851179e-02,1.764059552013480969e+00
2.580179515715578020e+00,2.595913012215150584e+00,1.858332576891868149e+00
2.385857256570318441e+00,-4.141088662675913579e-01,-2.045951971393928925e+00
-5.440564018231150989e-01,1.628638295176571660e+00,3.157782272144193936e+00
3.239158798857842747e+00,3.814601000536413378e-02,2.686042657939208267e-01
2.748729741923515490e+00,2.760451269718084077e+00,-3.651285922594253996e-01
-3.994041814503953569e-01,1.717210685946483073e-01,-2.253336541692275041e+00
3.040107315328231863e+00,2.645580953522535417e+00,-6.470797130693537458e-01
-2.545298937774961079e+00,3.005742909519643291e+00,6.844314220610054900e-01
-3.096523454337504200e-01,1.937174423370608745e+00,3.285086721954161959e+00
-5.435908980403744151e-01,3.479390677602637982e+00,-1.412478658554910727e+00
-4.954549093074758215e-01,3.253212743908117321e+00,2.740243237888386751e+00
2.732165413609420335e-01,2.353790373753584131e+00,3.324251557775084631e+00
3.071134187212644084e-01,-1.818959702007511281e-01,1.347343918616502378e+00
3.511612753233045225e+00,1.215007493293143170e+00,-3.439286604818968529e-01
1.575283482622963083e-01,1.993955449335399033e+00,-3.053341769567226471e+00
3.086660088656862921e+00,2.499635369432332777e+00,1.365263467999320968e+00
-1.728053572330857435e+00,2.645291772370644834e-01,2.071034603219639170e+00
-2.319881196890786423e+00,6.137300299029307959e-01,2.168942795170479165e+00
-1.943400471659395001e-01,9.685588580732815700e-01,-3.097645773047376760e+00
-2.126040192048783251e+00,3.649177815916300638e+00,1.219846804802215301e+00
3.383273136029631090e+00,1.177420571905671398e+00,-7.067350911731292706e-01
-2.422751778490493724e+00,2.184748457720877557e+00,1.559219628700016402e+00
-1.906181187734042215e+00,2.939578869970299824e+00,2.143990944728546566e+00
-2.820974783705387345e+00,1.604791571605703293e+00,9.053073726657974163e-01
-1.838654545293829656e+00,2.686268452298960163e+00,2.265398990576751981e+00
-1.234081426122237479e+00,1.070483999468154979e+00,2.885019283796889766e+00
-2.036746773030157609e+00,1.181335022242839816e+00,-2.162167851332841284e+00
-1.080643944731649153e+00,3.484598568414014608e+00,3.087034908095456220e-01
5.263760964272284903e-01,-1.270068041797050018e-01,5.117046347295274300e-01
8.263537745702063120e-01,-2.197717535338461758e-01,7.580627502749045510e-01
1.714094280458172137e-01,9.066103870704354806e-02,-2.264086527011550221e+00
2.984155102449461694e+00,-5.099863033302193260e-01,-1.107900363317384285e+00
-5.020754856788312015e-01,2.108905003750001783e-01,-1.324131867214072056e+00
3.317812294107298943e+00,1.935978488321292046e+00,-1.277884233907305989e+00
2.955131062873489256e+00,3.778887049905987894e-02,1.547768483430640885e+00
-3.437008125976310779e-01,2.453760645443718413e+00,-2.950281356511969655e+00
3.137002409357659616e+00,5.751723202912168986e-01,-1.201032971756198053e+00
3.399540006949173243e+00,2.258274824200217079e+00,-1.321833503199666637e+00
4.711471860779870013e-02,2.069973019344945875e-01,-2.856414233170168071e+00
1.741683165776391595e+00,2.787683183326118641e+00,1.557628245949836732e+00
-2.034628675977390611e+00,3.249950573539486243e+00,1.884641518841252861e+00
1.087195366207561742e+00,-3.360937378152294985e-01,6.758061222189587491e-01
-1.749385252677708280e+00,3.562367603227929003e+00,2.258135360934349301e+00
2.619912054418549463e+00,6.983619620089021041e-01,-1.989128777516921964e+00
3.921086556938959689e-01,3.185084196514821997e+00,6.539404532781817325e-01
1.239713085096340928e+00,3.042836237145559952e+00,-6.506010189973299163e-01
3.080572543295581944e+00,1.423347945437987150e+00,1.858288805316977044e+00
-1.063901730171113030e-01,3.352920899945042166e+00,-3.139230135246911524e-01
3.774443697800158759e+00,2.191069734571132521e+00,3.331466084739000827e-02
2.297524517890032758e+00,2.645549394530190224e+00,2.818705388522404043e+00
2.357142903026658853e+00,-4.763260271128293422e-01,-7.636426911457996347e-01
1.794668905321196786e-02,-1.702162483689425021e-01,2.854444536203459393e+00
9.726771847961657169e-02,2.636514020724082030e+00,3.312694632629845426e+00
2.986206059877148267e+00,4.443666683659129868e-01,-1.538493030348686563e+00
2.413655253777616583e+00,2.681587939571760781e+00,1.335864917717105804e+00
1.030570769822917399e+00,2.847006847123866535e+00,3.052570363249997865e+00
2.479125273327785983e+00,1.096085523053581756e+00,-2.196774813896015033e+00
-8.086905772496352229e-01,3.039786216601466085e-01,-3.030366827477232405e+00
-3.135521786618373219e-01,3.140510056001453609e+00,3.143777569653539494e+00
-1.748458792648078575e+00,3.419370110090585779e+00,2.303432597057337716e+00
-1.557539025139023980e+00,1.704762966651566902e+00,2.741891432706280440e+00
-1.565477372076014839e-01,3.289475671586365557e+00,4.415296459349628555e-01
3.551360953234569351e+00,1.616512581458914743e+00,-4.763582826622907440e-01
8.965697704723862849e-01,-1.723847670173554447e-01,3.121399360724088634e+00
1.040264891784766332e+00,2.966364338852541582e+00,5.000294676240563119e-01
-3.271967047437758236e-01,1.031421849103379834e-01,5.018070482837974078e-01
-2.137657881552237793e+00,2.435310703785394271e+00,1.924774503862947128e+00
1.750451474358341919e+00,-5.103660422994404922e-01,2.666603378742164132e+00
-2.082305194540881477e+00,3.558212732699773673e-01,2.095148893435175186e+00
1.242583909351022475e+00,2.859388645662840567e+00,2.150925710789275414e+00
-8.204238798812876210e-01,1.451895835338671281e-01,6.282933250655536872e-01
-2.984340377922118925e+00,1.018626011493830141e+00,-1.261040850307424965e-01
2.796362169458535551e-01,3.633829943365015080e-01,3.211044818668627787e+00
1.839649850318714419e+00,7.291392646043238779e-01,-2.703777500092295227e+00
1.541392906774810223e+00,2.964097604952565579e+00,-8.541664348412285612e-01
3.016171968815432258e+00,1.126593249946065134e+00,-1.465786630314422245e+00
-2.673912380913449294e+00,4.984375501263392794e-01,1.341550600160251072e+00
1.548493933790617394e+00,8.063931976958131909e-01,-2.801327331522719177e+00
-2.213940938433990535e+00,3.255863557150898036e+00,1.669355785389675662e+00
-1.940597263444911347e+00,4.964337631058818867e-01,-3.187289933918175944e-01
3.272247192269979621e+00,1.286523851496019333e+00,1.393288551601878700e+00
-1.106979700969568992e+00,3.249475349208644559e+00,-2.485813530015625883e+00
-1.371104083947356722e+00,4.207261745175290280e-01,-1.553279264799155124e+00
1.967689594969448397e-01,9.022290326322152110e-02,-2.302959050268970298e+00
-2.774531833691024740e+00,1.792351264841936631e+00,1.152894162849377402e+00
1.803709150771057201e+00,2.697318028907056409e+00,3.005622384761126309e+00
-5.994267564552800964e-01,1.020781628661106444e+00,3.093736210301349931e+00
-5.729574817662101971e-01,2.859296041059327664e-01,-2.113983241069533836e+00
3.572194176517959008e+00,2.067408906211268160e+00,-8.769238771669575216e-01
1.892481718131153734e+00,-3.737454370194615572e-01,1.210859973936556644e-01
-1.763029168749086439e+00,3.751510264823567642e+00,-9.762543273849211278e-01
-1.110789576179325833e+00,3.470548831934930245e+00,1.014360719430360547e+00
1.444255973786431335e+00,3.130026786678342443e+00,-1.882885056275110491e+00
-3.034327861546424754e-01,2.084022810209424925e+00,-3.021076243040749620e+00
-1.639208923764972514e+00,3.676941419974752989e+00,2.563503636299643285e-01
-9.274877617952659303e-01,1.187495241491559467e-01,1.340043906144911201e+00
-2.358419564235045840e+00,3.594574464485113641e+00,-7.879094722077631952e-01
2.830489067375838719e+00,9.156257253982167388e-01,-1.785455356088780254e+00
-1.809224174272243968e-01,2.357180278924415617e-01,-3.128153506145471496e+00
-2.101042488023225463e+00,2.850698695737423627e+00,1.871875088626685057e+00
5.086414372638515397e-02,4.743061749017599138e-01,3.231570483673697591e+00
-2.354591331348447003e+00,4.742761200146037859e-01,6.426832468289107592e-01
9.626163991985750013e-01,-3.995531807261071267e-02,-2.257512031902768612e+00
-1.037752710836565839e+00,2.542586639496381973e-01,-4.189071656080411987e-01
2.315604739255245903e+00,2.776839010867269586e+00,-1.053373632774603941e+00
2.700091144268127241e+00,-6.113758023666092667e-01,9.398680645965993286e-01
7.276844062439812300e-01,-3.190892058418197119e-01,2.571960452056601731e+00
-1.826231145587951632e+00,4.725128471632229488e-01,-3.179610986298561648e-01
3.209742879907436564e+00,1.401101644772063670e+00,-1.468332234233103328e+00
3.369133343779225243e+00,2.533059062076350898e+00,-8.306559199090998158e-01
2.982125966405874351e+00,2.796325316103089875e+00,-1.805928514568692744e+00
-1.423632858251438815e+00,3.052325922660553026e+00,-2.366850097666387764e+00
2.241221658159303409e+00,-4.467167776616122188e-01,-5.775451742258602694e-01
-9.322675052999689349e-01,3.277522732067314593e+00,2.195712513327306326e+00
3.185600458257078937e+00,2.616809101577020957e+00,-1.178259181756208029e+00
-1.411855465703425461e+00,3.403470987116676394e+00,2.047882037375314823e+00
9.985753205440989211e-01,3.074405205953673281e+00,1.232458350672367559e-01
2.486269526066317237e+00,1.186654391116479079e+00,-2.276072416375159779e+00
-1.202403644265640725e+00,3.143989932889538430e+00,-2.401001178742553144e+00
-3.024524449587814967e+00,9.757168016131354538e-01,-3.225606028381043933e-01
-3.872910611561601081e-03,1.793529030407961522e-01,3.228496358979526359e+00
6.552482522930999642e-02,1.616450152935705598e+00,-3.126863676691911564e+00
-1.223201722490884880e+00,2.264453036422618970e-01,2.968472709876670557e+00
-1.754409508514256810e+00,2.072327849056472271e+00,2.545575335476835122e+00
-2.899290273696337739e+00,1.688182425623269589e+00,-4.124755657683538690e-01
2.123586893253546215e+00,1.897314317352142066e+00,2.840645692610952011e+00
5.062964303919184061e-01,6.285094541092874909e-01,3.237221716516213377e+00
1.408489571775336291e+00,-1.956876493844267317e-01,-2.676433411030942455e+00
-2.476078041229754501e+00,1.181913858348697666e+00,-1.739284195043905523e+00
-2.637030928672871699e+00,2.921362879198047047e+00,7.554659970133321689e-01
-1.459151467105243904e+00,2.557619639491538699e+00,-2.328549354356936441e+00
-1.368665282358822788e+00,3.480666184446703504e+00,1.534812753267320806e+00
2.395724346994685394e+00,-5.437432274902893603e-01,1.090240341767424903e+00
-3.604720991396050955e-01,3.381060758715743741e+00,1.598961692963988268e-01
3.158983887891359199e+00,1.415029922773199056e+00,1.777317312413339900e+00
-1.105265281480090900e-01,3.354768364119674384e+00,-5.738583153962616423e-01
-6.550512798435496054e-01,1.829829300814779680e+00,3.128434438120492267e+00
3.198400531696897975e+00,-1.396753064524008381e-01,3.324564610817570820e-01
1.826585980118530905e+00,3.017867396463463248e+00,-1.483073224164440429e+00
-2.724870916085155415e+00,5.460871869509290599e-01,9.554426632312735812e-01
-2.144129031551087472e+00,1.438433354711786016e+00,-2.121283305450604395e+00
3.662059131074564711e+00,2.443139830495165032e+00,6.468154880300616139e-01
-7.289546981571090045e-01,3.413092646786962892e+00,1.519367186893317290e-01
1.416840242505545966e+00,4.983313040775380065e-01,2.988298283349005935e+00
-2.646064363715076251e+00,2.568139145907263554e+00,-4.601609985168492734e-01
1.190516320671229256e+00,-3.069295806278555805e-01,-2.700266408764618875e-01
-1.751388080135350522e+00,3.616718651685041586e+00,2.076898848102420314e-01
2.559371868202179101e+00,1.545267066846905735e+00,-2.181268766266805770e+00
2.322083529109521649e+00,-6.081625644169934564e-01,2.001013420186160907e+00
-2.437871021958610829e+00,3.267924428354598287e+00,-9.290241480594441104e-01
2.399308280213352518e+00,-1.443886264132607233e-01,2.125531020529070947e+00
-1.429544040187706200e+00,2.050459965343395030e+00,-2.511194617390117845e+00
-7.004030098394539161e-01,3.386165774255335936e+00,1.341377881617673795e+00
-1.250198393897634652e+00,1.004075863548999248e+00,2.959079745842741360e+00
1.439115109045711050e+00,-2.240281068296970102e-01,-1.477738165064226949e+00
2.926738745597685210e+00,2.744282746528770578e-01,1.559196902172364396e+00
-9.772597733515664409e-01,8.905317905964976744e-02,2.347244824595816848e+00
-1.746681218798194379e+00,2.135300059773374226e+00,-2.233771010062349127e+00
1.053462622164754725e+00,-1.799582160691786392e-01,3.057715432580511372e+00
-2.973579622580006188e+00,1.300860485721626381e+00,6.805802788766164291e-01
-9.264189581850076349e-01,1.662655612330775912e-01,1.449472531748613457e+00
-1.386867165623587139e+00,4.721518548398657700e-01,-2.722025241614254298e+00
-1.754756541700206451e+00,3.764223005481892148e+00,-1.920421085285761498e+00
3.552120299567711026e+00,1.669923606105655489e+00,-3.611129173926237446e-01
-3.881289228705629424e-01,-1.409009548854467664e-01,2.016478083260197618e+00
-3.030209363821500634e+00,1.000665811898450164e+00,6.882922608788847318e-01
2.801677844631413450e+00,-6.840958992392698335e-01,7.231414983928728946e-01
-2.887232547265250471e+00,1.880350897990650250e+00,5.012816490078704224e-01
2.612211432032764513e+00,-5.002899631838425565e-01,-9.590246422634188805e-01
1.984808502965249799e+00,2.748279077015669980e+00,1.210539707365609230e+00
-1.015350494585945285e+00,2.548210988170646285e+00,-2.678811742950424346e+00
8.798663487658825444e-01,2.921069611226100982e+00,3.134318493792945581e+00
2.522200580763747535e+00,1.282995056113544807e+00,-2.166497459461315778e+00
2.545079160089159132e+00,2.262969600125870340e+00,2.705644478388564256e+00
3.036500378531667543e+00,2.451207012444807987e+00,2.263102857477689689e+00
3.438101555218199490e+00,2.032682336444082694e+00,-1.188542885005795524e+00
7.760337179239021888e-01,-1.060747330181026488e-01,-1.444735198091801731e+00
-1.507494309979170444e+00,2.562767358173066334e+00,2.603797435353961465e+00
-2.264858662033111703e+00,1.075404153031151111e+00,-2.022660343402070016e+00
2.090127872742873816e+00,2.763405328507683834e+00,1.003298537533160673e+00
-1.049665244675042519e+00,3.693447324114952135e+00,-2.436147044680998075e+00
2.838223444013073138e+00,-1.394601771079796437e-01,1.672383320798203954e+00
-2.416439942462247359e+00,2.948935121417176841e+00,-1.088409313524381750e+00
3.172357428317654993e+00,3.497185002013425414e-01,1.190452002462851766e+00
-1.667934862272717700e+00,2.083254961469827915e+00,-2.381729616017398410e+00
-1.420254493946120578e+00,3.657623365737592835e-01,5.008718558805538290e-01
3.503171754727751885e+00,2.479839152432212757e+00,3.774606213535915966e-01
1.772776340431548636e+00,2.950661622652944738e-01,-2.746262062304106966e+00
-2.198606630422992758e+00,1.301625345534936917e+00,-2.109601635302693179e+00
1.099767495454295307e+00,-1.845357822658181823e-01,-2.163909628270670737e-01
3.041502195260572083e+00,-4.372705595498740383e-01,8.410794014719418232e-01
3.005576160226023918e-01,3.068909895870958415e+00,2.784198324036469163e+00
-2.234454053320537259e+00,1.797738560420419907e+00,-1.886190979357523778e+00
2.056597864193676281e-02,3.082931654394544640e+00,3.028069886483709006e+00
3.348383814335358810e+00,1.282429735993815711e+00,1.237501855227811198e+00
6.068366610081719070e-01,4.690355149480935661e-03,-2.266019617280920162e+00
3.368045109746867549e+00,2.313752614977846900e+00,1.684458763212819621e+00
-2.520276439479894215e+00,5.565546916755287343e-01,1.820878645394279571e+00
-2.407857214870974261e+00,3.668469936050021474e+00,8.841623128651275865e-01
6.473200320560059673e-01,3.308998738265410466e+00,-2.275396934340453203e+00
-6.455995174548720406e-02,2.776002508154235660e+00,3.326694711919490288e+00
-3.252940896161072293e-01,2.021880726286274577e+00,3.252117743178179587e+00
-9.998785681710041784e-01,3.354128439828979680e+00,1.366155243019828491e+00
-3.036754457280083308e+00,1.393202017310244401e+00,6.155537937836823292e-02
9.766068110054394458e-01,-2.381067239672571834e-01,-8.848549191355620236e-01
-1.042653201272417673e+00,1.799525660984882258e-01,1.148782504407887872e+00
-7.007117783324107174e-01,3.359289249417281464e+00,1.219951521266509520e+00
-7.320035232486966637e-01,1.145169613726074453e-01,7.033107988306912528e-01
-1.488284930315938226e+00,4.121461045258025813e-01,-1.402844135174819762e+00
9.715161763083783875e-01,-3.617441496592059824e-01,2.564253197174785281e+00
-1.383452030882013628e-01,3.378559121020226819e+00,-1.065020186993203444e+00
-1.837037511771831000e-01,3.311983961930814679e+00,7.497397369530857114e-01
-1.583937360465318189e+00,2.122408039080791564e+00,2.613471647396467201e+00
-8.170527669898508538e-01,2.829371869622971380e-01,-7.184742475632696079e-01
1.914730156794701044e+00,2.716869113624985843e+00,1.593078043054813042e+00
3.485708271794029756e+00,2.433315165600554053e+00,8.033751891124039091e-01
2.377969610797313837e+00,8.444859970183491438e-01,2.487842462299025392e+00
-2.279906813770839147e+00,3.638426080200212631e+00,-9.033977849483182387e-01
2.150520987615095247e+00,2.756958221752063842e+00,3.449696931346120654e-01
1.064647254008832311e+00,2.135274045602251647e+00,-3.031603457181406114e+00
9.771754542499884177e-01,-9.614758956138794166e-02,-1.587159947099295421e+00
-6.809648220345616565e-01,3.414207455573575523e+00,2.709199254885082953e-01
-2.010679842734868217e+00,1.653628351887162617e+00,-2.103466042815373971e+00
2.147456094979101948e+00,-4.248326186216244138e-01,6.095314835669034259e-02
-6.107902096989465540e-02,-1.509257232671089022e-01,3.017213860251819035e+00
-1.761364563958979446e+00,3.092614365231924456e+00,-1.956090516730835782e+00
2.698760417692474434e+00,2.822835084732719935e+00,-2.038187689215466225e+00
-5.509462290879155733e-01,3.473001763533632325e+00,-1.088255627094889322e+00
3.516141344145459424e+00,2.336831256080654118e+00,-1.103969643513798227e+00
-2.492425274172253236e+00,2.776690424785976496e+00,1.258864254461270038e+00
1.386887693573692681e+00,1.284329244138280313e+00,3.079192053456652811e+00
-1.134808972001679184e+00,3.380946886498132020e+00,1.979342964427611706e+00
-1.095271197134976449e+00,3.117316192343968062e+00,2.877281701075063758e+00
2.917027247250610689e+00,2.769651830416252736e+00,-1.799600206418959125e+00
-2.526773854953642484e+00,2.961001498927839037e+00,-7.701906806612771605e-01
-2.291149756597015141e+00,3.668396911195020760e+00,-8.137299116309570923e-01
4.545394341234356150e-01,2.156930958939989651e+00,3.334925660717847240e+00
-1.601298526552590029e-01,3.198822815702039968e+00,1.910200591281232541e+00
2.466970757933161895e+00,2.807990622917072354e+00,-9.286261957851186244e-01
-6.180206134637775683e-01,3.607187270953977620e+00,-2.669368101773410551e+00
-1.385107346299387920e+00,2.042143076474932373e-01,2.934081241465425816e+00
1.635180186669754399e+00,2.698648208951885952e+00,3.056163178017582194e+00
1.463677173962914191e+00,7.064878772788402150e-01,-2.950117547751241798e+00
-1.920252600845594015e+00,6.254330689607723315e-01,-2.449421342022690240e+00
-2.025264263561140421e+00,5.283718529988856716e-01,-8.639709003392602726e-01
7.856142944490249747e-01,1.541208217345463760e+00,3.294406376607378562e+00
3.257394739562703978e-01,3.435459655430319614e+00,-2.915646605136593461e+00
-1.874766278165229227e+00,3.070665258373557194e+00,-1.856377564024098037e+00
-2.810260026487502838e+00,1.842517832787423426e+00,-5.340188344882658145e-01
-2.486637075342547742e+00,2.635662450057146611e+00,1.252963369113223369e+00
-4.032639201415954000e-01,2.111816813062498355e+00,-2.970495012276702873e+00
-2.878792097294164076e+00,1.675988068595882563e+00,-5.424577750981881552e-01
3.916618133249540751e-02,-1.735220447835900126e-01,2.027690583406248859e+00
-1.370945618682482214e+00,3.127005010746448099e-01,-1.268949357920245768e+00
-5.413054637828158544e-01,3.599167198826725755e+00,-2.726853834547105837e+00
-1.439610056978112562e-01,3.299553380735678054e+00,7.789228070690795702e-01
-3.340961799506960705e-01,1.443997603736977720e+00,-3.035812275199747390e+00
2.875142970510986551e+00,-7.501834089121059423e-02,-1.461724750800174277e+00
-2.731556685139445051e+00,2.151750878025700864e+00,6.462586057863524136e-01
-6.670035854454799962e-01,3.368986683834180429e+00,-2.723569118843582881e+00
-2.465402876744139160e+00,2.103062254978626644e+00,-1.367605812916346197e+00
4.832572580318816313e-01,-5.969453480289137019e-03,-3.305503945662776055e-01
1.094020942334117619e+00,2.930201871592446494e+00,1.587796014182063065e+00
1.117665610826914957e+00,-2.224303318431684051e-01,-1.149032064336605041e-01
1.171498451326090429e+00,1.641263466056078313e+00,3.230964449493085588e+00
-3.041529284776776532e+00,8.118094515969617175e-01,8.000280046648076127e-01
-1.983880713337218715e+00,5.395677966025318462e-01,-1.143210522001417706e+00
1.228645852074583988e+00,-1.645066853503698856e-01,-2.262945093791945972e+00
2.579049827339266354e+00,-4.436405701162033366e-01,-1.776989398715897783e+00
-7.362651925722065727e-01,2.482661548446198019e+00,3.139372425730108773e+00
-1.823367512687326386e-01,2.587237314810926669e+00,-2.887152337452751905e+00
-7.564250845978146565e-01,3.395889349791678224e+00,1.168539972958398954e+00
-2.189501913677109446e+00,4.558373801240202527e-01,6.999244993895704647e-01
2.698867538588733406e-01,4.592990246127853782e-02,-2.230315083599554882e+00
1.438362522370284280e+00,3.065115262469684687e+00,-1.283698689301313589e+00
-1.523511536183078885e+00,5.042551701429265343e-01,-2.468331915818991806e+00
1.558412005022753899e+00,2.729162546790236288e+00,3.050704072810855205e+00
-9.080656699229083806e-01,9.773752165311806739e-02,2.300365614419799698e+00
-1.513989058489245698e+00,3.575772003322920778e+00,1.124631998533288879e+00
1.153844166190369336e+00,3.245138086845944070e+00,-2.645388877540462591e+00
1.290452384665675689e+00,2.836052158063791406e+00,2.597632005101591979e+00
-7.834838549988382139e-01,1.678602658230243350e+00,-2.863815158318444354e+00
1.962897686034519973e+00,2.767468809293687215e+00,4.870142384870135288e-01
-1.585388601419498722e-01,3.454311472958827789e+00,-2.554530253784677019e+00
2.704909288397898237e+00,-3.102068259941144213e-01,1.701480705882873590e+00
4.474985817628628348e-01,8.352944167252174257e-02,-2.587442859404267548e+00
5.630538376247123944e-01,3.121261866630798298e+00,1.376612371867927731e+00
1.546327101268323290e+00,-3.628424401307866476e-01,-1.606845429767360944e-01
2.125850697115743149e+00,1.913641881648237675e+00,2.830066992832573014e+00
-1.369131220005981087e+00,1.902880516387101206e+00,2.796472391802910629e+00
2.060019344675006359e+00,2.359967027735999867e+00,-2.655298365020355433e+00
3.424990682511675909e-04,2.321062617246063109e+00,-3.073294013236072431e+00
-9.601403270715272997e-01,1.833312268617687535e-01,-3.267802345266315744e-01
2.824436639276700411e+00,2.569020610364203261e+00,1.544977426316223479e+00
1.356580150217332914e+00,3.110880912465455062e+00,-1.851909644443516800e+00
-1.374644672259673461e+00,3.438935417760374591e+00,2.409900005321634175e+00
-1.545683797894326084e+00,3.667345692507237409e+00,-1.490575975061878111e+00
3.469802386845740383e+00,8.691686378875729257e-01,6.586233912765994403e-02
1.666748162069390693e+00,2.775087877407282910e+00,3.021343775179618163e+00
-1.563342280179062405e+00,3.398334345412780788e+00,-2.129800493715262810e+00
-2.066863421908864851e+00,1.977678577799494963e+00,-1.994467747065358232e+00
1.158249110225396006e+00,1.540112211209111903e+00,3.191631621655386830e+00
-1.105661302542525037e+00,2.234654508314188437e+00,2.983916478197158106e+00
-1.488303016830087921e+00,1.061860567056206017e+00,-2.734102268959980542e+00
-2.095721490130927567e+00,3.350735265579878774e+00,1.825455901855172591e+00
3.007097867880270670e+00,1.344494544584846185e+00,1.933300640417855876e+00
1.868082287798896290e+00,-3.903330874817901863e-01,-2.110440726444459403e-01
-8.568992393134735597e-01,3.426850113049093594e+00,-1.259104588101525313e-01
2.730530875075000363e+00,1.251360769879628076e+00,2.157090704955922700e+00
2.480544620241026621e+00,3.004250676762508787e-01,2.243468718941250550e+00
2.315460894457501417e-01,-7.109090975644989652e-02,-3.287097644799417129e-01
4.141601624023871775e-01,2.038323520147985679e+00,-3.131797548328805192e+00
6.248584250495773373e-01,-2.063883409431599703e-01,1.326973481446319880e+00
-2.120620804956040661e+00,3.743291704477258452e+00,3.639059575524747348e-01
2.962489067109633223e-01,3.424656022665339083e+00,-2.566105681576625219e+00
3.508558860715243810e+00,1.352231305415957374e+00,9.220603709962911232e-01
-2.958696268057438239e+00,6.009851803337711296e-01,1.161587417088056906e+00
-6.666834555801840478e-01,3.371731033469949956e+00,1.348059700813160955e+00
2.325287958308971392e-01,3.262213694232300121e+00,-2.965013641880807960e+00
-2.335490434348045596e+00,3.641304732509002218e+00,1.167411078753045173e+00
2.075838638016772375e+00,2.079609232531096197e+00,2.890252275304447505e+00
-1.763416119708301200e-02,2.439817015524890387e+00,3.341084996432316157e+00
-2.177069983534952069e+00,3.115982058607046135e+00,1.831988470538577607e+00
1.977031373627829325e+00,-3.844917101282191996e-01,2.515313760073465854e+00
-1.321997142624333321e+00,3.449348265670887370e-01,-5.430750883847532684e-01
2.562821544561973752e+00,2.769670365796438105e+00,-1.220200725307390988e+00
3.044886532651915445e+00,5.145111314685353321e-01,-1.343061842003367090e+00
-1.786869005378655340e+00,4.530030685118526246e-01,-1.300378532402628018e+00
1.497410906092557115e+00,-4.862648278439259952e-01,2.756293830715763615e+00
2.151914536863182015e+00,-4.986990887034103426e-01,7.399277891090446646e-01
-4.540381997146128445e-02,-1.143438424861553393e-01,3.198491127805065837e+00
-1.004041477684747830e-01,1.397900623283217236e-01,-2.176192713278208846e+00
-2.163882392860010828e+00,6.542200529247170770e-01,2.335491831499103554e+00
1.363577206510330875e+00,-3.004074133173152972e-01,-7.313439786663714637e-01
1.261980411545931657e+00,3.000993447367264366e+00,-5.686064704581293983e-01
-2.135223935366172388e+00,1.790849291298778123e+00,2.194009226621397524e+00
-6.091809702089243106e-02,1.682485370646097378e-01,-2.640076946203056885e+00
3.484208795439782680e-01,-2.095173900366540665e-01,1.059733311718626725e+00
1.517519772820423718e+00,-3.384599433244168676e-01,9.062738741175513368e-01
1.138323576921389080e+00,4.663862594140597007e-01,-3.042780451275050702e+00
-7.357996847799014306e-01,2.906343652185335191e+00,3.137564596573643172e+00
2.794345434915414206e+00,1.262498578509771763e+00,2.136193953665487477e+00
3.413046651974866452e-01,3.178735156228238878e+00,-1.908244108000135553e-01
-6.616675134400659131e-01,3.558706912116263776e+00,-2.018738298544756393e+00
1.166288703155420992e+00,-1.185506499209810077e-01,-2.543781841018315504e+00
-2.885813320438852969e+00,1.837691744317390796e+00,2.165360310467570604e-01
-2.048105940785546419e+00,3.542679834234012670e+00,-1.459782488057284944e+00
3.612520706393532510e+00,1.708388691594953102e+00,-3.105473033242974190e-01
1.232972052776542871e+00,-2.248312370564428675e-01,-1.484969123357783756e-02
7.647050762465427143e-01,2.374448130307321048e+00,3.315446341341493852e+00
-1.391124504804208462e+00,2.911736476660375939e-01,9.877173663437317785e-02
-1.418686994689821068e+00,2.747767009101033109e-01,1.731903798063552546e+00
5.008524287195001978e-01,3.633042085611765115e-02,-2.405830844162274218e+00
-1.526144448706329371e+00,2.177205903985820479e-01,1.840747653802232708e+00
3.649776305000509868e+00,2.450187926862831045e+00,-7.900410306253258241e-01
-2.132305339520963905e+00,2.296333637996311072e+00,-1.778581654627349407e+00
1.153191123910263682e+00,-1.806292503282448669e-01,2.980563012129167522e+00
2.147349131812343881e+00,-3.881595741407909417e-01,-1.559540092592483829e+00
3.652302793794461877e+00,1.796963932545575515e+00,5.384307355269373208e-01
1.717303298700665559e+00,2.836051226936723957e+00,8.497862236815784120e-01
-2.175407227611305672e+00,1.902160029727485435e+00,-1.825903509075691655e+00
-1.792757202540741890e+00,2.485852535631165594e+00,-2.099158949652500272e+00
-2.611627021073564148e+00,1.690327552203109596e+00,-1.229264969609355385e+00
1.862595687368468589e+00,2.728323791072099880e+00,2.432641613621802090e+00
1.826516920646187536e+00,2.329747112582007951e+00,-2.784126407029452910e+00
-2.377848414978718683e+00,2.785160295106278383e+00,-1.257209335822949026e+00
2.634019147517410619e+00,1.600072179044775000e-01,-1.870959973295770240e+00
2.356217495752701563e+00,2.691430258595661318e+00,9.584420202680834500e-01
2.181543720376460382e-01,2.758842666574815375e-02,-1.216569648240060530e+00
-7.863060117252619330e-01,1.954529399037864712e+00,-2.896948584186492592e+00
1.689433879162478780e+00,2.988176886596462634e+00,-2.796361022794576989e+00
6.544844350099707775e-01,-4.468113907930559153e-02,-1.528548900036956315e+00
2.658122205092190882e+00,2.639404515813840835e+00,7.962831833881052201e-01
-8.757998907991469961e-01,2.072310000335741698e-01,7.800913134569992247e-02
7.975985426416112301e-01,5.761484000441793318e-01,3.167270849625368534e+00
-4.355280098541980949e-01,3.286622058212735897e+00,1.404260704995142106e+00
-2.587412142712134600e+00,3.014131401501836116e+00,7.498517743231695176e-01
3.451011789339093472e+00,2.180466781904328410e+00,-1.137421156811545542e+00
2.987370777843515235e+00,2.517742955159290918e+00,1.820636098377628187e+00
-2.905643220347608580e+00,1.534722234533072660e+00,4.720486200277733135e-01
-2.004687202682182701e-01,3.476546338861423724e+00,-2.867275520363407271e+00
3.275130417327235754e+00,9.774343806232407839e-02,-4.417322152852672379e-01
1.533568407714206661e+00,-2.768741121219393531e-01,-1.540220136235567860e+00
3.401680455817418292e+00,2.623929020955107383e+00,-1.465779545237139159e+00
8.308781260191879792e-01,1.754974104377682309e+00,-3.069765728107238356e+00
2.829176728725446011e-01,7.262492803219502968e-02,-3.134463798067637086e+00
1.595106694513059420e+00,-5.644745564187930026e-02,-2.706890920768442843e+00
-9.075575665359303379e-01,1.949977119848254892e-01,3.028264367451241057e+00
1.654605169356126781e+00,-3.148427346144105909e-01,2.697659832695529225e+00
2.898743955037858200e+00,-6.301134877695016012e-01,-2.029384321150191559e-02
9.649741593474013834e-01,1.909519360353170825e+00,-3.046260341019745965e+00
2.009989679908117832e+00,-5.244491044637388244e-01,1.349964870518473470e+00
2.123788745762680730e+00,1.394213494922379448e+00,2.729124790739367423e+00
-2.763225707091604644e+00,1.090798838694300610e+00,1.225132941560058253e+00
-2.655153631703717654e+00,2.057209846157069588e+00,-9.788572836031889102e-01
-1.237635834703532112e+00,2.241399902197289684e-01,1.816217126159781481e-01
