1.717895573754419924e+00,-5.175707063513281803e+00,-1.114878884497258645e-02
1.980880944420662648e-01,-4.939376804354232320e+00,1.366641144235334115e+00
9.536748652433041373e-01,1.013435116220911203e+00,-5.287058691950133893e-01
4.560576521750173917e+00,6.984851397829013875e-01,2.143083762459866204e+00
2.494477461474284841e+00,3.058929043307758278e+00,-6.059369654309810782e-01
4.127180235385474738e+00,7.890876193174610753e-01,3.109993673489493293e+00
5.143962814127672978e+00,-1.108822971126843360e+00,-1.827892173823117528e+00
-1.188131887052134461e+00,-6.557801175632634871e-01,1.696562631799571230e+00
-2.488061452305303234e-01,-1.981064469018434915e+00,4.181665674851296366e+00
2.021121399297030052e+00,-1.240588979340538689e+00,4.907901009928035130e+00
-1.934440042109739410e+00,-1.221332398213730297e+00,2.614326786724578078e+00
1.475438434052184222e+00,1.832163348528018210e+00,-3.657811842849978401e-01
-2.313153605182189931e+00,-2.461241215372061752e+00,1.646322602504944888e+00
1.222494795246385602e+00,-2.755852175502822909e+00,4.490523380082350080e+00
1.199222573589743712e+00,-3.626355241881148661e+00,3.208854320580453834e+00
7.178026064124019001e-01,-5.236672332997206247e+00,8.304885648103956797e-01
8.954588316401785875e-01,-4.098210321413893187e-01,-2.564676998132488173e+00
3.079786528656029088e+00,-1.125968309073204221e+00,2.847395061677873596e+00
-4.160574720680772498e-01,1.069732754923752305e-01,4.154864145003858589e+00
1.630547012795147355e+00,9.309718736556369389e-01,-2.196352087436704625e+00
1.239062266220667619e+00,-4.640050420369420947e-02,-2.559169664347949791e+00
1.362096705567684141e-01,-2.735194277871692226e+00,4.139549179228077413e+00
4.308302106096991713e-01,-5.059224495895421114e+00,1.134115478223671980e+00
2.019360564331010632e+00,2.525894278001029836e+00,-7.131641042954501852e-01
3.951062473182800794e+00,2.045305367255053852e+00,1.571107638084723979e+00
4.217442716934836966e+00,1.843912443797514900e-01,2.329510448302493320e+00
1.210715811591675850e+00,4.264383641915633905e-01,-2.039756722019170798e+00
-2.752758781127378485e-01,7.180663494962059579e-01,3.980485960366761500e+00
3.196540555982432696e+00,-3.374152719580267856e+00,-7.261408657890361384e-01
-1.113748076343727078e+00,-2.875883267691182965e+00,2.998579673370391774e+00
5.117690205979577911e+00,3.232031562206886810e-01,7.030333729392925779e-01
2.881999638540483133e+00,2.809582590853963779e+00,1.117995995889071947e+00
3.331770865923169844e-01,9.081174097675935863e-01,6.643334158811410317e-01
2.483628187451244251e+00,-1.604172813641040474e+00,3.463260411771033276e+00
3.859517066986318579e+00,-2.641054050463061298e+00,-1.114268282005832722e+00
3.962569514985373686e+00,-1.820424516642609181e+00,-2.555807417251809266e+00
-3.198196289889745914e-01,-2.538397262380314601e+00,-2.927694838875870786e+00
2.810502285116881271e+00,2.139589140350334429e+00,-1.904895213510773955e+00
-2.077445884337401072e+00,-1.193677203788090724e+00,3.299942272823042977e+00
-1.483226114767728143e+00,-8.836048244757730430e-01,3.604182239059409820e+00
-1.614053420410850315e-01,-3.888863987257382249e+00,-1.473121903073502326e+00
2.683858123617141711e+00,-8.414743162136028021e-01,4.010082506051864115e+00
4.110766691499001979e+00,1.846294610231441036e+00,1.856785348210993503e+00
4.013609900980438461e+00,-8.499529861756469629e-01,1.143760434765574319e+00
8.747809205412794276e-01,-4.397071428052865549e+00,-1.365676624169528175e+00
1.646946661353915764e-01,-3.401482189233961950e-01,-9.166874750643553282e-01
4.119462990118810120e-01,1.212451307309149628e+00,4.033155922190507781e+00
1.350560381903325835e+00,1.283912388692084683e+00,-1.215910760575990457e+00
2.747600381407420578e+00,-4.244868208403273613e+00,-8.553750888172287903e-01
3.445458074236492085e-01,-4.922110485784306988e+00,2.042377323909140063e+00
5.079898007452241515e+00,-5.488351650748006794e-01,-7.528982312449379322e-01
2.713157775222582391e+00,8.088377702305237227e-01,4.252390673328179105e+00
1.588765972797343329e+00,1.612548169482654448e+00,-1.104417676137317228e+00
4.349975147537918474e+00,-2.072805355113438885e+00,-2.334226428318061597e+00
2.607085375137565553e+00,2.517661729209251131e+00,2.317704692226973506e+00
-2.598842496391196577e-01,-1.641753938012316505e+00,-1.680015883116026565e+00
2.564137362218878557e+00,-2.555948483593566856e+00,1.770885178062469922e+00
5.404653863295575400e-01,-5.158788683345289172e+00,1.034342901318324293e+00
1.703941705297894904e+00,2.453391799960303210e+00,-1.143879274934501006e-01
2.060600875297311063e+00,-4.803257433692861511e+00,-1.114023609167354295e-01
4.083933322457735215e+00,-3.124024150387328280e+00,-2.210477562260511508e+00
2.146604037874289883e+00,2.577308369188010762e+00,2.568190216861771180e+00
2.801714986138428287e+00,2.865952439894294823e+00,-1.888885594567131232e-01
1.376898438573367356e+00,4.729744120696249832e-02,4.684771156279485815e+00
2.794546184197206351e+00,-3.975752961474720681e+00,-2.076845750544575875e+00
-3.364110314379602923e-02,-2.078066727603912200e-01,4.241161571947263731e+00
5.272204569397020535e+00,-6.114194510263272209e-01,-1.121176704993124718e+00
1.852278021349383685e+00,1.259055105958111653e+00,4.061791834710100524e+00
1.317029395083696208e+00,3.189414203680641879e+00,2.009317683729933801e+00
6.265626593605411188e-01,-2.702770331146378435e+00,4.506818043241578309e+00
-1.223390348924768167e+00,-2.260655342507425503e-01,2.332443864636524200e+00
5.023107041697465469e-01,-5.117281628874666310e+00,1.629825788322035729e+00
9.963174425360752373e-01,-3.032268213644373045e+00,4.450670435997359675e+00
1.076063585911386289e+00,2.173562431311111265e+00,3.277982304027432736e+00
2.813239840204353470e+00,-7.165475177546248853e-01,-3.032135713503972596e+00
3.364952942228930599e+00,4.714515780553896751e-01,4.469001437791038533e+00
4.933908940411585675e+00,-9.182007528104405014e-02,-1.528496273527599314e+00
-4.614622350051265226e-02,-4.550826691236477650e+00,2.155754903146792856e+00
4.278304853649895989e+00,-8.534814666660508475e-01,6.458530618188290662e-01
1.298752835246839377e+00,-2.011448083315139357e+00,4.947806204935348617e+00
-3.697617239537657752e-01,-1.866395659798709694e+00,4.169993523538273905e+00
3.564374883156347984e+00,2.246271380306566812e+00,-5.511073188350227442e-02
5.094183748790677591e+00,6.493882471881397001e-01,1.053000541659655953e+00
3.167775643690255549e+00,-2.106386478228059189e-01,-2.940107387170853848e+00
-1.127650398375496632e+00,-3.627582235160477619e+00,-1.241678154533667922e+00
1.271700538078827325e+00,-5.371701499863684504e+00,2.333761058308718717e-01
1.378514156012443204e+00,-4.524758549703487454e+00,1.550911110169812535e+00
-2.020088233039111003e+00,-3.154672742529364360e+00,-1.092451864080047630e-01
-4.884961661888199136e-01,9.674000865184582132e-01,2.450338468718536333e+00
1.732452233360087579e+00,6.572195554559493447e-01,-2.887781938529121017e+00
-4.849479961803632722e-01,-2.021632996962833939e+00,-1.706638702833978005e+00
-7.181846882299222079e-01,-3.522995631837031016e+00,-1.889326347038706944e+00
3.034976964379080488e+00,-5.806635263155500715e-01,3.803944556501279717e+00
4.798018057826825888e+00,-8.563877503900710897e-01,-5.382391832355261085e-01
3.590764889461474318e+00,2.143451145775260969e+00,1.946528223143046743e+00
-8.325979418988453673e-02,-2.084188027695855983e+00,-2.800782284004286637e+00
1.170078687376449877e-01,1.720224433236007933e+00,3.669452728054056756e+00
2.291965889918106125e+00,-1.195967768799893971e+00,4.628582617874732463e+00
9.617405575748785296e-01,-5.046312815281673636e+00,1.900970059166683157e+00
-1.134349307364539206e+00,-1.844927855642223280e+00,-1.881617023778863473e-01
1.091248074615371877e+00,-4.917619259459599768e+00,1.801871662314410205e+00
3.775412809371307965e-01,2.010900180081605537e+00,2.080922803521598308e+00
-1.589377744341354370e+00,-2.113240993797170120e+00,4.344117155430714527e-01
2.616878235368662153e+00,2.059199935242824520e+00,-2.168694782316073599e+00
1.030551773161867635e+00,2.332242724548340806e+00,1.103077113847423574e+00
8.104214492951630766e-02,-1.436833200997016613e+00,4.428347872024641418e+00
1.361616366146126023e+00,-1.397643729505235077e+00,5.031146176861067687e+00
1.306110718744350585e+00,3.207838136897672943e+00,1.741715058093741719e+00
2.017578858768753758e+00,-4.687559483139088989e+00,-4.043426195934624739e-02
4.082916589156448256e-02,-2.262646659230656443e+00,-3.246280352007375747e+00
1.550191327330729507e+00,-1.295530524927023253e+00,4.968492118816861591e+00
9.498506851940032858e-01,-5.431378155574149991e-02,-2.106708702626554519e+00
4.757335704704741985e+00,1.545137490348813092e+00,1.872599246222344527e-01
-9.851485750816322273e-01,-4.063853661704230902e+00,1.048475741815263707e+00
4.050601850826367922e+00,-2.433135022388260627e+00,-1.181911758356893438e+00
5.066790347115539550e-01,-1.018727556999185380e+00,-2.549820747332629534e+00
1.421670544628870214e+00,-2.524757698862976518e+00,4.468464207103701291e+00
-1.487430342878809597e+00,-2.080126599364139572e+00,6.518597819826889295e-02
3.589699727389618289e+00,-2.742197123254005220e+00,-4.189855139031503084e-01
3.047156092755550549e+00,-8.333713289533768442e-01,-2.997932014442199478e+00
4.540270414960761336e+00,1.767833049172062576e-01,1.517363420948161457e+00
-1.064420284835017050e+00,-2.183673055784571382e+00,-7.361079368623039132e-01
3.341082624625635877e-01,-3.717506417427891119e+00,-2.010695477514887308e+00
3.213259841769659619e+00,2.703148674199806312e+00,2.446071610413643738e-01
-1.081716725846029403e+00,7.397226512958877676e-01,3.711026306400918351e+00
-8.265786035589174352e-01,-1.282423693210600568e+00,-2.192486061708340261e-01
-2.986834682597581114e-01,-4.186867495953246809e+00,2.474739203181791414e+00
4.112083022156055812e+00,1.360903481930814118e+00,-1.223714284613063974e+00
1.026177233074478723e+00,-5.509367709643238520e+00,6.109622241890247940e-01
2.795015774989471513e+00,-1.154930777896732152e+00,-3.089663484505442703e+00
2.821141211283415995e+00,2.316373981214689959e+00,2.495790531845473836e+00
3.366801351583085911e+00,1.250475863856779224e-01,-2.579823982019621376e+00
5.858673145379683644e-01,-2.825322683621077080e-01,-1.707016110185895608e+00
1.016444346313375213e+00,-5.085998244134573909e+00,-1.442568131991851244e-01
2.039235017185605514e+00,7.985222534723925847e-01,-3.243918416193400489e+00
1.157931442573729708e+00,-1.812989562317876668e+00,-3.436837307752845128e+00
2.517445320968462408e+00,-3.390610348467746782e+00,-2.457309559407246269e+00
3.154615604680130581e+00,-3.408936662197692868e+00,-2.376825400355580875e+00
2.210318635226654838e+00,-3.352147293354801327e+00,1.701980697804407638e+00
1.775707522622047341e+00,-1.216076259135633109e+00,5.143122361490650718e+00
4.672476434478339158e+00,-1.274228072959232794e+00,-2.165548398893727189e+00
2.533321973539328198e+00,-4.341008626208993637e-01,-3.187157559834810971e+00
4.481824906146947285e-01,-1.537734525380816564e+00,-3.242412357458971606e+00
8.816596000919020293e-01,-1.722910530571142740e+00,4.791449144943792149e+00
4.140061392734752099e-02,-1.593176751377259892e+00,-2.361056140415896731e+00
3.142136154988636854e+00,-1.386324944311905227e+00,-2.873017996605985669e+00
4.003057615822500637e+00,3.409060948705698868e-01,-2.123720377961489714e+00
8.467016491935628331e-01,-1.083026372559773520e+00,-3.313734051574936945e+00
5.203222713893916662e+00,1.260117380872888826e-01,-1.248079129646065377e+00
1.479916106636753985e-02,-3.403241599874044621e+00,-2.244733745842642847e+00
2.394139644893296115e+00,-3.721032249744761877e+00,6.869172555257644364e-01
-1.790295281832099628e+00,-3.531482072090906588e+00,-2.858690673272881733e-01
2.584683683850251157e+00,-2.299385674997864726e+00,2.212311171371035279e+00
2.244287409303390213e+00,-2.197616019476992033e+00,3.140946264162505663e+00
3.982090769422462539e+00,-1.557370289142327557e+00,2.682886408712149007e-01
3.730341406718277408e+00,2.376214217981108767e+00,4.530712769211318602e-01
3.818692690351385810e+00,2.251238866837764085e+00,2.770597719229661582e-01
-2.748057364972217864e-01,-3.344145151968371810e+00,-2.171278626713921245e+00
1.713882843811598056e+00,-5.330042445293548425e+00,-2.523419113566097161e-01
7.125896012661584455e-01,1.146680926824627800e-01,-1.426279175405752442e+00
1.067263432020389313e+00,2.866035710444772011e+00,2.522850123879289530e+00
-9.757088449798392293e-01,-2.334487868685006351e+00,-1.408984389251932035e+00
2.170317640520069258e+00,-4.313093313190026201e+00,1.126130031057366310e-01
-1.875755970193687228e+00,-1.330405597480168733e+00,2.365174344287003461e+00
-6.790489315598829956e-01,-2.173128099169296945e+00,-1.577390212774723466e+00
4.273449279584280447e+00,-2.828859004238813757e+00,-2.273770196470060956e+00
1.994445568308836014e+00,7.373003598296158367e-01,-3.322368568335997807e+00
-1.517159024829375147e+00,-3.051472930916031778e+00,-1.113225404038485022e+00
5.122184586683585117e+00,1.289776463760126113e+00,1.888060773357371991e+00
3.957823433380236455e-01,-5.034335567385189947e+00,1.042244263231500101e+00
-1.595357228209766332e+00,-3.555001693882289704e+00,1.486827978491467306e+00
1.827879675225511980e+00,2.650752076875263707e+00,-1.283700742063429712e-01
4.220530981172390561e+00,3.671113084350878242e-01,2.484648927483563696e+00
2.723322279408268543e+00,1.403763361561381373e+00,-2.582293703390925899e+00
1.193000616175841744e+00,-5.654936130432840491e-01,-3.462986027668480737e+00
-1.340603830898429161e+00,-1.668683129617867689e+00,5.988071344582762690e-01
2.062251938788051575e+00,-4.993989083539768892e+00,-5.949615584817111724e-01
2.757375495435789414e+00,6.106473042394613415e-01,-2.940188673712947676e+00
1.496311649921730380e+00,-4.336024639470673847e+00,1.657736147564933926e+00
4.012680571434483201e-01,-3.373009915733405251e+00,-2.363090811586132656e+00
1.482238725675933955e+00,-4.265604711148461625e+00,-1.618278318755480116e+00
-9.233706487756712100e-01,-4.654935653462449752e-01,1.299904590356101730e+00
2.082360996980752166e+00,-4.915458387603132806e+00,-1.171577773124627964e+00
-7.082825359631387263e-01,-1.704020186406824511e+00,-9.536292775627921436e-01
-2.218626316085249017e-01,-6.091917215705402455e-01,-3.489410703513495804e-01
3.769556118577185089e+00,-2.558566950944415552e+00,-7.297458153066871400e-01
-1.623402371402230981e+00,-6.291434787703062970e-01,2.743143619912268516e+00
1.914650322419714445e+00,2.335956681696571113e+00,-7.297658152356880645e-01
2.542749479573454541e-01,-1.012451228024316974e-01,-6.676830194695442255e-01
1.806021329880122206e+00,4.716877041591515662e-01,4.521718302861591710e+00
3.968070154607606703e+00,-2.598311921890317233e+00,-1.251115810196368416e+00
3.548174660797648983e+00,2.457480015837107956e+00,5.037311502044515832e-01
3.732598243173129493e+00,2.270733674339062258e+00,1.947638581492000809e-01
2.274859115086232730e+00,2.354946636710117502e+00,-1.447288389669021846e+00
2.150108737596193864e-01,-1.984716685427011740e+00,-3.208933336853510010e+00
3.166056133173744680e+00,-1.344410800811020934e+00,2.238526507684889477e+00
3.864997244033767210e+00,1.997732746222048883e+00,-4.885549246441255322e-01
1.726115862052063354e+00,2.161285975444228402e+00,-6.350799060522774875e-01
6.953074242374932545e-01,5.420030829986509369e-02,-1.442810242663073339e+00
-3.392773663577253740e-01,-9.524881627785249938e-01,-8.016864720910529263e-01
1.075014062412908311e+00,2.212270215366038517e+00,9.160594358797066183e-01
4.779799870305454945e+00,9.411844291361344261e-01,-8.705063036841825808e-01
-6.334250160360432869e-01,-3.622729395984938261e+00,2.908108311884649577e+00
4.418881909925810092e+00,-3.499011093133833072e-01,-1.994216937447276239e+00
5.310710093218204086e+00,1.026785388916489516e+00,1.032257663133340220e+00
3.342394160692209848e+00,2.548461782074993742e+00,1.309094171615487801e+00
5.636079384114845992e-01,-4.817101872912359362e+00,-3.065062283758185346e-01
2.391162685520808573e+00,-1.647252529036982160e-01,4.911996146578417211e+00
1.777309677684749900e+00,-3.734045718127070312e+00,1.863113983874394641e+00
2.244888789981414501e+00,-4.369942343337140045e+00,-1.773211578941086941e+00
2.612650302140087533e+00,1.670505717221348663e+00,3.421051014026184944e+00
5.729907498508961250e-02,-1.356160605377167760e+00,4.410098263379631511e+00
1.224889202729980475e+00,-3.020739458763650909e+00,3.951343898379260366e+00
2.702119997176887445e+00,-5.497992497775497922e-01,4.478722082269677607e+00
1.178679535543599721e+00,3.015648508015769558e+00,2.385670442687809700e+00
2.040600214232506371e+00,3.654516444916610096e-01,4.573210306556159566e+00
-4.092680530912690684e-01,-4.393657610940509883e+00,-5.612488310768559696e-01
4.771119642517098192e-01,-4.575564612426219036e+00,3.005222720514876933e+00
4.967401711778259177e+00,-2.439706094563998950e-01,-1.615805043587526635e+00
-1.394033458240456769e+00,-3.755182925136329342e+00,-7.257447991847902902e-01
4.454367500381321676e+00,5.807625308729574831e-01,-1.563050619956003695e+00
2.842177201138866405e+00,-8.176437611891265167e-01,3.835691417198474173e+00
-1.422821562530018014e+00,-1.023629199609489282e+00,1.437300009379850252e+00
2.707121513296433690e+00,-4.239017409849690665e+00,-1.914799867595755600e+00
2.486726475260007341e+00,-1.935218229637732046e+00,2.944423610306232675e+00
2.303715972392475386e+00,-1.241093668222609470e+00,4.441546890204755016e+00
-1.683608876041393920e-01,-3.384554749184903955e+00,-2.209848206363020484e+00
7.870098531543540110e-01,1.680620271390775189e+00,9.157656335307563511e-01
5.139642781866382570e+00,1.333551893083112727e+00,8.936347120739787098e-01
2.370792848942254061e+00,-4.990565200619329289e+00,-8.391993875198678898e-01
3.938574358467930914e+00,2.101718993412798220e+00,7.562995122274401849e-01
3.710313603058540410e-01,-3.886305491959707314e+00,3.713620872793286232e+00
5.207426615886375565e+00,4.606034412901260922e-01,3.844762362680367862e-01
4.957746976093989066e-01,-3.594307541636238557e-01,-1.652667103986295682e+00
2.632520520760406768e+00,-1.265493173470405575e+00,3.660293928516308082e+00
8.887032762436506417e-01,-2.222455336271770943e+00,-3.253586456336094113e+00
3.274372058726137791e+00,-4.090979548247968722e+00,-1.997695552472799507e+00
4.736518379081645413e+00,1.457311761405766903e+00,2.230375547850719453e+00
4.424180665315493144e+00,-4.053428868843466093e-01,1.019312166231138850e+00
2.237654437196479495e+00,2.934897144345751219e+00,1.828835870314029499e+00
4.218614534899219670e+00,-3.002796638738405743e+00,-2.301553926671255468e+00
3.363236565797277589e+00,-3.054832538210984882e+00,-4.896638265416435321e-01
5.212638914225527387e+00,9.485045950893594702e-01,1.088419205446919724e+00
2.499621338356888822e-01,-2.334612312672484258e+00,-3.196348275629754099e+00
6.726583820508110767e-01,2.255731816677434498e+00,3.226913284219026679e+00
4.643843204147601433e+00,-5.004671161734374207e-01,3.538348123093229547e-01
4.913243625478897592e+00,-1.193409995837290682e-01,2.516120565759955574e-01
-1.319565444219804151e+00,-1.464979315332238352e+00,5.873923412662080956e-01
2.013305992182734538e+00,-4.088723169268439150e+00,-1.947358303659598944e+00
1.624892620385159470e+00,-4.423253879584668091e+00,1.308911774806601036e+00
-4.539687636865252229e-01,-1.358105955443285495e+00,-1.048621219267302784e+00
3.390102632043218822e+00,2.298221886130580760e+00,-7.010869510640088675e-01
1.427701524525530452e+00,-1.389157649903971503e-01,-3.454124627676897763e+00
4.473121173796712924e+00,-2.156138416338338089e-03,1.574989152113122737e+00
3.570280398669650523e+00,-2.268000847042820123e+00,2.523636235125277794e-01
3.814206800921928764e+00,-8.656297950645386319e-01,1.648169474319174821e+00
1.439360627795232883e+00,-5.156922282203353802e+00,6.915927535977530738e-01
-4.653781059481703064e-01,-2.943952082463428432e+00,-2.647336535083914200e+00
1.270511728983870769e+00,5.081033375076513536e-01,-2.018382164166574455e+00
-1.151621918202482275e+00,-3.701093458740455588e+00,1.971092261310536164e+00
-1.310217058916550270e+00,-6.661339407928620338e-01,1.831808413474897312e+00
1.143659045881362912e+00,1.373582616974420079e+00,-6.874213006614867671e-01
3.401954104854834515e+00,2.407732666677663058e+00,2.959813707765948654e-01
3.588885710975345589e+00,-2.243761364146439785e+00,-2.601231232907786683e+00
1.932170220080774437e+00,3.049532035417255926e+00,1.721841903120660544e-01
4.058644637134007360e-01,1.703836687401135475e+00,1.612970440231287439e+00
-1.627245905064418130e+00,-3.067988564254211070e+00,2.288402527759036964e+00
5.239538485304062299e+00,-1.027589130605686130e+00,-1.731239863403302381e+00
-3.083772472994791292e-01,4.710865696527562485e-01,4.042243871131915078e+00
-2.285262486897753575e+00,-2.319840392619267444e+00,2.212347524142022070e+00
-1.022857247734266339e+00,-3.967797423734648277e+00,-3.094093704283131241e-01
8.049159961137786201e-01,1.532832575051373603e+00,4.720510220443728255e-01
5.182105105791740662e+00,1.434537272658567675e+00,1.524813729474912449e+00
-1.231721373400084918e+00,-1.211574732163949619e+00,8.360506427445875133e-01
-3.041009041924506717e-01,-7.809526923137328769e-01,4.238826348504431962e+00
3.230944553276991815e+00,-5.965429936013166845e-02,4.050504294978051867e+00
3.931521237521860002e+00,-3.232470064237844110e+00,-1.989382784011603844e+00
-1.163470642711058378e+00,-5.694077172259112141e-01,1.859497985881433779e+00
2.313705183970608648e+00,3.184843556199878023e+00,7.186290687485926698e-01
9.647395912497574999e-01,3.018623408565673572e+00,2.171992559096670217e+00
3.786869137781698758e+00,7.538325611627681999e-01,3.895642262009861856e+00
2.853968586429734611e+00,2.554013786948866827e+00,1.993718202387757765e+00
3.467602112725112207e+00,-1.779898267557254110e+00,1.056513291559112444e+00
3.182308729370429412e-01,2.384350380696181215e+00,2.662202566870002673e+00
3.450266427160161076e+00,-1.215501981372554552e-01,-2.685169023814352407e+00
-5.999584210653312599e-01,-4.246237613703096159e+00,1.608615571934598920e+00
-2.668044491560863651e-01,-4.308158454253370628e+00,2.249050537560074225e+00
3.339003425162634819e+00,-1.904464183350789153e+00,1.118763118346171481e+00
1.757225798886628887e+00,1.985557343193894875e+00,3.330737490317586591e+00
-1.223112924634918719e-01,-4.471137159098218739e+00,-1.983529317757419252e-01
1.598125129027749169e+00,2.057587564742814124e+00,-4.858334803624262399e-01
2.088109263731686038e+00,-1.662152132877401822e+00,4.198338051780440061e+00
4.379459236499609887e+00,-1.363875495791479153e+00,-4.016864193487755808e-01
1.724996860022648626e+00,6.543097960283212888e-01,-2.830563728698828108e+00
2.507100822028530906e+00,2.445579642328448156e+00,2.537988749283087930e+00
-1.763563339499295002e-01,-3.795169633392551756e+00,3.300946819043455882e+00
-3.644986393509306866e-01,-4.333929071939094158e+00,-3.378791402549425338e-01
1.215119072873846795e+00,-5.208907657816735259e+00,1.166200753815795466e+00
2.025832757820785535e+00,-3.904012789141120710e+00,-2.121499189947366304e+00
3.279036592579276377e+00,-1.742031784590388765e+00,1.430382005323347583e+00
2.830019128962829367e+00,-2.829393471358035761e+00,-2.734042975535331710e+00
3.401857545750192280e+00,2.286263177741664876e+00,2.033428528889332121e+00
5.243357244181754417e+00,-1.003512064168301299e+00,-1.713463962839719246e+00
3.113504501395518709e+00,-3.949579118326078220e+00,-2.069970082476003004e+00
3.084841181568741542e-01,-4.767184287062648629e+00,2.347308635482463490e+00
8.003906471936143019e-01,9.561168309503057516e-01,-3.845914338935361165e-01
2.985077141105341614e+00,-5.348184929063825033e-01,3.939213833509191964e+00
3.923475841720073909e+00,1.962903840533510857e+00,-2.480876405120250872e-01
3.600254407181795901e+00,-1.413655694921556849e+00,1.082565988872350449e+00
-2.019451856850515981e+00,-2.949531202189036971e+00,3.430640940804015049e-01
3.988596447804213074e+00,-2.672104569046023670e+00,-1.418638499107137019e+00
-6.873223886633924584e-01,-3.687656255166202879e+00,-1.577259354426025828e+00
1.078423167674108951e+00,8.532306601524460854e-01,-1.005400199202707734e+00
2.948201090409609648e+00,1.969858339149536564e+00,-1.884414410966701814e+00
3.357234122032681345e+00,2.197466644351873111e+00,2.268042461583604563e+00
2.116004590792172735e+00,2.771993881577418772e+00,2.103481107047164400e+00
-8.401588334571349348e-01,-3.042547123608755566e+00,3.049664229552928596e+00
6.911294048822518299e-01,-1.742845043883187062e+00,4.666858789165043042e+00
3.313086700454475952e+00,2.262090067507496638e+00,-8.549270603852383577e-01
-9.168061041165700420e-01,-3.765357846632679362e+00,-1.168918563170591618e+00
9.476365648228201044e-01,-2.686278405508327971e+00,-3.038996165800876170e+00
2.680139933593986279e-01,-2.164415530422076017e+00,4.401151477646151555e+00
3.819394892111957596e+00,1.864140604708597548e+00,2.406812208621557758e+00
7.349729712815672444e-01,-4.916387756510204099e+00,2.330916130329130365e+00
4.381765153745804664e-01,8.633210881135352510e-01,4.036494606381150207e-01
-1.855657551639458669e+00,-2.958842559589712540e+00,2.257372583569237090e+00
-4.874463211051208167e-01,-4.354397242619281627e+00,-8.772103530556023265e-02
-3.192959467815837948e-01,-2.790529470674293133e+00,-2.811612307953141432e+00
4.171157186536815331e+00,3.690055063451310180e-01,2.840988002260404155e+00
4.741634060589842825e+00,5.457614346044737941e-01,1.729011900566809201e+00
1.642937850064847272e-01,-1.050856116699497189e+00,-1.940200566988897535e+00
-7.689177367777760841e-01,-3.393231847338928464e+00,-2.114590383604999069e+00
2.191721671187575993e+00,-1.638727894357441262e+00,3.998366569634021594e+00
-3.818305380803392324e-01,-9.301961057800450794e-02,5.419179853447322337e-01
1.134178314696315137e+00,-4.178990729810706739e+00,2.582174562252964822e+00
5.013407488193248440e+00,1.493298906788475655e+00,1.172963929444662101e+00
3.855717970860960353e+00,-2.275897569544892640e+00,-2.572486553753680738e+00
2.182597538507662804e+00,1.556293156804487321e+00,-2.374196813679049889e+00
3.948432855599001368e+00,-2.405102864931870421e+00,-6.764724940963803279e-01
-1.129547279172284924e+00,-2.138505052908823423e+00,3.485594969970192025e+00
1.595403045249758955e+00,2.133275068465614766e+00,3.273357933141512799e+00
3.236335720735993959e+00,1.516580325605846546e+00,3.539222541984859305e+00
-1.370104078896727584e+00,-3.156050111957929616e+00,2.397103362435283103e+00
-2.353282692377033580e+00,-2.369687359032033758e+00,1.685676731514019977e+00
-1.143914254789013984e+00,-3.361691750150172187e+00,2.454992567470849707e+00
2.708433150899260511e+00,3.036510604674372615e+00,-1.444499020842985593e-01
2.807391690746546598e+00,2.293824145179268026e+00,-1.742480957893944638e+00
-1.845520260121745970e+00,-4.000574793714308242e-01,3.506262565844870505e+00
7.349805375480773506e-01,1.596808869760516947e+00,3.747977771731073382e+00
1.723783901377178518e+00,4.060482286244910394e-02,4.769332600990794369e+00
1.248854094235636092e+00,3.096447796801061525e+00,1.545103631366824493e+00
1.079254056240968040e+00,1.428154719695517105e+00,3.800563964228464098e+00
1.349480986496364165e+00,-9.280748837534489315e-01,-3.578930112996514090e+00
3.554522435761523491e-01,3.032172323154210328e-02,4.348964580551842651e+00
2.427621920166535219e+00,-1.040399216375834657e+00,-3.210728727066812560e+00
2.403220524217918541e+00,1.362998020903476507e-02,-3.283611030731832692e+00
2.479568523604685382e+00,3.202278240381221330e+00,-4.169225438997041788e-01
4.200172402282067452e+00,6.597229780411588695e-01,-1.667010695472743720e+00
2.445204458537185488e+00,3.097843083084480309e+00,-3.141865512241871494e-01
2.661866223813650567e+00,-2.993825990638942613e+00,1.065142755744975744e+00
3.547604180306900723e+00,5.331863002546906039e-01,4.082901611954359744e+00
3.784977794909130999e+00,2.205074430656485340e+00,-1.381098228029702668e-01
3.472371365116178943e+00,-3.809273809960270984e+00,-1.766600933770529069e+00
-1.440953764093696243e+00,-4.864244507918200622e-01,2.260456840662553368e+00
1.129836065428623026e+00,-3.904219884516440420e+00,-1.999076352852038996e+00
2.280904859010544516e+00,-5.058727474913050415e+00,-9.933989594853530614e-01
1.714764971207942246e+00,3.175576902138677493e+00,1.739074430613688271e+00
4.416127168232110378e+00,-6.611504314512965941e-01,5.759640878128914343e-01
2.563273619077827803e+00,-4.290778465842537415e+00,-1.812582428510185029e+00
3.284882133578807206e+00,-6.476707905465532711e-02,4.016515010587185408e+00
-6.438829919273456603e-01,-1.417195641729680045e+00,-7.219798713605443119e-01
3.399894871334521174e+00,2.015274543882993541e+00,2.543082822615698735e+00
4.647886761772261899e+00,9.868889190273443246e-01,2.497981598363907541e+00
9.075952088117639205e-01,8.768987269446474331e-01,-6.406620665104778567e-01
-1.749211032246759112e+00,-6.498006484446378073e-01,2.886728936663072620e+00
5.768961497080841161e-01,5.083926145043914380e-01,-4.869179882916913060e-01
4.780043285857314750e+00,-5.135369474019834124e-01,-1.844491852624955630e+00
1.241136059435374417e+00,-5.282661039569120476e+00,7.945572102766086386e-01
-2.220696557895684542e+00,-2.313548794133507336e+00,1.462864910522790662e+00
2.756928156739560709e+00,-1.225363465324610823e+00,3.456891582597608092e+00
4.697057840353084046e+00,1.144847100164169351e+00,2.542815430394025800e+00
3.831284491664966207e+00,-1.180275660575154317e+00,1.011196026473229814e+00
-9.407633131809365334e-01,-2.531135431950483738e+00,3.438798321493597321e+00
3.347137856655519883e+00,2.293266830064509598e+00,-1.029673803339244520e+00
2.372295920164679550e-01,-2.413142169144831151e+00,-3.128804124286817423e+00
2.850208899981356403e+00,2.328805501378839349e+00,-1.522559660954880156e+00
9.523092761813813922e-01,-3.721656267231010506e+00,3.613844746926228702e+00
3.097429257770743849e+00,-3.285992640444778345e+00,-4.094533591188463939e-01
-1.329957648492704481e+00,-3.894050626953269312e+00,-6.767655892704467491e-02
4.766359633046699518e-01,3.397588953853313276e-01,-6.964926393590875620e-01
2.978952551745461363e+00,-2.362390292886734411e+00,1.196249157692578891e+00
1.824064395119133097e+00,-1.652008612428458312e+00,4.744120613346061610e+00
4.258778964615975049e+00,-1.125971804588297154e-01,1.726680280165159731e+00
4.174222804963916289e+00,-5.625475715826962902e-02,2.170207706468620046e+00
1.241992922301117019e+00,-5.531867793604781092e-01,4.782745724621361383e+00
2.708782322549650345e+00,2.783870043894201562e-01,4.701050988301847866e+00
1.429807249878158215e+00,2.379546391878573530e+00,4.753777661034544466e-01
-1.676004470514330880e+00,-3.557128072507886429e+00,-6.788330929592996110e-01
-1.411520174558415164e+00,-2.722436410412904628e+00,2.929928651568680653e+00
3.882920433100782276e+00,1.938325045085023346e+00,2.348963996195430504e+00
4.901142963845372957e-01,2.295683275880945562e+00,2.204099163813318718e+00
3.452174758077426908e+00,1.234699676327981832e+00,3.770377214944885758e+00
6.273112598540494522e-01,2.178143759385549050e+00,1.779151032194139281e+00
4.760502999682231784e-01,-4.670803648527405372e+00,2.704866612203875587e+00
2.407639661832035038e+00,7.385849597294925628e-01,-3.135010951914743327e+00
-5.231822137970113529e-01,-6.663947452028001761e-01,4.082256665054961431e+00
2.730717561342122846e+00,2.965358969385247789e+00,7.438025529766286725e-01
2.241284135120282350e+00,-1.707967965153498691e+00,3.666106373160920473e+00
3.668013833896164755e+00,-2.227934452003502486e+00,5.326895982033951621e-02
1.120361486990922417e+00,-5.278185171424029321e+00,8.929242582192628008e-01
1.217558309081175238e+00,-4.138277721492025663e+00,2.341733850341707779e+00
1.075964978965887830e+00,9.440996633481476552e-01,4.186802922709933483e+00
3.217883658241546652e+00,2.190525143498132099e+00,2.444130705575435769e+00
-1.757785872422140905e+00,-2.603755587985438158e+00,-5.194775888044336765e-02
-1.737667147610042706e+00,-2.140003736159593828e+00,6.975395625821046997e-01
-1.269272461089867576e+00,3.766598710465237088e-01,3.480489870460680368e+00
2.611901528365848435e+00,-1.832080339001608493e+00,2.779191560906553615e+00
-1.022462331398214408e+00,-1.601230908650592699e-01,2.249733161163138817e+00
1.644043858664807400e+00,1.451601233468746255e+00,-1.411382843090499550e+00
4.574482092698107238e-01,1.755108527579614552e+00,1.553655874084817201e+00
-1.457684911111141846e+00,-1.429494668777918864e+00,8.838755895246992456e-01
8.534710016120566900e-01,-2.044586411936034853e+00,-3.429606622579573383e+00
-3.190174182639974321e-01,3.696388385216307637e-01,1.386873489704552265e+00
-1.090796238344018121e-01,2.140851181913386192e+00,3.291037277995001453e+00
1.293731359474432407e+00,-9.430201565114754159e-01,-3.753077905907231671e+00
2.541049541918341870e+00,2.619001210274515046e+00,1.918644734151417230e+00
3.970221611524010541e+00,-1.344377441576323884e+00,5.662173720683419953e-01
-1.766305246056144584e-01,-4.642348711062076028e+00,5.029712206270872121e-01
-7.279698741008334695e-01,-1.126764076396709724e+00,-4.603253774288019323e-02
1.870108192510221867e+00,1.813457666429518556e+00,-1.450510650246281230e+00
3.396604137829535297e+00,-3.177690123240069386e+00,-8.375734442951613401e-01
-3.628608471487736881e-02,-4.677437509811507077e+00,7.209157417868190532e-01
1.475655603078920741e+00,7.236702669843797509e-01,4.189536681535956930e+00
5.295675436943816372e+00,-4.994011362710716606e-02,-2.993672605292503341e-01
1.690152584220680820e+00,-4.358991187771906084e+00,1.169713794851070743e+00
3.866422130985867955e+00,-1.283409346072673429e+00,-2.648134517514176167e+00
-2.193505288697927824e+00,-3.057145729450266636e+00,2.594373906785512607e-01
3.445484230996559205e+00,-3.029145397815955043e+00,-7.327150128109122251e-01
5.013296265697833931e+00,6.711052250150090215e-02,-1.328849019314612301e+00
1.082720750371052754e+00,-3.825270829027862529e+00,3.391062322650819194e+00
5.353726632255651374e+00,1.104795670034701416e-01,-1.935206527920766695e-01
4.622687316403816249e-01,-2.272504564798530247e+00,4.408124856337630071e+00
-8.885481399054354634e-01,-2.949758325805668768e+00,-2.346930093472917367e+00
4.623288040056194426e+00,-2.099002737382817674e-01,-1.866849480909845260e+00
-7.618874185054925752e-01,-1.039098535896109121e+00,2.156077137553758516e-01
4.014393933758301003e+00,-2.493669648629989410e+00,-1.233477519191147342e+00
1.909818955325520984e-01,1.969242257710448252e+00,2.505375855170235422e+00
5.133597786083052839e+00,-8.893772688389464109e-01,-1.374318149876006423e+00
2.946042128489300804e+00,-5.020096269917573295e-01,4.099584951465258698e+00
5.473144018795768062e+00,8.270183221161743203e-01,5.966437029502061895e-01
1.898318313057224982e+00,-2.888160119952396965e+00,-2.794943361230297185e+00
6.278799710510052368e-01,2.411401186939323427e-01,-1.040245380485586013e+00
-7.973308747047201939e-01,-3.911800917588467374e+00,-8.993780355182183772e-01
1.741583235193134849e+00,1.949452844700948484e+00,-1.080122029508630455e+00
3.601910578668948038e+00,-2.510894477212678222e+00,-2.119665287933445719e-01
-2.216177367129796405e+00,-2.932440511828741325e+00,1.681478265087608559e+00
-1.352906843834490891e+00,3.616934272863737143e-01,3.420870055380559105e+00
1.862759947980210606e+00,3.292069756932634927e+00,8.075376235728469743e-01
3.374981952192509738e+00,-8.550973012618342528e-01,2.557207129963784631e+00
-1.941617004535046487e+00,-6.382556298457394695e-01,3.312507928697762338e+00
4.900671558947889972e-01,-4.713880976794357025e+00,2.887209032033591249e+00
3.351983417955108902e-01,-3.434841844573505387e+00,-2.455255565070150414e+00
2.039761978974081291e+00,-1.719427679740969772e+00,-3.263404601982686781e+00
-8.323375983194688521e-01,-2.201903632759096840e+00,-1.342402344159977501e+00
9.029033980849081598e-01,-5.152491646101686307e+00,4.292010578665050174e-02
3.855510087619564707e+00,2.125588199971549574e+00,-1.412685097356367880e-01
1.635539084169259860e+00,5.845462914242118835e-01,-2.759235609782050069e+00
-1.325582192232706902e+00,-3.909513858443383061e+00,6.212437568889583872e-01
4.137971351072406989e+00,1.620929106592268854e+00,2.566199972564833676e+00
1.482096819613595073e+00,-4.792494463986392006e+00,8.062219078059261745e-01
3.607338596295428523e+00,-2.937961121258622299e+00,-9.545564412432493429e-01
2.335773359517073100e+00,1.558298769284047980e+00,-2.719302241033869194e+00
1.770692381277939154e+00,6.446118442350791122e-01,-2.977989780881767690e+00
3.003564928769864917e+00,2.270798517608714207e+00,2.258039177775848838e+00
1.248749108503145244e+00,-2.125587367573546604e+00,4.945065234548158273e+00
2.878932796070052369e+00,2.838516777371625999e+00,1.350159801874187160e+00
3.189096871079492690e+00,-1.064234068389240173e+00,-2.968180498956498159e+00
3.817137879589747484e+00,-3.712769883151010863e-01,2.204024725490050240e+00
2.607791350927086249e+00,-1.622148809965584082e+00,-3.128268883995656946e+00
-1.683970714613078901e+00,-1.728929690478691938e+00,1.112265025541925745e+00
2.457204909925213787e+00,-3.642357745339946273e+00,7.099501452200589480e-01
4.954645398766738928e+00,8.391918821688894026e-01,-7.141949831622185219e-01
-3.667965028865294297e-01,-2.644300949012134083e+00,-2.953548700888191103e+00
3.030894533858298878e+00,-3.280977840641339682e+00,-1.442056057142057091e-01
2.741817039550184631e+00,2.911541381126038885e+00,-1.075542062814383443e-01
4.169896387978837105e+00,-1.085105305296015121e+00,6.264241440974351871e-01
1.129298521254218146e+00,-3.673866206907323129e+00,-2.317990919730459787e+00
2.768016007611152851e+00,8.890946312436082133e-01,-2.789930965168857746e+00
3.483240059868941252e+00,-9.154788583360397025e-01,2.317050575571134807e+00
3.446448563600891912e+00,-2.644954352556454946e+00,-1.709511011108716949e-01
-1.405281280344307993e+00,-3.789504216614344223e+00,-3.257877187181407730e-01
-1.421364096811676303e+00,-3.764286179674472876e+00,1.332739626006437472e+00
1.052021628076874160e+00,9.271431544938217861e-01,4.241872513626991470e+00
3.073893027394820177e+00,2.436989016432316912e+00,2.059996656269083459e+00
3.020176195367935135e-01,-1.147337444172023657e+00,-2.042620906476654508e+00
3.738340942893985996e+00,2.256628727735206397e+00,-2.327660055540816952e-01
4.345135869836235898e+00,1.768264939821946768e+00,6.374654135918082776e-02
2.670377712613200671e+00,-4.417165655371031008e+00,-1.078338873159067068e+00
1.931632980824884438e+00,-2.559431677116768444e+00,3.329871892796764765e+00
7.909060622214620917e-01,-4.882619153679362611e+00,-5.213390071405364923e-01
