4.863145934701311290e+00,8.899086584580262027e+00,-3.305920886212479370e+00
9.491731840784031204e-01,9.633475557982146498e+00,-2.632037773183556695e+00
1.306962940378325833e+00,-2.512915537779372599e+00,-6.746268486999413838e-01
1.610098562823537360e+00,-2.594304962086919630e+00,-9.470177059328133140e+00
2.033510720163792307e+00,-7.058572578535533104e+00,-2.654845604167997752e+00
-3.738212887533088891e-01,-2.223340995150280275e+00,-9.973300191797381586e+00
9.197333042383682766e+00,-8.957355796412376225e-01,-5.772502469348472331e+00
-3.512826162626071280e+00,2.366757271517184957e+00,-3.404055466124981666e-01
-5.404113421713062415e+00,5.308809009174253468e+00,-4.975996023724404083e+00
-4.315146583064880303e+00,3.161583734428989878e+00,-9.222298312611577842e+00
-5.413279895849058221e+00,4.087831852223106743e+00,-3.950075822357710931e-01
1.201006338404812412e+00,-4.220396533784847470e+00,-1.558225968391206306e+00
-3.710288579467172276e+00,6.230917402453418852e+00,1.193075192692944375e+00
-3.756385081843461649e+00,6.205139961201710186e+00,-7.700815478034024331e+00
-1.387977655126611198e+00,7.385545121017672798e+00,-6.223405439618785451e+00
2.505315896747172477e+00,9.763870877930758141e+00,-2.812621440887258739e+00
5.067648744038629971e+00,-5.526400321641935509e-01,1.699236330058879529e+00
-1.054503694820609072e-01,1.734949003900498887e+00,-8.314650673244011969e+00
-6.720873596855267529e+00,1.470715682723110707e+00,-4.406283794073607929e+00
4.607055777557365950e+00,-3.258906206410193462e+00,3.108020901245247547e-01
5.247615714942160281e+00,-1.384848846916292064e+00,1.217462803701875096e+00
-4.481872094299395926e+00,6.530343336834268264e+00,-5.613909963975697082e+00
1.627347916887153634e+00,9.669729744512215674e+00,-2.720333719921005144e+00
1.950049903094196235e+00,-5.886348225305005677e+00,-1.871593079000072990e+00
1.015757090134151053e+00,-5.042101487152146788e+00,-7.662572976705229522e+00
1.228993965450128512e+00,-1.412081425587512040e+00,-9.243001290785233692e+00
4.177724322723729955e+00,-2.070672157927316182e+00,6.925637641890467489e-01
-6.642248048561375739e+00,2.025570968207299483e-01,-4.326343156945402058e+00
6.604949273187930459e+00,4.609797804092960583e+00,-4.448271702398303162e+00
-4.127090610862547138e+00,6.948857328938329303e+00,-2.337897336974061879e+00
4.598473694817116098e+00,-2.657655128388597188e+00,-8.618530874571483480e+00
4.663139734834279015e-02,-6.151402694609391375e+00,-5.377245752955627012e+00
-1.117276651545582311e+00,-1.610674848230372769e+00,-1.193935035132105194e+00
-1.434169925184333838e+00,3.117323144653878497e+00,-8.219169499972142745e+00
7.528212493933016169e+00,2.802089185032081264e+00,-4.888358146944749905e+00
9.333925248155960475e+00,7.067630608452007968e-01,-3.180758306957896409e+00
5.413707748105614392e+00,3.844594646923235715e+00,3.707335781851248235e+00
4.841198278135895983e+00,-5.945811936479202586e+00,-1.680573642180952065e+00
-6.612552899505926618e+00,4.345298675816866130e+00,-1.007343238281867448e+00
-6.562364255795249512e+00,3.606637178745643713e+00,-2.242103757715067314e+00
4.182178910311118436e+00,6.817434743472209568e+00,1.513474296322912860e+00
-2.446569886422269136e+00,1.796435462133700423e+00,-9.086956962977662755e+00
8.832861500243569530e-01,-4.639945745235023900e+00,-8.280664145020010025e+00
3.340521169766278220e+00,1.901918903868047295e-01,-7.628989605004893981e+00
5.485621468303814474e+00,7.339376622944794093e+00,-2.665345673303407548e-01
1.742622500783124195e+00,2.345124305016826893e-01,8.182067398968755345e-01
-6.214491846839058198e+00,-1.012391360934797202e+00,-5.371988232403616337e+00
2.631096852863378466e+00,-3.442660400156416056e+00,-4.073774698085954604e-01
6.772673044439029510e+00,6.393712530522458692e+00,-3.723773812392573657e+00
9.993994242507989179e-02,9.776499272984755962e+00,-3.675317070333842029e+00
7.210723473522397065e+00,-1.530056956695518888e+00,-6.907145919633717490e+00
-3.695847038645486915e+00,-1.215702723418814024e+00,-9.203620722150116507e+00
2.552672669431926167e+00,-4.124537492455156773e+00,-8.620269569175655899e-01
9.585932744011676832e+00,1.083287576161238830e+00,-4.075413750941564217e+00
-1.889901589672230875e+00,-5.053512987142851465e+00,-6.457037121691248771e+00
3.123055478421883357e+00,2.586673364293664346e+00,2.218885251300234174e+00
1.709406539861546781e+00,4.256315873438437869e+00,-6.411323549252689880e+00
1.956350778184800854e+00,9.770889548422282189e+00,-2.779623902082836384e+00
7.397678315854806508e-01,-5.394994313345987003e+00,-2.128785963535920533e+00
5.194547957273400129e+00,8.012642353214515012e+00,-3.656421195482592701e+00
9.685941681463372532e+00,3.212639688674593597e+00,-3.962108239715960156e+00
-2.820454871349984849e+00,-4.868256037629067556e+00,-6.051319154587297966e+00
1.869981802636752288e+00,-6.687227405474719610e+00,-3.657020570567401485e+00
-5.435590076099144241e+00,9.641450269717940502e-01,-7.794162406016289957e+00
8.494833594521079334e+00,5.433340454965788879e+00,-2.272829587842605914e+00
-6.238226533962516029e+00,1.917850242180343612e+00,-5.137149389981735759e+00
8.013047027672595135e+00,-1.631122822828785957e+00,-6.760850403600837666e+00
-4.643497158381733492e+00,-1.737849534618327363e+00,-7.597687091109998292e+00
-3.274451657275164518e+00,-5.838650015107917923e+00,-4.023183840316295168e+00
-4.488707995277015250e+00,6.380050140078783905e+00,-6.804410848814899104e+00
-4.739945359194368990e+00,1.806253865622970967e+00,-1.002296200259464642e+00
1.002929917384521419e+00,9.923067231314778525e+00,-3.440365653393050227e+00
-3.800122902045822926e+00,6.809547015783205204e+00,-7.344630336829241379e+00
-4.870675881591934875e+00,-3.377953134521114009e+00,-5.336423063944996770e+00
8.118314870481645684e+00,-1.009606613623572402e+00,-6.988800124531820979e-01
-3.087977581047515852e+00,-8.010740202544321953e-01,-1.050702001958251586e+01
7.944295774719790870e+00,-2.595669826100443167e+00,-5.679028304342205402e+00
-7.210473296249608754e-01,9.298738563917236633e+00,-3.167150335925172477e+00
4.385311101860176919e+00,-1.001609704216394892e-01,-7.427418751656389873e+00
-4.766352814096338264e+00,4.942310337069987902e+00,-8.273014556944602305e+00
-5.588474973234625054e+00,5.144718564709633846e+00,-4.761797813255646439e+00
2.885091426465407505e+00,-5.824308048742564026e+00,-5.066872814347279430e+00
3.868346846401397254e+00,-3.131966824890896728e+00,-8.964445191078725728e+00
8.102291932153413256e+00,-2.082247101681282686e+00,-1.283362499719139294e+00
2.591599248968760261e+00,6.846647163611355502e+00,2.741105761860235468e+00
4.100521298229080180e+00,9.553733973287734216e+00,-2.949265129065180346e+00
1.786964629974450824e+00,8.392565238809666539e+00,-4.600934344335427362e+00
-3.749296447932409793e-01,6.768634550480518541e+00,2.788453843900121853e+00
-4.745524926346388561e+00,-7.138879589450893848e-01,-2.105620186501548918e+00
5.905656480364368299e+00,-3.039834380064811992e+00,9.596761996478226919e-01
3.118672229036372645e+00,3.388738809317685341e+00,2.543302333969957196e+00
3.963804351965197981e+00,6.235512565204738067e+00,2.918632498627235172e+00
-1.885549390382272206e+00,1.077121920214555884e+00,-9.336533283047824483e+00
6.741942286798364492e+00,-7.514886591614841072e-01,-6.779869858618846834e+00
-8.306086384190537741e-03,-4.929329416433909650e+00,-7.556494987399118735e+00
5.240308000784657416e+00,2.934189204798065997e+00,3.253392710334999549e+00
-6.292233951222135246e+00,-1.958778647592088307e+00,-4.410972188908581337e+00
-3.615775995998012249e+00,2.856481134033846736e+00,-9.289572795509661418e+00
1.082512086187076061e+00,9.680315372096083948e+00,-4.461530881803626336e+00
1.935824360855819062e-02,3.892907016461403025e+00,1.710195161864037194e+00
1.305640060121616042e+00,9.346012850291192109e+00,-4.521131645612094019e+00
-3.792338345409397515e+00,-3.186682365221025215e+00,-2.836316112884798901e+00
-1.275924073197745923e+00,4.821711497929220158e+00,1.610571881917806980e+00
5.058532747731019796e+00,-5.802511974191110866e+00,-1.075089821779950272e+00
-1.772216638633755004e+00,-4.430618295215724700e+00,-2.599267717143054490e+00
-5.699958386255467246e+00,4.230851166131178509e+00,-5.705818021686584807e+00
-5.161741061204311087e+00,3.796178280801815852e+00,-8.387424752767760339e+00
-2.898654390860647023e+00,-5.963719017716266890e+00,-3.678436310621516547e+00
4.975261889577217822e+00,7.841040289640504923e+00,-3.661519497367470066e+00
6.144691043193783564e+00,3.052912092085479756e+00,3.582059313169147163e+00
-4.910797817670491838e+00,3.497985466132411680e+00,-8.585062586495610049e+00
4.248986374928319876e+00,-1.078290267481527342e+00,1.107042288194552748e+00
4.273832121594179689e+00,-4.964088327224123631e+00,-7.276255291894365484e+00
-4.130281437258983557e-01,8.415775555494874993e+00,-3.217167006955957698e-01
7.730345315046125876e+00,2.303168384049006256e+00,-5.069465722460879675e+00
4.943043726027245732e+00,7.661461509472783371e-01,2.191996318228963680e+00
-3.625871001120274606e+00,5.675521268406662045e+00,-7.946600175353504270e+00
-6.285070611709773214e-01,4.582074192124069967e+00,1.908781233122974763e+00
6.242121275925671675e+00,3.360911567623309892e+00,-5.336405105326214482e+00
8.398919956977819012e+00,-8.843066717066377924e-01,-1.113099863139003443e+00
2.810210975715493831e+00,-1.833173292517909836e+00,-8.748310756794547061e+00
1.104181224226516322e+00,4.299115586484658635e+00,2.224487899348469799e+00
5.451121029785868544e+00,6.082017315611200736e+00,1.434823730247287488e+00
1.783849467585993498e+00,-6.413389250502389949e+00,-4.834248459994538116e+00
-7.171111305365233335e+00,4.289883592836066795e-01,-2.765372704728777720e+00
1.018316954768976462e-01,2.691557529706845475e+00,1.354492613607754636e+00
-1.686860903586235638e+00,8.845869815174877360e+00,-3.120891115699721219e+00
5.743425519617744612e+00,-4.832844779008854452e+00,-4.600042088682122277e+00
3.335604894918208441e+00,1.005647728090784909e+01,-3.052748165915224465e+00
8.428099103216078802e+00,-2.023298044288995567e-01,-6.602829128533659331e-01
-1.798999564604055079e+00,-4.709986049371146066e+00,-7.027434599536018567e+00
7.604825223685506508e+00,-2.670840658906180831e+00,-1.980007013300375984e+00
3.366872056626958987e+00,-3.450162367406938713e-01,1.145137717654209464e+00
4.212734988311565232e+00,8.999691394381466480e+00,-2.061821652427493046e+00
6.706336249261172000e+00,-3.569302393273549701e+00,9.441035142384420764e-01
7.449021630159072593e+00,1.641184811921691189e+00,2.170559606815387621e+00
8.419143109881684239e+00,4.328285969858777449e+00,-1.308182466144137468e+00
9.034874266013117605e+00,4.104379608122803447e+00,-2.380555299542969738e+00
1.853951065881971116e+00,5.879620657431122055e+00,-5.895271462102646076e+00
-4.958511860922542702e+00,3.310237825829224434e+00,-9.130826258825988972e+00
9.255823783905075430e+00,-4.947412349126646403e-01,-4.664770351467210752e+00
7.872757062756069679e+00,-1.466979172172734325e+00,-4.511675918114843586e-02
6.197760690044103349e+00,1.515561344401228583e+00,3.053849190489871912e+00
-5.169484398408676462e+00,4.534840547878793870e+00,-7.407550424515034315e+00
4.453119807392384111e+00,2.117044865462751613e+00,2.594502193430542558e+00
8.629873861864407303e+00,1.513351452280434772e-01,-1.484646061883938772e+00
7.529333775211097368e+00,-3.198067791204083132e+00,-3.476393680533821140e+00
6.503669746985135447e+00,4.605225465211703062e-01,2.594113323816959138e+00
7.711610512981901699e+00,-3.024083688919080970e+00,-6.401631858766791972e+00
5.260620692567306023e+00,5.554683444006871973e+00,2.249115649840668585e+00
3.780900811817041962e+00,6.124125373927921778e+00,-4.990423255984917539e+00
3.601641011212129428e-01,7.306595056153232015e+00,2.601938470422621830e+00
9.321150197305585472e-01,3.924987981609712406e+00,-6.945121748688835694e+00
-8.951718458972466319e-01,4.219532770355635343e+00,-7.542032824842769934e+00
5.003533733680134432e+00,1.214423168738955505e+00,-6.611214039827475020e+00
2.244655557589193329e+00,-5.960551187601584644e+00,-5.920825517083471823e+00
2.677158440076845114e+00,-5.829517405952699960e+00,-5.858316569388845707e+00
4.788536345149233320e+00,5.600823502267263443e+00,2.609496928026240337e+00
5.303970325760355209e+00,9.103330762871754800e+00,-3.027171015218635741e+00
2.871198316898067038e+00,-1.044460823019522255e+00,6.638827417352078930e-01
-4.142921432173841012e+00,-4.938249508885663275e+00,-4.310685289110256058e+00
2.291465337522533119e+00,4.300905987040259504e+00,2.887515179079892746e+00
4.712060797705258430e+00,7.126797426165436988e+00,-4.030165733111561899e+00
-4.914509697165739155e+00,4.176380342607236784e+00,-1.961017042775913821e-01
2.789847114615656931e+00,3.805520769504569412e+00,2.661672888442581097e+00
9.831077837984855350e+00,2.552861668804038864e+00,-4.134334795507824012e+00
6.806372693713303335e+00,-3.462681412422741634e+00,1.099613735874423570e+00
1.635103569253253841e+00,5.990790151060918944e+00,3.256784298698901292e+00
2.298949698630728733e+00,-4.043722831888246994e+00,-9.936734896336002265e+00
1.710363741723462061e+00,9.606178302013567816e+00,-2.551725370975674423e+00
-2.044708460463800392e+00,7.895681179008268380e+00,1.444774741777481997e-01
7.914452323260027233e-01,-5.824781293161908735e+00,-2.274182550984634954e+00
8.994167208475395414e-01,-1.699701170731553690e+00,-9.411801460791602736e+00
6.161740530195941368e+00,-4.772688443975270367e+00,-8.227310091292071581e-01
6.831095653730309358e+00,-7.162834122560246541e-01,2.317341573653465936e+00
-1.485848594176073734e+00,3.937232864908376762e+00,1.091086536489610070e+00
6.023084278155114824e+00,8.195853644205012500e+00,-3.096328796897203528e+00
7.176484587918436908e+00,-3.432973275309866512e+00,-5.463134721112320458e-01
1.656562156122394658e+00,8.024801884131662177e+00,-4.885120196701201678e+00
5.859949141892745850e+00,5.281887133254048017e+00,1.807670490590151502e+00
6.479897357780509459e+00,6.729874711856562719e+00,-8.680745607921691587e-01
-2.726998280170945144e+00,1.750162487633112329e+00,-2.359574715316961058e-01
6.860818350636884944e+00,7.834112497456300339e+00,-2.414805402238575649e+00
1.565633156531071712e+00,3.164326797210795572e+00,2.010658600173274468e+00
6.073447094548960479e-01,1.114276943323733171e+00,6.807461393110424419e-01
6.807091426045085214e+00,2.825659790955026729e+00,-5.207853563963150023e+00
-5.581798772295512912e+00,2.886601114569418147e+00,-9.462468851897187783e-01
1.961661290353331033e+00,-5.490015735927107343e+00,-1.717312308801513199e+00
1.340339906733562403e+00,-1.635815467392122968e-01,4.108437419633234611e-01
-4.941300332607932333e+00,-8.074101988863487123e-02,-8.193063499476316736e+00
7.831710782529007098e+00,2.624441156948989828e+00,-4.881669917930842040e+00
1.916442862685187487e+00,-6.012374831393616503e+00,-5.693605731744678877e+00
2.690816167330667419e+00,-5.856580137645416961e+00,-5.624218474736375484e+00
3.429660454468827169e+00,-5.943884523557038335e+00,-1.391186541641609820e+00
6.132123398270465486e+00,2.468192409151495070e+00,3.308444285637268223e+00
1.021505946673709087e+00,1.887129034776745096e+00,-7.734912125938176786e+00
4.011632107386387425e+00,-5.649747998423198858e+00,-5.031628630616306275e+00
1.703588890721948523e+00,-5.044750260763875893e+00,-1.568508961941054380e+00
2.909916956499627005e+00,-9.295292681924445244e-01,7.021942821887744435e-01
1.339663610808512706e+00,1.647340154485118058e+00,1.364372271923014246e+00
-1.376080671807048184e+00,-4.293105081327973416e+00,-2.455741164441091584e+00
6.211984674652330618e+00,-4.222686160135848077e+00,-6.105051042992390542e+00
-3.028409265113435112e+00,8.096595449254133214e+00,-3.061378378958989899e+00
8.195699588692860971e+00,-2.047523085675334809e+00,-4.361570642802605313e+00
3.934935107410323152e+00,-3.942458364506289392e+00,-9.218542181899978871e+00
4.320064455535650993e-01,-5.802286098390237790e+00,-6.347332365482031946e+00
3.788659036076580833e+00,8.642933814250834956e+00,-1.137316066440813955e+00
-4.500915385431280669e+00,9.849692494174249191e-01,-9.646474769457073606e+00
1.334362236747807406e+00,6.846127657896573737e+00,-5.482368662124569525e+00
7.637103165084782042e+00,6.526226933888731985e+00,-1.857032549532663168e+00
-3.053506486307234535e+00,-3.078242425987046449e+00,-7.922415306902610865e+00
-5.744869589122789222e+00,4.084199680865451043e+00,-5.636500111073294406e+00
-2.802752316558471790e+00,6.506801693814675325e+00,-7.084195380330401193e+00
-3.286600859711765743e+00,1.410205492953163109e+00,-9.645640743190686095e+00
-3.895361929727822581e+00,-5.317112672770186954e+00,-4.293528479044797841e+00
-4.691600700644938726e+00,3.063778081142756043e-02,-8.627899818588787184e+00
2.823990613484082424e+00,8.198371281316186199e+00,7.138929463170735623e-01
-1.376593995942883675e+00,9.412654840745688034e+00,-5.002277838143021071e+00
8.197429154413534036e+00,-2.357458478287829617e+00,-5.644433799079472180e+00
1.591285307904469537e+00,7.389357336916096308e+00,2.502469350244474811e+00
7.074174285327229583e+00,-3.649552212982924093e+00,-4.814643937112505157e+00
-2.019944615960720835e+00,1.618332473231545832e+00,-9.113057056399346934e+00
-3.188436286050724267e+00,3.067608334533616699e+00,2.833828279663179184e-01
8.301034976167761315e+00,6.022763790037639176e+00,-2.372187359505130821e+00
-4.730778130432916062e-01,3.549621174877492624e+00,-7.637308948335530090e+00
-3.298658273788118045e+00,2.868782891095467580e+00,-9.086016257656872597e+00
4.989722106788890166e+00,5.614674063498807044e+00,2.488593319723482189e+00
-1.406553027827851521e+00,-3.169545211646618732e+00,-2.087842538301318385e+00
3.775287175646572901e+00,-4.488458087447207312e+00,-8.747493773318737453e+00
6.736136686877445712e+00,7.963324939842122419e+00,-3.269354496119809550e+00
2.183455015143981548e+00,-5.432853821087664237e+00,-6.644492601686605049e+00
-2.937298992450790625e+00,8.424681871654490450e+00,-5.609318649974965432e+00
5.098284363416285991e+00,-3.068679185289607592e+00,-8.349262216537766790e+00
3.226325192599917902e+00,-1.412748931219393878e-01,1.206056068142024040e+00
-1.747266187181965247e+00,2.487423427094732187e+00,-8.640300772212663460e+00
7.098340432073853457e+00,2.593381699589602629e+00,2.302989398766873919e+00
8.987554506932077913e+00,5.460973209148736629e+00,-3.116644191621244619e+00
1.256551036577834735e+00,-4.061079218133180291e+00,-9.742306782669603038e+00
3.744906896657419271e+00,-8.703612729203750176e-01,-8.043831795376423344e+00
-1.815477400707456335e+00,-5.841773643894760504e+00,-5.242318481412013398e+00
9.907183013638482194e+00,2.892830251191784718e+00,-4.040370170336829325e+00
6.264194040628726867e+00,4.022158438567344341e+00,-4.947168482015814384e+00
3.783378300488176915e+00,-3.731892943573148713e+00,-9.147845016013050667e+00
6.348604411185101881e+00,3.111119125668937890e+00,3.192565297224840837e+00
-5.299754460974611447e+00,-3.368166549934355380e+00,-4.647815771485539038e+00
5.039140578364916578e+00,-1.029013862761460674e+00,-7.582045821623798254e+00
5.285178774999222284e+00,-1.899375241010191617e+00,-7.817155758713764335e+00
-1.558678368077124565e+00,3.542835961895046015e+00,1.100390629023930256e+00
7.475736547997265724e+00,6.042557072234133742e+00,-1.253897572801544014e+00
2.371134767308856972e+00,8.005452469806860094e+00,-4.668613370861927514e+00
1.803396134717518695e+00,2.369172962641966862e+00,1.785009488887797202e+00
3.619680588158193046e+00,-6.073591613180879811e+00,-4.008027106298366782e+00
6.846816753018071466e+00,-1.616338388642971635e+00,2.006140804352046114e+00
2.747898095854945488e+00,-1.447815322392334680e+00,-8.740157853636256746e+00
4.955368707672260342e+00,2.722775119243553643e+00,-6.059606044082294751e+00
2.371104081130400498e+00,4.893730290715928577e-01,-7.940664059473432346e+00
3.489037114016251717e+00,9.240277903834954287e+00,-3.733549954558625927e+00
5.057013526683726390e+00,4.768463121504563418e+00,3.533487313045606371e+00
4.168350525096939485e+00,-2.242648170105016270e+00,5.863689504254655516e-01
-2.179135045231334278e+00,8.141905030575154356e+00,-1.141370765881001281e+00
-3.847434509803262515e+00,2.489372870146674188e+00,-3.201286674703623381e-01
1.558441215564364102e+00,-3.328464539568460889e+00,-7.226873889606292289e-01
2.087156160509461511e+00,-5.927697286306928603e+00,-5.224493757054999854e+00
9.212625366346360423e+00,1.650286072071387666e+00,-2.612621759965019663e+00
2.398407057534054643e-01,-6.510003392390247612e+00,-2.745118388122484987e+00
-2.891703243773328769e+00,-2.792412809041201704e+00,-2.351609581130819748e+00
-3.546748564798026138e+00,7.285689970635894852e+00,-7.164222436223082191e-01
9.116826907690613879e+00,-1.056140665255430822e+00,-6.024929321299559604e+00
-6.633950636833414904e+00,7.012687971994002734e-01,-4.384344446212112167e+00
-4.600449550627883966e+00,6.156075718905398730e+00,4.809165105153968556e-01
1.512574577789159491e+00,7.768373119356176026e+00,1.400974917286659460e+00
-6.428354793446943161e-01,-3.059716702013482781e+00,-1.595227883064380014e+00
2.827259667283133382e+00,-4.471038034741346756e+00,-9.566613567632618498e+00
-1.970521778238870203e+00,3.118287928362858175e+00,6.980555904294590830e-01
-6.222508601179745469e+00,3.110363248191707175e+00,-4.799133573025166299e+00
-2.320650780907665300e+00,1.028203241734770984e-01,-9.865114272729199385e+00
9.243751062608755120e+00,3.562955529609146410e+00,-4.013271809149518532e+00
-3.775640945096243151e+00,2.252340712162348435e+00,-5.646117377436532525e-01
-2.151728597448105684e-01,-6.739689120678001188e+00,-3.973740420930322870e+00
-3.822360054741924973e+00,-5.302629498606099112e+00,-3.706781574113266586e+00
-1.911538339949568899e+00,-1.723699764377384591e+00,-1.041486714809538050e+01
-1.146669338967063245e+00,-5.348313618074323372e+00,-6.434527001322144280e+00
3.368298458803044682e+00,2.143541467835734515e+00,-6.815506105423327909e+00
-4.934098402209142975e+00,-3.650656620419225895e+00,-3.402678768297001444e+00
7.994460414652776237e+00,-2.284989751877596120e+00,-2.012451252735185214e+00
-7.068263528617936275e-01,8.783302737118845016e+00,-1.615479369343472582e+00
-1.246723878595865198e+00,8.977707653385015973e+00,-2.911294830022737035e+00
3.198775030159541455e+00,2.456561942349841487e+00,-6.711899065817505949e+00
-4.068795828078680010e+00,-3.314333338768283621e+00,-6.465077633122806589e+00
2.653507872126038780e+00,8.343579424471888828e+00,-1.758583681936734255e-01
1.393545383630690582e+00,-4.739958211361559037e+00,-1.568863905085291055e+00
-2.946731786677174725e+00,3.666254093426077443e+00,-8.518056666247126429e+00
6.345557133458179955e+00,4.345401317671437891e-01,-6.376061371635291408e+00
5.813584349824858499e+00,-3.010609150590498828e+00,9.010361694685348199e-01
-2.291512529913762641e+00,-4.795080071915228892e+00,-6.582279100656321269e+00
-2.996787604367841862e+00,8.353436256256843606e+00,-4.259882369632750354e+00
2.508949168724313505e+00,8.146290623638979156e+00,3.818817479269989712e-01
2.556004305987585212e+00,9.607886846408186798e+00,-3.975977557082546632e+00
7.646160048940348730e+00,5.629406638735417800e+00,-1.036178444628354178e+00
2.575714775840391546e+00,2.291131520817714762e+00,-6.977648161530813020e+00
8.873623814446304436e+00,3.039479552325306422e+00,-1.372496983924621050e+00
-4.325387371589232699e-01,-5.080247310389926163e+00,-7.354776877197553908e+00
9.081253779977913609e+00,-1.096528735528961240e+00,-6.049131976255128329e+00
8.833076239702361221e+00,5.243240022215147178e+00,-2.764214997933605034e+00
-4.817549235296766375e-01,9.611951006146711052e+00,-3.970408769542644656e+00
9.498623738705824771e-01,-2.285279749940810845e+00,-6.238904344103691768e-01
-2.169407002803507289e+00,1.062171963665198282e+00,-9.418810820386877225e+00
3.739550302876225807e+00,-5.525111048089928367e+00,-5.418124881569464257e+00
3.275946428649122666e+00,1.408378399771252898e+00,-7.000102195757535561e+00
-1.162372767932815520e+00,6.546295402302110489e+00,2.264841115963904361e+00
8.145772049812023852e+00,2.693353622661197821e+00,-4.719114540882818787e+00
3.626174472763755929e+00,6.640882931585609050e+00,2.469612506194440726e+00
2.248358626428854645e+00,-2.439755601288192466e+00,-3.065431512638248646e-01
5.062257219709097811e+00,-5.683170808373851912e+00,-1.938466195788069779e+00
-7.831310921134757574e-01,-4.810376618133773263e+00,-7.584162222916527973e+00
-2.271979299427647980e+00,-5.384376273030915705e+00,-5.412919296377653566e+00
-3.798622914189963673e+00,7.155502069910982144e+00,-2.839906300387325722e+00
-5.189707306401978748e+00,4.613420787486555597e+00,-6.968004189883139077e+00
3.781288233242039887e+00,-6.026284398193674896e+00,-3.708238705359964804e+00
2.800223912359217859e+00,7.035273047411513936e+00,2.312339005902674050e+00
7.104927623916175605e+00,3.510630773785407222e+00,1.889353827732975111e+00
-5.040217198594361570e+00,5.497253566445395201e+00,-6.056195350829754354e+00
-2.774868062007932457e-01,-4.345741419898121904e+00,-8.503023482726245419e+00
1.115086556586428884e-01,9.693013351813013045e+00,-4.621197869802929681e+00
-5.845101528246433586e-01,-1.667271408570909053e+00,-1.042969938216128156e+00
-3.821525179011099560e+00,7.173399089750958524e+00,-3.154978334623858016e-01
2.007879197394459414e+00,8.329230660856524082e+00,2.622897001014037333e-01
5.382260710112102942e+00,4.357193807184989609e+00,3.531246358217902337e+00
3.114863154379844401e-01,-1.553790156096482855e+00,-9.769801741407510676e+00
2.518159874859102310e+00,-2.538128490227573586e+00,-9.263175384178479632e+00
3.663363249269075084e+00,1.198030154693721760e+00,1.968196958336716929e+00
4.169036831650959840e+00,5.935323817103696165e+00,3.287634881492750516e+00
-2.544062816626034174e+00,3.504411266828328930e+00,-8.429634731850741858e+00
-1.189751060549884221e+00,5.393173189073859897e-01,-8.947419953177566943e-02
-2.200882605470750875e-01,8.224313023056120997e+00,-5.436303374426564083e+00
3.126373232970323990e+00,-4.630556682854807704e+00,-8.873228240433995495e+00
9.491529292844207433e+00,1.600482131363566207e+00,-3.058974794647979945e+00
5.151084173139640399e+00,-4.740089318022523202e+00,-2.304869555238460710e-01
6.845671407627105687e+00,2.477215805425477591e+00,-5.524816709052201347e+00
-5.282209820212569795e+00,5.751229929427010390e+00,-2.806793532553828463e+00
-4.250071830544842832e+00,-3.538129538510510042e+00,-6.128461608834001595e+00
-2.433512096927068935e+00,-3.029103100977629026e+00,-9.038384846235899772e+00
-3.366710949830713950e+00,7.373354502370752073e+00,-1.252831309566210694e+00
-3.865715654464649376e+00,6.091866116974610890e+00,1.218769547905149464e+00
-3.080565158196566955e+00,7.676645174443671671e+00,-1.696078043131074908e+00
1.602345898607913988e+00,-6.948237794944976287e+00,-3.545762340194941853e+00
4.509639423042701267e+00,-6.174786666782032363e+00,-1.852617156583867164e+00
-7.099061348952044881e+00,2.830761957297707632e+00,-1.505001907672449679e+00
-5.636742100953809675e+00,-1.978263359442808733e+00,-5.465867590304885226e+00
-5.162888449138857361e+00,8.506527919046683595e-01,-8.427111130749159074e+00
-2.608821424291620339e+00,-5.799874511930720011e+00,-3.366910882189625642e+00
-5.228932167322561497e+00,-1.799189024231770295e+00,-6.077797544266728913e+00
7.384418192432050887e+00,-1.502489163557434171e-01,2.170750278312425063e+00
-6.088832170280314315e+00,1.335928492257791644e+00,-5.829702391246979865e+00
8.126179248375217767e+00,-2.942533969493725254e-01,6.292859864961609928e-02
7.618209437774423165e+00,-2.279919115741738889e+00,3.311667908100433544e-01
1.654987575449987869e+00,-7.252385644746476068e+00,-2.842726964006280888e+00
6.895514636371645523e+00,-3.719835455942024804e+00,-4.289727248133697657e+00
1.521203980703217162e+00,-7.004979433962933655e+00,-2.929412658210545306e+00
3.116239611149816735e+00,4.779009851732467062e+00,-5.760827365913266718e+00
-2.339544271282935295e+00,-1.136584031592231980e+00,-1.030752376946241178e+01
3.282839319488517038e+00,-5.876250626503435548e+00,-5.307965509520050418e+00
8.711460026831639780e+00,4.927641668838544931e+00,-3.661822920852033647e+00
-4.734991264944905076e+00,2.365289018253923903e+00,-6.179838842260562126e-01
6.443961276994516041e+00,6.076949414317038389e+00,1.816318749785198472e-01
6.901516760167246467e+00,8.076184567979355577e+00,-2.953818471565955228e+00
-2.411491341754366413e+00,-6.088353809649907689e+00,-4.302960298710030607e+00
4.538860763448401059e+00,-5.467569120400624927e-01,-7.526650062443679623e+00
8.013966327126036404e+00,6.220802602747138366e+00,-2.284117219566899060e+00
-2.205775276229995807e+00,7.595745419374907992e-02,-9.906727387858918377e+00
1.133763706280677797e+00,2.681780217269233102e+00,1.669295435072373657e+00
-1.042396821304994337e+00,-4.390760943648635894e+00,-8.008495669942341522e+00
1.019885140589471328e+00,-3.046118042927810521e+00,-9.996237716864115441e+00
1.497495272502256114e+00,-2.276866575696589123e+00,-4.865506975611860185e-01
-5.927310347801791224e+00,3.033134036986389059e+00,-9.318284582812850214e-01
1.097899626407933482e+00,-1.384104144822175364e+00,-2.189169566012390822e-01
8.475270972418840643e+00,-1.850754709044671431e+00,-5.116777550506668604e+00
3.180274010416276109e+00,9.601378156679928111e+00,-3.573429958477605695e+00
-3.414321501468713826e+00,5.847659250938813003e+00,1.295202169520111024e+00
-1.325145535727731527e+00,2.283759207962353432e+00,-8.577170469346320658e+00
9.208665327873335471e-01,-3.347573672051997296e+00,-1.010446618207622826e+01
3.514881163029516031e+00,8.425382818944120444e-01,-7.234171778468416747e+00
-4.778304372537079736e+00,6.383586260068663698e+00,-3.090854762045427417e+00
4.062873606355970502e+00,-6.162293791809998922e+00,-3.543349901447220507e+00
6.277384876432808625e+00,3.287787870917129318e+00,3.119199549844247965e+00
4.211333547619078743e+00,-6.180951642772876120e+00,-2.180796419924757590e+00
-2.218950422944877321e+00,7.819491483126665976e+00,-6.352391130202748926e+00
5.971263641034625813e+00,4.602663812000723276e+00,-4.670504934115323081e+00
7.617888155739697131e-01,7.855079107926338011e+00,1.585272287630560273e+00
1.390055789802819408e+00,-1.098500910710066947e+00,1.662508960004016045e-01
2.929275538237912091e+00,3.502496448772769888e+00,-6.318779507293832864e+00
-4.065772934016266937e+00,3.961039074211641697e+00,-8.777977708009824909e+00
2.339677683099184335e+00,-1.090662097612298931e+00,-8.612673298086916063e+00
1.551441487741571645e+00,-9.995785765439015869e-01,-9.015737899714684644e+00
-5.399670505257192055e+00,2.182545546323579444e+00,-7.788670480886439762e+00
-4.072695946424133240e+00,-6.181081676531382380e-02,-9.814482701202726034e+00
-4.093475320955785035e-01,-4.922936045648815373e+00,-2.438173921299179092e+00
1.089804888067248845e+00,7.162784243707370102e+00,2.902267003662618805e+00
-4.449545411765542191e+00,6.771540761170678380e+00,-1.779409654116076434e+00
-1.604568385980160439e-01,-4.533695239103491481e+00,-8.519524036346448170e+00
-4.006687320875407465e+00,-3.725830834465753583e+00,-3.119457180833106857e+00
-2.374595747071570173e+00,-2.516754428895048523e+00,-9.686956915338255314e+00
-3.152011837664295602e+00,-3.719568957312151092e+00,-2.827563622226346052e+00
-8.773120342963522944e-01,9.483960167648119111e+00,-4.648063124714266969e+00
6.997018662036998293e+00,-3.584244979244205709e+00,2.415154015217940708e-01
-6.302730800995770544e+00,2.938932542835794415e+00,-4.258961632824211918e+00
3.446576045262669807e-01,-6.508120908561419782e+00,-4.670139560679551494e+00
-1.954160167404097592e+00,3.492923060045522554e+00,-8.110314456559182261e+00
5.340743810740352870e+00,2.532778023972780179e+00,-5.961035555397503849e+00
2.893794864710319104e+00,9.682511275814219331e+00,-3.508277775835763723e+00
2.101588950523289312e-01,8.024808652257576114e+00,-5.265442627195303871e+00
-5.537499901195274354e+00,-7.548142990176657241e-01,-6.608100687967827014e+00
-1.200123357605699770e+00,-4.671784959704926798e+00,-7.586782048357362029e+00
-4.693685633618912556e-01,5.640976818630314860e+00,2.393005090746954444e+00
-1.821641894813071705e+00,5.032461285485408276e+00,1.513006421081065200e+00
-6.838517111629566436e+00,1.109923309310473005e+00,-2.247790709637324191e+00
-1.421205648467109839e-01,3.241437723377208702e+00,-7.613284126952303055e+00
-4.424867570899917446e+00,1.562963623671999480e+00,-1.199258677292960096e+00
3.162634943220464123e+00,-3.958111512589139735e+00,-5.945869073176366371e-01
-2.773286224665763466e+00,-2.932675188338897065e+00,-2.351203500395331325e+00
-2.177260432238962817e+00,3.644536140270133728e+00,9.551323960727652329e-01
7.221015103359168741e+00,2.213856108054401695e+00,2.594925141951750724e+00
-2.634983091765237262e+00,-5.229420522560373347e-02,-1.150908829590523208e+00
-6.221010932501991775e+00,-2.778490124012273910e+00,-3.548851808670000718e+00
7.588644090728297265e+00,-1.593784897310546733e-01,2.465668328040425017e+00
-1.427393910562250623e+00,-5.355717381088724416e+00,-5.857064548218883004e+00
4.427374769232165441e+00,9.279189675300880680e-01,-6.926848500101439043e+00
1.642879077823853784e+00,8.938525869988202643e+00,-9.694491257720286859e-01
-1.308120535637075088e-01,2.417973762433816010e+00,1.014331009815132134e+00
3.276140608469202409e+00,-4.750406408217681786e+00,-8.429624740312806619e-01
6.888913909183897566e+00,4.112619578645531071e+00,-4.591342938441305144e+00
1.497679551302757428e+00,9.018745193405557359e+00,-1.453458053949318263e+00
-4.963443187843744830e+00,-5.216914896588951134e-01,-7.250900613165038422e+00
6.502300846689881730e+00,-2.398040376876259483e+00,-7.720762927770230100e+00
2.616828266421715732e+00,7.806223999517755807e+00,-4.590117743491242130e+00
9.062015979402650245e+00,-2.869201132773610552e-01,-2.849233661712380350e+00
-1.175868509118726202e+00,6.796009576443611699e+00,2.617570363309344561e+00
6.705432420703802521e+00,3.850324580368166938e+00,-4.773433242674636645e+00
7.648581704841844520e+00,-2.857277610001318635e+00,-6.021586929877308592e+00
-1.680845459996200830e+00,7.874951739867607436e+00,-6.294250010009731611e+00
6.321155348824701647e+00,-2.686313763769503815e+00,-7.916442024989084558e+00
-4.769089710201710020e+00,5.614359743001305247e+00,-6.375601810280034698e+00
4.131151134970734162e+00,5.077114331777906386e+00,3.812709166837797259e+00
8.160520004630440027e+00,-2.355838113113448262e+00,-4.809449143127825899e+00
-6.080278613307150692e-01,2.362756002615162831e+00,7.595597590264698828e-01
7.799730451141809517e+00,2.414238645824954066e+00,-4.959664766852508677e+00
-4.613550778536681385e+00,-2.873255656763910260e+00,-3.073805550679321374e+00
8.387492872365609031e+00,-1.139412819736546290e+00,-6.278940372480628973e+00
-2.470996810264685095e+00,1.075664358711402757e+00,-9.549964951032828608e+00
4.880152251851530565e+00,-3.797633911602536827e+00,-8.963272703998999447e+00
7.936495666167110663e+00,3.547132946737782344e+00,1.149275029026251560e-01
2.129236835037601860e+00,-1.104950236055688428e+00,3.404775431930910923e-01
2.616626397471412790e+00,7.351500202725866018e+00,1.782348576202992918e+00
2.502279720031769905e+00,-4.814557036433005699e+00,-1.079207546784743288e+00
5.818532117650597080e+00,2.996875638863325975e+00,-5.575685963986551030e+00
-3.389056700744101924e+00,7.080765380079921734e+00,9.387369134753111855e-01
-6.836580077091261032e+00,1.154278101602034479e+00,-2.049689951199410221e+00
-9.208230636435654759e-01,-6.705368055382020742e+00,-3.379546432601480355e+00
5.114563651296130109e-01,9.920002086852056644e-01,-8.375293001318828701e+00
-6.786869670200031734e+00,3.250197515862280451e+00,-1.154828041699901942e+00
-1.108841418504390663e+00,9.623286901732898357e+00,-4.897126174012769617e+00
5.956524901756332646e+00,5.394334295795983003e+00,2.012247400566612665e+00
8.142357881849100920e+00,1.131109501213922286e+00,6.269853901340192159e-01
2.281468858311425763e+00,4.012238210871903910e+00,2.605700861698772020e+00
3.841873552108722834e+00,9.241959814987803057e+00,-2.125346485151292431e+00
3.412234168507117360e+00,-5.760528582081781757e+00,-5.422449292090270490e+00
5.644489394699792051e+00,-2.814431458782247653e+00,9.412903898942504011e-01
-2.505434348218398832e-01,8.127978202343483005e+00,7.382704327675050360e-01
-1.633675860662405291e-02,-3.977572053278184860e+00,-9.215772254392112117e+00
3.163429072155423682e+00,8.580618668296279949e+00,-3.889003671611960478e+00
7.169125531159632025e+00,3.527763192527650471e+00,-4.738095901227210582e+00
5.838275010170983492e+00,-4.936020669013339024e+00,-4.397299768830061073e-02
6.090569866097151674e+00,-3.065687567232642241e+00,1.009400123178732844e+00
-1.211809811536011416e+00,-4.791800989880298012e+00,-7.022584454270663912e+00
-4.755442473425937955e+00,5.177244292665672987e+00,-8.208814834370432578e+00
-3.187628498396048449e-01,-6.121230334635182402e+00,-5.651143928588871823e+00
8.645147154026952663e+00,-5.059723634315896890e-01,-1.396998656410076256e+00
1.270531913734550988e+00,-2.377460798194235558e-01,-8.554711010440083641e+00
8.533419926781917297e+00,7.417099477156117171e-01,-3.908022418358959582e-01
-2.607734938112010514e+00,4.387796873627004324e+00,9.819923728505790539e-01
3.774449548234150686e+00,5.956860340177203561e+00,-5.104026883309571438e+00
6.235215308956874480e+00,-4.054921779340358690e+00,-6.575732451294920899e+00
5.457883910304571096e+00,4.054516464342974302e+00,3.796152791842789753e+00
5.497708793615143641e+00,4.717946187524627355e+00,-4.891070966541553489e+00
1.655206071418001468e+00,-6.716452519778625785e+00,-3.658456126722034352e+00
4.420206636297922209e+00,3.747647539484599832e-01,-7.269685862433018286e+00
6.789617396057996856e+00,5.532658775301351639e+00,6.015959908474372009e-01
6.809304793201740758e+00,-3.904709648421317070e+00,-7.077685414774967931e-01
1.026067973063043093e+00,9.704034922203879088e-01,-8.256380053778659800e+00
5.655352975927757875e+00,3.332161053604920209e+00,-5.406545594074894545e+00
1.002029032108852524e+00,7.601382736541675733e+00,2.028347464298390523e+00
-1.500268454147736463e+00,8.153605227769316954e+00,3.828436925592943602e-02
-5.637296330965439140e+00,-6.926699242356053610e-01,-6.640871737910075012e+00
-9.296464485933509936e-01,-5.204886389919940903e+00,-6.866456965570237436e+00
4.026563328067187975e+00,1.279833159436383649e+00,1.869696973093143422e+00
3.341915726351522675e+00,-5.985432159806858721e+00,-5.114689296556109710e+00
3.863894743912837715e+00,-5.239743683062674684e+00,-6.467051085853380066e+00
7.113040736142474785e+00,6.671012038959967860e+00,-3.357952083235361318e+00
-1.330355366218850977e+00,5.104222039624120910e+00,-7.343828647724589764e+00
4.403941545495685617e+00,8.586378894372572290e+00,-1.231498414702415278e+00
