-2.716698984870239197e+00,-1.092007989375127686e+01,-4.539901159885348925e+00
-3.103361588500032298e+00,-1.098185097405204047e+01,3.805169656076928808e-02
1.856615892132534640e+00,1.966060438503257846e+00,-1.912957027944572452e+00
1.037314139866419538e+01,-3.115029145120240095e+00,-3.290058199471777023e+00
6.237913561030469900e+00,5.187006789743402457e+00,-3.624268712442650475e+00
1.099642612112325324e+01,-3.638745050107730084e+00,-1.068208924641779189e+00
4.495045161948237222e+00,-3.111142603673843876e+00,-1.112431442589884512e+01
-4.038606034976449100e-01,-2.270672930090941399e+00,4.248513258746772436e+00
2.743064871623548839e+00,-7.719231326314953456e+00,6.261101759823499258e+00
7.890572732311460946e+00,-8.182149175581830747e+00,4.230037431263420800e+00
-9.989198821549399865e-01,-3.852487836473112104e+00,6.626565293191632122e+00
3.704081182747296364e+00,3.119378748376699928e+00,-2.146928640524502274e+00
-4.056587110809064534e+00,-5.124165209440725732e+00,5.214327604391193027e+00
4.584648033133938760e+00,-1.029372278674965813e+01,4.225784371486919433e+00
2.066223732311308403e+00,-1.073677858148639963e+01,1.913083644648958526e+00
-3.274882298632728173e+00,-1.131754323613902535e+01,-1.710085788553205921e+00
-2.218331406309664633e+00,1.195178939824979025e+00,-5.569350261592482809e+00
7.087291630412265064e+00,-6.541634877845986296e+00,-5.967513012690465191e-01
4.607773017782579750e+00,-3.561583272600695960e+00,7.243345454590898846e+00
7.493488931625457150e-01,3.049558493326653075e+00,-5.610385431462135308e+00
-1.308879788994051996e+00,1.712064188606786663e+00,-5.949235535650362117e+00
2.504024238144774372e+00,-9.342671921207639230e+00,5.330668972586853904e+00
-3.157092086386005469e+00,-1.111372281097597714e+01,-7.279245666688788363e-01
4.825740881770499868e+00,4.508816839285512579e+00,-3.267778477266146897e+00
1.011990734988429352e+01,3.643407277333022276e-01,-2.770717163403875638e+00
9.546199752054340237e+00,-4.108199267020826717e+00,-2.662918451640356121e+00
-2.223790129873155774e-01,2.144075506525795927e+00,-4.910234327456438841e+00
5.238977982229861219e+00,-2.285193319295798720e+00,6.978837594944532263e+00
5.290235207480472601e-01,-7.526431600897672602e+00,-7.255284147716519527e+00
-9.710227683579299995e-01,-7.859181402516723480e+00,5.375599844078124079e+00
9.061170202828892073e+00,-2.753776194729060656e+00,-6.553388107755850456e+00
8.706814447740583773e+00,2.844373259321610892e+00,-1.579259108681696944e+00
2.269964348008611577e+00,9.447446812699134000e-01,8.788499412837995628e-01
6.439723237923731247e+00,-7.743835117507933852e+00,1.107668901437788733e+00
1.823754598971486063e+00,-6.084564455587430309e+00,-8.607143255549036809e+00
1.046773802237455975e+00,-3.166000345536826188e+00,-1.074101623375450920e+01
-6.729736841879158327e+00,-1.936066395891570258e+00,-5.080102600714955230e+00
4.168734601037479059e+00,4.486652494054848006e+00,-6.498429317323361154e+00
-3.424149438070641649e-01,-4.381537141867594798e+00,7.938610058094504041e+00
1.266119796718589763e+00,-4.387195793976658820e+00,7.630288877583841334e+00
-6.081887786771948967e+00,-6.031370822469931170e+00,-3.518775242547620863e+00
8.210210808786520431e+00,-6.897623006260802825e+00,1.949254954183036848e+00
1.051293955386371692e+01,-3.797008345191228984e-01,-2.635245513340375823e+00
6.700018952466623823e+00,-4.865189539148346398e+00,-4.609708586897879989e+00
-4.882353282201028044e+00,-7.666307281495433834e+00,-5.112447308216149011e+00
-1.231317547194021422e+00,1.342647876882535896e-01,-1.825752812264247460e+00
6.869525606629408365e+00,-1.741575226017862299e+00,6.199175266905554871e+00
1.895641262506853719e+00,2.939796300345690394e+00,-3.503715870940753430e+00
-1.218614299221946640e+00,-8.851254765532516444e+00,-7.097978090768045867e+00
-2.025299038531293672e+00,-1.167451940607042715e+01,8.903393205344809491e-01
6.303440736891011476e+00,-3.024840663066489466e+00,-9.120169619084165902e+00
1.025771817557178167e+01,-3.949861242393253313e+00,2.896664136471345241e+00
2.738372942101482632e+00,3.343278916816176061e+00,-3.568493446250212031e+00
1.655147030638874694e+00,-4.072204722696336709e+00,-1.107295680936734783e+01
9.466516944100096254e+00,1.272649419564291895e+00,6.285981760479029123e-01
-4.170058194119784289e+00,-1.429136231780924859e+00,-2.867283605931306933e+00
3.489078610948032289e+00,-8.004852491766779821e+00,-2.042414657138191814e+00
-3.214820621158376301e+00,-1.126869349646739948e+01,-1.089209401668431054e+00
5.006788988394698769e+00,3.960297544955864169e+00,-1.867762060162064808e+00
-1.930051629176341210e+00,-1.028370547396453283e+01,-5.082353257731379692e+00
3.148382783345897717e-01,-6.086101267261997627e+00,-1.086033993056692459e+01
9.130618529719939147e+00,1.391062360744055537e+00,1.747183908813812803e+00
7.026121157103130344e+00,4.250562755046869867e+00,-3.503216749623799142e+00
7.954472520712481121e+00,-5.133450787464828302e+00,5.332143965552855747e+00
-2.378813394751708721e+00,-7.182319120018628489e+00,-9.001904025572784462e+00
4.976856219537936887e+00,-4.456116877896560524e+00,6.682022069081767768e+00
6.078890844987402176e+00,-2.894128751411923606e+00,-1.001821316772059234e+01
9.164743139388749071e+00,-2.440048648914265428e+00,4.070778330208868034e+00
7.797506509359939386e+00,3.551369236911564808e+00,2.350962614760911062e+00
3.744473187948700321e+00,-9.891614331791501513e+00,5.177602723679660457e+00
7.715048305691581954e-01,-2.030327986078656277e+00,5.466318346895937097e+00
-2.494438289663488462e+00,-1.173980704783416584e+01,-7.409024804797065267e-02
3.902834594812996549e+00,-1.067121180947019354e+01,4.404829208561716669e+00
7.947551701358666065e+00,4.936003187361102107e-01,4.349196218727284347e+00
-1.678385887202602511e-01,3.638330879167279985e-02,-9.338912590661278657e+00
1.117821734526309108e+01,-5.155641720696944041e+00,2.123345932354676613e+00
5.592063442388784722e+00,-1.318098564992845390e+00,-9.956153295426485528e+00
-2.101943651432238713e+00,-1.085787736987757768e+01,1.800884781385062583e+00
6.487318471584072377e+00,-4.533930546625258629e+00,-5.801088676334763328e+00
6.035201166282437413e+00,-9.331460670197188279e+00,5.107586013829394034e+00
2.661228052779913700e+00,-7.422041402043699776e+00,6.468924998602934018e+00
7.723159217129938803e+00,2.519038449470448970e+00,-4.680304489616722741e+00
9.794299697799417004e+00,-2.445654340595015075e+00,-5.843828829409572378e+00
1.012393326720271824e+00,7.403627013684042080e-01,-9.546031341878958187e+00
-7.009890952023414279e+00,-5.236905644272697558e+00,-1.586613362894882417e+00
-3.301826856323498038e+00,-1.129854905664634046e+01,-3.546772874362791761e+00
-6.350932841239167459e-01,-1.097970145647921747e+01,-1.313114101357246710e+00
-6.492368596148035742e+00,-4.936568479888187255e+00,1.736282851558673679e+00
3.277275191684566824e+00,-2.207372433944945755e-01,4.975170860794913885e+00
-2.314065574042117046e-01,3.129339970201415078e+00,-6.959887209905663674e+00
-4.940570926745976088e+00,-2.020272697093379755e+00,-2.707173881283924111e+00
-7.073831756419635575e+00,-4.629043035152367480e+00,-3.195140938580996348e+00
8.763681566848235960e+00,-6.380237961435921257e+00,1.185365379413743758e+00
5.818591509879701640e+00,-3.677515824698698310e+00,-8.465364312659497514e+00
1.013202104135840997e+01,3.844232010291067647e-01,-1.592730692068003773e+00
-5.740890233728407566e+00,-1.303341158398287236e+00,-5.071669544605603264e+00
6.490991345000098001e+00,-2.532328956450595747e-01,6.259902869089821742e+00
8.007222558436470905e+00,-7.970740857534738488e+00,3.392768658431760898e+00
-1.380528948668753975e+00,-1.210548465122871065e+01,-3.179248196215160305e-01
-3.878275463611942531e+00,-2.792587156629860345e+00,7.473174735872286645e-01
-1.171367388565773160e+00,-1.182957987923653675e+01,-6.241723322848305999e-01
5.227257849447558335e+00,1.696944912459051213e+00,3.458530146482981849e+00
-4.084247884246996030e+00,-3.669357306213698600e+00,2.325098985020032760e+00
3.462346616827991941e+00,4.686554975155328151e+00,-6.650768820175588125e+00
5.352776708454445753e+00,2.912829676184857775e+00,1.037288867308433948e+00
4.116116832269457682e+00,-7.076458498444554657e+00,6.350260237887197512e+00
6.868148369848896984e+00,-8.256046650455061808e+00,5.370186653597370352e+00
7.468939833648859938e+00,3.849714174341056339e+00,1.951146652517061320e+00
-1.788993788233244064e+00,-1.010504526733087260e+01,-4.861996801158343651e+00
-6.285224083857899657e+00,-1.286838215008437425e+00,-6.030815876898864225e+00
7.185636198544683495e+00,-8.097819294740734364e+00,5.021924961790910302e+00
-1.201814262764578034e+00,1.415233469544536105e+00,-4.796658661197801266e+00
9.131144656593797038e+00,2.981119803012590164e-01,-6.370222948772174654e+00
-4.410158967787352502e+00,-8.355593512155838454e+00,1.657635458590012600e+00
2.248110517892114579e+00,-5.717978800605628464e+00,-8.928084310970469062e+00
-3.425300128439058067e+00,2.072328140387337536e-01,-5.179095898520557739e+00
5.101694761845323001e+00,-9.930294109558230886e+00,3.973177821119681763e+00
-4.349969006277182970e+00,-3.304657843000954554e+00,1.598302787516434398e+00
2.164574506948541810e+00,-6.805293161269115210e+00,-7.134428096000560160e+00
1.130868624703831454e-01,-3.463109429408129381e-01,-9.683720060806583874e+00
9.030091251176797229e+00,-3.513896967186311393e+00,-4.441206646731044927e+00
-4.797823903829992354e+00,-2.959508741127413245e+00,-3.505968605994865261e-01
-5.808719660835480525e+00,-5.445352899240153199e+00,-5.059473523580342302e+00
8.025967629680350157e+00,3.301632065607139399e+00,-3.503683907313206891e+00
3.689873078245884841e+00,-1.558363231142516403e+00,7.787339069885296006e+00
-2.863649162019963335e+00,-1.836104544588854193e+00,4.374994570537136251e-01
-1.719828181644237119e+00,-1.032581650734613099e+01,2.823754598776198055e+00
6.205947025116948623e+00,1.636884933129657327e+00,-7.688185883213236593e+00
-3.354129097972127216e+00,-1.179785940852022286e+01,-2.626929056093444625e+00
-7.193109588486801265e-01,-7.476964042842285663e-01,-9.563882704011909652e+00
9.807654297791286169e+00,5.987601278026409846e-01,5.103968138741304950e-01
2.109793324250634594e+00,9.393693276183265883e-01,-9.155143720536123908e+00
-1.502133532395744764e+00,7.819524624546465574e-01,-3.695066822108829641e+00
-3.865802396977204403e+00,-1.024784935275927822e+01,-3.650351988876928022e+00
-5.476752982779630602e-02,3.582724638530466077e+00,-7.937647733599775712e+00
-4.341400345255090443e+00,-8.235376435217761637e-01,-7.865533805931769429e+00
-2.670838136877288438e+00,-5.537486649831899754e+00,-8.966276611925927398e+00
-1.611836141406455036e+00,-5.986991967442274465e+00,-9.814943302578212680e+00
2.038980705249082703e+00,-9.293561493386475192e+00,-1.906896600172033995e+00
7.829800242176363057e+00,-8.230785968784189777e+00,4.984385141643536521e+00
3.182949982548199053e+00,-2.858119791671607235e+00,-1.100216638821527226e+01
-4.978510292254612613e-01,8.801060037773874578e-01,-9.054115205378638009e+00
-4.906880121836723951e+00,-1.020364640061415945e-01,-6.376917749372479349e+00
5.499181330170742399e+00,-8.402162239464496807e+00,5.601174799167123908e+00
-4.499194145516434595e+00,-8.405059920802784301e-01,-4.384729132767647641e+00
-1.572434107213467325e-01,-1.587230427679547251e+00,-9.834609870994054148e+00
3.873392588173603546e+00,5.832592923543269414e-01,-9.321983231405548409e+00
-3.913877680519743940e+00,6.363605260875470071e-01,-6.928168153893805581e+00
6.577049210803106227e+00,-1.307796468516074118e+00,-9.841964428046745539e+00
-6.264067164863611481e+00,-4.443339979358689185e+00,-4.827988013665154732e+00
6.857662136351935223e-01,-9.130614440050527136e+00,-3.927926729279255014e+00
-6.746682747015861459e+00,-5.618157899753421169e+00,9.684157346982633641e-01
4.331072233722113474e+00,-7.942637525067269166e+00,-1.280901182035188546e+00
5.061372692006323781e+00,-8.457136125205611421e+00,7.430732572210942966e-01
4.839364478115092183e+00,-5.378013621546726242e+00,-6.207295246082322748e+00
8.740319262193883887e+00,2.195110009391463723e+00,-4.081119134925236480e+00
8.529438780678759713e+00,2.075367565060672437e+00,-4.539976601786949395e+00
-6.556987166540803713e+00,-4.246355198039770684e+00,-4.249502060439699136e+00
-3.180285497273636075e+00,-1.098528938101642005e+01,-4.972181109326036186e+00
-5.506191854241070383e-01,1.214659430922052641e+00,-3.297312793130970920e+00
7.715108845978723373e+00,2.564158650232394976e+00,3.423757743688212507e+00
-5.649043075850772588e+00,-2.652494481396764581e+00,-1.605338354819912494e+00
-9.788398010565505514e-01,-9.607532637820041188e+00,-4.714146818136626393e+00
-1.329364102818320514e+00,-3.855541381840331017e+00,6.103026021517960586e+00
-5.235177435150599301e+00,-2.335138513371588509e+00,-2.263401659227453067e+00
8.321938003482639568e-01,-5.553909480513424590e+00,-1.113983071405736069e+01
-2.837008120919568555e-01,3.563150443737504780e+00,-8.016173078512814243e+00
-6.854720940605448121e+00,-4.038712604862770839e+00,-5.784710416505846053e-01
1.153042659835391781e+01,-2.021979172272958092e+00,-4.329527847199237556e+00
-3.298799138694508137e+00,-1.095880621965294743e+01,-8.107293121453940099e-01
-4.280192451347889282e+00,-7.468503580049807411e+00,3.466787100335152694e+00
5.383477251441820322e+00,4.290409494712775107e+00,-2.005594765023140269e+00
9.931275788126786352e+00,-3.904922070485866481e+00,-2.354859508779417965e+00
2.438153648029174558e+00,3.758083790973161253e+00,-7.708571883489998555e+00
-3.032571493673666296e+00,1.598829877404883471e+00,-7.500061133507984756e+00
-3.040268508680453508e+00,-3.097760610520404523e+00,2.370673263384753149e+00
-2.722113211956230128e+00,-1.018972126073309603e+01,-5.919982213391246972e+00
1.229588488907613630e+00,2.547777828425835001e+00,-8.618951264855006400e+00
-1.273931240654856689e-01,-1.077902307026563378e+01,-1.253728979986952652e+00
-5.785735477548920258e+00,-4.475427470054787804e+00,-5.591875574331465870e+00
-4.126166891018909766e+00,-7.490272895875505377e+00,-6.387447400612376036e+00
-2.912946188446317031e-01,-1.661320900415161006e+00,3.288654414806680748e+00
-3.323014611994776768e+00,-9.494726839828860676e+00,-6.833535183983702410e+00
-4.024893264637043444e+00,-2.010056479972566201e+00,-1.059398249254694502e+00
-1.400679092949165483e+00,-7.274741187532045572e-01,-4.391019105079658758e-01
2.246081934156435533e+00,-6.246419140088724120e+00,-7.831744796487082994e+00
2.490291137358259244e-01,-2.993752839642750185e+00,6.575619764746535090e+00
4.448429661944866886e+00,4.212277183512775913e+00,-3.204824014490144091e+00
-5.394136206768426200e-01,3.105189818081948161e-01,-1.480080140884333151e+00
8.849785073962655346e+00,-4.381878352016233436e+00,4.578083770013693155e+00
1.865379390619424482e+00,-5.927792772633106111e+00,-8.972923776331208856e+00
8.607074934614272976e+00,2.400127042273814570e+00,-3.693929974148892459e+00
8.315617060255146242e+00,2.237624861766246642e+00,-4.531981003210413306e+00
4.134144357172417905e+00,4.747491876605297811e+00,-4.880509961272021968e+00
-5.684789074285284016e+00,-8.765314457915349688e-01,-6.134175315985467059e+00
6.241664196430810385e+00,-6.425739334663576940e+00,-1.771494617586452991e+00
7.392489193732988184e+00,2.294958547156271234e+00,-5.914761580501420646e+00
4.095729233026587757e+00,3.882769175541274098e+00,-2.832729435354150560e+00
-6.599902358922233869e-01,1.122565927714426870e+00,-3.319474424073275642e+00
-2.494915103973026405e+00,-8.955877759033348262e-01,-1.103165529015633917e+00
5.066058285573366682e+00,2.836537004627573300e+00,6.296294601754154341e-01
7.234797333203887959e+00,1.321184805477174373e-01,-8.300061016554797888e+00
-1.115973192067834185e+00,-9.472467804072454811e+00,4.226408328363701727e+00
3.959161361012490943e+00,-1.098592045489010793e+00,-1.000449903569329457e+01
1.049058776758899825e+01,-1.809341413902973761e+00,-6.066777968603187965e+00
9.380565135044038882e+00,1.911931485763521676e+00,-2.073655778738312527e+00
-4.484260382425014235e+00,-9.332039146100894911e+00,-3.118958632084943616e+00
9.574052632264205442e+00,-6.298221236906447196e+00,4.070507336590441838e+00
1.179175586403466092e+00,-9.958951083066317267e+00,-1.134286979788706740e+00
-3.254262688331658548e+00,-7.946659805795990295e+00,-7.831026490275188934e+00
9.964837934514214624e+00,-1.430027377386285492e+00,2.052608611119531634e+00
4.140344278008936563e+00,-6.890166547922600415e+00,6.387271558375857694e+00
3.648447834259904710e+00,-1.029034027700783582e+01,3.271705604288061231e+00
9.118570793281033815e+00,-6.792329913747361836e+00,2.770234321993149340e+00
7.871000246498087272e+00,2.926693128366957275e+00,3.092519000113993943e+00
9.164025560003029369e+00,-4.761016040822010353e+00,4.263515837513931928e+00
-5.856135549802401918e+00,-7.753304371528686900e+00,-1.885808853926557838e+00
-2.738548737334254302e-01,-1.199781204522069977e+01,2.339291089422006475e+00
5.378556585987331218e+00,-1.546626679649834024e+00,-1.020130456104141814e+01
-6.912812278255272780e+00,-5.838511340549658257e+00,-4.125273219115391798e-01
5.507023248671545801e+00,2.709855263472327191e-01,-9.033276066768248569e+00
8.262328009604722467e+00,-6.767734393435727469e+00,1.441423684373218439e+00
-1.464331621528495608e+00,-2.610093687241883398e+00,4.059776659209477501e+00
-2.584402789047758109e+00,-7.801493241492999609e+00,-8.709755245998650253e+00
5.461482442151035954e+00,-7.888469871451418314e+00,1.602878091206337841e-01
7.747484949167262158e+00,-7.884785539709612046e+00,3.062448062744666633e+00
-6.482912925490566636e+00,-4.343840076008290474e+00,-4.487319315789276786e+00
4.074830497957849573e+00,1.959482524748762833e+00,8.711328104960389673e-01
1.037309102054862819e+01,-9.917944625951853332e-01,-5.912645965578301244e+00
-2.546723076392862328e+00,-1.011169235862159965e+01,-6.774306574992531971e+00
9.151673549467826518e+00,1.262395001800280969e+00,-4.019551911960871138e+00
1.150230758182442026e+00,-1.128703942030986873e+01,3.875250181909021929e+00
8.946948745126853453e+00,-2.229312859029103144e+00,-7.143008046180539417e+00
-1.652642515402271250e+00,6.284775733250006491e-01,-3.500439344288236665e+00
7.261418378007519436e+00,-7.355817271553766190e+00,1.317734286871310889e+00
-4.950814117805719228e+00,-1.650104665058279574e+00,-7.317239188396562177e+00
-1.663065744444580440e+00,-7.735034675231008627e+00,-9.649089320331299291e+00
1.153426313774071232e+01,-1.822333701201237055e+00,-3.139714956053280659e+00
7.635431747112177092e+00,-4.101716026998360576e+00,-5.267036552397725835e+00
8.725437092655178972e+00,2.745191754818136154e+00,5.712858893425847295e-01
5.341570049305317536e-01,-5.835090065436777884e+00,-1.116452409999772932e+01
1.406840543569179314e+00,-7.223178575300759796e+00,-7.017060076422632520e+00
1.032864141552624204e+01,-1.963016421751369922e+00,-5.857657695201837100e+00
-5.976621955517330775e+00,-1.584664631493739151e+00,-6.296503785879803416e+00
7.349755253858407222e+00,9.149530846227286185e-01,4.912355783071040705e+00
7.051911299388597953e+00,-3.763168169704939281e+00,-6.688721885521269783e+00
7.732513087942657570e+00,-3.069358675326352426e+00,-7.119584320465442318e+00
-2.811869775196580434e+00,-2.703445268950229963e+00,2.395760554815425269e+00
-3.534962314354372914e+00,-7.112500104136788792e+00,-7.650450441817860714e+00
-4.511800441661968919e-01,-1.068103260213398542e+01,-2.033163837460943757e+00
-3.394854746330690176e+00,-1.383403507910660801e+00,-1.468865602145774441e+00
6.710600526693998980e+00,3.331877600814966200e+00,-5.417685109337455174e+00
-2.221028106108864808e+00,2.292356871077151581e+00,-7.685693954322275978e+00
8.813567042962638709e+00,-3.880247568561185911e+00,-4.313936350461027303e+00
3.454008743608453891e+00,-6.521228601384410517e+00,-5.868214162605907447e+00
7.001198768477088663e+00,-5.274388992338708171e+00,-3.514445193702969039e+00
-2.256290266187706450e+00,-1.141111903946531214e+01,-2.997891006964045424e+00
-7.025166818520205858e+00,-2.913642912283239017e+00,-4.564900319284774355e+00
-1.986410339359424848e-02,2.250099046573808881e+00,-4.937260753861862916e+00
-3.150909652921636273e+00,-8.450821540456013636e+00,3.503811748925955261e+00
-4.348231132588514791e-01,-2.356034519834201202e+00,4.644291374461323230e+00
2.323784019816125479e+00,2.715449304848850609e+00,-2.320103208567015241e+00
8.074386965166004515e+00,2.580507480559117273e+00,-3.818427314814817120e+00
-2.004149812618420332e-02,-3.744697402254824059e+00,-1.040060657913909914e+01
6.326674458798900780e+00,4.719006375132074993e+00,-1.541795713619011465e+00
4.375402441145990196e+00,1.536571370575825046e+00,2.562101072345459141e+00
-2.835694389304760588e+00,-7.278043908841755893e+00,4.962650705465134315e+00
4.845116269647128604e+00,-3.097129915034919190e+00,-1.108687047225016897e+01
5.009633337686000942e+00,-2.805266874043886194e+00,7.035754681553965106e+00
-3.168121786920064409e+00,-5.408459209924873612e+00,6.119244909239387908e+00
-6.047568426765948857e+00,-6.846092430652591432e+00,-3.971034866963277232e-01
3.401300106222925557e+00,2.089787087023998513e+00,8.763460688820419453e-02
1.132277025964440931e+01,-1.424602103316997326e+00,-4.941758201757255442e+00
-2.108095613052141992e+00,-2.497858758507044197e+00,2.748875956898428896e+00
3.967225241616981979e+00,-5.420841974269213104e+00,6.878303314259018642e+00
9.907036230450334102e+00,-5.711559961176539524e+00,1.469408938844898760e+00
2.422116778727155806e-01,-6.427806136931347503e+00,-1.031884320689388979e+01
-7.544132417114311762e-02,-2.272861305716671332e+00,4.500548368088748141e+00
7.727695224786623740e+00,4.254812027052845558e+00,-1.208015600875526729e+00
7.281400809917054850e+00,3.250652620931512526e+00,3.081101556288532439e+00
1.140869939740017713e+01,-4.281373919969186481e+00,6.789540422367882355e-01
9.482620589234256769e+00,1.523589138580914382e+00,-2.459173288520352385e-01
4.794112168337593793e+00,-6.293718133841605500e+00,-4.260198595099467411e+00
6.240131441285153180e+00,1.893461449648005113e+00,4.605812258208607624e+00
1.853264740291936885e+00,5.188460252269596618e-01,-9.539671557925753831e+00
-3.314428613055007578e+00,-9.450089979756093328e+00,1.890324463549422962e+00
-2.075034918400464168e+00,-1.036088819049238907e+01,2.373589995413130094e+00
4.545053081503170667e+00,-6.526735700849124022e+00,-4.012087866890518661e+00
8.864734389643354362e+00,-2.811218536256625544e-01,3.327169316337884819e+00
-5.046831611634307713e+00,-8.403381658436375190e+00,-1.776947510452792311e+00
3.976682852564387360e+00,3.606324701874688898e+00,-2.440258595186549861e+00
6.681255640854985245e+00,-8.352744326076006587e+00,2.850446345596266529e+00
4.820992127654708526e+00,-4.570151504841968304e+00,-7.799936248730419130e+00
-1.751238647348433985e-01,3.072716478091948478e+00,-6.859128179214743604e+00
9.510918324206611985e+00,9.744335016261566063e-01,1.102479381880717924e+00
-1.064264909859245350e-01,-1.042508904301397976e+01,4.088840178876568032e+00
-5.449623543730919728e+00,-7.875732885783833126e+00,-1.578609931941168165e+00
-2.067558976176282481e+00,-1.184889458443736387e+01,-1.925370506635008860e+00
-3.540396333320080746e+00,-6.594251901732611110e+00,-7.876777898625094032e+00
5.005810837633815069e+00,-6.479640300335506531e+00,-3.368122202958574452e+00
-1.953834555873917855e+00,-4.350217055776465891e+00,-9.672371691917851066e+00
1.009673688035065098e+01,6.773976916138441107e-01,-1.115270381111527431e+00
4.897800273198168242e+00,-3.069587176974871934e+00,-1.105568466655192950e+01
-1.853522552607854701e+00,-7.306806798538336700e+00,-9.466539878198723557e+00
-1.543846263549795594e+00,-1.164817404552296409e+01,1.484597646752118250e+00
1.740245549493939059e+00,1.797726522161737117e+00,-1.473020354242205565e+00
8.901585721464179812e+00,-6.394942769698457319e+00,1.492110525309383595e+00
7.743614006458074961e+00,1.965758761169529745e+00,-5.636255245513690504e+00
5.407944459912561008e+00,-5.679601124122902966e+00,-4.285673875068867211e+00
-5.720556146472536518e+00,-4.973856981677173827e+00,2.526325316178657410e+00
1.613658903442250381e+00,-5.920721817378495899e+00,-9.296307888133023667e+00
-6.810576190764982663e+00,-5.263803898403691228e+00,-2.809282681081900712e+00
1.293566138533416732e+00,2.047512584137030078e+00,-2.915710445970951969e+00
4.230352093747614894e+00,4.065528766947364758e+00,-6.738100460395238578e+00
1.022661590732590575e+01,3.037983752405699622e-01,-7.091010079543806910e-01
8.710052362759013178e+00,2.230363058983433344e+00,1.130593861289165281e+00
-6.597389492589994520e-01,-8.375564950386150898e+00,4.978758850330337715e+00
5.032019296210435755e+00,-8.220462774178516341e+00,5.686592466040823801e+00
6.364874424186444557e+00,3.450296534407191196e+00,-5.557167054232536429e+00
-6.738351365144540139e+00,-5.684992942560860740e+00,-1.843077751527884889e+00
-5.073663582907280478e+00,-2.785458392149225748e+00,-7.238595139075929552e+00
3.618805225460211439e+00,-8.558143974722970171e+00,5.754459693986270885e+00
1.076388076925986503e+01,-7.191688773988417216e-01,-1.315577810162928740e+00
-1.063172809004304442e+00,-1.214677713635667189e+01,7.549063626900909263e-01
2.062713079895262869e+00,1.052756452919070052e+00,2.903335692775546040e-01
-3.112166530974468603e+00,-6.916173898566662537e+00,5.301272384362238910e+00
-5.350292210387802783e+00,-8.090539998745757799e+00,-1.003514012986603365e+00
-6.845608330996224566e+00,-2.536040085351365825e+00,-4.990317121680207357e+00
1.029792236028944430e+01,-4.217241432122384559e+00,-1.715499346446097473e+00
9.981692053156308475e+00,-3.108967459565930902e+00,-4.276664614349181548e+00
-3.230593076381039985e+00,-2.592597093059276214e-01,-3.706018105448289912e+00
-7.296304191006267814e+00,-4.134688651530104231e+00,-3.426365465380550202e+00
6.617325117815582303e+00,-8.170172494594490686e+00,2.385223000182446818e+00
-1.239181470319620539e-02,-4.985684242623721896e-01,1.403543700420496476e+00
6.213683585651010866e-01,-1.117098433331968010e+01,8.170580055866020208e-01
1.068940129661790017e+01,-8.838779175033383284e-01,-5.219937420380877491e+00
3.920701800689003202e-01,-3.975548397386237998e+00,-1.077287668743121429e+01
2.022481966273911524e+00,4.139468994039839700e+00,-6.500704961160861828e+00
2.744977145162346144e+00,-6.094913395471203366e+00,-7.962970387385841953e+00
3.676756545831650902e-01,-6.890414580498713804e+00,6.441859968690588190e+00
8.697742954713906016e+00,1.455453841548301208e-01,3.537058777561601364e+00
1.090979640004542439e+01,-2.171175478134601988e+00,1.234037966783775753e+00
-2.397330591662461874e+00,-7.688831030999313754e+00,4.710943841774369645e+00
-3.975082902340393520e+00,-4.963440332127749599e+00,5.371379176950472178e+00
-2.190641377930842459e+00,-8.262177035591356855e+00,4.382585471271854161e+00
7.113816556206669084e+00,4.587491724884896094e+00,-3.228130899472601456e+00
4.523892229128764875e+00,4.631059328784478346e+00,-6.179941963006582384e+00
1.087720820327523708e+00,-3.165318523353017888e+00,8.204877833986635949e+00
7.409649633019169457e+00,-8.942186316014797409e-01,5.398574243987792620e+00
8.584767840132697003e+00,-5.410922428146539787e+00,4.935766775303370046e+00
7.023021309073143925e+00,3.853010592735718998e+00,1.686204017315682702e+00
7.829276464945370329e+00,-1.453255454288493453e+00,4.895856702492975998e+00
-3.309767232164329442e+00,9.252878978603837901e-01,-8.055198067786653482e+00
5.953329116699470624e+00,-4.304107047633833893e+00,6.348508480997304915e+00
-1.314944502292170858e+00,-2.155103842089234056e-01,-9.154262896453447595e+00
-3.548492869724830800e-01,1.908499814239453141e+00,-8.843605592565287665e+00
6.596604167873380220e+00,5.291032708197267453e+00,-3.249781663951173627e+00
5.069653396547086466e+00,6.580397307460864598e-01,-8.781910989081108454e+00
6.563071103006342000e+00,5.008328285663945501e+00,-3.073554764516541749e+00
2.314854433190406180e+00,-8.226955354957706135e+00,-3.468741306622177945e+00
1.104509614909807347e+01,-4.761972418914645289e+00,1.257662353585245585e+00
7.916794347151108191e+00,2.402346873170129626e+00,-5.162323452682864300e+00
-7.826488808332496827e-01,-7.515999818822495016e+00,-9.480867918932775140e+00
7.976380984068616453e-02,-2.350426244213779992e+00,5.587362808065227782e+00
-4.765133601229774030e+00,-6.238632862014886982e+00,-6.320346461913074698e+00
-2.945711997874639554e+00,-1.004815289161463276e+01,-6.906592697797003133e+00
8.059901024806521264e+00,3.573796054661787291e+00,1.313469526265192311e+00
6.811024970705669368e+00,-4.167225832646582973e+00,-6.050313985336386757e+00
-2.732341805529952872e+00,-7.923831966484208067e+00,-8.348383330703041949e+00
9.942567325783931764e+00,-5.717338212887367099e+00,1.331724038027041424e+00
-3.343659889939668783e+00,-1.711032494232086032e+00,-6.851937675709705022e-01
1.044412532354479062e+01,-3.356029282965205529e-01,-4.062147752700974168e-01
1.124354585020128106e+01,-2.943372844108067099e+00,-2.755199892113642246e+00
1.506563265971143650e+00,1.833485677151353466e+00,-2.070292206893998177e+00
2.120262019709025780e-01,-3.105105021330775372e+00,6.986450182086339389e+00
8.085469792833216429e-01,1.147052131413966114e+00,-1.460051428662535011e+00
4.529982827098703702e+00,-1.750088663734646222e+00,-1.037742577281785117e+01
-2.563143170115969927e+00,-1.164869539483832916e+01,-2.579914343829696310e+00
-3.988999461649893163e+00,-4.710903037581507746e+00,4.838029080412949767e+00
7.242417611172256464e+00,-7.148591910045511533e+00,8.216157387454212646e-01
1.153747380200500317e+01,-2.706511394644433910e+00,-2.700820811057113691e+00
5.915305836952782670e+00,-5.281243922074806640e+00,-4.663876974930648345e+00
1.945568295727624075e-01,-7.705600944665272678e+00,5.935860365679674011e+00
6.233310791370804793e+00,3.660429707911339481e+00,-5.873828080587904843e+00
-5.993710814772231110e+00,-1.794851630283625932e+00,-6.199281375527670335e+00
4.897606711483218689e+00,4.465049616313581993e+00,-5.884355917445989625e+00
2.089381489359522615e+00,-1.117962120287984362e+01,2.894009871802629696e+00
8.592958490886465350e-01,-7.607343464163851543e+00,-6.571157272276094474e+00
-6.144210120572888734e+00,-6.773035386915122302e+00,4.795343688397906701e-01
2.214983648708865882e-01,1.074668129158908858e+00,-1.701199074429498026e+00
3.615421056649673393e+00,-7.297612981875703397e+00,-3.510789201058337916e+00
6.960964118749910057e+00,-8.717496474779723670e+00,4.118993562936264397e+00
8.557986505320238635e+00,-4.126458389712308161e+00,-3.788737845302318608e+00
9.034576640745926923e+00,-4.398443432279373511e+00,-2.937886845213779186e+00
7.248787390141466780e+00,-6.319055322245096917e+00,5.470792844624222440e+00
1.025825902072669926e+01,-5.405486356528521164e+00,3.417216977865286331e+00
5.238707485984456014e+00,3.396008324323412264e+00,-5.452886838779081868e-01
-7.083430571164458733e+00,-5.350984156675494319e+00,1.636260869171185794e-01
-1.354795525105741971e+00,-7.338748255975573898e+00,5.776567928704673172e+00
1.086646781991941246e+01,-5.535495696623049522e-01,-1.476329563704940506e+00
5.846263155655759824e+00,2.070688443933522915e+00,3.587152426364592639e+00
1.123611143922861544e+01,-3.053022467266063522e+00,1.167325147788406792e+00
5.410324515322137984e+00,2.178506924617032325e+00,2.663039454592035060e+00
-7.450654176467198520e-01,-1.189334410833091304e+01,1.830753727920982010e+00
5.837249698753806948e-01,3.167398587189013348e+00,-8.347894383091693626e+00
3.555472038877529162e+00,-4.932905864701601750e+00,7.006184716165559934e+00
8.172677305977225970e+00,3.585213697206715455e+00,-1.883479618357881025e+00
6.211239879845681600e+00,-8.011484897611257594e+00,1.758814960339344813e+00
3.399307790380131866e+00,-6.304163550513139036e+00,-6.316969454872848999e+00
-2.622380001220152135e+00,-1.167062843834390762e+01,-2.238984119146336216e+00
4.941817137253433079e-01,-1.090538932455784682e+01,3.249842957023156842e-01
7.802195993362176729e+00,-2.759684650193871658e+00,5.333150343321342746e+00
1.022315230589776469e+01,1.949613451864047609e-01,-2.212086793795325634e-01
-5.450257455907981274e+00,-4.063341893532715687e+00,1.631134265510750803e+00
-4.014292624677683108e+00,-3.895411406444028390e+00,2.956932046610663001e+00
2.742229944604847702e+00,-1.941002937146428353e+00,7.574104183882540475e+00
5.555865215575559013e+00,-7.596276687554833984e+00,-2.533885599659055354e-01
1.045842500074532833e+00,-1.929420538876315927e+00,5.054203911514293601e+00
2.277700814120446005e+00,3.297070779508532112e+00,-4.197418864460439103e+00
4.434195610471469706e+00,1.665539061104072349e+00,2.408742904760665660e+00
-2.620830047168299259e+00,-2.846351926558295720e+00,3.087838184522980978e+00
-5.038968313441421820e+00,-1.118059762265347423e+00,-7.476416550146320894e+00
1.606023255016121087e+00,-4.469683789168040766e-01,2.814981447077310683e+00
6.110067784797274193e+00,1.044083920744075078e+00,6.160487901096444396e+00
-3.626079380710955480e+00,1.092990668623465389e+00,-8.251329927968248157e+00
8.976367066762312774e+00,1.886889748568564729e+00,1.353028464584228041e-01
5.409229413602505865e+00,-5.245284726676152864e+00,-5.639491357736768684e+00
-4.439935726076529754e+00,-9.379492268471867789e+00,-6.483166523696767269e-01
-2.337471292771482911e+00,-1.753068426054454898e+00,6.188712585091021845e-01
2.949870934729938554e+00,3.915897247724987373e+00,-4.469684984401065542e+00
9.012126107554850885e-01,-7.144739818848020008e+00,-7.663362363366759133e+00
-3.991211353992634159e+00,-9.730840768592639023e+00,-5.300519511778374326e-01
8.191864255967775676e+00,-3.400415945627632830e+00,4.648196779861413219e+00
7.710254132537136762e+00,-2.608147344620095343e+00,-8.547085715153384555e+00
-4.567331399092306454e-01,-1.045744860240716889e+01,-2.328870441015368886e+00
1.339148704421072811e+00,-1.986612149923235204e+00,-1.054269308040892916e+01
-6.202255301332031401e+00,-5.009984403337162995e+00,2.619122355667372393e+00
1.259182708349112723e+00,-6.983576963501037405e+00,-7.517082619912024199e+00
6.124775310097148484e+00,-1.243943079255407369e+00,-9.702535795897615500e+00
1.907311155189013396e+00,-1.123532774265654943e+01,2.305085074719841476e+00
8.095782547170959020e+00,-2.429784090051376744e+00,-8.408812848733488110e+00
3.814178937243830614e+00,-8.876820736308946636e+00,5.430137614689720671e+00
-7.309600090966182684e+00,-2.989623789975319301e+00,-3.448261263737467441e+00
4.574961486236967190e+00,-1.057780396015073343e+00,-1.006234166255430651e+01
-1.975649650039265071e+00,-1.816548797778208657e+00,1.116591399591091660e+00
2.066298618664051734e+00,-5.766566291907111008e+00,-8.976891081150103702e+00
5.422507775155096077e+00,1.307401480333300503e+00,4.398220828453879960e+00
5.266288297364362769e+00,-3.116130595154318783e+00,-1.031026113631835806e+01
9.073752443986085936e+00,-6.464732073740597329e+00,1.817219778838323307e+00
9.995365625837695944e+00,-1.863857075923754492e+00,-7.076478697521682015e+00
-3.520451466621731473e+00,-3.913141082954122663e+00,-8.373162587450073246e+00
-7.297131640202290936e-02,1.133756142806908285e+00,-2.511286893953428745e+00
-6.372797287761029494e+00,-6.290483148497393984e+00,-1.652544551974695741e+00
3.350723770745757779e+00,3.891611861982527287e+00,-3.638242346751909828e+00
2.677926748433905768e+00,-6.562561067889451927e+00,-6.740274158498761103e+00
-4.350448933294427611e+00,-6.121653740606689986e+00,4.948603472345184606e+00
2.524657268845766911e+00,-1.868549518178972857e+00,7.601508711617620762e+00
7.255795418741328717e+00,4.615436108980621732e+00,-3.419223244860274957e-01
7.461366289925075890e+00,-5.894524654416368747e+00,-1.404792470550245698e+00
4.548380575942105319e-01,-3.389802853227597002e+00,7.956756339641310127e+00
-5.425805841669911755e-01,-1.215921924321636105e+01,2.081921836293775918e+00
-6.064929629868990979e+00,-4.471770249209530590e+00,-5.659946706905213176e+00
-2.676343884155295338e+00,-1.274904920241083373e+00,-8.898077786029084280e+00
-5.209762729290829064e+00,-2.535434138431219342e+00,-1.669210827102464156e+00
-3.877378024536012546e+00,-1.049629542175570585e+01,-3.206148522397927803e+00
7.939174059962994967e+00,2.214175444582466401e+00,-5.303925610214727193e+00
-2.963056592175579707e-01,2.916423305963836476e+00,-6.635981529589554562e+00
-5.301800098907462733e+00,-7.466649703584960385e+00,1.556720022187400243e+00
1.119914040110504949e+01,-1.511534712716644524e+00,-1.637800745195698848e+00
-1.672904086549961367e+00,-1.083802717407092508e+01,-2.747179147699250645e+00
1.327573106262972980e+00,-6.679573160252898489e+00,-8.080490161494868318e+00
1.833141783502896915e+00,4.393695617865545522e+00,-7.278752659450901774e+00
-2.972117767014471612e-01,3.171313205390974943e+00,-7.165370667668233828e+00
9.746838688505171433e+00,6.423283433394060271e-01,-1.599078976344545100e-01
5.837247240260531989e+00,-9.523434683366005515e+00,5.137208133289020040e+00
9.018965005871599772e+00,2.679150659594669914e+00,-1.196748033233240305e+00
1.295960774200348165e-01,-8.969595529602437667e-01,-9.937731850718604321e+00
8.202978973815142183e+00,-4.852230345058704764e+00,-2.457449561550599793e+00
-1.536657719267129574e+00,-1.516461806942265511e+00,-9.512498035610528646e+00
-2.994960516515577265e+00,-3.525870479602787100e+00,3.682789039045903934e+00
8.922655749298045169e-01,-9.033701871344314682e+00,-3.958406549739287072e+00
7.591270470232988288e+00,-3.078573346984566639e-01,-8.356429283238714589e+00
-6.943116748995536547e+00,-2.091503588567248162e+00,-5.088600319852805143e+00
1.090203136852363475e+00,-7.817103158989365141e+00,-6.048605910606644542e+00
7.081733542567849149e+00,4.292423163360494343e+00,-3.266657473428874248e+00
6.057816935745761633e+00,-4.906527751265477022e+00,-5.752357219342584926e+00
-4.922499181667196133e+00,-5.486109543598311156e+00,-6.738928489348070983e+00
1.719009748153068395e+00,2.937126719204021352e+00,-8.294787583170062817e+00
7.268412499472933774e+00,-5.838122346831488230e+00,-1.971549995862451832e+00
2.351570193596051350e+00,-6.779381457946979772e+00,-6.488386687976588796e+00
-6.471070939203902306e+00,-6.282985582456316109e+00,2.244637257551673482e-01
-4.419461941089199541e+00,-7.817821005153195557e+00,2.881232979452764020e+00
7.816009170078074497e+00,-2.832733192854401061e+00,5.450409496257444530e+00
9.781504320978138267e+00,1.117109101589287778e+00,-5.187890553081652145e-01
-3.245281525853448201e+00,-4.205637396048733656e-01,-4.113078673492976733e+00
7.781365078278163594e+00,2.617699912685849561e+00,-5.222068582545754900e+00
8.575743228307668886e+00,1.066626671117468783e+00,-5.856262555658057423e+00
-1.790619619290802378e+00,-8.930055805066468011e+00,-7.396694626948873363e+00
4.441460765873879168e+00,-9.173924235703356800e+00,1.383974970594915810e+00
-4.468414364033820085e+00,-9.372806906595313237e+00,-3.828631160744448092e+00
