1.188884731167145548e+00,-1.173318415591150732e+01,-3.300011670496462379e+00
1.119396775176954240e+00,-8.534000290501628783e+00,-7.712330030268422121e+00
-5.684156745233209129e+00,2.807465198665390904e+00,-1.134768965120601969e+01
-9.104383656730204777e+00,5.475201812662073841e-01,3.229829711487624877e+00
-8.990838029349390581e+00,-4.850822583960447076e+00,2.421622541768739367e+00
-3.234604356831767280e+00,2.853259330751550138e+00,1.142236222109501848e-01
-9.864493868458893644e+00,-3.744203112697288560e+00,-4.006121376110596266e+00
-8.863813110157309438e+00,-7.035425882346265425e+00,1.537783597372460953e+00
-2.495970895239659093e+00,-9.891547903279381160e+00,2.370025358938436355e+00
4.060989690765181237e+00,-7.799677757156759483e+00,-1.018151585046168606e+01
7.185789095560665807e+00,-4.262731691234157849e-01,-3.797877347461666719e+00
5.083689964458453225e+00,-4.972373631133366167e+00,2.881979807255041770e-01
5.270604000869419714e+00,1.191916004193923184e+00,-8.487824245185391803e+00
-4.418338880810694036e+00,-5.756714306361624622e+00,6.040006122250615839e+00
-1.117899799592383614e+00,-2.700727371598573012e-01,-1.193421320749639492e+01
1.711086730346679019e+00,-1.147096426225892607e+01,-4.239191663173900615e+00
-4.634651791830562750e+00,-9.337439783903239032e+00,2.293039718330999843e+00
-7.042418627407867504e+00,6.113964047650046751e+00,-1.015979529570871787e+00
6.731762575221830858e+00,-2.545238271088080761e+00,-7.173319492951067744e+00
1.719530970776373291e+00,-3.302502661089099956e+00,1.203610978425203815e+00
-3.788057704495977784e+00,-5.709007014704575944e+00,-6.720828670072311439e+00
-1.927945608323419213e-01,5.001745505257611413e+00,-9.247106673454187131e+00
5.026594861802498038e+00,3.850186439866087440e+00,-7.235944483444203712e+00
4.229305480934675288e+00,-5.454844839838865589e+00,1.167011674701047275e+00
-3.640360592797135530e-01,-1.155676234018088167e+01,-1.215711673137180426e+00
1.849453834304007227e+00,-7.152418150888968817e+00,3.605062285910446196e+00
5.314007916251258123e+00,-1.326241376419573959e+00,-9.146624939355247008e+00
1.908508655951886679e+00,-6.209589372071382840e+00,2.962484842218572556e+00
3.778458662614633035e+00,-5.866264926624596754e+00,-1.096081394406053100e+01
4.924557962782970755e+00,7.355309010341046783e-01,-3.719964556724500326e+00
-8.625211101556569560e+00,-5.724108231270527369e+00,-3.439297060892118285e+00
-6.897655009073422328e+00,-1.052827732251154202e+01,-1.385761364334727519e+00
-3.788315478111549339e+00,3.389413795415309405e+00,-1.169005159722484954e+01
-6.461055136669402010e+00,-8.031466780069392186e+00,-3.217022441107966202e+00
-3.650452897203254610e-01,-1.248365742785349042e+01,-3.171324316304668045e+00
-6.298192298828098501e+00,-6.671543499296906710e+00,3.997209864195798712e+00
-1.205185666496133479e+01,-4.418983887246542785e+00,-1.759853557388239231e+00
4.061656039306200228e+00,-9.951079041687568960e+00,-6.171357734766559133e+00
-8.257087112720691735e+00,2.595227094937875290e+00,-9.635126540467945588e+00
-7.915157302977964271e+00,5.072843899650277599e+00,-5.121321615553499740e+00
-4.203846229414277325e+00,-1.193980023217639364e+01,-1.032201118863407485e+00
-8.819899001798795490e-01,-8.203491358457615235e+00,-6.820453137876986816e+00
-6.559215369687914965e+00,2.973465585262878186e+00,1.841939935486374580e+00
3.157093657586000912e+00,1.079624537496277625e+00,-1.066482952451062971e+01
-6.568769396840854924e+00,-5.114779859210950796e+00,-5.299938107437676571e+00
-3.568261944815085407e+00,-1.060879188161312392e+01,1.119626814143018567e+00
-1.831158942341656770e+00,5.154080335751067388e+00,-9.382885712718387339e+00
-3.296549572514090976e+00,-5.717504191186119300e+00,-7.026379683550552535e+00
5.474666701590795270e+00,1.402081139168075419e+00,-8.078554997864674903e+00
3.415175231290574320e+00,-1.023663703031233041e+01,-2.924070707315236550e+00
-3.743681460349729928e+00,-1.242081948964684202e+01,-1.271492433437681813e+00
-9.275591245227891024e-01,-8.622400155880331596e+00,4.323449048656500260e+00
-2.358492154147205699e+00,3.370990588156306700e+00,-7.847270281858791385e-01
-1.097239195770939091e+01,-1.343622477601016607e+00,-2.561634238924881402e-01
-1.666989291010572138e+00,-5.484125899069137944e+00,-7.895317801518362266e+00
-2.650819133622700718e+00,5.214854566891109044e+00,-9.238989617288833500e+00
-1.171441728552606065e+01,5.541741953734166115e-01,-6.097918144659945305e+00
-3.844164405971735476e+00,-7.818412625301583985e-01,2.914154577904610743e+00
1.975830569157992489e+00,-1.182520885825310408e+01,-5.562283727615437101e+00
3.152020813819110145e+00,-9.834720464816552266e+00,-8.234320725255368956e+00
-2.778280352712108936e+00,5.503687134269287462e+00,-1.940404537508704452e+00
-4.514632459372410089e+00,-8.209788766780332647e-01,3.333047464675930271e+00
-3.800449085203357225e+00,-9.772135704528048805e+00,-3.662766247667596620e+00
-1.044768536519529789e+01,2.050589813639930981e+00,-2.176829580045902990e+00
-8.729324348544208689e+00,-1.009825752673580723e+01,-6.940146438609747781e-01
6.386577776195430101e-01,-1.057291817000738199e+01,1.159494823237449818e-01
5.121751962859561580e+00,2.800367196241445811e+00,-7.650055382674812776e+00
-8.790830689217280280e+00,-4.119623996079146089e+00,-4.942576281774003988e+00
-1.654444534115963261e+00,7.402251214758659437e-01,5.898404110034178860e-01
-4.910406648636367777e+00,-1.080404803823695836e+01,-2.487688413680691379e+00
1.155210717360315886e+00,6.266387907499538557e+00,-7.017787599200103088e+00
4.325873720225570374e+00,-8.711028163324645135e+00,1.014889178123966840e+00
-8.295403974298176664e+00,-5.494901969368311434e+00,-4.159260745997118924e+00
4.133404146138832225e+00,-3.003671237341080769e+00,-5.448349107977796812e-01
4.542674882003036707e+00,-2.254396297103165470e+00,-1.083024000105790696e+00
-8.372924941171765667e+00,-3.499711519156664341e+00,3.802497573845560641e+00
1.709412947035672037e+00,-8.564124450083852480e+00,4.002379951235756295e+00
-8.249782470534384515e+00,4.373756798263031875e+00,-6.399238680181269956e+00
3.964728789115648411e+00,-7.146541843847840525e+00,2.258048958066896983e+00
-2.555556069012651754e+00,-1.977531749516068915e+00,2.993641240283410276e+00
7.969310771691484607e-01,-1.064234843312864243e+01,3.941907830343138047e-02
7.761141173465456511e+00,-1.781128929302692399e+00,-5.338432980530786409e+00
2.906425988940364302e+00,3.470984764114762644e+00,-9.190578727091127220e+00
1.972190031417045963e-01,-9.327687018253719486e+00,2.663624103365083595e+00
5.178768619421910024e+00,-1.073471741241798449e+00,-9.264176753168577250e+00
-6.792796744526203856e-01,-4.070069242094128681e-01,7.275227129230645851e-01
3.000300118745967914e+00,-8.476051683726831598e+00,2.989627927778323979e+00
-1.061738605863869900e+01,8.519870751166447320e-01,-8.424467955389783880e-01
4.555851896057249162e-01,1.046006050532482856e+00,-1.092297898191524563e+00
-5.708023905466278691e+00,6.575224603634280740e+00,-4.321423557989731989e+00
-5.086680736090414712e+00,5.439404515490519287e+00,-8.332577745077085041e+00
-9.766645109912202471e+00,2.566971981125565350e+00,-1.259254436350759621e-01
4.924543040411514028e+00,4.277578493071212407e+00,-5.805952452956002041e+00
-1.056027200223800833e+01,1.551087983333178766e+00,-1.271609206301026251e+00
-1.155640002333830552e+01,-4.012483609643718196e+00,-2.975616067998205772e+00
-4.987447357990108188e+00,6.423153665833795323e+00,-6.225440549689010616e+00
2.271956903980993925e+00,6.004215151331809608e+00,-7.221216296481999919e+00
4.069133881444350287e+00,-9.510075267798816512e+00,-2.434079708923212682e+00
6.579276763404441120e+00,-5.153948414950439094e+00,-6.053243751460133382e-01
8.541521848230292591e+00,-2.245840270048738319e+00,-3.785408847217368145e+00
2.152138894453284657e+00,-5.625100690190410369e+00,-1.027656115775317858e+01
-6.444996520548889052e+00,5.813350563406523008e+00,-5.832563070436339814e+00
2.835251640675793716e+00,-8.945056672212510662e+00,2.305772992710640956e+00
-9.224845648946399024e+00,1.617842406289890400e+00,2.151615511728760310e+00
-1.102935420174004477e+01,-3.545209822892034346e+00,-3.629298772537069784e+00
-2.298804241185801622e+00,8.139141668388329975e+00,-4.046906211027867961e+00
-4.765163591495552353e+00,-9.171076423069402850e+00,2.489915195853229068e+00
-8.255908513608886778e+00,4.784748118638046499e+00,-1.169449689762780853e+00
-8.140111232194660928e+00,2.354090731451046192e-01,-8.221582148302220006e+00
4.299946593844365061e+00,2.887662256225460577e+00,-4.386304748025556144e+00
-8.323290098897029310e+00,1.398205540969438498e+00,-8.631214709406755503e+00
2.833332603013786866e+00,-1.067156385218826919e+01,-4.228976006610083438e+00
-5.757837280903467914e+00,-9.551179903320099029e+00,1.919656498563196090e+00
8.737541153747256928e-01,-4.649442523934435023e+00,-1.017602126862444933e+01
-5.458840747639333912e+00,-1.125922505306551535e+01,-1.958708239907122506e+00
-7.536680708923293004e+00,-9.401105450662690544e+00,7.722131323524676905e-01
-2.676421247753094868e+00,-1.474178962098458889e+00,2.767170569204494335e+00
-8.853937513332509113e+00,4.190416586689579503e+00,-5.085491637259127451e+00
2.819863563799841266e+00,1.935458555483256626e+00,-1.023949098266644420e+01
-1.142073852682414525e+01,-1.702263519092553468e+00,-4.578998987170249002e+00
7.855222879603485087e-01,-6.838187571669745779e+00,4.107760133336097574e+00
1.800776995860581486e+00,-8.594910144679468900e+00,3.795503276616195798e+00
4.505959968653076686e+00,3.252394319838160186e+00,-7.847807701633352728e+00
5.159175198473445745e-01,-1.203916746786191716e+01,-4.881541319315250149e+00
-7.958206072964697064e+00,4.666042042333057971e+00,-5.613951492217871930e+00
1.808228913309496200e+00,-1.050834142540631611e+01,-8.166885544233819516e-01
-9.033973920011317826e-01,-1.199818024167937836e+01,-1.675025608183017933e+00
4.209510775111978020e+00,-9.016501453192583782e+00,-5.375853428606508499e-01
-1.063005697932069227e+00,-1.164556941631041376e+01,-9.132582730464439136e-01
-2.262420975571748816e+00,-8.847058619483670228e+00,3.572528208927851612e+00
7.352444563280177370e+00,-1.742832881859964989e+00,-5.682532530791791103e+00
-4.814103978798477956e-01,-8.477736338462008803e+00,-6.719958909525166391e+00
-1.961488056818116110e+00,2.146488771549284746e-01,9.806168086861782873e-01
-2.994436147715652030e+00,4.503894383285586556e-01,1.500949831464497564e+00
3.000231933351886315e+00,3.985663315030431697e+00,-4.503471136667315022e+00
-5.112789806491323752e+00,7.688632099420415145e+00,-2.377419491030257515e+00
3.089309484747334356e+00,1.063474930892998493e+00,-2.693702245489006941e+00
-7.490928475851566404e+00,4.188741084474990828e+00,-8.348552235353166040e+00
-9.537562216829801542e+00,2.135823844449086906e+00,1.352262703018396017e+00
3.525673131545165706e+00,1.223634220873294903e-01,-1.083477508712904047e+01
-6.152235443992715602e+00,6.174048954523431831e+00,-5.061880190958810921e+00
-7.862246148673150081e+00,3.826282212418183004e+00,-9.193946054880024477e+00
4.123715014653401845e+00,4.586837285443447598e+00,-5.806888568591211275e+00
-8.687954678545668941e+00,-4.746684588008849737e+00,-4.209766782276428643e+00
-4.274930693638939738e-01,-1.231635686888997228e+01,-2.791979838443006567e+00
-3.409953506792935851e+00,1.224762983537487138e+00,1.481373369502695825e+00
-1.924317602472168209e+00,-1.304029365968838761e+01,-2.937367011527960425e+00
-3.785247025074080174e+00,6.453264438696674432e+00,-6.553154392553300234e+00
-4.340575015140120563e+00,-6.121304650651972601e+00,-6.124827593548310745e+00
-4.272520954530059534e+00,-2.252141310746473390e+00,-8.649231105966036282e+00
-1.135695493892134245e+01,-6.455012848498369316e-01,-1.241555652872524673e+00
-1.775475868092796228e+00,-5.583864479614552678e+00,-8.060187709962679747e+00
-1.080023291441916733e+01,2.246560193759916668e+00,-6.702885374044563527e+00
-1.186157550272476335e+01,-5.736272577422884211e+00,-1.814140785259768407e+00
-4.154820595072631129e+00,6.013152651824174910e+00,-1.505307182653334630e+00
-4.305229836270394905e+00,-4.542018893648595679e+00,5.688827643034940706e+00
-7.306504190037930613e+00,-1.017118603617562833e+01,2.019912736757317751e-01
-5.171387225101352847e+00,6.734876024942225925e+00,-5.322874005040526768e+00
-9.888429412437391264e+00,-3.078176567864692625e+00,-4.713136593680230746e+00
-9.315888546450931784e+00,-8.570076036200109826e+00,-1.211378848779649298e+00
-3.424604382082580667e+00,5.871693546097899841e+00,-7.763907711009492729e+00
6.383047672440915754e+00,3.308663609360594560e+00,-5.930049106573614282e+00
-6.433695108135720986e+00,-1.145006840220748501e+01,-1.043184410426877262e+00
-1.888954766579735489e+00,-1.286254661454963966e+01,-2.532425629342894169e+00
-1.737746001668526663e+00,-1.025774617071968997e+01,2.040156959353964794e+00
-2.768633014566262318e+00,-6.843354757052845905e+00,-6.486440383436577584e+00
-9.047327561457816358e+00,3.769733954036886381e+00,-6.252953489795073594e+00
-6.833744167236047495e+00,-3.553332926856390905e+00,5.761151563408568599e+00
-5.503464939519587595e+00,-4.407981703265572371e+00,-6.237345416198859738e+00
-5.971100965779221198e-02,-1.576080315736399617e+00,8.628878172526026624e-01
3.703685239547007679e-01,-1.110928910539062819e+01,-8.379162175363792375e-01
-7.940773152174451788e+00,-7.775385045042566556e-01,5.255486681793920312e+00
1.534570548062271778e+00,-7.622070639447832363e+00,4.120939243081016556e+00
-8.450079293035972938e+00,-6.705072765408901958e+00,-3.021867265678732206e+00
9.041128745208727446e-01,-2.675284406133104920e+00,1.245220813781944713e+00
6.629397085875917917e+00,-6.484089008262369447e+00,-1.062358064713271544e+00
-5.885152954100734135e+00,-5.667931864232673256e+00,5.026924220415467381e+00
-8.270090830672395255e-01,6.339451886393470126e+00,-7.571488370483941743e+00
-4.628196846289117872e+00,-1.270346118001473235e+00,-8.999053542201002287e+00
-5.867197217883650673e+00,5.450161144710935268e+00,-6.733802053970755708e+00
4.013703444114093521e+00,-7.558377154155539124e+00,2.686730231059360374e+00
-3.254824389621092939e-02,5.891625611722957956e+00,-7.784205768005333148e+00
3.317191163705237589e-01,-1.225329623865867390e+01,-3.118466785112289141e+00
4.799339980513268600e+00,-3.517947430252677865e+00,-7.590898480681800287e-01
-1.100164550672108099e+01,7.052612281660980420e-01,-1.894011700036329460e+00
4.055928703027406712e+00,-3.333039163531811511e+00,-1.138306220733036334e+01
5.380774306984338118e+00,-3.422605758862778402e-01,-3.166547447999468634e+00
2.999161292232699338e+00,4.094385405348232254e+00,-4.587275765082830858e+00
3.576047022491794625e+00,-9.695626697942641314e+00,-5.203386641401087642e-01
-1.099655540761766126e+01,-6.956849467192268932e+00,-1.340813209889191615e+00
-4.077167085668491175e+00,-8.074672561914679747e+00,3.762425598710778640e+00
4.418668453472734292e+00,2.162676526522488540e+00,-4.298345060823240971e+00
-8.819789508638699260e+00,3.688234972587377314e+00,-8.021367718502153465e+00
-4.471349961644589754e+00,3.558934009306887969e+00,1.391274628731777319e-01
2.940621454474115382e+00,-7.876116005330191960e+00,-9.378311646262712742e+00
-1.483318266980492739e+00,-9.706988901655318358e+00,-5.359622827557636526e+00
-2.936339134798735095e+00,3.244978081414998800e-02,-1.123972512337873297e+01
3.814724230985404141e+00,9.648686856781353294e-01,-1.015620081338246372e+01
8.023275143487912375e-01,-9.645246985117086780e+00,-6.976131662496066532e+00
8.768767591656255467e-02,-4.019085580226239074e+00,2.682335329800151325e+00
4.205028797750216540e+00,-8.895601219476789723e+00,-8.384091575027886378e+00
-4.769421359466803345e+00,6.065555819613048349e+00,-6.764634143261210930e+00
5.070180312986037663e+00,4.625946204223835068e+00,-6.265879894864504251e+00
5.182040987982619584e-02,-1.169550389117190470e+01,-1.886916062940388272e+00
-5.448020744845785579e+00,-6.274760090207694319e+00,4.927985738319669018e+00
4.336215891517011478e+00,-5.798825317065823270e+00,1.283415019731355411e+00
1.179362791979212011e+00,5.503319607012500114e+00,-4.584893073427150689e+00
2.956994873245384348e+00,-1.437179441843663419e+00,-8.434350490497457553e-01
-6.049127285783667318e+00,6.712045577367106164e-01,-9.328197047355907046e+00
-7.500546787820562500e+00,3.906593249385798661e+00,1.802407373725515960e+00
-5.471348278524930997e+00,-2.632070832905992752e+00,5.149957910900414326e+00
4.540201333671907591e+00,-3.289325940555300143e+00,-7.598817275767975055e-01
-6.536155782135125492e+00,5.285132267581142074e+00,-7.449499612844827645e+00
-8.750336960159780020e+00,2.450615405455958573e+00,-8.881339846581610686e+00
-6.514386729886770588e+00,3.014292693122363698e+00,-1.109926659902986401e+01
4.784761281795017140e+00,-3.705744939454026721e+00,-1.056406478671401139e+01
-4.183561302478748800e+00,5.452867552095483461e+00,-1.168551141583483943e+00
-3.585908910886149936e+00,-1.108888074117315092e+01,-2.813686061216833512e+00
-7.835845391867187537e+00,2.594635827444278675e+00,-9.626911988840118894e+00
-2.296070894874157275e+00,-1.184616493209580490e+01,-3.137212029317597572e+00
-4.904505525144656097e+00,-4.024647138788283840e+00,-7.161154938956549643e+00
-3.387826371413434234e+00,5.858192735500714399e+00,-8.118402718600336243e+00
4.234826608450149799e+00,-3.447248013393799049e+00,-1.094163869442572512e+01
7.060636409775261413e+00,-6.138487254285721839e+00,-1.312206885260243316e+00
-5.090011707538796060e+00,-5.836250485657797249e+00,5.611227481580717047e+00
3.438029788763038663e+00,2.579518676007534594e+00,-9.483873519671384145e+00
-1.783924224373130141e+00,-7.475053759539306952e+00,5.617561913991777622e+00
-1.236608086590061495e+00,-1.089713858137653801e+01,9.456367914336811786e-01
6.362399168865715993e+00,-7.042982266085104470e+00,-3.140440165169982922e+00
-1.091448311147142824e+01,-4.732156011165735698e+00,-8.365044960287375958e-03
-6.671069914214499796e+00,-5.811107832131423123e+00,4.369594982011457240e+00
8.647584480955630148e-01,7.225728619618554838e+00,-5.233398364738170550e+00
7.761548130558063363e+00,-3.186163368355306780e+00,-4.681513053659823953e+00
3.008681319295259282e+00,-1.079362103052199728e+01,-3.862398092917552983e+00
5.182606966463033871e+00,-2.952161592285068803e+00,-9.364709084725074462e+00
-1.669159488812640202e+00,-1.103629052825597689e+01,-4.287063986087628287e+00
-7.048257365771112504e+00,3.030899994490642957e+00,2.079423476584642216e+00
-1.912274567715839035e+00,-6.859288879851292542e+00,-7.116784521442585110e+00
-1.141535838765308952e+01,-3.639484669164253505e-01,-1.412007540581458276e+00
-1.367150567538028882e+00,-5.150146024723713190e+00,-8.546355581167563997e+00
-4.603170255958356272e+00,-9.659711019555238920e+00,2.037849103297046494e+00
-8.122398484524797624e+00,4.924219615035698716e+00,-6.313885575631231761e-01
-4.389392594103181722e+00,1.756213662628099970e-01,-1.043036471377648233e+01
4.694659617279276276e+00,-7.067235855778982945e+00,1.885674200708111092e+00
7.355784510026826872e+00,-2.444583344896237964e+00,-6.131098288851075218e+00
-1.166163158336442862e+01,5.679207168735732614e-01,-6.071409066252817510e+00
-1.035122970336725290e+00,-7.506667375065443792e+00,-7.023327925122199389e+00
-8.387250620240372712e+00,-3.662361757909966098e+00,3.753052100705692951e+00
5.164821786380407787e+00,-8.106711012815804196e+00,-5.328658747385190075e+00
-2.226566960762000669e+00,2.957235319755171066e+00,-3.959267186674998440e-01
1.192952962420395613e+00,-9.639314829854461308e+00,-6.876682371609134314e+00
-3.978951674973123520e+00,5.180308845806376183e+00,-8.782731295079866385e+00
-8.222886284499185905e+00,1.469461681278290799e+00,3.956073927873406948e+00
4.858714780008380529e+00,-8.205738494563076912e+00,-7.874656310641467094e+00
-8.948528342602649843e+00,5.611364646798582267e-01,3.108964393791272318e+00
5.772455686523682239e+00,-1.692502902914248653e+00,-8.580680140184266946e+00
-2.912945298537346073e+00,-9.442788993604290582e+00,-4.761898877764436655e+00
-2.287621201069465648e+00,-8.882170059770105652e+00,3.867415352737405776e+00
-1.031237681896805869e+00,5.279714768472298481e+00,-2.952577176065759090e+00
-9.664136232507651414e+00,1.650153059898511909e+00,8.561498416276922541e-01
-1.318855454131167892e+00,-5.767585952810689420e+00,4.648921784680537073e+00
6.047264639412920140e+00,-2.836556154437996025e+00,-8.099460956063289530e+00
-7.108622045415872392e+00,-3.173935447850311675e+00,5.582841805061145912e+00
5.151213778113625352e+00,-8.344119090341632017e+00,-1.990835878498643519e-01
-1.188115446768507888e-01,-4.288411017187303997e+00,2.778908840511514988e+00
7.177544134788919727e+00,1.536056303092591557e+00,-5.450694648198529002e+00
4.363082654019367013e+00,-6.273158859183097569e+00,-1.116909434287836156e+01
-9.266446898216342376e+00,3.479517511300789678e+00,-6.158631737666530270e+00
-2.058953189695109209e+00,-3.829182987359935009e+00,4.261155355553637669e+00
5.501133112052744245e+00,-7.917833402653951858e+00,5.169366973901670104e-01
-7.357787541272414522e+00,4.572110731125444971e+00,1.512412819914689122e+00
4.783983649179258002e+00,-8.923982370223551897e+00,-1.876205398427373883e+00
-4.451719089108820526e+00,6.807426051302026160e+00,-1.940071644611627510e+00
-8.711163417357884242e+00,-3.685612859852983370e+00,-4.886529114236553895e+00
4.657665390616084977e+00,-1.609828736992171327e+00,-1.021285759904570689e+01
-9.133590136661078773e+00,-9.088065458596757296e+00,-1.151731811381469850e+00
-3.715274618110221638e+00,5.559202603335176462e+00,-8.148220933275746702e+00
-1.199795861780089190e+01,-4.458967383631875947e+00,-1.286807494983907008e+00
-1.264411846292975206e+01,-3.231475866033771904e+00,-2.773817133779407307e+00
-7.991041577835397369e+00,4.061965688601356206e+00,-8.458116529088924196e+00
4.291730734246193002e-01,3.927019763597787705e+00,-2.831680970287326460e+00
-2.289666468475654248e+00,-1.146133696009030700e+01,-1.677738537439017463e-01
7.767665504345143468e+00,-2.167187349355013115e+00,-5.073371165956764628e+00
-8.657885723859871874e+00,-3.185937715182569185e+00,-5.357909293557860053e+00
3.508278572516770222e+00,-4.111106764195874952e+00,-1.231536322964208452e+01
-9.314218385690084645e+00,2.045687728089541579e+00,2.039427305964080173e+00
5.291379664871596944e+00,-7.332859035438770157e+00,-7.465775809295762677e+00
-9.746084072931372688e+00,2.548910791612554849e+00,-1.196595755293313329e-01
6.123864676835793830e+00,-2.362553315564781098e+00,-8.296646258690715925e+00
2.381668210634997340e+00,-3.832350781343164314e+00,8.060588630619498485e-01
-1.089163620675529387e+01,7.021900589965389683e-01,-6.577688164831750228e+00
-2.747676466285546848e-01,7.072032351984687715e+00,-6.643362840673082026e+00
7.571857610455437815e+00,-2.311262212218478940e+00,-5.775557333094013757e+00
-2.181926430991706134e+00,2.499844805762857280e+00,-5.264568045390871642e-01
-8.302846522320480815e+00,4.326310623179741022e+00,1.060608237432302481e+00
-7.308519305288010415e+00,-9.702311326986931661e+00,-1.852339817292018243e+00
6.942658299100857633e+00,-3.631161586484453530e+00,-6.455822487246262398e+00
-7.018606457933808329e+00,-1.060260380392568003e+01,-1.292770699545115143e+00
-1.094267760801403000e+01,1.103323369125366327e+00,-2.212152685280055486e+00
2.017251510639773926e+00,4.855338021408869054e+00,-4.526988260080949900e+00
-1.245099940431936858e+01,-1.456243734964653980e+00,-3.704880296704355036e+00
2.862358927985700241e+00,-8.227862820083787554e+00,3.373710139031504518e+00
1.697530770839948300e+00,-1.196234705954107014e+01,-5.412142038533881205e+00
-5.444186196951791290e-01,-9.214492375192113727e-01,-1.198274445339727379e+01
-7.042260979444461277e+00,-1.070776231680049406e+01,-5.967610559406980736e-03
-5.732937294460454858e+00,-9.670740332380978188e+00,1.675737819196715828e+00
-2.204555559496245820e+00,-9.919305800363844128e+00,-4.497384587716166671e+00
6.186302455561201619e+00,-7.554605974113809630e+00,-1.528233589280261651e+00
-8.166551542199849134e-01,3.534140416412296037e+00,-1.590748804976477082e+00
6.137345535436816713e-01,-3.989904634446769016e+00,2.245085382280060937e+00
-2.705310172894327625e+00,-9.188331997852722921e+00,-4.927523572483333503e+00
5.984485534306748233e-01,-2.603994954023414188e+00,1.410540114371716891e+00
5.438558700719175576e+00,-7.760090682238071080e-01,-2.809845978756755791e+00
-6.015728475423700594e+00,-2.143487566512381370e+00,5.112133104611305434e+00
-5.625685378836684514e-01,-4.399403872646882263e+00,-9.500789737728220885e+00
-3.193973716662270146e+00,-7.453985476371395080e+00,-5.949755462291740571e+00
-1.789834716131788017e+00,-1.082234859765284796e+01,8.762728236516523772e-01
2.863740536643503809e+00,-6.147315951130825074e-01,-1.573590369522380294e+00
-9.106818322044546221e+00,-4.397909561947131785e+00,-4.069391207565583812e+00
-1.146958880805604686e+01,2.890702700817942422e-02,-5.671573419983464426e+00
-1.019593296592061726e+01,-1.845874203389415769e+00,1.573962876308254710e+00
4.160330863939841528e+00,-8.647459845197905892e+00,-8.735995091140818403e+00
-7.786356130963280719e+00,-1.951547880424305381e+00,-6.598886049218409156e+00
4.920788695606307939e-01,3.135084023491000682e+00,-1.095987862534323654e+01
1.555103212360751663e-01,4.482367171198185396e+00,-3.217548140167528548e+00
-1.334705337592059449e+00,-7.633094271952503895e+00,-6.827731934968604754e+00
6.845039446440027042e+00,-2.637779137086730064e+00,-6.646312021955264271e+00
-4.955665346608838284e+00,4.170242776295965292e+00,1.715977168200264261e-02
-4.379364220061727764e+00,-4.983685314146292455e+00,5.987266816326216379e+00
4.937623372487999873e+00,-5.032205376019818210e+00,-9.724457939801334661e+00
-5.493500422650954285e+00,2.899202236744483852e+00,-1.145271921399351989e+01
3.976954001898030944e-01,-5.203705707410752446e+00,-9.554323329843789736e+00
-8.537494584107680140e+00,3.506217941673737570e+00,-9.021633826577279081e+00
1.994210421108765452e+00,-1.115942198096436222e+01,-2.670896923017005431e+00
-9.044315215461603330e+00,-5.260376760898939352e+00,2.172316032715651435e+00
-2.842130435182789405e+00,-1.123496269572652650e+01,-3.349754010064661003e+00
-4.120637220686207414e+00,-1.223568044579622338e+01,-1.105100082514618665e+00
-6.347065910056709725e+00,2.944049194839439831e+00,-1.099576345039348091e+01
5.059140315811610833e+00,-8.078440902366377685e+00,-6.846335035193086505e+00
4.027081153010915848e+00,-8.872124067627979116e+00,-8.630808066691955105e+00
-7.842867434266673321e+00,-8.772960054229493210e+00,1.145389391839483073e+00
-4.950540317326566075e+00,-9.195881964007643461e+00,-3.546253950930269738e+00
-6.629490722928382596e+00,6.511724162522604109e-01,-9.239855058730658044e+00
2.890318502623712149e+00,-2.852252932983107225e+00,-1.276707769883397425e+01
-1.323776500404155732e+00,-7.642381318272187585e+00,5.682604157663891264e+00
-1.066871173140107665e+01,-7.321816434329057266e+00,-1.167271185154431290e+00
4.758126919319681236e-01,6.183733484692141680e+00,-7.795504106995769789e+00
7.930113065748089163e+00,-7.569104462923662013e-02,-5.026359175100851395e+00
5.818118522078428612e+00,-2.782532759976472647e+00,-1.804721981917015938e+00
-8.117421480983983528e+00,-7.069154030428443036e+00,2.290393560148302754e+00
1.121103122354381476e+00,-5.798854304608788146e-01,-1.330165586997624061e+01
5.074319773114383203e+00,-5.349455889491824934e+00,-9.434042867012843558e+00
6.218770540542677416e+00,-6.963167902577467316e+00,-3.756809194396924401e+00
2.095100641858473001e+00,-1.088978754828153406e+01,-2.368094199573188341e+00
3.956927804316925368e+00,6.655450501983855016e-01,-1.007559157303389519e+01
6.521983878722869221e+00,-6.765837217407381310e+00,-3.365135074888942590e+00
-3.082546295386504376e+00,-3.089883804477078222e+00,4.146319156138294382e+00
5.024170952687823544e+00,-6.358747198239205201e-01,-2.394626994316851221e+00
2.799666769592225268e+00,-2.614105770917191318e+00,-1.289363465081073379e+01
-3.325404659418381037e+00,-7.416603972515320997e+00,-5.886938603484721533e+00
4.391415627195316418e+00,2.074638492110802090e+00,-8.731727430301651438e+00
-4.631941456029126769e+00,7.342681857577252558e+00,-3.959536861107347594e+00
3.981913230465103926e+00,-9.397491557244988414e+00,-2.291681447433104868e+00
3.270502045695267146e+00,-2.417655531876202080e+00,-1.230927193590891378e+01
6.473306553116113804e+00,-5.436583917546593092e+00,-6.062674943652171855e+00
-6.530199707726611624e-01,1.367274069407548476e+00,-8.384575091716260919e-01
-7.278806969077585620e+00,-6.112816745100227322e+00,-4.156841924125499688e+00
-2.352750533307385705e+00,2.423119406180188840e+00,-2.611451228122224633e-01
-9.025824163070375050e+00,-6.505559096386424045e+00,1.758917482685945499e+00
5.498266197795310894e+00,-7.792276702918685238e+00,1.154543974064597522e+00
6.139304942153073874e+00,-2.257798518950962841e+00,-2.370085842222353634e+00
6.393622067975699430e-01,6.169633934483564452e+00,-4.445472410377770522e+00
-3.156331248026142067e+00,8.049079730000119781e+00,-3.574225357550573356e+00
-4.913731204819976384e+00,-1.096914134930097440e+01,6.322596333676984148e-01
2.939197994249264312e+00,4.248068352304801287e-02,-1.109579586078998403e+01
-2.519296715219800475e+00,-9.256806506607981433e+00,-5.078186681817994597e+00
3.863753479416439873e+00,-5.593172768500489056e+00,1.350673518639160520e+00
2.744279388010677501e+00,4.168788322634142673e+00,-4.388314073977285013e+00
-3.794871781437148428e+00,-8.850777517939731887e-01,-9.975325479487542779e+00
7.092975915809086374e+00,8.219674290224526780e-01,-4.983529465469618280e+00
-1.049800659435370065e+01,-7.492474184387674541e+00,-1.208403919890082445e+00
-1.420203385114479078e+00,-5.589498589566624709e+00,4.508290790093266054e+00
-7.591295097689644278e-01,-1.074292208935240289e+01,-5.193345484161379311e+00
-1.149492589108155993e+00,6.539625723423465598e-01,-1.277605510042748804e+01
-9.235006280304014936e+00,-7.347849424592457268e+00,-2.161041318358731367e+00
5.035063009276444568e+00,6.281737553171288235e-01,-8.718394657856393337e+00
-7.560050440813209427e+00,-2.520321214504211760e+00,-6.266222301170814468e+00
1.719919045310716044e+00,-2.023860521974057747e+00,-1.243470230644457075e+01
-8.909284020691735861e+00,2.080194094567179075e+00,2.542146990421621844e+00
2.836798367174588886e+00,5.003040586770224785e+00,-5.224614868264021439e+00
-5.816432769476098663e+00,-6.961638303693587382e+00,-4.719399184834614402e+00
-3.211144314002070566e+00,3.453096254640777740e+00,-2.407800981103097038e-01
-1.091592293418618453e+01,-4.739335599632218177e+00,-6.582836627122681805e-02
-2.424801354588706825e+00,-1.039331461996772532e+01,1.604868372450096281e+00
-2.656403946787518233e+00,3.726235053674017195e+00,-1.125034454790272598e+01
2.984395952552607145e+00,1.131774428538537824e+00,-1.093416704867303224e+01
2.681286319671960516e+00,-1.341441594815901306e+00,-5.505938196797167672e-01
-1.111655351707959838e+01,-2.562059625619669490e+00,-4.271887377837386701e+00
-2.758101542382333626e+00,-1.302382612306350607e-01,-1.109618466563198602e+01
-2.969156225196973420e+00,-1.246609664250486738e+01,-2.560891950463391353e+00
3.270351553025951929e+00,-6.492434612192988119e+00,-1.025339149715459008e+01
-9.123856052644340409e+00,4.035483963417230591e+00,-3.525504394781902473e+00
-1.074865565594114436e+01,-7.346153741687903249e+00,-1.419162470508462448e+00
4.497734761752250954e+00,-4.953058279690053745e+00,-1.083114195848646411e+01
6.569902103464394294e+00,-3.490589866997575896e+00,-7.143389076090262080e+00
-8.857505045271558686e+00,-6.280771017348876661e+00,1.919246823482925191e+00
-3.597507704226728720e+00,-1.086964037291095408e+01,1.080214802930167695e+00
6.998506361326088943e+00,3.446925392136491184e-01,-6.747534559572870627e+00
-2.646891213318205427e-01,-1.249419096764928661e+01,-3.098589622506433994e+00
-1.123591224759193352e+01,-7.542135244258473259e-01,-8.889073273904939398e-01
-3.889291863686637818e+00,4.115372905095737721e+00,-4.301815304738430545e-01
-3.095075594111438289e-01,-7.266484900566156924e+00,-7.509045881421859470e+00
-1.084300646516451749e+01,-1.424599278771611521e+00,-1.278333005776679521e-01
-9.659508085232374697e+00,-2.957575607030499820e-01,2.290207873442466902e+00
2.291811533994344717e-04,1.066895750218213479e+00,-5.657355874714858901e-01
2.288129896679847786e+00,2.411506321420617827e+00,-1.061069595866125148e+01
-3.393261087596853631e+00,-8.749930636934707406e-01,2.628843435453275035e+00
1.748531144588963526e+00,-1.073585271828385679e+01,-6.689390965706081715e+00
6.628211136487694999e-01,-1.205837826903859655e+00,-1.261207587682359232e+01
-1.089635290329618655e+01,1.780716466107599150e+00,-3.034596547348978213e+00
4.900556926513838896e+00,-7.899905578906139425e+00,2.260642584844332781e+00
-2.993739738594932920e+00,-9.373314008694178412e+00,-4.733538139303228753e+00
1.551829170117411394e+00,-3.412342056252346545e-01,-1.295904998145987186e+01
1.107742589493947660e+00,-1.227910292336193798e+01,-4.859085431696676061e+00
-1.101231169709444480e+01,-5.218379748770940907e+00,-3.019097552405213269e-01
-6.925436514534037968e+00,-1.005926863820262440e+01,7.526516063329914408e-01
9.759112225968470666e-02,-1.222246118750627808e+01,-2.519600310977932356e+00
-8.349138357764188001e+00,-3.709444069969104474e-01,4.580359192164915605e+00
3.765648487739122974e+00,-1.852029828270080447e+00,-1.139233808018857319e+00
-6.383593622042844196e+00,1.374072410863051763e+00,-9.743655078263543601e+00
-5.666099051316274782e+00,6.373058362094791818e+00,-5.145125339065661940e+00
5.970652620895463336e+00,-1.512953587582024584e+00,-2.564754044359660590e+00
-7.486335979802718477e+00,-1.388287695799883315e+00,5.492136046880051303e+00
-5.955154024100123067e+00,3.149348081210082029e+00,1.445180996322487088e+00
-4.723388941974407729e+00,-5.332337662958871682e+00,6.235039999448866332e+00
3.483948163608504789e+00,3.302821876045694882e+00,-4.317177039372481318e+00
1.137949822597817517e+00,-8.695271187459916007e+00,3.938455664739312745e+00
-1.939535042100269280e+00,4.017010322560977009e+00,-1.354248618463474774e+00
-4.420947100003429497e+00,-2.281421992108364272e+00,-8.413491445271240821e+00
4.338480015757746333e-01,-1.042219732509211738e+01,1.109132709701594388e+00
4.080713454824329567e+00,4.109070987043108580e+00,-5.264208125005602312e+00
-2.313062914479899757e+00,-8.664474091254719124e-01,2.273404544193788457e+00
-4.800721514374687082e+00,1.541056244095079242e+00,1.705420441998842351e+00
1.583293250239240724e+00,6.234225408853389716e+00,-7.269903677173036094e+00
-5.229860843687285765e+00,-1.171656146110608887e+01,-3.225424560740957070e-01
-1.097317309676868469e+01,-1.304041485309962001e+00,-2.229582251342235866e-01
-2.914160042806487549e+00,-4.751114643351247224e+00,-7.658822525382955604e+00
2.031428455054091753e+00,-3.948644271553520824e+00,-1.142530941574677783e+01
1.187199407775521465e+00,6.465364022084902018e+00,-5.041119551251534325e+00
5.250442793707192024e+00,-8.359878539995934332e+00,-2.311369240000922698e+00
4.528560255800884171e+00,-7.147728049744928036e+00,-9.670470311377298955e+00
-9.518770099966506137e+00,3.424016274781210178e+00,-6.180364677893654068e+00
-2.782981826071672327e+00,2.445617470282406725e+00,-1.258249954290361350e-01
-8.724314518220545267e+00,-8.616852169957530450e+00,4.690928720882363567e-01
2.985695709741132742e+00,-2.965840537522293374e+00,2.104953687974711329e-01
5.530322212636838985e-01,-5.770133664502639981e+00,3.301950742306006159e+00
2.464202546595001042e+00,4.864154751432600676e+00,-4.806547355692961432e+00
6.876792300180259998e-01,-6.030975229841073038e+00,3.685280926426375725e+00
-9.427667433374447015e+00,2.988367470118594493e+00,-8.756892649978048837e+00
6.156772881969338584e+00,-4.531498964600602086e+00,-7.424783097901003437e+00
-7.230060294548671607e+00,-2.877510473712903583e+00,5.391909037555516093e+00
-2.490895774006518071e+00,6.871637591974552706e+00,-3.082751092949528982e+00
-1.098674915590317980e+01,1.882758790279754901e+00,-4.817740150277656674e+00
-7.576889002405120088e+00,-3.663955656500695213e+00,-5.624555553888197501e+00
6.629178892902077180e+00,-3.822433223175251804e+00,-6.606868355342723653e+00
5.688475975523608064e+00,-3.763517209053728774e+00,-8.613283822264945044e+00
6.922894525264943866e+00,-5.180660270358977471e+00,-4.806925593436659483e+00
-1.028073271166972802e+01,-5.937052072970408823e+00,-2.506206258407754461e+00
-1.872316066740484120e+00,3.616909892465328014e+00,-1.130821120057664153e+01
5.580704454036139239e+00,-6.690994615771367116e+00,-7.431290807092208794e+00
-3.597203056246979891e+00,7.229256498619526461e+00,-5.131343624352632027e+00
-9.176840837563556619e+00,-2.545446638285543628e+00,-5.409970056859356724e+00
1.323884426146847870e+00,2.385766164469448114e+00,-2.434074786705778148e+00
4.885862884295014474e+00,1.908426488077513972e-01,-9.398197202943453732e+00
-2.016660143268016014e+00,2.245511948741552910e+00,-1.274219813090427778e+01
8.052429167674521882e-01,3.761954949776834756e+00,-3.066151406235721577e+00
-9.616771158007450637e+00,-1.681341478423520996e+00,-5.742769575599410814e+00
1.837403872434953733e+00,-1.936614371002767454e+00,1.082904695333354733e-01
-7.226969524286519508e+00,-5.121214959415902435e+00,4.214439701631254920e+00
-3.573975254093851639e+00,-8.939343671408634506e+00,-4.550842738398283238e+00
2.828031369104921477e+00,-1.086717695183738819e+01,-4.105391445250679894e+00
-8.211649433061909420e+00,3.733805313094978651e+00,-8.701023240833720251e+00
-1.189507088027761661e+01,-2.674605876106256108e+00,-3.723118674919482896e+00
5.132595058691294732e+00,-8.291394398840122193e+00,-1.145668770465774644e+00
2.285338589116435504e+00,-1.598099361128886953e+00,-1.304650130340338166e+01
-7.295023061305604628e+00,5.950776918589513187e+00,-2.643607354145843136e+00
-1.123375997274886240e+00,5.634960476676146079e+00,-2.996473534195148947e+00
-7.920309835581617719e+00,3.427169455105945950e+00,-1.028397390824110147e+01
1.399963800633536426e+00,3.491290956773861698e+00,-1.006281600363701045e+01
4.083233673339360159e+00,5.686432857160681920e+00,-6.138294977521807638e+00
3.569579152708650116e-01,7.336807540098789993e+00,-5.693981637548316321e+00
-2.613753543830644510e+00,-7.003836801416546187e+00,5.645152465118330021e+00
-7.903964136527632967e+00,-1.334411043450792311e+00,4.921220118396249177e+00
-6.489176558047502041e+00,5.904775583522557270e+00,-4.065024000109117991e-02
9.244018982204879054e-01,3.396988294970038513e+00,-1.043158918594263795e+01
-6.531580724531372617e+00,1.920815932866304365e+00,2.708386308247983099e+00
-1.036611607428276827e+01,-3.649335758430959142e+00,9.133765349526834498e-01
3.963887945216021169e+00,-8.556431922750578067e+00,1.183707289369378524e+00
6.367635125077540259e+00,-6.330090147993968408e+00,-5.143026425495192733e+00
2.538286851102294239e+00,-2.736761264673833072e+00,4.402148751300091201e-01
