-3.210914062001470004e+00,1.151494546713911404e+01,4.738592349243925916e+00
-6.424363841258522001e+00,1.015815133318619168e+01,1.341286160258020610e+00
3.354128380667621645e+00,-9.615046437795601308e-01,3.838188031466763239e-01
8.905506752872227594e+00,6.470690098299394677e+00,-4.766489066229378402e+00
8.978471653340134750e+00,-2.635960852096614460e+00,-1.051812707404438552e+00
7.787986420437570168e+00,6.491690508239132740e+00,-7.011289444830966389e+00
9.345726830102430327e+00,7.364015458990328611e+00,5.565034753743336893e+00
-3.826451202226347270e+00,9.261608357715094275e-01,-3.277978286699957167e+00
-4.675442237264435974e+00,6.484001049969519315e+00,-7.449350886764277035e+00
3.917679131877622734e-01,8.736220563024707175e+00,-9.419600689245088532e+00
-6.365313952764929617e+00,1.666639111600581868e+00,-4.879421485145247317e+00
5.342548494407508564e+00,-1.605751836577296032e+00,-6.259218852873751349e-01
-8.285660912874009298e+00,2.622671791828192767e+00,-1.724407542041973551e+00
-2.916511009564488610e+00,1.005911831312300819e+01,-7.277936081835931326e+00
-3.550440404851298748e+00,1.058034415164707731e+01,-3.717510882399880145e+00
-5.573788330021294257e+00,1.095804615512593472e+01,2.834046067436031269e+00
2.254480813148740825e+00,-8.941513837472582493e-02,6.072456845529515590e+00
3.426325140105991984e+00,8.320605070040686613e+00,-4.888515870615084857e+00
-2.343580446137244255e+00,2.510498734540443255e+00,-9.231334638952711558e+00
5.237575252827091354e+00,-1.223129501763128957e+00,4.182873949955970616e+00
3.382050193226644907e+00,-2.793347252490878674e-01,5.783457796202296386e+00
-4.864702299085365667e+00,8.308530067695953036e+00,-6.654638522415840640e+00
-6.029651862730838197e+00,1.049855261472326795e+01,1.981615520547876264e+00
7.420659106537719651e+00,-2.396807314452842341e+00,-4.076641534013673573e-01
9.655562316818421920e+00,2.808988415114520798e+00,-4.760829784897534722e+00
7.510760420450546704e+00,7.080721216070669399e+00,-4.765914758766495396e+00
3.717575138827626802e+00,-7.551297693900913544e-01,4.231439505159118042e+00
-1.224765533769884396e+00,1.468540665624298747e+00,-9.366434056845930556e+00
2.239354046944347143e+00,9.694744331515293467e+00,4.903707718897292622e+00
-7.018806878308366137e+00,6.010968436380209390e+00,-4.181409658856260592e+00
1.009314422960340707e+01,6.751830356101327091e+00,-1.223901801908073850e+00
8.724545941155900763e+00,-3.274726018136742689e-01,-4.560648686042662270e+00
1.533076603441787977e+00,-6.612321537308589736e-01,-2.206596865005024277e+00
1.411846483453750745e+00,8.867547221618680808e+00,-5.888192330689594911e+00
4.615572557984022772e+00,8.959148002305955316e+00,5.190631591645361809e+00
6.435532552364357173e+00,6.500772656951896877e+00,7.640548435133624139e+00
-2.664428334720577940e+00,1.820026593856955532e+00,8.581592688381737943e+00
8.950306688581321168e+00,-1.591570317507582155e+00,2.628545286529420988e+00
-6.884144910053144883e+00,1.964550802548924446e+00,-6.420114726635834046e+00
-5.456164133592097620e+00,2.435796309206504251e+00,-7.286933907839971525e+00
-4.652080623739454524e+00,5.581678773030687601e+00,6.595724524034010550e+00
2.548901296755470280e+00,8.198054059045187358e+00,-7.726362232184885492e+00
9.599539981382688936e+00,3.599784768591261841e+00,-5.193633825226052991e+00
6.279004631767256761e+00,7.730624437617231948e+00,-1.293461044034559304e+00
-3.321641217937053359e+00,7.946421898392189043e+00,6.924589320823083760e+00
2.577709740804245420e-01,1.082892977432797499e-01,2.321283771371310145e+00
7.190098055048489423e-01,1.536693304173323282e+00,-9.832816574384914077e+00
4.745898284806471246e+00,-1.457081991741086435e+00,1.697531935532545111e+00
3.133133799610781089e-01,1.055472238116793093e+01,5.893567112275042597e+00
-6.388712830267420095e+00,1.085031863031107946e+01,-1.350219608406260374e-01
9.498993389193632453e+00,7.120139594226540858e+00,2.717404903363176860e+00
4.600554703384607258e+00,5.477728895842349566e+00,-9.692411317355002609e+00
5.581556102790369067e+00,-1.641484149830518380e+00,1.194731975808043467e+00
6.781016489813742609e+00,7.638368379353577708e+00,7.421035087796746588e+00
7.337244317865194709e+00,7.692139526652852499e-01,-6.962656915008881064e+00
-1.912314631831355305e+00,1.274046742299988155e+00,5.076998403688012473e+00
1.041970748943954916e+00,9.349930414964614300e+00,-1.346296181236427358e+00
-5.902284871141969980e+00,1.074357142000246945e+01,2.299493466989674051e+00
6.474005407217675589e+00,-2.216295411717720043e+00,-1.691103540823559959e+00
-2.031165061522450799e+00,1.122490468395825935e+01,4.672986455300021547e+00
4.880713383693395357e+00,9.261200310643499023e+00,8.036175775924363052e+00
6.415522844231175803e+00,2.487764012364010180e-01,-7.616293771401995372e+00
9.164624348112857533e+00,-1.557674852758632822e+00,-1.760096871582982336e+00
8.594004916311401843e-01,5.406952479830176017e+00,-1.012975257674479046e+01
1.236517385911248379e+00,9.179779074068807887e+00,8.336524980278237962e+00
-2.032566848823906813e+00,3.647071790501311028e+00,-9.101046623227556864e+00
9.942081559051390016e+00,7.198381230046899226e+00,3.600067151275452737e+00
3.571389805749380475e+00,3.383718265761150867e+00,-9.768367339402621141e+00
5.800461482378293177e+00,-2.381348817630490444e+00,-7.024128477089206513e+00
-4.016249414220514069e+00,9.187648143962952929e+00,-7.429283573452876155e+00
-3.605834854821041269e+00,6.094466104853258903e-01,-5.047986771546957740e+00
-6.163171391244040898e+00,1.108505623682497365e+01,9.561127777574911502e-01
-3.691329519616022292e+00,1.022223077271905112e+01,-6.976007034554939423e+00
3.533917241524008102e+00,1.078348070254697699e-01,-8.941641551215571582e+00
5.788011336427229203e+00,2.633004993396252935e+00,7.585981343747993044e+00
5.355137542889651492e+00,7.113537373521495510e+00,-9.796120476907306696e+00
1.010556635092684630e+01,5.502951124887659695e+00,3.998577552057678730e+00
-6.724425692532933319e+00,9.758141948924825115e+00,-7.523833901740875074e-01
6.989987094328926176e+00,7.697745865875944560e+00,-1.702868441514152897e-01
-2.008093686052122351e+00,9.188001204562210589e+00,-8.918703209796195353e+00
-4.760940799895847952e+00,6.109749899148439134e+00,-7.537913921232320291e+00
9.810535171620108130e+00,6.645522051645890160e-01,-1.423470128297105841e+00
1.032026143401359342e+01,6.411836821160852296e+00,-2.276752456117785428e+00
7.082732674302962828e+00,2.270699009313035255e+00,6.984698750955096180e+00
-6.295452382366214295e+00,4.016104960649069078e+00,5.748981902139181699e+00
-4.426470818722978429e+00,1.146555344073909843e+01,4.322623677337385395e+00
-3.674130158874955310e+00,1.112516420427591335e+01,7.140126120687133593e-01
-7.888758397372329867e+00,2.875519089501366476e+00,2.755167367118947830e+00
-7.092739170731920950e-01,-4.573319911098702173e-01,-6.261231323128696680e+00
5.366753178646334277e+00,-1.140300766844263514e+00,5.946140949406481191e+00
-2.821428417998263605e+00,1.633863135271505840e+00,5.440351746000100519e+00
-5.105356741349518224e+00,3.864578693160839684e+00,7.122308171174487335e+00
3.646054150615805955e+00,8.035743350690781384e+00,-7.461976567342253119e+00
8.473999220325724835e+00,7.464355746543603232e+00,2.483208436530611074e+00
8.927548102591392976e+00,2.450272888491199730e+00,-5.709697155508074218e+00
-1.678992715553045301e+00,1.421137107350093576e+00,7.935345632196715293e+00
9.344143041562789076e-01,-4.602746541038217620e-02,-9.514361534064082804e+00
1.087954507515960012e+00,8.796580995861225105e+00,-8.815911653591442132e+00
-5.287464355207718292e+00,1.177908595235088107e+01,3.545398317890716688e-01
-4.471999536486581661e+00,1.646700064567271138e+00,1.888637170629685169e+00
-4.832331271103337933e+00,1.164309697931325083e+01,4.741760156875942100e-01
2.448319724051722712e+00,-1.463938293552261793e+00,-6.262319436316784227e+00
-5.948287964064627786e+00,2.010795055479703386e+00,7.076591662765130408e-01
8.577320958416262187e+00,-1.910927956223362978e+00,3.253222556306269109e+00
4.520075474042600128e+00,-1.938674023354525433e+00,-4.327307463458756942e+00
-3.442341643415920416e+00,6.141593236638605902e+00,-8.425268224090295632e+00
-1.141097872294857929e+00,8.239749559165883142e+00,-9.629050799859696141e+00
5.910047156499032006e+00,-2.638232858519961255e+00,-6.456035770821393349e+00
-1.996792294205918195e+00,1.101674364209786283e+01,4.411810298846043032e+00
-1.484610506948283115e+00,1.555611546320698535e+00,9.080059163067851102e+00
-6.192732775207338003e-01,8.258028184663368521e+00,-9.559081916277465396e+00
2.627077578272118963e+00,-2.940656849212473500e-01,4.766830543396266329e+00
1.114751569136966936e+01,3.687318511423938183e+00,-1.203256855333077580e+00
-7.490906754441562398e+00,6.777322964387497706e+00,1.135922906202870619e+00
5.278407960219279715e+00,8.787787607061838813e+00,5.179526668380289856e+00
7.195807561053516599e-01,4.952482916704340488e-01,6.525752575943233325e+00
-2.226853519018094030e+00,9.892751624521860521e+00,-7.408036428279507035e+00
-5.559471468228000646e+00,1.797606667169937111e+00,1.498404193069860613e+00
3.682649613424461066e+00,9.326793187654436323e+00,3.726355583662457782e+00
6.081699723322511630e+00,3.178375246355725547e+00,7.640287270625240268e+00
8.456003287029322024e+00,6.886123568947896345e+00,-2.944951447420872004e+00
-4.545110987632284605e+00,1.915634596801896405e+00,3.390966939213905018e+00
-3.253998368878439518e+00,5.510999014674180074e+00,7.680026087609053143e+00
9.585538569668928588e+00,-3.822597719611053879e-01,-2.518531074983250129e+00
-2.659484521491457532e+00,1.506693873254731364e-01,-8.889745360529119012e+00
-3.147151064669272635e+00,1.024937750725472441e+00,1.501885852032276869e+00
-6.882980183994897416e+00,9.023019732738108090e+00,-1.797071844598549406e+00
1.022423552480521103e+01,2.057182734002967806e+00,1.969063890053262655e+00
-5.230765513491217433e+00,1.168192146916572582e+01,3.588055379997408423e+00
5.219938178744810919e+00,3.347146032925984116e+00,8.092060151796284018e+00
7.427395277731180023e+00,1.551842244867895237e+00,-7.151766838871987275e+00
7.751094161675759153e+00,2.216573507881076210e+00,5.926908975801114643e+00
1.468437701716843291e+00,-5.550261388871247786e-02,4.049081640209742261e+00
-4.409691333903802857e+00,1.032129292967938206e+01,4.869858457549580244e+00
6.286334033391886678e+00,-1.265229117628417388e+00,6.637746636403281109e+00
1.337290725391999446e+00,2.082692219237901821e+00,9.234858199528034106e+00
1.591463526623255964e+00,7.469318177591967256e+00,8.626244628461256170e+00
2.776687119116199920e+00,8.409076625959041706e+00,8.540359117691412649e+00
-6.286134922972980155e-01,1.024998937472125782e+01,-5.423337373758695401e-01
-1.495493733186925023e-01,8.551492293089095753e+00,-9.984154162561434731e+00
8.353551885971983282e+00,6.770686682792135258e+00,6.393076716255300163e+00
5.663217110123719422e+00,1.636173928935061861e+00,7.646178935081018757e+00
2.259853925664092600e-01,8.029268715191283379e-01,8.486786110642997372e+00
-2.391757124356795661e+00,7.997537354951147925e+00,-8.876872520011561463e+00
-9.904673431674010375e-01,1.053160477358491942e+00,6.559627640534896109e+00
5.515558436779719464e+00,4.390015850939209763e+00,7.860348415997647109e+00
9.080506425213306088e+00,3.030736467376437204e+00,4.814925108961681133e+00
1.607071595204976777e+00,4.624855922383854789e-01,8.292642188830891214e+00
1.079349198221407313e+01,5.689990651977094416e+00,3.226486668878172814e+00
-3.383427635481436990e+00,4.343275784708762188e+00,7.880748977371778707e+00
-3.305068712759967609e-01,1.035794492784723708e+01,2.021457767744467393e+00
-7.847968510382664853e+00,3.714926023365936913e+00,3.496973244043248830e+00
1.229882180272241943e+00,9.264294366757182431e+00,-2.533377547389613849e+00
3.229941722679947613e-01,9.358565199413856561e+00,-4.693353121081055512e+00
5.672576499473225731e+00,8.267522516271473165e+00,1.235127804495406600e+00
1.009430996543750148e+01,1.050052179220147597e+00,-2.629222509847217726e+00
1.017864356088748146e+01,1.252597761676158328e+00,-2.124872658045526830e+00
-3.901981182192166830e+00,3.911572787187095557e+00,7.634781195458352876e+00
-3.317477858347074982e+00,1.159657679893511251e+01,5.400390109684871653e+00
2.105928533303784711e+00,-3.775928610671829833e-01,3.103243611881341568e+00
4.697888030837350293e+00,-1.732334083512657719e+00,-7.894626095307355484e+00
-4.293243324656116577e+00,1.775842848698438114e+00,5.004884877542688848e+00
-1.286164491367569607e+00,1.066977178126169612e+01,3.768176629857909354e+00
-6.289214691234060517e+00,1.744212144105974360e+00,-4.232386056450357259e+00
-3.443360733897122827e+00,1.748637392976784666e+00,5.267120685149069281e+00
5.649338963776120437e+00,8.935273678612098536e+00,7.939275742801781277e+00
6.153022111587324261e+00,-1.276581357419789953e+00,6.857551849010646627e+00
-6.375280159300559468e+00,2.571308672216471081e+00,4.920134243359457926e+00
1.085110541649149596e+01,5.958410853864072543e+00,-4.658881582549551759e+00
-6.029448718739710777e+00,1.033573136426640993e+01,2.156812554526343018e+00
-8.210250737206488125e+00,5.402976472309620526e+00,-3.379333347707209056e-01
6.971143912006102283e+00,-2.415722164750142120e+00,-1.818214042523308205e+00
7.686071781365118483e+00,6.879776220085203065e+00,-5.264315243357397200e+00
8.119913217816034035e+00,-9.225725649142618723e-01,4.742104820900802764e+00
2.997407862578584936e+00,-1.203942886134441309e-01,8.208110229872749741e+00
-4.966358064399304162e+00,1.674674427998499526e+00,-1.074883698680295478e-02
-2.075478804902398000e+00,1.118932907544800592e+01,5.897411163896521202e+00
7.324638379331548599e+00,2.595129673480401911e-01,6.220773963102940840e+00
-3.248411268206008451e+00,1.102759502322908958e+01,3.294212884427437649e-01
-2.544978638854789033e+00,4.708518586700439990e+00,8.158319502139546486e+00
-1.870602618241150816e+00,8.318401588522979395e+00,7.433288035022696860e+00
-2.910331387912556966e+00,6.263207607037091229e-01,-2.545340211160215027e+00
-1.705152270382335189e+00,1.062422360514408126e+01,7.092721493511424669e+00
-3.156208482196135368e+00,1.360025690946958132e+00,3.489971424188858418e+00
-1.064083453287073766e+00,5.214640496833952144e-01,1.268861849555663612e+00
4.390489216448933085e+00,8.993628587422604070e+00,4.266992928181590372e+00
-5.060707371569876045e+00,1.121347832657482169e+00,-5.641503495276454672e+00
6.982657686439863731e+00,-2.209117858747103202e+00,-2.178800730159633492e-01
6.350234566392918278e-01,-4.991424872138860644e-03,1.578604443791106204e+00
2.298499228872101341e+00,5.089407874798009601e+00,-1.009320987062267427e+01
4.936112121579428802e+00,8.919430481939549793e+00,5.465375911149168431e+00
9.822232933236055175e+00,7.032041043833140437e-01,-2.832144452147987046e+00
1.006875803254449586e+01,1.039294334959677713e+00,-1.971863787552756264e+00
7.996399566237487377e+00,-2.327646591922834851e+00,1.377229049470733546e+00
-8.081192500173460802e-01,1.318958073685087218e+00,8.776236434182740354e+00
3.562001627438287965e+00,8.348528730361199024e+00,-3.355928821687664598e+00
1.025501186324474823e+01,1.167522854746975591e+00,-2.234453459909216955e-01
6.356071354211284330e+00,-2.072617551826022364e+00,-2.946371941573769360e-01
2.002265974227295686e+00,-3.053809612475197333e-01,3.190134490071871554e+00
-1.546026475405370748e+00,6.249039769169012493e-01,2.545072339339388368e+00
4.529705186372087411e+00,-1.811820053436983491e+00,-3.808354176767358101e+00
1.085058830096230587e+01,3.968135528726536965e+00,1.640184628356904817e+00
-6.993815292129349714e+00,7.910871765816877677e+00,-3.276164608406346712e+00
8.962569940437095539e+00,4.917285435590172504e+00,5.182544647198993992e+00
1.122863039866137669e+01,6.008064843111661446e+00,-2.535313644826535207e+00
9.213329625823867275e+00,8.985575490782047314e-01,-4.697351725773120101e+00
-4.885488881788305982e+00,9.113965797294762083e+00,4.937547731601938494e+00
2.474478689262597175e+00,7.307197506081456240e+00,-1.032380806697334386e+01
-2.020646104371979224e+00,1.048495779946602902e+01,-6.121900048045811893e-01
-4.554902431790962547e-01,9.393756533514215690e+00,7.952054951557978590e+00
5.831023224393749871e+00,3.154099404935643669e+00,-8.636925134322545716e+00
-3.378986292763255683e+00,5.951707116614138648e+00,-8.458469574840028926e+00
-3.031034432478314056e+00,1.011348719458953838e+01,-5.867067660548121566e+00
2.765940849386185896e+00,8.067957174704844192e+00,-9.003868812800918775e+00
5.159605195345659645e+00,-1.959479406947847391e+00,-7.712031864962565209e+00
2.599954406484976221e+00,5.630271956307441705e+00,-1.008588272731715563e+01
-6.140919362096714629e+00,6.869225900826416265e+00,5.012226433840733186e+00
-6.078049106230177578e+00,1.116048892384911717e+01,-2.528245793310679002e+00
1.001299369113789695e+01,5.750831566808758843e+00,4.326185460687359985e+00
-7.183181978456413042e+00,4.295165680241833428e+00,4.700543613282110122e+00
1.003818247575562950e+01,3.638899703897384708e+00,3.431712751053278332e+00
2.957460602517801185e+00,8.228656905308987746e+00,-7.347193959124488138e+00
-4.645611152643069452e+00,1.069602181141150243e+00,-2.417293054288155219e+00
6.674665348780242091e-01,9.661247593493682118e+00,8.201449512327281255e+00
1.206660413265683962e+00,9.056987936536486927e+00,-4.464043918589878146e+00
1.128765183340598277e+00,8.746351403292660365e+00,-8.366008093119193134e+00
-3.730427413355651201e+00,4.094580765971207903e+00,7.766800739577589319e+00
3.295064790234356167e+00,-1.243573486524550464e+00,-3.377559726601058632e+00
1.134004509710782571e+01,5.124801279751208583e+00,-2.519526213241233048e+00
-1.372197854164531883e+00,1.140069924439843341e+01,6.464676126937768608e+00
1.003005553409367145e+01,2.053748402229217174e+00,-3.028934217791964478e+00
-5.695478805194100325e+00,1.034297185449647039e+01,-4.691516142092215347e+00
1.057002112915319181e+01,6.375792962011896492e+00,-6.363821698851997999e-01
1.173689369662955562e+00,5.113221752642069587e-03,3.986759348973021311e+00
2.051952138312819418e+00,8.613860822696576491e+00,-6.597290318451296542e+00
2.203653986065550741e-01,2.601180199903470935e+00,9.159733133239418734e+00
1.993044102393771499e+00,1.008321770865593336e+01,8.319747476669364872e+00
1.017494628217737329e+01,5.416186353997167302e+00,-5.598797918553500175e+00
7.692099611050490005e+00,7.382598708536482590e+00,-1.361169324880752152e+00
7.343099697454430697e+00,-8.483941390343038291e-01,-6.300088056895299715e+00
5.333235062820861572e+00,9.151685337530814479e+00,8.145376438624017723e+00
2.873745276768534307e+00,9.530112537899766423e+00,4.127277604027009161e+00
1.091586484471293694e+01,6.062001136696332004e+00,-2.601324789255492487e+00
-1.188639375394364484e+00,2.000312914453439728e+00,9.057945623180073014e+00
2.873023957218094893e+00,-6.133242360274153704e-01,-8.948565355263244925e+00
8.266593948228928568e+00,7.322549042158658317e+00,2.032402876604827435e-01
9.315383102533211002e+00,6.918362707244752663e+00,1.258377641946869796e-01
-4.662589729672878214e+00,1.329620797496557927e+00,-1.609924209395631745e-01
-4.800335488645403048e-01,8.448171485832459027e+00,8.060791705119401129e+00
-2.968472582716155550e+00,1.108069167109344377e+01,1.183597087282475258e+00
-2.184337121387163627e+00,1.004434059555348036e+00,3.425704074515650177e+00
9.796504633340944679e+00,-1.648390702143876785e-01,-7.587641379600183755e-02
3.991618291074519931e+00,-5.647932201725769374e-01,7.844006209959170306e+00
8.075270352715495648e+00,7.162025998316695841e+00,-2.922772400957032168e+00
3.976247731929006601e+00,8.979345338774290752e+00,1.841802821023052372e+00
5.668211028221669778e+00,7.889396023368198563e+00,-2.406504534050708077e+00
-4.011789060708903953e+00,1.166259135755089993e+01,3.152385197346420309e+00
-3.574577167292193103e+00,2.571364027621700465e+00,8.305017687686641281e+00
3.928950079784740090e+00,-8.051114769765473911e-01,4.120416033533686573e+00
-7.725860177959950725e+00,6.630915473295897478e+00,-1.218260618505880188e+00
-4.131643539469435744e+00,8.888271027131200430e-01,-3.579042777502097206e+00
4.244367766728437630e+00,-1.477628268038014614e+00,4.390532564684787031e-01
9.557884434428789433e+00,4.357659739237487173e-01,-2.351291558071884058e+00
5.189471020947568292e+00,6.726658182077215109e+00,8.065627077775253895e+00
7.558994460779426383e+00,-2.754833655489636879e+00,-2.811396483012999159e+00
2.302214500463395375e+00,-1.244099745805234525e+00,-4.967469483955953891e+00
-7.976998534329784007e+00,5.118060758142909172e+00,-2.520010497299689511e+00
9.595991944246017979e+00,7.421131768338631751e+00,5.293869405280174689e+00
-1.627103447199924835e+00,1.914355080630583128e+00,-9.289986474224134483e+00
-8.279476088870815431e+00,2.850086010887172172e+00,-3.082776457882794752e+00
-6.897125797371335132e+00,5.492677073789009157e+00,4.018393325355456014e+00
3.320835492438155345e+00,-1.303157653434609431e+00,-2.275864522285240277e+00
1.129720255783484895e+01,5.494740159212864405e+00,-3.983486085423132206e+00
-4.270197143875272161e+00,1.187857522322134152e+00,-9.157645370981503108e-01
-3.284822682895225388e+00,4.311106294635557390e+00,-8.627550987772758972e+00
4.589057208434786261e+00,7.557393703517934824e+00,-8.432964165849940130e+00
4.357638299362481149e+00,9.426178885054271817e+00,7.629321548082852011e+00
-3.734391969826403201e+00,9.320529519126771190e-01,-3.706891307719752504e+00
8.253988597967392593e+00,-2.063427018744918406e+00,-4.080433493954439328e+00
4.832596211914931494e+00,-2.415466308839058662e+00,-7.272079905934035970e+00
6.765008734846943206e+00,6.718973433205428059e+00,-8.738934226793437787e+00
7.994231152136302754e+00,7.776408823844015439e-01,-6.256826043064192433e+00
4.071995448505926873e+00,8.600730245307493860e+00,-3.551023515897946403e-01
2.572711306115138541e+00,-1.754723238999962298e+00,-7.866605095688870897e+00
7.643358293654729074e+00,2.685289172895124477e+00,6.382169344924992771e+00
-7.197005685383925488e+00,8.051961889835643760e+00,1.144379618446652175e-01
-6.883991740892710709e+00,9.105286898393483597e+00,-1.193833726389533334e+00
3.638666124234665844e+00,8.701699677722448456e+00,-3.976192497747689236e-01
4.600862070058068909e+00,1.387344841095067283e+00,-8.813751171924993244e+00
-5.826103759537617499e+00,7.671878827719633698e+00,4.319315673759608565e+00
5.915431655425766877e+00,-1.940021757728954022e+00,-5.456055807487887321e-01
2.728694304163756246e-01,9.022714773489942885e+00,-7.491813224059581167e+00
6.960783031079285088e+00,7.923628681465769041e+00,2.578345914960203267e+00
5.325562564036145474e+00,-1.100182036003503949e+00,5.822634454646308910e+00
6.962683521473223003e+00,9.380278099843109008e-01,-7.393347464252140178e+00
-6.480134420608506751e+00,9.131977313666912011e+00,-3.931946712453711967e+00
-6.067752466749232632e+00,6.996674469903503280e+00,4.476681435698567135e+00
-4.705005233031488210e+00,1.183000841385661950e+01,2.133312119364810133e+00
-1.515504148498144632e-01,7.998386508369675241e+00,8.282117743111088615e+00
3.602614573686329980e+00,8.575987130636999467e+00,-1.228000354134749506e+00
3.022707764456723289e+00,6.663906732632057128e+00,8.778575364309290308e+00
8.705803188085045718e+00,2.012895114679936537e+00,-6.046366398390376595e+00
9.626807920976347077e+00,7.397084800119665182e+00,5.234426402182146276e+00
1.888051975911924529e+00,9.560889386356361541e+00,8.335801127977575220e+00
-6.385041554245572293e+00,1.076444787776288514e+01,-9.414419244414393706e-01
2.925086582778716249e+00,-9.493042032279684905e-01,1.006802525296420919e-01
3.552658907804656874e+00,7.993627513276351237e+00,-7.803701036012069103e+00
1.022814643726460382e+01,1.495474576833095037e+00,-7.123272418494308589e-01
4.784096650309822785e+00,8.142424394626262441e+00,-7.160773495776328046e-01
-7.809171464848371436e+00,2.863911673751311948e+00,1.586806401749468520e+00
4.949836902882203127e+00,8.947325030821106751e+00,5.898615444697169252e+00
-5.379335665152707335e+00,4.443991209366004114e+00,6.586807914318424828e+00
3.585464778780123929e+00,-8.831969191462741842e-01,1.580936188162817668e+00
8.995075142265157808e+00,-1.089858146518707827e+00,2.747811421932494724e+00
8.412105663081366203e+00,2.296125456341965076e+00,-6.487380980795871999e+00
6.789388224457592713e+00,-5.034377689814319989e-01,-6.773015350647837884e+00
-6.717819892506090795e+00,6.711161543800474583e+00,-4.115944202225965576e+00
-2.738005151694321349e+00,7.683239365050767766e+00,-8.609109609433250654e+00
9.662524616643462849e+00,-3.227319040924976346e-01,2.832229941822033692e-01
-6.088738856933166410e+00,4.598535831626415771e+00,5.734525947811102142e+00
-3.390116734004965937e-01,3.676017031437976978e+00,9.101674153055762773e+00
-3.989601386810395223e+00,7.668035662668254204e+00,-7.709415044465402822e+00
8.833821616316789971e+00,3.612547126813146825e+00,-6.446423855669961789e+00
-5.737070109919820027e+00,1.158314834495778278e+01,-7.257788462127006124e-01
1.785476656145371432e+00,-6.461891687880113588e-01,-1.585000882206869299e+00
-8.270974846861852470e+00,4.596185601593467673e+00,-2.573922154477833679e+00
-6.433604691871587455e+00,7.066233373533587603e+00,3.932944748550022851e+00
-3.029639992844905816e+00,2.362117283061868189e+00,8.547604349723494366e+00
7.449186949930401092e+00,7.089960960081573837e+00,-6.051279083741139431e+00
9.230823706180714794e+00,6.659244643638776218e+00,-3.706337318565890548e+00
-2.327636301948477204e-01,5.763882596043499174e-01,5.180236052325512652e+00
-4.949176006687356022e+00,3.389156245171711213e+00,7.496031991706294306e+00
5.846569347798665772e-01,8.961552205899812051e+00,-7.062699643702289087e+00
-1.079147433385421184e+00,8.468985470069455290e-02,-1.148890742347718819e+00
-4.125890040352346411e+00,1.099103915522309904e+01,-1.872104978321454505e+00
1.118451319127559884e+01,4.890828203612995750e+00,-3.284642899746763600e+00
5.656800483109619471e+00,7.160032901043640763e+00,8.061846512225848471e+00
7.176696557085491257e+00,-1.748453405151181306e+00,4.090845603116403773e+00
4.911953222837427191e+00,8.998062464219442447e+00,4.037431387902235436e+00
-6.310505101794106508e+00,5.053742268971760154e+00,-5.891815683441594231e+00
4.496034447039561677e+00,8.641242607278477594e-01,-8.835904240595404247e+00
6.802963581758909584e+00,4.347793354794164067e+00,-8.688563186642259240e+00
-7.631548139385255780e+00,5.701124734999691412e+00,-2.651062585660337589e+00
-8.263560539204801714e+00,2.436734327566270952e+00,-1.895027092750674047e+00
-7.475005177575750004e+00,6.413506080744956428e+00,-2.572008288077278326e+00
9.181321729690260725e+00,-1.951206068000504334e+00,-2.016935818306293982e+00
9.074516602204067084e+00,-1.744132264169437896e+00,2.138349708787683490e+00
-5.509395434139331194e+00,1.015219232394376503e+00,-7.536647611171963135e+00
1.949829869738933130e+00,1.054544903775675557e+00,-9.506540416131013416e+00
1.492451392123580023e+00,5.944600896903033060e+00,-1.026851149805592200e+01
5.736328559267331428e+00,-2.668962575150449101e+00,-5.935425750884482987e+00
2.385336714782844147e+00,1.853099130814989337e+00,-9.434392222306318132e+00
2.889094460536277609e+00,6.439837372275361016e-01,8.796219692384143585e+00
-1.016324667790893033e+00,3.821370061028929843e+00,-9.499262772394295951e+00
4.698310171509530342e+00,2.561063607129064223e+00,8.214235185733267386e+00
6.016152862760470121e+00,5.883079393613046548e-01,7.451537393903088002e+00
9.055222349264701265e+00,-2.763875170177619633e+00,-1.592081061150026455e+00
9.685029494328258437e+00,3.079712594565227946e+00,3.560674451097619819e+00
8.814654090690474675e+00,-2.542356034705893553e+00,-1.729752307904879993e+00
9.607205747566827103e-01,9.709286559789095605e+00,5.909422525271187387e-01
5.944168650026692369e+00,6.942900054642166197e+00,-8.984023209153873424e+00
1.022124184138422720e+01,9.653991787352169673e-01,-1.180270621824203170e+00
2.642875453986524015e+00,1.002304759996234118e+01,7.591544543118952326e+00
-4.330617180422198231e+00,7.301206754296871715e-01,-4.688759587764167236e+00
-1.945794700225807805e+00,6.907751451206285864e+00,7.910125589690009562e+00
-1.571701389753445977e+00,1.128270762900532098e+01,6.850999070904691735e+00
6.666000254991534035e+00,-2.041346614361566392e+00,-6.374529020885798758e+00
7.530245347701191250e+00,7.481928602089558566e+00,-1.690868158979623448e-01
2.806744387556810993e-01,9.643217362750103661e+00,8.006220936586878167e+00
4.701264016779068911e+00,7.611366220331411192e+00,-8.347865055190592187e+00
-2.760274858998853720e+00,1.114175693871954920e+00,2.740531095826892916e+00
8.153752731285951683e+00,2.893504794069139407e+00,-6.925213599919189278e+00
9.298549077461256473e+00,6.348854670074423723e+00,-5.784268680866269996e+00
3.136294687647000146e+00,-8.662225870900339686e-01,7.424623957283946751e-01
-5.389561003808418072e+00,1.104021142581155912e+00,-5.952259652315208704e+00
1.963437934554998154e+00,-5.254480058269220821e-01,6.890061278532131350e-01
9.398304363549630835e+00,5.805290636762443945e+00,5.039772378228735583e+00
-4.598544718173537937e+00,1.170530386733035222e+01,3.013711274351171809e+00
-7.844708126959617722e+00,2.337614389402451476e+00,-1.441104168796149221e+00
2.426788865785446170e+00,8.547707997089162291e+00,-6.172819345332372087e+00
9.576519527455518599e+00,6.166841656071803790e+00,-6.014392500375710604e+00
5.558490116390857771e+00,7.975564016795966715e+00,-7.365842890874676474e-01
-6.421778728039479134e+00,5.968736863938128856e+00,-5.425009541546711667e+00
9.838547576176024378e+00,-4.701406456013997315e-01,6.422897503038186295e-01
-1.340110052653557648e+00,2.176645977316870262e+00,8.977188650809646120e+00
9.113897642743108207e+00,-1.577750174182871667e+00,1.631705323338725977e+00
-4.314747999324977989e+00,1.074062568854742850e+01,-4.549143311162174186e+00
2.030891732988182152e+00,9.653861007607762446e+00,4.122457834681189759e+00
-7.498774034900722363e+00,5.143362695356065828e+00,3.389469829681152291e+00
1.638622703835687533e+00,-5.210049484556449340e-01,1.282893874537837986e+00
2.325935308498690457e+00,9.103672376628157537e+00,-2.096743531421645101e-01
-4.476929837988766758e-01,9.082114964197165463e+00,-8.725417569547044394e+00
7.456946468870513378e+00,7.194201516376992345e+00,-3.183264875780719372e+00
7.185545321516128681e+00,7.328751298873907416e+00,-4.212556223962777402e+00
-2.038332488260406750e-01,6.377923006102500736e+00,-9.836073724956737152e+00
3.739413170699177336e+00,6.771007438271589685e+00,-1.021180624316970231e+01
5.609663407362019072e+00,-1.985752245791220227e+00,-2.948851426388883201e+00
-7.500064273576771967e+00,3.604498718569153493e+00,4.392337442497458611e+00
-7.376583493417271598e+00,5.288606607048544461e+00,-4.199733822833445984e+00
9.074800246722672270e+00,3.518850333734276692e+00,-6.377173267725895656e+00
2.979048257097726804e+00,-1.727250723326051229e+00,-6.767062852630266079e+00
6.773110387212839534e+00,5.318336321385713994e+00,-8.923272623975289974e+00
3.267922268658752571e+00,-1.668177505960930729e+00,-5.718912034011874646e+00
-6.080190539703790975e+00,1.109411643735644226e+01,-1.788216199808971618e+00
6.884017594630847725e+00,-5.848767566084472902e-01,6.494670965564591114e+00
-3.503341218227561171e+00,3.693637515885661582e+00,-8.410453387517172530e+00
8.777721315069168639e+00,-1.099157356944218789e+00,-3.895510219848608902e+00
7.268694534960551401e-01,8.890804131241083041e+00,-6.269653560865921627e+00
4.297330244189662807e+00,8.881345088722234493e+00,2.253798606371769875e+00
-4.867572911539511438e+00,1.161433637837313171e+01,2.780544762784793011e+00
-3.815330454415489569e+00,1.084050182304505405e+01,-1.371892180539504125e+00
1.610195943858644174e+00,3.016046883696514858e+00,-9.857566947597209861e+00
8.061211376303637266e+00,2.261799381540098075e+00,-6.882783256437228658e+00
-6.702642955871829678e+00,2.283427205962562212e+00,2.179868613441901193e+00
-6.376677826635058111e+00,2.068187123233799607e+00,1.380872802244422770e-01
-3.392330895015734260e+00,3.704816917621467365e-01,-8.090589527630871913e+00
1.647527826656688843e+00,8.909149205035514996e+00,-4.177942888411131150e+00
-3.097748071831068373e+00,6.930174522284492378e-01,-4.901154074088799106e+00
5.608490309731084977e+00,-1.520993609670139968e+00,2.013090487644327187e+00
2.491483539915448908e+00,-1.313821740234039748e+00,-4.876417865512792993e+00
-5.005669327970765359e+00,1.315371573664337657e+00,-8.566421467901652598e-01
4.479283785724088029e-01,2.098886352358710461e+00,9.385575354455351516e+00
-7.097768384161503574e-01,2.697035409289191485e-03,-3.393601576011979315e+00
1.179337946288579575e+00,-1.393349305458580822e+00,-9.079694998260750438e+00
2.831540493853597074e+00,4.605051873484042879e-01,9.183744416670707622e+00
7.497407305525297438e+00,1.882495653226000376e-01,-6.185711567944601974e+00
5.799776716950199251e+00,8.104459825477388080e+00,3.962004375564396330e-01
-6.430625117056881557e+00,8.454905672205955014e+00,2.928032244761645142e+00
-2.827392748242954834e+00,1.013025344809228789e+00,9.986630246112049303e-01
6.523118659732789482e+00,-1.898755969009894518e+00,1.809414995458633602e+00
2.922741775362622807e+00,9.521466519593154487e+00,4.999437768016883332e+00
-6.289352567772827918e+00,8.874129601886986407e+00,2.498184174365800203e+00
2.108013632867687726e+00,3.941492578242055789e+00,-9.624745641638821070e+00
1.036940226040326074e+01,6.869578119496892121e+00,1.315221687411815221e+00
-2.704015665830961535e+00,1.094333379227606073e+01,1.439671767998284002e+00
6.966107241023312469e+00,5.341576780271878100e+00,7.362962216185823472e+00
-8.250931408532807154e+00,2.760178217532300859e+00,1.843344704846304305e+00
3.164101702376628911e+00,9.402880356072930823e+00,4.646174674829373963e+00
1.038142324508512360e+01,5.480425553868986555e+00,3.432439898202663375e+00
-4.102644753147208334e+00,1.092410051180418051e+01,-3.956204914611770818e+00
1.064327710679256711e+01,6.742695150294934159e+00,9.505077757851525533e-01
-3.751136862672042049e+00,8.123944175571461201e+00,-7.607774748891107386e+00
-4.526661755169048007e+00,2.256384940206742407e+00,7.603600866362711486e+00
9.486919214619431884e+00,5.037599187462617145e+00,4.805603173119137317e+00
-2.887415826875973313e+00,1.016286715452529466e+00,3.458636754142400127e-01
5.151879082711500857e+00,8.807621759465146027e+00,5.340916996664880401e+00
1.861721245488530574e+00,-1.304325718261698297e+00,-7.176287585881166109e+00
9.421514219694104852e+00,7.313266435907978646e+00,4.380149912740971097e+00
3.453813270613920405e+00,8.008848504379837863e+00,-8.187705529017312855e+00
1.146670221580658300e+01,6.239144158935620688e+00,-1.389173107187807954e+00
1.158345189553114496e+00,5.487093855642515727e+00,8.854554894880125815e+00
1.946219333324031409e+00,-4.135668973553507377e-01,2.138547542536743951e+00
-6.149983685178311177e+00,5.229481213579086685e+00,5.286491704502759958e+00
6.296442413075428846e+00,-2.022032859213098721e+00,8.655371537153595529e-01
3.916468843184908621e+00,9.091739230606732391e+00,3.073146116935335570e+00
-8.708228230934643932e+00,3.620605203970083785e+00,-1.379054167476941206e+00
-3.550217639882311094e+00,2.397660774280466478e-01,-7.956846249556111417e+00
7.476053007478841828e+00,-2.782744968904629967e+00,-4.420976256031186935e+00
4.461090899297446732e+00,8.000440646195878358e+00,-4.455541579106608197e+00
-5.920637481553129078e+00,1.161862486912087489e+00,-6.916211853036834611e+00
-6.180745233384499215e+00,1.133240744703784308e+01,-2.147922530395389273e+00
-2.714994593856350225e+00,4.659331419947928765e+00,8.406181830384376497e+00
3.103442154625124072e+00,3.219372260295466859e+00,8.876536578957386681e+00
-3.872733635643571315e+00,1.780973699918589448e+00,4.760283813408637599e+00
-4.790267892630683200e+00,1.043624489010016632e+01,4.505143150697736409e+00
1.025910414595893272e+01,1.198382888203919361e+00,-1.095820018409901841e+00
5.034274383888761584e+00,-1.038181716025817991e+00,5.717017989102489928e+00
-7.786588577121666077e+00,5.716130082176841043e+00,1.896317731355010361e+00
9.081877670271785163e+00,4.593897073003744502e+00,-6.545890536708902196e+00
-3.512665452293788348e+00,1.115776894607776448e+01,2.588742877376502882e+00
3.683983193034425785e+00,9.280668277916545250e+00,5.070817213060337281e+00
7.616149599554532301e+00,-1.819314527428744555e+00,4.861921213012584175e+00
5.461473832670219686e+00,-1.137741387490632361e+00,6.158937952941213823e+00
7.820366853511764305e+00,1.688787975486938375e+00,-6.570643948771472509e+00
-2.249049255131348346e+00,9.323567811636156222e+00,-8.818980600550476723e+00
8.661992280956001267e+00,-2.014793534917263262e-01,-5.094145467197630062e+00
6.053514091293011212e+00,3.802196860281605417e+00,7.793083815181124585e+00
6.077276213056994614e+00,7.445119642577290975e+00,-4.053368875945485783e+00
4.278612917203836297e+00,3.903764161247025299e+00,8.562209616915961163e+00
-5.917628675670313143e+00,1.729472859217385805e+00,-1.121481927570062487e+00
-1.172222640528855914e-01,1.031893558045042703e+01,1.909795340884719250e+00
1.099899660766233644e+01,4.504354537582647922e+00,1.407541241351379924e+00
-2.879765923300250385e+00,1.926792356402351913e+00,8.725048892149315449e+00
1.801135160987488160e+00,9.764424688132475438e+00,3.530053831154080779e+00
9.073100025835881155e+00,-1.654801253141114259e+00,-1.984769148173195719e+00
6.493078310382537133e+00,7.952809648419071564e+00,6.160939968534707295e-02
-1.526740399076029320e+00,6.245764040449720333e+00,8.406841925250603254e+00
7.637960642709570536e+00,-1.062980223823379172e-01,5.650439521708224611e+00
4.691835199113554289e+00,8.063718818561687485e+00,-3.864880715197131167e+00
3.427322805844696951e+00,9.157465355396443130e+00,3.082235514540446975e+00
-7.409250430991336067e+00,4.654711215135819202e+00,3.854183349628094390e+00
-8.074820151629836573e+00,5.886773831650828903e+00,2.019617793000516304e-01
1.519955185353109250e+00,3.057742553424681375e+00,-9.966041870074061393e+00
8.247533886026150896e+00,1.329947161864186267e+00,-6.274144165296723585e+00
-4.572720854863303319e-02,8.510321839042025438e-01,5.504488935901278523e+00
1.023379699070719795e+01,7.374001455471405064e-01,-1.023587519526898415e+00
1.067727465131625486e+01,2.645926146472562746e+00,-1.175659055091285321e+00
3.409408704674048857e-02,1.058574559584893215e+01,6.522624610700495928e+00
-8.203749974507225096e-01,9.738830074553916916e+00,-4.827509696912274606e+00
-4.439616212836468456e+00,9.363927869821278449e+00,5.491150666568930028e+00
