-3.910834962063942211e+00,-8.754258415158519213e+00,-1.536802236699058577e+00
-1.560149813478997505e+00,-8.905814896950364101e+00,1.286489695991720472e+00
-4.914712740208984632e-02,1.685279494665525624e+00,-2.045452203417315484e+00
4.119335209132230169e+00,-1.987192745565321328e+00,-7.819064364255392974e+00
1.432661768991434270e+00,4.476356691025920043e+00,-5.335847447213796002e+00
5.730917685378614124e+00,-2.420820415668410330e+00,-6.924267058881208747e+00
-3.629636168439325239e+00,-2.086435692147556420e+00,-8.992320709710551085e+00
2.193658514817178329e+00,-1.910828811249605685e+00,2.549955680254643475e+00
5.210458542490841616e+00,-6.168060752356670839e+00,1.699872012349589845e+00
7.012446524251072510e+00,-6.281590260910444812e+00,-2.360650143033905746e+00
3.216490978282810165e+00,-3.244364416243418425e+00,4.170528087199350864e+00
8.529454371017726189e-01,2.689388687469698613e+00,-3.163793330400582526e+00
7.023736984112651793e-01,-4.363480255002445851e+00,5.023218527352865337e+00
5.161592022911568378e+00,-8.108627149171539372e+00,-6.025747393383507067e-01
2.435200210095802120e+00,-8.526006618871287301e+00,-5.294387236511420847e-01
-2.633589383271457418e+00,-9.148506122672298346e+00,3.716577628530476352e-01
-4.411573434523073267e+00,9.651949293302883870e-01,-1.880602678204180256e+00
3.816782215800097688e+00,-4.914539809964135308e+00,-4.591310693457457681e+00
6.753851714854297583e+00,-2.785823003224336958e+00,1.394576075466392284e+00
-2.774566004212981163e+00,2.573265407873976951e+00,-3.486140503642217503e+00
-4.115237957976304095e+00,1.423818059779399459e+00,-2.584201891895725467e+00
4.579577782835956512e+00,-7.457740287624712749e+00,1.233447170180239860e+00
-2.018542768096486917e+00,-8.999088507449203078e+00,8.742975369460559421e-01
8.393731988565609203e-01,3.867990944925199237e+00,-4.370983708851277960e+00
4.207116408006839059e+00,7.720472731910674735e-01,-7.231279983871712780e+00
4.016975806541574379e+00,-2.827462466357444804e+00,-7.041266654931405355e+00
-2.919969379683662769e+00,1.795543186025259308e+00,-2.581859985543651259e+00
6.943375693123435610e+00,-1.734381343576569146e+00,9.453041071478025525e-01
-3.642986932250313004e+00,-5.854528828122637307e+00,-4.756085967564802175e+00
2.598531772631115455e+00,-6.420728538663654561e+00,3.269199198964105157e+00
1.533261220821982240e+00,-1.693032909653809259e+00,-8.928798341014624995e+00
4.028115605539731803e+00,2.671133370614387381e+00,-5.653875435263007176e+00
1.771232118866636895e+00,8.345290666862531515e-01,-7.296507212761143002e-01
4.425024726892408111e+00,-5.934395451630540386e+00,-3.308936948719769067e+00
-3.688483700886405092e+00,-4.622372701616279222e+00,-6.189619955846341171e+00
-5.379189104308528258e+00,-2.283636692851879868e+00,-6.844990494207382703e+00
-6.655143744445752851e+00,-1.736827224429749350e+00,7.899572324752633934e-01
-1.348447087932641120e+00,3.882988705721773126e+00,-5.845429175535325150e+00
4.336340737636943388e+00,-3.663790244481611058e+00,4.527908053357848850e+00
5.080285188978827193e+00,-3.594337641465290112e+00,3.451057510268080275e+00
-5.339378160719877364e+00,-5.010417519700226308e+00,1.140591274556768564e+00
5.892295212969008489e+00,-5.199062065092552309e+00,-3.784340186643389448e+00
4.519922552989861231e+00,1.917465776524751309e-01,-7.406244663533817274e+00
1.314529980839572509e+00,-3.516402292368897786e+00,-6.589531461935374423e+00
-5.522349196004439520e+00,-6.235860331498072284e+00,-5.100500756183491413e-01
-1.729170886314017386e+00,8.928799354559754931e-02,-3.452769047595724006e-01
7.425878907225114567e+00,-1.216336275985803850e+00,-3.888657307448636913e-01
-9.365761891599989619e-01,2.494682375792108164e+00,-2.932068391378191752e+00
-4.528284116478364929e+00,-6.989986047526199897e+00,-3.744743199978111114e+00
-4.553046685424066986e-01,-9.429467898225484035e+00,1.138665391015884376e+00
-1.475122681814460268e+00,-1.978388985786161847e+00,-8.859051184998822492e+00
7.540998499412598477e+00,-2.775014462573464957e+00,-4.264007382392971834e+00
-4.994371741222554673e-01,2.853971439168873303e+00,-3.423578547939886807e+00
-5.203262840482238971e+00,-2.975600156014153619e+00,-7.413967686821149705e+00
5.727505044871722184e+00,1.406285106660241535e+00,-4.888617260418607557e+00
-3.962399134963330738e+00,-1.264796469694724479e+00,6.395372422549435720e-01
9.790352208913721821e-01,-6.208969359777520403e+00,-3.463192203016825843e+00
-2.251628059575538465e+00,-9.118571553153644871e+00,6.940204482612848391e-01
1.737910338244059272e+00,3.411204267420606229e+00,-3.698018209949305302e+00
-3.777808531729861308e+00,-8.202332884914369515e+00,-2.259137237381048546e+00
-5.813544738634699449e+00,-4.645334580751856457e+00,-6.628918956223714964e+00
6.161975229653197772e+00,1.465678213420739784e+00,-4.057807004392006256e+00
1.965926562463721217e+00,3.759367081013800238e+00,-5.748641992115090638e+00
7.615525756432466764e+00,-3.863898050791611194e+00,-1.636864555729244719e+00
-6.287009127673156783e+00,-5.670150374248610348e+00,-4.108273780284434018e+00
6.664397789685117424e+00,-3.474307441846149480e+00,8.293704195782893862e-01
-2.109516911008633144e+00,-1.866647514440343825e+00,-9.239537079653386442e+00
7.551311916220385889e+00,-1.637152381383588651e+00,-2.917582238722411958e+00
5.704106404591071211e+00,3.123738495754079469e+00,-2.873947438307283608e+00
5.210134167545934503e+00,-7.840838972775684645e+00,4.278265673765416222e-01
3.543237066897871657e+00,-1.691812567103675669e+00,2.596186001876567673e+00
-1.263047611329945585e+00,-9.483437814243309560e+00,8.488767291211503085e-01
4.879889043727941633e+00,-8.442469435415153711e+00,-1.349357027293910383e-01
6.963659793534061393e+00,6.497537010589021778e-01,-1.950771714758373410e+00
-5.339127481403358466e+00,1.970105268442475521e-01,-5.227550347121135310e+00
7.652179139647466322e+00,-3.684806665611478405e+00,-5.272283932147870722e+00
-2.379105669788789346e+00,-6.293401691199349557e-01,-8.863596976260867066e+00
-1.765230928192219060e-03,-8.797360252524660140e+00,1.735787335918429042e+00
5.187875219574472618e-01,-3.238440331767804103e+00,-7.135211188749499556e+00
6.467080290526308950e+00,-7.294897470263872030e+00,-8.708739007684401789e-01
5.275403662081048495e+00,-5.937997244014488807e+00,1.876969864660284149e+00
1.732028019056809587e+00,2.427646797164257464e+00,-6.884570473509595168e+00
2.344260346763924918e+00,-1.429090339751017735e+00,-8.921668087905272770e+00
-4.794639561658550875e+00,8.133466550190604494e-01,-5.976262725430759204e+00
-4.797241573002543724e+00,-4.451270910043944262e+00,2.795878409420167632e+00
-3.680382626538048818e+00,-9.100044848056068503e+00,-6.593324947897442057e-01
-9.117004192784343708e-01,-8.774127594333824831e+00,-8.659356215534809165e-01
-2.641897855560904507e+00,-4.251675589189039428e+00,4.413009082925841930e+00
4.665008293173296572e+00,-1.306696872702630685e-01,9.908514280215398040e-01
-4.092609069382723064e+00,2.620721224517575276e+00,-3.702633645200762214e+00
-4.301646232156753236e+00,-1.772729768094163383e+00,1.136852898960927449e+00
-5.747093043549253544e+00,-3.938200804142353739e+00,1.941033917258730979e+00
5.770118254497666577e+00,-4.747933250924591064e+00,-4.507429339804470025e+00
-1.372757363345555870e+00,-2.532648714942096202e+00,-8.242401211653733739e+00
4.874995984983494068e+00,7.665234756933684279e-01,-6.565754572420815727e+00
-6.097527339639381871e+00,-1.189571234951313672e+00,2.682233533090749300e-01
7.218771761531082909e+00,-4.446776448301852785e-02,-7.811377094649206432e-02
6.605292311252738635e+00,-6.092053510331863819e+00,-2.894107460363241735e+00
-7.587113289899330981e-01,-9.723787197920714220e+00,7.028531991106402865e-02
-1.743561457878855858e+00,-2.409460001671162033e+00,2.477665247892537170e+00
-8.161177483048731585e-01,-9.488755461965775240e+00,-2.095256220594843566e-01
4.892401166169120685e+00,1.512489098962908285e+00,-8.830783578835310621e-01
-9.602412146980242591e-01,-3.148230254827047325e+00,3.454562354921984380e+00
-1.840057175560787517e+00,4.015601526119040088e+00,-5.528031975147070121e+00
3.583912246263530665e+00,2.534582068645386599e+00,-2.281069806238144260e+00
6.032236880247506150e+00,-5.598002436231432455e+00,1.009408464402118843e+00
7.070955505232229932e+00,-6.405345776342384667e+00,-1.141344864075709342e+00
5.287258159986754968e+00,3.355654908191542773e+00,-2.904968086090853330e+00
-3.576742962569726458e+00,-8.057749526514252025e+00,-2.204836379807262325e+00
-6.946565447007287730e+00,-1.181484566868923558e+00,2.708376547056270608e-02
7.053723067634060762e+00,-6.258947907836202695e+00,-1.510843275788666729e+00
-3.402084179434052391e+00,1.169610241589528421e+00,-1.999994854312232118e+00
1.623858575045083352e+00,7.446908561055936016e-01,-8.732067784778829278e+00
-1.440706353031468323e+00,-6.893426785786893163e+00,3.054693172805488910e+00
-3.633017049548429522e+00,-4.305496303236632016e+00,-6.594418724511080576e+00
-4.863641383708719346e+00,1.174279127769092546e-01,-1.024767370182657400e+00
5.308313312403967643e+00,-7.791624208655404615e+00,-1.020471173138406407e+00
-1.525963293115813357e+00,-2.854508783413074458e+00,3.204827771298529804e+00
-2.655115589921123842e+00,-5.211328794535433850e+00,-5.572118580825877743e+00
-5.366025208474176189e+00,-9.035528012829252553e-02,-5.597913288647109908e+00
2.714296730926696988e+00,-2.341213330704476903e+00,-7.740219756126992756e+00
-2.881260344995890677e+00,-2.561219429907942491e+00,2.359664691886671939e+00
-6.058609994870329807e+00,-4.501779129388162382e+00,1.346685746872182121e-01
2.551828034682191770e+00,3.043652053329547247e+00,-6.349768827121880399e+00
6.501792284411088474e+00,-1.234537706717047101e+00,2.305048064815394149e+00
-1.355443470765812730e+00,-1.596491717777196229e+00,1.774044302668835060e+00
7.812068681134871628e-01,-8.375264366496764978e+00,2.127739504935366455e+00
-8.064002246314906364e-01,1.714944449789405301e+00,-7.787337530811877961e+00
-3.185273304021932095e+00,-9.518409903304430486e+00,-1.272528185366800513e-01
-5.766398913028020878e+00,-4.485628985091636989e-01,-5.080716570635324558e+00
5.867119635264838706e+00,8.845849613104160847e-01,-5.176086818175683391e+00
-3.953027260127988995e+00,1.011532529461981689e+00,-6.359486347600204148e+00
-2.944035295244937345e+00,6.302928247057983935e-01,-1.231190492681608406e+00
-4.077966964119943860e+00,-8.282596201047603302e+00,-3.572368221446818315e-01
-4.548570664744283398e+00,3.008752606649519823e+00,-4.339339825091705904e+00
-6.876413168634102568e+00,-6.945476635872979143e-01,-2.087373211021941621e+00
-6.461565559109408774e+00,-4.369121905041056131e+00,-3.853534990943070948e+00
-6.326647857878292314e+00,-4.667432421943297882e+00,-4.949737993768613009e+00
2.505009071132698883e-01,-7.302551906804746196e+00,-2.629350462262888044e+00
7.402122015937445454e+00,-6.337163571758329894e+00,-1.898737148825923704e+00
-4.313337886478906036e+00,-1.942208657564176821e+00,-8.176949812810279994e+00
-5.381774361041076205e+00,8.517414268804852640e-01,-4.844033986868655717e+00
-6.375380611326877833e+00,-1.700093803757280475e-01,-8.910810122071276540e-01
6.422753063294396547e+00,-6.584446577251343413e+00,-2.492848964122261479e-01
-5.011962368098984655e+00,-7.800416335084241481e-01,-1.569639052960738676e-02
-5.583642603449596287e+00,-1.090373185972285608e+00,-5.585995800292412383e+00
-3.035276743952174172e+00,8.049271250564894453e-01,-7.457639987602062703e+00
-6.131404026774959881e+00,4.723365765014356232e-01,-1.729604372930326095e+00
-1.753689591710972939e+00,-5.814916961175137233e-01,-9.349710988906805298e+00
-6.205335911466169918e+00,-3.724902484626775312e+00,5.648131927898175642e-01
-1.658274579914426505e+00,-7.191856628978031019e+00,-3.016429263590456156e+00
-3.206306197108649947e+00,-4.792593577467158639e+00,4.088387395956324610e+00
1.885458302575136136e+00,-6.137843389606481459e+00,-3.498015192890237657e+00
3.446801027887121727e+00,-6.555861122613996450e+00,-2.775542544887239060e+00
-6.342491874582338873e-01,-3.975039230331620654e+00,-6.480178223830540318e+00
2.653768029633120307e+00,2.200747136667720039e+00,-7.126662322508606984e+00
2.278000613275339870e+00,2.104744493146995854e+00,-7.275263732397565519e+00
-6.050917894172534339e+00,-3.590791075244520680e+00,1.067085971305236747e+00
-4.416667125926108994e+00,-8.817905689225842281e+00,-1.526375687775603618e+00
-2.185720778577634249e+00,1.008871214268549643e+00,-1.518725513299177488e+00
6.276258514230296903e+00,2.311441012447502885e+00,-2.258856920650903710e+00
-4.076144389244006128e+00,-2.328509174160532602e+00,2.134429305358207074e+00
-3.040412229651712650e+00,-7.628705599467269671e+00,-2.552852915680200674e+00
2.734261866124080065e+00,-3.250999315228049635e+00,4.057049146968929598e+00
-4.215076106172634063e+00,-2.045088313179891593e+00,1.541226770624770426e+00
-5.684622231608995158e+00,-4.192987696375142015e+00,-7.055039537322510768e+00
-4.722822627303780330e+00,2.984880880623685062e+00,-4.256727349246301806e+00
-4.163282763553652899e+00,-3.506339198660367362e+00,3.335243721044942156e+00
4.176819318272671389e+00,-1.045393704314383942e+00,-9.012593233380021829e+00
-2.148454157791036323e+00,-8.879779243192448490e+00,9.131388681645047356e-01
-3.661181046215957191e-01,-6.213122650789869361e+00,4.051337095038454628e+00
1.869623482809857462e+00,3.693488120479066605e+00,-3.973321803448274903e+00
4.405958319550409286e+00,-2.654511132933010220e+00,-7.072578412333237807e+00
-3.001884314862327763e+00,3.250242546778855157e+00,-5.597380809073547070e+00
-5.966514726955394643e+00,1.289348256115983693e+00,-2.507681866021270967e+00
-3.493017345708728794e-01,-2.648169464187271505e+00,2.920487160401191495e+00
-4.701166555338178732e+00,-8.145125764104141908e+00,-2.288932977091673315e+00
-4.181235794589764687e+00,2.249142393577983512e+00,-5.491586129691085283e+00
-5.923767309725919139e-01,-8.593392411595734970e+00,-1.107777848087198480e+00
-6.360960659456823763e+00,-3.715939534011591938e+00,-1.398716992674150505e-01
-5.810075009061557161e+00,-6.039265761320116610e+00,-1.652710439982415735e+00
1.708558720412226783e+00,-1.401245150317846910e+00,1.966058884395411432e+00
-5.568441939804900542e+00,-7.598236822234498256e+00,-2.443165099481546143e+00
-2.854787614317466637e+00,-1.756635481461599424e+00,1.563685497764516485e+00
-1.032537482105112092e+00,-6.323387327491480914e-01,5.028207493793684923e-01
-3.009667951626892712e+00,-4.748310739950896142e+00,-5.991148960990408945e+00
3.884612899813241871e+00,-2.504448768373000345e+00,3.479577179673091880e+00
6.646952357624006380e-01,3.613905597493687338e+00,-4.136564562553699531e+00
-1.143704782007634702e+00,2.529532203089108755e-01,-5.281536843118451729e-01
7.689732985985064495e+00,-3.211365941723592243e+00,-2.535708767839145228e+00
-3.872780796965468397e+00,-4.488504612819118833e+00,-6.414668618284347090e+00
2.791677989460952247e+00,2.351630942314628214e+00,-6.822508218907655575e+00
2.157830182974168842e+00,2.225158971215929427e+00,-7.143962401633520365e+00
-4.643258098655389521e-01,4.059581930668421101e+00,-4.892613192764929231e+00
-6.669322840103500738e+00,-8.262925541209131808e-01,-3.504245860947550195e-01
2.673260279685067076e+00,-4.835779138717501979e+00,-4.782315343752586934e+00
8.543382350211088383e-01,2.257747910845780748e+00,-7.412666128110258157e+00
6.781596739002907492e-01,3.328729940012883137e+00,-3.741141736626664827e+00
-2.258935968623428714e+00,9.310752274447540167e-01,-1.474072487918040242e+00
-2.026233730406428624e+00,-8.005889853988421567e-01,7.298951953644750024e-01
3.192914116802552549e+00,2.469117113950735742e+00,-2.356142944689614271e+00
-5.377149394379108216e-01,5.678559882092358846e-01,-8.777159479634574879e+00
1.898302983557387913e+00,-7.694206152126331411e+00,2.625825383756854592e+00
-3.340824136968199465e+00,-5.222943970099312994e-01,-7.967181649480612471e+00
2.605146675038351400e+00,-8.870338395809753695e-01,-9.411285173310945495e+00
4.150555837796919612e+00,1.964025468036008304e+00,-6.353197048832990745e+00
-4.147834002874232873e+00,-7.587124832118345985e+00,3.314890585087066910e-01
7.850373926806644143e+00,-4.702135711086422809e+00,-3.313234837157579715e+00
2.054762995344108223e-01,-7.885073863153808205e+00,-1.736105334748557105e+00
-6.115675649299319616e+00,-6.339854379290449593e+00,-2.983521232517885036e+00
6.857160602535498306e+00,-7.584832296351151637e-01,-4.472495744253843775e+00
6.063644190750788532e+00,-5.448838185535606726e+00,1.024964003753421338e+00
4.092241203677555283e+00,-8.127730727002962396e+00,-6.219250889903586987e-01
6.869198397605663864e+00,-5.091821547363300837e+00,-3.820580347104673979e+00
6.172976247001882300e+00,2.613892350477135196e+00,-2.519345355743466186e+00
7.698741973008188744e+00,-3.495044819422870486e+00,-2.907340318530641454e+00
-4.264541064613807109e+00,-6.407130584485170033e+00,1.870733224519498528e+00
1.362055599294307529e+00,-9.640658591719736492e+00,9.697235532533764468e-01
-2.634538561215014063e+00,-8.163703024125917862e-01,-8.893604365134903489e+00
-4.072500707076877724e+00,-4.949793755659266381e+00,3.384804822468933772e+00
-1.936620692095153862e+00,6.192937552848860605e-01,-8.221456658196608203e+00
5.634691614677691973e+00,-5.083563605317220180e+00,-4.097391615043293633e+00
1.488982204216037220e+00,-2.223416985029811332e+00,3.021670843111496474e+00
-6.229619104508678618e+00,-6.179008451778056354e+00,-3.853292365777020834e+00
3.337996707405768149e+00,-6.073659685361874061e+00,-3.307303289669226931e+00
6.270321357405708618e+00,-6.028202442183411058e+00,-2.933216839597450054e+00
-6.140537086583052861e+00,-3.661074642090879738e+00,8.858452188806908989e-01
2.778426295554431658e+00,1.721877479170092373e+00,-1.701142467659154223e+00
2.610735402183261833e+00,-2.417561167814850087e-01,-9.222395388123773685e+00
-5.082133230517917433e+00,-8.059337448892996747e+00,-2.870757397844026837e+00
2.938751055419778435e+00,1.471875038579673056e+00,-7.362144007378562449e+00
3.023992606818559192e+00,-9.041231277839097302e+00,1.078275313747040887e+00
1.128182684057197793e+00,-1.267822687930579173e+00,-9.178306509238073119e+00
-2.917948132502261149e+00,4.976507210344103260e-01,-1.042574847281429795e+00
5.004731865860282625e+00,-5.593505188774724246e+00,-3.632673325191450697e+00
-6.901880334739729506e+00,-1.391016079192595845e+00,-1.469164423899121275e+00
-6.232888556634358146e+00,-6.069245872143080867e+00,-4.901840623533185060e+00
4.843553309362546244e+00,-9.080350325258379485e-01,-8.327953162772187667e+00
1.465698043824702035e+00,-2.854475474440991256e+00,-7.455184383116186808e+00
5.247733055514668621e+00,2.552373355150399536e+00,-4.442783145823587354e+00
-5.863577629436774963e+00,-4.429798685707986294e+00,-6.914315120077016985e+00
-3.014031983910664625e+00,-5.579506762823184474e+00,-5.098856176157536169e+00
2.632853634397817277e+00,-1.020592377061362743e+00,-9.208011816585973008e+00
-6.914718136186843722e+00,-1.401358178205077909e+00,-3.100247183649921245e-01
6.931848444417428645e+00,9.504774807506713996e-01,-1.276818873002516064e+00
3.291543133437990210e-01,-2.582094170858463045e+00,-7.924143367216457179e+00
4.633950874432412603e-01,-1.990870623952369689e+00,-8.521006723754961598e+00
-2.117541629402554249e-01,-2.323933429697248698e+00,2.823863708915069104e+00
-6.188558128110680734e+00,-5.688719212862906716e+00,-2.687440252521253736e+00
-1.216195308349796278e+00,-8.514222988818866966e+00,-1.366489623472853410e+00
-2.736212206621491561e+00,-1.221608782335984911e+00,1.004441313656102119e+00
7.269791722540551726e-01,3.047928742580274353e+00,-6.702757030174545605e+00
-5.619955459500110884e+00,1.881300523770681243e+00,-3.038112496355041436e+00
2.668573582320482362e+00,-2.645460533130020053e+00,-7.562198780044264268e+00
-1.214082708054859960e+00,-4.953455897325902413e+00,-5.560296152522001378e+00
2.108081194630340605e+00,-3.851079035598433009e+00,-6.151549513940721248e+00
-2.774316415604214825e+00,-9.155941693076835364e+00,-9.368811627700304179e-01
-6.517624830686489901e+00,-2.540007298319701956e+00,1.206948294602811611e+00
-2.821509826695221879e+00,1.889338919992184618e+00,-2.706115129200032943e+00
3.151859171571205764e-01,-6.950726509327171954e+00,3.397650271660431098e+00
2.399654608451681437e+00,-1.987756787197404673e+00,2.789208642763784329e+00
-2.420823149514029701e-02,2.311412992036509628e+00,-2.506868040938525777e+00
2.415048711497615574e+00,2.475489474979285287e+00,-6.587363774163619290e+00
-5.786334913070358965e+00,-2.797573490468356461e+00,-6.078423713625027425e+00
2.660344469531198186e+00,4.067192283916750917e+00,-4.218730683810133719e+00
3.906291637556567498e+00,1.365053964732823255e+00,-9.238632304593220601e-01
1.293831258910380866e+00,-6.027762715764229284e+00,4.103180442283844265e+00
-3.409298080908604867e+00,-2.061101405946607290e+00,-9.166432643775207723e+00
6.853473531657138906e+00,-2.160664430201653552e+00,1.083779874269304333e+00
1.721711748991341828e+00,-4.569902473476477489e+00,5.029175755548176419e+00
-3.553406105062497655e+00,-5.718369661607491494e+00,2.865592969414341606e+00
1.952404986823433886e+00,1.812111813846154273e+00,-1.764902691093427345e+00
3.704540029461124373e+00,-5.654691509698400731e-01,-9.219518520503745762e+00
3.841559069938714766e-01,-2.136470534038246161e+00,2.639845304491353684e+00
6.215529010936212906e+00,-4.291520710407735528e+00,1.465123326912628032e+00
6.569924006629531021e+00,-4.170570140150234195e+00,-4.957050560264862682e+00
-5.545115420311510945e+00,-4.931556188097926174e+00,-6.294320026640065180e+00
2.522401420574388098e+00,-1.903378217865894895e+00,2.509587271127597052e+00
3.654300524018426533e+00,3.749481312641457453e+00,-4.833128883042277835e+00
5.824935453674243035e+00,2.847925481093598332e+00,-2.181685312905720320e+00
6.957757671766725771e+00,-2.949496886871551649e+00,-6.186984402916832160e+00
5.241449638143894418e+00,1.623839512580899980e+00,-5.385290155833090786e+00
4.486858958046688883e-01,-4.745023743088738755e+00,-5.384463697117470637e+00
6.110509114932156649e+00,1.690923412064943898e+00,-7.879302371824420392e-01
-4.307951129158360537e+00,6.719038241879536910e-01,-6.453116742779927861e+00
-6.667677579413877620e-01,-7.725741627512847209e+00,2.526490688242609917e+00
3.266010548778871536e-01,-8.409904169607205660e+00,2.068572185414999876e+00
4.499787137805649762e-01,-4.946394044004907897e+00,-5.113597406010875090e+00
6.925964234443228840e+00,8.886070149947372654e-02,-3.080377238218247271e+00
-3.730984673406524177e+00,-6.894215416111708628e+00,1.451515624522471404e+00
8.353505252096782296e-01,3.095471198087647480e+00,-3.462676673236822378e+00
5.551496754601746630e+00,-6.443289229233204018e+00,-2.477076861868368951e+00
-1.552621448205297794e+00,-3.300553001231994354e+00,-7.342869539260923339e+00
-4.002992621586951572e+00,2.575981392820409610e+00,-3.679163121769898126e+00
6.023943856574600630e+00,1.161036216245625363e+00,-4.656226562839832717e+00
2.412829072563749122e+00,-8.409888389780698859e+00,1.940960225646177317e+00
-3.858259549387933252e+00,-6.493464612603315089e+00,1.812890109479471823e+00
-2.057145748626604043e+00,-9.517789162997672747e+00,-4.501167541846118336e-01
-6.327565686296688696e+00,-5.270672250663889002e+00,-2.791068801952002243e+00
1.073347271902044708e+00,-4.901306332490067419e+00,-5.002560880687190625e+00
-6.469515885665941823e+00,-3.376964550101883678e+00,-4.606401030979921707e+00
5.117923473623044117e+00,9.901384457493863644e-01,-6.261219060671957770e+00
-3.362228570786549575e+00,-2.037448219288076956e+00,-9.176975895011567630e+00
-6.246288238528284076e+00,-5.738625732775939348e+00,-4.672668737309517262e+00
1.523098462129238995e-01,-9.399148511157285668e+00,1.208884554975600212e+00
1.343700388319972183e-01,1.537615292506227194e+00,-1.736771779292517248e+00
6.021186611965330115e+00,-4.759584625401035218e+00,-4.410454092494976663e+00
1.216469809739370023e+00,2.004411499227583437e+00,-7.464754560682922424e+00
7.738088104476312790e-01,-4.227897215276132492e+00,-5.716298868394689592e+00
-1.757765876412039630e+00,-4.263554263415139545e+00,4.429464672853254292e+00
-4.197940338862846232e+00,-4.487465362285201209e+00,-6.457713684791665187e+00
-5.369565672677954815e+00,-4.441391225553224409e+00,1.986179090248642920e+00
-9.344441965923645510e-01,1.745278830587922769e+00,-2.298166724487972434e+00
-1.440680923985856010e+00,3.553652766153115206e+00,-6.034696974586415408e+00
5.426362655861033168e+00,6.895579318688939141e-01,-6.118544262683743185e+00
5.561748591370780481e+00,2.129933909669704306e+00,-4.137550985915950719e+00
2.562011392907274310e+00,-6.812637935531401290e+00,2.846414023649441738e+00
6.201299528674527828e+00,-6.460691165526776025e+00,6.886848332783289395e-02
4.495725508835213824e-01,3.130492613321216755e+00,-6.583532528623622149e+00
-4.778777427576969217e+00,-4.792933933660043166e+00,2.478308985322946079e+00
-6.908370325023397207e+00,-2.304746402243765591e+00,-1.404462135623990804e+00
5.439570307370749980e+00,-6.791654201056795515e+00,8.844760762600669679e-01
5.409624352117676338e+00,-9.355724270573603785e-02,-6.809212486955471100e+00
2.518472970963880203e-02,-9.763432291697748511e+00,5.022759177059447078e-01
1.320853957937544454e+00,9.230663729001716833e-01,-9.443746137980097988e-01
1.320150527577013566e+00,-5.756728897548719637e+00,4.466626039337950438e+00
-3.475111036983664192e+00,-6.671645717542973308e+00,2.075803180538045023e+00
-6.660544321792594147e+00,-2.222748927923930751e+00,8.801735174636287073e-01
4.979231709305600440e+00,-2.900467768629412024e+00,-6.926948188278860385e+00
3.342210568806361692e+00,-1.980451442440367416e+00,-8.161929485900691006e+00
-3.917702476194506733e+00,-2.746170505169578946e-01,-3.142722885642971198e-01
-6.012163540893177505e+00,-3.548352455542591155e+00,1.955137549423114462e+00
5.250760876605611749e+00,-6.291420039456045110e+00,-2.698578800165349900e+00
7.893947144714470454e-01,-4.251473263570640371e-01,7.854653222063152640e-01
1.003677341015478452e+00,-8.913608424026167043e+00,-3.636809444356908783e-01
3.178087688208536044e+00,-1.551151956257203757e-01,-9.000056409329026508e+00
-5.756461076735233107e+00,-2.957553437309262900e+00,-6.531368009071313097e+00
-2.567257391542970613e+00,3.514671822944066104e+00,-4.659671129530583933e+00
-2.801531864374086744e+00,-4.603660446224969505e+00,-6.338825787600436357e+00
3.943700967466738039e+00,-5.610001948564503849e+00,3.168965068975846400e+00
6.941316121944657525e+00,4.187163504971446737e-01,-2.848830847480605666e+00
6.948944712154281333e+00,-1.295189750485614244e+00,-5.500241674548640880e+00
1.409426665402427670e+00,-6.332642839695247439e+00,3.696499673530048824e+00
8.342581522777688940e-01,-4.234563769600582006e+00,5.074016358529487292e+00
1.352701270678332124e+00,-6.775778241671174484e+00,3.368872994632306384e+00
2.164595101196345350e+00,4.027105072607859881e+00,-5.626439538421514008e+00
-9.696595852569155349e-01,4.007443916683484098e+00,-5.856577837103680295e+00
5.280294754733227514e+00,-2.636498964158344283e+00,3.931137504793772219e+00
7.269848848508336125e+00,-5.014668448474518536e-01,-1.111185585353811955e+00
7.757036771983306878e+00,-4.051422010809111462e+00,-2.227753318477172062e+00
4.884270165758569426e+00,3.344350114514902828e+00,-2.806103251552807265e+00
7.236378654768023111e+00,-9.208745911746299972e-01,-1.656835658490368290e+00
-6.424678123357903559e+00,7.499017492868187418e-01,-2.697887081594338987e+00
7.031202609297042549e+00,-3.305215603558022686e+00,9.894341593881925134e-02
-5.885066738651651974e+00,-5.632326503802220080e-02,-4.490715478103723513e+00
-5.199640233638508136e+00,1.675454307091205797e+00,-4.759816301191546195e+00
1.845590865721607798e+00,4.567651155999665313e+00,-5.318795482834996591e+00
-2.051436075874625509e+00,9.052619071911108817e-01,-7.816550106789003749e+00
1.930236576434414486e+00,4.337070120136742091e+00,-5.211749805721586526e+00
-4.872675195426842687e-01,-6.409454639344757787e+00,-3.628131446839455432e+00
7.083579471372422276e+00,-3.359715801659298950e+00,-5.674198033068770464e+00
1.573798072203946408e+00,2.351665139363705137e+00,-7.272792739748102697e+00
-5.640312556353519469e+00,-5.860084300096510823e+00,-5.289597200670804966e+00
3.222333612062990404e+00,-1.979138328592263019e+00,3.038798375487344661e+00
-6.158020209253988853e+00,-5.067662104996361272e+00,-1.202669959190195481e+00
-5.384925160447284753e+00,-8.023010417182051768e+00,-2.719966250151546028e+00
5.270855519086459218e+00,3.172227698810765606e+00,-3.611300008079678658e+00
5.571383310233302133e-01,-2.927080169126644371e+00,-7.442758265392765971e+00
-6.108988979049185808e+00,-6.289792184189873403e+00,-3.569731068794580242e+00
6.512981244672621628e+00,-4.171099195439708751e+00,-5.055678344876971764e+00
-2.261483196858684597e+00,-1.495875182479013299e+00,1.408338340390412169e+00
5.731311700150750532e+00,1.822761175362941355e-01,-6.095272258133818788e+00
4.912841382136762469e+00,-1.823179605531457748e+00,-7.994274620066939896e+00
-3.347563852878249202e-01,1.567472682090550906e+00,-1.944797081892011947e+00
4.096059856351230266e+00,-2.602679184948431423e+00,3.729672770709953955e+00
-3.783478537101763184e-01,9.780411151033461259e-01,-1.235618376513812455e+00
-3.213663413594312068e+00,-1.011592445280262043e+00,-8.527513380067558657e+00
-2.710528756883544776e+00,-9.366588391526006419e+00,-5.370212589977049200e-01
5.225915567568416575e-01,-4.023400932464872959e+00,4.788687202039010771e+00
4.711842519453967704e+00,-5.419456061713662898e+00,-3.895885980833299289e+00
5.106876862481509960e+00,-1.622506369746540056e+00,-8.117687094459636654e+00
8.439030740976697365e-01,-3.881045739691575402e+00,-6.198854968613006555e+00
3.574870645331268193e+00,-6.259118622773877760e+00,2.942375168247061801e+00
1.932143571455239017e-01,3.298728770852150660e+00,-6.681289064579504000e+00
-6.866289739375027068e+00,-1.571826060175066209e+00,-2.540956582806123687e-01
-5.878493090999435955e-01,3.885119571481045142e+00,-5.904549915355945977e+00
3.006652264648400408e+00,-8.897204785152835527e+00,-2.370731670087045367e-03
-3.069268584692635304e+00,-5.917992437446688569e+00,-4.554595292017301844e+00
-3.117602728809946377e+00,-5.680533301389169232e+00,3.422543430280116095e+00
-8.471355639320933273e-01,8.998450592442336360e-01,-1.047411489376286697e+00
2.146381299248333596e-01,-5.611065960333347924e+00,-4.340436724313293304e+00
6.429330153196395337e+00,-6.746614981990037840e+00,-1.926383810400877472e+00
2.821930225737039777e+00,-2.862841604398584927e+00,-7.130310518837259082e+00
3.575917802727754502e+00,-3.075878021954937758e+00,-6.923968087941336336e+00
7.311337512584279885e+00,-4.843608480212880707e+00,-1.213706187878483611e+00
7.858402079312139854e+00,-3.947665995684380480e+00,-4.030326943473544254e+00
2.622182864066987751e+00,2.945429007710617775e+00,-3.098421449450360576e+00
-3.854636441715892925e+00,-4.578335774171064187e+00,3.829773093854395238e+00
2.595977926786075418e+00,-6.028734400420704631e+00,3.735108992360550495e+00
5.375029806850824876e+00,4.612052965237194851e-02,-6.951156999677388981e+00
5.311087775007181655e+00,1.834909059881302040e+00,-1.140334709266256352e+00
7.112566840283660596e+00,-1.984623385004074647e+00,-5.759023484165794571e+00
4.541948010617065989e+00,1.919887535526769717e+00,-1.418277526225419249e+00
8.061690491479432952e-01,-9.567642271227652984e+00,9.482657861528788201e-01
-4.407818896093937511e+00,2.711702582401642303e+00,-4.948665600454745572e+00
6.044270173369730159e+00,-3.921556041489683064e+00,1.789645696124847252e+00
3.540192901760717881e+00,3.246057719559213517e+00,-5.496208077900411659e+00
4.664900612687326920e+00,-6.170116484318871386e+00,-2.821359193256483877e+00
-1.500901275052359374e+00,-4.773947062069002101e+00,-5.776094026318187247e+00
-2.552524935688875285e+00,-9.393013089337497235e+00,-3.104627166253409731e-01
6.503910421225425065e-01,-8.697589437369583010e+00,-5.614828136743114095e-01
7.488747484809678667e+00,-1.973941990246791400e+00,-1.448713579064407009e+00
5.700147863586564334e+00,5.933142658455397012e-01,-5.843199329926559216e+00
-2.121789777555152856e+00,-3.507892890263813346e+00,3.807067532870545001e+00
-5.617943115264196763e-01,-3.337705658194088709e+00,3.765782714964234668e+00
5.848417852114894622e+00,-1.576411462394685437e+00,2.697747241393673612e+00
3.154572817625075576e+00,-5.828467220868069454e+00,-3.583363748332121457e+00
3.466539277261535990e+00,-1.591840696625804741e+00,2.211988236289890164e+00
-1.114328535279038634e+00,2.809314272132190204e+00,-3.526051956108551710e+00
3.851509242554314483e+00,1.473455077671788516e+00,-1.038645980628646326e+00
2.881175097622213355e-01,-2.442977241506525399e+00,3.105192398630182815e+00
-7.050579972301893150e+00,-9.667124241904453408e-01,-1.487595589239325333e+00
2.503459760335601025e+00,-3.417682520379172195e-01,6.857996796058829503e-01
6.923661462545467771e+00,9.776887326265429889e-01,1.344641520337303275e-01
-6.717962158333769196e+00,8.741479921558388266e-01,-2.625302216982663417e+00
5.160673243911631403e+00,1.885476155722423330e+00,-4.868812160111703591e+00
7.096073355873142204e-03,-3.855484615170790441e+00,-6.469969002464983632e+00
-2.734747396256100416e+00,-7.669469029942163729e+00,1.712869118795112833e+00
-9.550947109241793020e-01,-1.511245667557559180e+00,1.586315509908188037e+00
-8.945782759071113643e-01,3.337302599161100058e+00,-4.031025597211153944e+00
-3.666434206790242012e+00,-5.526162178261843749e+00,-5.180685126478911329e+00
-2.406560421951312367e+00,-7.933358836797549607e+00,1.513828585104620927e+00
7.337288082392097621e+00,-2.456470505320746511e+00,-2.084979059436598003e+00
-3.585639294399329824e-01,-1.596588265022504505e+00,-9.302331334677285568e+00
-1.389187724652255040e+00,-8.330291376819083382e+00,-1.522295292674167744e+00
-5.121325545985031980e+00,-1.332731444674422727e+00,-6.844869082865143284e+00
-1.979643478806915935e+00,-4.314578034464396694e+00,4.750578849176648966e+00
-3.383006330570168974e+00,-5.384973092345508583e+00,-5.290844013542725044e+00
-1.934322107418808390e+00,-5.522662095091934731e-01,-9.014188299723173259e+00
2.573195043402880966e+00,-8.938388830769094184e+00,-2.384853221421051606e-01
-6.421533111164114127e-02,-1.440339145516531971e+00,-9.431746994085752789e+00
5.374311331022382454e+00,-7.031886623322576746e+00,5.764619796720736877e-01
-6.051590207906487606e+00,-2.633699425972128694e+00,1.999448572863162799e+00
-3.022959585263576443e+00,-4.624983511427532279e-01,-8.343273921280273342e+00
-4.683375477396510278e-01,-1.555951296836871167e+00,1.664637490296993816e+00
-3.763228295202639018e+00,-4.351106471707352874e+00,-6.522507653701862473e+00
5.537893893277616719e+00,1.191941119381485503e+00,-4.735983311327800482e-01
-2.732900758722191181e+00,-2.072983316842929469e+00,-8.960468317886489231e+00
6.303036458494047700e+00,-4.814135349968349686e+00,-4.324574097491119318e+00
1.756936273796839698e+00,-9.326550612093893466e-01,-9.711806067930915276e+00
-6.640652154855706257e+00,-3.118549798604453471e+00,-2.969635961469051733e+00
-1.470786067886054482e+00,9.497523351379139056e-01,-1.341690921155058280e+00
-4.453089871902192520e+00,-5.264741333000728218e+00,2.356088928174054686e+00
-1.988903588335302619e-01,3.319309383653418877e+00,-3.782654561687965877e+00
-2.145350184681583894e+00,-5.003032052147217357e+00,-5.624498071821001588e+00
4.027174266948274628e-01,-5.167863243856977817e+00,4.993350496937487115e+00
5.738538958057516126e+00,-1.528265240875464670e+00,2.838342286374790469e+00
3.865358963678308779e+00,4.001347069840547555e+00,-4.059631772525521320e+00
3.565339339860098544e+00,-4.366549843477367965e+00,-5.233504185352960469e+00
4.784061934668156546e+00,-2.838022238852360601e+00,4.134484362922158596e+00
1.067140033182848891e+00,-9.776176983391639652e+00,9.665700011562040617e-01
-6.558391396047588806e+00,-3.723578174725918455e+00,-2.215048364122238975e-02
-6.499213001824054814e+00,-9.652052337962874207e-01,-3.627888259685174255e+00
-3.863591454351903209e+00,-2.215167646423201298e+00,1.857046441182032881e+00
-3.830948530507403138e+00,-8.489900186163270135e+00,-1.082673426770727892e-01
1.510274161735753129e+00,2.204935829023928040e+00,-7.374147848590355991e+00
-3.944128937682942482e+00,2.441796459987328749e+00,-3.490837990211066444e+00
-2.020817209804044001e+00,-6.219148212893467864e+00,3.534846767510511523e+00
5.490379306259011827e+00,-7.020950194029162983e-01,-7.270792071302271786e+00
-2.310798131000570965e+00,-8.678058575604467251e+00,-1.096008006872924767e+00
-3.665507277575390077e+00,-5.128640199438244451e+00,-5.637184138004831979e+00
-3.116324618966744620e+00,3.724334083118012728e+00,-4.986156824409752275e+00
-4.246195498032871107e+00,2.655316151081219100e+00,-3.781094589907817216e+00
5.455401365546518555e+00,9.293787989071580213e-01,-5.522218441053437843e+00
6.374145762772095658e+00,-7.457215378087910018e+00,-7.513975475577541197e-01
4.423617580386989268e+00,2.545198436355456284e+00,-5.617787817553212548e+00
-5.489811606674314781e+00,-5.248137759157750493e-01,-5.775673809121768087e+00
3.379334569507087327e+00,-3.482675362426790322e+00,-6.203938157860187097e+00
-6.190347870865602786e+00,-1.098353585069880012e+00,-4.626798577028369053e+00
4.204539311524896905e-01,-3.012866581308659697e+00,3.624560518313694857e+00
-1.559326834922036165e+00,-7.105106105879527512e+00,-3.145276950367903446e+00
-3.586401107954622636e-01,2.325232617788664802e-01,-9.027893259886983657e+00
-6.778896087541194326e+00,-1.869894845156282237e+00,8.979194189706645179e-01
-2.640700293091168049e+00,-6.085577980349948568e+00,-4.395104340400549425e+00
2.129716765331057804e+00,3.790733228651212094e+00,-5.643146807593137027e+00
3.076728511815970402e-01,-3.555234979073505386e+00,-6.882947283703886754e+00
-6.495567583141255597e+00,-4.465287205009776272e+00,-1.320696710968320309e+00
-3.726908298749786574e+00,2.574870502854434307e+00,-5.564138700675009375e+00
3.136208103843132200e+00,-4.319045697233509173e+00,-5.446057078897326598e+00
-2.186276812070069298e+00,-5.194810053776825143e+00,-5.307490340196460821e+00
-3.455492973738881535e+00,-5.298102482424915216e+00,3.481332530355851773e+00
-7.682703820307996700e-01,-6.487124651555903121e+00,3.780520224507493143e+00
7.563697981760144629e+00,-2.033913787373060611e+00,-1.392760707511387031e+00
5.265579615312132589e+00,1.316883849816669505e+00,-5.725732828459438650e+00
-4.151843121200135656e+00,-3.964771262031989707e-01,-5.450189175263437935e-01
1.459378766032585872e+00,2.519091710088980474e+00,-7.221719050169254750e+00
1.582665331567577605e+00,1.325486109208145580e+00,-8.094941134870634158e+00
-5.020705833024004860e+00,-7.071591856584863223e+00,-3.598051775261336793e+00
3.465463930194929709e+00,-7.166806828468587298e+00,-2.093938034497061729e+00
-4.536512320892502004e+00,-7.605720008366086304e+00,-8.365092337851021131e-02
