-6.439429756765105317e+00,3.326244866081284890e+00,-1.606111873468391904e+00
-5.518510632230758439e+00,4.179024620987330962e+00,9.090896054482957567e-01
3.895663113039136705e-01,-1.727617564707763176e+00,-9.849799541762987998e-01
-4.186358429523880709e+00,-5.485594005092330860e+00,5.831265495131833232e-01
1.067541090782062385e+00,-5.104108389812082258e+00,-1.535940733898045085e+00
-4.155198386400019039e+00,-5.409416407949959371e+00,2.028463813093743795e+00
-4.667122526836131158e+00,-3.307380269383275007e+00,-4.978231613896064722e+00
-3.612747343143947742e-01,1.311795627940751885e+00,2.625901206584674963e+00
-3.538161609408011277e+00,1.067000639513650873e+00,5.112166447175279238e+00
-5.094011008355975534e+00,-1.951972554175574803e+00,5.029830110475550065e+00
-6.703936269828336680e-01,2.319604289420270415e+00,4.066200002908201050e+00
6.566540889246483825e-01,-3.038924689413206703e+00,-9.144679766449964609e-01
-1.108796239915742499e+00,4.101501879134410444e+00,2.848109985808092492e+00
-5.680312764502100542e+00,3.474658887359252102e-01,4.671607083942350691e+00
-5.929952459378183605e+00,1.522822556603126820e+00,2.937970720302669925e+00
-6.012634748900948622e+00,4.110231314026259852e+00,-6.462163715637089800e-02
-2.761811776501587462e-02,1.979626484784847429e-01,-3.734443890438767788e+00
-4.980669377563472722e+00,-2.534441768873901157e+00,1.928732432227958205e+00
-1.377247762111466045e+00,-7.603077411484928660e-01,5.464152970697766953e+00
4.672528921040022265e-01,-1.863123401887009978e+00,-3.432583620113968337e+00
2.445131698280174348e-02,-4.723209876840502308e-01,-3.842124165685130155e+00
-4.574012888714594105e+00,1.435490958781469262e+00,4.761322149024299399e+00
-5.730377507145174576e+00,4.133633004107482023e+00,4.845392171238033785e-01
1.010264499383867864e+00,-4.123036640806899022e+00,-1.517255524578413839e+00
-2.117260006415156770e+00,-6.053613954796652763e+00,3.545179395928640398e-01
-4.468407034621384888e+00,-4.720523138212624481e+00,9.109454347721679390e-01
2.733298063971281167e-01,-1.027682798430014754e+00,-3.103626531517532872e+00
-8.338695479842344049e-01,-1.431065662963283636e+00,5.264373966565117691e+00
-5.660554142368203756e+00,4.016355367194610615e-01,-2.967493004930567668e+00
-3.133148676114077880e+00,3.030306398872224971e+00,3.909963674301569547e+00
-4.387879041018073245e+00,-5.286978191579809305e+00,-1.561386966407525501e+00
-2.662867160900195262e-01,-5.665024183144829806e+00,4.152349214387906495e-01
2.929790874178179183e-01,-1.346162461547111278e+00,8.085608070598618857e-01
-5.201156395990182979e+00,-1.674593524675427547e+00,2.927369055461558567e+00
-5.353186228290648607e+00,-8.214263032152395727e-01,-3.674052491465692682e+00
-4.016028799219222734e+00,-1.336765417933427180e+00,-5.424726297526663465e+00
-8.698632066900909843e-01,3.459385597822191016e+00,-3.910186323276900300e+00
4.877441462975558584e-01,-4.196145819579237823e+00,-3.464008651533807548e+00
-8.243093809263664085e-01,2.254358334992784485e+00,5.005588711205364305e+00
-1.170402585805548679e+00,1.324420654325620728e+00,5.145059260626019260e+00
-2.945883776145862942e+00,4.231340444029344283e+00,-2.347786723178932888e+00
-4.881933565054648483e+00,-2.727707910438340821e+00,3.631222319774948915e+00
-2.571626911177457675e+00,-6.085788115393526709e+00,6.083030252159413731e-01
-4.763027214939757670e+00,-3.243749745432206399e+00,-6.373978141969985911e-01
-4.369896373369880571e+00,3.716670193317040294e+00,-2.791570538972114601e+00
-6.269791745963704255e-02,4.011864533174155367e-01,-1.287236014359243175e+00
-9.714449568661113199e-01,-2.560509105319089596e+00,5.067725621904002331e+00
6.128987661713203305e-01,-2.184432804599185207e+00,-2.006760453559035096e+00
-6.054905481053458161e+00,1.685688337222269517e+00,-3.038563470084528095e+00
-5.926204088417375893e+00,3.854606694629043595e+00,1.693309828430081820e+00
-4.549510478195347041e+00,-4.052552993236203882e+00,-3.508176765302206679e+00
-3.428951338188659381e+00,-4.389958584656346474e+00,4.163321476601164584e+00
6.750641904649654634e-01,-2.749415188352986483e+00,-1.934292758341421559e+00
-4.688541330151013931e+00,-1.515499622060186180e+00,-5.370700005281984879e+00
-8.413441225597431128e-01,-5.431545023513693060e+00,2.021452388369183062e+00
-6.115211013559009867e-01,2.233285477842277711e+00,-2.233536499295672773e+00
-5.436281008971861617e+00,-4.154501056975685724e-01,6.127437045752611722e-01
-5.875902507338358838e+00,4.150892610548201134e+00,2.905927662073565787e-01
9.463448299000447594e-01,-3.909106912959518176e+00,-6.180060534880884582e-01
-6.331164680936227640e+00,2.674887432461545256e+00,-1.845564749009551475e+00
-5.524914176717164338e+00,-2.947768780682052392e-01,-5.237879192847682219e+00
-4.999953237452266497e-01,-5.119621034961392425e+00,2.570982301556932192e+00
4.344118020566545280e-01,-5.313606982280699498e+00,-1.187374298504045855e+00
-3.205975845319092077e+00,-2.519279800067602437e+00,5.249991786756680767e+00
-5.296689782058680684e+00,1.693324714395680441e+00,-4.564390667418797953e+00
-2.045617178249669710e+00,-8.407180208453327586e-01,5.340720956946432452e+00
-4.611695128161046320e+00,-4.080347568680462444e+00,-4.076053337389732079e+00
-2.174178149612984168e+00,-3.963477028296685134e+00,4.408168367194226889e+00
1.046241103116491100e+00,-4.783924859590242384e+00,2.359192977646032752e+00
-5.125617286219867452e+00,8.518354168894594070e-01,4.990571734926108505e+00
-1.993796444528395384e-01,7.746430056305246836e-01,3.508531081061121437e+00
-6.066560812043520379e+00,3.996817046304274701e+00,1.067065067997765127e+00
-5.734299651879124937e+00,8.332896694341540567e-01,4.691329575865595736e+00
-2.837798975688929914e-01,-3.909416823418470521e+00,3.930426876807781689e+00
-1.759772696448739682e+00,-1.190825791468310246e+00,-5.304688632231954415e+00
-4.407588240397042334e+00,-4.734431286763604696e+00,4.069734217402078968e+00
-3.642500188314111487e+00,-4.155607482298595556e+00,-4.349596188011116027e+00
-5.284732990081563386e+00,3.838507536045742796e+00,2.081107040069136715e+00
-4.773242455892804159e+00,-3.363052125035419504e+00,-1.395636080235966858e+00
-5.232796122128291927e+00,-5.492965565552599960e-01,5.320214219354434171e+00
-3.319157174545615874e+00,1.074086700958210683e+00,5.173132888352930614e+00
-8.738155525105615329e-01,-5.472011640776307750e+00,-1.480746750176343385e+00
-4.209113896851557790e+00,-5.664277046264029281e+00,-1.060549350683106962e+00
-1.618455427699687865e+00,-2.029068610382681381e+00,-5.287703592237944505e+00
-1.968829102187918290e+00,4.830309010508673673e+00,-1.546238024065658356e+00
-6.353251544927716488e+00,3.870028937438922512e+00,-1.108325055660228431e+00
-6.213720124163798708e+00,2.629707515419046349e+00,6.264140197741615568e-01
-1.250062880498242324e+00,4.930840320392614551e+00,3.876743908072716738e-01
2.648469166440647338e-01,-1.082575346242749870e+00,3.472843074185514300e+00
4.225857821061126951e-01,-1.523191250473734160e+00,-4.395125906344452993e+00
-7.716932122517521364e-01,2.813379410031078276e+00,-2.212729412526981854e+00
-1.933115681245571871e+00,4.509887553363008728e+00,-2.548384898257022080e+00
-4.841309711024322837e+00,-3.253784766453753363e+00,3.237716690925158680e+00
-4.698159858870963212e+00,-3.549016673955866619e+00,-3.144494082441556149e+00
-1.880050026949087849e+00,-5.903923313174220588e+00,1.018528603232697005e+00
-6.924828768604975870e-01,2.772318698870982701e+00,-3.799150978357568764e+00
-7.006228922105910140e-02,-2.676178026789449049e+00,4.826379662242487711e+00
-5.159877473728195163e+00,-2.178125776643626388e+00,4.551583517791296885e+00
-6.512136523525025034e+00,3.429680834424013725e+00,1.195653226750207576e+00
-7.164650101397087578e-01,2.870899716467590679e+00,4.687722959420600327e-02
-6.455742458620245650e+00,3.210477916490830363e+00,1.026125122436418735e+00
6.880106545473100299e-01,-2.796843329560334990e+00,2.736096458547053079e+00
-8.593000062461090272e-01,3.396512786944000162e+00,1.015732303759198318e+00
6.931408951841170341e-01,-3.871256786376087167e+00,-3.714339616799689825e+00
8.690990829946609875e-01,-3.469098284644333674e+00,1.229863556576139993e+00
-3.407234520550294743e+00,1.763450651342697850e-01,5.342031578535042513e+00
-4.733939008708288654e+00,-1.214583432542905683e+00,5.484210562397941580e+00
1.191595704269543088e+00,-4.723708396080779082e+00,2.029346699558697065e+00
-6.214518465679764958e+00,2.587018216877293941e+00,-1.718123579581327220e+00
-7.733505536810856285e-01,2.938503095879981597e+00,-4.448131555410170357e+00
-4.769827747399657092e+00,-1.473056047075996577e+00,5.328012155845811115e+00
6.478501108471372560e-02,-3.076372109262832666e-01,-3.130972892107696470e+00
-2.677197442531454197e+00,-5.983860579416673708e+00,-1.858759335334142282e+00
-3.522449136763982303e+00,4.534596650365213755e+00,1.212076656583317202e+00
-5.287388714719381433e+00,-1.181882311943458719e+00,-3.822357261170282960e+00
-2.857613697712591549e-01,1.139566515713831718e+00,-3.614789819684603778e+00
-5.619341581078921344e+00,-5.418426060495735302e-02,4.580284512710865563e+00
-7.516743654894973981e-01,3.362480605522633503e+00,5.046755345418575400e-01
-5.526374068424424912e+00,-6.473273341756113908e-01,-2.679375325525615192e+00
-2.087652032711116323e+00,-1.307522175865781788e+00,-5.392617317820582734e+00
-4.393466929725687642e+00,-4.811164145612026211e+00,-2.729775980396723090e-01
-8.595756353790525717e-01,3.266589740014300247e+00,-7.283869472309859594e-01
-2.968464202012141229e+00,3.738740613755302089e+00,-3.243200518025154189e+00
-2.664313307847790413e-01,-5.653887076460765826e+00,-8.645205691106004897e-01
-2.563948439128592351e-03,-6.271127806894506440e-01,5.320658923816568908e+00
-4.262673359510131266e-01,2.053639705227553236e+00,-6.051880062623126583e-02
-4.859632405713370851e+00,3.647884162460334867e+00,2.660038518245921857e+00
-1.677234235505698834e+00,-4.846704959610194763e+00,-3.352288189170908872e+00
-6.441908845641299841e+00,4.136344585446777522e+00,-5.319202546862544789e-01
-2.139809407946216435e+00,-7.412014526718071483e-01,-5.432307820721658409e+00
-1.296933402240375344e+00,-5.485384964177971945e+00,2.112558513717307296e+00
-1.625907858490620361e+00,-2.626807859562044545e+00,-4.880993948326080911e+00
-1.906578296890010238e-02,1.505802889885329288e-01,-2.482075221418222899e+00
-5.693042339038473010e+00,3.932394418679719283e+00,-1.418970153642289622e+00
4.527344955024754647e-01,-1.855860988447757931e+00,-4.973798474817243687e+00
-1.214917819840935609e+00,1.509788040020566546e+00,-5.168046452745758579e+00
-4.328872905121183834e+00,1.491377638293536867e+00,-4.824323851411953079e+00
-4.928320543186607949e+00,8.907528239488692323e-01,-5.036151431047168003e+00
-5.867274807547024906e+00,6.930810426053259921e-01,5.823050695722125081e-01
-4.964046445486532733e+00,-1.804468981746240042e+00,5.450073015768706064e+00
-4.272519406247625717e+00,-2.622098890832331275e+00,-5.198673083977114473e+00
-1.179955938465651499e+00,-1.158402624004257309e+00,-5.322726763320811294e+00
-4.279783560534798914e-01,1.864134251686067278e+00,-4.536301411189405108e+00
-4.528933882583930703e+00,-3.936478177482332086e-01,5.368283215994149593e+00
-5.220998245588565068e-01,2.076191998744628897e+00,-3.233239335803504311e+00
-2.755443519861684454e+00,-9.009060342923617126e-01,-5.361806191763569984e+00
-2.165670756299816979e+00,-3.544677767161038773e+00,-4.584021732907111790e+00
-3.013399354823970144e-01,1.074675608856801690e+00,-4.754463397595262819e+00
-3.788112728554584141e+00,-4.686756166151369918e+00,-4.095174762872530572e+00
-2.289383016051121711e+00,3.797723899521908031e+00,-3.337150458145135890e+00
-5.930485449068133796e+00,1.128553566025276123e+00,-8.426493909818124628e-01
-1.730939242015869350e+00,5.119124620479668764e+00,-2.302016112308890531e-03
-5.402590025722417977e+00,-7.907758355959844110e-01,1.197419959393592137e+00
-5.423515236359281566e+00,-8.028377305592249158e-01,2.550701851648493168e+00
-5.028507297941046339e+00,-2.318681691382074472e+00,-1.830412364394010005e+00
-1.115933406080996448e+00,-5.879882816475796581e+00,-9.011656104504792708e-01
-1.233917719594398665e+00,-5.799182889768147220e+00,-1.184687738389909040e+00
-2.016802144146711218e+00,3.994538913137320346e+00,-3.094549458178391443e+00
-6.477615349795043720e+00,3.538046242039476041e+00,-1.931156553849755486e+00
1.297217648199024409e-01,-4.179029251561385827e-01,-2.131567106093092523e+00
7.227377265567636044e-01,-4.370859907005963052e+00,3.082243056435891138e+00
-7.830447293971761757e-01,3.496994058972135555e+00,-1.643156605121869118e+00
-6.053426575644484053e+00,2.048031752969031949e+00,-1.544829270741427951e+00
-7.153357424717058377e-01,2.431434689152356832e+00,3.707122148493548153e+00
-8.079396966423798565e-01,3.107315285006957417e+00,-1.976953816126562291e+00
-5.375890248003583949e+00,-7.380500750943963517e-01,-5.367213015391664399e+00
4.670065039158821651e-01,-1.735663677432492946e+00,-5.059919393860506709e+00
-1.138290416640531433e+00,4.613989514062906139e+00,-1.110139849496663000e+00
-3.987138293868423666e+00,-6.511931209139689258e+00,7.339353304833864944e-02
-5.635810101091411006e+00,4.165969812450235565e+00,3.892697682508876600e-01
-2.704296293711469623e+00,4.511251045286774009e+00,2.137275375810002931e+00
1.035845530126684899e+00,-4.210042155649488471e+00,-6.673504045451065236e-01
-4.364122468585597936e+00,-4.936803210375781958e+00,1.131930419109598018e+00
1.551355633237243847e-01,-3.241761070619347596e+00,-4.383941373748359460e+00
-3.513516010933128569e-02,2.939736644581761871e-01,-5.036390789471338003e+00
-7.182315366892959574e-01,2.697729247658652962e+00,1.166727324499154506e+00
-6.302026251873265039e+00,2.977250497556510389e+00,-2.484669577191910061e+00
-4.776802223878533482e-01,-2.427128068864596422e+00,-4.967969018002824200e+00
-6.180645164303490979e+00,2.312268063964357800e+00,7.313303088407517860e-01
-2.539354320824296352e+00,3.436188819107524051e+00,-3.670669482028454222e+00
-4.652742063196078526e+00,3.085158213530744042e+00,-3.387610603277057653e+00
-2.301349924665463953e-01,9.820701779315391677e-01,2.023701857727361553e+00
-5.988934160876965507e+00,3.029036081091322608e+00,-3.211029840488823339e+00
-6.080125147230903693e-01,2.530006919776921936e+00,-1.106824682233997104e+00
-2.407000052146800462e-01,8.770948974381561625e-01,-4.211039368247889714e-01
-5.366808631550518349e+00,-9.127287769040073329e-01,-3.132684978686340660e+00
-4.251700452787704476e-01,1.430616097683921284e+00,4.163419171979728439e+00
9.249290910468985771e-01,-3.839499243879722190e+00,-1.514820693670367868e+00
-2.009306234470496430e-02,2.649804792083819416e-02,-9.817412348372507314e-01
-3.094146251674914971e+00,-3.285389752394456409e+00,4.896672294939011572e+00
-5.344701032202734403e+00,-9.294860834178043651e-01,-3.893543823475403620e+00
-9.040907452932097632e-01,-5.799250680576292893e+00,-7.365154254577499504e-01
-1.105000750136245102e+00,-5.716228069727278260e+00,-1.243756812128540945e+00
9.515403024088864292e-01,-4.014454681720994067e+00,-2.593634042905395454e+00
-6.722242369979979371e-01,2.500649941374843976e+00,-4.445437112745251440e+00
-4.995300503735784936e+00,-2.253417157256714543e+00,1.086111534666979850e+00
-1.178674928719745774e+00,-5.407668455778213534e+00,-2.210822061890145296e+00
8.769275855754010696e-01,-3.519964110042179239e+00,-1.328773291183959371e+00
9.376335648472911011e-02,-3.398594516883066685e-01,-2.152819742950347059e+00
-2.696513848513007461e-01,1.428860646809997137e+00,-9.854631012821144509e-01
7.984130305233657632e-01,-3.349214663323027974e+00,9.545810185119638636e-01
-2.808990762891482529e+00,-5.162084955614306914e+00,-3.293179766856783708e+00
-4.222337594646417003e+00,3.314639702937026033e+00,3.452646456930570817e+00
-3.242976541455670159e+00,-3.308786181227096002e+00,-4.723990368756548541e+00
-4.023067941107509427e+00,-6.222040089170046251e+00,-1.137354684669559024e+00
-9.962948169325702708e-01,-5.896208432157825641e+00,3.939029378797496705e-01
-4.974798067718873895e+00,4.141792431052953916e+00,-1.363769132121015026e+00
-4.379641966731131042e+00,-3.326032420812211843e+00,5.011282908361498478e+00
-5.934108421837835934e+00,1.422804513046636909e+00,9.412879468543247086e-01
-5.338317286231342607e+00,2.508240271126395360e+00,-3.970393466999047050e+00
-2.147601076119599384e+00,-4.907459413788163971e+00,3.288305906347169572e+00
-3.301320929589031561e+00,1.263036179479395116e-01,5.342326127189955365e+00
-5.698454719796167467e+00,7.338784636209252366e-01,3.951112156028689704e+00
-4.824586822352271653e+00,-3.141239084762053491e+00,4.256486977254438031e+00
8.315704231999766494e-01,-4.583425243035877727e+00,2.876508191771789402e+00
-3.420066030131755586e+00,-3.417166843601855852e+00,4.831790169232729859e+00
-3.621368737212970590e+00,4.715065506339043644e+00,-1.149182183113315325e+00
-6.132616140776018909e+00,3.156783419538001123e+00,2.894768996495391988e+00
-3.778767865924123281e+00,-4.019915538290759649e+00,-4.498331722044487613e+00
-2.091092024110196235e+00,5.071679881558571523e+00,-7.835250115261022108e-01
-2.570046725223461781e+00,-4.338307064757873199e+00,-4.061329872116902884e+00
-4.917683359587648795e+00,-2.854949382905101807e+00,3.337302839334416849e+00
-3.987979794745075690e-01,1.948165675542355757e+00,2.359441431167179637e+00
-5.546252147121898624e+00,1.985474717857833804e+00,-4.355523247416170030e+00
-5.292443063568217809e+00,-1.230892500918046917e+00,2.222574100883762505e+00
-5.130616053462238924e+00,-2.098915131933672740e+00,4.303139075480634013e+00
-2.129826119001696938e+00,3.942939516543762402e+00,-3.201049801140481765e+00
5.347782971837028443e-01,-2.571999289808355460e+00,1.017212937186592336e+00
-3.520460787640293798e+00,-6.319067661475047615e+00,-1.184235390523659559e+00
-6.455291042684444314e+00,2.746159416179457136e+00,-2.943014713769578350e+00
-1.692170878068236961e+00,-5.890039700403696621e+00,-6.598905808298873854e-01
-5.692752975878644150e+00,2.420291813621999299e+00,3.941314603011669249e+00
-4.192010725455329379e+00,-5.421781118114890496e+00,-1.987321793627715882e+00
-3.971746333860802503e-02,2.947112589805579441e-01,-2.380721515888633011e+00
-5.090586353243944373e+00,-2.186949814695113847e+00,3.152858881316348505e+00
-1.458422925846891927e+00,2.106558002343078773e+00,-4.865038140261614075e+00
-5.853729709103254741e+00,1.333051678867503753e+00,-4.715279301940641155e+00
-3.646891773149146143e+00,-6.396248737786116578e+00,7.180911228877605579e-01
-4.632935596586116311e+00,-4.021477743689880313e+00,-9.299830793390473360e-01
9.226746550565442795e-02,-5.359405811211502169e+00,1.645221450015427633e+00
-5.483673449297625346e+00,-5.137393567186222532e-01,-5.400890523668318899e+00
-5.601279978796414483e+00,-1.189194836710989189e-01,-2.703708935514709921e+00
-4.039008392821582305e+00,-6.069563130753945046e+00,-1.030022583744912401e+00
-1.043846566379540874e+00,2.798315260586236253e+00,-4.497578676300260092e+00
1.635754260979433716e-01,-3.596407497228510053e+00,4.074678929521188486e+00
-4.618449972580600082e+00,-3.968899811066435301e+00,-1.891165997388604358e+00
-4.438133660872274788e+00,-4.559259642502053289e+00,-2.096087338928826593e+00
-5.355535171255504379e-01,2.486636557722855745e+00,1.171736486488362816e+00
-4.792664359913516137e+00,2.501313386474390832e+00,-4.036330936266409708e+00
-6.220468670856750038e+00,2.362849550295555545e+00,2.155053455240120985e-01
-4.517813916696284404e-01,1.985551467690901184e+00,-1.300389358023762654e+00
-3.889449388011745889e-01,-5.195009191769334400e+00,-2.203742343692884909e+00
1.694831209786170356e-01,-3.352071727770681853e-01,-5.077518067407018165e+00
-4.533253182271171688e+00,-4.592087291294080664e+00,-1.935457148804685390e-01
-5.351010157316760107e+00,-1.250705993825717455e+00,-1.753210016245240865e+00
-4.830110529725407886e+00,-3.169031765193709660e+00,9.440539359270662401e-02
-6.493243585647805460e+00,3.392286444304112081e+00,-5.802911027241636210e-01
-1.258564730474655002e+00,3.911891922586179682e+00,-3.544325253583131996e+00
2.910598635743514295e-01,-1.167046576309452188e+00,-3.093905664657621735e+00
-3.439127232700023296e+00,4.112021515924335624e+00,2.510960602200473790e+00
-3.263396291043216269e-01,1.402072418165008827e+00,2.854689698120961072e+00
6.427906056202836726e-01,-2.209208251902345932e+00,-1.225547632438549028e+00
-7.346786214001489457e-01,-5.562199110880732711e+00,-9.347374032960402701e-01
-4.082216890673016962e+00,-5.710547733633754008e-01,-5.361500947338850409e+00
1.196621326364609494e+00,-4.763988042448849214e+00,-2.806513883844710122e-01
5.756399061133397055e-01,-2.412517996071429582e+00,2.086735958329608120e+00
-2.563498208417321234e+00,3.874482241417179118e+00,3.235803446573016107e+00
-4.713758961858180108e+00,-3.498900477724467439e+00,-4.890984239292196278e+00
-1.070029268778418752e+00,-1.180097222821115732e+00,5.322502261253466926e+00
-1.247101893362392300e+00,3.797647074264170808e+00,3.569733421855215916e+00
-2.797585992623718987e+00,4.821099819086057892e+00,-4.699053840804489623e-01
5.736171031432067968e-01,-2.335890864098095765e+00,4.267422971086090588e-01
-3.738882090724946039e+00,-6.614500319886906787e+00,-3.933488402756118996e-01
-4.773776503406949590e-01,2.099836951170297894e+00,1.479754072782036856e+00
-2.363250119688751649e+00,-3.988003161860028539e-02,5.386172052808604782e+00
-4.617854576414353929e+00,-3.996661397836106300e+00,3.529341948152064479e+00
-5.596152225425926829e+00,-1.041823801242162395e-01,-4.900205344003668806e+00
-3.714793121049351221e-01,1.165177617705830837e+00,2.832169158315509971e+00
7.579325568755950204e-01,-5.388879397256785886e+00,2.428795503436978476e-01
1.112303657238119303e+00,-4.331615646981946455e+00,2.711513193258739740e+00
-4.244607830483143829e+00,-5.254813994929556031e+00,3.181213457853971249e+00
-8.748648501900815333e-01,-5.616059452560408616e+00,1.497292866371888964e+00
-5.149613880251120435e+00,-1.822749538856622165e+00,-6.167453963282425455e-01
8.406182754983403393e-01,-3.244000590292040354e+00,3.553323021989314157e+00
-1.887767019758828990e+00,-2.443389826139813259e+00,-5.090636092923745082e+00
-4.275489768531334001e+00,4.205748609192183629e+00,1.704823433255251652e+00
-4.903701978291584496e+00,3.790590610458445475e+00,2.341877909168817773e+00
-5.186532997143411094e+00,-1.599034844834371638e+00,-4.935815349411305508e-01
-1.071671166725805646e+00,-4.382523709958238811e+00,3.637410157796901355e+00
-4.102230701694382198e+00,4.428132885075737768e+00,-8.422640655175985813e-01
8.210739133047331162e-01,-3.338674467315966954e+00,-1.093029534713921613e+00
-5.242707012620767770e+00,-1.433764104486155988e+00,4.039887045676572086e+00
-4.887151465174183862e+00,-2.706894323241829436e+00,-2.841892424286708518e+00
4.008886185088351706e-01,-1.527863504564869412e+00,-4.319673943674673389e+00
-9.222420144226032290e-01,-5.324606464126862448e+00,2.337830487427334791e+00
-4.953493110153010193e+00,2.951099724644253630e+00,3.700561497556861035e+00
-3.701121183346809840e+00,4.559734665897298811e+00,-8.803038609661125724e-01
-6.560734684748807055e+00,3.532450021239417648e+00,1.207114625421188969e-01
-4.548998585929389549e+00,2.357387294842594461e+00,-4.235384433762525269e+00
-5.116850585252916694e+00,-1.776306764178533504e+00,-4.723727279127250267e-02
-3.935439033273261167e+00,7.328376318579776783e-01,-5.244386130165447746e+00
-1.619330322194887595e+00,-5.884799530687772062e+00,1.241188998851703973e+00
-4.701763557087335954e+00,-3.529927625398316060e+00,-4.866895892243416455e+00
-5.548040419078534846e+00,1.367389010851947306e+00,-4.707463571063377650e+00
-5.881270090004211859e+00,3.663752433365104366e+00,2.118457693999340918e+00
4.022168463069628608e-01,-1.565526983358128676e+00,-7.366208575553788718e-01
-4.814289547888048304e+00,-3.284824122752510345e+00,3.439516236528486814e+00
-1.368566521266994407e+00,-5.490013930242334972e+00,-1.940822027859956833e+00
-4.923061212187705316e+00,-2.302997539808735006e+00,-5.951868721269111262e-01
-1.253506554362209702e+00,4.620478256619610313e+00,9.883092796962372750e-01
-5.359125666017991563e+00,-8.360997570154155012e-01,-4.125810003922844693e+00
-2.255692952633107318e+00,4.559177473758131427e+00,-2.193436529676140889e+00
3.394581374143373353e-01,-1.571583849277371714e+00,-1.671008493685532503e+00
1.976011782366997871e-01,-4.168660682642830295e+00,-3.530043312523969412e+00
-1.770080807336708251e+00,-5.817479311206050774e+00,1.546221900474462618e+00
-8.132581945703297455e-02,-5.159261525041077157e+00,2.027565468171546481e+00
-3.550377355854042349e+00,2.919652191680226938e+00,3.816735392246659586e+00
-4.329658352737387972e+00,-1.644412117611283586e-01,5.301007944388652859e+00
-2.896168788019207185e-01,-5.049473568361002584e+00,-2.365671414845159859e+00
-2.314097546530847094e+00,4.745505310199235716e+00,-1.577288628661640324e+00
-2.049337892867516775e+00,2.439371631414688490e+00,-4.690439454997010316e+00
-4.254391972209691453e+00,7.015587372851221915e-01,5.110485779409456697e+00
-2.547827987296378716e+00,-5.968264307468732710e+00,1.447441170378766628e+00
-6.382983631528822421e+00,3.410031268749927680e+00,1.868007138723571714e+00
2.751685537159660466e-01,-1.336163461659906071e+00,4.217002466272408157e-01
-2.249116088114904155e+00,3.992534185942089753e+00,3.323935557904642124e+00
-3.725960183173797624e+00,4.631462144305583450e+00,-5.074882354996749223e-01
-1.163814648645326688e+00,3.670009340510979712e+00,-3.800622492010500064e+00
-4.477496671817152496e+00,-4.982223920714747400e+00,1.606176484843381935e+00
-4.305239439712059912e+00,-5.405327318254746771e+00,-5.021327570678624924e-02
-2.925742467311840400e-01,1.337561538721645071e+00,-2.682814074045713149e+00
-1.665395104269238535e+00,4.490606768906518553e+00,-2.789135120887845876e+00
-5.220637339943079880e+00,-1.502836730101039020e+00,3.740294765060436788e+00
-1.556030441324027800e-03,3.101503592334353132e-01,8.568661102050103562e-01
-6.127994962614955909e+00,2.268963251149963778e+00,2.097968318635760721e+00
-3.382269903352320917e+00,-6.423457099781378687e+00,-7.467275728839909421e-01
-4.354555746103351055e+00,-7.980061190574943009e-01,-5.460036226312387164e+00
6.732372223114299059e-01,-2.932421120442847862e+00,-3.835256693246493764e+00
-5.396304296673461565e+00,-1.240325662625507919e+00,-3.130309066134318918e+00
-2.626600865180371169e+00,2.219106143253440244e+00,4.639984824218878146e+00
-7.656793197174938115e-01,-4.357073237260538079e+00,3.665417617135652506e+00
-2.882398271396510392e+00,-5.375648346775376396e+00,3.110878548078741535e+00
-2.916593998799201337e+00,3.689768143294171132e+00,3.234792636818474065e+00
-1.003846686462860571e+00,4.041919486995530164e+00,2.930708535278236937e+00
-3.333634115147012800e+00,3.659032206773210838e+00,3.167594343175872407e+00
6.585711762054987650e-01,-5.399937557959781032e+00,-1.060920087111091759e+00
5.667653668457426352e-01,-4.381285449044590941e+00,-3.234964958774642518e+00
-3.520363602417037052e-01,1.227962715890594581e+00,5.268594751235108120e+00
-7.531292513899554564e-01,-3.158092675877672839e+00,4.606129364778978719e+00
-3.547181124241614025e+00,-2.859684727756655054e+00,5.186589413157019379e+00
1.220601017348095452e+00,-4.514155150276115691e+00,1.792814259023450152e+00
-1.233533299801128358e+00,-3.333543279208559085e+00,4.480031670211888084e+00
-4.663157121480013267e-01,5.221572676354968578e-01,-5.311926781954739774e+00
-2.198118528215459389e+00,-1.460029624322272790e+00,5.321748523733125680e+00
-1.661299487074873849e+00,-4.751691923992710231e-01,-5.389276592627201268e+00
-5.957074229751052608e-01,-1.438919406089429254e+00,-5.315807737339397931e+00
1.134462088988654305e+00,-5.274512731236858265e+00,-1.269145243790125610e+00
-2.230315068021650582e+00,-4.148875991516447925e+00,-4.057097067341375762e+00
1.018192170011723130e+00,-5.168621283550236534e+00,-1.137894740790802883e+00
-5.628691950038828828e+00,8.850928960431717063e-02,-3.897464892614455612e-01
-4.334201659503212234e+00,-4.867210095188908348e+00,3.502181535749523622e+00
-1.065826462154029208e+00,-5.618748504098339147e+00,-1.699134395133877540e+00
-5.855044217839019183e+00,8.203528622285970462e-01,-4.479039275669686404e+00
-2.311225642608001063e-01,1.245184825250561955e+00,3.485821710555275121e+00
-3.835150724797966149e+00,3.167300345646302251e+00,-3.643842297525433427e+00
-6.375535507136921076e+00,2.934403868848842301e+00,-3.103786636029375323e+00
8.114226647384092939e-01,-5.075674960375139655e+00,1.821996628411420183e+00
-4.675761905573541988e+00,-3.658107683731972148e+00,-1.523069173837720447e+00
-5.517832634479506559e+00,2.143987708144847737e+00,-4.163853041211092787e+00
-4.653982693156974548e+00,-4.033811321559387153e+00,3.459377178484589699e+00
-4.901162591513739120e-01,2.137628972317732856e+00,-8.039769415941400155e-01
-2.103245203667221563e+00,-5.753196786393220741e+00,1.846113989968579006e+00
-4.141070492651328649e+00,-5.932079033549677582e+00,1.030634840051690926e+00
3.474123834819540790e-01,-1.525939307446944504e+00,-1.123748110829980495e+00
-4.006261942336379334e-01,1.532105854775933640e+00,4.403051344872991990e+00
2.089959353446175228e-01,-9.031066963142213577e-01,-8.220431431505454967e-01
-3.775979933717192427e+00,-3.529382745343443872e+00,-4.734952915023698417e+00
-6.489595227882854367e+00,3.672165702572649959e+00,-3.719356572670558525e-01
-9.650963313643061703e-01,3.920234947522295510e+00,2.592914950140499997e+00
-5.068781877993949081e+00,-2.290595373118539779e+00,2.841226619863988390e+00
-4.051317984392587057e+00,-6.140142712087419241e+00,1.086272603209240462e+00
-4.865405969317834867e+00,-2.724266829840199300e+00,-7.639692573527927522e-01
-3.144907437309833576e+00,2.428183176742826799e+00,4.431615420466338939e+00
-2.116143658443199183e-01,-5.067043284150349436e+00,-2.598359558775358291e+00
-1.138221449230929272e+00,2.868093107779624340e+00,-4.417534709050481290e+00
4.664399575509188822e-01,-4.510317474555469275e+00,-2.973094109200637547e+00
-5.988838317284646884e+00,1.743129643081673175e+00,3.555825291916203668e+00
-5.630895323881259351e+00,3.306293950759659483e-01,-2.506479577750768239e+00
-2.570322097310442366e+00,4.977887872751512788e+00,-4.180889418298586874e-03
2.256145801801365813e-01,-5.953534904725416022e-01,-1.062308636619918367e+00
-5.351967479862937971e+00,-8.441541431602028744e-01,-2.868681378297464613e-01
-5.247858711534172826e+00,-1.333462428376161135e+00,4.859215975446489644e+00
-4.522632501121059079e+00,-4.323971459810830531e+00,8.641879962295620499e-02
-4.592085754100071249e+00,-4.410307441560966879e+00,6.958361563320222265e-01
-3.710426404955802671e+00,-1.844866980024554293e+00,5.351988802643468546e+00
-4.133062462263997539e+00,-3.993295539777167225e+00,4.654610105179374457e+00
8.497240102514543869e-01,-3.730355074490070422e+00,2.495358453275812183e-01
-1.679844852626406260e+00,5.135532525440186014e+00,-5.579114330728160986e-01
-2.700117529522195969e+00,3.180684964298881479e+00,3.990882759735598029e+00
-2.505459681078535006e+00,-6.083999286634757198e+00,1.354231866220095837e+00
8.105970307970137290e-01,-3.205092984507793563e+00,2.878200354177885778e+00
-3.440389926162380263e+00,-5.367708362103455144e+00,3.256372662652180061e+00
7.679233535661683652e-01,-3.114480574771162580e+00,2.257648014332147568e+00
-6.090412843166054024e+00,3.324398738617805993e+00,2.502200924297713236e+00
3.117329354744488579e-02,-2.171829792041261253e+00,-5.024717280985113277e+00
-1.996172582035033338e+00,9.594289926810600777e-02,5.312044345833848880e+00
1.784598933072343574e-01,-5.577186224738984066e+00,3.928859012584637322e-02
-5.182758658018209452e+00,-1.399454651308518427e+00,3.286543954212739926e+00
-5.308302154007368046e+00,-1.330352966949537308e+00,-2.046402958290965746e+00
-6.425236374725598942e+00,3.756380324035110796e+00,-1.881860438208547703e-01
-6.054082768992196328e+00,2.212601291115270374e+00,1.759669668907334117e+00
-1.866416148949807008e+00,-2.966384166375528597e+00,4.898741973063374111e+00
-1.735120748188137219e+00,-5.724566375564204002e+00,1.835493332565876434e+00
-9.710849838475060780e-01,4.144979299096194225e+00,4.123544032868022846e-01
-8.741924751965918228e-01,3.494744145620656273e+00,1.416365496836031967e+00
-8.859774123762011178e-02,-4.677730264022143120e-02,5.068175310375649723e+00
-5.227647225995527336e+00,-1.404971422973879003e+00,1.967939653465752503e+00
-2.717368136239229348e-01,5.441325452690790598e-01,3.315715060252208524e+00
6.087713993828270942e-01,-2.570335124520174652e+00,-2.372258144369122412e+00
6.068856649672781378e-01,-2.494831598756012792e+00,1.994161167936592927e+00
-5.141179986040848027e-01,2.507553880527579437e+00,1.618591742070314865e+00
-1.179552726347337543e+00,2.014436676957431782e+00,-5.044167355952734688e+00
1.548032170645049360e-02,-4.031928412504994230e-01,1.960425711164324181e+00
6.950871507877282029e-01,-2.769633056811855454e+00,4.520179788232538520e+00
-3.558918236452778827e-01,6.326647472139409478e-01,-5.506780140384379685e+00
-5.109788646240992493e-01,-5.365501376977682924e+00,1.564601633478172049e+00
-4.945442481443241611e+00,-2.585833448962556513e+00,-1.417444092332281969e+00
-4.530146910380290493e+00,4.465340903523604688e+00,4.472460617885382073e-02
-4.378598000442136540e-01,1.768983495400656247e+00,1.327579080084645147e-01
7.798396794025042045e-01,-3.117588045614853698e+00,-2.479191468420534061e+00
-5.594101542925175252e+00,5.473160046082385655e-02,-3.177131428332559793e+00
-4.780517788680202607e+00,4.312122164882683073e+00,2.463221946302411314e-01
-2.422026181696788072e+00,-3.131875460464326189e+00,4.675130965452106935e+00
-4.455774563976051539e+00,-4.845166187896912113e+00,-2.968128417248937279e+00
-6.153156232106377743e+00,2.275479826080527790e+00,1.729789264804178564e-02
-3.376951674345975096e+00,-1.735313381163188895e+00,-5.416148530158287677e+00
-1.170686981375052449e+00,4.907492388904199920e+00,9.519395978050539942e-01
-5.539676199737074924e+00,-1.592327790084974992e-01,-3.046940541111714751e+00
-3.646155778389555735e+00,-4.432020307742048360e+00,-4.113097732831270115e+00
-6.101688314911131172e+00,1.775805755081799608e+00,3.195851716806830112e+00
-4.398242162705328084e+00,-5.079307206434474864e+00,-2.839432694888804676e+00
-4.527840612741159454e+00,6.206162142169439067e-01,5.008795104094862616e+00
-1.034143225299464897e+00,4.238621965856132157e+00,-2.959503958539129176e+00
-3.340045598055107590e+00,-3.666197605148880712e+00,-4.642481751552893776e+00
-4.402343875285386621e-01,1.651178255324336153e+00,4.924031377534289766e-01
-5.291698274590851625e+00,-1.077176776422015481e+00,-3.878621215957966051e+00
6.203050931772804422e-01,-2.689221553422454392e+00,3.356902780616614290e+00
-4.647953514216097481e+00,-3.621379456701562471e+00,-4.368549896290165435e+00
-4.820202604578922134e+00,-3.319961930515923143e+00,3.665808932842763657e+00
-4.161647223880057922e+00,-6.074007131517990210e+00,-1.795663371691381904e+00
-3.166190748360721230e+00,1.678354583720581994e+00,-4.875413593156375569e+00
1.531791168271373904e-01,-5.564540850742714095e-01,-1.584443672231166556e+00
-2.676347131257287071e+00,4.705022046686646142e+00,-1.316596407743042763e+00
8.569248625462005942e-01,-3.220163993393234225e+00,-1.929062593650525015e+00
-5.406178609422260806e+00,-9.315847165810337005e-01,-2.390260063527946510e+00
-1.660090941557518462e+00,4.450944967134352837e+00,2.776537402583468150e+00
-4.916008456035477966e-03,6.100578641272386832e-02,5.031514245618607717e+00
1.208235333115614818e+00,-5.090489699394362688e+00,5.906954904360350866e-01
-4.845282134221100989e+00,-2.996431140765375201e+00,1.457852946708405373e+00
-4.128010627990745252e-01,1.594148100274271007e+00,5.036135542890419536e+00
-6.224414417889989615e+00,3.306301947399486796e+00,2.719300294979025256e+00
-2.501361389479779263e+00,3.580394145761498059e+00,-3.763815230112909305e+00
-1.957734112680257876e+00,5.494788058044881573e-01,-5.365550014003516388e+00
-8.080399784481523406e-01,3.219258387374323682e+00,-1.609703147804023571e+00
-5.742314331924325721e+00,4.055078426814736403e+00,-1.136964527496827637e+00
-1.201250542976327385e+00,-5.608332152563483497e+00,-1.749105475761477013e+00
3.790404253614440000e-01,-1.395416845259407568e+00,-4.196153593827149919e+00
-2.893470873576912350e+00,4.814650643064108060e+00,8.612142778812945654e-01
-3.125030374255024057e+00,-6.075469955034458636e+00,1.457853203558097999e+00
-6.230502425392068666e+00,2.975771284142053386e+00,-4.033112760108913397e-01
-5.492784001398851146e+00,-3.420381503784644672e-01,-3.392677605920660255e+00
6.963988458076968424e-01,-2.990940100737888852e+00,-4.345379684788515995e+00
4.175682388949386592e-01,-1.524278440737405260e+00,-4.529504168114725893e+00
-1.392008119647945241e+00,-5.553069587211348690e+00,1.716774902643064982e+00
-5.298351869399579250e+00,-3.928577245747212343e-01,5.324510947672181693e+00
-3.384949095540404351e-01,-5.748332104195436720e+00,7.140604682771174438e-01
-2.444250611273460105e+00,-1.228066110314599557e+00,-5.457923977679375760e+00
-4.603491576788668382e+00,-3.783449457412637607e+00,8.667921623866964298e-01
-2.411019231405742591e+00,-1.103041838435065564e-01,-5.457810933254413577e+00
-7.087022089568788541e-01,2.947726728407134900e+00,1.973676999246308350e+00
-5.919163896667268610e+00,9.885554491322975368e-01,-8.328651531314331669e-01
-3.125959650511018317e+00,-5.268322534118412115e+00,-3.195971952873328359e+00
-9.198859269087535928e-01,3.610965329517437095e+00,-3.935346597422044290e+00
-5.686291581688380781e+00,3.213238724391697110e-01,-2.138414306920265684e+00
4.936001525519948530e-01,-5.321409378273171953e+00,-1.048830069698113654e+00
-4.894199422799807131e+00,-3.035582864299692041e+00,-1.401041063071642112e+00
-3.472442912017887018e+00,3.028648692643578055e+00,-4.012654216133909379e+00
-2.857614742775437811e-01,-2.740539592048332640e+00,-4.742881153864277444e+00
-4.889931264441674585e+00,-2.979809474544377945e+00,1.093048527646307333e+00
-5.419799576081432591e+00,-6.682551182735406714e-01,-2.282186423951178877e+00
-2.291221552822296115e+00,5.014013260528200178e+00,-2.780823148658525534e-01
-2.986378917482216178e+00,4.586460036859472567e+00,1.827376512462834279e+00
-1.886520535658404940e+00,-2.941651438175980626e+00,4.977476256727758397e+00
-1.205120589356399208e+00,-5.727532613200786216e+00,1.456654541220045340e+00
-4.580487744588642163e-01,1.326197385106770987e+00,-2.893354047791096839e+00
-9.344787766379537564e-01,-5.600262110469271803e+00,-1.788382150068080101e+00
-2.054879386874340685e+00,-5.778722341776245663e+00,-1.781141869035384406e+00
-6.055638007584263960e+00,1.978700730423091025e+00,-3.307503214144144721e+00
-5.586527702318259792e+00,-2.121933484490601540e-01,2.888998429452154237e+00
-5.137631585119179611e+00,4.045237651891131492e+00,-1.755409962392013634e+00
