-2.598374148645247406e+00,6.665293658255948550e-01,2.048464539715973309e+00
-3.087589107908780495e+00,4.415534780316159313e-01,6.460638133839110564e-01
-1.805195503711245708e+00,1.315049565674499599e+00,-2.801155043152414592e+00
1.275483607762457172e+00,2.335271480522144394e+00,-1.768030411707861571e-01
2.607687794887991739e-01,2.752771834710107335e+00,8.529150887641231416e-01
6.308560874788775585e-01,6.157414753005374664e-01,-7.981486215310490406e-01
-9.574270977776276892e-01,2.920337791580629005e+00,-4.802523674745996507e-01
-2.782138453905162456e-01,2.902889931247220723e+00,1.184655841611464089e+00
-8.606406536080776215e-01,1.459020008828434856e+00,2.337249267775363126e+00
-3.677717767785294356e+00,-3.814950702946474648e-01,2.776633849423744138e-01
-1.284230877199863841e+00,-1.838052623096463112e+00,-6.390207085306896795e-02
-9.621064149026448131e-01,-9.297088957232885198e-01,1.434415655824562208e+00
-1.982494184944004978e+00,-1.446354905507027278e+00,-1.291642637398935811e+00
6.918830505945027243e-01,1.608361624833518411e+00,1.925073742596915993e+00
-2.644718789336429676e+00,3.695922573900702890e-01,-1.946321939812844626e+00
-2.794575018442439607e+00,5.118187243603781189e-01,1.873794536195515725e+00
-6.820555148285656344e-01,1.976350755666179682e+00,2.069493037341014752e+00
1.076436652901812785e+00,1.354324289452781382e+00,-1.921544440844653812e+00
-2.338648134698190439e+00,-1.529358019357774268e+00,-1.868358806635992408e-01
-3.275377201899363766e-01,-1.861959256539647278e-01,1.010529682074146063e+00
-2.178866675320580537e+00,1.495704813541326672e+00,-1.110804010485050147e-01
-1.284223072553420275e+00,-3.191025090082869053e-01,-2.578276695808658481e+00
-1.282683825998988780e+00,-1.606284327283945323e+00,-1.672472614138648561e+00
-7.959799559203917241e-01,-6.692497034918941656e-01,1.625101138088583363e+00
-2.026151271928320341e+00,1.051172660049102037e+00,2.248864282401648040e+00
-3.897243977829031314e-01,8.536463012570652542e-02,2.230212107143363820e+00
-2.518167913718725615e+00,-1.247829363860441632e+00,-8.575538543926949364e-01
-3.913449674965702729e-01,-4.798024006586854018e-03,1.928513667806774023e+00
-3.540093989787322037e+00,-4.626272284365574583e-01,-2.796720019048897776e-01
-9.714842154109496475e-01,-1.339133727817801045e+00,-4.442514504641073003e-01
-1.199086924065339899e+00,2.754588045325964796e+00,1.138577647256495545e-01
-1.568020285430795191e+00,2.685921275217129534e+00,1.583346791767126227e+00
-1.890339020705863460e+00,7.700815640671908602e-01,-2.859558328776464542e+00
-1.615709708610002293e+00,2.374027310324180906e+00,7.813408404727674172e-01
-2.604441599357498749e+00,1.136373020702934999e+00,2.130160160759845045e+00
1.932536558725127529e-01,2.187150521807921688e+00,1.669399289538386455e+00
-4.469050651188324896e-01,3.541104016121707332e+00,-1.123863683384997841e-01
-3.113785588966975215e+00,-2.227487837107741397e-01,1.386686697972859816e+00
-1.322725280613098242e+00,2.001595378401290759e+00,-2.643211065307145002e+00
4.638107765918270120e-02,1.687814649309121284e+00,-2.419746265887756209e+00
-1.845276815219975441e+00,2.091820314757657506e+00,2.114605253617438674e+00
-2.734391944601112900e+00,9.368208114075694537e-01,5.917509233926635526e-01
1.206641058903525687e+00,1.472605900467051532e+00,-7.568946700418560658e-01
-2.375769864982696156e+00,-8.714774522920509803e-01,-1.755463395509707425e+00
-1.626890893136138549e+00,2.171914235453655806e+00,-1.859628006442291259e-01
-1.194049981485792999e+00,1.805612290511741103e+00,2.219368342616423462e+00
-1.206314725676326916e+00,9.991974661529154367e-02,-2.737688938441680264e+00
-2.273744187504574743e+00,1.368488334205627988e+00,-1.272774937508945881e-01
-1.869537029713219889e+00,-1.519134892783327473e+00,-1.257208508915514722e+00
-2.400065707013326666e+00,-4.374912210920880312e-02,1.932129248716701220e+00
-1.996287208410278957e+00,2.011393967344584865e+00,2.208081979170928300e+00
-3.114332442074035368e-01,9.334232582645444198e-01,2.482817135638911488e+00
4.645270570444749447e-01,3.467588466396820945e-01,-9.982369554578804927e-01
3.045730441751495210e-01,2.997651201874969917e+00,-4.568274563477666694e-01
-2.516026446687298357e+00,9.245670987834527788e-01,-2.135235541071831833e-01
-1.122474005254248786e+00,3.098751650455379147e-01,-2.779843434998819696e+00
-6.683283028051936192e-01,3.062938725732441192e+00,-1.855711300026361643e+00
7.287724873723190333e-01,1.062367976042730255e+00,3.928258321089986294e-01
-3.157680181303843980e+00,4.772177761163834964e-01,1.752181333719205147e+00
-3.508847836402879672e+00,1.616927709709151464e-02,9.695495491344200412e-01
5.559182350600399003e-01,2.870304453893963714e-01,-1.667880116728127415e+00
8.508745840678817451e-01,1.240065084458426448e+00,4.260965389076592502e-01
-2.120001293471930559e+00,1.819289275886066592e+00,1.251365587890812536e+00
3.701345036437147518e-01,2.589214322638473842e+00,-1.459393967880040055e+00
-1.252958880090113247e+00,3.129262730971602569e+00,1.486232376245617992e+00
-1.630097473660768737e+00,7.006081895912056323e-01,2.318491111798568038e+00
-1.541091375000169128e+00,-1.543165183980805821e+00,-1.509149636601578859e+00
-1.279439035377017087e+00,2.672979822498881219e+00,-4.829514130990332221e-01
3.307799582339682187e-01,3.716823396562103921e-01,-1.685437941355285574e-01
-1.958921190047772098e+00,2.190812179150858796e+00,1.591047603297363278e+00
-6.627789530061316547e-01,-7.875889850551642812e-01,-2.401181127986951491e+00
-1.334708509469236359e+00,-4.263060151071888515e-01,2.302311794883700191e+00
-1.341515333895313189e+00,2.652216621188712598e+00,-3.057856875466835600e-02
-7.964846782453353091e-01,-8.378627814587253919e-01,8.180931467756449305e-01
-8.226653034505652107e-01,-1.004698605485111695e+00,5.970686083020685375e-01
7.440865700856890141e-01,2.473005901571833309e+00,8.274148994791361567e-01
-5.105713143542185417e-01,2.364679425130413182e-01,2.587184753728879905e+00
-3.285591410125451306e-01,1.839009861759103970e+00,-2.498740155306647281e+00
-7.986705088813347286e-01,-4.654753977216933292e-01,2.146250831265443360e+00
4.962649569058581456e-01,8.213590111998294585e-01,7.436388745059748784e-01
-1.666011940178750983e+00,6.650271273930502547e-01,2.331064112612001527e+00
-1.865493153466396992e+00,-1.871128435580361904e+00,1.292925263020747520e-02
-1.666999412300923966e+00,-1.008709113721275141e+00,-2.043688446793854308e+00
-8.480230540700438580e-01,7.029699366661134041e-01,2.436731516727357771e+00
-2.498580959398150725e+00,-1.232510085132595190e+00,-9.392484641677281143e-01
1.349111119024313243e-01,2.088745881566601292e-01,1.612745561899379676e-01
-7.896955850907129149e-01,-1.057851410885868731e-01,2.487014685925282187e+00
4.924828011234985703e-01,2.726412413753305231e+00,-9.981130237028897900e-01
-1.065878243073441478e-01,-2.009325467370857432e-01,-3.711788362481813763e-01
3.411117433428883516e-01,9.802002135297491758e-01,-2.469904581373806973e+00
-7.598115085094468979e-01,9.280670628685967483e-01,-2.836978474101738978e+00
8.714627977492188649e-01,2.358464911260642172e+00,-1.194023837879937933e+00
-8.929349547230946982e-01,-1.620966848847240405e+00,-1.538762174727603682e+00
5.011394807330880052e-01,2.655841020322267099e+00,-1.213307484557885729e+00
-6.812483997881207953e-01,3.382804541737478576e+00,-3.643788826929013069e-01
-1.440910421529834895e-01,8.116800073280532324e-01,-2.699597213174833588e+00
-8.061854231181443398e-01,-1.058865208402296476e+00,-2.306620955640319881e+00
-2.213131124916949855e+00,-2.776743759749745744e-01,1.898110039697320284e+00
-1.266629470856616591e+00,-1.304171450595513093e+00,1.424264278686428575e+00
-1.630918933044438912e+00,-2.045133923629638417e+00,4.136429857910403074e-01
-3.266321012899328302e+00,-5.774092349635711469e-02,-3.245066107784558840e-01
-7.464504470548979920e-02,1.243428308191966591e+00,-2.599005717808029470e+00
-1.005630810285703003e+00,-2.076241585959802405e-02,2.465914910389252590e+00
1.205584944239010969e+00,2.283794290289780538e+00,-5.877723258830435116e-01
-7.825641011596746743e-01,3.208687740474019279e+00,-5.363177678604506005e-01
4.659167846520321232e-01,-4.630753344214350031e-02,-2.541330245260872811e+00
-6.058642917664910366e-01,1.996123668532314488e+00,2.057475092915313830e+00
9.009972451341804467e-01,1.783457319394349705e+00,-1.740099542945678035e+00
-1.375805026969022515e+00,2.158489206671416305e+00,-1.902674321899748833e+00
-7.573942967841448271e-01,-1.348772831280486084e+00,-1.051922211186510303e+00
-1.279180741147220912e+00,2.112917953026390627e+00,-2.229154272583481866e+00
-2.727680409940747452e+00,1.508776868810673688e-01,1.776503460598162221e+00
-7.399854684505037250e-01,2.291020188233455546e+00,1.982795403147856295e+00
-3.027973764363519393e+00,1.978611791201292658e-01,-5.985058212000827771e-01
-1.882448170730691706e+00,2.370117823775972354e+00,1.738840344234835689e+00
-8.807367941210993978e-01,2.751700949042730659e+00,1.651058578571042323e+00
5.292842337057813706e-01,8.127860319290415303e-01,5.916922668927359075e-01
-3.248660995456302547e-02,2.007117994396277805e+00,-2.285516422185489116e+00
-2.132104854124860616e+00,-8.550286369296706823e-01,-1.891021143116887959e+00
-6.911890334580576001e-01,3.164385446657751899e+00,-1.108886418404355645e+00
-1.743290527539794466e-01,3.371319483090089997e-01,2.176370519584495788e+00
-5.661557797261564939e-01,2.158920181104233560e-01,2.566111936705956165e+00
-1.483929144840286707e+00,-1.417467354952929304e+00,-1.677163635271230913e+00
-2.963162504012307075e+00,8.757618535564613005e-01,1.814664813934483645e+00
-1.236810407222768970e-01,1.734779833310266417e+00,-2.415361148458097240e+00
-1.888684879973806963e+00,3.918380143173349484e-01,2.228547224677006167e+00
-2.168408675002996500e+00,1.231379031180634742e+00,2.234267871922464899e+00
-1.721749723037011792e+00,-3.636484395266087466e-01,2.108739214072658630e+00
-1.936161990766337215e+00,1.240969969591883659e+00,2.272067418059203980e+00
-4.442671728309395829e-01,1.306355007040737037e+00,2.323768434471535915e+00
-1.915189015005592577e+00,-1.765239060722474385e+00,-7.713400428588286506e-02
-2.774812878711313324e+00,8.535509137757054665e-01,6.922574294013136287e-01
3.531354999359546110e-01,4.939000232667312140e-01,-1.263675687955340132e-02
5.588116162356873140e-01,7.438909693080190122e-01,-4.487047279377642112e-02
-5.477087249452843309e-01,-1.096643894725703783e+00,-1.388676874394157545e+00
9.146851748236601853e-01,7.234216987043180502e-01,-2.354887658978281895e+00
-5.973144353728134792e-01,-8.879554964948904727e-01,-4.656204586356409991e-01
-8.309004120274824379e-01,1.663332189402652705e+00,-2.726278695060726065e+00
1.123036945223678362e+00,2.327042360295942913e+00,-8.478901710996057384e-01
-2.579677836836564264e+00,-8.889763130415340164e-01,-1.554874855445147253e+00
1.374163330770522273e-01,1.133328284444923506e+00,-2.532531691083236058e+00
-1.055825180038146405e+00,1.794573589280097137e+00,-2.809503086911207870e+00
-8.042228524877181872e-01,-1.435743226661562844e+00,-1.656250237077478982e+00
-1.217610832417157729e+00,2.694189892104668083e+00,-2.237376949682434724e-01
-2.490942043951605012e+00,1.137350354758849269e+00,2.151845602580935157e+00
6.948164981715369004e-01,7.896167860250663528e-01,-2.400796091129453746e-01
-2.557006013412620682e+00,1.591217507472772796e+00,2.187147761479516284e+00
-2.747699071047378094e-01,4.944562648340524724e-01,-2.682136012421441951e+00
-2.080655995859444385e+00,1.672260086940519974e+00,3.814248369957651957e-02
-2.053178434138491326e+00,1.347593295969870431e+00,-1.192887656836167265e+00
2.119108417208832584e-01,3.045820853967817765e+00,-7.901548192141223392e-01
-2.562483767548669800e+00,9.620379522798505612e-01,-2.258566224911524589e-01
-5.907704561045995506e-01,2.686069118873206651e+00,-2.256715868195606767e+00
-6.710570474584247602e-01,3.599580631402627962e+00,1.724338219598580135e-01
8.023881874194080943e-01,6.052764934544663245e-01,-1.794390406286231032e+00
7.941719369332228551e-01,1.480330539742701346e+00,1.615938200467734731e+00
-1.138004442106728131e+00,2.757008953129886031e+00,1.737982235494183847e+00
1.145346822753231103e-01,8.304025155421739246e-01,-2.631820685321796915e+00
-1.011608490527413196e+00,2.875045703867191271e+00,-7.385607158197895483e-01
-1.103392665535128492e+00,3.160239875651414287e+00,1.038422929356037416e+00
-6.526827407386256441e-01,4.528155493158179667e-01,-2.730852934963147405e+00
-1.144822935778411210e+00,-1.924394706475932804e+00,-1.258487598762587645e+00
-1.657136872689317642e+00,2.638127669909446471e+00,1.865453899017675443e+00
-2.441257991504542701e+00,1.565494657592598537e+00,2.217007585117285462e+00
-1.029651341930340358e+00,1.291161626905012128e+00,2.410608980099640419e+00
-2.353484946900358477e+00,1.319764006228449915e+00,2.344778264707041426e-01
-3.473737234269683172e-01,2.097785151008889848e+00,-2.397062724073145468e+00
1.092934158316462900e+00,2.063808274833673462e+00,1.254559058251876413e+00
-1.782566816640529739e+00,1.837798840744993889e+00,-4.205598699387003148e-01
-4.642125076301199110e-02,1.414047248628393094e-01,4.726202596049046134e-01
-1.911237112940754379e+00,8.195309140577898832e-01,2.261452861029074501e+00
1.463551430419065547e+00,2.129074548610267126e+00,5.087821995802095376e-01
-3.304837275982410727e-01,2.044881105352838180e-01,2.393926568749703776e+00
-1.265645661447865944e+00,2.787294153418136577e+00,4.022380001536522975e-01
-1.797780682599958435e-01,-2.346170761034061317e-02,8.310670488986307003e-01
-1.575305020831942793e+00,-1.205971542164429922e+00,1.637642635142402270e+00
5.555333000315164638e-01,1.991407246167197664e+00,1.648162870327580132e+00
-6.724297390470165281e-01,-2.697382497650233080e-01,-2.633342139561027473e+00
-1.962071906936968757e+00,1.362005009400955258e+00,-1.482055604043403640e+00
-3.612609467171269961e-01,1.125334068949760624e+00,-2.630358563159823415e+00
-7.688316742263350267e-01,-4.464199946441190225e-01,2.306786375255636568e+00
-8.297228565070799977e-01,-4.409414969219597746e-01,-2.521253715158213726e+00
-2.593360526160556123e+00,9.339313484215856498e-01,2.134107825921774282e+00
-9.576679243468372293e-01,-9.697910460511679487e-01,9.359015761999358585e-01
2.553693017752426964e-01,2.844245934182653812e+00,-1.161640217531130226e+00
-3.259771359423418779e+00,-7.419577827706784756e-01,-8.714889390133916391e-01
-1.037131582822216735e+00,-1.373009608185958186e+00,-9.517114944775978413e-02
-5.496519652050098070e-01,-1.104924781150701252e+00,-1.425543284686567436e+00
-1.789358459518621602e+00,-1.412808994568300058e-01,2.216070842039690181e+00
-7.976396950863657853e-01,3.470272730411652073e+00,5.652204815015258177e-01
-1.894339067987287628e-01,1.719345573078486789e+00,2.073330749627778413e+00
-8.552078840419774508e-01,-1.320798276196164744e+00,-8.751909579448148291e-01
-7.659871556700584838e-01,2.052541050624406171e+00,-2.651437106231621321e+00
8.087412860878697707e-01,8.829225025680790262e-01,-1.024049581280754850e+00
-3.452359343281785176e+00,-8.411301982055402471e-02,3.523324629585262713e-01
-2.608306843961305077e+00,1.212047120870365591e+00,1.111014807651285130e+00
-2.349301150396464255e+00,8.199220783014818936e-01,-2.014906607688988771e+00
-2.314007903434435409e+00,-1.037294090426934545e+00,-1.606487845704439144e+00
-3.077589177115040542e+00,6.130071399370287111e-01,9.823863066692002377e-01
-2.333506169058555471e-02,2.953200236371909537e-01,1.298603149117136368e+00
-3.452597520966028455e+00,-3.373300959085785977e-01,8.120702371905699213e-01
-3.304967640074929491e-01,7.861384480511502959e-01,-2.696551222925243518e+00
-9.495562940915937000e-01,-1.685854012889848264e+00,-1.678339672678992756e+00
-2.218639446169610174e+00,9.561957251840446093e-01,2.196441378453304782e+00
4.177002624325902302e-01,1.926753400601588062e+00,1.789770140012414190e+00
-8.283571429630562921e-01,-6.696148392785256087e-01,1.724282866019807070e+00
-2.386625094942106950e-01,-7.420923631444759083e-01,-1.842662056106718182e+00
-5.617268448509474821e-01,-6.558663948421296075e-01,3.597632730958431613e-01
-1.663898418174465377e+00,1.577623625902998761e+00,-2.041113169323077070e+00
1.389780346827716784e+00,1.643675446186380062e+00,-1.022912228418105141e+00
1.027540067862688478e+00,1.632461562714302872e+00,1.045984142183393306e+00
-9.093390678318263864e-01,-9.204195916806251487e-01,8.703410245086412589e-01
-5.115550924825373880e-01,1.318054782216631970e+00,-2.753814990089161530e+00
-1.151310203786400255e+00,2.139851962848972722e+00,-2.521833840449556163e+00
-1.675081439063051514e+00,1.515312031147706628e+00,-2.858263833364957485e+00
-3.172082032615223035e+00,-9.066861867287369092e-01,-6.125893801335345890e-01
7.929654488012944924e-01,6.573870738412119774e-01,-1.621999644704492427e+00
-2.143889910870724336e+00,1.867301889454076047e+00,1.683901162170451160e+00
-1.342787884486802641e+00,1.890808444653049092e+00,-2.614788574546502709e+00
-2.399032664972729822e+00,1.591733390717893437e+00,1.875872226849377489e+00
-1.960722756659422084e+00,1.652874220428645513e+00,-6.137026513282274331e-01
-7.357050480379634383e-01,4.458364170020440165e-01,-2.783016135801201330e+00
-3.188131756908746617e+00,-7.815983420680632232e-01,-7.641588510240849841e-01
-1.600289779832509085e+00,-1.346692131501044942e+00,1.550956207380788765e+00
6.188301770225866916e-01,1.793485955197427595e+00,1.829638231685247085e+00
-1.896751095192977132e+00,-1.073945143876612107e+00,-1.866693907693604881e+00
1.975700244645942072e-01,1.058573006970870756e+00,2.392424102448131418e+00
-1.397793564151369017e+00,1.216799982290910354e+00,2.402060270139560139e+00
-2.110649709856436740e+00,-1.080511314433150405e+00,1.403459042885721653e+00
-1.632940984234128035e-01,3.259855010567046740e+00,3.109416637299887154e-01
4.276624087970766763e-01,2.212834135084621234e+00,1.522001904527616079e+00
-1.026021733736158098e-01,-7.980281365219519252e-01,-2.335792365740291476e+00
-1.934698688345553919e+00,-1.758675973210207077e+00,4.195036770194736087e-01
-2.673751079238074979e+00,1.131504094600353366e-01,1.873163646434530261e+00
-2.809567040029091523e+00,-1.078638710582942917e+00,-5.539122645778199461e-01
-2.563567084500571802e+00,1.365404792932864986e+00,1.556789356500552834e+00
1.293724679066773797e+00,1.595455283901717092e+00,-7.620166987342608111e-01
-2.540812061285830481e+00,1.098644602914293555e+00,1.906332638031804361e-01
2.201430296777287243e-01,3.038800533355357381e+00,-8.816459621930372581e-01
-2.625452105353307530e+00,8.211575322383344311e-01,-3.711016102723141419e-01
-7.900553508360165234e-01,1.995702272757343021e+00,2.099037427874087758e+00
1.035473465606952637e+00,1.734470112218250648e+00,-1.674223927719862726e+00
-2.071641028241645976e+00,1.186730182332569994e+00,-2.007455852404348651e+00
-9.073119946109730050e-01,-6.623228118982775747e-01,2.115737457543041877e+00
-2.123099952170420579e+00,-1.706427161418184513e+00,3.695923771574844102e-04
-6.630393983271408720e-01,3.047806055998654617e+00,-1.850976538389209169e+00
-2.664744040030888161e+00,9.207260745968490756e-01,4.002256519845153737e-01
7.088364934624639124e-01,2.490365146478940694e+00,8.532404448691256471e-01
-2.699875956806118804e+00,-6.682909341433708184e-01,1.199724601823162429e+00
4.808848745200389740e-01,3.443319585352968559e-01,-8.384388616330026300e-01
-3.074721965895740983e+00,5.093290758393309581e-01,1.022228461884481909e+00
-9.572943771244758482e-01,6.600126426442777250e-01,-2.783604079358678707e+00
1.533311098337296619e+00,2.024380213655806227e+00,-1.997422674085944094e-01
-3.266946221466504152e+00,-5.682538312884860554e-01,7.890226024597624122e-01
1.242555634808794052e+00,2.293698047922946071e+00,-1.893061279108542716e-01
-2.471920684497215692e+00,-1.340837167094951932e+00,-6.583156709928800199e-01
-2.360473308038536722e+00,1.563690773809111034e+00,1.059838919661553636e+00
-3.825974346001370097e-01,1.314551332053108590e+00,2.377406412749837994e+00
2.054149427235393566e-01,-1.495567329446239602e-01,-1.672089006159656055e+00
9.444154391082477673e-01,2.402475843532232869e+00,-8.325661455181495585e-01
2.195962994354922204e-01,8.002198968605893636e-01,1.900558964986795107e+00
-2.554448162816669754e+00,-1.321228040260679748e+00,-3.183826019089960879e-01
1.125637646332926955e+00,2.105719148659158435e+00,1.127033947627580357e+00
-1.591804661527151943e+00,-6.681279502181426411e-01,2.080185146816877495e+00
-3.245261036257991727e-02,3.713426045361900574e-01,1.358561282206530718e+00
-1.351145549958909120e+00,-1.989801934099275638e+00,-7.513021066749381305e-01
-3.679253606871486948e+00,-5.820218313135175903e-01,-1.890428501624735746e-01
-3.595468313615592937e-01,2.178854532325193993e+00,-2.333813871827483677e+00
4.689746826270247415e-01,8.372805469996195127e-01,1.376265199359293812e+00
-1.384823281049104127e+00,-7.984092773809772225e-01,2.127454622891108649e+00
1.419881175625905767e+00,1.552715347084264730e+00,-1.202914315115013011e+00
-2.035772791144454974e+00,-5.163724515851839669e-01,1.908991090344730912e+00
8.427280099814323799e-01,6.200223895316373524e-01,-2.053487247271889693e+00
-1.204446314399125084e+00,2.616097993667252819e+00,-5.614994999825836386e-01
-2.765476624912962755e+00,-1.047114263034246040e+00,-1.011634157437211856e+00
-1.179037228270147786e+00,3.154603068480609007e+00,1.170416170169457981e+00
-7.712988535728614314e-01,5.566756275076814031e-01,-2.744929055088164205e+00
-3.503508987814092923e-01,3.528099232072544833e+00,-2.379544632686226430e-02
-4.600689935980759038e-01,3.603803779775959448e+00,-5.681902850713457243e-01
-8.489048865142725386e-01,1.805787429781754883e+00,-2.748950309751116983e+00
-5.085097443446912058e-02,-4.230338050796550453e-01,-1.270029715037778173e+00
-1.678160598741655685e+00,1.545140499553384172e+00,2.274895274652054322e+00
-1.865984801824474681e+00,-1.842294810686016637e+00,1.387460314645223014e-01
-1.235615862207102955e+00,2.563117550366342368e+00,-7.411697434769202175e-01
-3.558742016346587267e+00,-5.297835514825659509e-01,-8.912819070720332526e-01
1.250867157148769726e+00,2.272633829752229495e+00,-7.030659817801626632e-01
-3.064184587243461877e+00,-7.556373578865203111e-01,6.964434827520695759e-01
8.690234255227688998e-01,2.354513410483499936e+00,-1.187834355456576230e+00
-2.529624668986696800e+00,-1.379458413108022530e+00,-4.466758885869046014e-01
-5.317867237758400201e-01,-3.150255835947468608e-01,1.101741218686956847e+00
-7.951763966276939044e-01,2.836501035750665700e+00,-1.912350284000350564e+00
-3.816098625974244096e-01,-4.793623405803084658e-01,-2.604213360701984392e+00
-2.034540159956962135e+00,-1.775809332089517634e+00,4.328976849920860431e-02
3.792609051082238003e-01,3.707720227800979651e-01,-7.589990107040914813e-01
1.330323666350820222e+00,1.823518299207609772e+00,-1.284058133840114246e+00
-1.524010879590002920e+00,2.728180526981299980e+00,1.305031950905912952e+00
-2.356258834090421583e+00,-1.498772512520102351e+00,1.748461812143506100e-01
-1.552433257904679120e+00,2.723429072959489439e+00,1.606540960359386094e+00
2.424778244953269268e-01,2.797436512594237534e+00,-1.294423880407417293e+00
-3.685822486468430803e-01,-9.094751047145583911e-01,-1.641211010989028107e+00
-4.051860073130497120e-01,3.411243015361768549e+00,-1.085857135594151091e+00
-6.588160528445878850e-01,-9.162118404989835763e-02,2.487353302365881813e+00
-3.130846382026542862e+00,5.610205013662006301e-01,1.787976287010226040e+00
-2.785207278450323898e+00,2.725112705279881253e-01,-1.778306543455841826e+00
-1.280415050961319468e+00,2.732542481113618749e+00,1.835859844997872914e+00
-8.140159989953618114e-01,2.295389275457977885e+00,1.970435909144525155e+00
-2.411300687016646904e+00,1.415351682985171111e+00,1.249823159960892882e+00
-1.820572194820058831e+00,-9.993437505697690959e-01,1.762549024107241902e+00
2.300348936406387546e-01,-6.859698205128360315e-02,-1.064907052996881598e+00
-1.435835065565572999e-01,1.565104015578085983e-01,1.255241931617613105e+00
-2.369094032120358406e+00,1.488900320403855337e+00,9.919488683962854880e-01
-1.161508233889978620e-01,5.033771880813620037e-02,8.230387488432874266e-01
-1.027162588311836711e+00,-1.354148336700931488e+00,5.895456253066603397e-02
1.122278327572450385e+00,1.735656082885687512e+00,9.006280443956035109e-01
-2.764684478499478182e+00,5.520835586467173206e-01,-6.345343926955547831e-01
-2.305526679346102892e+00,1.479436628831087175e+00,4.246096811764580869e-01
-1.373145507951671451e+00,1.356476887519429297e+00,2.339434968758713040e+00
-5.934701695766452234e-01,-6.956802788637902468e-01,5.985211767493390372e-02
-1.111093613150355708e+00,2.775065747987066622e+00,-3.023344477960701604e-01
-6.665591880018962856e-01,3.039813621661862975e+00,-1.658782470051120450e+00
5.953770419929185209e-01,2.826524334651203674e+00,-3.474508072422804583e-03
-3.490663865549043177e+00,-3.443977108350778082e-01,6.992128699284912985e-01
-1.367969844847678917e+00,2.237958732497163261e+00,-1.150043536427722168e+00
-1.988115371554118216e+00,-3.381444176971946658e-01,-2.412976782261548436e+00
-3.748463455856788917e-02,-3.949780504923910973e-01,-1.468676460703927322e+00
-2.625028978063924434e+00,1.009043043659921368e+00,4.397300211339373321e-01
-2.241202270278969788e+00,-1.553902086815090566e+00,-7.447751738573914204e-02
9.004459575498144908e-01,9.606061432641531672e-01,-1.205404975086743269e+00
7.967622054678883403e-01,1.534801611159560597e+00,1.753876495790943846e+00
-3.196381844164931429e+00,-8.416094717841529071e-01,-1.834605125669328540e-01
-1.824402496537468110e+00,1.257830002413512949e+00,-2.825556071710088268e+00
-2.949781703636955577e+00,3.658605553304551949e-01,-4.098974387271407949e-01
-1.031579915505478118e+00,1.997723066673008807e+00,-2.756448128725500712e+00
-2.411706170499630986e+00,4.047286210217964642e-01,2.079307502953949616e+00
1.450809414992408897e-01,2.801618468008661544e+00,8.966209939409806040e-01
-2.324344982116392622e+00,1.686071206252896859e+00,1.675920683342568163e+00
-1.911255234861624741e+00,2.094581684330548921e+00,2.171340484026635487e+00
-1.671444614902573234e+00,1.476613220859623210e+00,-2.815785814106888996e+00
-3.028482526832782629e+00,-6.360327443013478188e-01,9.411685353332814863e-01
-3.494796861118756759e+00,-2.913516149794974086e-01,7.557132979572793730e-01
-6.852590707490396893e-01,2.778934043979860213e+00,1.557685786176578713e+00
-1.946039743774716335e+00,2.073906775182052353e+00,1.073495537796779198e+00
-1.617234777764527509e+00,1.731527820678732565e+00,-2.059680869861697072e+00
-3.434252550325915809e+00,-4.687026682804565358e-01,-1.272930768286667069e+00
1.625719794831588239e-01,9.510046271298845388e-01,2.468161128904317714e+00
-8.319328080714182283e-01,3.413265413625767852e+00,6.922812270197709061e-01
-8.137178142683847426e-01,-5.986164576696949569e-01,-2.552947057009566034e+00
-1.542875007832748446e+00,-2.057158007003404343e+00,-2.900762602221104158e-01
-1.130675446983022914e+00,-1.293537282580741188e+00,6.746879998014596591e-01
-1.542051173960665156e-01,2.705975225471556112e+00,1.361509345969204920e+00
-3.113081313636304248e+00,-1.877503125335809320e-01,-1.958225937876442169e+00
-3.187396175591203473e+00,-8.527843538340273977e-01,-5.990568756068527512e-02
-2.228404129662707955e+00,-1.046538223199577677e+00,1.277406675176794293e+00
-2.308020743205552616e+00,3.546734720564043708e-01,2.077192090932572288e+00
-2.349338724342963758e+00,-1.050453206112499371e+00,-1.520383428561309591e+00
-2.126472474744668162e+00,-1.144264036879475421e+00,1.318080872418232463e+00
6.098286244962443092e-01,1.046256985803135864e+00,1.134198137607564716e+00
-8.916170384957599060e-01,-1.258527830504192924e+00,6.972325974173640417e-02
-3.421225933079862891e+00,-4.638689647618282619e-01,-1.350105253904119396e+00
-2.278978805488808046e+00,1.510653140541831529e+00,4.183814294302427572e-01
-1.855879572611637496e+00,-1.286573758929415945e+00,-1.576006248530759546e+00
4.839093095841470182e-01,6.324551414847583430e-01,-2.506381748390894337e+00
-2.159583085991995777e+00,-2.646239739413444592e-01,1.891531785597091009e+00
-3.285139287061452862e+00,-6.064732558532788254e-01,-1.267311270826545266e+00
-2.521424056350491494e+00,-1.228668095659483095e+00,5.941773052142997891e-01
5.670907043614167170e-02,6.311925315587323115e-02,-4.696801977855974419e-01
-1.488442361037805917e+00,2.435604912464587546e+00,1.669043984813489701e-01
4.354857833471842965e-01,4.208246149812895909e-01,-7.105817200888305818e-01
-1.391868686130123267e-01,2.900959008332274269e+00,1.096889491879782685e+00
-1.223226925269340182e+00,-8.108265842471852336e-01,2.203691892640398553e+00
-1.192822306013707978e+00,-1.418625255053231005e+00,4.915959849341475230e-01
-7.734729933556740156e-02,-6.554519802346941981e-01,-1.997008188261208295e+00
6.018782365624270048e-01,1.845371248036664913e-01,-2.500444921632359208e+00
-1.288394841801756785e+00,2.191309918723951977e+00,2.131306222177342669e+00
-2.619786603548231341e+00,-7.269829215310052994e-01,-1.617618006211209325e+00
-2.422827962901036081e+00,1.446275634715329605e+00,9.940894756674211186e-01
-7.573381592706673882e-01,-5.625491668251922928e-01,1.660992551549484109e+00
-4.806736442796430420e-01,-1.044888936003180557e+00,-1.425538316605029054e+00
-2.163760054236354868e+00,1.115510982714216226e+00,-1.669103505644063290e+00
-1.352207810167177948e+00,-1.910947152152138839e+00,-5.285094296547107051e-01
-8.761356327787654941e-01,3.382577246147421057e+00,7.330084202831839146e-01
2.208193739660881116e-01,8.128669479897651096e-01,1.833252170776581202e+00
-2.767725039198194459e+00,1.105976586192344735e+00,1.405618819679437470e+00
-2.688964716789241205e+00,3.057082228300620486e-01,-2.282074214033710913e+00
-1.131731459974152809e+00,3.042741803869083661e+00,6.287053266557980358e-01
-2.108247707292690620e+00,-1.337029434691389351e+00,-1.223616558321888315e+00
-1.392809251298342987e+00,2.223700740638951956e+00,-9.601750334078129612e-01
-3.172403897213406765e+00,-2.304347608153180238e-01,-1.471014742826784349e+00
1.347302186847792127e+00,2.161040442445951726e+00,-6.031125989583298042e-01
-5.438893419008988817e-01,-1.134062422759340771e+00,-1.733266724614058951e+00
-1.819866106094005564e+00,2.123247497853145926e+00,3.507714405519227752e-01
6.425542585909101989e-01,5.618502109584508908e-01,-9.822821770643367367e-01
-1.771349505651502454e-01,3.261080789042035466e+00,3.030785630145190201e-01
-1.111960320646141698e+00,1.484967060425400831e+00,2.325105531706779693e+00
-1.799179243918530791e+00,4.427029476274051967e-01,-2.787857992516905803e+00
-2.418883912532736602e+00,-8.291356797383003796e-01,-1.821272923071081351e+00
-4.674621770005836230e-01,-5.925259904196832350e-01,3.690784777921212734e-01
-7.704278619150122243e-01,3.153679734356236164e+00,-8.559949501125320159e-01
-2.351491561501452221e+00,7.857719543437290399e-01,-1.945496521772320353e+00
-2.330840782063909877e+00,1.817157419310948763e+00,2.058549623812089280e+00
-3.452165314133748275e+00,-2.806705845986358638e-01,-6.387186361634074327e-02
3.055535881872548098e-01,2.083876248666066022e+00,-2.017092776944881205e+00
-8.876980340896050148e-01,3.437419632902881439e+00,6.515753501662594482e-01
-3.408236115659909693e+00,-7.274646012030935305e-01,-4.077302637838902677e-01
-2.468703432097561823e+00,-1.409208284586029203e+00,9.616962150604880730e-03
-7.764442765196284679e-02,2.837491472122458447e+00,1.085601565500990962e+00
-1.241363488798477466e+00,1.834923161315036300e+00,2.266842835035525194e+00
-1.813920719296180151e+00,-1.838980143428348146e+00,-7.182285303874051952e-01
-2.595034305120774487e+00,1.110517148068113968e+00,2.150612565795498643e+00
2.675933892816516058e-01,3.021342934255376811e+00,-7.020776798145657027e-01
7.370784827195347999e-01,6.866291572122940057e-01,-1.197854053787887008e+00
-2.773741950331122474e+00,7.122961147993519537e-01,3.167126613161239668e-01
3.140618876983285457e-01,2.969701792535203833e+00,-4.104646609861652418e-01
9.652579423795635272e-01,2.554804782954499309e+00,-1.843282082570781855e-01
3.760240339518738234e-02,-8.523184015596876884e-02,-3.195275711351442394e-01
-2.114283431189242446e+00,-7.526397119813290626e-01,-2.086872424735032538e+00
6.275157325518839757e-01,9.527000167411802112e-01,3.953926422369156701e-01
-3.230029614766270374e+00,4.524958901221687868e-01,1.322389276514008616e+00
-3.031676805560733712e+00,-1.883721533671893836e-02,-1.742171795829489556e+00
1.606658378576237833e-01,2.733245609140059429e+00,-1.569353753053709832e+00
-9.621687489184160835e-01,-6.497091906254176541e-01,2.367529386536616709e+00
-2.339303313641800219e+00,1.579104309799791661e+00,1.044416300163443223e+00
-3.022348605701548507e+00,-3.221929353315663436e-01,-1.926162212709003008e+00
-3.025617210920476641e+00,7.397173809931714139e-01,1.907447586628624903e+00
-2.983190971645930389e-01,3.326867486874410584e+00,3.610250078938271323e-01
-1.017761875161762308e+00,2.645115560754047745e+00,1.827632272468612706e+00
-2.442971937788996240e+00,9.903018988455255522e-01,2.209504284710980038e+00
1.396556902687730917e+00,2.206081874275502397e+00,2.864537956001974028e-01
-7.332186636155433312e-01,-8.331420155085161872e-01,4.522621583719060867e-01
-1.631339409693780995e+00,1.609678340607058722e+00,-2.279960553807317325e+00
1.242386133051786579e-01,9.894735155734004639e-01,-2.557407948699910616e+00
-1.113170194509630395e+00,-1.434622069900353569e+00,2.901467507038236748e-01
1.399051215931084613e+00,2.058691065705889667e+00,7.066753063160711168e-01
1.113901401727796614e+00,1.301036071649195103e+00,-8.200469910561231091e-01
8.163016355705963178e-01,1.652842268951205229e+00,1.846461653892231825e+00
-6.360186317109056686e-01,-1.168577401414646610e+00,-1.181661257378350260e+00
-5.153767338629471340e-01,3.978456112409131662e-01,2.568269834221385217e+00
4.150092406321589378e-01,1.860030514214941755e-01,-1.201655187987159756e+00
-1.997424386166526622e+00,1.387986738202455106e+00,-1.157961265076982826e+00
-1.374898545097010150e+00,7.376495920674573936e-01,2.434001703839654862e+00
-7.543235442180807881e-01,-1.387585396574406049e+00,-1.469057477622201846e+00
4.936593603262035002e-01,6.694630218860897486e-01,4.051616443660256972e-01
8.653111902567179881e-01,1.128427738619155463e+00,-3.604052677347943101e-01
-7.460909823592549728e-01,-8.964162382901842419e-01,-2.407730011040118079e+00
-1.599662147901673936e+00,2.340168846880449127e+00,2.116143034086020780e+00
3.180931741574560823e-01,2.994454595142024722e+00,-4.599568888942547340e-01
-2.286224308263999916e+00,1.191297213314311598e+00,-4.116700259532450334e-01
-3.258895850858631871e+00,-1.586627190073521543e-01,-8.764095270082689071e-01
-1.931294059911465855e-01,-8.211957776862399694e-01,-2.121569499789143887e+00
-2.070363550568338873e+00,-6.834896770986024217e-01,1.747870499762165686e+00
-3.487893511676191771e+00,-5.603557257196941643e-01,2.510620715730469410e-01
-3.598517991830451623e-01,2.249882320947059977e+00,-2.341628146379748809e+00
4.913820755128515128e-01,5.315336218200009677e-01,-7.210179394832498811e-01
-7.664759659642463863e-01,3.000971276046397573e+00,1.358398158790885102e+00
-5.628464231965926157e-01,-5.424685488037694903e-01,8.588472172330635646e-01
-1.780356592829589468e-01,3.140900762045925054e-01,1.802823698994767687e+00
-4.527001149642886912e-01,-1.026511202297823777e+00,-1.659750684306474211e+00
-1.395669056221773285e-01,2.984019557370450881e-01,1.929241306633654007e+00
-1.005959327303981743e+00,2.273249075313855450e+00,-2.659929362726674462e+00
-2.669840710137265205e+00,-1.213720805250965817e+00,1.599884168107107429e-01
1.134848448629335760e+00,2.114147854880095601e+00,1.025013877471372181e+00
4.962935198168429429e-01,1.040989037592793820e-01,-2.126711808664594194e+00
-2.166028922100262932e-01,2.756605906080762836e+00,-1.885678290970424387e+00
-1.424399635478784898e+00,2.319269934391038568e+00,-6.130208017632353679e-01
-2.403073071648844650e+00,-1.399920212988815749e+00,1.711842667203224422e-01
-2.792735287419564116e+00,-1.148361363384751366e+00,-2.265129774415413078e-01
-2.225400946440670324e+00,-1.373573966531998813e+00,7.716199246721946459e-01
-9.380193482348723188e-01,3.203371324184669522e+00,2.044641962074497388e-01
-1.869447980745634563e+00,2.457104578815650364e-01,-2.723677707488615596e+00
-2.972947235441219860e+00,-8.846547113056091316e-01,5.834188285269026331e-01
1.516477946847163416e-01,3.748511730630052496e-01,-2.605655702586179956e+00
-1.122050823123314167e+00,2.647201092564680280e+00,-9.196574782489652655e-01
-2.450774562114353128e-01,-5.334526804222595731e-01,-8.190932155478299892e-01
-2.319237834416899346e+00,-1.258797050699827613e+00,-1.249812514747456138e+00
-2.392234788424242531e+00,4.028190311117287870e-01,-2.672127774244898557e+00
-1.479360441009326399e-01,-5.073342946360104300e-01,-1.248657259594026847e+00
-1.040852337984139009e+00,2.693372392079695032e+00,-1.186318895319662614e+00
-3.682190034320348415e-01,-3.245816855156700154e-01,5.489019090879123652e-01
5.277343308988849957e-01,2.303035122819016234e+00,1.313901118606829455e+00
-2.201919758426528873e+00,1.695233266111904724e+00,9.441405162276399476e-01
-2.729874489284269679e+00,1.677993168649747902e-01,1.837967044584295051e+00
-9.420213821607957838e-01,1.891874964983522700e+00,-2.732296304479726601e+00
-6.250409084524111147e-01,3.365250660168457753e+00,-7.929275673164117855e-01
-1.793820345942907180e+00,-6.633330549119648145e-01,1.914452334835192948e+00
-3.272738476018077769e+00,-4.114197971158458089e-01,-1.624846166666596758e+00
7.015296995893913756e-01,1.441457139611311389e+00,-2.166406329783281848e+00
2.549245101427614069e-01,-1.543272500202938768e-01,-1.760991071205301628e+00
-1.357139468766080048e+00,1.847526732095116309e+00,-2.904456083975496039e+00
-1.780401808085324777e+00,-6.102356635301514620e-01,-2.285701539299221263e+00
-7.072425687013672579e-01,-1.514002562289575859e+00,-1.947426046539479039e+00
-1.619704433925591991e-01,-6.715336892996366380e-01,-2.466611110647134009e+00
3.190040476573736128e-01,1.237984043908316067e+00,2.243097454786556977e+00
1.301633011094313952e+00,2.166662922702828897e+00,5.759841563137529930e-01
1.233173094671516479e+00,1.221641008607068146e+00,-1.683505586108399843e+00
-1.852491812528705761e+00,-4.757486282650691400e-01,-2.355711704996289679e+00
1.236836520410949714e+00,1.547993368782554224e+00,-3.899340990100921278e-01
1.800630309161911635e-01,3.022488224578619320e+00,2.639623521748306056e-01
-1.254598664298887778e+00,-3.445560125436968324e-01,2.273446666657291448e+00
-2.448037676931023032e+00,-1.131536958946062210e+00,9.272191125529115618e-01
-4.533022785665883903e-01,-4.446446850081948732e-01,8.184624041386541204e-01
