-5.344266895230666670e+00,1.230373643806043971e+00,8.630250888587822189e+00
-3.493910072295545177e+00,4.512854873925363997e+00,7.739952278647109551e+00
6.409647789934400652e-01,-2.626102395047562155e+00,-6.956725920762146798e-01
5.265525605071271542e+00,-5.492307746079881703e+00,5.752849418631501344e+00
3.278871473338862419e+00,-6.501747228072699336e+00,-1.743821435451725632e+00
6.663579465533136847e+00,-4.080156737921702970e+00,5.918540004712315117e+00
-2.440268060822647911e+00,-8.446467335539484367e+00,5.639165124435593590e+00
1.411223304300240233e+00,3.716899353421306174e+00,8.874888584843011463e-01
3.847414995985963593e+00,5.422720160559350688e+00,5.593304412055732477e+00
6.409801255713494683e+00,2.107470888796493469e+00,7.676698310189796537e+00
1.907131746275748441e+00,6.037595491564614392e+00,1.529717754563611143e+00
1.954280214403457006e+00,-3.868831390918803237e+00,-1.067087897782178052e+00
-1.022919685614446683e+00,6.684651804233372019e+00,1.976706519363763404e+00
3.857394233952645468e+00,4.058159224880030003e+00,8.455896017737961401e+00
9.853646425567099687e-01,3.632371606019783705e+00,8.563059398688388058e+00
-4.466016911219576002e+00,3.493832850441776383e+00,8.276239012723504374e+00
-3.973054562059285200e+00,-3.240951324189298877e+00,-4.958478177210713378e-01
3.816283225725782380e+00,-1.330288567152863477e+00,7.069343909823052385e+00
6.110410024331456746e+00,4.113210413058662418e+00,2.661869347670841268e+00
-1.707731697816564420e+00,-5.010381546134801134e+00,-1.155041822112087280e+00
-3.455774394052004705e+00,-4.017461978054624794e+00,-5.906396626363944469e-01
3.048364698001769568e+00,5.365767706977519147e+00,6.966307446461594388e+00
-3.903136675437745673e+00,4.053240710547522774e+00,7.968695507855054316e+00
2.382733124615399323e+00,-5.491157109286553428e+00,-1.650957964925010346e+00
5.763395141919454012e+00,-6.063431207123272770e+00,2.878893488730479788e+00
4.861026202390903883e+00,-4.440713050050787203e+00,6.195409631325755839e+00
-2.167658983228269332e+00,-3.876764459177728828e+00,-8.321962773142214109e-01
6.582971390665137257e+00,3.303170808164153982e+00,1.880832440163063835e+00
-3.937141882440021501e+00,-2.920763391356855809e+00,7.332953211532343474e+00
8.481054136971841739e-01,6.358106342229806529e+00,4.889387956842377037e+00
2.887027038103591181e+00,-7.286477190282345084e+00,5.723449884560356971e+00
5.646449100116833542e+00,-5.416557250213757335e+00,3.566951688904209661e-01
2.096570484727350969e+00,-5.957084583740083206e-01,-3.013587209355131913e-01
4.010195705859946003e+00,4.422181025994628145e-01,7.524996098307661363e+00
-3.489648411981180587e+00,-4.785092952144326617e+00,6.795872861068362525e+00
-4.655886246098598136e+00,-6.781634219189159651e+00,4.706717204049500225e+00
-7.257316085390588256e+00,-1.691886392807906703e-01,6.716403526014060876e-01
4.251479093193445413e-01,-7.413813692289229706e+00,-1.215495550634424493e+00
2.905071610971493357e+00,6.820154652995749522e+00,1.874620526153014444e+00
3.874583376223165843e+00,5.964812847994352296e+00,2.357626008606276802e+00
-6.592413571570911124e+00,1.837475625541289181e+00,3.748968645752542184e+00
5.731507864965823096e+00,5.135991162343138405e-02,7.176158652441152697e+00
6.005960442184846926e+00,-5.910342167004736247e+00,3.537352270575778057e+00
1.893057061248413664e+00,-4.393519829586132630e+00,6.394387765012516489e+00
-6.705115065807310870e+00,7.543319491957348744e-01,5.629802671808418424e+00
-1.683351878573557725e+00,-7.835617472803459993e-01,-9.409127217205123794e-02
7.417063341028723222e+00,1.956979690620131107e+00,2.027569415334994574e+00
5.024770123561791285e-02,-4.009057179523940917e+00,-1.153729595033488264e+00
-5.238252196975226482e+00,-1.719726366848751242e+00,7.878294761411877900e+00
-2.437974078428291058e+00,4.861725734845170344e+00,8.407123100448377073e+00
-2.472633074815942245e-01,-7.839146075152439330e+00,5.680164587454379799e+00
7.954633807041565419e+00,-9.987246135605870601e-01,5.242309409026710831e+00
6.535788005233802433e-01,-4.511303577984595137e+00,-1.235234773095851057e+00
-4.501434919708201754e+00,-6.984831253134094808e+00,5.633578285793682028e+00
7.002307041404224996e+00,-3.759876011486928959e+00,1.377785087801933539e+00
-4.395178448409320815e+00,1.533350190028397175e-01,5.437698305212447236e-01
4.727809626366469287e-01,-4.318208677244700922e-01,7.529881297814005947e+00
-4.130089906075397721e+00,3.876845355511252755e+00,8.140409913812767684e+00
3.090007184141146279e+00,-4.451687673584712179e+00,-1.431762619236585543e+00
-4.972635804909682378e+00,3.576936155954953955e-01,8.439790781473607950e+00
-5.580479875675830037e+00,-5.707098416429576382e+00,6.812933243615752588e+00
7.303899685984025503e+00,-2.899982638376499722e+00,9.927949963989834981e-01
3.764379866317113521e+00,-6.460839200303848173e+00,-8.289984756178024883e-01
7.344300531658904951e+00,1.931340643791606304e+00,5.115197358312417286e+00
-6.718127741206498804e+00,-3.037433059742305819e+00,6.620725350125993280e+00
5.994173216746276012e+00,3.847160033712532901e+00,3.558757142052807243e+00
-8.034448402924639909e-01,-8.397071837813559370e+00,5.683502641526942512e+00
7.930745097919262854e+00,-2.064924570339103094e-01,3.563698831991338967e+00
6.929741250875100178e+00,-2.590109549651606891e+00,-1.151707192985345296e+00
3.767732880477337787e+00,4.924215427396246625e+00,7.747856545833210262e+00
2.820073492789318959e+00,3.999735147228256960e+00,7.859929018320117589e-01
-3.218612971392115885e+00,4.414982919740046086e+00,8.511198041624723487e+00
3.421730216561488014e+00,4.565542990923214361e+00,8.538485170480948128e+00
7.581769632488165378e+00,-3.922088541261595784e-01,9.062067022193756038e-01
-4.447953525592580171e+00,-6.284591921519322000e+00,1.634958085146023699e+00
8.082989545364998918e+00,-1.538988070884946158e+00,6.565346346340202643e+00
-9.159115519302541975e-01,-8.623539211942015115e+00,4.315686962670112869e+00
-1.966839073776614821e+00,5.270127276274157779e+00,7.583876189256836042e+00
1.233773953998411166e+00,-5.214524378401743654e+00,6.298117555127878298e+00
5.390340268963123904e+00,3.789212915287810013e+00,7.925253142026821962e+00
3.924167671461769480e+00,5.509176545495246380e+00,5.302136969352585716e+00
3.485304848164624936e+00,-7.030311534750033786e+00,9.190736581938090399e-01
3.762199447278599784e+00,-7.190679934697636000e+00,5.545951458118824284e+00
-3.639797973368098738e+00,-7.107969479802103585e+00,1.433798012892081974e+00
-6.238952108512611616e+00,3.288912862451866204e+00,2.532761080197655001e+00
-5.335129991909977498e+00,2.251908254021762978e+00,8.590149109050598142e+00
-2.412568703161627415e+00,2.600926594423972560e+00,8.633199715487856807e+00
-4.300542681645867837e+00,5.248361441911950642e+00,1.826955661060185587e+00
4.551117336915948997e+00,2.123847329285634356e+00,1.227608463547949225e-01
-3.003281684531122320e+00,-5.555375094680853110e+00,-1.227957571937473791e+00
-4.927556271989778303e+00,7.465587151994851345e-01,7.730987837013824082e-01
-6.954617190737643284e+00,2.043211210540438749e+00,2.336161807024649484e+00
5.824148500914584581e+00,-8.427205608616200605e-01,7.057740760552454695e+00
-3.598549088194378243e-01,-7.006882725081767127e+00,5.942011165571106091e+00
6.321242900826391065e+00,-5.274335596932548498e+00,2.651052432320146313e+00
-6.490392071009550179e+00,-7.481349854682538547e-01,4.363854796709485395e-01
7.368047515733107566e+00,1.711856043289001539e+00,7.567851940590856197e-01
6.128025908681670408e+00,1.429645324620654190e+00,7.695575648589978002e+00
-2.606222924903268900e+00,3.908717543194573096e+00,9.133252041171683544e+00
-2.684152326596657812e+00,2.892243908488357107e+00,1.022477688300811094e+00
-2.569389710743429589e+00,3.535211568097883283e+00,9.029047539902077091e+00
5.434720728910207299e+00,-2.564730452394436977e-01,-5.831440522039557095e-01
-2.202976836905395697e+00,4.305019103133663982e+00,1.363490200165592636e+00
-1.097058828302628075e-01,-7.291774465985691123e+00,-1.528909580268495771e+00
4.548322952869433777e+00,-2.309565764625508777e+00,-1.055445712619550447e+00
4.919003991161744693e+00,4.740933295092298216e+00,5.436308155589201441e+00
6.222337574175227815e+00,3.315118671922247628e+00,7.257485495433535938e+00
6.553716301901444830e+00,-2.817260012465609087e+00,-1.397448260475615767e+00
-4.750500060788451329e+00,3.978588317983670075e-01,8.297246171172501406e+00
-7.310469790348489205e+00,-1.185126710501036129e+00,4.559922360621248005e-01
6.300031370377911166e+00,2.904159728802016449e+00,7.281138812317937692e+00
-2.883351036863341044e+00,-3.190423635520820866e+00,-5.418439558567971215e-01
3.399438819667665701e+00,-8.089986506658213727e+00,3.329061378733959575e+00
-3.320336329511742512e+00,5.364535053405770526e+00,5.053386049363075117e+00
-3.299428051842142384e+00,-5.281953860220338193e+00,6.680145886916537101e+00
-4.749939829058832608e+00,-2.198738549272423626e+00,-1.138054641677466589e-01
4.143109681476008888e+00,3.571310104687604348e+00,8.354467518523891911e+00
-2.679088766706425595e+00,3.810972478106969596e+00,1.142295030143875234e+00
-2.659411474948775833e+00,-3.709819848740029347e+00,7.177971155114391877e+00
-4.461125204998732663e+00,-6.519017916655051259e+00,2.070088121140034598e+00
3.751877306866942874e+00,-5.615632694718148521e+00,5.921728578501820550e+00
-3.851149457653129549e+00,2.566172135778989283e+00,1.111963037899524442e+00
-7.045960119996090398e+00,5.085411077606516450e-01,3.645486737273715416e+00
4.338403021135193605e+00,-6.583978530632440318e+00,1.733290169817341131e-01
5.976383972247186982e+00,4.261619170981018279e+00,7.597524029409504776e-01
-2.006958184316481208e+00,1.991369194318788116e+00,5.997706633284677347e-01
-1.161344287536978159e+00,5.653984783878339471e+00,7.082375005748878571e+00
9.289722474501119764e-01,-8.201823851025165979e+00,1.758464766985498251e+00
-5.006220168967352002e+00,3.044771502147499920e+00,8.797515740180978483e+00
-5.031477473722102189e+00,-5.984163034296570594e+00,2.142604629059740251e+00
7.099875730300061250e+00,-3.778826314322221602e+00,2.014308404354177018e+00
-2.674004758180335006e+00,-7.343060937491050488e+00,1.495244924232769446e+00
-2.658354397359068866e+00,-2.134792192355864149e+00,-3.283631414882230981e-01
-5.643132850831640290e+00,2.098898549195793439e+00,7.641916158908326651e+00
-3.278724056910035767e+00,-6.424088780280743372e+00,-1.356294460312779337e+00
-6.759400214322085709e+00,-3.350194272674789531e+00,9.404669141708003055e-01
-6.699488961452801483e+00,-3.380566210561308349e+00,5.255237403242346339e+00
-6.416351434771966566e+00,-4.250713117713565303e+00,6.038809211303439284e+00
-6.280145376337347152e-01,6.239753194222695809e-01,8.129152876136823025e+00
6.711960783497692873e+00,2.658506333615925588e+00,7.560750632261160398e+00
-3.260325629549772231e+00,-7.909823978833701474e+00,5.075162730379406462e+00
-4.439380165728308292e+00,-6.207064110937228207e+00,8.384941045383740299e-01
-6.370020924962875419e+00,-2.324393712619634123e+00,-4.260760208595511245e-02
5.363894478736361826e+00,4.066234548446981734e+00,6.969826702030790244e+00
-5.254499240545493777e+00,-9.180726536832843898e-01,2.759009626985925445e-01
-4.872376534010660620e+00,-6.146804584961516937e+00,2.994143029244309417e+00
-1.574981580601079623e+00,-8.061451235170004281e+00,2.266300998622847285e+00
-5.846975428092783922e+00,-3.316210203478255902e+00,-2.568302436456017523e-01
-1.798362079976443262e-01,-8.945625999269593009e+00,4.545328509417466023e+00
-7.129240053260136101e+00,5.536676717584252394e-01,2.702466219914876788e+00
-2.482850598334329639e+00,-2.515623742371324023e-01,8.016405344875016326e+00
-4.917738980344298128e+00,5.030284222194286947e+00,2.431956150967004238e+00
1.416896924490641752e+00,-2.720827354440396584e-01,7.563170598556100188e+00
2.798289665423877803e+00,9.598990640620821413e-01,7.785942256517145665e+00
-2.003021227575708385e-01,-4.577992243767793568e+00,6.597861231354589684e+00
4.427347766766953185e+00,-6.937490723128578729e+00,1.329059581657265232e+00
4.053456223735588893e+00,-7.128862663979799841e+00,1.450947525651085535e+00
-7.038925766892210945e+00,1.006346818787030584e+00,2.366245799686101492e+00
-5.873961834801490589e+00,1.142719993051859451e+00,8.638432638916624384e+00
-1.761333503981782789e+00,-2.375378674563799475e+00,-4.886592987657735199e-01
7.248260433605945074e+00,-1.537434436804857363e+00,-5.998337651088681000e-01
-4.984825221212966007e+00,1.966379218556176367e+00,8.785729358742292439e-01
-4.059314736735379014e+00,2.539024357286066153e-02,8.095009873198952377e+00
1.434936966894820642e+00,5.816042267430991508e+00,1.541075405457118741e+00
-4.964512937551488037e+00,1.259337563730845710e+00,8.601061909172920128e-01
-5.286079722680269377e+00,-6.262079331961563966e+00,6.584932220413965531e+00
-3.476076012684139460e+00,-6.379463518106608610e+00,-1.386770835678990954e+00
-5.514671511402697845e+00,3.557766797987692353e+00,1.455060986649464150e+00
5.719624037147764462e+00,-6.986340931184836123e+00,5.394518288657967453e+00
-4.020435310939631357e+00,4.008399256369076014e+00,7.825863588988946518e+00
-2.280198718977947792e+00,6.279164302504908868e+00,4.065164149091366141e+00
3.327726812375772614e+00,-4.794266512508155387e+00,-1.565043433652678839e+00
5.295842501177354222e+00,-4.446501825191352175e+00,6.081691851256303849e+00
-1.425065617740551183e+00,-7.323967613593297621e+00,-8.805174170287274338e-01
-5.383006019969009515e+00,-4.343128674288446511e+00,-6.712862209408765324e-01
-1.388235929542439573e+00,3.747115626722518744e+00,1.183573007286012002e+00
-5.898138757851900671e+00,8.011791898498658859e-02,8.311750168508734049e+00
-2.834582457795921773e+00,-7.098734464823458268e+00,-8.775387498478620651e-02
-2.008664299239280027e+00,2.377673341381949967e+00,8.599159255222131648e+00
-7.156831087305908667e+00,-1.481709145704001307e-01,2.992696522396143255e+00
-6.751865910610280075e+00,-4.677984379169723428e-01,5.924157983426507457e+00
1.119109115204070415e+00,2.840159552809976340e+00,6.174675034528099848e-01
-6.651957482692105295e+00,-5.031607992792100914e-01,7.779217141153604409e+00
-3.527380451713502119e+00,1.493761218620929698e+00,7.042378478640881623e-01
-1.263716091365997496e+00,4.802571506791855627e-01,2.797561041976387997e-01
-2.857385756949501143e+00,-4.380898137942041970e+00,6.891151111103098081e+00
2.853888950010363690e+00,5.247377126681979753e+00,1.197132212008785279e+00
2.113982815256327363e+00,-5.209069620288000024e+00,-1.530324268314388947e+00
-1.022049424775260729e+00,-8.793820583888666276e-01,-1.130789989577105914e-01
7.707194305124862588e+00,8.372583177162863377e-01,4.902138907044809812e+00
-3.611213294390245299e+00,-5.096447059654816591e+00,6.751452412515013712e+00
4.540357660394247041e+00,-6.681367340959817547e+00,1.063464226287138992e+00
3.929314527117131917e+00,-7.085175879765566620e+00,1.266862826135995101e+00
1.184833848221157782e+00,-6.378160200233156552e+00,-1.723721749129852654e+00
-6.891915882842714502e+00,-1.618026660121722804e+00,3.126199847795750331e-01
2.699893368332056731e+00,-1.821668703915636067e+00,6.971793210969276622e+00
2.655413119260536803e+00,-7.669351938104139954e+00,1.232658373398567875e+00
2.001715621989722749e+00,-4.717255240142635309e+00,-1.434046435737389658e+00
-1.858761374105948327e+00,-2.319241191814443770e+00,-4.415198892465691527e-01
-2.350326232017407424e+00,5.194713812103781692e-01,2.449985482697726591e-01
4.151106239128816711e+00,-2.448446789177743721e+00,-9.966984511887793108e-01
1.170164557340974687e+00,-8.587945208303924716e+00,3.313518319603111273e+00
1.386675901541345977e-02,6.111731842719237306e+00,6.319166909286170863e+00
-2.041347435110153707e+00,-8.063618773382749794e+00,3.724775611106856843e+00
4.219632602196825566e+00,-7.810006682666954525e+00,5.273407961516388909e+00
5.767462335433305221e+00,-5.748655790052073833e+00,1.350872944687119270e+00
-5.710760757275044064e+00,2.438759505473375278e+00,6.668454377911047004e+00
7.734890575219189657e+00,7.659290958487769974e-01,6.679041294028180253e+00
-9.470175742736222091e-01,1.690949774909541459e+00,8.280951785948561295e+00
-6.875319077733451856e+00,-1.664550869208065720e+00,6.772747644713682291e+00
7.672863082963314874e+00,-2.196802782957084865e+00,3.355268196165657191e+00
4.976089194152272022e+00,4.701390757421189726e+00,5.290666822196518737e+00
2.766803209580405820e+00,3.786254871349694184e+00,8.381943793059678072e+00
6.754520710671075179e+00,2.120565099729620206e-01,7.182412755891138367e+00
7.247373829654889299e+00,-1.932000827690361078e+00,-7.809891917896418789e-01
7.731564807893286151e+00,6.089037838739960184e-01,5.337712595531710846e+00
-5.891725855663262124e+00,3.363054699184870877e+00,4.852109861191598483e+00
-5.930359299418135333e-01,5.235732696052163071e+00,8.853998276096307407e+00
-1.205898751123608115e+00,-8.636669297384484523e+00,4.482624771013145271e+00
-5.701295623509510690e+00,4.224426778922786063e+00,2.812607217137609084e+00
-3.489535695137456206e-01,-8.431103124541623473e+00,2.885781587130395121e+00
5.547909791841822980e+00,-3.527508850569809895e-01,7.181420863792121523e+00
5.474209426740447304e-01,4.115784223765015959e+00,9.082450151841864328e-01
-6.801655929905084719e+00,-2.573741491512099522e+00,6.996059810283997926e+00
2.875237278823951304e+00,2.354248095136252938e-01,7.554179200006186257e+00
5.805539933640805117e+00,1.284585191683952798e+00,7.620776277628102058e+00
-7.110182610869310693e+00,8.437749635065262543e-01,2.505168094707268089e+00
3.468249506263387794e+00,-1.626796882663233079e+00,-6.172825801648594846e-01
4.311381114031810569e+00,-7.899054285780506390e+00,4.577022918020174025e+00
-6.163736001436430634e+00,-5.936189010363995822e-01,8.453147805863642006e+00
4.624853160396280138e+00,-6.786340607828114102e+00,2.152930130155110700e+00
1.194106857615462980e+00,5.495778783159479097e+00,8.392874763563424878e+00
2.599309417976602532e+00,-7.795474315192459258e+00,5.392390022962918472e+00
-2.691217083479461980e+00,-1.896788428772319568e+00,-2.838030691550887386e-01
4.724662540700696134e+00,1.396286338412872363e-01,7.399777514588941507e+00
-7.029257851446441663e+00,-2.488837418217399566e+00,1.324656253306789599e+00
-6.591841596397888026e+00,-3.602134749197730912e+00,7.357823699921708815e+00
6.299528882660171192e+00,-6.238818120930619493e+00,5.022354081710899365e+00
2.330099867582285711e+00,-5.441571815781776067e+00,6.164892119939278103e+00
6.645578121018267836e+00,-3.934522049364764129e+00,4.573432909363112780e-02
-5.538748977498308967e+00,-6.075954182120322677e+00,6.730424841976670791e+00
-3.181279079047318881e+00,-3.201839608345303123e+00,7.283401141342475960e+00
4.185557870624114329e+00,-7.557497752610834674e+00,5.312472211459939864e+00
-7.257209925273108375e+00,-1.401990774253968786e+00,8.177587353644663049e-01
7.481799882327645257e+00,1.066717712237669757e-01,3.178425461239918759e-01
1.308115467972013057e+00,-6.271805962639550813e+00,6.007708039396333355e+00
1.665290472976438174e+00,-7.042947437984666159e+00,5.724233965524454959e+00
-1.169537924181627275e+00,3.555943890673533225e+00,9.315285361419609611e-01
-6.882193002352019029e+00,-1.674828692026318899e+00,6.015737360057745953e+00
-2.582524189289901351e+00,1.949889508722032705e+00,8.580273799832568216e+00
-3.203607728559550338e+00,7.773042394167837266e-01,4.559354494961673221e-01
2.542983475519076553e+00,-7.362957486163638876e+00,1.544034478553042988e-01
-4.821366092303520645e+00,-5.000388931929636627e+00,-9.650030004645970827e-01
3.615614196825564175e+00,-5.334030120113278706e+00,6.127233886875447233e+00
-1.143700736164155574e+00,-3.452929399971322422e+00,7.063482834263219878e+00
2.559275977571583649e+00,-3.650429327599582940e+00,6.592218251090613101e+00
-4.370560205041533308e+00,2.236836479299237901e+00,8.852004065677224531e+00
-7.343959580021240718e+00,5.877954126057293172e-01,1.262025444754076853e+00
-2.026869640232647374e+00,-4.007911765438632479e+00,-8.567534601389930060e-01
-1.603320940591528299e+00,6.139210574987439273e+00,5.120641969139014371e+00
1.562963373151833313e+00,4.023277848219679598e+00,8.735520628828306045e-01
8.683208217572433441e-01,-3.311589319826326872e+00,-1.082836910715799794e+00
4.136237348376385903e+00,-6.604604511391609201e+00,8.057741090971765052e-01
-5.308092724029728871e+00,-5.950346639274006755e+00,4.815608474711026155e+00
4.249146943155151845e+00,-4.985445721099116767e+00,-1.736393140314294481e+00
4.408946364583235855e+00,-4.749152336421830212e-01,-5.178311741696713932e-01
-5.621477214571679593e-01,6.657156116362343390e+00,4.022368029344283613e+00
-2.178834091776253867e+00,-8.566122815706263438e+00,5.713285504104837820e+00
6.386080981617912045e+00,3.587481299017178493e+00,2.215678045641495952e+00
-2.307475140703428573e-02,7.025207477039055348e+00,2.266116859430807207e+00
-5.220343629133088470e+00,4.183563857492802462e+00,3.822421697677403696e+00
2.654433944291914482e+00,-1.926047919661874719e+00,-7.524218147257072387e-01
5.365788341934645267e+00,-7.494566638868764841e+00,4.986222414812701231e+00
-4.929214566460272118e-01,3.451750798104657569e+00,8.914282865750478013e-01
5.266695213073584902e+00,4.671358009334055872e+00,4.009958544090817867e+00
6.830455063939202098e+00,-1.307326977257705636e+00,6.784625582651612419e+00
-5.421745596993104321e+00,-5.209425442768916170e+00,6.961265789089945422e+00
1.755299235439200300e+00,3.756452550442049176e+00,9.293238288584820816e-01
5.316235618611313996e+00,-5.186048197737330057e+00,-1.067772771307076374e+00
6.874194258450146755e+00,-1.797866182533397472e+00,-1.186226811883027032e+00
7.680404383454516370e+00,-2.870317802599255064e+00,6.208331385410777337e+00
6.638550560470131146e+00,-4.434164210630111569e+00,1.346260689356542084e+00
5.587670280456501493e-01,-2.967672552064848368e+00,6.943894997184753670e+00
6.692911830944612284e+00,5.682062659800776738e-02,-6.802304307930530092e-01
-3.082324914886053424e+00,-7.376909476491851692e+00,1.826051857895931718e+00
-2.589758791610451638e+00,5.404024229575290938e+00,6.151739488027847536e+00
-1.620584571666295881e+00,5.501664790038771180e+00,7.098779584663973630e+00
4.726485947124688392e-01,-2.630222738174913477e+00,7.014820471707701621e+00
7.645869115815796313e+00,-1.227096739801299075e+00,1.937787578769643471e+00
-5.361719725688708138e+00,3.302768550583767837e+00,5.551446031936923653e+00
2.067225936749709891e+00,-4.321324901738201163e+00,-1.321530490435584460e+00
4.910989698595775721e+00,1.707884329033971138e+00,7.744483330438107771e+00
-8.522172493413625594e-01,-5.890214511575975642e+00,6.254398066640744602e+00
-2.924570100308970133e+00,-5.492924649118102742e+00,-1.187461081151325981e+00
7.216048367384364504e+00,-3.368056383882184868e+00,1.535293908744274072e+00
5.304863377616622078e-01,5.892678574748628328e+00,7.351983167433091992e+00
-5.482911964753400369e+00,3.444070658372750948e+00,4.998098054885903530e+00
-3.796282716208333685e+00,3.018183634190938935e+00,9.046753891187023555e+00
-6.926697062974895402e+00,-1.979106880266402468e+00,5.651659901688764975e+00
1.096427622889700082e+00,-2.392348128550003228e+00,6.981316781302886909e+00
-6.383646308611980125e+00,-4.498731015922112775e+00,4.646933375842654534e+00
6.554893888298940041e+00,-5.022287263276989044e+00,2.326094835648770065e+00
-2.124467779392670952e+00,-8.574278628659122603e+00,5.699940573426246715e+00
-6.585737478691704005e+00,-3.527736735612596153e+00,6.940607258398177493e+00
-1.825527399962864283e+00,5.063632058477060660e+00,8.404316209414869121e+00
7.437902278451320459e-01,-2.230890074032174653e+00,-6.754157092483141778e-01
6.060205224715692118e+00,-6.856197705260346220e-01,7.049322847826040572e+00
2.986893878913777556e+00,-7.524561390915546433e+00,1.530553684828658279e+00
1.048063274951510415e+00,-3.413164864729468118e+00,6.630908696066685870e+00
-3.404111694116102704e+00,5.485063085137597660e+00,1.914180730316136447e+00
-3.934723750007240284e+00,-5.216769565037069789e+00,6.738987996120491708e+00
-6.672049577580048130e+00,2.386357294291318709e+00,2.829582863337515963e+00
-2.042511406663735929e-01,-3.104316516399086900e+00,-7.236409199901118194e-01
3.042243595365440867e-01,-7.477218673783480263e+00,-8.271934392124483670e-01
6.786999954622172204e+00,-4.688639056519698478e+00,2.577189422359257076e+00
6.830708149041008426e+00,-3.396764391353527035e+00,3.408043123764631921e-01
8.151871388496454429e-01,6.115536731413930838e+00,5.446224691802138196e+00
5.102761842348812138e+00,4.258765133908514855e+00,6.689930679069479247e+00
2.253621114722933694e+00,-7.353380213790304154e+00,-3.165834307142808765e-03
-6.225719754150316199e+00,3.137532094402580185e+00,3.000256950830096248e+00
-7.218741934003838345e+00,-2.051264615308688199e+00,2.163159511609544339e+00
4.114165897487170653e+00,4.973406034865351266e+00,6.569825520118397044e+00
6.750260552621554666e+00,-5.015202828487288045e+00,3.626606064912454741e+00
-1.893542965340622830e+00,4.521602003804493286e+00,9.052607476443018442e+00
1.693265468609856939e+00,-9.437274986586964287e-01,-3.323718265157492024e-01
-5.513514130161171201e-01,6.891727779057833736e+00,3.605772553128038016e+00
-5.173797062249398948e+00,3.857912644911285938e+00,5.086495011336849892e+00
-7.370322976331578957e+00,1.153075048249236484e-01,1.092553062888816928e+00
5.807716593195521249e+00,-4.067905100798713924e+00,6.304528611312247399e+00
4.537222770655071180e+00,-6.006424041274635250e+00,5.825747364855192956e+00
-3.989102571681964360e+00,-1.139339337206632496e+00,3.166931285314759231e-02
-7.154588787436583885e+00,1.830038597523818478e+00,1.934636841216069936e+00
4.673392364499130203e+00,1.363899177017286579e+00,7.670422203384681836e+00
5.812210099997345836e-01,1.105024146955466025e+00,1.288323147364416055e-01
-5.775426420508756875e-01,3.597884879854594598e+00,8.722687501127243337e+00
4.865362528790525332e+00,-7.587852601261842800e+00,4.449275226407420014e+00
-5.224359936944401817e+00,-6.301004720349214772e+00,5.171816654292657134e+00
-1.104582654510385620e+00,-6.448855319153040888e+00,-1.507784656856022254e+00
-2.554186722678696952e+00,-4.715541144315026578e+00,6.927982942763444285e+00
2.390085707374301816e+00,6.257532485147882184e+00,4.290589689519061167e+00
7.680716112838349652e+00,-1.143121763527624513e+00,1.522948846457217620e+00
7.854826696013526899e+00,-2.914618099762937398e+00,4.330768703319435531e+00
-4.266047139509510644e-01,6.430840661158486959e+00,4.503704486576155297e+00
-8.736260298328601959e-01,6.711096504260126494e+00,1.844085779616034815e+00
-5.071943366236126849e-01,6.293679154196457404e+00,5.064974083632514557e+00
3.994643132972475641e+00,-6.408683719147100888e+00,-1.118943300802561547e+00
8.367883538234350826e-01,-7.383119821302568830e+00,-1.293077535826260283e+00
4.169608936806973531e+00,6.066592804167061814e+00,1.253166825889288738e+00
7.524389746720538952e+00,9.460675782599288208e-01,1.655112199652265303e+00
7.562070928689203164e+00,1.490209053542829842e+00,5.569429787703789714e+00
6.122455463412591392e+00,-2.818595437003122761e+00,-1.468629718624954394e+00
7.512005864020008694e+00,6.005560460275942702e-01,2.292997490062915311e+00
-5.916264904469322516e+00,-4.409914311120751940e+00,-1.174579800025349618e-01
6.534071159558830111e+00,3.182719327051868774e+00,3.757538817679987098e+00
-5.187481299266110568e+00,-5.623086204666511989e+00,1.496472764721038295e+00
-4.114966195345486355e+00,-6.424873313257376317e+00,3.580290890027523071e-02
3.713945650438017054e+00,-6.422545649250769983e+00,-1.799232954489937697e+00
-4.869140333384658903e-01,-8.198423375316837181e+00,2.423270833849204831e+00
3.737460622651298081e+00,-6.206037422959880701e+00,-1.619855652728031448e+00
-1.029836257356138152e+00,-8.620873413534807517e-01,7.655577972983396151e+00
7.637766966346513975e+00,-2.189273570818748293e+00,6.381764342679065116e+00
3.381030281597920517e+00,-7.401181706745668443e+00,1.148999194525822887e+00
-5.877140036317895166e+00,-3.906964066662553137e+00,7.387409199524213932e+00
2.357732617833592226e+00,4.454812770714708492e+00,8.318378642663496469e-01
-7.007574867015558873e+00,-5.339547198341918488e-01,4.768381904694940054e+00
-6.493437920757537896e+00,-5.415313242655986903e-01,8.323066298963638587e+00
6.632411975823807815e+00,-3.406863334565271906e+00,-9.106363511166756242e-01
1.387642290468253492e+00,-5.622198137487607994e+00,6.142766854854492031e+00
-6.751450078614586126e+00,-2.232726350099321522e+00,6.986535636212394706e+00
6.790400442559389127e+00,-1.413422306502650105e+00,6.823629047484036647e+00
-2.844972374944019222e+00,1.385418204684511378e+00,5.815208784793607366e-01
6.998801335675517876e+00,-4.382046899153904107e+00,3.077389543407105243e+00
6.137653259048310161e+00,-5.530179230388476697e+00,5.749713258833518914e+00
3.091540697862873444e-01,-2.552911980746392029e+00,-6.554374520923507141e-01
3.005210168948122984e+00,5.574070865048581958e+00,1.199120353988660570e+00
2.413112694547305676e-02,-1.655129242421489399e+00,-4.150795466018091240e-01
-1.900294064257383120e+00,-8.354616265400846231e+00,4.450701367753707061e+00
-4.418374539277901469e+00,2.714244768515515549e+00,8.880257662093214321e+00
-1.099551251681440522e+00,6.280087523421841844e+00,1.741062601069198079e+00
4.506879731639310549e+00,-2.506936057917717453e-01,7.323938389625932466e+00
6.395759575371319450e+00,-5.681426928416734690e+00,5.632266288487725703e+00
1.273093915638753737e+00,-3.991695815680975201e+00,6.522669491090430149e+00
1.934094347222971466e+00,6.223965399496959705e+00,4.973180417639777140e+00
2.041613728020756913e+00,-7.577380317587795844e+00,-1.436277804999826491e-01
-7.249992701924263372e+00,-1.267128770160427464e+00,9.593614267671236595e-01
1.212097557215754184e+00,-7.283936098499935952e+00,-1.119599126228860930e+00
1.401878745603956311e+00,4.419682273959316454e+00,8.735043678566189129e+00
-3.400926443012342482e+00,-2.565343052875042495e+00,7.357651051236794082e+00
-4.871119346875006251e+00,4.796204745570892491e+00,3.579827897575223350e+00
-5.031634315322545126e-01,-1.561172468710932515e+00,-4.686557590373571780e-01
-3.376065494913028930e-02,-1.688264884664875565e+00,7.280131459375936309e+00
5.648325684761992704e+00,2.564182316537230832e+00,7.870345953791091809e+00
3.652002737980682756e+00,-4.801912977421499917e+00,6.156074737984603473e+00
4.343184880944908954e+00,-4.335864348924322265e+00,6.337660166098356918e+00
6.773018944384110007e+00,2.659141883636432002e+00,5.828917155216446488e+00
8.015980563903072564e+00,-2.163440554384700731e-01,6.282095244536257006e+00
3.794528818805897430e+00,-3.480705688671078768e+00,-1.172743205378574682e+00
-5.491336692771135120e+00,4.540626090992155639e+00,2.282407817088832225e+00
8.332683070638199352e-01,6.631470993889753807e+00,4.309611928313869633e+00
6.767190476450627656e+00,-5.214489083865373686e+00,3.553805773663102574e+00
5.969303729797048597e+00,-5.285474215180380186e-01,-7.355487294951222887e-01
7.940222815920038535e+00,-2.831331063849491514e+00,5.116112937832435925e+00
5.251858517875525934e+00,-1.012314027873198130e+00,-7.650842881923267669e-01
-1.142348729202399049e+00,5.049345634366193991e+00,8.741839014551546327e+00
-3.078836102988666834e+00,-6.837298549683492155e+00,-7.899026036720568911e-01
5.101654832744130452e+00,4.780133527016946715e+00,3.498099622490196126e+00
5.227463598322151128e+00,-5.626475356199680533e+00,-3.054553647217886359e-01
4.121158834996921705e+00,1.055268055724004839e+00,7.554637384763572605e+00
-1.362980360200545915e+00,-3.799617067296048312e+00,6.961942518314049977e+00
-4.303796903777659999e+00,2.976064804682075682e+00,8.819477389064717343e+00
-8.610827937440511670e-01,3.236660796446967581e+00,8.572205791112002871e+00
7.534099143619561012e+00,1.293538348838517704e+00,3.224440805258423470e+00
6.997630126289997143e+00,-4.323863140292797169e+00,2.571931716348220043e+00
-3.519628372291630836e+00,4.499942276600433999e+00,1.438951499743863938e+00
-1.889247034659140345e+00,4.772531006747736448e+00,1.442571504795455928e+00
5.173936080930074510e+00,4.611181768002838410e+00,8.482974431113358138e-01
2.784764731649408187e+00,-1.696172218789732677e-01,7.426788387339906095e+00
2.831134690980627866e+00,3.579689847375066680e+00,8.546804491594781616e-01
3.695278085708977173e-02,-4.739261388731766722e+00,-1.205150041654830639e+00
4.394445861293450051e+00,-6.407430579287018979e-01,-5.749048716998051978e-01
-7.337004730252075779e-01,3.991099068040387721e+00,9.665570127770749531e-01
-7.098125594862101373e+00,-2.718279830318525381e+00,9.158328737806273878e-01
2.363209512484774955e+00,1.396599613522873984e+00,2.553786207495072347e-01
7.219301396407091787e+00,1.415267289792508265e+00,-3.364237042728443483e-01
-6.205452701512562008e+00,-4.465176416403756399e+00,-2.953713558797982919e-01
6.510256820229052721e+00,-4.078570863428763182e+00,8.604464005137429927e-01
4.742659439490118922e-01,-4.461009412912052774e+00,6.540161020367021294e+00
-4.538789616923287085e+00,4.112553336239446189e+00,6.265390880692853770e+00
-1.548229270212630126e+00,1.878190846006999148e+00,6.399928899064931676e-01
4.526219619904920943e-01,-5.377210292336081388e+00,-1.461375399256718000e+00
-3.821614142722479013e+00,-3.460242697577160076e+00,7.207686886199206278e+00
-4.216907958572813087e+00,4.115767026543179163e+00,6.635468471304005966e+00
7.406218638171250035e+00,8.604284999028489755e-01,3.951468865306505318e+00
1.044322799138361457e+00,-8.139275094362098173e+00,5.619809990726238880e+00
-2.695911382387738531e+00,1.685416803112551376e+00,8.458571133327335900e+00
-4.214991674237324126e+00,-7.112374865579224270e+00,3.827746983230496003e+00
-3.698925906800541785e+00,5.752674017537748874e+00,1.798938783268638320e+00
-3.485906976664916446e+00,-3.552555871532494081e+00,7.149263771069984230e+00
-4.202171095575640836e-01,-8.687672995150828470e+00,4.351339435625905416e+00
9.954858778206783221e-01,4.109512136770470114e+00,8.838350717480535579e+00
1.397522783991789641e+00,-8.253191860926811785e+00,5.556675000305618006e+00
4.059238518516659511e+00,4.768463634288825581e+00,6.928845401805157067e+00
-7.031784697644853033e+00,1.482953552310876333e+00,1.042450885203830335e+00
-1.636901015658568381e+00,-8.362868874647812589e+00,3.865175454317122838e+00
-1.074565544400103212e+00,2.089192909233702267e+00,6.934620959544531837e-01
-3.453967361337375586e+00,-5.227568035953984449e+00,6.679224091662315566e+00
5.957822498326889260e+00,4.178344195906668612e-01,-4.000006720409401417e-01
-1.529071782487464226e+00,-8.202754630088719523e+00,5.696669336302462305e+00
6.321664905643483046e+00,-5.136051979549322022e-01,7.089485319823141118e+00
3.401256877587860217e+00,-8.280163969748052466e+00,5.370515152265753045e+00
-6.810483269700547737e+00,-3.114603504970401726e+00,3.657437326004978839e+00
-1.075794054918180143e+00,-2.010106185284097347e+00,-4.439130384653925399e-01
-5.959404573154077234e+00,3.298227845829460492e+00,3.533420984615569527e+00
1.113124340537613888e+00,-4.966869271730579349e+00,-1.489230031682271527e+00
-2.090931584012251765e+00,-3.720426886910480846e+00,7.051425182450992146e+00
-1.473554394603916462e+00,6.916598686072801705e+00,2.725798965920394057e+00
5.045059907009332711e+00,4.696032740539366479e+00,7.296913383146143017e-01
5.436527202298147898e+00,-4.514252203630343629e+00,-1.631129406913902402e+00
3.780357918115992533e+00,-2.220362271184920910e+00,6.810773712033945770e+00
3.588466197505501221e+00,6.219108318404527047e+00,1.307412832105427247e+00
-9.185830794529250554e-01,5.216751557205573597e+00,8.956347549126236984e+00
-7.381233369105667741e+00,-8.305892180221424725e-02,2.929004511752553608e+00
-6.142381503544580568e+00,-4.588668856186562728e+00,1.918191185429936274e+00
-4.695892698540826693e+00,1.711628879870439768e+00,9.142964715578223434e-01
-5.475737606913607003e+00,2.478431783192229787e+00,7.751356490290372214e+00
3.307407460681638156e+00,-7.450871455071703231e+00,1.327461456339868118e+00
-2.924241188572297645e+00,-5.246532639006614929e+00,-1.138219738834498340e+00
-3.873985905131090757e+00,5.392949469860685241e+00,4.144762747961007854e+00
6.803534837781925582e+00,-5.175660117061484655e+00,4.417500652908230130e+00
-3.779190722587668638e+00,2.003237761305877829e+00,8.512515696118551745e+00
-3.662428227667755554e+00,-4.052286961353215311e+00,7.033217051341010162e+00
-1.565340119038029165e+00,-6.975889067927182552e+00,-1.613435283555068489e+00
-3.139029722168199310e+00,-5.680783985702162475e+00,-1.240386060257311351e+00
6.751950853503826622e+00,-4.222344036757209373e+00,2.086926738672780335e+00
5.243241332013112377e+00,3.945624980364000667e+00,8.017540456020162409e+00
6.019605009345729840e+00,-5.233792809953935254e+00,4.975079885665089630e-01
-4.636012087505142709e+00,-6.535814072320551560e+00,2.550149870856480927e+00
3.934316036093912228e+00,-3.541023674147236733e+00,6.385312796242333278e+00
-5.668810968657417959e+00,-5.393544635656315478e+00,2.517998167484968519e+00
-8.007810284045816518e-01,4.746053704817132513e+00,1.289336332816858999e+00
-2.342038085552698767e+00,-3.839729696220410826e-01,8.000628371747344758e+00
1.336102116516683980e+00,-8.640042177122099432e+00,3.760402295409250861e+00
-7.428255920057837969e+00,-4.322147085083444945e-02,7.383634071285488654e-01
-3.024510007140094547e+00,-2.241645464854416403e+00,7.486256890509818795e+00
3.917911035575113665e+00,-6.334939331620933700e+00,-8.902841001033119372e-01
9.128516035989057142e-01,-4.898659135532311026e+00,6.466946979816062147e+00
-7.217421685698040434e+00,-9.766730976604652836e-01,4.216930409668276702e+00
-2.296960829160561879e+00,-7.190455201792569362e+00,-3.220888760077595947e-01
3.390644400772704792e+00,-2.544148234071454517e+00,6.819770546198393291e+00
-2.226788113233467481e+00,-3.354065019739503661e+00,7.088742900955394610e+00
-5.154952049573964246e+00,4.610139024869277513e+00,3.158617472039680685e+00
-2.691856529048167079e+00,6.040607780568342910e+00,4.407990463066826514e+00
7.589036760593105058e+00,1.389134758658453039e+00,3.263577883791182632e+00
6.668257351209736505e+00,-4.619961796446134805e+00,1.791496547093785363e+00
-4.208306062511905310e+00,-1.362280254578400962e+00,2.279877615941733326e-01
3.286288028220456070e+00,-7.450709475176854113e+00,9.564826868273127447e-01
3.349073504421816505e+00,-7.743928390345471868e+00,2.490170934335464548e+00
-5.782661750300827741e+00,-1.669026008375295689e+00,7.844195015686979744e+00
2.577795813637862921e+00,1.856002900003068445e+00,8.064860859521923331e+00
-6.034373771218064952e+00,1.962505807253564605e+00,6.834141864026746838e+00
