-2.818678997007596720e+00,3.475172520070232363e+00,-1.838472175251885554e+00
-2.993648253516048463e+00,3.425887397064014905e+00,-1.576281257294224677e-02
3.569363201999004587e-01,-9.642602538418880709e-01,-8.286287513931670512e-01
-3.080027439786114929e+00,-2.612910566453235717e+00,-2.012636160060609303e+00
5.821562384632299469e-01,-3.046339863360294498e+00,-1.711514205242198550e+00
-3.502300380172644445e+00,-2.797109909056063604e+00,-1.189408617238781662e+00
-1.418755100713795736e+00,-3.432171058117202134e-01,-4.720975052629935220e+00
-8.892179931666468473e-01,4.530670364635598912e-01,1.648698121881125189e+00
-3.477904265580003873e+00,5.196088779173348993e-01,2.128647243645116038e+00
-4.625395351941858912e+00,-9.971632654804094553e-01,9.956423208282537685e-01
-1.411617799465866074e+00,8.966755561569644817e-01,2.588421378595867406e+00
3.585031440358610877e-01,-1.817734097384821057e+00,-1.013456507520467564e+00
-1.109082558533609708e+00,2.244879350464867418e+00,2.200110709782386209e+00
-4.622208277762744011e+00,5.581381195910281035e-01,1.159142081197430230e+00
-4.112446038522707070e+00,1.584324091080602237e+00,3.999173443101143866e-01
-2.978260229011079119e+00,3.628827075219922538e+00,-6.990443602358969999e-01
1.159359530234648661e+00,7.044002845095144183e-01,-2.024528964371925532e+00
-3.658292202098086143e+00,-8.890974625140326548e-01,-8.171532154711058649e-01
-2.543331132898059899e+00,-1.047076078953658396e+00,2.482833811219835596e+00
1.145128354407534355e+00,-6.809061758560526201e-01,-2.189781213551788230e+00
1.156908890959549963e+00,3.064059253306866681e-01,-2.220619222298020112e+00
-3.918901020219808462e+00,9.923680956577262124e-01,1.744482732914587775e+00
-2.986414784222195529e+00,3.504395581957687966e+00,-3.161930333590539099e-01
6.394377239820723258e-01,-2.445825187059326833e+00,-1.496204794635728197e+00
-1.895167653352391568e+00,-3.311492918044879996e+00,-1.720673647813664386e+00
-3.266457763010412130e+00,-2.148373527668930638e+00,-1.734393305397361695e+00
1.014995822026834471e+00,-1.906924079238679071e-01,-1.871885148868329463e+00
-2.239659079784333873e+00,-1.523897645907554166e+00,2.365345958805410209e+00
-2.241673627846750616e+00,1.772756985712073075e+00,-3.040779506446452896e+00
-2.685976705081860594e+00,1.815554861539671716e+00,2.012205628472185204e+00
-2.510927840409757028e+00,-2.122022492088305068e+00,-3.205129124275170494e+00
-8.300666677099585167e-01,-3.435948178618213777e+00,-1.111892577678296412e+00
-2.155975941433645460e-01,-9.939690704858062942e-01,2.216313252898151342e-01
-4.008311290972850216e+00,-4.830596277654128912e-01,-1.310790690599096253e-01
-1.968275105511161360e+00,1.085580392211653811e+00,-3.624182934578406012e+00
-7.209137761718661386e-01,7.933554253029516667e-01,-4.353687367906641015e+00
1.055003097579534810e+00,2.860804145232344720e+00,-1.611962586585343304e+00
9.394881938468582216e-01,-2.089105081000047548e+00,-2.725125342354805635e+00
-1.795667092419036770e+00,7.405498624128067364e-01,3.051801963663844930e+00
-2.124886851562392209e+00,2.225932836871817866e-01,2.828911817316158039e+00
-5.267037786102871655e-01,3.476864208920074528e+00,-1.123658778803768854e+00
-4.148166413185984780e+00,-1.288727931031403928e+00,1.054105226939205248e-01
-2.233625906660739791e+00,-3.284461184058671268e+00,-1.707597836895271337e+00
-2.810139375175511489e+00,-9.603835578092274616e-01,-2.335564072660713641e+00
-1.244220378492846057e+00,3.503941745568210031e+00,-1.859617842672403931e+00
4.019568196241734004e-01,4.539602534153140967e-01,-6.371679133451972898e-01
-2.366420668831462404e+00,-2.149593502967163339e+00,1.967122396241719473e+00
7.549312199609862217e-01,-1.123801591064895966e+00,-1.436311621306721298e+00
-2.317642719586342714e+00,2.633902227895174253e+00,-2.895932570770952896e+00
-3.498312439823315856e+00,3.185250774255965922e+00,2.368922876087324603e-01
-1.879715843966966116e+00,-1.043704546005637335e+00,-4.045569967562281377e+00
-3.653369956488054182e+00,-2.649901562181611769e+00,4.093860439508776317e-01
7.126786337835705476e-01,-1.488059029020303070e+00,-1.506662499181192549e+00
-1.135095288112712986e+00,8.040845072439809504e-01,-4.541294212458903523e+00
-1.629434340359944722e+00,-3.435555463283349820e+00,-3.244126479369964788e-01
5.628588091071201616e-01,1.811168131112617541e+00,-8.932873886932439778e-01
-3.302394684592034224e+00,6.811658145017817079e-01,-1.188423326218684517e+00
-3.006959080500135162e+00,3.572420027170614798e+00,-4.577656411865073660e-01
3.458293800534907314e-01,-2.444097052158171302e+00,-9.686213139699093588e-01
-2.746749085475291174e+00,3.098443517128101732e+00,-2.088245334815455045e+00
-1.530135442945784519e+00,1.678853626898338725e+00,-4.414650387529118092e+00
-1.576240908089943105e+00,-3.396935109858207902e+00,1.389524419766786367e-01
9.608747757191457572e-02,-3.107349220019909541e+00,-1.733032386926341761e+00
-3.681677932556700839e+00,-1.730754160182851331e+00,1.487770738943972049e+00
-1.416185804362311895e+00,2.732063763365694342e+00,-3.536641994567613967e+00
-2.890687983470440869e+00,-9.501971732682386040e-01,2.220409189220358570e+00
-1.741820970957507875e+00,-9.606053752148744351e-01,-4.381708111587005128e+00
-2.978513150204157967e+00,-2.667392591247825795e+00,9.711075138408803431e-01
-6.041759644183392064e-01,-3.453463493026051268e+00,5.050696641577906432e-01
-4.358366344085420785e+00,7.084726856020054919e-01,1.594651404020993146e+00
-1.123124150659942977e+00,-3.896674446368322137e-02,2.058151086064614610e+00
-3.369996346189147118e+00,3.394867247523726927e+00,-1.139426129932453319e-01
-4.611564146484848692e+00,8.587279451198674973e-01,1.264785859616903707e+00
-1.757033833267304335e+00,-2.917789794275217563e+00,1.217970576092413548e+00
5.312736155488522183e-01,4.365464555848781458e-01,-3.659725274242764836e+00
-4.210999715485672645e+00,-2.658528669403824818e+00,2.238243369041360495e-02
-1.116740131408640258e+00,-1.146742529019690648e+00,-4.294038511152879600e+00
-3.257359387622926317e+00,2.994129284940478364e+00,6.165197350019953060e-01
-2.592863203235057590e+00,-9.128320224762611623e-01,-2.783619727235148389e+00
-4.657250784311914416e+00,-1.687568396989935215e-01,1.434038583487850627e+00
-3.372310514345605803e+00,4.730448297220016252e-01,2.221643771650321675e+00
-5.678846252810946238e-01,-2.910301137947619576e+00,-2.275497140418080377e+00
-2.601595332000555594e+00,-2.461431874003858322e+00,-2.966139882826743346e+00
5.243431034024390591e-01,-9.911203668646478837e-02,-3.801138892460854457e+00
-1.643072475350827455e-01,3.529632491352420853e+00,-2.891366964374621484e-01
-2.871129630181593839e+00,3.710088653781169921e+00,-1.418942330904857219e+00
-3.449781104279657118e+00,2.665296635196102493e+00,-7.027177370223243180e-01
-3.468065783693158877e-01,3.154387465215126252e+00,9.905950447633896649e-01
-1.030380681902909767e+00,-1.242952127099109294e+00,1.744205828261704561e+00
1.450832783666679449e+00,-3.177464103578555576e-01,-2.656684355423790667e+00
5.223261236020086962e-01,2.188595339620833080e+00,-7.938959427490193121e-01
1.348450964099756344e-01,3.484880636482212246e+00,-9.048547516262532842e-01
-4.054602450756178200e+00,-1.553093319280293372e+00,-2.191402911928894415e-01
-2.027294450739481224e+00,-7.679136118122100729e-01,-3.771025483865633188e+00
-1.952039126904623556e+00,-3.368956175525801733e+00,-1.257964091347435032e+00
1.054053543267213566e+00,2.395048291310510891e+00,-1.658029428747874068e+00
-1.793559319455053203e+00,-2.352322428663096154e+00,2.045619850844446752e+00
-4.536614837373079467e+00,-1.047093112340467425e+00,6.635144406695133723e-01
-3.716779824134861077e+00,3.116538572190230560e+00,-2.876809122572555055e-01
-1.401541620535141364e-01,1.862199420622809409e+00,4.810226063443194811e-01
-3.653766960088886240e+00,2.999790317750663071e+00,-4.155777654811193544e-01
-7.299795676157310176e-01,-2.244024530528728523e+00,1.064472372167625469e+00
-4.695839760629665904e-01,2.056300360017067064e+00,1.096147924258755291e+00
1.164644214556275648e+00,-1.892821734160943237e+00,-2.736276535067467819e+00
-2.268910644946981192e-01,-2.450524873702418560e+00,1.298681228828774958e-01
-3.561686078307742864e+00,-7.878519013730762854e-02,2.090259141488147510e+00
-4.490786760661324983e+00,-6.903213344832339615e-01,1.506866198839024618e+00
-4.140915047637924729e-01,-3.393362580943917184e+00,3.748106583754181043e-01
-2.728812818101570503e+00,3.003547867840420604e+00,-2.006843878162326344e+00
1.225358523900741181e+00,2.611433701972819765e+00,-2.000350883155434634e+00
-4.487873362778137754e+00,-8.154210746812866617e-01,1.353184227527554295e+00
9.756410570449696174e-01,2.878830552471926540e-01,-1.780435704263694685e+00
-1.519884535396662795e+00,-2.820044015108272184e+00,-3.074549221092001794e+00
-1.924737587708947206e+00,3.216471809420193395e+00,7.576182561615708577e-01
-1.920256351569271880e+00,8.784409032276372375e-01,-3.769572752662058157e+00
1.068033324001146589e+00,1.303359064690935432e+00,-1.815299073492985249e+00
-4.598558820645147982e+00,3.181843213198322640e-01,1.034695873883189954e+00
-2.539105724013235310e-01,2.094726686643999081e+00,8.347559940112162513e-01
-2.357044045683614364e+00,1.069085522467754013e+00,-3.081665839016474173e+00
3.618301128960530466e-01,4.416602001982964931e-01,-3.820906364132014232e+00
-2.866529251252428079e+00,-2.033531545478412195e+00,-2.388570241453599863e+00
5.738048161276766701e-02,2.248573041221565205e+00,1.040595934127037381e-01
-3.102764318566216262e-01,3.322561568243622254e+00,-1.734451820199292005e+00
-4.330147028175270196e-01,-3.230568306530021250e+00,-1.815941152495860855e+00
-1.709054393358501400e+00,-1.204104490878651790e+00,2.795987885934110739e+00
-2.241008149904093194e-02,1.330388118565919875e+00,3.149081535251525010e-01
-3.214817625600772111e+00,2.708809800326712924e+00,1.005457633113358007e+00
-3.819230812481813064e-01,-2.090316548851577583e+00,-3.380280889014581458e+00
-3.073710905307154739e+00,3.798240850254667844e+00,-1.064360909857918536e+00
3.997253380741309647e-01,7.997477536405801501e-01,-3.729521052763685063e+00
-1.920346162997227601e+00,-3.396130717840058821e+00,-4.063292034008404996e-01
3.361200343266647073e-01,-5.218771265114704461e-01,-3.712672635630458018e+00
7.720089643322212147e-01,4.797892831787249346e-01,-1.341514070295027672e+00
-2.395804565837000411e+00,3.671223421288062561e+00,-1.402356753610123796e+00
1.614594686379337229e+00,-4.345707205907385906e-01,-3.042831998099893021e+00
1.059619003952782634e+00,1.943624858917303744e+00,-2.834751295355483425e+00
-8.084191869763177607e-01,2.467552462759257992e+00,-3.470243809232853582e+00
-1.140072496249185718e+00,2.250905104907148679e+00,-3.880001413553724632e+00
-3.428720974123744103e+00,1.436909016205593304e+00,-1.070184385686380635e+00
-4.667650453489199158e+00,-9.978489027439513270e-01,1.295005855149616414e+00
-1.060860350528347373e+00,3.036189099824741430e-02,-4.584881663850904232e+00
8.676975657268337638e-01,3.493715286302454537e-01,-3.509517531928408651e+00
1.343324480390312825e+00,1.910912699587181685e+00,-2.198982978400330079e+00
-4.259193189355606535e+00,-2.151995708926216777e-01,1.681096260303141188e+00
9.074959994098420468e-01,1.854542823820612529e+00,-1.456852338513016987e+00
1.444151594617555830e-02,8.086667089599118841e-01,-3.888764969387883408e+00
-1.501222375511370166e-01,-1.020394884334909991e+00,-3.896973017153481322e+00
1.405615378461317455e+00,1.443990891335547699e+00,-2.463139429249110002e+00
-1.329438592921620588e+00,-1.479543258675843687e+00,-4.311137647206817469e+00
1.083238691536661247e-01,3.244455118016057238e+00,-1.594018717378596239e+00
-2.981098525749268813e+00,1.933050500869189170e+00,-1.775825253235157053e+00
-4.795745347829137861e-01,3.419506252211376829e+00,6.907404546580985238e-01
-3.500805784729839054e+00,3.573484170424092721e-01,-9.409616440194482623e-01
-3.932609941528161013e+00,1.439794641174117484e-01,-2.020850507276030494e-01
-2.500984510084689472e+00,-1.662927370668791371e-01,-2.856657725343449972e+00
-9.237601642932270485e-01,-3.200870705116635850e+00,-2.110877769210930843e+00
-8.948471542743341445e-01,-3.085827979938376320e+00,-2.280407381642727493e+00
2.064416591420588087e-01,3.274177898113423968e+00,-1.344055924378665612e+00
-2.719064062591802333e+00,3.660770041201997671e+00,-1.980471034375291595e+00
6.923248303588385166e-01,5.389613810178178754e-02,-1.236312374609146669e+00
-9.705898932141849844e-01,-3.255056001099777774e+00,9.116045478421943571e-01
4.061421034758924131e-01,2.515259742294546630e+00,-3.290830604559981110e-01
-2.743830784558026981e+00,2.620651150663051432e+00,-1.989613884180700509e+00
-1.315013736095167030e+00,1.028446908596026388e+00,2.403424490625690524e+00
4.574676650841064673e-01,2.336395214563650402e+00,-6.073475417573632740e-01
-1.449007772833941443e+00,1.403020066362460794e+00,-4.546200513178735747e+00
1.661005017422098717e+00,-3.512988103503701387e-01,-3.059647499933975112e+00
1.490743042085058978e-01,3.174351120251617253e+00,1.220931715315949628e-01
-2.909525475280896334e+00,-3.191374123884378022e+00,-2.471762057548394953e+00
-2.900340383126794652e+00,3.520845265928210122e+00,-3.365969550868047611e-01
-1.750947958802545834e+00,2.904180659064553804e+00,1.478890152337532404e+00
3.824084594022386097e-01,-2.635122550401443497e+00,-1.039775082788911398e+00
-3.296948339970577013e+00,-2.333015322965844796e+00,-1.633417335212956401e+00
1.129045128485632432e+00,-1.307005887578616576e+00,-3.106584030341068559e+00
1.567368725963431464e+00,9.658834248217792462e-01,-2.723731766198792315e+00
-5.045616427930335046e-01,1.584126675027153208e+00,1.059937805918974796e+00
-2.503082776864555381e+00,3.374765358216129219e+00,-2.365556366238098285e+00
1.031389652930470691e+00,-6.047291939108669911e-01,-3.413115219912594700e+00
-3.494436468028937703e+00,2.451021930445998365e+00,-7.072910470289643925e-01
3.509750981378867429e-02,3.125076090920472449e+00,-1.925166203741603077e+00
-1.281044811732591437e+00,3.268446412422861602e+00,-2.404930426483534056e+00
-6.608129575940073774e-01,3.225899380014890516e-01,1.276853037776256583e+00
-2.096309832947542695e+00,3.459620324012477433e+00,-2.672377771773922994e+00
2.450180933282437856e-01,1.814860206899648887e+00,-2.037757999446543900e-01
7.960705998030369324e-02,6.406265276105874706e-01,-9.917656611883644835e-02
-2.152394271507621415e+00,9.489820419591965539e-01,-3.349387781371092832e+00
-1.389591523461610079e+00,2.982792182078161658e-01,2.507316944542090198e+00
6.180375539555441611e-01,-2.258814847762536715e+00,-1.453752907594932031e+00
2.950447047648136478e-01,1.721740797807396195e-01,-5.413392382955846127e-01
-3.583657435217682430e+00,-2.159797350607226107e+00,1.150331666065152580e+00
-1.906064479069848661e+00,1.052772570121931262e+00,-3.767361611296475399e+00
-8.471470673740010282e-01,-3.217750138365410795e+00,-1.946029907603694431e+00
-7.956390053464492684e-01,-3.050912751820366697e+00,-2.260412845559018891e+00
9.499222496601346100e-01,-2.202082577518905904e+00,-2.081561670791392427e+00
1.239084508568375043e+00,2.327432900571865027e+00,-2.070426927988358923e+00
-3.378455468987855426e+00,-5.858072616831948576e-01,-1.223147220485944597e+00
-5.079801765431254390e-01,-2.700519784679239699e+00,-2.744500071928759777e+00
5.644153982225126320e-01,-2.085613108413303163e+00,-1.292014385004495169e+00
6.861715273294610729e-01,1.111293965584083387e-01,-1.240018548270044985e+00
2.915724903758195596e-01,1.066969244397492078e+00,-2.945888940496810271e-01
-1.699854161064505709e-01,-2.322030258594248497e+00,-1.384999028492852995e-02
-1.070514753094051086e+00,-2.076137545915783811e+00,-3.716835858697709050e+00
-3.132353497416994870e+00,2.264084718522788808e+00,1.536316371957361371e+00
-6.927063433266557047e-01,-6.526247521231277604e-01,-4.205399164863813155e+00
-2.526937634983721370e+00,-2.821568389021657186e+00,-3.084613559805629013e+00
-1.258522943023502094e+00,-3.434340161349996201e+00,-1.368029991819254887e+00
-1.986597540778797688e+00,3.653422125453345437e+00,-1.135511020358002554e+00
-4.349587139153141990e+00,-1.959234634403733466e+00,8.655135960431276088e-01
-3.506603851664151339e+00,1.834592673611761704e+00,-7.259168268632103516e-01
-1.544266844359624802e+00,3.139967199017556609e+00,-3.036872201970838070e+00
-2.708751695433008422e+00,-3.068794468665785757e+00,1.481016242439990305e-01
-3.506787211192257114e+00,-1.290700459139265677e-01,2.107123654304291271e+00
-4.371898781096617448e+00,9.067940362822048961e-01,8.432869728774391449e-01
-4.349485779202091784e+00,-1.646391795755884679e+00,3.729463101280522386e-01
-8.660902510191127446e-01,-3.372084003266510699e+00,7.790358445910193774e-01
-3.760592762387682697e+00,-2.167739959533389715e+00,9.990072443857386242e-01
-1.232340619566625550e+00,3.710651873719260863e+00,-5.315486107638764945e-01
-4.054668579521299776e+00,2.616276994841472803e+00,6.891954812541258857e-01
-1.134523585793989486e+00,-1.015948175253324814e+00,-4.381641116737138297e+00
-4.459649432698787885e-01,3.580151233799951704e+00,1.538414006940451162e-01
-6.176182588975308585e-01,-1.504483140293607635e+00,-3.893088537236033986e+00
-4.089787888358793921e+00,-1.313211901049019081e+00,-9.482500237382651687e-02
-7.660590277920631408e-01,8.858968657601544727e-01,1.634465918962759723e+00
-1.593447635471261004e+00,2.923268217478787179e+00,-3.421598644801351785e+00
-3.798626015257426936e+00,-8.841575156380647449e-02,-4.447020112293474381e-01
-4.435485315920119298e+00,-9.662169480761203522e-01,5.518431691627120328e-01
1.705050048883954283e-01,3.280896414869203692e+00,-1.444230420861041919e+00
-2.627593208616628706e-01,-1.812478463957577501e+00,1.255723650501070210e-01
-2.237815640243595361e+00,-2.967869192110642818e+00,-2.999729685935251577e+00
-2.470335364748718732e+00,3.335278401996802256e+00,-2.710851203163369139e+00
-1.325081178525167713e+00,-3.135570361481856416e+00,-2.131904977040621763e+00
-4.201597447542449792e+00,1.925873468281454226e+00,1.217717723244935213e+00
-2.281528963584821490e+00,-2.174349499384690798e+00,-3.418866701335952829e+00
7.429916646282810344e-01,5.550195672461012419e-01,-1.258670953805633319e+00
-4.065444705496325639e+00,-8.484257667544352621e-01,-9.238153492588950522e-02
8.862784605042252073e-01,2.303071688283861107e+00,-2.597799199803764392e+00
-1.719350709551485057e+00,2.643123734718954232e+00,-3.847653404189787185e+00
-2.905496382347893203e+00,-3.285850886045114994e+00,-2.000174368054890905e+00
-2.721723744227071862e+00,-1.409321334930483394e+00,-2.637264784964898912e+00
-9.783461166304665557e-01,-3.509998412286011948e+00,-2.697485322058411628e-01
-1.477679976845116316e+00,1.564102453536504456e+00,-4.542891401031996068e+00
-2.340445867872397834e+00,1.406187703776286879e+00,-2.996306595642006076e+00
-2.554330643180472205e+00,-2.743115006790780797e+00,-2.995355302081228910e+00
1.074151455687628376e+00,2.585542622181244976e+00,-2.130426358628728423e+00
-1.518401736839162908e+00,-2.835642806894306922e+00,1.485792080038190965e+00
-2.410961960634739665e+00,-1.231118914009452725e+00,-3.152285563544369840e+00
-2.303064784831887923e+00,-1.589977723740274129e+00,-3.350311415251173930e+00
-4.234042060007224828e-01,1.421326093729752049e+00,1.063516302351483311e+00
-1.216155058587716997e+00,3.042913511366204027e+00,-2.930944641522527316e+00
-3.352388544416807115e+00,2.569158269432484154e+00,-9.912136996282928658e-01
3.402541397955905489e-01,1.486517182687640881e+00,-3.915847006572328315e-01
-4.316297411756580410e-02,-2.722390042756306805e+00,-2.484638724679401278e+00
1.634534088044157008e+00,5.535619978805033092e-01,-2.833633603760101316e+00
-2.948801690754438987e+00,-1.887118656692817753e+00,-2.332430403142432773e+00
-2.603253439168772054e+00,5.277476008943523533e-01,-2.659484253544968979e+00
-3.067257412263807659e+00,-1.016156413595856733e+00,-1.932487409403895073e+00
-3.160132314966042522e+00,3.366018344152712505e+00,-1.271525991564681268e+00
7.661191554678844495e-01,3.150792500300632959e+00,-1.410963162565389117e+00
1.008451047333821515e+00,-2.797305501081027712e-01,-1.893108729380382327e+00
-2.320723933826861707e+00,2.743887433116792174e+00,1.401856521331369176e+00
-9.314963963998301733e-01,4.654860521377071625e-01,1.804469450726762458e+00
5.276501489173792692e-01,-1.265663529716039681e+00,-1.002706924930680144e+00
-6.669988075663145777e-01,-3.075810994205425697e+00,-1.957608095034712115e+00
-7.034020603598903909e-01,1.258557547097023610e+00,-4.164453652692836627e+00
2.997135758333635547e-01,-3.060117053452350078e+00,-9.081710939546553396e-01
-5.551414098680537146e-01,-1.889864884562584946e+00,7.625726582477631021e-01
-2.073282221328499375e+00,2.322453918237683990e+00,1.979621749405616082e+00
-1.490743007764789629e+00,-4.636292733695728252e-01,-4.728072698091824400e+00
-2.366702515825923836e+00,-1.336704799233939367e+00,2.391466747391966408e+00
-1.440127942343844447e+00,1.975476729172577439e+00,2.493856427776697693e+00
-9.666774008321409317e-01,3.513614163695972792e+00,8.446836834587619081e-02
-3.510672286376696760e-02,-1.585557331523313795e+00,-1.371953176165585653e-01
-2.634754788779221535e+00,-3.227796451664286970e+00,-2.686982448054334061e+00
-5.234751167416575868e-01,1.128890683140730156e+00,1.162126585390895750e+00
-3.006364454716612400e+00,-4.135069583497986700e-01,2.341407384985460194e+00
-4.090829200536412635e+00,-2.089294296556019503e+00,-1.658807370960142802e-01
-1.656357034219535285e+00,1.755029319541087096e+00,-4.204258385175662305e+00
-9.730819904302446810e-01,3.344202845707382465e-01,1.726987892679549663e+00
-1.710201613631101292e-01,-3.435930012587572691e+00,-8.750160517402312266e-01
-6.318753302054790355e-01,-3.247422278300879483e+00,8.184662934946498325e-01
-3.894537124373649739e+00,-2.865745254060124036e+00,-5.419075243616117143e-01
-1.504114127103725274e+00,-3.459320348608361240e+00,-6.640168208987590193e-01
-2.896784360039515782e+00,-3.222172249251733372e-02,-2.107309337123583148e+00
-9.401396655187082008e-01,-2.669792964217973630e+00,1.455559292106459068e+00
2.708492042125073551e-01,-3.290708833772442721e-01,-3.856309893084881146e+00
-2.534804888005986356e+00,3.083652537518761338e+00,7.573023330629884420e-01
-3.127379752599305007e+00,2.852715600083834513e+00,8.502066755157836608e-01
-2.934003428820748383e+00,9.076787886614458289e-02,-1.998861044594430592e+00
-2.157657162366581893e+00,-3.009204822391358114e+00,7.423083265847059131e-01
-1.626997791770923518e+00,3.580562882666306734e+00,-5.532798165965037152e-01
4.775279191747414109e-01,-2.002144589460476354e+00,-1.135925254896986702e+00
-4.352661859756046248e+00,-5.024106405144226351e-01,5.261759014876391527e-01
-2.145833645249996202e+00,-2.705052099173447799e-01,-3.464879954832998266e+00
1.414765600044962657e+00,-3.281793748278368783e-01,-2.621799444191347472e+00
-1.762662474774585819e+00,-3.404779571931787263e+00,-1.470921828223571148e-01
-3.657658026472866197e+00,2.144174653442414424e+00,1.398825246140165346e+00
-1.375733890994701225e+00,3.590166240772363349e+00,-4.389875733017423731e-01
-3.401582574069661469e+00,3.354633768668367821e+00,-8.708785273356675072e-01
-1.030844307127151582e+00,2.940831045216939277e+00,-3.008871840734252512e+00
-3.049997832203379833e+00,-9.875084109439923041e-02,-1.773844989606482070e+00
-5.298564995412614609e-01,2.000230194045794274e+00,-3.768574699070113443e+00
-1.871738695225294791e+00,-3.441227259779008119e+00,-1.062001396110680673e+00
-1.494436605647438299e+00,-4.883756884662531217e-01,-4.718572022707299141e+00
-1.545666767405696085e+00,2.604889948788417176e+00,-3.755027951510149453e+00
-3.623055097336099539e+00,2.995494103784532403e+00,4.406335128830930481e-01
3.029927777485027507e-01,-9.072906007236881676e-01,-6.518184203035513047e-01
-4.104802779970794013e+00,-1.608267909500433079e+00,-1.075722328696366026e-01
-7.068668299496592144e-01,-2.756283230956936059e+00,-2.663988593671001492e+00
-2.822134679664656254e+00,-3.684577620186057501e-01,-2.143408477232055631e+00
-5.648239929534459858e-01,2.874349645929206165e+00,1.251649078597609765e+00
-1.833252242150092970e+00,1.147954918124363566e+00,-3.878440784356787407e+00
-1.525141713122222520e-01,3.520515363550448029e+00,-7.829025770623264657e-01
5.561032034647590550e-01,-7.540681977532154301e-01,-1.185569370584162341e+00
7.986213982116463495e-01,-2.007430597909630077e+00,-2.831922570450420285e+00
-2.044787389749434414e+00,-3.419422045257523912e+00,-9.182517973985406812e-01
-1.175309781121629760e+00,-3.415646997613043467e+00,-5.954331228228256639e-02
-2.903688796307341669e+00,1.842023717985410869e+00,1.825893784680064691e+00
-4.103455059528722693e+00,-1.039654922359285333e-01,1.747923966510395832e+00
7.724280985531956079e-02,-2.628119009486692192e+00,-2.515192355712703609e+00
-3.580782057809703267e-01,3.548468163252204377e+00,-4.163477716810402018e-01
5.306595729707141995e-01,2.588656797772099782e+00,-2.582563175202453820e+00
-3.917715506197773312e+00,4.344685261877248017e-01,1.856871846804342141e+00
-2.468434536725469641e+00,-3.348209848024834567e+00,-1.211697268310071518e+00
-3.853775228003064157e+00,2.975912509406238637e+00,1.131506588531326490e-01
-1.049676216184539657e-01,-9.245210465458137961e-01,5.605666200607091303e-03
-1.911397860077141964e+00,2.320677752338622390e+00,2.137660170351832978e+00
-1.498171030219467958e+00,3.580321743921736743e+00,-2.236270894820814314e-01
8.754557645502980545e-01,3.026564688292385785e+00,-1.581736199910618312e+00
-3.512207478244801617e+00,-2.412633748059086258e+00,-1.411687920799942653e+00
-2.943404064047194346e+00,-2.443666364515361344e+00,-2.375621733670125746e+00
7.950213273970709871e-01,1.279592346341264619e+00,-1.258164886569162366e+00
3.587795698552278534e-01,3.460013387921679229e+00,-9.714948759130392908e-01
-4.254192253424593062e+00,-5.018039555611150115e-01,3.511048621115065438e-01
-2.358866373383234072e-01,5.464207654548868670e-02,5.422162593423331955e-01
-3.891831484205571012e+00,2.202806119120197526e+00,5.135096954934134650e-02
-2.305267651880568369e+00,-3.124938570485941813e+00,-2.745176187128477441e+00
-8.488991161289942688e-01,1.188226099748580289e+00,-4.341579794960680694e+00
1.282141934417677209e+00,-1.303213413820379918e+00,-2.597657266205670723e+00
-2.201666425709925434e+00,7.563098487233443912e-01,-3.429348127165226856e+00
-2.704529680070916875e+00,1.116551493003355100e+00,2.366809287638734549e+00
-1.990915506053975159e+00,-3.055997537823601728e+00,8.441670086911614579e-01
-3.114661963229736319e+00,-3.185211427964599107e+00,-2.486440128750146139e-01
-2.290492223226034074e+00,2.277757853894294637e+00,1.844516351831315015e+00
-1.081127527099525976e+00,2.176239625746902995e+00,2.260017772200259678e+00
-2.508379238708212888e+00,2.348423725321061806e+00,1.690553649065730912e+00
1.752406956340716859e-01,-3.221477400777205791e+00,-1.623480437038552493e+00
8.952551030686514144e-01,-2.251414400569275998e+00,-2.619375974089849457e+00
-1.709995201835750489e+00,-9.477108833844241631e-03,3.091267001742275866e+00
-2.158316486155348102e+00,-2.480158356589764246e+00,1.635794624273394948e+00
-3.888004312930025907e+00,-1.862054642935822235e+00,1.286428266643336649e+00
-3.041140176049679233e-01,-3.235556619647728116e+00,2.988895968268988068e-01
-2.407863493346929395e+00,-2.475789366161348148e+00,1.400141317255778395e+00
1.431151677185676041e+00,1.227950337678579862e+00,-2.938352282844013175e+00
-3.031247670437940744e+00,-1.292516549062601383e+00,2.030783404711688611e+00
6.827201149372499334e-01,8.633426667120024378e-01,-3.519903926579875719e+00
1.168461157561574204e+00,6.846208988050274391e-02,-3.414569284908114177e+00
5.208348249089096438e-01,-3.203321603950262553e+00,-1.584808310880690074e+00
-4.084993690456839022e-01,-1.454912763859132374e+00,-3.758670155563788029e+00
4.248061473474369354e-01,-3.137761618787579643e+00,-1.519252595374652515e+00
-3.051870088093123101e+00,1.177519170557656425e+00,-1.679540472726891220e+00
-4.006798418054058786e+00,-2.664509678896162193e+00,-3.013806334451987756e-01
-6.230897249614046896e-01,-2.928757559219661744e+00,-2.479612341729640956e+00
-1.843076710489292669e+00,2.297023292192009514e+00,-3.832600766332816988e+00
-1.088263707578998929e+00,2.547749651093411116e-01,2.142806799820732522e+00
-7.316898114317921253e-01,3.203343445450475446e+00,-2.312368176411981224e+00
-2.357194714761429832e+00,3.458865363994666708e+00,-2.736345641315121036e+00
-5.990174744505497584e-01,-3.501941936462424465e+00,8.113041478534675777e-02
-2.527035912660111183e+00,-1.089694047175071567e+00,-2.894460325703459347e+00
-1.621283532609878231e+00,2.983895740498465621e+00,-3.272728783712735456e+00
-4.093208811234881672e+00,-2.094048281260058708e+00,-2.223668626147941307e-01
1.797558867482158818e-01,1.508573294243879204e+00,-9.352339038040169417e-02
-2.319633177569475624e+00,-3.364185869925275352e+00,-8.261225266159342162e-01
-3.236356659985206274e+00,-2.960612008333654011e+00,-1.853806325897077834e+00
3.956761535450878942e-01,-8.129387107727730211e-01,-8.711082188156168415e-01
-1.440007702562202674e+00,3.177516201719089439e-01,2.668850182188051257e+00
2.846658374154983351e-01,-4.574040681079097892e-01,-6.013178076443116415e-01
-1.012003121166584974e+00,-6.834558203240093111e-01,-4.401488463121262740e+00
-3.195325471723991395e+00,3.502045126193148672e+00,-1.092748943490910118e+00
-9.665262787142675505e-01,2.147844562920979250e+00,2.056452491100804636e+00
-3.966762025958488813e+00,-8.667832196451649152e-01,-2.819255818891375776e-01
-3.223090307825725809e+00,-3.111882152766492382e+00,-1.846101534816034784e+00
-2.778295959435407525e+00,-6.076132428683556075e-01,-2.315893394275101880e+00
-2.912631508688669157e+00,1.373115762863545752e+00,2.162008411750206971e+00
1.916281899107397657e-01,-2.617355937297431545e+00,-2.627024625229399835e+00
1.002831006869585817e+00,2.633099468371520313e+00,-2.095468359180295614e+00
7.449617319279331351e-01,-2.351039933193469711e+00,-2.530208439062885173e+00
-4.315504880135601518e+00,1.632627265994069043e+00,7.749104685887656663e-01
-2.374490304899330884e+00,1.652711370662553136e+00,-2.794378888741647415e+00
-9.671152693402421674e-01,3.493092439050463405e+00,4.366805260143634126e-01
3.983506498793871753e-01,-2.373629485250287052e-01,-6.605354645610667097e-01
-3.018040758413280678e+00,5.459113152630042931e-01,-1.759012452407921367e+00
-4.599377011483735345e+00,-5.680170521909215786e-01,9.996428098339954493e-01
-3.003359787284202387e+00,-1.770628874117076812e+00,-2.114920967881905867e+00
-3.239608663201067884e+00,-1.904239579622333478e+00,-1.816165688129373956e+00
-3.932733279397112813e+00,-1.243904166244926168e+00,1.562361316779173226e+00
-4.164758606966385557e+00,-2.353512988947374929e+00,5.839311773451648646e-01
4.013044500962425348e-02,-2.452517022407839864e+00,-4.750574050769323931e-01
-2.771557271969088410e-01,3.505996322608261551e+00,4.011617126466912042e-01
-2.451660155038243971e+00,1.812005030607750866e+00,2.204800853163543017e+00
-2.426902167300450497e+00,-3.411655749383139202e+00,-1.277947217297439764e+00
-7.443890986535062204e-01,-2.535836199329043694e+00,1.083659656986008191e+00
-3.474269189147208170e+00,-3.097561996112951022e+00,-3.136774064884874091e-01
-5.676475967634991848e-01,-2.376727326774213278e+00,7.501497442837372631e-01
-3.893022809925992256e+00,2.770475205925334805e+00,5.212041874599866453e-01
1.361368279614936450e+00,-5.378650807603295725e-01,-3.252989708334465657e+00
-2.762755109775562268e+00,-3.893223722794452724e-01,2.427749819644653417e+00
-4.538250045965004920e-01,-3.408579646370570870e+00,-1.182458367863453041e+00
-4.082304466457232550e+00,-3.760911701628062431e-01,1.337860035874355036e-01
-2.496128981914642608e+00,5.170741945811984097e-01,-2.827952598964865505e+00
-3.207626195304407180e+00,3.512232985250638428e+00,-9.554432827109549109e-01
-3.750847670700875547e+00,2.207301943469336170e+00,-1.285665986449897602e-01
-2.859405916788366753e+00,-2.199416235425053490e+00,1.546781637228409778e+00
-2.105513120763826684e+00,-3.414802748638695817e+00,-7.284919351556573552e-01
-2.732231073461338089e-01,2.623163005697239925e+00,9.014808496447053177e-01
-5.924303785796641852e-01,2.056267986117044977e+00,1.335434311250022432e+00
-1.623087562883212875e+00,-7.981238508722940939e-01,2.764108680896927517e+00
-3.700137212482786264e+00,-1.662865309894867583e-01,-6.072444004021108066e-01
-1.126768936548967703e+00,-1.346025009187486743e-01,1.880910551161924849e+00
8.281715547156559554e-01,-1.299389078203550207e+00,-1.725753409100320823e+00
-5.168403094580760193e-01,-1.931120257558603948e+00,7.012379688964370805e-01
-5.475448525776396291e-01,1.360555827173296484e+00,1.320554723041611922e+00
1.090358552070449960e+00,2.222536209748517955e+00,-2.643821752717311124e+00
-6.371716859403713240e-01,-5.507331214410768894e-01,9.959118447726366119e-01
-1.275459733264661111e+00,-2.505826026221332103e+00,2.057373858591743154e+00
1.564610157647592370e+00,1.304076922852164921e+00,-2.992014760223669523e+00
-1.294918412318408096e+00,-3.387181544308905501e+00,-4.746936531920630253e-01
-2.607829883339473298e+00,-4.074496627908948398e-01,-2.666702568429894171e+00
-2.139717737501396488e+00,3.546228365947144301e+00,-1.680938454872147603e-01
-1.164657567474108590e-01,1.130641378590079738e+00,3.546919385060747776e-01
9.047107006400754159e-01,-1.645671077915358493e+00,-1.862451301185894526e+00
-2.172985224980502394e+00,1.583198846416675520e+00,-3.216816463406311666e+00
-2.358510197284798160e+00,3.469699967558299569e+00,-1.571927715971093986e-01
-3.120309553698462857e+00,-2.159686435296755302e+00,1.239697805734314429e+00
-2.070972852662914310e+00,-1.623993336796448750e+00,-3.900528351182886322e+00
-3.261505432821841577e+00,2.534428711887683150e+00,-1.102488423992803890e+00
-4.011582884801050408e-01,4.305346222146794188e-01,-4.269845163108393571e+00
-4.788429887268513263e-01,3.037709072956543466e+00,1.317799146290483892e+00
-2.203330481832909804e+00,1.423468679112611657e+00,-3.178592672100197802e+00
-1.218884326925512074e+00,-1.349718029808885333e+00,-4.226451259245336267e+00
-4.264702027740139734e+00,1.729557951659071779e+00,5.537546729189172234e-01
-2.101062113965274758e+00,-1.796265736830233273e+00,-3.866837189063449642e+00
-4.048660158000623177e+00,4.530295220743022488e-01,1.710467233292287226e+00
7.437488026664029750e-01,3.214972590402443320e+00,-9.556258607684482431e-01
-8.075577865788908793e-01,-8.628192378819529162e-01,-4.266180215767755968e+00
-2.405679916423065223e-01,1.004113713893423521e+00,5.261846827737465260e-01
-1.895094437568302093e+00,9.512324872235824458e-01,-3.778280512213675557e+00
-9.498979480323019864e-01,-2.262577729478949529e+00,1.413489151011047218e+00
-1.627146348098581496e+00,-6.311287273716372770e-01,-4.449779795931541493e+00
-4.181594215934429037e+00,-1.663496667734097212e+00,7.914019868600999721e-03
-2.387127676812060617e+00,-2.603794263525305741e+00,-3.451374892602115718e+00
-1.173217237676528329e-01,2.368726700169678789e+00,-3.149913624750607433e+00
5.227841079690854764e-01,-1.191413466010599609e-01,-9.591619477603373634e-01
-6.474215356139858546e-01,3.552002984319928114e+00,-3.770324218845183539e-01
7.680475420503054540e-01,-1.807578307241018756e+00,-1.561429725270182978e+00
-2.406239510692560923e+00,8.298030713730739638e-01,-2.954132217314111575e+00
-1.364508657450505424e+00,2.571229851154399171e+00,2.093622238245590683e+00
-1.553963934682304870e+00,-7.431421756330581774e-01,2.790115880566549134e+00
4.857960905976664925e-03,-3.394764876058363079e+00,-4.973165348862807478e-01
-3.480992721569905246e+00,-1.120649489743875460e+00,-1.145053668487911347e+00
-1.636775961900939880e+00,2.592688668537641572e-01,3.029062578905872716e+00
-4.037701635418489587e+00,2.751169404582969324e+00,6.016624685890827884e-01
9.942328451554405255e-02,3.219457567694993028e+00,-1.934218849109412774e+00
6.075184392825067059e-01,1.534586022096417368e+00,-3.355098942457935607e+00
3.546459970363030623e-01,2.347031190664972122e+00,-3.795137995337087289e-01
-2.498990078952906480e+00,3.710868912584226020e+00,-1.232140314599839304e+00
-6.831476473815820682e-01,-2.889121036276538934e+00,-2.540572827249803822e+00
1.377075496610040473e+00,-2.632210138628237606e-01,-2.529655695785947511e+00
-1.433440956698118107e+00,3.321239104430501410e+00,7.926029983701391446e-01
-2.808295392023930415e+00,-3.305515806300084680e+00,-1.382202708206865749e+00
-3.106929559749465053e+00,3.037318284860862416e+00,-1.197981764815253092e+00
-2.087615081328503930e+00,1.357849529863512705e+00,-3.398108421454163697e+00
1.447408938895600850e+00,-1.263762806184987042e+00,-2.886299488219568499e+00
1.489477827767656581e+00,-2.965987301536749943e-01,-2.732436952521050788e+00
-1.858177877952514434e+00,-3.357621239167675853e+00,-6.650826143261886481e-01
-4.680412132332107511e+00,-6.254366913858447341e-02,1.454220306756822678e+00
-9.714580478565878474e-01,-3.519003655722552359e+00,-9.846514760778682929e-01
1.882356533627270734e-01,5.671705276415662800e-01,-3.933166037737060083e+00
-3.237983102756828657e+00,-1.549979738710714150e+00,-1.584162746697712176e+00
3.157125856489721993e-01,1.236030139065259936e+00,-3.673578033319972125e+00
-7.245869061988171600e-01,1.608087588626176734e+00,1.564025102539351675e+00
-2.991346430727529704e+00,1.844830281917142267e+00,-1.798846019143881314e+00
-1.290069578240771175e+00,-2.095502252271852939e+00,-3.770586110121366907e+00
1.049263840233348288e+00,2.965719159239953218e+00,-1.605037261148945404e+00
-2.520609525205475876e+00,1.600432111497108512e+00,-2.607877804392741083e+00
8.590346202111066864e-02,-3.144748831906299280e+00,-1.642689909882129262e+00
-2.627695442903205780e+00,-6.913380936324095005e-01,-2.745033155083734133e+00
-4.260527929326519692e-01,3.108300838323044601e+00,-2.451439644827582143e+00
1.039707916957218758e+00,-8.652364933548990500e-01,-3.308556734641085573e+00
-3.391712342434040295e+00,-1.045553176751573554e+00,-1.354494214434520449e+00
-2.421767874628351525e+00,9.746608737263845468e-01,-2.838983868690213797e+00
-7.211002395631557205e-01,3.504686877728147909e+00,3.671695735187618381e-01
-1.807147533752440305e+00,3.051007649699683189e+00,1.250295866224500285e+00
-2.892728334878022611e+00,-2.192898247006107582e+00,1.590495426175536853e+00
-1.689027689101334495e+00,-3.457942350727859271e+00,-7.985453668491310220e-01
7.655532720651545553e-01,1.336672281905642468e+00,-1.420580263130493570e+00
-5.194395439434160711e-01,-2.928558274185117050e+00,-2.490100544060758203e+00
-1.172242572918691605e+00,-2.825771798307677329e+00,-2.821578603732548540e+00
-2.206324050014619065e+00,2.852768515792950321e+00,-2.978862638089485593e+00
-4.071976135969278765e+00,4.790399028631189826e-01,7.419937362002794468e-02
-1.966814075178263899e+00,3.686653645812530300e+00,-1.416321517862951351e+00
