-1.299170766744381256e+00,2.530480382479062818e-01,-2.145731023469693799e+00
-1.207203761948050236e+00,-8.317251464904082958e-01,-1.873898197829910517e+00
8.185834725052424377e-01,-2.438259331631526194e+00,-7.387148602366820915e-01
1.859798727041833688e+00,4.917882702327170952e-01,-5.168473900686112454e-01
1.371034403787993794e+00,7.402043977588050883e-01,-1.498031610595170315e+00
8.331538906751365658e-01,-2.214415196715822376e-01,2.140815795685860889e-01
1.361571848313626099e+00,-5.825898678813395959e-01,-1.790291112567135245e+00
1.135688294465303061e+00,7.347843259639235125e-01,-1.923050014879077896e+00
-2.392072405175737215e-01,1.167618173515546864e+00,-1.796743087032975916e+00
-1.792405128972762718e+00,-1.331777963531995290e+00,-1.638389317240327214e+00
-1.517975439818312955e+00,-6.279297103468867158e-01,3.299556840721479811e-01
-1.329817447183574197e+00,4.740447396096955091e-01,-3.918735464013594072e-01
-1.223087239994200770e+00,-1.665645512202071243e+00,1.433259326527324684e-01
5.983816590527428758e-01,1.544696897221875087e+00,-1.016805764001845525e+00
-2.982092077359222437e-01,-2.277983385411529671e+00,-9.023074865292758373e-01
-1.412715634738717529e+00,5.845283551705213881e-02,-2.112641642785748619e+00
1.981148405545900271e-01,1.091256053266438597e+00,-1.896914945927264506e+00
1.754822197190665678e+00,-7.172139509918842304e-01,3.689916122869875692e-01
-1.741409773642268233e+00,-1.121338129006987927e+00,-2.933721516826141018e-01
-5.356025209355842476e-01,4.931188694543194306e-01,-3.448372100577372645e-01
-3.121828161843994906e-02,-8.988003812630301903e-01,-1.759271952080618373e+00
6.423878219526796274e-02,-2.146967013222645271e+00,2.688599076397747423e-01
-9.130165289247667015e-01,-1.626087322621877052e+00,6.636354894840361673e-01
-1.174991855619248238e+00,6.703252771320148407e-01,-4.969357945356386863e-01
-9.131555110689818511e-01,6.246573067494136655e-01,-2.122418276903125012e+00
-7.726307114381886221e-01,1.241522111607808565e+00,-8.518044835349627419e-01
-1.460723540863426040e+00,-1.603871480248489911e+00,-3.330509121677265871e-01
-7.336065174324006843e-01,1.048663604531892224e+00,-7.229463012426440294e-01
-1.615878433102751588e+00,-1.627899466429179043e+00,-1.376284892992639897e+00
-1.002730228215394703e+00,-7.210475867552000873e-01,3.344355032270714401e-01
9.956355871170935457e-01,-3.146408579972521657e-01,-1.988127225289960887e+00
3.719590162306011250e-01,4.533580617883848918e-01,-2.540022358215893394e+00
5.007663536769165757e-01,-2.529234282595692385e+00,-4.889835013023786092e-01
4.181993348702911506e-01,-7.954735709358433382e-02,-2.181845188785663581e+00
-1.066862322333235857e+00,3.188724817241439524e-01,-2.407667616784548326e+00
7.898182295059587021e-01,1.203453243500395065e+00,-1.473976513691629409e+00
1.802964284083439228e+00,-1.225363623997584861e-01,-1.961887819227630114e+00
-1.803488629632260531e+00,-4.028166836224247871e-01,-1.759343031709728056e+00
1.346988556745178700e+00,-2.118632166169668984e+00,-8.980944931400826059e-01
1.666172025938329915e+00,-1.434817692341411544e+00,-1.503358070197255425e-01
-2.259887249532626097e-01,6.518953513635971087e-01,-2.521902834774511604e+00
-7.740699183123207483e-01,-7.044152844893738497e-01,-1.939406928189224999e+00
1.528069569182186171e+00,6.917758009139558795e-02,4.614715741177357472e-02
-9.291734602463693760e-01,-2.094633407182945994e+00,-2.035121915673023529e-01
5.888147816382408584e-01,-6.971460810296341570e-01,-1.815275993100239793e+00
-1.492058010529665468e-01,9.712061383878334286e-01,-2.096942160530001154e+00
3.742139295826367174e-01,-2.199907775848329639e+00,1.398628365591787215e-01
-1.352368737703812940e-01,-9.520643607840795219e-01,-1.736000595080578357e+00
-1.227340405651057731e+00,-1.600920523605213086e+00,2.241244800783721847e-01
-1.575348724383489607e+00,2.347427690848316040e-01,-1.661622985507212658e+00
-3.596010832645215038e-01,6.462432833546585265e-01,-2.579550556563764641e+00
-3.480750555364984788e-01,1.462371113783703436e+00,-1.311446413432066693e+00
6.763331950091610034e-01,-4.240027481376301144e-01,3.259598620069429353e-01
1.911919738952646552e+00,-5.321857514795669264e-02,-1.234304342062909399e+00
-4.531906787017332405e-01,-1.120527067895454199e+00,-1.604175488644369096e+00
5.366266664810146469e-01,-2.184641736717382710e+00,8.603881291325700398e-02
1.965585683736041034e+00,-1.321396542456818812e+00,-1.339885747270546101e+00
7.664243310291397604e-01,5.803085455916890956e-01,-2.965833841644045510e-01
-1.543840138766132464e+00,-1.662394178821575697e-01,-2.234301222674349940e+00
-1.709321778961243155e+00,-8.155463968670169095e-01,-1.951170462638658787e+00
8.790769245753949912e-01,-8.084199820006784387e-01,5.866523563345467096e-01
9.043131906127729325e-01,6.571466422557898923e-01,-3.370312114881736099e-01
-2.324989040385732342e-01,-1.000602905346544870e-02,-2.274598635345813857e+00
2.010550207373653642e+00,-6.692923909041705866e-01,-7.175795375430569223e-01
7.735985615682177130e-01,5.365053988670073215e-01,-2.585638811473101928e+00
-9.655024182045723879e-01,8.161188055863908275e-01,-1.776885995167001964e+00
-1.031996168107882861e+00,-1.626332055721176229e+00,4.631228989964844001e-01
1.094699453788366528e+00,-7.239109475602001353e-01,-1.818629417067671117e+00
3.897124766419305941e-01,4.218354916500938190e-02,1.786015378292686931e-02
-6.265420996700883649e-02,2.815738260860362607e-01,-2.479536455127542283e+00
6.970230076054816960e-03,-1.801090021671218677e+00,7.510586313796816516e-01
-1.461419799971972244e+00,8.847148191325088229e-01,-1.065032997276267102e+00
9.239133398164753874e-01,-4.665855931359730868e-01,-1.964174607493024638e+00
-1.029047419126127627e+00,1.586504645612640263e-01,-1.869109014934726698e-01
-1.066204429818003563e+00,3.550000078025069249e-03,-5.375052131921549681e-02
1.421484571768341088e+00,9.100771643338009254e-01,-1.119928163467809989e+00
-8.443843080514850108e-01,1.421538935705033202e+00,-1.085107269521234707e+00
1.620008503967872882e+00,-1.630849507745142368e+00,-3.829545828044129130e-01
-1.218166319755479732e+00,1.002990706138972454e+00,-7.462865981916799729e-01
4.348181108068314704e-01,6.968810957916384830e-01,-3.842388437480847019e-01
-1.003487112704997353e+00,8.081269449270550576e-01,-1.779625384635016960e+00
-1.796021878874367372e+00,-8.167942734113203818e-01,4.811798444676282371e-02
-6.303733353138629703e-01,-1.992627094936603616e+00,2.837801569658711665e-01
-6.802846639857712541e-01,1.207463364511454085e+00,-1.438417010181684219e+00
-1.420087523353403824e+00,-1.646522753638025360e+00,-3.085916386871465633e-01
1.223744589690595741e-01,1.633222327712911259e-01,-8.578524445965586553e-02
-1.117196358841380022e+00,1.233120615909516937e+00,-1.018062977453320306e+00
1.999408606202460303e+00,-3.258247231689679335e-01,-8.571432345318418244e-01
-4.425724112273336092e-02,-2.829796851068804853e-01,1.539410415162371093e-01
1.411179326083888519e+00,-1.372477755963916302e+00,3.598914186665740922e-01
1.042215203968160031e+00,-2.050777966013672238e+00,-3.597203018383547668e-02
2.009187868629771945e+00,-3.081935281549681438e-01,-4.368115529682944365e-01
-8.017761998957504410e-01,-1.384809969191885815e+00,8.193895145091677490e-01
2.027794549926080769e+00,-4.596343302878865278e-01,-7.574080319886691282e-01
1.694794265398467337e+00,-3.811503957575467783e-01,-1.923565373045299953e+00
1.188462642142919190e+00,-1.719252992116414358e+00,2.775751358660311641e-01
-2.290622255156870846e-01,-1.809937722609074040e+00,7.926831661485507219e-01
-1.617977926004844358e+00,2.807354405930850838e-01,-1.445426407076466191e+00
-1.657412092982042173e+00,3.305167980230209190e-01,-3.458923625833177917e-01
-1.914992420198989409e+00,-4.770778334876263904e-01,1.354190474075832040e-01
-1.267763430574769368e+00,-1.530165402108411676e+00,-1.436851564560784889e+00
1.424969931366716569e+00,-1.612356209731967693e+00,6.549711447406779408e-02
-1.152142058541492098e+00,1.135422220566895346e+00,-1.157816410178291289e+00
1.924675576183757286e+00,2.042237893446472163e-01,-4.094439465565601899e-01
1.608439449560226775e+00,-5.362562759317263117e-01,-1.836265289429472647e+00
9.174079518517689324e-01,-1.404005631682285093e+00,9.554099198286446493e-01
2.436470751910265464e-01,1.115355918139420810e+00,-1.867189212229464879e+00
1.866063735265806489e+00,-6.591135880240452938e-01,1.893706881256091226e-02
1.192424823533952516e+00,-1.670741391314761071e+00,-1.209189577741949018e+00
-7.406976924428667619e-01,-1.015065164998709912e+00,6.111005771011916998e-01
1.303437113799789770e+00,-1.837642042494166628e+00,-1.049007386116774354e+00
-1.555567714676663771e+00,1.150589175367700695e-02,-1.872112088203840674e+00
3.736276183745595447e-01,1.024944309872568793e+00,-2.058498950744131584e+00
-9.484893360605990420e-01,-1.595738864356455400e+00,-1.375213311891936296e+00
2.358320822034171496e-02,4.116728158686909778e-01,-2.574537069288433511e+00
6.684463037059477086e-01,7.769269124731275067e-01,-2.264490895004261262e+00
4.885758787588535546e-01,6.148175061893759175e-01,-3.217366286440411227e-01
1.770245832418399612e+00,-1.371115414536977051e+00,-3.859588094906456490e-01
-7.805727835725212449e-01,-2.080081737849447165e+00,-5.778671259193152165e-02
1.790919415391660996e+00,-8.593326689804593466e-01,-1.610460589767864104e+00
-5.300570349628733746e-01,1.304354872062556625e+00,-8.606922539445513998e-01
-8.721514568547866775e-01,1.385047802894545210e+00,-1.095362993691938014e+00
-8.896194000305056582e-01,-1.703768359272692212e+00,4.741141343079744996e-01
-1.263338384241287082e+00,-3.368447788204589899e-02,-2.359434913501339270e+00
1.621405897112859540e+00,-1.499339066524484121e+00,-2.562157883053939322e-01
-1.214512377727427594e+00,6.436545988903504822e-01,-1.719746132432814267e+00
-8.675134657446497144e-01,5.643862008187208179e-01,-2.276732319746801014e+00
-1.527375690383756313e+00,6.088011260818317893e-01,-1.226889904685806165e+00
-7.787103678458685563e-01,6.826071835568454649e-01,-2.181439764417522742e+00
-1.495589219008835458e-01,1.322497593733866106e+00,-1.517801231992329969e+00
-1.731237534949517931e+00,-8.894856362702895369e-01,-3.635753430554214058e-03
-8.662316075547044081e-01,-6.609126041736828050e-01,-1.944888238095878963e+00
4.200075782410972458e-01,1.533312571057457441e-01,-7.649581435053195988e-02
6.512365832524391607e-01,2.256871557692654295e-01,-9.515982715067741737e-02
-4.164343142004380272e-01,-1.131686278473210239e+00,6.783614615569932838e-01
1.469477690201191455e+00,-1.077170643412240780e+00,7.301855611092769038e-01
-5.951063755487515650e-01,-5.662100121406994369e-01,2.918822062730413447e-01
1.385718840321084500e+00,-1.983488483358346377e+00,-4.704415753057376581e-01
1.991915240028777623e+00,9.440542922497286576e-03,-3.978432549046945210e-01
-1.081405887304474067e+00,-2.052377163997394227e+00,-3.479345351138464770e-01
1.431069623071953067e+00,-1.488731506831657558e+00,2.033338473022271997e-01
1.390989359449443130e+00,-2.122048489240746072e+00,-6.203569396795443058e-01
-6.286903005977279024e-01,-1.415641205236864542e+00,8.013707178706546141e-01
1.054808244605091927e+00,-5.357479524573586227e-01,-1.872258297707506181e+00
-1.026460754176919288e+00,3.785238180633637706e-01,-2.360130467158873646e+00
7.897421233555868003e-01,1.602860422429650822e-01,1.209069160804590246e-03
-8.136817271157700260e-01,3.903802564188345592e-01,-2.629662649919433548e+00
9.551358102406105610e-01,-1.772890333427112664e+00,3.699084261796483086e-01
6.194446351674141871e-02,-7.590890658862320395e-01,-1.842930392202826839e+00
2.589063276719130169e-01,-1.530612608056962864e+00,-1.322633260218281981e+00
1.999437337473059850e+00,-2.977662946435352676e-01,-1.209541739779213421e+00
-4.478284028386765314e-01,-1.145727193841286295e+00,-1.641707259758590665e+00
1.908283672313440205e+00,-1.554774730027754792e+00,-1.001402961569249239e+00
1.659399664117061857e+00,-3.297817422659715669e-02,-2.177690652633606838e+00
1.192497501783885916e+00,-7.760619589040101962e-01,5.794554077408315962e-01
6.611119952771418173e-01,1.387947946573725888e+00,-8.173131231787439388e-01
5.406998244857027514e-01,7.271979637277270481e-01,-2.414047775256663364e+00
1.284175879437235990e+00,-1.571228751239359012e+00,3.724714112508755171e-01
1.391038884677962661e+00,-7.679623189311881593e-01,-1.721163711545333319e+00
9.843431051366779982e-01,3.178970024968953978e-01,-2.404810830438669278e+00
7.924949026528310680e-01,-1.958200134983923313e+00,2.243629566422847554e-01
-1.154794194251218542e+00,-1.322543088260368593e+00,7.735898070788893577e-01
2.256903976148101343e-01,5.921150423207083291e-01,-2.637288179743423555e+00
-7.895026761033709928e-01,4.550886596339313583e-01,-2.569914342378701200e+00
-4.223946583964591772e-01,1.138880574538593926e+00,-1.813390520514281068e+00
-3.017923125208362700e-01,-7.596651927882923649e-01,-1.850585732770874348e+00
1.724853383713681909e+00,-1.565378972512892153e+00,-5.504327064943886905e-01
1.211644184966147897e+00,1.304119324395664137e+00,-8.673108610533264429e-01
4.106601517143615432e-01,-9.193692407484755913e-01,-1.655932550939853920e+00
-8.101026029016900054e-02,2.822661143550234675e-01,-2.252736288594658909e-01
-9.977060446445914499e-01,6.707050656946209610e-01,-1.954713977798625102e+00
1.619718139877499130e+00,9.898447946256386798e-01,-5.151229441029312461e-01
-7.313117429399278446e-01,1.372406878459355939e+00,-9.292088725628668833e-01
9.010810109581742777e-01,-1.598710863257173931e-01,-2.116867913076453167e+00
-3.324710615426951232e-01,4.466116852186294839e-01,-3.060934463638698699e-01
-1.792384886387689003e+00,3.425047784393893679e-01,-6.019836046191039403e-01
8.359580698886007744e-01,1.329964547049605761e+00,-1.196987878843472242e+00
3.572663650692687876e-01,-1.931495668992498027e+00,5.509761202549862125e-01
3.896776639164991618e-01,-1.674200803296040485e+00,-1.205663178011705750e+00
1.252274780217846661e+00,-1.752549360557227098e+00,-2.955310928739905349e-03
-1.243055707608241578e+00,1.116310708431481613e+00,-7.865040248941562728e-01
1.655396807925698932e-01,-1.931351735447296880e+00,5.307727582921872855e-01
-1.175102569107881356e+00,3.184580781003428784e-01,-2.301710781696935992e+00
-1.202406123390728165e+00,1.622301420613649903e-01,-2.303121980145326486e-01
2.016109002059760513e+00,-5.201005308865833676e-01,-9.836880060432132700e-01
-1.480190925926116785e+00,-1.894957832639002415e+00,-9.368970737360572398e-01
-1.151598079553761922e+00,-5.303272681651857168e-01,2.226429930099981525e-01
-4.108689468450266169e-01,-1.155860965036105137e+00,6.918998960467108716e-01
-1.464173969308004697e+00,6.566931489831300262e-01,-1.400896318846818422e+00
1.420128161797898692e+00,1.569140677983826004e-01,-2.282754839717248796e+00
2.562135067077785378e-01,1.284102876495116341e+00,-1.534018534130678679e+00
-8.175284499470149013e-01,-9.430563116983249339e-01,5.010412237759780396e-01
1.604557965419215249e+00,-1.896104979118570899e+00,-6.560975751417890134e-01
1.119902644446461704e+00,-2.809994727233494083e-01,2.276458456780052209e-01
-1.558698549730533012e+00,-1.182771689166761009e+00,-1.701370789832169939e+00
-7.247824042601409555e-01,-3.180924083256282953e-01,-2.162786267417517116e+00
9.081876368933360089e-02,-2.184684623076515564e+00,-9.687703407723018412e-01
-1.039524056859518764e+00,-1.982343803456601217e+00,-1.323407054130073535e-01
-1.208259592997678045e+00,-6.108235467123441786e-01,-2.049307591527253170e+00
-2.314688918179815535e-01,8.144458770730446107e-01,-5.224499223263381342e-01
-1.834580816273621684e+00,-9.042274353375916451e-01,-1.702637002541521394e+00
1.097460855555444148e+00,-1.793885640336365661e+00,2.007342113712223819e-01
-8.192819216434014118e-01,-1.497541073123043409e+00,8.640300378156180461e-01
-1.028478154815141821e+00,5.102931043790243093e-01,-2.151749468308398416e+00
7.021541504150876634e-01,1.360370257343905154e+00,-1.269734344608971943e+00
-1.217781923516252807e+00,7.192837514295885581e-01,-5.398947745906730322e-01
3.953983870323424243e-02,-1.277677059392133385e+00,7.742350220785136905e-01
-6.971982329363045627e-01,-2.648449840044021092e-02,-3.847169985580874141e-02
7.957650657551883500e-01,-1.895460105424537245e+00,-1.015762023175631912e+00
1.775867929745028162e+00,-1.687315510891298012e-02,1.217454529286647602e-01
1.009003072559818470e+00,1.131264937295316297e+00,-6.233311430088660510e-01
-1.136058361691188789e+00,1.425811361563333046e-01,-2.137842496546207838e-01
1.333789479947276480e+00,-1.883788663297176980e+00,-1.369733141374031848e-01
1.457144544299068922e+00,-1.968060557954534273e+00,-9.198320067176352088e-01
9.989550751316801369e-01,-2.413941490292190295e+00,-7.614357359458356900e-01
-1.611935214800116922e+00,-1.703281168053862427e+00,-8.846320176066000407e-01
1.166304679519213572e+00,-6.700384534152924454e-01,5.005966591129691334e-01
-3.439234733605175953e-01,2.528948475749893121e-01,-2.430980303470803516e+00
1.269317921651586856e+00,-2.113011826896704637e+00,-8.598980058261428416e-01
-6.567504469650239374e-01,2.595644614783708670e-01,-2.467663863015643333e+00
2.932928200378741579e-01,-1.119313823107386030e+00,-1.593891932293918456e+00
7.702439941588431482e-01,-2.024792500393381101e+00,2.028831765376176988e-01
-1.504624160965931656e+00,-1.800138447265754449e+00,-9.128179511138759805e-01
-1.854459460350713629e+00,2.729597416598515403e-01,-5.189196807112218535e-01
6.989079868105397830e-01,1.462056550939427435e+00,-1.118025133282794625e+00
-8.124688295702494623e-01,-1.977367699457211137e+00,1.576349606771332568e-01
-4.472654671758615613e-02,1.616791503363070648e+00,-1.106545044876233508e+00
-6.109879831406334061e-01,9.814929219278875072e-01,-1.949052899106168635e+00
-1.872172285634774891e+00,-1.670239058227443105e-02,-8.547411045561331688e-01
1.638177338140050399e+00,2.473203480140767074e-01,-1.803619755717071227e+00
9.432421418526985013e-01,1.207173543425306139e+00,-1.333996720592632412e+00
2.102955614021752573e-01,-1.533310905348621356e+00,1.004986548632755827e+00
-1.882715652524592276e+00,-5.861811486626312684e-01,-1.550029346745246117e-01
-1.583007766660609050e+00,9.253035509589499497e-02,-1.854453278170500985e+00
-1.576261534074990811e+00,-1.525767709953865570e+00,-6.418216286638713797e-01
-7.540729014499921723e-01,-1.522426285313565816e-02,-2.343125638307937297e+00
1.632818650721582721e+00,1.057716774943641830e-01,2.731421878303996395e-02
-4.870838497325203353e-01,-8.711636188286033811e-01,-1.816435215101408485e+00
2.026031040653259119e+00,-3.519719844122112806e-01,-1.176524781125785957e+00
-5.081324123799048076e-01,-1.267352210552100900e+00,-1.560301527298377122e+00
1.559839214425421117e-01,1.066655138317279095e+00,-1.966366336627078493e+00
1.874386357392625158e+00,-5.651050459363303746e-01,8.924307375167760126e-02
4.040389496737907815e-01,-2.054022776448008347e+00,-1.022950023830918154e+00
-1.361938584187707191e+00,9.326407590057941288e-01,-6.905666366548408597e-01
-1.806571989321279714e+00,-9.231426364914889771e-01,-1.539392329002379489e-01
1.957998421676383938e+00,-1.316838265331693680e+00,-1.331080245685564156e+00
-6.977943198268345970e-01,-7.966789311191092571e-01,-1.844608780713796747e+00
1.409026208564388094e+00,9.125832895966077274e-01,-1.152670140851444147e+00
-1.824887214398178914e+00,-3.682432184916533680e-01,-1.285854834397147428e+00
6.343229822909810522e-01,-3.173958342737964733e-01,2.903245590300361223e-01
-1.276043714878520641e+00,-5.884927460914037844e-01,-2.006948895241842390e+00
7.981072780135993749e-01,-2.107231542799772317e+00,-1.022910748291530267e-02
1.800373374243604330e+00,5.706678575488983718e-01,-2.312676822310425484e-01
-1.879329432906051256e+00,-8.517757986973985007e-01,-1.491626678783444682e+00
1.827158197174883592e+00,4.690874509823309557e-01,-5.081441130813629803e-01
-1.552159106151644430e+00,-1.463747434922712864e+00,-3.199225320228437086e-01
-4.147157196560690151e-01,-2.367916475120145636e-01,-2.207174231445944379e+00
-1.357820534182346550e-01,1.381396901246312092e+00,-1.507520985413695502e+00
4.967256457744846920e-01,-9.691421804422937214e-01,6.402950321177254267e-01
1.956109801893858968e+00,-5.066510020748831583e-02,-5.251714043413716615e-01
-3.242761011028627571e-02,1.308316037145250688e+00,-8.287225922357472907e-01
-1.675719005202860101e+00,-1.283651582571869065e+00,-4.640933233406592251e-01
1.285865464008955739e+00,1.239060225370366641e+00,-8.371641554250871531e-01
-1.633756506301413447e+00,6.325277845263348464e-01,-1.003906824992788938e+00
-2.110459648764977658e-01,8.510632867634412291e-01,-5.817693204580616229e-01
-1.425255173163245015e+00,-1.091031796344274385e+00,5.664339317812669972e-01
-1.765294188792529972e+00,-1.631948523244104665e+00,-1.407897882226434527e+00
1.745837136027825975e+00,-1.527756392443315292e+00,-6.146650337550577659e-01
2.450359591738383302e-01,1.082522598232870559e+00,-5.820167647176781589e-01
-1.635163123019040432e+00,7.413308950859366364e-01,-8.529785035452511766e-01
1.791334138485204619e+00,-1.206917490844088142e-01,2.321169514602481054e-01
-1.680446048866478082e+00,3.507849422929945060e-01,-1.243939792005072764e+00
1.293840072450116452e+00,-9.214000785212775879e-01,6.636623129202823268e-01
1.117200286061259762e+00,-7.447510537665763541e-01,-1.732346194243335580e+00
-1.405293882740318079e+00,-1.793345437175250412e+00,-5.087632309234325634e-01
9.112807042207468067e-01,3.696589506384111989e-01,-2.474906539643488390e+00
8.055406819748704983e-01,-2.011339774956502069e+00,1.195534512067400468e-01
1.808925782180076158e+00,-2.837402400504872302e-02,-1.934091010837681202e+00
1.967198554874253436e+00,-4.109996215291774613e-01,-1.872323365120565741e+00
1.463617251660493501e+00,-1.999793723586252847e+00,-5.443072188559835434e-01
1.223504062702616274e-01,-8.313013735526925130e-01,5.433219994309351764e-01
-5.066648574353370682e-01,8.001167287778223614e-01,-2.212204460949355855e+00
-1.817604594699855136e+00,-7.371599981266855339e-01,-1.768318361112815058e-03
1.128515896933204088e+00,-8.718292398171423319e-01,-1.670360209024884579e+00
-1.479299092469887889e+00,-2.020882364297385880e+00,-1.180512402661373583e+00
1.971148961989505732e+00,1.499907792112663840e-01,-3.500385410254210905e-01
-1.872499709540640822e+00,-8.343349040618385226e-01,-1.274924229204248638e+00
2.004181131093310864e+00,-3.054513856237225378e-01,-4.377168401741668990e-01
-1.659683568329068493e+00,-1.356039031076907930e+00,-3.871403128436071706e-01
-7.169364862968030661e-01,4.626893381304980624e-01,-4.028875141912232061e-01
1.805817892203084085e+00,-1.416569207981527079e+00,-1.270665322754141346e+00
3.516902211918092602e-01,-1.802938443139760150e+00,7.868165087847686090e-01
-1.821416162723658916e+00,-8.628759787098411183e-01,-8.884661837999086043e-02
5.839170478566931832e-01,-3.079092274938035056e-01,2.064059752714763607e-01
1.928123016166979564e+00,-1.979537950801448787e-01,7.596333131869779931e-02
4.956577545217688563e-01,2.984778057761357517e-01,-2.462529409790963797e+00
-1.838888387732202645e+00,-9.008924254506919249e-01,-4.182026204703483963e-01
3.921190135668519150e-01,4.755713372330843125e-01,-2.557932672093577775e+00
2.024389263697080388e+00,-6.101810148449463567e-01,-9.291952235549232331e-01
-1.653929978017332214e-01,-1.210334806865512647e+00,7.401859039586736744e-01
2.036807495110648958e+00,-7.199053989493501282e-01,-1.604711300879427593e+00
-1.056113687017134595e+00,1.286935590291977238e+00,-9.629084207986264854e-01
-1.497308046960241112e+00,-1.298861963778933648e-01,-2.273647989942538139e+00
-4.587945095921190930e-01,-2.233301120741936874e+00,-9.673953293638458684e-01
4.401369604889841525e-01,7.298300525249720172e-01,-2.496961284653117730e+00
3.495064280975300752e-01,9.873366886181967894e-01,-2.092521073239645979e+00
-5.734984442206388922e-01,-1.438542717959340744e-01,-2.209902444852834602e+00
-1.815519122773266991e+00,3.287669918623472576e-01,-8.576500173506729219e-01
3.715023777232975832e-01,-5.760063624868276833e-01,4.416659108274078593e-01
-3.441767296502917794e-01,7.334591145016496894e-01,-4.978502657811085808e-01
-4.393435337041326494e-01,-2.855257336367885701e-01,-2.154711079778668825e+00
-2.634642477103290026e-01,4.700834002172796788e-01,-3.106321010940423788e-01
-1.182798786137020830e+00,-4.290874545177184030e-01,1.748452913290851618e-01
1.147587031361538834e+00,1.082437175799185969e+00,-5.894505050972062010e-01
-6.351857239586682358e-01,-1.498590256404519483e+00,-1.417764820181110830e+00
-2.505497901359790003e-01,-6.153365935275023624e-01,-1.961134669369698713e+00
-5.053892866595303124e-01,9.573691181513139803e-01,-1.990031945188262430e+00
-6.432350622998729284e-01,-2.286063723272399040e-01,5.021891407257555312e-02
1.166114583120460235e+00,-5.388091747565070255e-01,-1.840197403855661662e+00
1.895215859485659848e+00,-1.198211578376858988e+00,-1.382442101252910671e+00
1.801872213624409413e+00,3.423713748617148167e-01,-1.136362834293016100e+00
-1.820564547832282720e+00,-9.905930131358089419e-01,-1.685689542983461076e+00
1.016442645467852346e+00,-1.193392643695938782e+00,-1.455709446340676338e+00
-2.822937906772098327e-01,-2.329664129130851524e+00,-1.031922481768170613e-01
2.021196399355300044e-01,-9.492431240601485465e-01,5.910921991631779004e-01
-6.446196200089696626e-01,-7.526135882325201143e-01,-1.881123080604325537e+00
-1.748486901868079091e+00,-1.012352413578361476e+00,-2.659900234287815857e-01
1.253852895863081018e+00,-3.545294201703130810e-01,2.829655503770035496e-01
6.513267562933370280e-01,1.477357125270380767e+00,-8.820071768769291998e-01
-1.713112106327664197e+00,-1.442058097796429905e+00,-1.048836857986329640e+00
7.864392243107962699e-01,-2.463415294474941231e+00,-7.122821543560714508e-01
-8.798755804902316235e-01,-1.439797383774265249e+00,-1.475115088541039121e+00
1.497138393593302030e+00,-2.071586217804975316e+00,-7.257626226386235668e-01
-1.376490987158394574e+00,3.385308550215844203e-01,-1.933770615609145649e+00
1.337830782152132247e+00,7.224279900376233687e-01,-1.589932613325126365e+00
-5.150504931750592430e-01,1.680950820077367347e-01,-2.423630447683797318e+00
-2.681830562812356766e-01,6.607600607483182786e-01,-2.570585870918518978e+00
9.665217121698752578e-01,-2.387278913714090844e+00,-7.521156570141589448e-01
-1.864516182215348650e+00,-6.622539435394940721e-01,-1.386423701138154829e+00
-1.809749476778826693e+00,-9.549566176360047010e-01,-1.730115798495468260e+00
7.908414714577212123e-01,7.987412144019827576e-01,-2.158938099395809385e+00
3.149427355074129603e-02,-4.153811344809581890e-02,-2.270008526670726834e+00
9.051315687714570624e-01,-1.882547908559747851e+00,-1.065713055568974221e+00
-1.281789096681395623e+00,-2.207137026291530635e+00,-1.045256130292292474e+00
-1.407319783799768909e-01,1.646098015305443196e+00,-1.090304753650878977e+00
1.337074724793379188e+00,2.204872125168989561e-01,-2.305939460670189511e+00
9.454321264491387378e-02,-1.950453989610520633e+00,6.265280502658185924e-01
-1.677222473402908642e+00,-8.824508307382850081e-01,3.800541985145893809e-01
-1.374027579645922703e+00,-8.331129976993886799e-02,-7.700408287640476968e-02
1.025322008523583461e+00,8.886445295213166728e-01,-1.814369863968361862e+00
-7.929089431295817114e-01,-2.495732025407033206e+00,-8.419693044952782923e-01
-1.752213077284497045e+00,-1.361454749565817357e+00,-1.073460131119251537e+00
-1.864122835024859981e+00,-1.421565024802403099e-01,-8.927153578321224137e-01
-1.361170426601127970e+00,3.774374917074469482e-01,-1.858602927371214353e+00
-1.086696543123495839e+00,-1.943238419450398435e+00,-1.666208941456602532e-01
-1.888471816149916549e+00,-7.890579148460766246e-02,-8.063728517622233971e-01
4.893886036735349276e-01,9.956994500040770024e-01,-5.523196579657240202e-01
-1.078002911964126342e+00,-3.638790250757590328e-01,1.883560957086743148e-01
-1.250947562640817967e+00,-2.250001205239650748e+00,-1.019914464838826085e+00
-2.206705877481564548e-01,-6.073302024900821827e-01,-1.962437432075596844e+00
-9.991278638853096083e-01,-1.786522710662328484e+00,2.027891578576843656e-01
1.288538612606397793e+00,-1.350076581073540893e+00,6.129653088856249488e-01
-1.586997279720238074e+00,2.988119793998516016e-01,-1.424631367216148137e+00
-1.298584146384376359e+00,-2.148158953400530091e+00,-9.065015688818599537e-01
-1.881595256214329881e+00,-6.954661030918137810e-01,-7.498781265795518847e-01
1.970723841623303330e-01,-2.687954012025385864e-01,1.265286090173463884e-01
6.860842236117637993e-01,-4.104212806693554039e-01,-1.980469461587969437e+00
6.200921069136425823e-01,-2.529613947268592455e-01,1.945066657712321567e-01
1.217324810262780721e+00,7.361486981189678813e-01,-1.831302737243013512e+00
-1.598692134403014053e+00,8.541611949799639003e-01,-7.910295563804647934e-01
-1.414078492167744061e+00,-2.277259220603632117e-01,7.428535970948648738e-03
1.988138647213928967e-01,-1.305733125836609387e+00,8.506774133906703783e-01
1.087988929990673093e+00,-1.314840223951956988e+00,8.927186769391615151e-01
5.101255403610241435e-02,8.918592711422473895e-01,-2.311208326005007585e+00
-9.898802497390876143e-01,-2.102027366036750777e+00,-4.309601072246719844e-01
-4.853871629597336090e-01,-3.075346510898821495e-01,-2.159486022775887193e+00
-1.111051064216782347e+00,7.123632292117536569e-01,-5.421945172327100604e-01
-3.496466238851911323e-01,-1.125690419866036240e+00,6.945863828172177401e-01
2.269693953721242663e-01,-1.882118748303094113e+00,-1.125585252654948798e+00
-1.448229112805542673e+00,-9.490820204007043293e-01,4.640301927824890815e-01
1.290065643336234080e+00,2.269411256643799335e-01,-2.322955415151059189e+00
-5.016462152751921533e-03,1.267127882924066196e+00,-8.156913184098272263e-01
-9.355474053333467932e-01,-2.021503150758307554e-01,-2.267746760793500460e+00
-2.519941220756746758e-01,-2.508496633419283306e+00,-7.974587705161724216e-01
1.029406154811418617e+00,4.556644291961590293e-02,-2.244759360222678080e+00
-1.234264123791641410e+00,-1.670071152833277450e+00,9.426388887715042922e-03
9.422007763743383002e-01,-1.085098119505634395e+00,-1.513431227066724283e+00
-9.849770410622360473e-01,-2.216274308024245077e+00,-9.849156462894789188e-01
1.919351557150926535e+00,2.476251028523937525e-01,-2.759071572080294410e-01
-3.334105221257331886e-01,-1.347272463183867952e+00,7.952791837407851006e-01
3.242704108535796603e-01,-4.411080697254205485e-01,-2.032744125576410266e+00
8.627721861373200962e-01,-3.339599625981277131e-01,2.982010977927389561e-01
1.635538016398766503e+00,2.368273785864849212e-01,-1.808634735839360852e+00
-3.238005633766020686e-01,1.059021473703032790e+00,-1.926160566125189488e+00
3.362431433393829883e-01,-2.459298266295148583e+00,-3.009837450767049449e-01
-9.039192547880727790e-01,-2.151785107932638663e+00,-2.269572652228985798e-01
-6.266003986454750097e-01,1.989279005359292571e-02,-2.799794234732674511e-02
1.677778475776130929e+00,-7.335108211075244133e-01,-1.713502024989806749e+00
5.053705983120784784e-02,-2.143355813189998571e+00,-9.720394471960546179e-01
-5.588042231501371138e-01,4.098296191717468728e-01,-2.599544682288747133e+00
-1.543656484671100060e+00,-1.450473199619729536e+00,-1.486161757203990463e+00
1.870890540059775953e+00,-1.063124824563358883e+00,-3.384604986619408340e-01
1.339706686258712143e+00,1.732600108307124354e-01,-2.333283918586547934e+00
-1.670147439524231947e+00,-1.664257944932845179e+00,-1.144517270006170762e+00
-1.786423598186907213e+00,-1.046697258981610146e+00,-4.706486261190034326e-01
1.210782918112458084e+00,7.517290176208724084e-01,-1.766911984487426590e+00
-1.664098836291492967e-01,9.828107986734859747e-01,-2.147490845040480156e+00
-1.540647894395597017e+00,-1.252531232553471208e+00,2.608315961929325577e-01
-1.083337533909944028e+00,3.345521548969178638e-01,-2.395900146426246380e+00
1.982558496349084098e+00,-2.209220648469134851e-01,-1.195310394325759917e+00
1.033969509950678489e+00,-4.260544498103935873e-01,3.407476466061487019e-01
-8.323942157960169119e-01,-9.007824044479670889e-01,-1.768426323215156248e+00
1.886647289551194762e+00,-2.135789836867927477e-02,-1.228685335414025026e+00
1.856522389859005306e+00,3.692485652266082052e-01,-7.729539545621966212e-01
6.302039853785633416e-02,-1.879333869316467953e-01,1.500525635815830594e-01
-6.588410001444708897e-01,-2.191755858866977213e+00,-4.604618623334532507e-02
6.639180276387284252e-01,5.368462239435362049e-01,-2.904177003177685346e-01
-1.459638083465098379e+00,-4.656086938211030368e-01,-2.136257688118445408e+00
-7.306128030949416985e-01,-2.321268563696335718e+00,-9.484684614836728089e-01
2.037095019543374352e+00,-8.178577219497511486e-01,-8.590891775717263146e-01
-1.451956148510385347e+00,1.068514027292040147e+00,-7.934056296313699574e-01
-3.930166164573635212e-01,-2.372999863259598052e-01,-2.200525641592248061e+00
-8.395130841957685330e-01,-2.443754042020739981e+00,-7.400980044740826935e-01
-1.391287979939511255e+00,-5.879491141889261335e-03,-2.346725327226007352e+00
1.605211512285169562e+00,2.263561898945007922e-01,-1.915650830320836828e+00
5.014988700153750756e-01,8.280263878382780884e-01,-2.325541200115745610e+00
-1.105036046170871256e+00,4.287238420802446104e-01,-2.279451590304158337e+00
1.700713690934910316e+00,8.262636341956453023e-01,-5.236421507014392684e-01
-8.922588568000160425e-01,-4.458749014112702719e-02,-5.691477121743414302e-02
8.974760790372807717e-01,-2.030643597092433694e+00,-9.496232863252018763e-01
1.353770037111098778e+00,-1.514898171063360222e+00,2.763291446825180131e-01
-1.330728799538205998e+00,-3.221422223861841183e-01,1.097178739312724971e-01
1.495986806833257798e+00,1.085030788866218954e+00,-5.657696273392780473e-01
1.414385888193935292e+00,-1.423821933342507909e-02,1.058565262138008584e-01
6.969313650270611005e-01,1.547560156855629865e+00,-9.579117503250245136e-01
-5.534329008973620789e-01,-1.040502111471270474e+00,6.145986259739268931e-01
-7.517856229836098469e-01,1.413629639043363806e+00,-1.163246048568931768e+00
6.277939571517225925e-01,-5.773229175671348301e-01,4.400226479860019357e-01
2.935620233362232767e-01,-1.484655487399137108e+00,-1.326131103650321164e+00
-8.752311931890767172e-01,9.933105308202820893e-01,-1.706170554548410268e+00
-6.372545252138706040e-01,-1.276431443923707887e+00,7.486330110220811296e-01
4.503084678810033714e-01,4.783425768586143101e-01,-2.145364114110014098e-01
1.081681768620655681e+00,1.664498643017686685e-01,-5.426092939646591506e-02
-8.505369126164509519e-02,-1.842951019763728215e+00,7.679002470676714598e-01
1.061725234242111640e-02,7.615376199449127581e-01,-2.530144937476911160e+00
1.916598673316566748e+00,-4.981072245478633531e-02,-1.225379822343619862e+00
-1.537404590355913314e-01,-1.141664268533785442e+00,-1.573398817314673570e+00
-1.156852503707709756e+00,-1.876417130740399841e+00,-1.228361405141885188e+00
9.713809178244355025e-02,-1.436735184522474951e+00,9.136357616994946751e-01
-1.738935813785605244e+00,2.297728836564215116e-01,-1.131384089624961842e+00
-1.805700891723283075e+00,-1.277960719649840149e+00,-1.450572565130483715e+00
1.787179800002636210e+00,-1.530183495772985847e+00,-6.483367177623776678e-01
7.070047412131984510e-01,-2.327875138357030360e-01,1.684000705069196024e-01
9.391538097678677754e-01,6.491063930499314516e-01,-2.253587967833662109e+00
-7.830118335130600293e-01,2.897061864028548928e-01,-2.354707403587427972e-01
-4.335987045496579317e-01,1.068108283502868794e+00,-7.464978588883579569e-01
-2.587179077354406220e-01,-1.260330202929522692e+00,7.641210264763910187e-01
-4.640117701361350933e-01,1.162298406890788893e+00,-7.556019116893016863e-01
1.630866595488277282e+00,-1.990711634939945407e+00,-8.790454408277581511e-01
-1.805246010865188211e+00,-1.026996118718246587e+00,-7.067996302886516702e-01
1.324493486431822298e+00,1.179221863568830297e+00,-8.085059806376336811e-01
8.898637729178321409e-01,-1.126579884922065622e+00,7.784152797486084685e-01
1.989830986729343110e+00,-1.168103663806306036e+00,-9.622327118070280738e-01
8.791453823831437697e-01,-8.770503506042900410e-01,-1.673535401197184358e+00
-1.802406039231275070e+00,-9.185697809114459211e-01,-4.891874029226082610e-01
-1.704828569462373045e+00,-1.316475644410019186e+00,-6.902286169883514733e-01
-1.893316561003366871e+00,-4.695694035948121958e-01,-5.855375610135644671e-01
1.322638657596828970e+00,-1.356509763752636877e-01,-2.114663055188024554e+00
1.799851742905035357e-01,-2.454794857404381858e+00,-2.533636920733615683e-01
-1.872922052000470794e+00,-8.728041179238045233e-01,-1.134999517008941972e+00
1.040450767379742736e+00,-1.556400705662935202e+00,6.118787774618581476e-01
1.274059431673858933e+00,-9.344633487187143928e-01,-1.608641900212983922e+00
-1.513238511922819218e-01,-6.317461462483638934e-01,3.802775450902968202e-01
-1.269426220981966447e+00,-1.769202386749018974e+00,-1.231326001190169717e-01
3.810977702253156435e-02,-2.628837320626089991e+00,-5.958877681320303710e-01
2.995688113792787516e-02,-8.603712229526989663e-01,5.334673149627746636e-01
1.411628517857242970e+00,-1.066819572652879744e+00,-1.518649624341639193e+00
-4.917072292311208126e-01,1.825159866954404742e-01,-1.656613388978551704e-01
1.095428430263524877e+00,1.120746737877716503e+00,-1.273509645570632287e+00
-2.432672480348194444e-01,-2.401308004235293558e-01,-2.165421740542053275e+00
-1.565344855888760378e+00,4.971942419121873347e-02,-1.898839285421185519e+00
1.468161319378411100e+00,-2.023996129901399765e+00,-6.366162662817731466e-01
1.835007424548166677e+00,-6.273353189893045023e-01,-1.768209645919174289e+00
-1.664398071090299913e+00,4.469857023234883875e-01,-1.056278440865280110e+00
-1.080082353619570501e+00,-2.359894332812063844e+00,-8.987545275312511794e-01
1.722501705079859224e+00,-1.019429183497118752e+00,2.149433328809788879e-01
5.406262370471159873e-01,-1.004901975029585559e+00,6.911280468263381049e-01
1.325427396245119294e+00,-2.301791565550299179e+00,-7.640382088105034386e-01
-3.852735715096666791e-01,-2.175637320631106153e+00,9.702593972726257510e-02
-5.460107242507755698e-01,-1.561482931606162250e+00,9.682920989930525746e-01
2.945678694434232803e-01,-1.634694056879998580e+00,9.496519623852184289e-01
1.479329103618913788e-01,1.579084501151134745e+00,-1.097151667354193671e+00
1.554493702785835874e+00,9.676186322344729751e-01,-6.299600533980698192e-01
1.675081152269198848e+00,-5.094247825161420939e-01,4.438787839324990769e-01
-3.197996155694441400e-01,-2.243812793058130417e+00,1.461940754479383944e-02
1.473219197179618911e+00,3.139528118003905299e-01,-7.990091757200848410e-02
1.661283348646544145e+00,3.485194704947803257e-01,-1.507528950715876670e+00
-1.375135160199889572e+00,9.021146237392146938e-01,-1.059891923818659043e+00
-1.896796746076219620e+00,-4.536181202687463720e-01,-8.567979545805732844e-01
-6.724500678111835494e-01,3.124177352673276342e-01,-2.211652891840377166e-01
