-3.206547367218024025e+00,1.812158814275033558e+00,2.425836509778079020e-01
-2.878722825788003981e+00,1.598667813112072622e+00,-1.099223297908455077e+00
6.083358433893649719e-01,5.879785237032196521e-02,8.010880527412439500e-01
1.197483643155260902e+00,3.030686746732978776e+00,1.112389091836078592e+00
2.011305289668888996e+00,4.058978504120389075e-01,1.759452695152555757e+00
1.422694525810511257e+00,3.208069608691639818e+00,4.521234087922715306e-01
-7.307678484719183354e-01,1.978673189911478003e+00,3.125278688385570103e+00
-1.571595975945257462e-01,2.519917104380521855e-01,-1.440219531820088106e+00
-4.375741875515657409e-01,2.014525641566004666e+00,-2.363846836823151332e+00
3.412993116220967571e-01,3.305688348137014732e+00,-1.602479099186062017e+00
-3.845945416386525872e-01,3.764770823770372532e-01,-2.288966565927148089e+00
1.202823238371780956e+00,2.326894041679913594e-01,1.046706028811706490e+00
-1.403469960855452170e+00,1.178621709051801136e-02,-2.120965630315499340e+00
-7.710656096509126423e-01,3.017503010279310338e+00,-1.924200693150265540e+00
-1.592277349531281194e+00,2.626994177609967895e+00,-1.401607780380865753e+00
-3.143009301450932380e+00,1.684657911417419829e+00,-6.315778448243751786e-01
-7.235968366261654738e-01,-5.644888724979549854e-01,1.617252616736793103e+00
6.814331564510468786e-02,2.936986243339627212e+00,-1.011302380786230082e-01
8.857560013569594215e-01,1.530256061395776079e+00,-2.206153363698347469e+00
2.624357889272028177e-01,-2.958524509398152147e-01,1.915402455847988961e+00
-4.656258661315986203e-01,-4.601478083198065061e-01,1.810062837920224599e+00
-9.037836074621118376e-01,2.328075177575816834e+00,-2.247182254776819654e+00
-2.987005034241526857e+00,1.637895614634864883e+00,-8.920898245092223622e-01
1.614735005033412607e+00,2.252234890474209827e-01,1.538219313515507114e+00
1.903734623231455148e+00,2.235803511702241675e+00,1.255518217361134337e+00
8.818957141522112408e-01,3.035855835085096821e+00,8.101894382772230063e-01
-5.835032425386732502e-02,-3.430093224939249619e-01,1.593720779303049451e+00
1.252171729891793817e+00,1.411976322624111102e+00,-1.992037455745874874e+00
-2.094226501673814855e+00,1.904563898526323129e+00,1.457910156879649755e+00
-1.312086492151254724e+00,1.253971511455716614e+00,-2.276568073971172002e+00
7.017347717471993374e-01,2.767723998166142785e+00,2.029921611455127728e+00
2.228722103730731874e+00,1.372753098116645587e+00,1.068967179908726139e+00
7.409750910925312350e-01,2.758343731438231416e-01,-7.576115104910821629e-02
-1.543672137788362209e-01,2.991810736702374296e+00,-7.247030605527433611e-01
-1.657168451245439655e+00,1.931399744715751154e+00,2.027879111016891223e+00
-1.416751699203431025e+00,1.219747986250945937e+00,2.865239597340740296e+00
-2.247160817050026349e+00,-9.211381208458248038e-01,1.013671704517767225e+00
1.178510894959537536e+00,1.850110441952513562e-01,2.440367978340578947e+00
-2.371128058210397738e-01,5.903526338141785734e-01,-2.685933749293439199e+00
6.461451497150108580e-02,9.548645738115046910e-01,-2.530006266922933733e+00
-2.807072298762962603e+00,2.435235709264315165e-02,2.333490499456491729e-01
4.602265283526136841e-01,3.179406854346138900e+00,-8.192757557908629806e-01
1.845097862256351418e+00,2.472717924866370431e+00,1.168038923185500177e+00
-3.734986484733523321e-02,2.627208252014426648e+00,1.186119395984960745e+00
-3.040304472988949236e+00,6.771948300309595936e-01,6.006503296879129872e-01
-3.936056140316971930e-01,-2.424086621391702556e-01,4.865472797219623224e-01
1.627384756009532030e+00,1.681714194494128511e+00,-1.651344266030967622e+00
6.693167222415151718e-01,-8.590815818875739696e-02,1.346413497485617228e+00
-2.710228913006817564e+00,1.790642436067661158e+00,1.223629279560175975e+00
-2.720056466283199637e+00,1.953466122987033371e+00,-1.360187000978099192e+00
-1.569266266836004398e-01,2.296670751544320321e+00,2.630746907909223165e+00
1.570850889852419163e+00,2.987884908647757687e+00,-7.494099693383947658e-01
9.192988837558765391e-01,1.760217501548521843e-02,1.435660056180077859e+00
-1.507065661385832644e+00,1.552158337387432807e+00,2.907443848310534928e+00
2.266657444555056689e+00,1.798393241979569179e+00,3.270382307289051438e-01
-1.413572375630623545e+00,-5.317480717694677006e-01,5.271861869901284248e-01
-1.104215582942202012e+00,2.494235689508999876e+00,3.711512071070996455e-02
-3.063696298896577908e+00,1.668555929662215886e+00,-8.038441586912293824e-01
1.668421970227266238e+00,3.358471111168067624e-01,1.094230280233298602e+00
-2.964368075037586703e+00,1.869669468653673450e+00,4.875447342647465931e-01
-2.174888060735708617e+00,1.669345279338251276e+00,2.614195660330262072e+00
2.324325340885977198e+00,1.665376454649541094e+00,6.930416092732763966e-04
1.993403828340399642e+00,7.701709206754734360e-01,1.675932251320001010e+00
1.078341252319268362e+00,2.652089940570913740e+00,-1.651668265105051825e+00
-2.782875664348186451e+00,1.247323181625808131e+00,1.869582632718512771e+00
7.275127532790053309e-01,1.814684226863303440e+00,-2.106824143082909107e+00
-2.588574877996319690e-01,2.247824445952748995e+00,2.891703597008964621e+00
1.761966247531305818e+00,2.397435272876195622e+00,-1.002162211561359983e+00
2.546546275660263703e+00,9.045069324982311088e-01,-4.091770191316495414e-02
-7.745715692472728842e-01,2.719746304592917774e+00,-2.198868764621695338e+00
2.456660575455044959e-01,4.229953463843622585e-01,-1.721115697834876057e+00
-2.918472990668232292e+00,1.893604104150355072e+00,-1.107449010263557687e+00
-9.721227530975995457e-01,2.940460166470525660e+00,-2.037378639614485287e+00
2.136171674208880322e+00,1.511373226366266698e+00,-8.776174829481978579e-01
-8.840165315561956394e-01,2.437219411850550244e-01,2.689287095044393450e+00
1.443105493360246516e+00,3.464837061250803263e+00,-5.929554562894293612e-01
-3.145571470284806020e-02,1.811261653005401318e+00,2.990861241336266740e+00
-2.485472587320032289e+00,1.738776023912250501e+00,-1.554746708858601556e+00
-1.227902015274157099e-01,2.548339093106769315e+00,1.549660646467458491e+00
-1.949459005122700928e-01,3.109363883578171173e+00,-2.033674178578244618e+00
-3.746469046996031005e-01,1.928342850335084568e+00,-2.401287972579648322e+00
1.675208754371971587e+00,1.319700795189306719e+00,1.893584086639986230e+00
9.807213800764323919e-01,2.843049200170598478e+00,1.882946130337337376e+00
-5.162257386426689632e-01,3.634077624055782607e-01,2.859960308891116743e+00
-2.658561977367767337e+00,-4.045248371872303683e-01,-2.934892085793406324e-01
-3.313202278419255187e+00,1.731464170849290607e+00,-1.013875854247164032e-01
-2.494080566421434497e+00,2.182850559805881385e+00,-6.057974486812928161e-01
-2.185768775762278793e+00,-4.556562145265326547e-01,-1.203826962070254192e+00
1.086149138515460688e+00,6.132274296881865538e-01,-1.316455130200816059e+00
-4.701374111771552955e-02,-4.865197427658836116e-01,2.270371164898191463e+00
-1.678270842397524776e+00,-5.833127195207878923e-01,3.971085546843973191e-01
-2.695148122999209139e+00,-4.952881848561904166e-01,2.207219388435844309e-01
6.097740874861371507e-01,3.217191322376876439e+00,-5.306226123604872447e-01
-3.299909855869694320e-01,2.305465734831580349e+00,2.364629328362347405e+00
2.018417229519689382e+00,2.197941031958942748e+00,9.180705897673769877e-01
-1.913550604060832994e+00,-8.353928398136163391e-01,1.107936053960119072e+00
1.859048102002537561e+00,1.287238267623801002e+00,-1.554907040416822150e+00
3.316767433749926441e-01,3.313246445436526244e+00,-1.337689498970460411e+00
-2.786206261268944218e+00,2.222152293912844634e+00,-1.022283187555410144e+00
-1.300354555825979030e+00,-2.957339591371237475e-01,-6.218887452921278980e-01
-2.714883337204770264e+00,2.220267222347334091e+00,-9.011206443133834565e-01
1.740189557882369176e+00,6.903871662939007336e-01,-6.299587006898061947e-01
-1.377090749574786388e+00,-2.075033203149370120e-01,-1.162019410372401751e+00
1.059932598312343544e+00,-7.215963236732605458e-03,2.472092384691782829e+00
1.792241233558148128e+00,5.400073579210181718e-01,1.796153605467226966e-01
-1.540242505869408342e-02,2.180203042087485610e+00,-2.275861159714132498e+00
2.203168075811043070e-01,3.060964471232125561e+00,-1.980631366816259620e+00
2.503157489018109860e+00,7.825641924109723035e-01,8.661818497668591355e-02
-2.878612360408310700e+00,1.856764127709956025e+00,4.455037696060942243e-01
-2.110256328614244392e+00,-9.289574496232174683e-01,1.363129720055741734e+00
2.860493405923604238e-01,3.108662054052402368e+00,-1.853072150948209318e+00
-3.984618696290749829e-01,-4.104727190354545141e-01,1.456281716804721293e+00
1.356361391744805411e+00,2.143157720554322410e+00,2.246270108802740140e+00
-2.462698378374814645e+00,7.153950958067019084e-01,-1.392020250620808142e+00
-1.524364917331525238e+00,1.958456143173540331e+00,2.170220905746615081e+00
-1.138094999192887036e+00,-6.366877260544693273e-01,1.367872649490353254e+00
-6.135532617320126336e-01,3.063495437433569002e+00,-1.797950542010682717e+00
-1.423988355482767920e+00,-3.193226692448236648e-01,-9.317629232803914530e-01
-1.599093840373488007e+00,2.110716091143648221e+00,1.554607773889610689e+00
-9.359895371981596934e-01,3.956958518186792229e-01,2.767128156060175037e+00
7.338686034227051014e-01,2.853688793618948782e+00,1.353196546944615664e+00
-1.624512426848529145e+00,-4.294270901949611141e-01,-3.584253756000980173e-01
-2.772491311544116765e+00,1.018805918291432536e-02,7.402418186167856184e-01
2.005374980176439337e+00,1.187342440396514709e+00,1.635248346722158796e+00
1.155888958189640547e+00,8.952125391710070712e-01,-2.226801092462407539e+00
-9.245034737772328537e-01,-2.617865644533955982e-01,-4.065220366664389351e-01
-2.204262330300784889e+00,1.680678059870865049e+00,-1.787270749612351217e+00
9.066501145128960104e-01,1.262139114856491773e+00,2.620367531973492259e+00
-3.341564981877501506e+00,1.795349648242012375e+00,-4.124049114948371564e-01
-1.178363705347268420e+00,2.923235635252960929e-01,2.662620089419947877e+00
2.188390613919239058e+00,2.017140588794278155e+00,3.166550311362005266e-01
-2.137701598208660014e-01,5.513725144031664804e-01,2.810652488568533780e+00
-4.885776386736861987e-01,-3.789065438035901234e-01,1.070756027479918826e+00
-3.224192393670890944e+00,1.392228085160926332e+00,-3.528184326749767181e-03
-7.747411227945453366e-03,-5.117229667985082608e-01,2.599302368416474884e+00
-1.783757770873264370e+00,-5.410572302116543053e-01,2.014221123862789842e+00
-2.503737906101385136e+00,8.401259281444110050e-01,1.990540404269353525e+00
-2.455395836538858401e+00,1.192684574735709324e+00,2.240510689671369793e+00
-1.653581039915914541e+00,2.438928922444441483e+00,-1.752448596435803030e-01
3.880673288824775802e-01,3.279149772670057139e+00,-1.826811380552449515e+00
-9.380156010545747103e-01,1.633700612394670459e+00,3.057059835186793695e+00
-7.534810943587960663e-01,-1.301777587373256252e-02,2.666909702424961726e+00
-1.616211365522317145e+00,-8.613391989109049351e-01,1.624142104862202007e+00
-7.018594770161028229e-02,2.783080324751251666e+00,-2.117443398120856912e+00
-1.500329618527238562e+00,-6.796585660103982018e-01,1.002323554162118047e+00
-1.258975822048490123e+00,5.988024355454771852e-01,2.691044260705806934e+00
6.127709124421390485e-02,1.018464957765825130e+00,2.901715452140861018e+00
-1.311513636866357579e+00,-7.793705930020147221e-01,1.889200799354494142e+00
1.839199780627458480e-01,2.022258691761205540e+00,3.000168287265389200e+00
-2.640317957877022614e+00,-3.053748309615123002e-01,7.417869449425010808e-01
-2.084342141790315850e+00,2.169772229760422722e+00,3.650028320929486481e-01
-2.447813257686501931e+00,-3.462378730507881253e-01,-1.052521239055837610e+00
-8.482801661931129722e-01,2.643013219648938872e+00,-1.417258916193762375e-01
-6.173095415945010211e-01,2.848126535859180741e+00,-7.396330580154039103e-01
-6.717729080645111761e-01,2.373817564448426065e+00,1.524006787167827115e+00
1.873435814150396395e+00,1.592274469011355276e+00,1.735221300523920762e+00
1.763456185569182821e+00,1.584936032596913957e+00,1.848250609341959949e+00
-2.607308391590305252e+00,-4.286005980508250657e-01,5.798537976586667364e-01
-3.354977243123525632e+00,1.737079616595569975e+00,3.421001079759898866e-01
-1.677894030063563358e-01,-2.718157630364390620e-01,1.033732470247155533e+00
2.426357360019498532e+00,1.058457719285683662e+00,-4.398684239280192809e-01
-1.852180463097513385e+00,-6.417534577238258597e-01,-5.524474409952333936e-03
-2.596620143817188531e+00,1.927003513853155381e+00,4.802682857812115014e-01
-5.012892362630635423e-01,3.205822771709093688e-01,-2.152122776112962210e+00
-1.762525635613976682e+00,-5.963689107847145454e-01,2.293018521233129992e-01
-1.985305420352252215e+00,1.681159496588674696e+00,2.762933784440217533e+00
-6.608490601160084410e-02,-5.555885870260500736e-01,2.610632023026882464e+00
-2.289355946221248939e+00,-6.505374794420442086e-01,-4.731802652017395583e-01
1.563653591329655868e+00,3.090147185303275812e+00,1.556073519834030083e+00
-2.992133124794799759e+00,1.577082519868012511e+00,-8.606435515955335180e-01
-2.088734134204144333e+00,5.037789101272871495e-01,-1.830903482044042851e+00
1.800762040388593554e+00,3.543482209909722958e-01,1.178584929650292379e+00
1.030966830566601100e+00,3.068802956734686394e+00,7.552453118681216049e-01
5.623475662381921536e-01,-6.884281077328716254e-03,2.653162551362856725e+00
-9.859349773045632537e-01,-7.679054753879449580e-01,2.175071769481901729e+00
-1.041208440805166502e+00,-9.807198632588073894e-02,-1.081484604837374075e+00
-3.185100185680473928e+00,1.701759680718029077e+00,7.040576151439839059e-01
-1.724086125963978852e-02,6.919119411431900318e-03,2.759394875622094734e+00
-2.343110936536187516e+00,2.250984973108745457e+00,-5.841093667234412701e-01
-2.618481770327687030e+00,-1.699157828715606444e-01,9.793525404268146328e-01
-2.965645995397422574e+00,8.462891134628121037e-01,1.015427331757170260e+00
-9.758270205698163502e-02,1.797259052048778838e-01,-1.105533961143188471e+00
-3.250672469870024894e+00,1.453327239005718585e+00,1.002917561422019377e+00
-1.336467742105908574e+00,-4.348702489116727521e-01,-3.875662281069042897e-02
-4.772709360187008532e-01,-1.433506569531659280e-01,4.382642527555532207e-03
-1.532133064466958183e+00,2.034007715937672156e+00,1.807874452250469943e+00
4.308003053889314371e-02,4.740742422870077855e-01,-2.146988459916902681e+00
1.482254075223844225e+00,2.019184431609389874e-01,1.478360614666649697e+00
-1.834319938618598489e-01,-1.375145245895777746e-01,4.312757686029889403e-01
1.347008620776214194e+00,2.716090613603925785e+00,-1.331073759642648735e+00
-1.650136791044898299e+00,1.919260370465713184e+00,2.148785930960100288e+00
1.923408513613260595e+00,1.508405787044917234e+00,1.635856360156355604e+00
1.753311656087708226e+00,1.503932424632053566e+00,1.851125707653580754e+00
1.373123717754912709e+00,7.325983613305259157e-02,1.995094902837456718e+00
-1.912305536069780487e+00,-8.789715249876651759e-01,1.453929060891872460e+00
-1.900733168372716608e-01,2.763143276000864734e+00,2.122631149531074013e-01
1.448087841503514106e+00,1.331633723986541451e+00,2.216151647170077954e+00
1.376470838661042695e+00,1.813388760454222592e-01,1.327508902196394169e+00
-2.111527838778757271e-01,-2.760488716917911534e-01,1.027499509216652340e+00
-7.978298453998681206e-01,-3.286099340124498114e-01,1.352967502117010667e-01
1.680220938016448340e+00,5.053766383637106063e-01,2.784877409175351426e-01
7.549515341891537279e-01,1.820083865609561480e+00,2.708730185295304960e+00
-1.776922167592595247e+00,1.592858103374864776e+00,-2.091983206906228077e+00
-3.272429157125800181e-01,1.407950410281622711e+00,2.955421891845785964e+00
1.233600519647690241e+00,2.870836793857431068e+00,2.031971313892775743e+00
2.131602652793338937e+00,1.730010833688236715e+00,1.158475490745135339e+00
-3.115691719723305830e+00,1.049447774075239259e+00,-1.028359299077832301e-01
1.058097634336612414e+00,3.289361407794719749e+00,-1.321475665874565664e+00
-1.895631259474455099e+00,2.364253914073834562e+00,-4.921802622618010048e-01
-3.011816543786923983e+00,1.177482340188346521e+00,1.428506059452971932e+00
1.947834882770634435e+00,2.425786194073841884e+00,-2.984738146854650220e-01
3.103574699838639039e-02,2.145671049868392188e+00,-2.269266435018771677e+00
-1.050665915761495040e+00,2.840312188275707861e+00,-1.688058929452703305e+00
7.440817188866178933e-01,3.331994129288971873e+00,-1.008722328889036124e+00
2.502115654950312518e+00,1.027621177348044146e+00,-3.061773759679103368e-01
1.305395820036282517e+00,2.873720256161459208e+00,-1.260244748565960915e+00
-2.962502081646386287e+00,3.815032680210097005e-01,-3.783053561108793428e-01
-2.292550971992369124e+00,2.361200152107107986e+00,-1.732733465706675968e+00
-1.445892394058899133e-01,1.819360507807613603e+00,3.032661725789513874e+00
-2.653737370680214980e+00,-2.943657329149767521e-01,-6.804794746100537584e-01
3.603189909675629243e-01,1.433799597337582998e+00,2.859777316642025280e+00
4.508930904600166878e-01,3.179546568862580358e+00,-6.593091285009851088e-01
-4.621462540992984924e-01,9.509530209495144215e-02,-1.459907306476821098e+00
-2.924876887143532667e+00,1.321774333177419658e+00,1.722690528872243831e+00
-4.722442037969230011e-01,2.835929739240829139e+00,-5.051695040525245872e-01
2.654502569130930412e-01,3.248442162013888801e+00,-1.245833974938147737e+00
-2.633791941413804683e+00,-3.847064490407712256e-01,6.430402001018699076e-01
1.319143937982093950e+00,4.621759343586528956e-01,9.073257413562148266e-02
1.390553587216671882e+00,2.670315797879314168e+00,2.053910684878903048e+00
-3.211439544479311792e+00,1.750486547674049209e+00,9.645955174872308246e-01
1.773249590284204924e+00,1.874713776962636747e+00,1.653364500399353565e+00
-1.713230343455294458e+00,2.479321232959050381e+00,-2.053902585232228795e+00
7.312505046961117472e-01,2.651790535745074173e+00,2.240914446283508443e+00
-5.330576561700027804e-01,-3.861212110808450726e-01,9.949242660025365836e-01
1.133430793944970871e-01,3.085426217390506043e+00,-7.169477018202525809e-01
-2.027762150969236288e+00,-5.202333417186051356e-01,1.758421812743260926e+00
-2.807800488050423482e+00,1.539611437025386831e+00,2.038040296779278560e+00
1.714396781896949884e+00,3.012778611701155906e+00,1.230532277499952087e+00
2.508802726619354662e-01,2.694570846094884953e+00,1.481539379631802822e+00
2.409619816820692151e+00,1.331096700659743837e+00,4.409220891810718967e-01
-2.106369650851982467e+00,1.674804640191397631e+00,2.733017851933924991e+00
-1.829692879032566832e+00,2.027272780665649421e+00,1.452505945847469837e+00
1.188054628547091651e+00,2.860700648124781864e+00,1.951462653802385816e+00
-2.131935419607390969e+00,-7.909762702452954874e-01,1.426719299663373519e+00
2.150837430830562447e+00,1.274925637517308363e+00,-1.028353085247568188e+00
6.945086393371768807e-02,2.539726755785789436e+00,1.896569270512955541e+00
3.117682274327577829e-01,2.558530095580243913e+00,2.109909938619940029e+00
-9.113353047473149449e-01,-1.305611769946978806e-01,-1.044735488320569505e+00
-2.882644623566038344e+00,9.367935906211818375e-01,1.437419372863201650e+00
-2.461274319515297737e+00,2.183450547869434377e+00,-3.643763475842217714e-01
-1.116315651300664236e+00,-4.138914682900751707e-01,1.604336428683864058e-01
1.565119413606197218e+00,9.507886209441643866e-01,2.134643125685518505e+00
-6.942153263586945400e-01,-7.278087653782037147e-01,2.323163830378305317e+00
6.261322427297646431e-01,2.878275944801986785e+00,1.275448396726938105e+00
-1.159410694273199205e+00,2.296230224304054879e+00,1.268352629425775646e+00
4.156683517996416499e-02,2.744705119604011756e+00,8.472104423205423229e-01
-3.070574019263058840e+00,1.967903243923732504e+00,-2.256149692124566064e-01
-2.460403942503323726e+00,-7.988417516447978706e-01,7.674195320168242240e-01
2.522237679506783830e-03,-3.196651106472684356e-01,1.619262879604333349e+00
-2.053493976849506630e+00,9.552040702140689454e-01,-1.879879617206496212e+00
-1.446565776678435389e-01,2.507087715153631935e-01,-1.563100090313169321e+00
8.202397709374834589e-01,1.836978013179159722e-02,1.003480478169993084e+00
1.839159320464532454e+00,1.357584908238065768e+00,1.665138512008691007e+00
-1.723369978495818966e+00,1.094857683096539525e+00,2.671816897259708057e+00
2.125058297332360180e+00,4.584255917939554781e-01,1.121807697048524899e+00
1.449793555235940890e+00,5.640052553205541219e-01,-4.211875011210365338e-01
-1.615174932546731945e+00,7.357694178396979590e-01,-2.185042944675019250e+00
-6.523953704727414316e-01,2.051608554135940565e+00,3.130394875044461678e+00
1.103939356406951955e+00,1.467864396235972091e+00,-2.063445286364108622e+00
-1.195590562566398285e+00,2.383789462914587265e-01,-2.369439007670197217e+00
-2.680001409076674612e+00,1.048974759198875867e-01,-7.365114612754435353e-01
1.135201612855120556e+00,3.111194980669118038e-01,2.997781921391061144e-01
1.586752049537866860e+00,2.939204690182589008e+00,1.776026116348449868e+00
-6.920431172742254056e-01,-2.938213183521510771e-02,-1.099096342868144394e+00
3.405888483454604931e-01,1.787052536908155798e+00,-2.289958492018308700e+00
1.007828001011937591e+00,3.320945045802673246e+00,-5.062180711880805983e-01
-2.209956234819361320e+00,1.707679265561535598e+00,2.425181943438949439e+00
-6.686448274342260412e-02,3.169093057520617762e-01,-1.499309173720832167e+00
2.349311933578512424e+00,8.527785205833894322e-01,1.043856316915613425e+00
2.445854001367560926e+00,8.309505657724173266e-01,-2.993685073405848440e-01
1.536615877795239449e+00,3.378401311413106178e+00,-9.048137807058663495e-02
2.240991477083757122e+00,1.776767950756777070e+00,6.017978423868082238e-01
-6.894858514552870687e-01,2.494095887452365545e+00,8.807216495712892890e-01
2.094136833750976034e+00,8.369340052312105316e-01,-9.011603328981288019e-01
-3.877688638849699498e-01,5.942136761287717395e-01,2.874092067405598083e+00
-2.439327824176414250e+00,1.176716849112072971e+00,-1.508616189278721986e+00
-2.325863145775708851e+00,1.623726666047644152e+00,-1.675419116111114048e+00
-7.655967974844348767e-01,2.480085339656988630e+00,7.783914581964838098e-01
2.072976064126260898e+00,1.905679787587064355e+00,-6.119759170880841870e-01
-2.918682126175910163e+00,6.912744190668950184e-01,-4.324435442329140344e-01
1.331502470825879580e+00,2.004973968364710535e-01,1.185216158616952065e+00
-6.911328734157266840e-02,3.117712498037966462e+00,-1.270267295915793904e+00
-6.566653284662625767e-01,2.251019427736750345e+00,2.052996047864843021e+00
-3.774737961317074092e-02,-4.654803481394594322e-01,2.238736768071929006e+00
2.258363063284821504e+00,1.855517138043852432e+00,1.662287288080168679e-01
-1.776287476882508765e+00,2.017161365988896726e+00,-2.093044751253264835e+00
-2.875628904082644599e+00,4.868868914312005081e-01,-4.605149394184265277e-01
-3.022732847216073715e+00,2.067306520837778994e+00,-5.651774427116187383e-01
-2.798666807351282593e+00,8.348699394064741375e-01,1.547669304529877499e+00
-6.020262603824703129e-01,2.551774447053860584e+00,6.161301323772870875e-01
-2.178380161125623715e+00,7.728692222723679839e-01,2.327827663654196133e+00
2.114808501210157843e+00,2.114553217855520639e+00,8.044574716656555102e-01
-6.330608688774562731e-01,2.056510278006579373e+00,3.126015268090750698e+00
-2.742788127947450416e+00,1.403081056912206970e+00,2.014760191465003736e+00
-2.561024677717981479e+00,2.035554088979145249e+00,-1.509055323096761603e+00
5.903575643891253444e-01,5.461045234010386551e-02,6.546504917557891545e-01
6.633081612783775505e-01,3.241115354481578503e+00,-6.145770090787674444e-01
1.478687466607546686e+00,1.468695004583772334e+00,2.121854137242087379e+00
-4.399978768577630373e-01,2.502265205841620599e+00,9.674024931307771968e-01
-1.961990649375160878e+00,-3.025156436137514393e-01,-1.402520785460736219e+00
-1.730190035935715853e+00,1.872400865755767585e+00,2.232096058621462209e+00
-2.735206773717899775e+00,-3.173600274294751666e-01,6.512277203638583423e-02
4.170428869336715305e-01,-5.103693276234236298e-02,1.073737539174085098e+00
1.083182410344715629e+00,2.934875856062750255e-01,2.475333420585570821e+00
2.102501107261074864e+00,2.208236511171221661e+00,6.601859585279674647e-01
2.352606909413989200e+00,1.417454342726534255e+00,2.340717601599878184e-01
-1.389892410739413720e+00,1.442015003374160331e+00,-2.194109941825824528e+00
-1.214141112032539188e-01,2.639920636636141182e+00,-2.145831493348775876e+00
1.505330995793290993e+00,8.544332956860425377e-01,2.170687761879274369e+00
-2.717719392840592718e+00,-2.437504706620591821e-01,-2.472230426908737511e-01
-2.277759362519499398e+00,-3.137105116572177499e-01,1.631543501862576129e+00
-4.751252329418831910e-01,2.397152749863294741e+00,-2.254170981666384410e+00
1.948505567107643444e+00,2.557745864333834440e+00,7.683908471586773370e-01
-2.630864483357597372e+00,2.267433719565429939e+00,-1.321949696546768527e+00
6.663694744789203650e-01,2.259590332462469153e-01,9.467977759854982744e-02
-1.567106432811069539e+00,5.892940927604878310e-01,-2.262729861680845111e+00
-2.846289022971224103e+00,5.356341966913557018e-01,-6.409312327249295782e-01
-2.385336234766684438e+00,-8.246978092779414515e-01,9.305774247400204757e-01
1.101320532636031801e+00,3.194633955206457543e+00,5.590087123107381206e-01
1.027602099844484140e+00,2.973768881788384721e+00,1.381007149451488392e+00
-1.058136378741744377e+00,-5.423627961734054370e-01,9.105430536971238498e-01
-2.661185430050187151e+00,-6.398354095256630902e-01,3.211909740142762648e-01
-8.766804541839713638e-02,3.080061206720587474e+00,-1.122862422930354764e+00
2.438775767252018833e-02,5.758299731525778897e-02,-4.487670800184542230e-01
-2.079013293626321701e+00,2.433246202119664581e+00,-1.184051959671506893e+00
1.541280978206117869e+00,2.696086237458741763e+00,1.876836432554080503e+00
-1.719836297651001766e+00,1.244976283816599860e+00,2.776329418390365955e+00
6.655010675756012350e-01,-2.148598853716452428e-01,2.320663009981614344e+00
-1.410510318991993195e+00,2.116307732013051890e+00,1.879871752866442369e+00
-7.407422591022743141e-01,1.314183891731765197e+00,-2.443362631911172755e+00
2.145009387080664798e+00,1.773791602605019113e+00,-6.422916835637814126e-01
1.915884269633636228e+00,2.812945660359176703e+00,-8.741044433487878129e-02
-1.631929847443668979e+00,9.253399268855555526e-01,-2.129893532899203468e+00
-1.339447672825130331e+00,-8.537524409144472970e-03,-2.148814682484500249e+00
-1.736622403495674094e+00,1.100101992553361052e+00,-2.076543232501471881e+00
2.105524503722341567e+00,7.109441114774731618e-01,1.629675541202836531e+00
1.310353585011668764e+00,2.232909853273482848e-01,2.376025296022289623e+00
3.302009412920210996e-01,6.439355980051151285e-01,-2.596602341370553457e+00
1.838219721288019137e+00,1.649114364371614183e+00,-1.323879175740687808e+00
1.115060470582285745e+00,2.860634857395012443e+00,-1.535113926970560705e+00
2.387713044746730962e+00,6.919689407984058738e-01,1.445955227534386489e-01
1.764292448229670685e+00,1.873121963895752806e+00,-1.210062259972497500e+00
-1.231527488394650094e+00,-6.717577949224329270e-01,2.264772051196351832e+00
9.290036181429973672e-01,2.008172412715137689e+00,-1.956403918579670664e+00
-1.154700631457029392e+00,3.805440595970901313e-02,2.565921673761065946e+00
-4.946523538254954389e-01,-2.018006173749704035e-01,2.701916889348359163e+00
2.140764958731856904e+00,4.516195357916412134e-01,1.675586435864247603e+00
3.723992265693124026e-01,1.249390927908020421e+00,2.802697830406189805e+00
2.092282285259293939e+00,4.975624126350449705e-01,1.598696909189982973e+00
-1.522212857491743510e+00,2.326126704025382796e+00,3.797840207505414067e-01
1.416682311919311488e+00,3.380450036462727681e+00,-3.145544177140628950e-01
1.647010865931944013e+00,1.401422210994785589e+00,2.030535672530568103e+00
-2.566358067569417756e+00,1.682556439333169562e+00,2.045585763407125945e+00
4.896643506845589633e-02,3.336305791879927152e-01,-1.812977618212744613e+00
-2.835368531636471179e+00,4.435268447122793223e-01,1.078447873359504205e+00
-3.292744034877225889e+00,1.653599384210968193e+00,9.915422357773531203e-01
2.509955230740681831e+00,9.895807121821471597e-01,2.712433735554284908e-01
-4.104271442453396451e-03,2.551018246861638250e+00,1.667107347981148013e+00
-2.947167900307591903e+00,1.303507817804559821e+00,1.601597016298228038e+00
1.001329694881309962e+00,3.334210597227249107e+00,-4.655253683194831016e-01
-1.100794727437226506e+00,-3.587202811684065407e-01,-9.199408230682011578e-02
2.044462989432632494e+00,2.379627148065471598e+00,5.261895796964696226e-01
1.460827389178601221e+00,3.169961993091466645e+00,1.009650454745544268e+00
4.947476904920387608e-01,1.420843076275137527e-02,8.202040704206164934e-01
5.041141227816305082e-02,4.764000029536711311e-01,-2.276730610941479327e+00
2.668105209358396790e-01,-1.549418941397198539e-02,5.550468359755490466e-01
-3.770193954815843629e-01,1.680426985150422325e+00,3.030089314766754693e+00
-3.143929008013413462e+00,1.936885466198675854e+00,-3.797543196937593346e-01
-1.339664336249815957e+00,-4.762673869283143985e-02,-1.973560935130806326e+00
1.062399055206054016e-01,3.053487326844190441e+00,-5.565969786677372744e-01
1.574716351519998003e+00,3.183708243394362647e+00,1.026966978924147567e+00
-2.888688259966131211e-01,2.542743596521438221e+00,1.132512726771482514e+00
-9.893321882950285584e-01,1.461147851761696037e+00,-2.375821072887960295e+00
1.492112940755177419e+00,7.915920541366426866e-01,2.274816093426109909e+00
-2.169468305693192711e+00,-7.540501889743221886e-01,1.379629328289003531e+00
1.380506307461448978e+00,3.308766210881434744e-01,2.291986353183998570e+00
-1.587964597772242969e+00,2.693856892308852835e+00,-1.722147145420928283e+00
-1.979984195213247755e+00,1.972916501939970368e+00,1.267424110431128126e+00
-2.604539001822118394e+00,4.140212419737243632e-02,-9.869991393479575770e-01
1.090334637187553163e-01,-1.221379592041762219e-01,5.936371671168721997e-01
-1.068465628130024658e+00,2.420348237577515160e+00,5.275639657670586624e-01
3.036177960515398788e-02,3.215900877445159622e+00,-1.656171597827134523e+00
5.714078475889989850e-01,2.857021963517683449e+00,1.091786974852239078e+00
6.920418055492346676e-01,2.992126880394217370e+00,8.426933391703199661e-01
7.035878309724195034e-01,2.739001847951140434e+00,-1.824695032391194571e+00
1.321383002312910726e+00,3.274477113008717133e+00,-1.026486564200342455e+00
1.722246071589859762e+00,4.633310615148595324e-01,6.733623656897628207e-01
-2.536412218626503012e+00,-4.510039003156476323e-01,-8.112615607026519848e-01
-1.247999063757135874e+00,1.049013975086641182e+00,-2.362905343197446495e+00
1.988708204017646475e+00,2.550849877365136908e+00,8.335017461782711079e-01
1.955780384882447764e+00,7.448981741740291485e-01,-6.084685334545640867e-01
1.796810266262696354e+00,3.070065674226228225e+00,-1.314052783709977745e-01
1.803259261198413954e+00,6.551164886924292219e-01,-3.508626782983112480e-01
-2.414887279672457865e+00,2.251531446526824798e+00,-1.596743956857954450e+00
1.227171420970538801e-03,-2.722952273233461007e-01,2.708174606460706180e+00
3.672202002617522831e-01,1.591122045949924235e+00,-2.301552166921814191e+00
2.242169994163140334e+00,1.110673551028410477e+00,1.198909115914405854e+00
-1.963357371779985705e-01,2.977086271337564316e+00,-9.454182744180136266e-01
-1.167508213963681651e+00,2.252931818161815869e+00,1.414404824885571399e+00
-3.129323183574082012e+00,1.917892786327155541e+00,-4.824712380321977134e-01
-2.096095937144032639e+00,2.365253836761493922e+00,-1.024316155565902164e+00
1.531974749980864026e+00,2.125198924783327392e+00,-1.451272591819423807e+00
2.124322331296954580e+00,2.215038827337172833e+00,5.098476785674443956e-01
-1.802486333713667621e+00,-4.046753364329459535e-01,-1.053592245851349585e+00
-1.350890477498471576e+00,-1.646310673893608967e-01,-1.361011569051758352e+00
8.630556372100530726e-01,7.728729575308733724e-01,-2.238459083798150395e+00
-4.310824085925449856e-01,2.808727287055534649e+00,-3.564227488532829557e-01
2.849469805407985890e-01,4.750853281043174170e-01,-1.581953885811003158e+00
7.573072384508714450e-01,-5.471665411052882566e-02,1.593665068100137416e+00
1.474171207187840338e+00,5.548656761160333240e-01,-3.632440407848569475e-01
-8.376931538057380555e-01,-8.019517774344299410e-02,-1.248765871610319156e+00
-1.951835545760182367e+00,-6.452923048812384543e-01,1.847038929495272042e+00
4.976423119843672582e-01,3.592951691207086906e-01,-7.833742946098034565e-01
2.036504568478852306e+00,9.368816588614417018e-01,-1.429052356152913816e+00
-1.280390652672330098e+00,-7.701380213107043016e-01,2.322687151479450485e+00
2.245952284648224495e+00,1.578136880555576882e+00,5.023076382065451151e-01
-4.752345895064882253e-01,2.454058687094378577e+00,1.395758325415815682e+00
-2.889565175164285904e+00,9.928153496529276145e-01,-8.175994182685518696e-01
-7.825676109003383285e-01,-1.689014470780334509e-01,-4.294995971830672388e-01
9.971237825967436130e-01,-2.707782552509501589e-02,1.754374661928484791e+00
-1.977072869710558845e+00,1.919694856656795068e+00,1.624509018887867029e+00
-2.858098600594737526e+00,1.160893608337300265e+00,-8.635224910443235480e-01
1.418470517756715399e+00,2.365219980463665550e+00,-1.293286390744379899e+00
2.704171653291932431e-01,2.501828807203740013e+00,2.560872844953539840e+00
-2.443878392137265543e+00,2.144884895336264918e+00,-2.598290229822327047e-01
-1.097443586822957284e+00,1.032815319918447106e+00,2.923202119825465406e+00
-2.060030504748231905e+00,-4.038274899092192949e-01,-1.452649280228419881e+00
-1.857029289623899571e+00,1.960425257094523532e+00,1.611407348589989130e+00
1.166402546816588948e-01,1.905200243877752442e+00,2.946548969239926485e+00
-1.690866286075761282e+00,2.683560352751767741e+00,-1.564813683670180477e+00
3.989134693936874920e-01,2.545293223349243128e+00,2.552737259189142183e+00
-5.297554792050225281e-01,2.516370686525596145e+00,-2.180243360975012035e+00
-2.432027864621240987e+00,-8.800750589068881968e-01,4.268375867178340610e-01
-1.974295733348959692e-01,1.536707463888939085e+00,3.001506843250094647e+00
-6.753727903781382436e-01,-9.147949134478763900e-02,-5.633849256780023573e-01
-1.576200579386241918e+00,1.930068574281360139e+00,2.172426926277080117e+00
1.787037445290293070e+00,7.852989111545851664e-01,-9.267345621555810320e-01
-4.983057473572909957e-01,2.124234197649724987e+00,2.922454477549205620e+00
7.143291979274561943e-01,3.283458003508170631e+00,-7.071946330844753881e-01
1.027860464305823340e+00,2.804395691547679093e+00,2.297609654343824026e+00
-2.292431940204777252e+00,2.973325982549200885e-01,1.925541890652187504e+00
-1.385316458395837412e-02,-1.741921617959028556e-01,8.200466107698018980e-01
-2.748659225284364016e+00,-4.337606578902090254e-02,-3.396476076060369054e-01
1.150981710054081342e+00,4.048451069744554015e-02,1.529307653217581331e+00
-1.407653403736966569e+00,2.161022209559382290e+00,1.483660956488680460e+00
-1.692111687715327939e+00,1.626657354333839456e-01,-2.143685343462465198e+00
8.355753437625228486e-01,7.091101780185186110e-01,-2.249172642688430646e+00
2.405288514598296956e+00,6.472969770839503978e-01,8.057466095592636934e-01
2.032039115144323171e-01,2.909710297233729648e+00,2.040430473164964176e-01
1.312776788476497369e-01,5.590377392802809986e-01,-2.571193018234448235e+00
-2.404463410743019836e+00,2.343579419764096006e+00,-1.683871668770688723e+00
-2.681462485102764415e+00,-2.299880701534050553e-01,9.875846504234092604e-01
-1.627890170907015266e+00,-4.912645371442887765e-02,2.342490594426512196e+00
-1.743687745070953365e+00,-5.674860073462578702e-01,4.154272927162395296e-02
-3.236568130837531143e+00,1.427610694432518423e+00,-1.537867752434660951e-01
1.600187741924743889e+00,1.449824479863357718e+00,2.055894934007432617e+00
-7.414828151708711956e-02,-4.665384274456556568e-01,2.155665600179729857e+00
-2.473947646466869710e+00,3.376213392302894745e-01,-1.322791413061873422e+00
1.846695707546664345e+00,2.828117189820899657e+00,8.104582086581267886e-01
-2.810393122400904442e+00,1.969378931920215070e+00,-2.234376353873210319e-01
-1.832544967320344442e+00,1.929671436458135769e+00,1.803273053168836348e+00
6.070601221789263535e-01,-2.853357609282192175e-01,2.559267834868292901e+00
-7.084228110281923230e-02,-5.033770062457001426e-01,2.330528342006648490e+00
2.123265434178528199e+00,2.015393924943938320e+00,5.112059782307807332e-01
-2.721984825459028423e-01,3.104806803498741719e+00,-2.067271341120015204e+00
2.294336336052739345e+00,1.463950707331433509e+00,9.573457166323180445e-01
-1.068379204147303030e+00,5.216132231145255149e-01,2.793036872447922203e+00
4.722151508445810997e-01,2.888693483764079417e+00,6.296577235650554494e-01
-1.498965198721074588e+00,2.707308463381397634e-01,2.546435514066697881e+00
-9.989374657980218952e-01,-3.961969873323863828e-02,-1.495317637776380826e+00
-2.024827218606996659e+00,2.195993081457197516e+00,3.909132430917917067e-01
7.332974579024198469e-01,1.991679681668603763e+00,2.701564723015883462e+00
-2.323623640083428032e+00,-9.355058072303495953e-01,9.936074531464966775e-01
-1.927344980159301668e+00,2.051178366272599973e+00,1.108122952941368977e+00
2.035110000701934485e+00,7.664030907914924917e-01,1.613698919050012393e+00
-2.828577562291302860e-01,2.529800776104937921e+00,1.485078325151979239e+00
-2.752455782804474449e+00,2.654248237858338744e-01,1.258201011260729141e+00
1.928002024486143162e-01,2.364829859196967629e-02,2.720417706907364064e+00
1.229960783967293386e-01,2.873034943365774474e+00,3.643070192830961673e-01
-1.496023587532490984e+00,2.126525964588540152e+00,1.378410555999783904e+00
-2.595135623695938420e+00,-1.244762989476402709e-01,-8.844098686018254662e-01
-2.242490808626904641e+00,5.638172293423621140e-01,-1.698359071507878904e+00
1.530656074831252544e+00,2.139801112054311449e+00,-1.490880515735534484e+00
2.194457530143240742e+00,1.935415732263494171e+00,6.575727753660580710e-01
-1.131460212648347730e+00,-4.995061981635332549e-01,1.013243357648740517e+00
1.657636555345458840e+00,1.328717243396979164e+00,2.060867681274297869e+00
1.446156638257505733e+00,1.845399575086526855e+00,2.141786660278172327e+00
-2.871501839144247725e+00,1.690417978338224714e+00,1.278892883787276835e+00
-8.325534626188652032e-01,2.840966817871235506e+00,-1.013002389068865527e+00
-3.185873045827316563e+00,1.083307294107538565e+00,9.892817876323005410e-02
