3.187144176988678801e+00,-4.242925272344256982e+00,3.959297878335671150e+00
2.920034658824044005e+00,-1.622370153980417617e+00,5.280280374000576593e+00
3.264269436398334445e+00,5.435491811586641298e+00,3.031037723801231820e+00
3.448761898112970403e+00,9.517368560079830786e-01,-3.816494514431346019e+00
5.011737941078514780e+00,-1.124209139803692414e+00,-2.416335206724699258e+00
6.233032522162861300e-01,1.757220575203281454e+00,-1.401903199914836362e+00
5.955524893072442261e+00,1.327901114443218900e+00,-1.757493833479720560e-02
5.683222638599263021e+00,-1.820675387211227125e+00,-1.584417599986224889e+00
3.544398543123627565e+00,-4.411681576848700992e+00,1.908322812817888903e-01
1.743621866644092799e+00,-1.139031505113925924e+00,6.968892672090368556e+00
-2.555606125724083189e+00,-3.938665260194972872e-01,3.560328118646344020e+00
-9.065386447254875080e-01,-3.101243191063514981e+00,2.089455951544749279e+00
-1.526526735818199310e+00,1.968341688204173101e+00,4.836171420708254232e+00
2.750340451582498513e+00,-3.358412541722734179e+00,-2.685722465329647424e+00
2.176706486118195727e+00,3.477994242467550734e+00,5.018252587143821941e+00
3.008946105071648613e+00,-3.958984257955069808e+00,4.454529216434956140e+00
4.348399388316236625e+00,-3.770525757336474104e+00,-4.182169662918999165e-01
1.554602402622664359e+00,4.143646187943859083e+00,-2.477527574011319178e+00
-1.309564782357134582e+00,-2.500105974456691138e-01,5.329424080609552306e+00
-3.793071493662273676e-03,-2.049325321377597486e+00,5.252842522142479043e-01
4.174742369739480097e+00,1.745206485428721088e-01,3.076552892971977649e+00
-6.426462455692676101e-02,4.779634181873996468e+00,3.077100591642957461e+00
-2.327690632159182815e+00,2.781778118643188247e+00,3.723763605929104159e+00
-5.115757399284506235e-01,-3.401510394335125476e+00,1.578573565449660210e+00
3.545918772211425374e+00,-4.481169222029331323e+00,2.618272511692760762e+00
6.884722547641576318e-01,-4.384806344293012081e+00,2.264326301829524823e-01
-7.552901221268571996e-01,1.081773580479450825e+00,5.610835052984091575e+00
4.859853237297000472e-01,-3.813724482474277533e+00,3.464637956893615311e-01
1.434873741719896900e+00,-4.832688196776144945e-02,6.876579514200688692e+00
-1.887491393740085899e+00,4.825631792360935424e-01,2.737904692367014281e+00
5.881693948041364806e+00,1.057858299029390131e-01,4.178921203376076421e-01
6.178502807801378616e+00,-2.822170305436894733e+00,8.540288757689670218e-01
2.307719319081556808e+00,5.438087155920021232e+00,3.549536033511833555e+00
5.535493792523346279e+00,-1.323409022515912747e+00,1.299458310795657656e+00
4.067846477922690163e+00,-4.317646436089359163e+00,3.652607280234945630e+00
4.113527008681176156e+00,-2.827029849961887109e+00,-2.088488353013671972e+00
6.810989203693933902e+00,7.974359176114467207e-01,-1.429401595381944112e+00
1.803329973206168946e+00,-3.189390316994262342e+00,5.610240429648060356e+00
4.233556951276063351e+00,5.321842011636959136e+00,1.669783138254709698e+00
2.784070696743317530e+00,5.026495128904151954e+00,-6.957297069162364789e-01
5.330166081700467906e+00,-4.004730953230595247e+00,1.642624943111625102e+00
3.595121415663311115e+00,-1.375875631029986668e+00,4.321765322652014518e+00
1.831116520721525642e+00,1.915209367660694717e+00,-3.021702362126467367e+00
-2.653742461763439753e-01,2.919616332506875800e+00,5.282532475553013640e+00
5.050618885822926174e+00,5.225155209947852653e-01,1.639458856318533497e+00
4.387899571920761410e+00,-4.167095756270079221e+00,6.057400931805929645e-01
6.378347260683424613e-01,5.177421409978332889e+00,2.695534792886335129e+00
4.000340429738173498e+00,1.693334866415576734e-01,3.336324174505214124e+00
-1.730633546946395596e+00,1.904301051558746849e+00,4.667998841913874486e+00
1.732545725791831082e+00,-4.116725945260180097e+00,4.072941939647277465e+00
5.292438115560899270e+00,-4.223132268087293362e+00,1.954299709474111468e+00
2.232548629903469362e+00,-4.711656979913006360e+00,-5.122192832639030913e-01
2.115908628520328794e-01,2.074227361012279225e+00,-8.833288736114028872e-01
5.273000298563468746e+00,1.477802651330831996e+00,-2.397759453304223243e+00
3.329837843140345921e+00,2.219070952841205591e-01,4.084971289003555661e+00
9.648885619465875640e-01,5.309703926399974350e+00,2.414380452708431157e+00
5.859077719488292146e+00,4.074634212951915302e+00,-3.724991268886637674e-01
1.529890776132148300e+00,-4.675359565502714143e-01,-2.102683064924702805e+00
3.168351586576990897e+00,-3.780594192424139965e+00,5.169808184091501779e+00
2.451733479006101835e+00,-2.390292264880184536e+00,6.266593978291759903e+00
-4.120738909043529519e-02,3.380933675755302570e+00,-8.821785082994079152e-01
1.781650373762608375e+00,-4.825279369725036238e-01,-2.448408774709650348e+00
4.901165821879549078e+00,-2.412198131556676284e+00,2.493198655731143631e+00
4.352851489813180486e+00,3.366000591743033787e+00,-2.059730421142023093e+00
6.777549149806205264e+00,-2.507212535522854502e+00,7.547858962411741618e-03
2.648031967212910676e+00,-4.623472099611875663e+00,2.099915425961351723e+00
-2.021558420547610258e+00,2.437933771710470321e+00,4.127464847676419524e+00
5.710213007268325924e+00,1.241946804884798139e+00,7.353587832014305548e-01
4.477387324399096924e-01,4.433486425836503653e-01,-8.154151287719793029e-01
5.522692016414886496e+00,-2.983262398665113668e+00,1.891065388250370516e+00
-1.314277387408772313e+00,4.439001312087352602e+00,2.198043618476865468e+00
3.736077110929929002e-01,-4.754034529529970854e+00,2.282690786357278512e+00
5.768487718775000772e+00,3.480685050838085992e-01,7.744673506268170415e-01
-9.218764531187825240e-01,-1.860210927271139791e+00,1.845964509131615916e+00
-1.239715478861038722e+00,-1.463724636408417545e+00,2.044714190630826600e+00
4.175441920995697664e+00,-1.055811557831195291e+00,-3.122370572763329299e+00
1.090542114895068693e+00,-5.070108204639929284e+00,2.821305303644334739e-01
3.299207422989606453e+00,5.153890692310587163e+00,-8.635964896232511956e-02
-6.961086801416575820e-02,-4.380060543145734897e+00,1.350494114818427960e+00
1.281203699638025162e+00,-1.228075335814079239e+00,-1.588058394116348415e+00
2.607518210852452167e+00,-4.659587048049098179e+00,2.186503873498412798e+00
-2.225753340618815468e+00,-6.331264302358299290e-01,4.637815986454739914e+00
-1.019118875343890895e+00,3.558075448896745652e+00,4.120882365851545437e+00
2.153850492712051423e+00,-4.740889506906583506e+00,6.338314950745718157e-01
-7.499696074915304100e-01,1.246505075427207565e+00,5.580900845161820278e+00
3.166643718621226511e-01,-2.568304204932270740e-01,-4.144460740737252458e-01
6.300224367026763250e-01,-4.977255333609983623e+00,1.036087689108807108e+00
4.582584234856722283e+00,2.509967022071932341e+00,-2.463757059209350953e+00
-3.465103143571121591e-01,6.712201413820929607e-01,3.982723450133529575e-01
1.279290929047490977e+00,5.038138386701037419e+00,-7.744748037354595160e-01
1.860153459616577187e+00,5.585370586822331340e+00,1.359996767019047370e+00
3.631057072931332286e+00,2.879296721309776430e+00,-2.887447023421654713e+00
-2.593988593843317148e+00,2.574709482692230988e+00,2.988672347811433649e+00
4.420169222124870068e+00,2.917581196695488099e+00,-2.392204442841842749e+00
6.641652336971960224e+00,1.225857253546968506e+00,-8.464151979747978061e-01
1.258448226383068524e+00,5.385188414228104570e+00,2.730537128567099292e-01
-1.708887242076509771e+00,4.184939575258674438e+00,2.618108981141799241e+00
1.174214859091043728e+00,-4.066037900977332420e+00,3.885371496843867067e+00
-1.398692323640537749e+00,-3.193238166378336462e+00,2.893279321523836156e+00
-2.651152385999126171e+00,-1.411530955780011753e+00,4.238762045445366944e+00
1.996532599482187198e+00,1.518760680224809645e-01,6.120657541542047220e+00
2.021669647355243793e+00,5.277604737108864796e+00,-1.520385804199547164e-01
9.259231843288322494e-01,-4.951776481836584587e+00,1.383574879748964204e+00
3.348940673659359657e+00,1.732871245986271402e+00,-3.574067232929019511e+00
6.365740367236265129e+00,1.514601738532453945e+00,-5.141285074951832401e-01
-7.048280670330349107e-01,5.008884043991961299e+00,-3.309895633342846977e-01
4.333396852472896299e+00,-3.732569061774665187e+00,-5.689895988538895555e-01
2.483654904087982285e+00,3.842873933473704096e+00,-2.465447877033508206e+00
4.649193482148867851e+00,3.900188904686249902e+00,1.521704918553000274e+00
-2.120753675047956754e+00,1.695291315354872097e+00,2.468591206351101963e+00
4.461436813925527822e+00,4.541766544011308859e+00,1.436873216487839500e+00
2.287281887401448444e+00,-3.825368300653458675e+00,4.582200766679219051e+00
4.956120200137712928e+00,-3.552858292115105954e+00,-4.966302932006623760e-01
2.277787796637515960e+00,7.662778316529089695e-01,5.570842830617269925e+00
5.821493941075196688e+00,-3.227603270261696800e+00,1.605962477695208612e+00
5.857253626591344187e+00,-2.843283267652805701e+00,-4.681950447120568071e-01
1.224968947468778380e+00,-9.289044416132411497e-01,-1.613633052377019705e+00
3.441349020500403810e+00,4.811645659505459527e+00,-7.818209620654729131e-01
-4.116413511647235013e-01,3.221699648287955853e+00,4.849441057390492915e+00
6.153389877799100738e+00,2.635013489604921322e+00,-5.418808009649161983e-01
1.004890776679947750e+00,-4.203248837224045964e+00,-3.217559853211892640e-01
1.086458083088167825e+00,-5.040789230865501125e+00,4.019239241233115156e-01
-1.847951983772636142e+00,2.796247834460557691e+00,3.974275669758361218e+00
3.783560936744823078e+00,-3.801986759065790533e+00,4.543003421378681850e+00
2.982821292095404697e+00,5.002020730235454238e+00,-4.133311367013478566e-01
2.237059954206927603e+00,-4.541507461038885474e+00,2.792506347946408507e+00
3.969849109448876590e+00,-4.440484251031569407e+00,2.767540298052746817e+00
7.192303936981331303e-01,-4.421261859761990820e+00,2.993698450419804757e+00
3.839824478781435069e+00,-4.478972387438538760e+00,2.325930706471003528e+00
2.987950008796498302e+00,-4.353252676111482700e+00,-4.758367317848586908e-01
-2.008949693416590687e+00,-4.456171006253074607e-01,4.679023391006454702e+00
3.480456393278107186e+00,-1.592581854028374488e+00,4.430068283362103898e+00
6.777499169541785218e-01,1.650560915668304041e-01,-9.656892138181910612e-01
9.999362516290517533e-01,3.028031631165061244e-01,-1.499057557009794595e+00
-1.834846211050804365e+00,2.427182573662732157e+00,1.986129368684061536e+00
4.435234358991315129e-01,4.849974276323534284e+00,-1.689158069824948205e+00
-1.303421660344044941e+00,6.598990342717070412e-01,1.762607324341836312e+00
3.276673427490033319e+00,5.492980695978832095e+00,9.969322994472471500e-01
3.450763568322676722e+00,2.235536147816382435e+00,-3.398744535274086154e+00
-1.391015647140884659e-01,2.496386001621859752e+00,5.630282005746773955e+00
1.687656257608763477e+00,5.158631699867958886e+00,-4.851653443484622574e-01
3.656054682870145012e+00,5.646569601309489705e+00,1.343466117006305360e+00
-2.325048870187685690e+00,2.849946232905431476e+00,2.729190850700197846e+00
5.740767533272740586e+00,7.497638028641607777e-01,5.569876712358650117e-01
3.997856928283128664e+00,-4.343387159259082253e+00,3.438545474447779249e+00
9.709453584927086878e-01,7.109131079545715215e-01,-1.740848018093517524e+00
4.882728038811224636e+00,-4.339266635540244721e+00,3.261786326827081250e+00
7.612188682195005773e-01,5.274798491342326479e+00,7.142891568092784027e-01
4.454385226994789448e+00,-6.997902445104758895e-02,2.752873339653362450e+00
3.685536839409554233e+00,2.272974595208777870e+00,3.152038644456883976e+00
5.381499886578827940e+00,2.122511904397698768e+00,-2.192612721929630304e+00
3.427912686066633352e+00,2.460512553063811114e-01,4.148936526817383452e+00
5.063544488954142331e+00,4.798498948276928466e+00,-1.947350985102805632e-01
7.101080733188211092e+00,2.210097169577926179e-01,-1.109659066726831567e+00
3.684732553262893284e-01,3.720579728438152767e+00,-1.516111110233779868e+00
2.408909350733305033e+00,-2.764773898471241775e+00,-2.731414041729175679e+00
6.046572924990804232e+00,-3.048638679917820227e+00,-1.448202301091184620e-02
1.131659696919085079e+00,5.293759147433409140e+00,-2.289143467427678658e-01
5.875645130177220565e+00,1.815048851446231515e+00,1.619975790078737043e-01
6.681273788840815797e+00,-1.607786729274336190e+00,-2.002649354243756230e-01
9.263536714541652506e-01,5.307785677891109444e+00,1.447098478504909691e+00
-2.953800388142833633e+00,1.937455034732790127e+00,3.592940693605533031e+00
6.183642481431746774e+00,-3.393181713469660910e+00,9.937033178437751912e-01
4.763023275121303968e+00,-4.385453635901068736e+00,3.059133097230232412e+00
3.354727358259125936e+00,-4.609356381569854832e+00,5.957975897530235487e-01
4.007443923704536282e+00,-5.556460333934137852e-01,3.443709755757308866e+00
3.801420047854923379e+00,5.000099854381225839e+00,-2.378648394318484960e-01
3.244511867947938999e+00,-1.911958384193806371e+00,-3.586108048823435812e+00
4.507518100518443482e+00,8.964512631110748142e-01,2.187007401245367522e+00
3.496246921842576794e-01,-9.016298652045438011e-01,-9.790146001443590651e-02
3.044807387646859542e+00,-4.531212214982694775e+00,2.552839170702567717e+00
3.029664927630880022e+00,-3.941036701087608507e-01,-4.164972233040671767e+00
8.895388692644493611e-01,-4.673564016827984169e+00,8.635748557307336079e-03
6.021290765158902936e+00,-4.595883612970825816e-01,4.630427807234879234e-01
1.772717649928954309e-01,-1.648957963204222610e+00,1.835681842168746247e-01
-9.886919997972088980e-01,-3.635447342645065305e+00,3.357279857760428587e+00
3.512154315063092280e+00,-2.769093050063905714e+00,-2.626263414846174982e+00
-3.814181424697279388e-01,4.983843709587542747e+00,1.928612687304432249e+00
3.616646306610509232e+00,2.851966509721600929e+00,3.031527403321508274e+00
1.988026191209648186e+00,5.276020277243420153e+00,4.582239002022703844e-01
-3.422321351045608945e-02,-4.685019055661976850e+00,1.251800770517921269e+00
-5.801662360848048872e-01,4.711806868191141362e+00,2.306542258813915947e+00
3.687655430732435846e+00,-4.360490196426690446e+00,3.761475601396312651e+00
-1.044922529418079948e+00,-2.136820000168392131e+00,2.204709549261016033e+00
4.935318614613859900e+00,2.815791798494396758e+00,-2.070409543376630968e+00
6.626605165391832308e-01,1.094089762862118009e+00,6.655361119177470641e+00
-1.863811249559758076e+00,-2.130043456924040901e-01,2.812259316820525878e+00
-1.853396475217392148e+00,2.497212393310044298e+00,2.002254985325419234e+00
1.187000935189564288e+00,-4.599692816875117884e+00,2.954406385565899296e+00
6.994110696707370067e+00,-5.857804527305962017e-01,-8.702489364502760116e-01
3.551603265446297009e+00,-3.753806139506084438e+00,-1.161771661513574694e+00
-1.983159970246114678e+00,1.342045456681058457e+00,2.596263063571198515e+00
3.961225276289290331e+00,5.427181776352572484e+00,6.125703918110176893e-01
9.715238414208327011e-01,2.271337630560650300e+00,-1.857147574286192704e+00
2.153504811829391574e+00,-1.198088278871373813e+00,6.347853920730837096e+00
4.084156021116872815e+00,-2.319262125495088700e+00,3.810809660246139874e+00
2.805053534913873214e+00,3.735822063519549818e+00,4.197895719876835408e+00
-5.933593124600884394e-01,2.608208311447657302e+00,5.246045151857908984e+00
3.271240866343303022e+00,-2.244935326694099675e+00,5.085793362201701306e+00
7.203412804013625825e-01,-2.479311109180759587e+00,-4.011860748775358254e-01
1.743349520218062665e+00,-2.139615027624561794e+00,6.420895967206082133e+00
1.334016671771545814e+00,5.347810425424885494e+00,6.324208097870003265e-01
-2.693754189861300219e+00,2.826672330570677794e+00,3.162066382390343211e+00
3.490555651901806833e+00,-4.423977624642586370e+00,3.044329609373874757e+00
3.500814642010845468e+00,-3.076490153112136916e+00,-2.358439615980647552e+00
-4.787624037626350137e-01,-3.599430165285277372e+00,1.619046463839364236e+00
-1.439682155261230889e+00,3.420310105126674216e+00,1.277707853712150676e+00
-7.967882434275933567e-01,-9.006268897758177294e-01,1.386174357459572404e+00
3.749708803748484254e+00,4.022982484546590243e+00,2.452994983621323399e+00
1.993657963712409664e+00,2.490779190610385108e+00,-3.417019839322594343e+00
2.466042578401294705e+00,-1.593377067827561611e+00,-3.147582670136707783e+00
-9.936585055758555551e-01,-1.993201393953991873e+00,2.096763487481190680e+00
2.426874267732801016e+00,5.529870601035362654e+00,6.355942505489956540e-01
4.391088850830324297e+00,5.135159146950258879e+00,1.241247037899326777e+00
3.541237550171180359e+00,5.601799353152703276e+00,2.673757327886027380e+00
3.332409099177714995e-01,5.724859751395072749e-01,6.548850150812128845e+00
4.920556149208782926e-01,3.392882092720930221e+00,-1.566003916880339464e+00
5.058794458283642825e+00,-3.249458818742270161e+00,2.421625576139009084e+00
4.045880242782381231e+00,5.243481892177028314e+00,1.772368534387814831e+00
4.741604672300578471e+00,-3.710116946902463297e+00,3.031296265766899367e+00
4.259469711104207690e+00,1.213486241874224936e+00,2.672012687604920167e+00
9.615137290484183641e-01,5.396188023778382359e+00,1.614817403902282233e+00
5.557879885077453563e-01,8.881277265974598656e-01,6.527763507658687736e+00
-1.242562121232675398e+00,-3.495727143312348240e+00,3.510723940508317487e+00
3.127956420470778376e+00,-3.149414754742412281e+00,-2.651321267868008924e+00
-9.668544135700022357e-01,3.168421981139423416e+00,4.551556339995543432e+00
2.118264517563132276e+00,-4.439658667523894486e+00,-1.513028912004008797e+00
3.458055630872026942e+00,-4.659147670496429861e+00,1.323750980805981081e+00
-4.349370181807147850e-01,-3.233496533936055073e+00,4.309225511171317358e+00
6.158394950888742336e+00,-3.743402211050743389e-02,-1.854361784672586166e+00
3.988905337666034612e+00,-2.501538867277466327e+00,-2.508133320242530218e+00
-1.693003390071803560e+00,4.390297862285619246e+00,1.159507269209729241e+00
-1.922735556577820137e+00,-1.414637190531627065e+00,4.613449657010890270e+00
2.194241344302893193e+00,-4.012746059521329123e+00,4.488105451799434320e+00
-2.145386942871105040e-01,4.791107866560779804e-01,5.979697490717472697e+00
4.392701702363681626e+00,-3.153318727440139746e+00,3.542475204389180288e+00
1.999945232881766177e+00,1.960010644096550569e+00,-3.260125981849515853e+00
3.717081091202490750e+00,-5.373197172614340156e-01,3.939617932549059010e+00
5.351855288153630319e+00,2.300638019447763138e+00,-2.185347249262068914e+00
3.191440713709232213e+00,4.943465760244857843e-01,4.383963043799163906e+00
4.458601549494457750e+00,-3.840095052251297769e+00,-2.373905622905978507e-01
2.313196610083433580e+00,3.725001834136704382e+00,-2.694728275839501919e+00
3.300380326497281303e+00,3.827824807203279445e+00,3.449028936226524067e+00
-3.651849862821297532e-01,-4.371979946201608236e+00,1.683174725100303748e+00
-1.754488098991414446e+00,-6.158125900365999383e-01,5.009240441968656476e+00
5.828279529895774580e+00,4.063425037232316406e+00,-3.734521304971316624e-01
3.496094070646516005e+00,-9.957066026118063240e-01,4.241270350334759520e+00
4.233777708187364652e+00,-1.108035868223139486e+00,-3.073616508623277177e+00
6.868645494036100807e-01,-2.846553613627006651e+00,5.170273155161059009e+00
2.161081044479507829e-01,1.764867017880855649e+00,-9.432296594896396602e-01
3.083041631003956340e+00,-2.340951811187145903e+00,5.139313145714560882e+00
1.501882648070304471e+00,5.404342772801426165e+00,1.885727579836750323e+00
2.703319202113673825e+00,9.770666324417203175e-01,-4.087445671204213760e+00
1.192751395042469742e+00,-2.109938339851177957e+00,6.231612416539120680e+00
3.392140062962917479e+00,9.638096334925123632e-01,-3.726646763288538278e+00
-9.325935698685896558e-01,6.834436183541486853e-01,5.546315062904466409e+00
4.563844264421732966e+00,-2.120102201910726514e+00,3.138145123926794788e+00
2.969226972990980595e+00,-4.447377670094812885e+00,-6.052729258438311888e-01
-6.170491366080240736e-01,3.259473515283239919e+00,4.513790458793361798e-02
3.708990870194794898e+00,2.193690388494887955e+00,-3.121004389680045232e+00
1.566556419174104597e+00,-3.525278677667853966e+00,-1.291258451783901640e+00
-8.003130410953942508e-01,1.297516337558772721e-02,5.619209788391766658e+00
3.284617550519377538e+00,-1.651239836402509820e+00,-3.648320868694444830e+00
6.882730094604670723e-02,-4.402222663272993941e+00,2.955421055348676607e+00
8.739502716175988617e-01,-2.583615622154503022e+00,-4.449735985643020753e-01
-2.876463358711038865e+00,9.079576563657894006e-01,3.915844180781865358e+00
1.317140978232593351e+00,-2.665506493574713032e-01,7.192007077969431172e+00
3.966749002805642466e+00,4.889861982247872163e+00,-2.799081051993971836e-01
1.406571883740258766e+00,-2.461409308378682770e+00,-1.671951213012994542e+00
-3.014485544677479312e-01,-4.488180909599343238e+00,2.648386097657768445e+00
1.783909985255506259e+00,2.829224804627610279e+00,-3.378786213078458722e+00
6.189063213172633082e-01,-4.105055132791434858e+00,3.709718911373473205e+00
3.372202818839067362e-01,4.233755375640904539e+00,-1.549164091194230153e+00
5.546392719798597604e+00,1.395411323065234743e+00,6.490805239187819042e-01
-2.418234972476425715e-01,1.382775285260256393e+00,5.967871941540202840e+00
6.736802407851731012e+00,-1.876799891275976018e+00,-8.309069453515335879e-02
1.194014411302483092e+00,5.336998622240849421e+00,1.601743350109104291e+00
6.734586725993113809e+00,6.363942227684185049e-01,-1.616358940367908392e+00
6.879010356048204322e+00,1.694789244442714171e+00,-1.356110195877028524e+00
3.548449444488532833e+00,5.560412441950987272e+00,9.430330934443201807e-01
-9.037098559344318716e-01,2.389800494525088581e+00,6.143689411434807290e-01
4.231942758897809576e+00,-4.392162037452787438e+00,1.654445071886284202e+00
-2.156715019089096241e+00,-8.730429766777181300e-01,4.595543762693355738e+00
5.446940637569169574e+00,1.731292976580787180e+00,7.757719689841121591e-01
1.247737313046814345e+00,1.128162020119241715e+00,7.073937903247029091e+00
3.284411955191844257e+00,1.961939413314488068e+00,-3.627762627257402617e+00
7.026543167635838083e-01,-1.934456279659724887e+00,5.996444471507090590e+00
3.626133030753343256e+00,2.866172055981497380e+00,-2.881625197109045189e+00
-9.398445782194621012e-01,2.558788872577792972e-01,5.636009433155662052e+00
-9.615070275191643645e-02,-2.279757155126496126e+00,9.666221579778838668e-01
5.517644337694045831e+00,4.125615434343738563e+00,1.786744831994519292e-02
-9.552908042932550803e-01,4.930876818235051751e+00,1.521590421222322798e+00
-1.935272424466176533e+00,-6.992752605030215785e-01,4.882187445167883943e+00
3.413612825052853017e-01,1.600309534004507928e+00,-7.884853374814038141e-01
2.332155203233909457e+00,3.023562605369501721e+00,-3.371813459353961484e+00
6.193218729086745533e+00,-2.266037679610688027e+00,8.003015991477763214e-01
-1.196946419497290304e+00,-9.515155436757216645e-01,5.271360567930423180e+00
6.240322988375244684e+00,-2.858300276839959686e+00,7.966584679096283539e-01
4.841044457554567693e+00,3.064091478194324925e+00,-1.990557398839791547e+00
-1.638312026828916634e+00,2.978833165443522280e+00,1.585222210426315836e+00
6.423914579249385248e+00,2.676096795796184757e+00,-1.232110639399149221e+00
5.703173800102897539e-01,-4.956521153591231688e+00,7.857045020023468718e-01
3.309740009714921882e+00,-3.831248315547940209e+00,5.059496828837631632e+00
2.110556536755614054e+00,3.112888326250778270e+00,5.306629723609924021e+00
6.106964896176795499e+00,-3.264217752662881722e+00,2.445275131417730119e-01
5.011226197757487455e+00,-3.538636866809152348e+00,-3.605740022356616059e-01
4.347031261964265703e+00,-2.524411161198598208e+00,3.289900466612550645e+00
-4.312191182916854659e-01,-3.876519772876035663e+00,3.652088930677695355e+00
-4.089169039551440732e-01,2.094974362364388387e+00,-1.712277938035408620e-01
5.378486128662152144e-01,-2.437338181230740641e+00,-8.188396897784654127e-02
4.423167218659696864e+00,-2.002674430340511069e+00,3.215387681822158505e+00
2.706582250353260499e-01,-1.610772624607769821e+00,2.045880067233488142e-02
-1.816535957075613661e+00,-5.083699404300666691e-01,2.751567676004257557e+00
2.576283859029727008e+00,-1.277879346831900520e+00,-3.360007935039354798e+00
2.753961609736419014e+00,9.386230385763906225e-01,4.865067822585975144e+00
4.293967982654505633e+00,-8.901244370981483689e-01,3.215478434047368772e+00
3.691789702938895523e+00,-4.508259902212132353e+00,1.200855070350465237e+00
-8.864210742018256983e-01,-3.282192276384271468e-01,1.529024796814491216e+00
5.810354317946970326e+00,9.328629890401232139e-01,3.241113205793935137e-01
5.839572224208636975e+00,3.687091235317615290e+00,-3.994897213705034811e-01
4.822515571393860334e+00,6.054709913555130774e-01,-2.912611276255370640e+00
1.741357475711110547e+00,-1.926536525705900837e+00,6.517708702424197753e+00
4.883544784400022820e+00,2.449684040736581192e+00,1.308731584782861779e+00
3.828549502663625703e-01,4.352956596823488233e+00,4.354249432987194801e+00
-8.852524044974062756e-01,2.783761576761164758e+00,6.106329961497267700e-01
3.637815377679501250e+00,-1.050914353967185244e+00,4.103591099276498788e+00
-1.404902782881870538e+00,-4.593155317943882765e-01,5.143579917230709952e+00
1.032256217869141013e+00,2.651891669253844341e+00,-2.040537641813489955e+00
2.524710716847920366e+00,-3.023205066572550059e+00,-2.798213091060687940e+00
5.221938848800272703e-01,-2.551003723373483911e-01,6.467739104785795945e+00
3.168316642511234349e+00,5.469873897321762435e+00,3.107980786137613638e+00
2.559645688221020343e+00,4.406266404651819624e-01,5.281838033489429485e+00
4.021409724481572745e+00,5.583586378499056480e+00,1.157865591816256590e+00
2.585578259880970453e+00,-4.323681286084899433e+00,3.777418751589928458e+00
5.183136877541397070e+00,-1.217115433095601551e+00,-2.243064396959337348e+00
4.841925580121941408e+00,-3.292763503222958743e+00,2.872213129997595704e+00
5.385552903167485361e+00,-4.124233654455537135e+00,1.751334914201955195e+00
3.472714324442079725e+00,5.512554319254887147e+00,2.683594311085489181e+00
9.300529219915829593e-01,-2.384313225491886179e+00,5.805847453310833295e+00
1.848888564427440429e+00,-2.027559624292643470e+00,6.480173886803147099e+00
5.767702497335211120e+00,-2.628345018224715002e+00,-8.276698256356680439e-01
5.234716306749167103e+00,-1.994485825792976286e+00,2.043846082855340640e+00
4.000679274785305495e+00,4.093798789059143850e+00,2.271749704923311519e+00
1.231609488073955871e+00,1.900570987771548648e+00,6.880037695941524589e+00
1.952164696941566913e+00,-4.611746984788060999e+00,-1.394255797488589410e+00
6.927144971510093896e+00,-8.485634174310475730e-01,-7.953162115377679919e-01
-8.854145895560101565e-01,4.747222903419525686e+00,2.384557482847577514e+00
-2.817969378471164799e+00,-3.026947413100496143e-02,4.222109547436134314e+00
-1.560811282455613291e+00,-1.711648034894790227e+00,2.782754424303606200e+00
5.260476654315454859e+00,-2.183080016933928835e+00,-1.721111159171640370e+00
1.454508688039246156e+00,3.332653489559725291e+00,6.241879556722093270e+00
5.109382078724826748e-01,-4.965102791801703219e-01,6.434147659746495052e+00
-3.105726191957485782e-01,-2.998726043809485375e+00,4.529124569161262492e+00
2.424959364520469229e+00,-4.313735062611613102e+00,3.618895864109157756e+00
-5.838211377542830149e-01,2.433014790515362957e+00,5.302744056177017384e+00
-5.526881737809147266e-01,-3.081035655911683602e+00,4.396076956733597108e+00
1.669734185963615891e+00,-1.931693300771766930e+00,-2.018382360672454912e+00
-1.727766635395008965e+00,-4.924953760137449899e-01,2.438206859516862224e+00
1.222451493858280003e+00,2.053650831493420981e+00,6.868045552854335156e+00
4.333360067172217001e+00,-8.685078291450519794e-01,3.147713939247805737e+00
-1.349984794729959026e+00,2.569469669143832569e+00,4.555878836417542210e+00
5.396727646020036406e-01,5.066605807594132926e+00,-8.070901677248443207e-01
1.162340645322076815e+00,-4.043153994678523766e+00,3.779584448765177296e+00
8.803464126627669195e-01,1.886061274085305550e+00,6.692629098277040001e+00
-5.386005864879310767e-01,-1.743058471441638391e+00,5.320064311266927248e+00
2.123693018915185846e-02,9.345081465004090315e-01,-5.303814135541556202e-02
5.489722962075265222e+00,-9.706107481216513788e-02,1.145733057400870170e+00
4.027710061984226542e-01,1.523168759990306098e+00,-9.337552610695571964e-01
5.577608380783587450e+00,-1.630070484390021335e+00,-1.822212412634506506e+00
-4.209678491125237176e-01,-4.615697987816934855e+00,2.343596325543267245e+00
-1.773364792945077095e+00,-1.386645276834659768e+00,3.013536566732379907e+00
-1.404767517472042204e+00,3.759889553808797746e+00,9.549755883336912277e-01
-3.631901091611342558e-01,4.990700157879900623e+00,-7.378969807998909669e-01
5.150357442728147106e+00,-3.939114263529147397e+00,5.490742109721427067e-01
1.782693741565105905e-01,2.642241143047169949e+00,5.612420980444418284e+00
4.380065212106241113e+00,-2.022309330013837947e+00,3.341387767686535781e+00
-3.356873744437700591e-01,-3.446497755816222419e+00,1.431769257262242245e+00
-1.787916498686259237e+00,2.518020823289727872e+00,1.836552071161091648e+00
3.271224187953434281e+00,3.142568649202887254e+00,3.598266444041039680e+00
-2.702814342138846193e+00,4.881386662475103444e-01,3.823483958542786887e+00
6.904569921622459638e+00,-9.398240414269917187e-01,-7.021122479403696381e-01
1.580772960024266371e+00,-3.391699462638342322e+00,-1.288449600484037338e+00
4.029471609515806740e+00,-2.935305517858196822e+00,4.115046129996607682e+00
2.046454533767473105e+00,4.114049826934722986e+00,5.206633402972308922e+00
6.432561966499354966e+00,-8.350977614276322569e-01,7.737511360310316173e-03
-1.233966822992934587e+00,1.837592530425687487e+00,4.984371832852547257e+00
4.896981656425158924e+00,2.073676769133818265e+00,1.326468174111286702e+00
1.474843079170158555e+00,2.367330042712981530e+00,6.283170429146892388e+00
3.027641566600529632e+00,1.760851485716692810e+00,-3.753385606772215333e+00
-1.948909518651920969e+00,3.092169653947124175e+00,2.070651814733355689e+00
5.153724272382054217e+00,-5.595818100777231185e-01,1.921217093512779250e+00
4.934938335083329242e-01,2.107796130970827519e+00,-1.352759106014589818e+00
6.168766508281004590e+00,-2.388545100219726519e-02,-1.828099274682630115e+00
3.755654979024268147e+00,-4.419460730549650052e+00,6.397346123179179500e-01
1.652902080173953570e+00,5.252105090955166311e+00,3.577809386810244963e+00
-1.671099089839091778e-01,3.049292834573900546e+00,5.347684953290852583e+00
-7.406544883565961968e-01,-8.937175072647477458e-01,1.169920166500842962e+00
6.216851411784593218e+00,2.129064398086965237e+00,-4.385150478674581520e-01
2.752068460214821766e+00,3.594103415080884822e+00,4.210272878561475807e+00
5.135212681089272202e+00,-4.015229442199482968e+00,2.724990193046913589e+00
1.739444424737855321e+00,-4.230113242542664076e-01,6.555334315270458845e+00
3.394272265238397424e+00,4.351329762322025729e+00,-1.506756272842904920e+00
7.003261604213304459e+00,-7.729074766831626198e-01,-7.000808744835638198e-01
8.440530110498839500e-01,1.720085853844000867e-01,6.828804903301512574e+00
-9.783630996739305363e-01,-6.295773822408308185e-01,5.453433741860618689e+00
5.418768573944988454e+00,-1.610752552650939640e+00,-1.892649397388385557e+00
4.478867895470440175e+00,-4.261055709461530228e+00,6.648068826057860203e-01
-2.290550991103716516e+00,8.043559167062503956e-01,4.665378663950511928e+00
4.016507236889121479e+00,-4.360826377803999954e+00,3.647873534412485963e+00
5.310688200509382284e+00,1.954510347696160721e+00,-2.296769927280918111e+00
6.350206427564721867e-01,2.563955161495186985e+00,-1.564898943663481923e+00
3.172846996458660751e+00,-8.865412621386337122e-01,4.592434496953435641e+00
5.220944502155816735e+00,1.383783299721204507e+00,-2.406375485099733869e+00
4.056311686341318001e+00,9.616297137763661906e-01,-3.384306137661566183e+00
-2.213278140008130557e-01,6.123473926123235156e-01,4.806708940798899710e-02
-2.586528026637513467e-01,3.624349273695187890e+00,4.789188848506669594e+00
1.394359309207679587e+00,-5.070055094809607921e-01,-1.846105848469083988e+00
3.117165485361260924e+00,-2.958290505315718910e+00,5.403250841717017749e+00
1.739332265724495619e+00,2.954168288108849350e+00,5.940989136595153042e+00
4.742382545941114635e+00,3.576212144451703434e+00,-1.744661434050488236e+00
-2.748437372168913151e-01,-4.868047695088508320e+00,1.726836476758724981e+00
4.576480958333991822e+00,-2.084217816340659724e+00,3.092246999229444349e+00
1.150953136583359182e+00,3.258840780013385174e+00,6.154749110752865349e+00
3.585055436186404432e+00,-4.016396443933883731e+00,4.727335655430524142e+00
6.376775910007284942e+00,-1.422464974910574442e-01,-1.658372560049018452e+00
5.772356686996184649e+00,-3.226287144540236351e+00,-1.817716992771476747e-01
3.702266602595948086e+00,-4.475494776809797237e+00,3.433312160555198389e+00
3.188217477680245882e+00,4.331570903738055089e-02,-4.047409622043456778e+00
-9.998391574164712248e-01,-1.137649354079367736e+00,1.798012639930180789e+00
3.757987152056798674e+00,4.498736934589345537e+00,2.419194010621799062e+00
1.427888443097168114e+00,5.179080365699631372e+00,-3.635799783899072990e-01
-1.880000539928858183e+00,-9.856887100073443708e-01,2.916485047925546414e+00
2.966589985145015262e+00,-8.016340836210288368e-01,-4.039651893507338443e+00
1.567704805491006548e+00,1.993743105846166985e+00,-2.728174395439681099e+00
2.741048190756322001e+00,-3.179315510606798956e+00,-2.928205619064702780e+00
-1.884032075681951746e+00,1.998176727135848152e+00,2.154540363896161548e+00
1.389024537886386579e+00,-5.004661069819058561e+00,1.910114862470561892e-01
-7.754802486568335151e-02,2.434165526129028922e+00,-6.489239019439223544e-01
3.727773589839820101e+00,2.220291814962198185e+00,3.016485784745053689e+00
2.563173962847177023e+00,-4.805050578666006267e+00,1.583140267559203451e+00
-2.245852531786860951e+00,2.501229638529504751e+00,2.569604052351888157e+00
9.609544678433368237e-01,-5.966993416415116158e-01,-1.419342672067246403e+00
1.469170685828619538e+00,1.031318514816777165e+00,-2.249179248522065855e+00
-1.461157324741571673e+00,4.420021674206175533e+00,2.422793959645216155e+00
5.627287442082386626e+00,-3.927322018144863591e+00,1.030085902967359024e+00
5.257846960130333258e+00,1.485262673242296216e+00,-2.420010694819423769e+00
3.646589183231100151e+00,6.893455863341675371e-01,3.528893010709535982e+00
1.737378499996112602e+00,1.209681691696655292e+00,6.279956177280896057e+00
-1.649895071193378637e+00,3.955786152449896065e+00,1.299261559502925323e+00
3.134611711744431650e-01,-3.826516955034412693e+00,3.912411685933216088e+00
1.285878529881506083e+00,-1.092381810300911305e+00,6.739165010995913363e+00
4.096996690219761206e+00,4.917932766560108249e+00,-3.234488041664658753e-01
5.690131323753093717e-01,1.571632584725744408e+00,-1.105858007160117618e+00
6.205941567964470273e+00,-2.211526236431886616e+00,-7.815883531573515342e-01
-5.252792916723268979e-01,-1.852374364566659048e+00,1.217588314138350336e+00
9.187088458952535897e-01,-3.480328857546303389e+00,-2.269255148140678080e-01
-1.801284832563458060e+00,2.981604527859612386e+00,1.819081314455311738e+00
8.801373874918674289e-01,-3.723894294000300142e+00,-3.125168767936549741e-01
4.524727817234203364e+00,5.449275320762690278e+00,9.147132296139728336e-01
-4.672496767099951209e-01,-9.159290629867320455e-01,5.669077108438693280e+00
3.281527165687873282e+00,-1.449659229852151565e+00,-3.650721615578669255e+00
-3.961482277672784824e-01,4.232915389468969281e+00,-5.648512971732216892e-01
4.993955485384183213e+00,4.142366716589934050e+00,-1.002364386646989569e+00
5.136842721027944592e+00,1.410256214359359106e+00,1.255265782825118359e+00
-9.843476306350580352e-01,-9.331712328217187657e-01,5.294848177414753110e+00
-3.137712220890825354e-01,-1.688691664906140366e-01,5.929318596699491017e+00
-9.782044055667434845e-01,-2.072431285317296368e+00,4.832810547240888432e+00
6.549377536711076253e+00,4.830282722224778919e-02,-3.693553294980883028e-01
1.343572782300852753e+00,5.081223260292405008e+00,3.821305665637271698e+00
3.908641649347919800e-01,-1.724592467481145697e+00,5.933327834935508527e+00
2.702651212353607280e-01,5.165436807380945794e+00,-9.759682312105236179e-03
5.505488758629657475e+00,2.110566690671625167e+00,5.474185589405893282e-01
-9.242779370876260669e-01,1.463440108088982949e+00,9.549195886242723974e-01
-9.544646751777692284e-01,1.872476874663807411e+00,5.328106225646247474e+00
1.982736861239785320e+00,4.934141736095183361e+00,4.673784751079277378e+00
-9.928661478823330722e-01,2.318903957400504368e+00,8.432745658540288236e-01
5.504458628718704283e+00,2.650058038522852044e+00,4.203533046022048802e-01
-2.893426042055846636e-01,-1.181086646071627166e+00,7.796259791722138788e-01
4.063934707049468464e+00,-2.065411673691241123e+00,-2.709746090275475972e+00
4.688164643339293391e+00,-1.848051491529349333e+00,2.784081130350130717e+00
2.327521168827108689e+00,-3.942337734139337524e+00,4.563329183916988718e+00
3.770391069873574974e+00,5.530207023071671557e+00,1.056078095874340761e+00
6.519492594725670997e+00,2.065528784070105761e+00,-8.547575817720264313e-01
1.897589686246998197e-01,-4.107572927982618083e+00,3.357139001220351027e+00
1.187854059742577961e+00,2.619697181893404725e+00,6.614513483628234880e+00
1.931077278990220192e+00,4.582513749756508048e+00,-1.794558821962901840e+00
-6.693071954965325032e-01,3.438901116603426455e+00,-2.562543556525322813e-02
3.939704408616343301e+00,5.797807590306797820e+00,1.883386033200925569e+00
-2.395962849738658973e-01,4.085517915150041368e+00,4.121298263210079860e+00
-2.568974821492944649e+00,3.416872152350622027e+00,2.657786760319809982e+00
-1.436878090710952405e+00,4.659544450328907850e+00,1.213288884126655143e+00
2.351082995648958729e+00,-4.098752358679372598e+00,-1.822845237840953203e+00
3.213531025218919979e+00,-5.414705315112601225e-01,-3.903867168206107685e+00
1.236412393432061441e+00,3.678424235552131716e+00,-2.727796213721038754e+00
4.712503158878372789e-02,4.235936083099691274e+00,4.181476308064934422e+00
1.995658100906756216e+00,1.218430258914866116e+00,-3.197693422500429428e+00
5.489484407941522370e+00,6.037064029291355771e-02,-2.325475311327930950e+00
4.682724099036112420e-01,-4.671447234578423036e+00,2.088178050443974865e+00
-3.664778687059367379e-01,-2.363608322547555485e+00,5.057146853638800899e+00
-4.217004843776701040e-01,-1.740196839103409499e+00,9.607569621151904604e-01
