-3.005514060625635864e+00,1.350237184898406184e+01,5.132422203250598614e+00
5.162617412083732482e+00,-1.271991900859995139e+00,2.526368729016372772e+00
5.971783889612858331e-01,1.235268020333632322e+01,3.920048872923773686e+00
1.008230113611689127e+00,1.110108577536317220e+01,2.276261503550385701e+00
7.575130178789736268e-01,4.982126038937805035e+00,-1.807147643515582658e+00
6.798850519253284430e-01,1.229387353311397035e+00,4.331937041813137768e+00
-1.220931725031653148e+00,-3.260970947397675346e+00,-4.872183618330065968e+00
-5.548574580326862460e+00,4.103089908549478082e+00,-1.430243940438206574e+00
-7.220891315156275247e+00,3.143956385382467911e+00,2.693342814135486485e+00
5.128019600160311775e+00,5.495376320951452342e+00,3.612198093626145301e+00
5.326462367526626274e+00,2.954063866192264687e+00,-1.292486771531650591e+00
-4.965568257028022181e+00,5.855526300307590581e+00,-8.966124634359500245e-01
2.016451009457555621e+00,3.436922792952625372e+00,-2.362619875401986924e+00
2.770136262582565401e+00,2.913137347013853073e+00,4.466715521245765430e+00
-3.723953433228140986e-01,-4.072030892713197625e-01,3.775176001926348057e+00
1.801383003045562869e+00,-1.276929641634300161e+01,-5.752848908925074056e+00
-1.365780671792670820e+00,-1.164295851263356063e+01,-4.938944077851406433e+00
-4.849218489398577248e+00,9.708305819214549715e+00,5.702738848136395866e+00
3.792610919999484853e+00,-8.465868919305595597e+00,-9.320726238712248590e-02
5.328471623756712461e+00,5.600215759398754045e+00,3.180714003606511575e+00
-4.244055899144422384e+00,9.891997159752824231e+00,1.044267996245596963e+00
-6.634834988942353462e+00,6.830513349478600560e+00,3.417282741694627202e-01
9.122415874396899715e-02,9.824453906612411913e+00,9.152931837299626006e-01
-3.879596572762607387e+00,2.269241990166307676e+00,-2.693207647697140938e+00
-5.888341075015696369e+00,-1.704801860564294502e+00,-2.830123115305141823e+00
-1.463748508281216276e+00,6.983350995529131744e+00,5.838808970802647380e+00
-3.323102047486243826e+00,8.224198164969616087e+00,-1.905782647300262311e-01
-2.682250021335149004e+00,7.700451347283387094e+00,5.823044266290374971e+00
5.696674998847675475e+00,-1.774467980829651959e+00,-3.354705899204876829e+00
8.924435874875030761e-01,-8.353388628860855647e+00,1.852956055302213134e-01
-7.928358380281794737e+00,3.329607816397054165e+00,1.594055979073184526e+00
6.628173811349904021e+00,-9.864994695355775889e+00,-2.207763124386715958e+00
-4.887339200647470960e+00,-2.151995911575856013e+00,1.900856421338558366e+00
-1.480629375774845435e+00,-9.310121087426486142e+00,-9.602935089711345240e-01
7.190870108628987900e+00,-6.888347465543269266e+00,-9.237719640994723758e-01
-4.380485279172070534e+00,7.184259187930175372e+00,-4.356352055360679376e-01
7.231884445865258471e+00,-9.297320882583790080e+00,-2.548001570036291241e+00
-2.570660566288917703e+00,-1.056468882775934937e+01,-3.045131294710194059e+00
-7.207594753630000017e-01,1.235690419360914660e+01,2.910459072069579989e+00
9.397017854708846762e-01,-6.681068356032695554e+00,-5.732657265409539349e+00
1.773363763714594254e+00,-4.997322516082364885e+00,-5.346497792902684232e+00
6.997222722027935937e+00,-9.434430317315605663e+00,-4.218354209978908642e+00
6.479560491220144769e+00,-9.051586133802635104e+00,-1.509714617476320964e+00
-4.559202369397806542e+00,-4.286355306821809208e+00,-3.988019170159758264e+00
-2.368196259500791712e+00,1.340330460010210523e+01,5.509684692489323687e+00
-6.358054803246572462e+00,-2.150320204995691320e+00,-2.353640741080904153e+00
5.490409030639550103e+00,7.679591806088867934e-01,2.879608014440498742e+00
-2.247120027244840834e+00,1.083004866312633396e+01,6.185283633522204561e+00
7.345430767870992028e+00,-6.129237754695770590e+00,-3.496489250325579334e+00
-3.537910210078635487e+00,-9.273933472216679519e+00,-2.647418207735488860e+00
7.650614950662992797e-01,1.098909506103951195e+01,2.011727976468929757e+00
-3.450603198056736876e+00,3.792776157706787998e+00,-2.196181169309475933e+00
-5.064510686413361551e-01,1.289628180381100897e+01,4.092761438781932881e+00
5.878372021391430335e-01,-1.205902689091579383e+01,-5.825670559333922860e+00
-5.726632933920559054e+00,-4.222835698663883974e+00,-1.223503956161825501e-02
2.381147768988395086e+00,1.094197210021185285e+01,3.654845554824193599e+00
-6.986804717229748718e+00,-1.961795426395827491e+00,-1.464286652422557289e+00
4.254153122083600636e+00,-1.315135461883974521e+01,-4.036500999736655437e+00
3.872305708446446837e-02,1.237204071654194237e+01,5.326905969131509266e+00
-8.232301050892097960e-01,-1.219368597343843419e+01,-4.379787656813546093e+00
-2.461566401497512935e+00,1.309966123533763671e+01,3.423475859448157355e+00
5.678572990449747282e-01,7.269417260272347470e+00,-6.162642142659648936e-01
-7.434854777657908365e+00,-6.932085959503665740e-02,-4.920609002520198172e-01
-5.371211197032882190e+00,-4.076692362025496230e+00,-3.303926919553083597e+00
-4.026393240195718981e+00,-1.159736718342305704e-02,3.287713397213794408e+00
-6.775795723309386176e+00,5.817158457833970786e+00,4.056221770075063127e+00
-4.625188678069611647e+00,7.347686106066893430e+00,5.404462443008525518e+00
1.886359899737710677e+00,-8.177149705296098858e+00,2.452886699990499964e-01
-7.319380033000543406e+00,9.060590303134761214e+00,3.022944181354026316e+00
7.607205610245213911e+00,-7.666773568707797581e-01,-6.619983199010872621e-01
-6.547596116200161021e+00,-3.568069014276385342e+00,-1.134903320853625885e+00
5.819129929109438493e+00,-9.165979393219723548e+00,-1.099250678660403047e+00
7.541949017158569468e+00,2.730507979797343054e-01,1.102251557564312145e-01
-3.281822412860151861e+00,-2.664478577301154782e+00,2.386823317006757872e+00
3.212878237134483062e+00,9.833505086044402432e+00,3.007759633241516184e+00
7.544803636241730338e+00,-5.209154535105908757e+00,-2.953004713371284229e+00
-1.881672445752431644e+00,1.046514972330099091e+01,6.168838577824137026e+00
7.772204170234040532e+00,-6.367478652024509245e+00,-1.460519953267814586e+00
-2.917214261859021107e+00,1.355500462562562980e+01,4.793273065233439212e+00
-4.819980433817797061e-01,4.785621882418885420e+00,5.330748035439677679e+00
1.098255340119250328e-01,-9.297994952975486171e+00,-5.974982597098962067e+00
5.572085355213025615e+00,-1.237188402382120245e+01,-4.385788834802337277e+00
-1.526850088753545664e+00,-9.987559131740697538e+00,-5.492758614191785682e+00
-3.028636969102295851e+00,1.116041728227519592e+01,1.730073047938152531e+00
-4.698205456410599057e-01,1.280824886555587128e+01,5.350677584561661426e+00
-3.673575321543842698e-01,-1.258655427142590000e+01,-4.625248651794453103e+00
-5.014297147039791014e+00,3.894215269417022007e+00,4.427529135015778827e+00
-6.542642190407329750e+00,-3.496191262166731928e+00,-1.670728854823178233e+00
-7.218523762650534081e+00,9.259706841846241376e-01,1.588276695044044340e+00
1.543877177809937384e+00,-1.095445308769803994e+01,-1.450194780620733148e+00
-2.123129241245479193e+00,6.038997685611568578e+00,5.623037922886180873e+00
-7.443798384372897203e+00,2.404092757719624995e-01,9.843121422461218462e-01
1.352853253825505142e+00,-4.051238021739316686e+00,2.330851030690860970e+00
4.064300039028895917e+00,1.481864128245905743e+00,3.702346626354340309e+00
-7.146176241659049744e+00,3.800160201882829991e+00,3.024417879419659450e+00
3.234023005142603324e+00,9.419860563712177282e+00,4.346035218032788805e+00
-6.705522160339437931e+00,5.460128080677289830e+00,-2.089905062249307055e-01
3.681836321084605235e+00,-1.299851009509502653e+01,-3.584138460631535850e+00
7.764416923813426408e+00,-5.900868085418062847e+00,-2.948604941984611649e+00
-6.961413038664049147e+00,-1.799049057172674493e+00,-1.481118925960341448e+00
6.816221018557421907e+00,-8.995422717126006162e+00,-4.374786507331800856e+00
-2.931618548569725924e+00,2.264191482185417215e+00,-2.893510030301077229e+00
-3.780428750292584628e+00,-6.558327096954307933e+00,-8.467698173875902456e-02
7.405043703809680800e+00,-8.792017250562428998e+00,-2.798046152951745746e+00
5.392831212049229883e+00,-6.554821385161943681e+00,-4.983416421972392207e+00
6.096521161056364768e+00,9.263244095416378610e-01,-1.832220741445939494e+00
1.612167444127101446e+00,1.148807134597400292e+01,3.556092971855004059e+00
1.186463125707430066e+00,-4.890281420132619239e+00,1.946836968670372370e+00
2.846573741091922294e+00,5.340123322927393446e+00,-1.119092571167435768e+00
5.213854028595223955e-01,1.392100518350136984e-01,4.012593570701636025e+00
-6.187693716318419135e+00,9.889199864388409367e+00,4.886886191700209103e+00
-2.572240312212180857e+00,-8.320641835259124264e+00,-5.098147768745802111e+00
-8.640660823964130266e-02,-6.163129664181444589e+00,-5.611123900296641764e+00
5.212685481025809864e+00,-1.156193824069077181e+01,-2.682241571010925973e+00
3.961108261791830287e+00,8.758044929866928285e+00,3.217760912035177778e+00
5.449213514485621523e+00,-9.082551092049405028e+00,-9.337223596456696306e-01
7.013245448654592096e+00,-4.402180849979955291e+00,3.999055545183420324e-01
5.087807763129481131e+00,1.031461625501140622e+00,-2.389483687035932835e+00
6.487479487276667456e+00,-1.125724378752469867e+01,-3.547116287120900768e+00
-1.798138438279671236e+00,-6.715649530743564855e-01,3.548561909572846229e+00
8.098211934617405294e-01,-2.220223468195934302e+00,-4.643556010303068859e+00
-4.868903035067147833e+00,1.213867297272280332e+01,5.412536258892808760e+00
4.461029366824529774e+00,6.418691289566559988e+00,3.976168404898335673e+00
-1.952941919176349295e+00,1.308609410844993448e+01,5.432749269878151210e+00
3.542628008363754577e-01,4.079029631347739659e+00,5.090980436729044101e+00
2.245530751571154227e+00,1.034038320667575128e+01,2.467416913495082742e+00
3.997602644360426782e-01,4.577499459829518003e+00,-2.027037826793558040e+00
-7.273728093420272600e+00,4.175625252903508944e+00,-2.043777537922154552e-01
3.546197102638541487e+00,1.433993141891181322e+00,3.908648170924811538e+00
4.511896108316983067e+00,5.444055043750020140e+00,-2.584852062037045206e-01
-1.962955349868146238e+00,-7.182744753089362888e+00,-5.360690101959415088e+00
1.314805456246539439e+00,5.581201876891318747e+00,5.278189764268923945e+00
6.521072878882764101e+00,5.390425479277073384e-01,2.132082618228579474e+00
7.369944167811504521e+00,-9.122398668405628186e+00,-2.866644042881833165e+00
-2.963824526069859022e+00,7.804582648506001696e+00,5.828335002126157960e+00
4.045818265392383317e+00,-3.222328050431091384e+00,2.271904840530548420e+00
-4.997655833457942620e+00,4.692195666914736663e+00,4.649792509568127841e+00
-1.227145432267013003e+00,-1.085928071884957191e+01,-5.353562731667907748e+00
-6.991677289347753899e+00,-1.669355646410148664e+00,-1.440895712860847055e+00
8.978364813586100501e-01,-1.305124136320528550e+01,-3.734677984206832946e+00
5.285545555312555877e+00,-5.703645962850577789e+00,9.130932545971061076e-01
-2.429874700458858339e+00,-9.834601327798379700e+00,-5.019915188976336040e+00
2.010059155344812609e+00,1.123020515107975292e+01,3.678413512807148233e+00
-6.741252855545876166e+00,1.010113018477389524e+01,2.557777803283675766e+00
-7.955591634490984276e+00,5.756263208876030824e+00,2.024483407878520325e+00
-4.851073608258785086e+00,3.073538540031300226e+00,-2.072793553676406386e+00
-1.718113893486275412e+00,-9.069070552463829316e+00,-8.771097424894165329e-01
6.918072649292303922e+00,-2.112614569747033766e+00,-2.670402936031100793e+00
-2.430956772366106744e+00,-1.075898616273362940e+01,-4.320212922103962683e+00
2.491615484616318543e+00,-9.825116473778033210e+00,-6.111506244447823200e+00
-5.554444706818475019e+00,1.213547465773738665e+01,4.886735056736253746e+00
-4.258012543733852517e+00,-5.624845516142609192e+00,2.068691472641291107e-01
-2.528984399825431773e+00,-1.053481328445718468e+01,-3.176796093746137917e+00
4.483715692607742831e+00,7.708567952623161190e+00,3.584526973004509731e+00
-8.922878152565973942e-01,-6.674287535963011386e+00,-5.563309771016928806e+00
-3.400885007471725618e+00,1.281229889983418602e+01,3.196000509685271940e+00
7.155389737145126716e+00,-8.737944876219833290e+00,-2.005728056162716655e+00
7.814859633442346798e+00,-7.142269469826565853e+00,-2.725500693770424920e+00
-6.747481527396718803e+00,-2.679962870473962866e+00,-4.284430412296900137e-01
-5.772772815242776190e+00,2.310032179072615044e+00,-1.906213357606478143e+00
5.423297699345994261e+00,-1.687279042564125975e+00,2.250797835873548092e+00
7.779067197133751499e+00,-4.411770236552156277e+00,-5.507975188708422731e-01
-3.710330923127607705e-01,1.294437497464714859e+01,4.977619236472960118e+00
-2.180440194958508382e+00,8.266803271590962510e+00,5.985456879614625691e+00
6.405901943308596636e+00,2.967958084053802015e+00,2.222413368428297176e+00
6.833495867269875568e+00,-1.334828224729756485e+00,-2.311050221170346752e+00
4.225728415583434483e+00,-2.122162302412013979e+00,2.586954705480581485e+00
6.830796736144476355e+00,-1.032736793287796928e+01,-4.000780834856757728e+00
-5.294430232595028762e+00,9.079836470057779607e+00,5.451925975586737749e+00
-7.174758366421968070e+00,8.915362239131843225e+00,2.039731650233891358e+00
-6.059888569972571304e+00,-3.882426809509340160e+00,-8.999356627618544657e-02
-6.168830302243039299e+00,4.234205669274804684e+00,-1.014476569007016105e+00
1.847059357162317950e+00,-1.255136401331501617e+01,-2.898859391369412730e+00
3.741835373727074199e+00,-8.200579621386824059e+00,7.653540291473319435e-02
1.923891158879542873e+00,9.818229053349233126e+00,5.323945066560034967e+00
-8.412166240822586127e-01,-1.030039101749589925e+01,-1.480665587529521598e+00
1.859569897156358564e+00,-6.657194169907935333e+00,1.141376183787978116e+00
7.161860806900715026e+00,-5.146113644989417368e-01,-1.598187403839867793e+00
-9.206053761030101867e-01,4.032723694210688770e+00,5.186112776525495960e+00
5.724221669247523181e+00,-7.533616925337689452e-01,-2.902613884591648041e+00
-5.480426533610198270e+00,2.446015001009290479e+00,-2.014036998711276283e+00
7.462671901458767465e+00,-5.263038527431926905e-01,-9.236112797363016380e-01
7.419855881803617770e+00,-4.472357103078129725e+00,-1.583140147268523312e-01
4.111192870421382040e+00,-1.299775253312211554e+01,-5.484586344030168981e+00
1.803443667010752316e+00,5.277204017541789582e+00,5.140034715478500438e+00
-2.378910298278607449e+00,3.828354209181437984e+00,-2.338580193110145533e+00
3.144625846395396884e+00,5.388240967291266337e+00,-9.357294701564005113e-01
3.481088029009533624e+00,1.204605146378120439e+00,3.885400991065287357e+00
-3.470808004414252856e+00,1.287164162247540133e+01,3.226548553521324969e+00
-3.820747437501422539e+00,-8.095883311286780071e+00,-1.362969859264926864e+00
-4.342152857228671614e+00,-7.792204265294228271e+00,-3.607132928909728253e+00
-2.707966495426956222e+00,-6.903704048004961180e+00,-5.106971030405501821e+00
-7.020631104014628754e+00,-2.129107742954126525e+00,-7.053514854127516109e-01
-4.087481230005824528e+00,1.323799306915163854e+01,5.057531106053783532e+00
-5.534135320982141337e+00,5.770597911026113636e+00,4.688655603268940375e+00
6.441725062312922745e+00,3.370412163460442478e+00,1.952742633071203660e+00
7.019631736469201577e+00,-5.001028480849003977e+00,-3.554944040917735748e+00
-5.212489053018263263e+00,6.243684489204976984e+00,4.952224051830460105e+00
-3.425700602291883445e+00,2.743709871758844621e+00,4.484695937371876440e+00
7.412206894745462016e+00,-3.511906631081744390e+00,-2.687339604242654723e+00
5.957175046001435881e+00,3.158217621718533152e+00,2.788279708826867154e+00
-2.249608232388790707e+00,-8.431405359362488028e+00,-5.217160956161986718e+00
-4.348050304620931783e+00,-2.019768560330502116e-01,-3.280221566871712291e+00
7.142608167496855565e+00,-1.099533425850154789e+00,-1.819694066381412512e+00
-2.749895600627691561e+00,-9.329344116261449216e+00,-1.596846569601543475e+00
-4.801298483404139006e+00,1.237385996939730948e+00,-2.657742601007936134e+00
-1.083817793759729753e+00,-2.987111894524267619e+00,2.651573516326872770e+00
-4.675278170755526652e+00,-3.209066710850279946e+00,-3.785442636258892879e+00
-5.135909500250093629e+00,3.173742232156850918e+00,-1.934063255873182507e+00
6.703378951482706682e+00,-1.057494163976395996e+01,-3.879072701978862003e+00
1.530902549017499892e+00,-1.037517229988875300e+01,-1.027961945318675463e+00
7.096604004839385027e+00,-2.021321540401416428e+00,-2.465038375972776752e+00
4.002814087848393321e+00,-4.124253496657716567e-01,3.270052678666652390e+00
5.528371323323225006e+00,-8.277125145443347876e+00,-4.492379157644568188e-01
3.322122207803420046e+00,-4.800617775131257758e+00,1.761021527981339929e+00
-5.912096956975426032e+00,5.142309863241114165e+00,4.350436586859991905e+00
-3.521891236021080562e+00,4.064113166528070309e+00,4.877810072629888971e+00
-5.004510548134073922e+00,3.498876283605118154e+00,-1.869235119743600793e+00
1.445726653844320309e+00,1.119081846017636828e+01,2.682106092702794875e+00
7.795444054623943408e+00,-5.795030200186638503e+00,-2.836761027507316069e+00
-6.108633569937135910e+00,6.510722893771534459e+00,-1.190362560498455791e-01
-4.196541947587366650e+00,1.006991988409143346e+01,5.873283840490588048e+00
2.460373120876305553e+00,9.552042824564193069e+00,5.050469942344816943e+00
5.136560412046163648e+00,-1.935561335928136506e+00,-3.670026889894507871e+00
-5.539862779080833022e+00,1.215490195544495755e+01,4.925010843552902529e+00
1.001543981320736743e+00,-1.318673846512214709e+01,-5.221874946377761617e+00
-5.561244977581934812e+00,1.223812354653232326e+01,4.015375615139417320e+00
4.163750578173406325e+00,6.517158009995926982e+00,2.697328679218677361e-01
-1.351396944027131841e+00,1.140216706111683465e+01,1.887109436177496713e+00
5.097989470308957216e+00,8.125778083204999724e-01,-2.461404765145656537e+00
-4.148511618353516006e+00,1.265766070480671779e+01,3.325328095755839986e+00
7.283381626836328060e+00,-8.148566502263058453e+00,-1.882521112621534876e+00
3.663066849149510418e+00,-1.116564754309738028e+01,-6.030251780849455123e+00
-2.444404009068104511e+00,-5.647842876517651156e+00,1.091827498935956653e+00
-5.769875065468814235e+00,-1.700084187219643939e+00,1.694538855443537217e+00
7.305483400032561470e+00,-7.156026811206167793e+00,-3.833347268039027700e+00
3.026439058998003695e+00,9.654695233488422290e-02,3.650542861082187507e+00
-5.105347276406249080e-01,1.300052398896981209e+01,4.164453132642069733e+00
-2.662873410731883883e+00,1.148923609736127638e+01,1.843531478331655427e+00
-4.605759485570238176e+00,1.308737908130830441e+01,4.989019864283748440e+00
-5.729500249842219617e+00,1.074788554951897623e+01,2.330267936496937864e+00
5.109590866822739663e+00,5.748168584996143915e-01,-2.562730240592998143e+00
-1.712476674465791104e+00,-1.151107932978211323e+01,-4.404268768569549408e+00
-3.600519513366787105e+00,2.647140919895297539e+00,4.441310595615606260e+00
-4.721299888650599463e+00,-5.827460129561124802e+00,-3.903954131352247003e+00
-9.318321982655409785e-01,-8.800046817244153274e+00,-5.786744439405480556e+00
-5.718780166746863181e+00,-4.757404190656159493e+00,-2.903899194094698100e+00
-6.611936169681629671e+00,4.739828121709647846e+00,-6.134959326726823203e-01
-7.863298126069425464e+00,4.457213583424837644e+00,9.563566107410901296e-01
2.716194213911605093e+00,-3.623785951338087230e+00,-4.917254211690516463e+00
-6.636032384406171936e+00,-3.078769280121279817e+00,-1.557387821236830172e+00
5.892730339448397636e+00,-1.145862258593787431e+01,-3.044572712875105225e+00
-6.753560895128237540e+00,1.085374036278241761e+01,3.583781666709530800e+00
-1.852782528529626216e+00,1.263784336020802179e+01,2.917671262290298273e+00
4.091672686674026060e+00,-7.963094077382296021e+00,-5.676946208322886100e+00
1.906031856903180000e+00,-1.328931863333887975e+01,-5.271763163772410721e+00
2.256223885096529713e+00,-1.190371487274702433e+00,-4.149073445877712096e+00
3.693289108313920988e+00,8.806127142882409942e+00,1.946707108418332499e+00
7.844371939019260331e+00,-4.719744188452668965e+00,-2.422579077868811215e+00
2.615333863986389673e+00,-4.900419398297598761e+00,1.881239632221720193e+00
2.947042519046706222e+00,9.600143629396855616e+00,2.276305997808879766e+00
-6.698507677245042480e+00,1.374483094134159922e+00,-1.527499488328893262e+00
4.358808357733027883e+00,-6.582318791352597565e+00,-5.368035746282556531e+00
-1.070985260656560412e+00,1.291782024432449383e+01,5.530091462970110783e+00
5.555364563567248837e+00,-1.253009889455338843e+01,-4.152539568654328939e+00
-5.265754793706310721e+00,-6.232878208677110621e+00,-1.163087722693875614e+00
9.414011044047710941e-01,-4.599640289686798944e+00,-5.332220546556568408e+00
-1.611676739281999948e+00,-7.184668165467783751e+00,-5.496143559038318749e+00
-4.462713756828366130e+00,1.291729007240165394e+01,4.037806460152503440e+00
-3.673115449601088711e-01,3.694458220386416802e-01,4.027870618666119285e+00
-3.401864601485260486e+00,4.400176406075269053e-01,-3.352751588118737303e+00
-4.692565436504990473e+00,1.282475125473385091e+01,3.645360371173967273e+00
3.500351613057586797e-02,-5.288696728289803417e-01,3.719240227296112700e+00
1.104375571831683445e+00,1.082782980492958202e+01,5.400503112512836879e+00
2.915520988747197784e+00,9.354832429125417903e+00,1.881891160208256641e+00
9.708633608920390623e-01,9.522078877704162059e-01,4.187119498136849138e+00
-5.873185033697180479e+00,4.668486273153984456e+00,4.227465446679623540e+00
7.841530640715355105e-02,3.172653909016619700e+00,-2.707450744797485154e+00
5.003507382770905565e+00,-6.973264472358961186e+00,-5.210106827928944639e+00
1.485871883473268262e+00,-1.127014934465471896e+01,-6.171639114169562568e+00
4.902729358310021546e+00,6.685240546990740107e+00,1.312732152532503971e+00
2.618758998945717176e-01,9.619652737999025760e+00,7.766323524248054389e-01
-4.438241817774195574e+00,-5.259549458549122036e+00,-4.044384544535211568e+00
-6.358840482106252523e+00,9.861712132058839231e+00,4.864241626851382172e+00
-2.876631099691110194e+00,-1.029680086843476161e+01,-3.022211577482178502e+00
-5.723268966943951819e-01,-1.120649847319806014e+01,-5.619599410637022174e+00
-6.205037300108953602e+00,-4.694690685435227273e+00,-1.874069692192986025e+00
-1.470055019010411357e+00,-1.071645637687224806e+01,-5.237429952202053762e+00
6.047234437923454387e+00,1.031480420605504822e+00,2.610244814211566844e+00
1.286936929603746504e+00,-1.089709114653568989e+01,-6.154512309852244734e+00
5.799961846473016713e+00,-6.384279290298286114e+00,-4.802735805571219707e+00
3.733430702205218665e+00,-4.601039133356287003e+00,1.773765822348209120e+00
2.085704009734503206e+00,8.545762688769645621e+00,5.341878418442314036e+00
3.140133171411278457e-01,5.400723690176997493e+00,-1.688560019169974113e+00
-5.741719251621390185e+00,4.058062727111475532e+00,4.137074323329622771e+00
-9.842549619781761905e-01,-6.548607255538364313e+00,9.560168332597950291e-01
1.311070211243918981e+00,6.007628767936086689e+00,-1.172117473538678123e+00
4.080104229848021902e+00,-5.798522896797617676e+00,1.188893960898154800e+00
2.719817096151996960e+00,5.132601820989841634e+00,4.894921692591490014e+00
-6.338514354859989375e+00,-2.065950528237527006e+00,9.127464365930711976e-01
-2.711537842847055124e+00,1.332310965443610584e+01,5.598969823877651741e+00
2.072846761162367990e+00,1.076456977571188922e+01,2.775043206038022792e+00
-2.403938077458206202e+00,3.114728050848860175e+00,4.772210505709506556e+00
4.610642542635959629e+00,1.655083361826353627e+00,3.497862457295995320e+00
5.120424694194545268e-01,-5.813534234968975589e+00,-5.592902356660810703e+00
6.936964578420423244e+00,-1.620768033837590050e+00,-2.394183318976308872e+00
-5.786140069786132045e-01,7.407056549923916933e+00,-7.132480087873278585e-01
-5.572573223301729328e+00,6.513084400933596418e-01,2.886264042741544689e+00
-5.959063431648953468e+00,7.684064363337703707e-01,-2.266545738311940728e+00
5.748357444548170214e+00,2.904972403642517520e+00,-9.834732571503460585e-01
7.654082677581212302e+00,-7.523127464908470508e+00,-1.839701201528541663e+00
7.164168352840421861e+00,-9.483532284775694876e+00,-3.791082492374080903e+00
5.504536300152903294e+00,5.907643958124762840e+00,2.862224345917991020e+00
-7.603469809554680658e+00,4.791847563269880261e+00,2.954160277603468110e+00
-5.903291053478318950e+00,1.456907588003795384e+00,3.054352202303509234e+00
6.192849419436151637e-01,1.417428080672859858e+00,4.396000603298976017e+00
3.115805822633042066e+00,-1.116785108090356360e+01,-6.042539418841251120e+00
4.702960637578167180e+00,-1.283518165252624499e+01,-4.024303723960032109e+00
-1.700584095653885131e+00,9.950346954236193753e+00,7.770606007486835498e-01
4.478501930803451714e+00,7.184502049380833810e+00,1.148691107049233606e+00
7.056424879597593680e+00,1.331836396807602574e+00,-3.189661402231472875e-01
7.220341835097934258e+00,-5.533555781289585696e+00,-3.472403518849374926e+00
2.685705982476580544e+00,1.061133249353396124e+01,3.804321275669975133e+00
-5.332430567848763125e+00,4.028655226562631420e+00,-1.560514338268674805e+00
6.753223450655971405e+00,1.727972172204405910e+00,-6.536615169187387497e-01
2.704424318896553103e+00,-1.291402211847714554e+01,-3.359537500289658585e+00
-7.905526899814132591e+00,4.800104151658581841e+00,2.144426861789838323e+00
-5.591418325986035498e+00,3.952748859210372112e-01,-2.558095067590128835e+00
7.180249862888369528e+00,1.597214767436220928e+00,3.596705467075972384e-01
-1.845053348125354820e+00,-9.972517054538448278e+00,-5.358618926856500764e+00
-2.014887178280671876e+00,1.173180113747929987e+01,6.003499581360569159e+00
-1.515797766235099431e+00,4.010739456230895783e+00,-2.363433683309236422e+00
-6.267152929886037782e+00,-3.222938842334949427e+00,1.889446579700767570e-01
-4.606479847577697129e+00,7.840979875086561135e-01,-2.908322639039650603e+00
4.952027513243979051e+00,6.877627023392212102e+00,1.480463034212288642e+00
-4.683892335624061154e+00,8.383872472455070834e+00,5.579580148098245651e+00
7.196665349621190089e+00,-9.200677468702405548e+00,-2.329513244316904430e+00
7.682811127883913856e-03,-1.149033520977918243e+01,-2.206532580227811291e+00
5.154188993192753365e+00,6.945224750263941260e+00,2.842124691038147688e+00
1.205004284444392448e+00,4.763789413321388722e+00,5.211942707629127369e+00
-2.875689826293009510e+00,7.457190786669989357e+00,5.779665128327518886e+00
3.786647135163188516e+00,4.883607283620363115e-01,-3.224080868606793882e+00
7.489706272869521619e+00,-2.230087744991663679e-01,7.700877584142975518e-01
-7.451973608551145212e+00,7.933679209748876637e+00,3.671633149771391658e+00
-1.421421234585819038e+00,-3.194932681179455169e+00,2.548550415970554539e+00
4.554182388379853563e+00,7.992021457384017147e+00,2.747480709104304974e+00
-1.406765872690576735e+00,1.317008480160316886e+01,4.047143202629719383e+00
1.986356916955219973e-02,1.251929940987737488e+01,3.668382363854797656e+00
-7.687205659033146787e+00,1.650139043728807486e+00,1.436592158451721613e+00
5.505292329869873491e+00,3.342252943391132991e+00,-8.249710096961470063e-01
4.744783529045956350e+00,-8.200148137477076826e-01,-3.390573021872218540e+00
-1.461471435279537934e+00,-6.733820119516133573e+00,7.764970402615147815e-01
-6.096286258833289118e+00,1.118583497667654036e+01,2.985908237758315042e+00
3.301992302186632422e+00,1.947070787415091431e+00,-2.685322810827630136e+00
-1.907288967911014099e+00,1.335963217591682906e+01,5.424931695560803568e+00
-7.131777611977362596e+00,9.251876445748935751e+00,2.597119115110689602e+00
1.651846492979734071e+00,-3.967417593650817143e+00,2.341843461437140395e+00
7.526441935095597557e+00,-6.662494265693925666e-01,4.097036473359004227e-01
7.107309483498039704e+00,-9.855358564971723467e+00,-3.109733794524992767e+00
2.042458661278924392e+00,1.121156758787276608e+01,3.297930888561103391e+00
5.928078954862427974e-01,-1.272132292635819439e+01,-3.388383794531586890e+00
7.250391611163969685e+00,-6.605956083470607254e+00,-3.804641550006033324e+00
-7.163523360197712186e+00,-6.956518466261022438e-01,6.224793847731846519e-01
7.752695983981518602e+00,-5.480086999315242124e+00,-1.087179231359123532e+00
-6.391523978948765894e+00,9.884518433951848593e+00,2.106389880138599846e+00
2.821832260934026948e+00,9.559200164808432376e+00,4.700956116906231053e+00
-7.557866004640191981e+00,6.157052719939470009e+00,1.017713967050914770e+00
6.433490891199235229e+00,-9.414446180631166783e+00,-1.636536607848666947e+00
-5.640137866782180431e+00,3.259030012560175216e+00,3.892705642671819177e+00
6.883128894192002356e+00,2.318782163798394969e+00,2.707253873399936284e-01
-5.316186437253974439e+00,9.713877396612318194e+00,1.327861430137490473e+00
1.755742219239862401e+00,1.053263373550174542e+01,2.129005324731974458e+00
-5.189395528005708691e+00,-6.710766696370053630e+00,-2.218800267141552762e+00
-6.757923191354889170e+00,1.008747320157616656e+01,2.547280538978701880e+00
4.868845335784732775e+00,-1.179344771754513843e+01,-2.582038545246736483e+00
-2.093123549841173325e+00,-6.160122103240189162e+00,-5.255757214077417139e+00
3.681381919073437814e+00,5.791115649777214269e-01,-3.163726177017897712e+00
-4.559769403315446112e+00,-7.421385287681854237e+00,-1.587322666615103683e+00
7.553223962767920519e+00,-5.710572936191354865e-01,-6.556352026160467972e-01
3.980592638675913175e+00,-5.985817933242182365e-01,-3.529571329322760853e+00
2.500677106625034618e+00,7.387965885384203624e+00,5.218471221488042211e+00
-7.644461745672091801e+00,6.244628846766285157e+00,1.215674321715153328e+00
-1.184307695951791056e-01,-1.284445176067201899e+01,-4.567789101012354358e+00
-3.564341677648394047e+00,5.171006493203760712e+00,5.178038149567381510e+00
-3.910849734117968768e-01,4.458534058866126415e+00,5.225978091601966469e+00
-8.288538927748768659e-01,1.294317327272171170e+01,5.379119989076486696e+00
3.599623774176490265e-01,-1.182209610682395429e+01,-2.424690179560236025e+00
-5.542157816439407192e+00,1.253464097009156220e+01,4.497977235643820570e+00
-4.868033234036192702e+00,-5.787459374242096999e+00,-3.580048603368793381e-01
-1.047349127534598523e+00,1.134175813204967831e+01,1.905314914756780942e+00
4.801241464319836894e+00,5.981917958083445619e+00,4.842137698039311600e-01
7.256172974128346276e+00,-4.478985554090410548e-01,-1.419246289315953202e+00
3.000188706236985414e+00,-1.277329140629733395e+01,-5.669501255955854191e+00
-5.236425817199388710e+00,-3.155431649173156217e+00,-3.479686467836320851e+00
7.390387945558901661e-01,6.759687341362909940e+00,-8.561866888068060399e-01
-3.367188998518886756e+00,-9.661427399084727696e+00,-3.982786016528007345e+00
-4.764890425436460575e+00,-2.469095920818918710e+00,-3.632321813172784353e+00
-3.294384084416615455e+00,-1.298234402115725050e+00,3.032878396859513881e+00
2.912509250703068098e+00,1.894551572601502309e+00,4.158326937080765617e+00
-2.394398641013543383e+00,1.269926619244349730e+01,5.752582537873156987e+00
2.422133475762272337e+00,1.089483942439187913e+01,3.605732668902287941e+00
1.959138686747204483e+00,1.020772316666607837e+00,4.129647960686757990e+00
-1.487755148672637473e+00,1.342183048915062571e+01,5.201958344767947828e+00
2.957211613666132610e+00,9.997147888412831307e+00,2.698932814770951261e+00
-3.745343176303504329e+00,-2.267565859046828169e+00,-3.999024203638838593e+00
-3.195220966517941186e+00,1.044062836177556619e+01,6.142839381335478244e+00
-5.015607386084976582e+00,-7.168481895178370422e+00,-2.432426157456818672e+00
-5.977482927118207279e+00,-9.888504826359714173e-01,1.900327081842281496e+00
-6.355662837701307133e+00,4.138108223839827460e+00,-9.651975285501530610e-01
-2.795914563337474679e+00,1.355559753977130555e+01,4.894571954201566655e+00
3.930751383916838204e+00,-3.451488733321141922e+00,-4.579599691730590116e+00
-6.914436051672246952e-01,-7.600894559464089539e+00,-5.720736538371288482e+00
-4.706051553870892690e+00,-7.498316489816783559e+00,-2.148365707504094502e+00
3.385515592360020865e+00,1.141343451351933602e+00,3.824725567592487607e+00
5.399862977562209565e+00,1.728520373588430692e+00,-1.835292355129595432e+00
4.574536456559605391e+00,5.876802546667144966e+00,1.059915129009701557e-01
-6.032482521564938693e+00,9.445447920822168442e+00,5.019186017046558312e+00
4.681930906581474261e+00,7.530120565838899438e+00,2.144190703449551982e+00
-5.549786827181503845e+00,-1.233610080157242495e+00,2.098888411689221911e+00
1.485790389779411358e+00,1.098166681519098908e+01,5.199327614809064357e+00
-7.674441486000306512e+00,4.554555183420958997e+00,5.245934480906592201e-01
-4.965133143519533832e+00,-5.845396871374537895e+00,-4.466529065206683025e-01
-6.660907103691950049e+00,1.025763387839769258e+01,4.471966262881196030e+00
1.074864278402019480e+00,-8.637578159937040923e+00,2.047331158169506029e-03
-2.333889851633237367e+00,-5.541054467310218890e+00,1.161279705119878658e+00
-3.555051583102470492e+00,1.192741529378466048e+01,5.867650172256615448e+00
1.079169336533416290e+00,-1.291111055609823133e+01,-5.394267388940916952e+00
-7.349576203791059470e+00,8.130362459977183320e+00,3.700109599651779213e+00
-7.121915108404470729e+00,1.959317761378743805e+00,-1.054044930601774954e+00
2.535410069843504033e+00,-1.351290771604756102e+01,-5.188339738219784891e+00
7.207234803811372714e+00,1.081045041681357288e+00,-1.092834241970780801e-01
-4.317231947466700248e+00,-4.693832542388643780e+00,8.884636335573538046e-01
-2.408768660265962147e+00,-1.077186468479158599e+01,-4.200483717656992688e+00
6.359115193840516156e+00,1.051545278475227052e+00,2.379384293349255941e+00
-1.505458396151632794e+00,1.217283139056218211e+01,5.998894491709952703e+00
4.958333050915553764e-01,5.328581904087284826e+00,5.423474262312320882e+00
-5.297114247326618619e-01,5.234686093132402185e+00,-1.829470486871362489e+00
-3.666551044523525871e+00,1.191105175940308136e+01,5.893828178222419112e+00
3.438895421227362359e+00,2.528595478907853078e+00,-2.412019413836594239e+00
2.958295099181646570e+00,9.833320810266812373e+00,4.373366029459987203e+00
-5.065103774198536080e+00,3.723152053379342075e+00,4.337783623937922606e+00
-6.060065851576046825e+00,6.955302394707660874e+00,4.754360566988521164e+00
-5.848656006307825450e+00,1.042301896688574425e+00,-2.247072623469867914e+00
1.573585770489734692e+00,-1.026286006347923419e+01,-6.138499446511503699e+00
1.679413091571904770e+00,1.047517227767735548e+01,2.126208411960046174e+00
-3.745803438294032173e+00,-5.769797499945971353e+00,-4.487508338563779731e+00
-2.711694439397174250e+00,7.070175563305216571e+00,5.754718993118149939e+00
-5.951748101753840947e-01,-1.786604595793118699e+00,3.218100479559529603e+00
-3.015883811173238005e+00,-8.072237467291712321e+00,-7.516454340179538063e-01
7.547921505433672351e+00,-3.272449889934924805e+00,2.481076452817795319e-01
9.947163346325016420e-01,1.100088534537687401e+01,5.387736097898066845e+00
-5.948850136947955392e+00,-1.051453538767920026e+00,-2.648577062708050711e+00
5.461857402089518310e+00,5.727631355822388137e+00,1.005244295881051908e+00
-3.477697379470026551e+00,9.743939452117839295e+00,5.950964805926919787e+00
-2.757562327226741772e+00,-9.784858232723314231e+00,-4.654434205212609754e+00
-4.607548249749405578e+00,-2.991282885723156149e+00,1.709353461703607913e+00
5.496946970124026777e+00,-2.703565448823520345e+00,-3.816245050038735265e+00
-7.434886426964257389e+00,6.177457515113081499e+00,3.421375741130577186e+00
3.987925986826797331e+00,8.693831026129460682e+00,2.634164845869338301e+00
3.684528943071571083e-01,-5.886651760985242454e+00,-5.584426958311669686e+00
4.163730761154607940e+00,5.982918953201954437e+00,-7.833876090295717465e-02
-5.361235714035631261e+00,3.474157431190470380e+00,4.150747319407904534e+00
-6.505378866516795533e+00,-2.922704371692665948e+00,4.601192380075899702e-02
-1.722892391481167129e+00,-1.146362783021500498e+01,-3.694791964469438028e+00
-3.995435393634411358e+00,-6.041171613097893633e+00,1.180899033127788544e-01
3.352172041243206113e+00,-2.080301043968281860e+00,-4.275439623063612693e+00
-1.088051600200465208e+00,1.101128215244551178e+01,6.054106536620199819e+00
-6.615831980135638446e+00,-3.518095214082028743e+00,-1.736927452781377834e+00
3.653340129366982936e+00,9.091525067487371103e+00,3.761719974792301802e+00
2.380833339626885703e+00,-6.026513857470495950e+00,1.372149852330097008e+00
7.337287546375286240e+00,-9.104653019663892621e+00,-2.978627459034103531e+00
-9.939816951397523193e-01,-3.040843051878950209e+00,2.715154290829535189e+00
4.803411399176875207e+00,-1.179106146331125871e+01,-2.618301541728797588e+00
-1.935374155683206698e+00,1.189049024162729573e+01,2.243101375572133183e+00
-1.008814954205884185e+00,-3.279844567565864288e+00,-4.842090776441662747e+00
5.646007977537918165e+00,5.067422799784051968e+00,2.943251233227435648e+00
4.021601066398099000e+00,-2.195936846222831029e+00,2.643742040095302226e+00
2.375432387504600396e+00,-3.707107593738462104e+00,-4.972841206918698909e+00
-6.219818548570976269e+00,9.134332940865643735e+00,1.374406967624508979e+00
-7.326861840455839214e+00,7.428405934316893777e+00,3.813221791497038549e+00
-3.252939075073001174e+00,1.144499334234200028e+01,5.979020281785042634e+00
-5.801932188765856147e+00,5.063996005623454089e+00,-9.207632978554527448e-01
-4.275712213214973190e+00,1.255540354185292706e+01,5.575660470725962270e+00
8.938472116766694731e-01,-1.211905284513090386e+01,-2.682653014959087479e+00
6.682124413032775934e+00,-6.929797997835077439e+00,-4.332440293338095216e+00
-6.269775466038684186e+00,3.129393759438181988e+00,-1.355347389760224397e+00
-2.923884053774323366e+00,-5.681075630080059113e+00,-4.854535885418478358e+00
2.935133816557616626e+00,3.994171103559621683e-01,-3.425757181515408867e+00
1.084177412284553776e+00,-7.396498064917619075e+00,-5.870186157740858945e+00
-4.335966159175955958e+00,6.724337691199038680e+00,5.385413042426886676e+00
-2.230366863963065605e+00,-7.989736057746255504e+00,-2.815591409470374340e-01
-3.147591341109651442e+00,-7.671915062591761370e+00,-4.905060533269287149e+00
-5.098597878063506172e+00,4.245275650643904441e+00,4.513226827085545345e+00
6.192585089652005159e+00,2.344436099436350673e+00,-9.197213833655782933e-01
-2.362648976813080726e+00,1.282991782306450901e+01,3.223343295281629217e+00
-2.944933798476812026e+00,-1.002053044679997917e+01,-2.884557278813347558e+00
-7.572832842406744369e+00,4.633772491426372930e+00,3.820580630912119302e-01
-7.049888169032979768e+00,9.589391619233028408e+00,2.667043428351116408e+00
6.137868925238234574e+00,9.129437039526195896e-01,-1.768614027666963739e+00
7.431521544468270291e-01,1.156999621500132669e+01,2.666757198706482423e+00
