-2.027557649512640392e+00,-1.689139164897147660e-01,-7.103320851396423663e+00
-1.625634593280044449e+00,2.195484391544781921e+00,1.108247387594247124e+00
-1.692919308607771178e+00,1.508523795287445735e+00,-6.088620260557791042e+00
-9.346488393581166010e-01,1.657330593570849331e+00,-5.370420446771695389e+00
9.627816690909081210e-01,1.058646772526182778e+00,-2.267285852669641777e+00
-2.164121650841215772e+00,2.165855145913629098e-01,-6.863802892742448813e-01
2.420184790534415153e+00,-6.848440414056089498e-01,1.633441154056795463e+00
1.174365838097408243e+00,-2.114077512048772700e+00,-2.570652002805779102e+00
-7.815656283990304320e-01,-3.278990889943412146e+00,-2.452111965896060397e+00
-2.002617655400547036e+00,2.909976505368832900e+00,-2.227829216780417010e+00
3.562632509812188042e-01,2.997488429954639155e+00,-7.818332886827658035e-01
9.122316145173354762e-01,-1.657965739993894960e+00,-3.376959976461097135e+00
1.118195002052148945e+00,1.518209922773050558e+00,-1.351665184045547585e+00
-2.330289957630863551e+00,1.416531284963766124e+00,-1.272800521613023816e+00
-1.856606727138566004e+00,-4.512914589172242197e-01,1.117514040062128101e-02
2.432437295264576083e+00,-2.900189107798203381e-01,6.633832380165514131e+00
2.265869560332443466e+00,-1.736166764579218702e+00,5.695216858219753320e+00
-2.276980746140433887e+00,-1.539532686137653927e+00,-5.489761256122603683e+00
-4.048704856311101108e-01,8.429520672786552371e-01,4.550864191473663389e+00
-1.799539958123757666e+00,3.044701260790920294e+00,-2.239517522226765589e+00
-3.148885272475187951e-03,-9.497522300492833303e-01,-5.331999461692402242e+00
4.321097236903217453e-01,-2.423251101756584536e+00,-4.088071726548452745e+00
-2.289256434829792242e-01,1.144738155093022680e+00,-4.801738522785034213e+00
1.646525294601731693e+00,-1.448431226687555418e+00,-1.441016190811945208e+00
1.754495904578430077e+00,-2.878085704727847194e+00,2.683820107468765648e-01
-2.633513307410878745e+00,-2.320509909965529916e-01,-3.785398504016252996e+00
5.086890733498937722e-01,-6.276948858307164203e-01,-4.369154400989897269e+00
-2.527853932348760324e+00,-7.356005828745133535e-01,-4.271899237618556278e+00
1.242976729316693119e+00,2.742626116534138347e+00,1.638378685223692566e+00
-3.475575857674369495e-01,-5.616655972331143776e-01,4.156055381595209042e+00
-1.851391312051558768e-01,-3.533937733385473567e+00,-2.580667979285619307e+00
4.222046963734098490e-01,2.173802531332826415e+00,5.634242576007499892e+00
-6.682319576181263709e-01,-2.727038707645359938e+00,4.184283698868774271e-01
3.556726049770372877e-01,-1.752972093472476622e+00,4.395536678150604892e+00
-1.818397790948305948e-01,2.719583586544533471e+00,4.201639529510589277e+00
6.760219536932202677e-01,-1.246354921528258552e+00,-3.974228260198109375e+00
5.641199615370091625e-01,2.552384231867598885e+00,5.439821259607260373e+00
1.432318844572202154e+00,-2.303724150900638534e+00,4.961545727527261640e+00
-1.104657005945983039e+00,9.319628833654253208e-01,-6.201740941295934562e+00
2.622817658814896813e+00,8.081751976626846967e-03,3.574821395722823869e+00
2.415527965493703633e+00,5.859653310749657340e-01,2.836033249364697362e+00
1.404677252650119890e+00,2.521762050147589918e+00,5.543776539762356848e+00
1.051013895279744315e-01,2.156283876569636604e+00,5.195124342836492382e+00
2.179571150907157140e+00,-2.470759796410812559e+00,1.718956268394873810e+00
-2.259296670163470466e+00,1.050576428648855587e-01,-6.997194155787921588e+00
1.538994765292518441e+00,-3.185626834249090766e+00,4.134123840313260190e-01
-1.774606605712275353e+00,2.572752847925780184e+00,1.400514286243880746e-01
-2.662807040074633758e+00,-1.789138002858763343e-01,-5.758078052893788268e+00
1.101321758857738642e+00,3.035799889521774819e+00,3.948574616822241090e+00
1.329756617189957746e+00,-2.642914998470917265e+00,4.208822972280628960e+00
-7.899603462492363892e-01,1.542327980145367761e+00,-5.333462615578036470e+00
1.407395512085886313e+00,-1.091478055445056272e+00,-2.152116612998099754e+00
-1.692422943794781975e+00,1.028928053847465440e+00,-6.484924571372745028e+00
2.565896347327126126e+00,-7.885991720814867767e-01,6.153400285915523682e+00
2.874063968914575273e-01,-3.262753286809844333e+00,1.403251823844928525e+00
-1.713158893028415175e+00,2.220406682398731846e+00,-5.189866039853062496e+00
1.144261169769099640e+00,-3.519924853715365121e+00,2.162726006972245374e-01
1.409447837256231129e+00,7.486369719750036733e-01,7.032531161176717838e+00
-2.352886799174018773e+00,1.157671553938389719e+00,-6.215330864074286588e+00
1.939625934371375982e+00,-1.571845999759420298e+00,6.003231088213802025e+00
-1.225857644129039636e+00,1.477495672401274163e-01,-6.780292844573969191e+00
4.386996761590680749e-01,1.165373068252906652e+00,-3.446596742643393885e+00
7.364850845335202401e-01,-3.571519553733003338e+00,-7.920444294958550735e-01
1.899286114552334537e+00,-2.878972028001545169e+00,1.498578082962126246e+00
-1.362759824203842562e+00,-2.141532991185635115e+00,-5.776126062633889502e-01
-1.424041020298604243e+00,-2.830373519054269593e+00,-3.753546452308787806e+00
-2.199474150680472029e+00,-1.691110242116604878e+00,-4.305060740633673610e+00
-4.392188018349764134e-01,-6.424311200161014757e-02,4.180971339601184056e+00
-7.993529283227212012e-01,-2.650604962795881203e+00,-5.352833931148982316e+00
-1.953940256023608268e-01,3.624847954258321181e+00,1.262300163154053356e+00
9.139969775978269428e-01,-3.516013507431018148e+00,1.034594358300213290e+00
-5.720718203419311587e-02,1.799420152324204158e+00,5.160009948814273883e+00
-5.494941632863321601e-01,3.669819344329948052e+00,7.197654770570618421e-01
-1.027936249252827228e+00,-2.040267420338655491e+00,8.313995371257126843e-01
-1.473661889009207693e+00,2.530305182076183268e+00,-4.531627864281237983e+00
8.402328532633723812e-01,3.208116505307824884e+00,3.503034369077562271e+00
-2.687520174075776147e+00,-4.425012885318244799e-02,-5.538505020672863211e+00
5.789458244538515930e-02,3.093484263712106941e+00,4.034957567465269790e+00
-1.864034184114665038e+00,-9.998367437482001685e-02,-7.105899154160951525e+00
-2.498523920529930997e+00,1.406627730584187816e-02,-2.585795405254651680e+00
2.736603630757606265e+00,-6.861807116520790562e-01,4.762285064947800350e+00
1.513359385137101887e+00,1.497760446723821914e+00,6.816606256189748692e+00
2.590078700371242437e+00,-1.586621409117609183e+00,4.893195894167758020e+00
-3.941432499461560157e-01,-2.539640307108481654e-01,-5.836942759704569106e+00
-2.320619328623726663e+00,9.618128168124381316e-01,-6.486113393648702541e+00
2.021794657218064284e+00,-1.383219538690364736e+00,6.255443283321786119e+00
-1.770419562125225665e+00,-2.227241135342004519e+00,-2.632641436632127796e+00
1.181027177901377900e+00,-3.473450571399510522e+00,1.020719504609486794e+00
-2.859560578334814362e-01,-3.473147843035215843e+00,-1.331061223573378305e+00
3.588993453102612419e-01,-4.558253882568802928e-01,5.557413625167275661e+00
-2.504906268376883460e+00,-6.488951672259394288e-01,-3.392858773740426770e+00
1.235431465949296884e-02,-3.626832252150118396e+00,-1.000182451352077839e+00
-1.340819490038461570e+00,3.949743842958960971e-02,2.034335043161108469e+00
-2.070965710881289112e+00,1.918874055385916266e+00,-4.005788824046724317e-01
-9.352570658112171476e-01,-3.185352654914290760e+00,-2.775372473753407565e+00
-2.148326821679571008e+00,2.412675175955855789e+00,-4.379326113292951739e+00
6.776469425095237309e-01,-2.585890921235939999e+00,-3.408680260081741409e+00
1.226791241625625917e+00,4.632824382093179150e-01,6.875880160329328916e+00
8.071944410283322657e-01,3.232663140587406225e+00,3.864153869091717208e+00
1.154745062826123991e+00,-3.487528741424765322e+00,1.406673022245485960e-01
1.504588666936769847e+00,2.495167508881671825e+00,5.315739590061863140e+00
1.682713650343275580e+00,-9.791070291625800781e-01,-1.323203630592628244e+00
1.390706656180190626e-01,-2.592596469961878647e+00,2.762724918102408722e+00
6.884654710188480298e-01,2.710253918001915618e+00,5.223364184234238650e+00
1.958332318256033266e+00,2.130307058120769703e+00,3.990621205994712817e+00
5.250223728598000239e-01,3.163173805381728876e+00,3.122783463534414827e-01
-1.600249457597848313e+00,1.918876395686472502e+00,-5.538977003869703708e+00
-1.159085325087678253e+00,-1.167963939140024832e-01,2.438112294382285938e+00
4.912045584790080133e-01,2.069424758740209480e+00,-2.230385069481251481e+00
-2.020880127582506791e+00,3.075568850322455902e-02,-1.620705413169090114e-01
-1.779257891834816530e+00,-2.116718989717516486e+00,-5.698535963872901178e+00
2.503090864119888348e+00,-1.919168899507221804e+00,3.948809503968008006e+00
2.642933806194805779e+00,-4.340429148112583402e-01,3.201760976301751604e+00
7.116439404912159317e-01,1.318459139481028330e+00,6.316734428252969380e+00
-1.652795020758930367e+00,2.752997998220013010e+00,-3.931735382828156045e+00
-1.127313820925341936e-01,1.620685371276585407e+00,5.071084940176842970e+00
-7.678874046860229008e-01,2.847639392610300302e+00,2.921910176699039852e+00
8.708349467014460110e-01,2.721114258395782581e+00,1.679009495280381903e-01
1.062896742411194362e+00,2.021451493672580924e+00,6.346502798993278738e+00
-1.655703496012645992e+00,-1.157866320055668252e+00,-1.356804778327250736e-02
2.196323571430708554e+00,4.052130497968323697e-01,1.349324137248681277e+00
-2.074653082907735868e+00,-1.246180274491030193e+00,-6.662634557267544722e+00
-2.117043697982728290e+00,2.674675853015714644e+00,-2.766486269863456915e+00
-2.256207097174272480e+00,2.729744162139382535e-01,-6.792835598825523569e+00
-2.451834872292227629e+00,3.492806492943014152e-01,-2.138043867663837361e+00
-1.129543814251366296e+00,2.154455632673698329e+00,-4.867297204860576265e+00
1.086071734772702468e+00,8.512359064665960817e-01,-2.102761776285945405e+00
6.829286510944740929e-01,-3.011709947796337605e+00,-2.848824912440815371e+00
-2.139943470876155107e+00,1.650688311941532760e+00,-4.440552945694760667e-01
-4.373593879020592351e-02,2.835373883796818539e+00,-2.124688575350349939e+00
2.619517592396696237e+00,-1.475464708867620045e+00,3.474780557295586103e+00
-2.573183625055944557e+00,9.789066049789200141e-01,-2.766513679104528833e+00
-1.477855653341288988e+00,3.088110481449692912e+00,3.970587777144264363e-01
7.170435052488706162e-01,2.658519213867823971e+00,5.382648311897013649e+00
-2.509314907521705607e+00,-8.597293692323261238e-01,-4.354721224304303639e+00
-1.471090193525719014e+00,1.441656444341870236e+00,1.939457451542505817e+00
-1.862968009653765966e+00,-2.138556943535163679e+00,-3.027271258121223330e+00
2.480651758729145229e+00,-1.552514151549545085e+00,5.345780884349347950e+00
1.139862114719321973e+00,-3.489288323363455735e+00,7.262712547499416971e-02
1.485224689954251831e+00,-8.792249606974289478e-01,6.591025122400423264e+00
-9.380993351027963056e-01,1.829455407396886280e+00,3.338827390510400672e+00
2.419249949411915512e+00,-2.032972127371091897e+00,4.698137865028848559e+00
-1.693404728016397964e+00,2.073583707268872978e+00,-5.373074385157589283e+00
-5.826801988431564716e-01,-2.221405182076030105e+00,-5.775306376784699935e+00
-3.396954052250790723e-01,-3.287329460082672572e+00,-3.780181009952468418e+00
1.422390138272732640e+00,-1.860030499691004424e+00,-1.966207854092199003e+00
3.358795074800553504e-01,-1.844313330883792901e+00,4.248165474724615365e+00
8.145627102711762157e-01,3.252543743854241054e+00,1.915352315274329031e+00
2.050669377838853613e+00,-2.183575812200761135e+00,5.120703828042751482e+00
2.633601108348016862e+00,4.108133541075256745e-01,5.294387767450797533e+00
-1.768465440617189799e+00,-1.546681272419984099e+00,-6.718827264978509461e+00
4.820398375363789401e-02,-2.730894001301059859e+00,2.243413241520892498e+00
1.495532466172397656e+00,-2.272280166296131387e+00,4.956793698502733214e+00
-1.894047909540020891e+00,2.860444632401214715e+00,-3.376108636098766880e+00
2.660772056892715121e+00,-8.863584066942821194e-01,3.356930131720639032e+00
-1.057397397332364930e+00,-3.264390542803525808e-01,-6.738562188628909766e+00
3.134870549586028510e-01,2.549073779452560196e+00,5.138380243335141984e+00
6.640408993814880256e-01,3.097905434331921004e+00,4.464964772752833433e+00
5.978866875579667006e-01,-3.550024117120006650e+00,5.530085724479480991e-01
1.383107962954470471e+00,-2.405002715753895792e+00,-1.706039585840378292e+00
-1.516090885867377391e+00,2.288941682467250605e+00,1.350339683108574107e+00
-3.476399582241241903e-01,3.272835366183403760e+00,3.049963753470581462e+00
-2.139017492912639984e+00,1.047632500507381659e+00,-6.526800176026446465e+00
-2.628418481973713305e+00,-4.361687013970946825e-01,-4.496495964904900333e+00
-1.457889512175924551e+00,3.312626455608637333e+00,-8.005232991378987695e-01
6.602960152912221714e-01,3.281830375287486667e+00,1.513795441792582519e+00
-1.613391089279508694e+00,1.639260058408596121e+00,1.412887468293429594e+00
1.286871435587601642e+00,2.323502588119962908e+00,5.950725494488846579e+00
-2.137808057401940243e+00,-1.813685129382352823e+00,-5.225146848711552217e+00
-3.248884959685180984e-01,-2.539590589674829868e+00,-5.228149987044205638e+00
3.561116891433734888e-01,-3.379163931187351366e+00,1.202850122928938337e+00
1.012529010586511458e+00,-2.422983778462936666e+00,-2.720782424693357182e+00
1.019476913746236280e+00,-4.112830414062753071e-01,6.423797364393055709e+00
-4.794201573765842217e-01,8.395531106786983111e-01,4.409603304946040581e+00
-2.536747801220254672e+00,1.768559660937147893e+00,-4.759294747515644630e+00
5.479037354030102946e-01,-1.529608438132428638e+00,4.969604630449088845e+00
-8.459999170301616411e-01,4.843231691722956617e-02,3.404557925437805999e+00
3.043061280424229631e-01,3.494709552786791296e+00,1.124983609556020170e+00
-2.415359583993963888e+00,-2.778068410379377906e-01,-2.263992887497951134e+00
1.040996464909069497e+00,2.849202162262378213e+00,1.127696253988161867e+00
1.420334837381706627e+00,-2.241374340996663328e+00,-1.734822374104876053e+00
-5.042582854028933304e-02,3.598752192206554845e+00,1.139016673275314862e+00
-5.197886900820224421e-01,3.068909153454007388e+00,3.023592799130426112e+00
2.140541162939810338e+00,7.833392578042400745e-01,6.997038635164967602e+00
-2.544307232618332471e+00,1.187459487132397129e+00,-2.557899765690901717e+00
1.407607186633605512e+00,-5.610271888904924120e-01,-2.042222190671904691e+00
3.816122385288593377e-01,2.208243953854282182e+00,-2.226943098750349570e+00
-2.129482275261558755e+00,1.593639940942360056e+00,-3.390235580041398578e-01
-1.066501214327964187e+00,-3.550584402568048303e-01,-6.776529694185339459e+00
7.394010206198594615e-01,-2.717141508786022897e+00,3.554704590974683054e+00
1.893881426069334628e+00,-2.800534902245361835e+00,3.433722844604143010e+00
2.549795616652965613e+00,-1.817671144662376781e+00,3.244754287946455928e+00
7.662855951715613623e-01,-3.600864789520640041e+00,2.647308421661455080e-01
-1.924729627142960364e+00,-7.183610253930072798e-01,-7.094811626138636029e+00
-1.821229747420115119e+00,-2.273319106843986859e+00,-3.614066748157995779e+00
-1.317103067079845591e+00,3.393207817818602035e+00,-9.818204503204560618e-01
1.178479951012665783e+00,3.014453707862235543e+00,3.365219338053464959e+00
-1.962167001020878931e+00,-2.077893161368624231e+00,-3.817652677748272438e+00
-1.931392815549922259e+00,-1.598259452694335891e+00,-1.894943673581924060e+00
7.572239671999214661e-01,3.327826899522940085e+00,2.652528182026999914e+00
-1.704157499977597245e+00,3.084668989175753939e+00,-9.656725592218714516e-01
2.538052287105525995e+00,-1.769248600485290757e+00,4.043873935221568239e+00
1.910616665035695272e+00,-1.930522650695207343e+00,-2.701494049360518845e-01
4.016615031150725934e-01,3.429763319779386865e+00,1.415689903199298660e+00
7.551920377101891679e-01,-2.330854421880467431e+00,4.285065425351334945e+00
1.665943672473741088e+00,-2.017186821864325186e+00,-1.045346035612759961e+00
-1.312873880752079003e+00,-1.031795621223234205e+00,1.227832259406196114e+00
2.112170468932458522e+00,-2.412206631155008107e+00,1.174192249452174153e+00
1.374892403294377008e+00,-1.994096300975962688e+00,-2.052598868837215651e+00
1.229175495955052488e+00,2.225627980336015721e+00,6.051972562098975494e+00
1.640304519484655776e-01,-4.189971133973474648e-01,5.258105226078912509e+00
7.030204524613821171e-01,3.337383573039606866e+00,1.883380969369231384e+00
-1.897072614261978041e+00,1.692085859323273267e+00,5.300685553811957940e-01
-3.392727005280231634e-01,1.724929431278223069e+00,4.669898260660311884e+00
-1.206790314106709561e+00,9.366876971929800622e-01,2.644235017591868520e+00
-1.643185269466837184e+00,-2.509780856203120969e+00,-3.338554922352860554e+00
-2.088871201923816034e+00,-1.512799798363840376e+00,-2.562955475883662348e+00
1.341659746134402642e+00,-1.896223648998681233e+00,-2.198247727107047744e+00
-1.162840213890608876e+00,1.855250093151837198e+00,-5.379889777379666782e+00
7.521665388974171362e-01,3.253475364701197581e+00,3.811934088417293864e+00
6.180725659524753945e-01,-2.179306129294239280e+00,-3.855161590992424614e+00
-2.396417484686648613e+00,-1.191750355310331244e+00,-5.597978926095941610e+00
-2.443068806596176312e+00,2.012685943892547069e+00,-4.558451163479703361e+00
1.432757287024391202e+00,2.471710766748191457e+00,1.665151942950664932e+00
-1.787955574195225328e+00,-1.539617565178375225e+00,-6.728082415314317721e+00
2.212519657600520162e+00,-7.570011502149871507e-01,6.725623113682038579e+00
-1.333568272310371006e+00,-1.486317700630577443e+00,-6.736154751685628383e+00
-2.572685338230874530e-01,2.762022078902250488e+00,-2.706246279146154787e+00
-5.777957338443318047e-01,5.755943255379591950e-01,-5.769971398570155507e+00
9.006722058094038807e-01,2.704562346970627917e+00,2.782413556068122906e-01
-1.075465401243741903e+00,-7.135234727253937370e-01,-6.753250732712852589e+00
2.577476518555577578e-01,2.672905543551427066e+00,4.861622806919970508e+00
2.483942540254084008e+00,8.144686317329462577e-01,6.076174824487061699e+00
-5.116494797039761178e-01,-1.909655208443076679e+00,2.426740871059772431e+00
-4.966571981771357724e-01,-3.088142539808809595e+00,1.063333837864610526e-01
1.246858003401828618e+00,2.915742170091203178e+00,4.456200182466729665e+00
-2.008867079402258504e+00,1.257608340846143813e+00,1.571042697992176274e-01
-1.725246753245968767e+00,1.034964231332180074e+00,-6.538819887900926275e+00
-4.669774778064965659e-01,-4.529278856189662694e-02,-5.959621499953842161e+00
-1.859855005132133199e+00,-9.824401547277835656e-01,-7.077829658058873541e+00
-5.219180526851632251e-01,-1.643036293764808864e+00,-5.966142977724523178e+00
9.445504551326432408e-01,2.688218160028548631e+00,3.990475450073129315e-01
2.026912822113900337e+00,-1.919839213328709882e+00,5.571239182778308319e+00
-1.900532875391783838e+00,-1.691514561479565248e+00,-1.866186082196419571e+00
2.112435876923390854e+00,-2.735214878231489344e+00,2.446674006867946005e+00
2.724210135502677765e+00,-1.142117452797044796e+00,4.394624932709311871e+00
1.708045215884115064e+00,-3.150613630032569112e+00,1.774771692467395079e+00
8.550535852598680764e-01,-2.601393951451760334e+00,-3.032323723515790270e+00
1.532246493554520195e-01,-3.332202287625581683e+00,-3.097154259558009048e+00
2.172328512861861682e+00,1.177583860202873867e+00,2.258833923000833188e+00
1.140850848184331801e+00,-3.476219039664070198e+00,8.028035114177902720e-01
8.485235615977569923e-01,1.680648890994018263e+00,6.357620762630422639e+00
-1.072876860877113536e+00,-2.199622745367671328e+00,-6.181932534375721211e+00
-1.026390771246586286e+00,4.175694419966507476e-01,-6.467217553185260925e+00
2.355567595952426263e+00,1.377107664604785064e+00,4.554122530758634824e+00
2.174728350299068413e+00,-3.290599782476003043e-01,6.880160152494316783e+00
1.879229403861420789e+00,1.195894804714559889e+00,9.939462687832584242e-01
-1.003658431196994272e+00,2.704485167454016015e+00,-3.936880580348486536e+00
5.688352017796358684e-01,3.378995683187794530e+00,3.278787337843826144e+00
-1.221766857014651153e+00,5.763213992279427877e-01,2.607870519846589907e+00
-1.098814554345725503e+00,2.417724060909209882e+00,-4.420354878096530271e+00
1.234870815392685506e+00,-2.984706217923226212e+00,-1.370796220374523422e+00
2.217109964145491663e+00,1.650206878799335142e+00,3.901252110537314799e+00
-2.367044117298482853e+00,6.735905796016703473e-01,-6.614551282747952676e+00
1.395103166551290741e+00,1.457275158713181140e+00,6.882708314787109316e+00
7.801318276105885241e-01,-3.208205478750713713e+00,2.477030741486525578e+00
2.473092668321331900e+00,2.298648551049624067e-01,2.547607194103497896e+00
2.663284995527560373e+00,-1.297935330824784295e+00,3.520805917521926176e+00
-1.401735872641681313e+00,-8.770039244804014311e-01,-6.942461286398760478e+00
-1.963976717888636703e+00,-3.725007825949205875e-01,-3.755602951371179166e-01
1.898783512984879129e+00,-1.393569725705564366e+00,-4.720522806551266659e-01
-1.194054363389960738e+00,-9.757130543672406509e-01,-6.908552276466465969e+00
-1.858810140639586717e+00,-2.654278241835960062e-01,1.187557562552093854e-01
-2.496505124175809609e+00,1.486716316744695288e+00,-5.346231559336994899e+00
-9.069299242969502961e-01,2.397005975524334698e+00,-4.289556146629649014e+00
-2.118174351951766177e+00,3.331765565983050847e-01,-5.130054160309160949e-01
-1.595939284839374084e+00,-2.539395927303220279e+00,-3.099034087304741725e+00
1.411762533999763480e+00,5.711059534046363240e-01,-1.430123687099690732e+00
2.086767545422865577e+00,1.906419603008711494e+00,4.158537348185677551e+00
2.696291010921908260e+00,-2.414597130057694330e-01,5.885074538430590252e+00
-8.195656978610593724e-01,3.077108090637291404e+00,-2.743956114891748399e+00
-1.763321795057337382e-01,1.211331187878958771e+00,-4.677461623338103891e+00
2.176600693193818437e+00,-2.523372092117566634e+00,2.208062866138309932e+00
-1.757301623990135564e+00,-2.201307208343369570e+00,-5.703745409009734146e+00
1.447588191372497057e+00,-2.421435403502969486e+00,4.795652150854716744e+00
2.560872761802849507e+00,-1.261173401698370444e+00,5.599183498048775576e+00
1.231233871496740573e+00,-3.439164341396161007e+00,1.649615946203023542e+00
2.442573555560113352e+00,-1.659973576913473359e+00,5.244293756538427331e+00
-1.671866127908346877e+00,2.888731556057069660e+00,8.548255246847344391e-02
2.709790974288538656e+00,-2.947462189566810720e-01,5.680423613081690526e+00
1.845698250995321921e+00,2.336382208866876198e+00,3.947029108320595281e+00
-1.235754300515010229e+00,1.158136361595830666e+00,2.593427635535338283e+00
-2.586307042919717691e+00,1.696109902631506072e+00,-4.122872953905506677e+00
9.433010325259724160e-01,8.865340072557900131e-01,-2.525746258901952590e+00
-1.574209530231607923e+00,-2.542274958795497586e+00,-2.783825858279732390e+00
-5.625338979701535180e-01,-1.301958473820408191e+00,3.035800143064145917e+00
6.352411445241605836e-01,1.409076687530982364e+00,-2.727355231403270963e+00
-9.969580694362207840e-01,1.219510036147174903e+00,3.237466102428985248e+00
-2.487081166428193768e+00,1.627761169373149297e+00,-2.374106110945217285e+00
-7.984082285200266860e-02,-3.359633144046637376e+00,2.495648507282561823e-01
-2.282631126870666272e+00,-7.555631748970334516e-02,-7.000621078008577136e+00
-1.260620340784040394e+00,2.102666370671480767e+00,-5.104947669997970117e+00
-2.133134251781469981e+00,-1.077954846423183399e+00,-1.970284223325097006e+00
-2.001819245265020086e+00,2.215331901661609315e+00,-4.149136566643119584e-01
2.602342749653056675e+00,-1.048585619072445463e-01,3.099058332560606477e+00
6.879158525567053983e-01,3.303135926448346193e+00,1.667767766541746077e+00
5.662193245635299688e-01,6.333219467593755869e-01,-3.640047420556406177e+00
-1.045368082465054416e+00,-2.786954318495215688e+00,-1.060220740831075092e+00
1.537906818853181479e+00,-2.654901343821773452e+00,-9.638045150728306032e-01
1.738555264094538977e-01,3.177283141062629657e+00,-7.218659181547640857e-01
2.265817488491912168e-01,2.923011328523753782e+00,4.597979910992159525e+00
1.180579966940691117e+00,2.571363965308862021e+00,5.570260013061382409e+00
-1.646103171674121901e+00,3.184766868583721600e+00,-2.356808993622551363e+00
-8.467166781613757465e-01,-3.285585758253073418e+00,-3.306830806444799542e+00
-1.087790012918987914e+00,-2.862010396266381207e+00,-1.495940660873887440e+00
-2.187437133845608894e+00,2.056150159765447460e-01,-7.871501423365403483e-01
2.526355825272922573e+00,5.505020733734915517e-01,6.015548654937262540e+00
1.381003656760160903e+00,1.001942845093090950e+00,6.929311490874789925e+00
-3.833926087947590183e-02,3.019232094983378967e-01,-5.061207895797113387e+00
-6.982997631715059939e-01,2.940520723008208659e+00,-3.028629837487423426e+00
-2.795358210994456916e-01,3.585080947312827782e+00,1.662148437214427954e-01
1.111696770988786387e+00,3.043952545476135363e+00,3.643797050723523778e+00
-1.815285591014085265e+00,2.319853612604515281e+00,-5.000220021985140484e+00
1.222840293020080349e+00,-2.010675152626741014e+00,-2.504918116445906673e+00
-8.412513721666721456e-02,3.504953293654541113e+00,-4.803349142440221237e-02
1.182378998267892056e+00,-1.236491497621909630e-02,6.715167916038490503e+00
-4.249698132905319614e-01,-3.382633214255066356e+00,-3.314160668599263726e+00
1.649254626555289871e+00,-2.503857762367180051e+00,-7.294473164792028008e-01
-6.180046425794701870e-01,3.635933100625877490e+00,2.526361467186696158e-02
2.545072782369038222e+00,-1.746549029240064277e+00,4.844599290560639204e+00
-2.566912581281043604e+00,5.006083626490941824e-02,-6.163207683544980497e+00
1.366852194679447408e+00,-1.210634255534454029e-01,-2.031905862990180722e+00
2.470888742669992144e-01,-3.418304870021037889e+00,8.479561834891395922e-01
1.766580618903813127e+00,-1.961500034085095878e+00,-7.932145992201955487e-01
-9.014829087851277123e-01,3.113613985710253829e+00,-2.838323351760748015e+00
-2.258039725853879354e+00,-1.608040974259692835e+00,-4.822270566768911415e+00
4.604030675055527100e-01,2.533792476514017178e+00,5.380464206102824498e+00
8.234050277318250011e-01,-1.216327674715004026e+00,5.672426684586876711e+00
-1.588460920709505286e+00,3.138635279967174174e+00,-2.900353846466209085e+00
-2.552255347196850099e+00,8.336876884044417402e-01,-2.378990574960431204e+00
-2.499207879443873015e+00,-8.550968980482001047e-01,-4.173929563814050780e+00
1.358351933718318749e+00,2.077963893790947036e+00,3.161194647062060548e-01
-8.848523371413175020e-01,3.547202119431962508e+00,9.297750572554429604e-01
-1.138660696477731937e+00,-2.885541226522651659e+00,-4.844777814159932916e+00
-1.244240833197189033e+00,-1.213254680234397309e+00,1.294476136163746904e+00
-1.477048759046899251e+00,2.977365272236922600e+00,-3.473887086896871423e+00
-1.603530470110398065e+00,6.287840180291063286e-01,-6.718587131130488999e+00
-1.525852505217148991e+00,1.264050977024764100e+00,-6.225585351560995129e+00
-1.625749742117477137e-01,-3.605509662339589916e+00,-1.730617101126392887e+00
1.217023417312517036e-01,3.101853030663106914e+00,-9.681696716882962628e-01
1.346463085579070906e+00,2.396992066908871344e+00,1.067523087884423294e+00
-4.461621352575576016e-01,-1.543692135562932499e+00,3.078519702745677655e+00
-8.123205963174253696e-01,-1.807599252163463177e+00,-6.245857821619904549e+00
1.157731131081694231e+00,1.983354503238478950e+00,-4.688473505449371470e-01
-2.248934963229821449e+00,3.276503802824553557e-01,-6.920355926495120436e+00
-5.961948460129269378e-01,-2.512262484235181947e+00,-5.408232589997948203e+00
-1.364171285102295572e+00,1.931722793667397797e-01,2.027122392763055281e+00
-7.190301147078208555e-01,3.534184966837299768e+00,1.163266561075311900e+00
8.377959569925199634e-01,2.459847645647736059e+00,5.718515234209752052e+00
-1.507347651739605165e+00,2.109572303078556921e+00,-5.345765920551318828e+00
1.341556075484536370e+00,-1.008332848342103683e+00,6.382697364130884843e+00
1.249217904052782213e+00,2.952082245165254193e+00,4.181375427845807735e+00
1.511232121441817011e-01,-3.580016095590273562e+00,-4.993397681280156153e-01
-1.050556332789163577e-01,3.166267645474905468e+00,3.586962193845166347e+00
-3.872119669310798429e-01,-2.051157884694138733e+00,-5.612972027983624379e+00
-2.293630454220582759e+00,2.208874028981064885e+00,-4.507490135716818891e+00
1.424625175436560753e-01,-2.988438276720266629e+00,-3.891339733395497991e+00
1.625133432637903552e-01,2.098877464920630764e+00,5.371183686350251563e+00
-1.478583157593436948e+00,-2.572649377461040388e+00,-2.374408207217332034e+00
-5.371942420535553708e-01,3.582449203362329637e+00,-3.559402833555732615e-01
-7.668848617293720638e-02,-1.505528544441972372e+00,-5.378039006150094892e+00
-9.246823285896218492e-01,1.960423360138611182e+00,-5.003461710867943779e+00
1.287259555780529086e+00,-3.164986902126894819e+00,2.758489091313628183e+00
-5.766885930119057813e-01,-2.230444164921846273e+00,-5.770157647967696590e+00
6.793722855031487651e-01,1.119171259653260364e+00,6.386408397533176462e+00
2.600181531785184852e+00,-1.424366441302631126e+00,2.958734519381320816e+00
1.337556861423845334e+00,2.034194691520168075e+00,2.577241397249252497e-01
9.156120563598566520e-01,-2.981667645996555205e+00,3.151372172916832248e+00
-1.903625348744704682e-01,3.621382199586492767e+00,1.160805643156226363e+00
1.471376361809627831e+00,2.061994710290949051e+00,8.783632385333670634e-01
-2.579917863120633204e+00,1.767832767951373230e+00,-3.508038931253450343e+00
5.212517895800958950e-02,-3.031705690379441265e+00,-3.951338351211601818e+00
1.970698315776893805e+00,-1.296655656796097844e+00,6.406921924572858806e+00
-2.208886307256000769e+00,-1.420971938815905666e+00,-3.117489108726498870e+00
-2.460309050467502701e+00,2.574899180446738045e-02,-2.412413190597476387e+00
-2.307687181037781698e+00,8.025052561883582181e-01,-6.593593776319249145e+00
9.003579748767832625e-01,-1.072190338331956427e+00,5.882112662809681147e+00
-1.567146957141023256e+00,-1.470809224619055167e+00,-6.896640575929226635e+00
3.649975745583753928e-01,-3.011329369634562880e+00,2.274809916078015970e+00
-6.084503342336340381e-01,7.143306763908120471e-01,-5.706755610485680918e+00
-4.185631982027104847e-01,2.994442563968533921e+00,-2.381782800198183114e+00
2.108846267597769830e-01,3.537529794180236387e+00,1.096408566145109287e+00
2.311342025456917693e+00,2.838368757674971099e-01,6.768766706728259308e+00
1.999128806529588021e+00,-2.695147219083240842e+00,1.072662214598766761e+00
5.342966215557016785e-01,1.202372922117955767e+00,-3.170114011664123765e+00
1.971394711742646910e+00,-2.526920109050607710e+00,4.467752770335251533e+00
2.059602124542451396e+00,-2.377589614263753148e+00,7.983457962882588577e-01
-1.315306898569129190e+00,-1.923983756988043581e+00,1.409150570481829123e-01
-2.210794001511836360e+00,1.383849161560197771e+00,-7.495422844642277704e-01
-2.394537789591317356e+00,-4.740664632683255948e-03,-6.667136214204546718e+00
-1.692640072016253328e+00,2.237577930847890251e+00,-5.160412108310351798e+00
-2.153751269379803990e+00,8.221701770620167826e-01,-4.318776434015069721e-01
-2.164803067803871439e+00,5.508789048280448020e-01,-6.894405136732859596e+00
-1.299701937111999550e+00,2.444285786692224516e+00,-4.628418759382688208e+00
2.178393482475802667e+00,-1.839549627146150668e+00,8.302104498977802560e-01
-2.587903255735640951e+00,-6.802962987696333785e-01,-5.674803510002971230e+00
1.370867800756282673e+00,-3.122170029890364074e+00,3.008969509616763016e+00
-5.681719610201468873e-01,-3.117036479562262929e+00,-2.709602147198186817e-01
9.982542080729350786e-01,-2.527474016452772698e+00,-2.697166189241650081e+00
-1.922307607663333417e+00,-4.729907048303941264e-02,-7.096285898678478254e+00
1.928241730142095989e+00,1.764718852648791581e+00,2.300101584446951453e+00
2.703695089660070217e+00,-8.889122376800455694e-01,3.836327584368535160e+00
1.201698887516582381e+00,-3.028180869851365475e+00,3.193639671509043598e+00
-2.094533659581289786e+00,1.543615244187270807e+00,-3.167971807687643970e-01
5.917053949841255545e-01,2.921028793378597666e+00,-1.568047608492841860e-01
-2.184388502493338491e-01,2.894933514383258188e+00,-2.341945578780250337e+00
-1.865601501271277218e+00,-2.101715425550433114e+00,-5.470198042641677638e+00
-1.197278079911766824e+00,3.020511496633505821e+00,-3.211684391764653146e+00
-7.008012610143585785e-01,-2.950900472358569893e+00,-1.109634769592199172e-01
-2.418493162550457320e+00,1.701007374569374786e+00,-5.370004076742697308e+00
3.570351220887140742e-01,-3.203945221811606014e+00,-3.106503335270217381e+00
4.140420874197212608e-01,-3.059810347931966490e+00,2.295344768617705089e+00
-1.533422435301465159e+00,-2.277503028248073491e+00,-5.915556495676893789e+00
-2.755055041742098254e-01,-4.960782539555280701e-01,4.321978061952761685e+00
-5.509195979317434988e-01,-1.847813819089134224e+00,2.384711341641214677e+00
-2.392593859454841265e+00,-6.631060446050920376e-01,-6.428083265594465523e+00
2.299314442204876574e+00,-6.768879486605648976e-01,6.607018857352290553e+00
-1.154961758334496880e+00,-2.814629178277253452e+00,-4.929871417696266356e+00
1.042014705222712445e+00,-3.148577298551091364e+00,-1.721390547694743534e+00
2.086279267606031329e+00,-5.616720146365361543e-02,7.057181363166092680e+00
-3.994183197438855304e-01,3.616058962655030129e+00,2.972648828073832239e-01
-2.639179584680535484e-01,-2.690419577267638473e+00,1.757895702579141961e+00
1.989528532290440355e+00,-2.181456228194325941e+00,5.124902991531556928e+00
-1.577659169747237522e+00,3.055456645497264034e+00,1.199931107838987099e-01
-2.588119861366438457e+00,3.483301078850912780e-01,-6.319608505757654981e+00
-2.596724785158444071e+00,5.448860567990321258e-01,-2.742274968794677470e+00
1.065339827147913754e+00,4.676729989489301076e-01,-2.535463333267735653e+00
-2.398547343984027691e+00,-7.204554624568191290e-01,-6.433794937178904050e+00
1.026794925008836401e+00,2.101683459040623703e+00,-7.465196584991746764e-01
-2.133832475649124927e+00,2.326427646049439080e+00,-4.612736402237113786e+00
-1.726567059930037784e+00,-2.266586044981889092e+00,-2.551799246409653499e+00
-1.791002230231724779e+00,-2.392077451561096524e+00,-4.252380064502682799e+00
1.527352463106840030e+00,-2.570509765594988227e+00,-1.085187350005631046e+00
2.697709437857727544e+00,-8.263379285284369602e-02,5.403983674937781423e+00
-9.195733038848441510e-01,1.916952450975583089e+00,-4.984085336455276405e+00
2.338291115051156499e+00,-2.222534079175565669e+00,2.551790428968197411e+00
-2.506836815950305830e+00,-8.198708140136584666e-01,-3.966161889442364696e+00
-1.598021163818450718e+00,-6.881053651702713214e-01,6.779165760994626533e-01
3.833599373732569648e-01,-2.361643782775466605e+00,3.611235658390515635e+00
-7.016025271936535690e-01,3.247776946690315469e+00,2.439136987191341976e+00
-2.478818583642243389e+00,1.454827378948355010e+00,-5.442346812974398595e+00
1.683863330989798124e+00,-2.841271125122357244e+00,-6.312704909743901971e-02
-7.267817650806489560e-01,3.252915149278230444e+00,-2.203038999907754647e+00
-2.490372601397266461e+00,-8.873236266556280283e-01,-5.360787665531367985e+00
2.260987906851187113e+00,-2.207098627302420901e+00,4.622734594847013767e+00
-6.116078122868249256e-01,-2.679164156833794053e+00,8.656398721752937009e-01
1.463247670797353628e+00,2.564227227996908276e+00,2.085124675933648142e+00
-1.057000382331835908e+00,-3.068909861387568050e+00,-3.979307635652933772e+00
-1.366731895300427269e+00,2.792956133618702097e+00,-3.875124317508710448e+00
2.605965106657734509e+00,-1.833371671157492666e-01,3.117975136884408638e+00
-9.724730918170289284e-02,2.719819239703572311e+00,-2.433154237013964494e+00
-1.620003335303760617e+00,-2.427872621303384548e+00,-2.457207643821442744e+00
3.408480532874130220e-01,-3.489661628430470230e+00,6.803791883340463142e-01
1.676952096017545468e+00,-1.961294297738469083e+00,5.519823003241560500e+00
6.498329655703663499e-02,-2.647700089661013223e+00,2.479075478890043094e+00
1.848122927342380040e+00,1.628325228595100205e+00,1.556002978751175547e+00
-2.670542550985548935e+00,4.102138234478452383e-01,-5.709511295167796874e+00
1.218198873279835892e+00,-3.507471561338903587e+00,1.025590080627521328e+00
-1.894202823234348854e+00,2.611283548649611319e+00,-4.149673167258996820e+00
-9.802395515274471283e-01,3.607789092309379164e-01,3.148274948452151278e+00
7.751540675293543403e-01,2.651454856320083930e+00,5.374596817426199102e+00
-1.351632013617321215e+00,-9.984669525268858870e-01,1.261729862362401589e+00
7.017570267192918543e-01,1.089980989226692509e+00,6.379203118529602534e+00
-7.040090506619612887e-01,3.297453036004339144e-01,-6.087381584750271024e+00
2.390722707691575355e+00,-5.863498377487612601e-01,1.665562433491471817e+00
-1.715431940566246150e+00,3.149562738829491781e+00,-1.935289045582232248e+00
-1.629714375312622421e+00,1.528592543691347005e+00,1.423397275370547943e+00
2.220578711866755928e+00,1.006425127034996869e+00,2.262766355910914573e+00
-5.333204138059552402e-02,-2.013040585278298877e+00,-5.200673208798061609e+00
-1.229055565700379438e+00,-2.892863201382038341e+00,-4.590300477434797521e+00
-2.479232803284489695e+00,-5.804267537696387036e-01,-6.163453369566329165e+00
9.611861011475869576e-01,-2.153707332251609152e+00,-3.086169807995666314e+00
-2.185161211038087359e+00,-9.202231475782733927e-01,-6.804125593763395763e+00
9.857950233962985420e-01,-8.338542922789756728e-01,6.097029293479612200e+00
1.541063856615402239e+00,2.670675234176000057e+00,4.294491783626310344e+00
1.162274810521974677e+00,-2.581449319724423042e+00,-2.181994507734278610e+00
2.467726778532385534e+00,-1.793228412708370856e+00,2.616069390843883902e+00
1.512849252937436217e+00,1.667998951075405412e+00,2.703575140047944636e-01
2.664585823035395151e+00,1.936287404302073452e-03,3.944370451668862465e+00
-2.223905465080301624e+00,-1.623504296360550825e+00,-3.968378063617391760e+00
1.000160995363805344e-01,-2.000214868706716498e+00,3.642357774702623896e+00
2.460845398564878383e+00,-2.132350947883769887e+00,3.560620558447696204e+00
-1.799054076303884919e+00,-2.231781813848207285e+00,-2.816198844369628418e+00
9.954463765443860579e-02,3.322268819790544558e+00,-4.012865666004327148e-01
-1.139544606480694222e+00,1.756860097757842742e-01,-6.630233956375774618e+00
1.390371431962790005e+00,-2.430113035038921065e+00,4.648289123560285674e+00
4.228151513646669635e-01,-3.137098497093319782e+00,-3.128023020490550810e+00
-6.283726452338163071e-01,-2.437158997208911160e+00,-5.565720965501705031e+00
4.904226227478811762e-01,3.177814622358790420e+00,3.210466703080154249e-01
-1.099621007550331875e+00,1.561248269735600713e+00,-5.643485741610899886e+00
