-9.249936752741653834e+00,1.698354015997877164e+00,4.601491897935097164e+00
-9.981910450335188756e+00,-6.076145947557813898e+00,6.529133409116958831e+00
-7.893691852901051575e+00,-5.951204577579749966e+00,1.771795137756037697e+00
-5.592716972498532613e+00,-6.017818216106579854e+00,7.376495139033843351e+00
1.206628839226896766e+01,5.856249201448145314e+00,-3.533764041640259368e+00
1.624707499114332654e+00,-6.286744677830209405e+00,3.368836740918605965e+00
-1.657136604089242482e+01,-2.090008393390999419e+00,5.332762761608040414e+00
1.664882590903608156e-02,-6.410447020268461138e+00,6.169856280816173211e+00
2.903394214274448437e-01,6.345134634036282861e+00,-3.303990340317020102e+00
-9.362321412495022699e+00,-1.563089309809742034e+00,-4.929972903628732084e+00
2.531353423500803945e+00,1.074250803359146689e+00,6.266415368682306308e+00
-1.227869884062698524e+01,3.820387861307827482e+00,-4.774911587093874310e+00
7.805131760613661207e+00,-1.988370004752548992e+00,-4.566415404412031087e+00
-1.237340123228492672e+01,-4.099554654042632862e+00,7.423971706458592834e+00
6.609157704447619963e+00,-1.613592326217967887e+00,7.554155251414424121e+00
4.981075224528528800e+00,-3.458577281277133153e+00,8.132592530131338648e+00
8.407840636554825053e+00,5.287547898185144923e+00,-3.956105270496964449e-02
-2.057614955258084244e+00,-3.312057537471484014e+00,-3.785279122108989203e+00
4.373406056519270280e+00,1.128360648406703470e+00,6.086898425537483170e+00
-1.578609917617071545e+01,-4.825128381270904931e+00,4.395723565509356945e+00
9.052339876990574297e+00,4.279905797882149088e+00,-8.361672445245895702e+00
1.026869963128774099e+00,-5.809260147126384943e+00,7.355169777437874146e+00
-1.487047658956115015e+00,-5.753200376444976172e+00,7.542497609574875250e-01
-4.754402161131666915e+00,-1.326814607356452402e+00,7.943831152253017613e+00
9.706247502546174744e+00,6.299016572017704263e+00,-5.863518321425268631e+00
-1.457112082168989353e+01,3.105175523413265193e+00,-1.798346628475412157e+00
6.852624307243438961e-01,-3.425382944059792045e+00,-3.580372042070535610e+00
-1.896039701257016930e+01,-8.115696809649347587e-01,1.307966476968311031e+00
-6.249835764242635427e+00,8.955614443291073368e-01,6.040361437247583787e+00
-9.868732873748909284e+00,4.521009764525553365e+00,-5.220552260002379263e+00
-1.645772814944610118e+01,-3.016125878988447528e+00,-5.842827124502192326e-01
8.233622412085598086e+00,2.517054865192444701e+00,-8.135155871322124810e+00
-4.860248994530958377e+00,5.928886248728283626e+00,-4.557609392690310735e+00
-2.055754145870567484e+00,-6.671654933300930068e+00,4.886691487072911677e+00
-1.282129710760180119e+00,-1.828606329875043013e+00,-5.611530684918824896e+00
3.846104806150182576e+00,-9.523182855249494316e-02,7.039453819215456321e+00
3.114435651817784034e+00,-5.923142247272158656e+00,6.412220154096823777e+00
-1.688686466500750782e+01,-5.803607326241854159e-01,-2.599289170127667248e+00
1.838459204518790102e+01,1.363976046742147563e+00,8.667429955137494479e-01
-9.499778298094163631e+00,-5.277740557141067157e+00,7.807028876137438900e+00
-1.147182759673613522e-01,-5.654213804964216550e+00,7.730157716718556671e+00
1.907230029353905110e+01,4.772346303170464932e-01,-1.011190841947505081e+00
-1.122513510478080967e+01,-5.767271056271308538e+00,2.743494816073026143e+00
5.628700697779975393e+00,2.531187857007734632e+00,4.550704323868998813e+00
-1.680257173634849721e+01,2.067354258031467218e+00,-1.637957057464314969e+00
1.095791778798858651e+01,-4.590507496276965860e+00,3.435112113629628094e+00
-1.434939767761833984e+01,2.529382305467672065e+00,1.195957102234201708e+00
8.787948875230437551e+00,-4.578870405939025723e+00,4.879870173478637052e-01
1.086309168116139112e+01,3.437798668457890949e-01,-6.444187507721590435e+00
1.157879194228457287e+01,5.038994613027005798e+00,-5.662062560564393721e-01
1.862938980884386808e+01,1.288966008270679975e+00,-3.273926962152453601e+00
-1.064749873452670492e+01,-4.291330681814351955e+00,-1.327216469826340450e+00
1.496768762145455334e+01,2.672503861602309794e+00,-6.439541578847826742e+00
7.629994560665483760e+00,-2.405327761563359062e-02,-6.704318391451368875e+00
1.245861896042065808e+01,-9.318425894388845387e-01,5.658058905238656955e+00
1.821464791530456750e+01,-8.319333524696980176e-01,2.724910491839843685e-01
-9.077889097669320506e+00,-6.252198461475069635e+00,3.584228226660906902e+00
-1.545584991846813772e+01,-3.378424312812878139e+00,6.306279628338135268e+00
-1.660965697375235450e+01,2.022079030701367408e+00,-2.495609378518007571e+00
1.363331722753042596e+00,-6.026862081971829710e+00,6.669445244844917298e+00
-3.095235291738671179e+00,-6.588316903719244166e+00,3.665497751311373342e+00
1.354031638803055237e+01,-1.566551668257057106e-01,4.894073627803422255e+00
-1.229362456300547812e+01,-3.895122086051172161e+00,7.416109454590718464e+00
1.223633239763275959e+01,-2.189299199720051714e+00,-3.092607932675402349e+00
1.052704699615616235e+01,1.193592201771389166e-01,-6.260990076033897012e+00
-6.973460714000019323e+00,-2.565788386231698581e+00,-4.403010199628999644e+00
-1.883460113598882302e+01,-2.148725513736625126e-01,1.321517396841212388e+00
1.812287741800071927e+01,2.945117366729264052e+00,-1.107173321514406394e+00
-1.004534236541354275e+01,3.909371023569913728e+00,7.719096777753776673e-01
1.626459009413034806e+01,4.256365733532605944e+00,-1.832554561932855153e+00
-6.683429136757698785e+00,2.321142357578767079e+00,4.359739585820211261e+00
-1.645666970108477045e+01,4.846979649644348603e-02,3.553693215358745050e+00
1.763628587784483726e+00,6.608043559161684399e+00,-5.535671391439045408e+00
-1.617455016559773995e+01,-2.639453571947988131e+00,5.895783229069672338e+00
-1.350936561315827333e+01,-5.511991855940447493e+00,2.928340675370027402e+00
-1.677756505490226502e+01,1.697676662146866411e+00,-2.263964251801491745e+00
-1.593293657008234554e+01,1.941569546464800844e+00,-3.275555594228197975e+00
-5.870175357180775322e+00,2.207394971165502096e+00,-7.846511412049543388e+00
-1.871439333973727770e+01,-9.621037760785880466e-02,-7.158429904467408528e-04
8.638651494573228007e+00,-3.085705129206749664e+00,-2.755524076967570846e+00
8.027371813375792087e+00,-5.248911102996502542e+00,4.812313640755581545e+00
-9.820495293999139008e+00,5.201445853171643430e-01,-6.346688818640020990e+00
1.009259555182874379e+01,6.244145315711945088e+00,-3.997187747990842865e+00
3.388595531073924860e+00,6.143800566297303867e+00,-1.873984916977941895e+00
5.619796186978224029e+00,-5.434199825561178088e+00,6.557637301284074738e+00
3.418681705714787356e+00,-6.168890123273800263e+00,4.113597324839380676e+00
4.532968328698775196e+00,5.948315528242577699e+00,-7.621925947690939118e+00
7.164249073191973238e+00,2.035604138729151469e+00,4.821356147596615571e+00
-1.757837038147577502e+01,1.410818149451849857e-01,-2.484142811630107417e+00
1.445467310590720800e+01,9.617463009514348737e-01,3.933315706870156081e+00
-1.530010655198990932e+01,-3.630485146307982358e+00,-3.640466425246076665e-01
-9.258663834449382790e+00,-5.654257299389273683e+00,1.302797249511805866e+00
1.698391349358248803e+01,1.335647476247664889e+00,2.236187964640169668e+00
-3.478594835581604539e+00,1.847408141361186029e+00,5.388655989267717494e+00
1.573394971845508472e+01,1.936776670689133520e-02,3.727828922036302117e+00
5.145957572175959172e+00,-3.462881124599261895e+00,8.056616358951236734e+00
1.620836211569459095e+01,-2.240727494476349335e+00,3.702384336825805256e-01
-2.233017053968437526e+00,-3.632629277120752231e+00,-3.399869040661777309e+00
1.408654297039332093e+01,5.223199544172239861e+00,-2.407596725307308727e+00
-7.267591874152447673e+00,2.729689848338864966e+00,3.728461452291545353e+00
-3.347123286301419309e+00,2.704103658712948111e+00,-8.243547377306500223e+00
-1.334573815843952715e+01,3.435985868773679952e-01,4.987357343852984570e+00
-7.304386375694098543e-01,-5.894462108517740440e+00,1.378499150668461626e+00
-1.623936225224506202e+01,-4.696926038600884645e+00,3.453718285328228443e+00
-1.514082188659766182e+01,1.089541292109143411e+00,-4.294073998811069437e+00
1.461622237997905494e+01,3.096057495958919770e+00,1.661553239113511049e+00
1.557537314436241616e+01,-1.836581904063764092e+00,-1.374362576578753270e+00
1.700003703216616557e+01,2.759968597588677852e+00,-5.315301172643113858e+00
-1.452578670500943048e+01,1.116066610016139160e+00,-4.602012645557132409e+00
-9.959800719017172455e+00,5.649141868284548451e-01,5.717186845418537722e+00
-1.212946693960236111e+01,4.050229511213133904e+00,-1.615809300158481454e+00
-1.133632578166003135e+01,1.493244234128257908e+00,-6.204988319377950035e+00
6.063469940378821477e+00,2.384348269652312613e+00,4.687720210679214183e+00
5.682923324144162347e-01,-6.353295198302876479e+00,3.484013412632046336e+00
-5.597288572992239253e+00,-8.448929365196349295e-01,-6.268249455020396432e+00
1.916158462417503117e+01,9.831915097216203936e-01,-4.082926396438224526e-01
-1.469245038523594005e+01,-4.982587036816624959e+00,5.267496822573778381e+00
-1.394585149330564322e+00,1.971209035755954631e+00,5.409626919500642117e+00
-4.634030210764138680e+00,-4.680434702943427006e+00,-1.627032956988747170e+00
8.799403328675200697e+00,3.682385659234941766e+00,-8.331358902566165625e+00
-4.709103890200622367e+00,-6.264606492404947602e+00,6.947680584056303843e+00
1.774405213718981145e+01,1.778376192170967540e+00,1.128431676122365612e+00
-1.069260767154126412e+01,-6.231842508465102348e+00,5.155773192711730069e+00
1.707619428524537142e+01,3.140808027220014953e+00,-2.452077243970219866e-01
-1.510209258239697760e+01,-1.781725034892311488e+00,-2.822103514032209493e+00
1.442121120802007361e+01,-2.843029993520951759e+00,-3.433718450567437852e-01
-1.699865792183064528e+01,-5.514366171203503864e-02,-2.826025232939774590e+00
-6.730757122422974525e+00,-2.707497499533787710e+00,8.486009788437469226e+00
1.143302705504876293e+01,-1.277919248520488882e+00,6.013532267013232513e+00
1.358888444666954776e+01,5.063056938190982237e+00,-1.579431035330495225e+00
-3.314695647158798941e+00,-4.751399543264253067e-01,7.546695332379677268e+00
-1.284810215329618011e+01,-5.640099069082475047e+00,3.007909930090675754e+00
-3.956545857295425073e+00,6.001221684149498081e+00,-5.105177618734934697e+00
3.047879486418019646e+00,2.264939254901282339e+00,5.119659092258551425e+00
1.611882235985429190e+01,4.377870611337445261e+00,-1.639535158867926556e+00
-9.373770434651392591e+00,-2.110824484339604901e+00,-4.453425549571175424e+00
-7.556051732304171153e+00,4.280998127645205820e+00,-6.879135584435357664e+00
-7.269172980079773083e+00,4.401074293326610487e+00,-7.010116514394394649e+00
3.945212167168790973e+00,6.700057787984894375e+00,-4.886727777000694495e+00
1.699127621724954906e+00,6.182477593961958284e+00,-1.891994585127382278e+00
-1.826102955241412218e+01,-3.049582346331526583e+00,1.855560058545984825e+00
1.514746765444225041e+01,3.670260980827163344e+00,-6.505183478187468893e+00
1.857996528419272053e+01,1.248706308160784928e-01,-1.396223405133373285e+00
-1.281284348624240188e+01,-5.820685366362796209e+00,4.144676201333144405e+00
-1.854232598190718306e+01,1.020484779008975773e-01,-1.034018949752156580e+00
7.529834266013047284e+00,-4.562281769925056629e+00,6.634682425073976653e+00
2.123152344459193319e+00,-2.570686007538277806e+00,8.375295268813909288e+00
1.533228987720297631e+01,-2.562370344994768789e+00,3.301213796230112463e-01
-8.465284636384168948e+00,4.967269042770916521e+00,-1.723426474579351719e+00
6.453629070426639691e-01,5.871415283004610686e+00,-1.093558529311765337e+00
-1.614061042110598265e+01,-4.460197066575815050e+00,4.638238770182323556e+00
-7.979328979794753529e+00,-2.063200231310379440e+00,-4.799628662206314011e+00
1.319254475790158665e+01,-3.416120806880133642e+00,5.583438673338171343e-01
-1.209860153295756113e+01,2.137641054224570070e+00,-6.015801217402107604e+00
5.308396044053613316e+00,-2.629362049128233014e+00,-4.301678260881601545e+00
-1.590464322524027985e+01,-8.414550465751903241e-01,4.808226877306651659e+00
-1.128276830141349940e+01,-5.308548885718411547e+00,7.219277743961957761e+00
-1.356024665871381529e+01,3.068365290586923866e+00,-4.605901106796057576e+00
-8.191679691055675505e+00,-6.189336687725805142e+00,2.774856097003249200e+00
-1.569761402724280330e+01,-4.612502879907840914e+00,4.963334494499831884e+00
1.710003427014630262e+01,1.253938934460403221e-01,-3.470203651221325014e+00
-2.030602260459609121e-01,4.705689090716105305e+00,-8.412907608561452477e+00
1.339624141246758704e+01,2.157448893143591118e+00,3.127889739763253463e+00
-1.289355134389812463e+01,-4.426906552761971092e+00,-2.655536622889337894e-01
2.107561943005469729e+00,-3.282680716452753833e-01,-7.013623126175015265e+00
-6.398082892880127659e+00,-5.893663542799252753e+00,7.684110286233171827e+00
-5.098047730426275237e+00,-4.013340762767513503e+00,8.798714822648314282e+00
1.456732808798174972e+01,-1.965975836842757118e+00,4.548459225219111168e+00
1.246602884878904582e+01,2.489845764288330265e+00,-7.261003936834034000e+00
9.063291498061733620e+00,-5.156578971090657326e+00,3.712460454315095415e+00
1.720960143481333304e+01,-1.537373649909545836e+00,-4.501967106953530529e-01
-1.233059288559647548e+01,-5.636185747791535583e-01,6.213300880264712944e+00
-1.838895306997123669e+01,-1.851242286264419334e+00,-4.462415686117298663e-01
-5.764909571879349492e+00,8.410977256258828083e-01,6.183809428739354352e+00
-1.755006284180140952e+01,1.193779882718039254e+00,-1.649923849458944547e+00
-1.239440894909100876e+01,-5.560668168476483153e+00,2.349297863196643910e+00
-2.461027757291925688e+00,-3.342112449047728084e+00,-3.663793169994384868e+00
3.497808248822065647e+00,-9.292999216530122286e-01,7.600942975236866239e+00
3.365212354924750904e-01,5.711581809909568541e+00,-7.685082758007707682e+00
-1.902688652917284884e+01,-1.362016569347274775e+00,2.042875087329957040e+00
1.557482415424706268e+01,-2.265994989555215167e+00,3.268918165018562139e+00
1.212607626563373620e+00,6.527695414320507261e+00,-3.538573333972582446e+00
-6.547936981627922037e+00,-6.255006741972529483e+00,2.637514656674912139e+00
1.057880670177504712e+01,-1.641245677283812432e+00,6.564338405019984002e+00
1.575801721283692025e+01,-2.026558583100348976e+00,-9.467650825486934041e-01
-1.064525547329910893e+01,4.214591643458518000e+00,-7.416935050933661788e-01
-1.591532524788319636e+00,-5.219688800790106775e+00,-5.932086928096935718e-01
1.738522811172817129e+01,6.349855951114539154e-01,-3.661896947134181346e+00
1.356542489692996867e+01,-2.043212949178108140e+00,-2.576708586222120179e+00
-1.585210569567125249e+00,3.435758347170648541e+00,-8.586481248668292210e+00
-1.743721471556360214e+01,-3.827168981496618549e+00,3.313649431522399880e+00
-1.405655464796008047e+01,3.210798204772072673e+00,-8.649121669227147757e-01
-1.871767847048729294e+01,-1.690559116020004637e+00,1.638607717442171485e-01
-9.455515266655694973e+00,4.786107120683320559e+00,-1.584254523822467009e+00
1.583531983424654221e+01,1.746723167419039546e+00,2.484871650157858713e+00
-7.801672277326913374e+00,-3.779154978777344631e+00,8.406045456135270655e+00
4.655629700859580389e+00,3.541320120285396555e+00,-8.694293524288024599e+00
-6.763311664886123786e+00,3.665112939847142925e+00,2.414885627968638815e+00
1.231594122996807927e+00,-5.271146775022953257e+00,-6.118538585978829797e-02
1.073249158413825732e+01,5.899531611772546036e+00,-3.014876528461265082e+00
-1.779667558885892475e+01,9.770739170023851061e-01,6.482196628867515908e-01
-2.519592017234348891e+00,-6.609536183038933643e+00,6.016004607169884721e+00
-1.774337225753653380e+00,4.012729872734766445e+00,-8.557571218704643101e+00
-1.519536565895475277e+01,1.883731660901360794e+00,-4.080245511779418521e+00
-1.412414257675327534e+01,-3.412476135511442799e+00,6.757846396017794355e+00
8.068870865614504950e+00,-5.252941515780118920e+00,4.499553386299340652e+00
-1.687132517457364855e+01,1.530443383079793218e+00,-2.412691096030643134e+00
-1.206312671436664541e+00,-2.705759911326985012e+00,-4.610565429988604080e+00
1.564636120687351095e+01,-1.261864083323952501e+00,4.130199938390441083e+00
9.034384229476610795e-02,4.986763552822006673e+00,8.680144332061249246e-01
1.063473972319375349e+01,-1.751297490799200940e+00,-4.263014868547653435e+00
1.788083520180922648e+01,-1.068350620627969150e+00,-3.349591611771127742e-01
-1.615630362500766637e+00,8.759471830313780849e-01,6.488987915318862321e+00
-6.073370147016253995e+00,1.368598221000087101e+00,-7.495465077631552120e+00
-1.117831728955159809e+00,3.926139547675092878e+00,-8.648153425485560319e+00
6.664486344583088417e+00,-4.048312428236625848e+00,-1.638947335639910241e+00
-2.114060067701723500e-01,4.503923798777675458e+00,-8.533359425746294136e+00
-1.216528966286758617e+01,2.938529209702401612e+00,1.777108990839553204e+00
1.277667061712995178e+01,-8.421803765072745085e-01,5.513750499793872883e+00
-1.434228329736864715e+01,2.365054669887941330e+00,-4.399664320537949536e+00
-3.071866597895800854e+00,-1.529920824913095556e+00,-5.865428452512053248e+00
5.156076731698520099e+00,-3.596514134835123944e+00,-2.871549944513589026e+00
1.330169914701651024e+01,-2.970896494872303784e-01,5.011379424335512311e+00
-2.031886082914741376e+00,-6.157596972515291256e-01,7.633384915258044856e+00
-1.310777016378618676e+01,-4.900297100006746120e+00,6.862884127947135759e+00
7.953419189890408303e-01,6.837722838540659653e-01,6.752109470077261477e+00
-2.902069914225255065e+00,-5.864347391460071002e+00,9.485297222365396408e-01
1.449562212167166741e+01,6.292571587079865969e-01,-5.320916421149309627e+00
3.264222974730196736e+00,-2.577990033599935504e+00,-4.587046875043840011e+00
7.404273001375953456e+00,-1.778034711218565489e+00,-4.910176573607020423e+00
-6.159069182577724177e+00,-3.747349573294872283e+00,8.688815205536856823e+00
-8.011323008337114970e+00,-6.235799114348528960e+00,2.760703817628067380e+00
-9.864419185185269168e-01,5.002228618318667053e+00,8.460918823778176279e-01
-3.843472433170030289e+00,-2.689503967443585442e+00,8.569227586863496171e+00
3.505172998510437399e+00,5.726596931450848693e+00,-5.788880761190755564e-01
-7.772911619092599977e+00,3.354119362638666058e+00,-7.366241720868339726e+00
-2.652476882939750702e+00,6.142196824130429000e+00,-5.707304844537977040e+00
-1.738840609059370479e+01,1.415667193910486454e-01,2.852273739750365245e+00
1.603221067396660260e+01,2.635690262560769437e+00,-5.821466327208717928e+00
-1.577733087076334684e+01,-1.028287984407941558e+00,5.102142537573411296e+00
-1.509756905326212895e+01,-4.926685559697454586e+00,4.823482254436999739e+00
-9.619621010123822202e+00,-4.969403656922962043e+00,-2.665485079848526895e-01
-1.206272118726027243e+00,-5.264352823497791434e+00,8.350128790438619220e+00
-6.928206373930663631e+00,-5.280659938650045682e+00,-1.361872301593147760e-01
2.937317990624908060e+00,-1.651024754032548669e+00,8.083554670476528869e+00
-2.383522554537282456e+00,6.142680140276194578e+00,-2.757478220282276737e+00
3.547564203783859504e+00,-4.194263474057541963e+00,8.089601877186391121e+00
-3.649867174063246900e+00,-3.250267592049214560e+00,-3.803761847058614975e+00
-1.331220215100205273e+01,-3.933553856005106208e+00,7.106415769585020747e+00
1.491706989442401765e-01,2.619861538370237053e+00,4.624036946237053414e+00
-1.845350114906128169e+01,3.656066055219918121e-01,1.228122736293352890e+00
1.854236320620492373e+00,5.821725159022226315e+00,-7.784338195059198107e+00
-1.171955292973031248e+00,-6.205688148163693185e+00,7.003158065014071454e+00
5.546686734937928520e+00,4.423560234967681914e+00,-8.588091286439990313e+00
-1.064397940757755912e+01,1.649731883433204205e+00,4.284021859057853376e+00
-1.804035378499563436e+01,-1.650767166099691208e+00,-7.637779180026468273e-01
-2.042114287938431527e+00,5.381152624053709310e+00,-3.441246593992449143e-01
-8.284807837962940624e+00,1.131877478475019405e+00,-6.957420472336515616e+00
1.242064033877947260e+01,3.844673015712071207e-01,4.928276416061762255e+00
-4.264369277365537836e-01,2.769696323649979419e-01,-7.412559838596648909e+00
3.754346563991007191e+00,-5.643587357540018168e+00,6.749585305845338112e+00
-1.661615523847641995e+01,-4.313249784737865689e+00,4.475075225169765858e+00
6.868271784509866862e+00,-1.325876275980020447e+00,-5.525825379301632090e+00
-1.052860872349817178e+00,5.089190006574835223e+00,5.325708566979182601e-01
-2.279374248809477699e+00,-1.613117527144482810e-01,7.377658388077779072e+00
9.374909837899700449e+00,-4.790003536708656640e+00,1.946298531192772518e+00
7.916227103867282011e+00,6.394502951087094544e+00,-5.491517483236862951e+00
-2.802834597097558778e+00,-2.698398101515286363e-01,-6.848241705837261328e+00
-1.291552190261113253e+01,3.841478479165592486e+00,-2.679019718365896807e+00
-3.597357860891209125e+00,-5.269140988341849408e+00,-5.406582623295489443e-01
4.536130473530056939e+00,1.301443886742819522e+00,5.986680705339034070e+00
4.233151564523326194e+00,5.670291280655868071e+00,-7.898963631594640766e+00
1.271304516298730825e+01,-7.600978992247058030e-02,5.270291300508751497e+00
1.458093015072076248e+01,4.738414682142531476e+00,-5.847897706907438931e+00
-1.612171443074397104e+01,-4.328526281392374386e+00,1.858509505998027000e+00
1.265251558071463656e+01,5.315395720811752156e+00,-2.026039520739990607e+00
6.710118003277043108e+00,-3.465198072506761484e+00,-2.596074378608336009e+00
-1.344830511915288973e+01,8.836985924088937294e-02,5.083448565022740340e+00
-1.685828949263727594e+01,-9.285984778513818316e-01,4.385110954487931423e+00
-3.912849366980549082e+00,3.788156171074025469e+00,-8.262705203162035161e+00
4.259192642913215643e+00,-4.476032923950254983e-01,7.250208913066055416e+00
-2.716791934574408707e+00,6.221682538931755602e+00,-5.746429864940406418e+00
1.223816330856715595e+01,4.301862519106137484e+00,5.614984275581990092e-01
6.872702748896196923e+00,5.955310838119599604e-01,6.153619673556854686e+00
1.845788448029252748e+01,3.608826004769869478e-01,-2.252328937117944463e+00
5.354675113391605734e+00,-4.993790631441393124e+00,1.336403226875348405e-01
1.536835437687936157e+01,-8.212786754048069238e-01,4.051419580349059579e+00
-6.874797473846063767e+00,3.439601085848876139e+00,-7.581490710714272829e+00
1.105752494192156377e+01,2.385753787498537282e+00,3.793979741206234824e+00
1.884906055432142225e+01,5.411342913057246018e-02,1.897429100407607705e-01
-1.862896979115871376e+00,-5.288681982356588929e-01,-6.743093483726880777e+00
-1.831509719727425178e+01,-1.944544153065626002e+00,3.594239699921757847e+00
5.070788379048729588e+00,-1.996406239356068424e+00,7.903337257853835673e+00
-3.060586882130938324e+00,5.775073012632561564e+00,-6.828486615865686282e+00
1.359088252073586744e+01,3.300984610636239047e+00,-6.987451610292006343e+00
1.241671384398250133e+01,5.186399355392650179e+00,-6.797646558027512498e+00
1.418825518103022532e+01,-3.357899837772924112e+00,1.793530377364674910e+00
-1.788920512156012421e+01,-1.799354922927277389e+00,-7.853523233161808781e-01
2.902385741821396969e+00,6.601889046940232042e+00,-4.956776433215559940e+00
-1.756893329788469682e+00,-3.587232348608282884e+00,8.779294789428297108e+00
-7.047987576080254613e+00,-6.529909452696456285e+00,6.040372991841578276e+00
-1.676740289624714819e+01,-3.385824158657071981e-01,3.808965100200009335e+00
-8.170237483579573023e+00,-5.148984121074714260e+00,8.029234362230097233e+00
-1.766473910749313481e+00,-6.564368984627138026e+00,5.499516162088537108e+00
3.826503476790596991e+00,-6.093905200057808003e+00,3.789709499175422991e+00
-7.404635942188257935e+00,5.056401324613786663e+00,-1.105450154380184014e+00
-1.627391980970175567e+01,-4.684293899070918199e-01,4.260186907089253516e+00
2.000710566399110046e+00,-5.362049373978784672e+00,4.419752368949272231e-02
-8.978121418074005433e+00,-4.696827737817868886e+00,8.119253252699392576e+00
1.005640073466031836e+01,4.272679769570734698e-01,-6.606753586180018623e+00
2.675089984927391029e+00,-1.606940707189975948e+00,-5.787953074311720236e+00
4.946307199289696199e-01,-6.384309727971103854e+00,3.462989382540740735e+00
1.562729142083911071e+01,1.845642861355135889e+00,2.513308184496663156e+00
1.821612436877293106e+01,-2.802709359246470244e-01,1.347634625174138456e+00
6.867873093593514611e+00,-1.970164137885215494e+00,7.622514091283810522e+00
-1.135599706502882711e+01,-4.222210083643634704e+00,7.756792281754295360e+00
1.753565614778519333e+01,3.924026403806109897e+00,-2.871584955781184778e+00
-5.688341684116772434e+00,-1.888179852134167280e+00,-5.148482659669929795e+00
-6.329721272395328668e+00,4.279403024233775277e+00,-7.371439638448658904e+00
-1.173867951611835281e+01,-3.554237518922728878e+00,-1.998318519337413113e+00
8.152388834360891678e+00,-4.171881320873791488e+00,-9.634875811596109729e-01
7.311405227762934445e+00,6.324957354235218432e+00,-6.577148705477602775e+00
9.328061417586036796e+00,4.432893805944201127e+00,-8.282282289220606941e+00
-1.728801117953466360e+01,-8.360854101001762295e-01,4.056005421840337632e+00
6.243172498485892064e+00,6.096545526383223113e+00,-7.249919215017691876e+00
2.771738156319888624e+00,2.792585542566032863e+00,-8.634162273633275930e+00
-6.126010779077788904e+00,7.371190655148402993e-01,-7.169312297990863669e+00
-1.794967362840784020e+01,2.881349167327201810e-01,-1.567085373881029309e+00
-9.012055047689505827e+00,-3.584888283104494811e+00,8.368609596044509047e+00
-3.846009778602976770e+00,5.908279512626431362e+00,-5.879042721246316106e+00
6.514909832437008497e+00,5.251364892344652979e+00,2.368743006527515294e-01
-9.835880132504705387e+00,1.288247646642527444e+00,4.958462944697400232e+00
1.662616214261680270e+01,-3.043792631164037310e-01,3.135253167564461041e+00
-2.351138965504429024e+00,-2.040646211279572242e+00,-5.303876247356705598e+00
-1.904790785731869818e+01,-2.271512572890747705e+00,9.956268030880965902e-01
-1.151500350934443340e+01,-6.026640371281529518e+00,4.091891190977671400e+00
-1.051261167900323734e+01,2.783387689884730953e-01,-5.929409777480625365e+00
1.087444976159365773e+01,-2.568127139644273971e+00,6.477756684224916128e+00
-1.094503737627024798e+00,3.027680564152789078e+00,4.065864945828414179e+00
1.099843565354845687e+01,2.226059357707503850e+00,3.879366502129562022e+00
-7.927263889493874061e+00,-4.051646604690595233e+00,-2.269582562631663691e+00
1.640426602464046368e+01,4.162119302674781807e+00,-5.341533102492197926e+00
-7.840443138908738341e+00,3.579449790109307195e+00,-7.260971653822641869e+00
1.167905262365852437e+01,-3.777431471688354581e+00,2.345810221508098370e-01
-5.540222470506979136e+00,-4.037966739588838117e+00,8.783747034100219508e+00
-3.157426462162351122e+00,3.409413151018798604e+00,3.411230807973283596e+00
-1.591449947076884719e+01,-2.663426038203540624e+00,5.923432544218949936e+00
3.794139488354132617e+00,2.168530721038355757e+00,5.061286125704826055e+00
-9.417853991009502934e+00,-6.165038077345323941e+00,6.563495055945607781e+00
1.785942593516968202e+01,-1.159162411190286734e+00,-6.598447071503001082e-02
-2.744986429849144205e+00,-6.429437745191358466e+00,6.757526207486766801e+00
-1.590143530876444267e+01,-4.505801197844308881e+00,5.037682709679249804e+00
-4.992389915255952992e+00,5.452838291608322230e+00,-1.352202775415850988e+00
1.101387261016506258e+01,-4.653326705138274288e-01,5.970591955245792448e+00
-1.414666855745179141e+01,-4.837390317265276352e+00,1.555813930088471908e+00
1.559273715470674171e+00,-1.096168509035872152e+00,-6.303677225065155376e+00
5.274006206019731913e+00,3.926533063002011215e+00,-8.788330995643022447e+00
3.861727790500446122e+00,4.755251743879373549e+00,-8.645960305459588824e+00
-1.782238394079718091e+01,6.684319732652691526e-01,-1.866353073562589726e+00
5.933506121305646808e+00,4.763673768476871517e-01,-7.334841405432373840e+00
-1.754314017515516611e+01,1.267824616820958594e+00,3.893234437127670033e-01
-7.057899703858647733e+00,5.536575744472338911e+00,-3.044102347908307138e+00
1.317399538539202375e+01,-2.056254658727936224e+00,5.408274694580128994e+00
5.442339029796736227e+00,2.443529370292860659e+00,4.615067639319714310e+00
-7.349080591926462347e+00,4.805514461356205302e+00,-4.362911995894933614e-01
-1.710579261271302443e+01,1.291662202815271332e+00,9.459614636021375089e-01
4.635078480955745484e+00,-5.459324946842099457e+00,6.659513999772274317e+00
-6.375940153971072277e+00,7.340565845093288688e-01,-7.106500210575126708e+00
1.576025718837960099e+01,3.537694750722660597e+00,2.436100266740899301e-01
8.216355014713347060e+00,5.617255846930699015e+00,-7.643973907916954857e+00
-2.639738873795069551e+00,-8.673857870721803920e-01,-6.405659790902510586e+00
1.356871120752448512e+01,3.857175771975738687e+00,-7.148234346574702691e+00
1.089773581550774928e+01,-6.587236429969276497e-01,6.062414016444226839e+00
3.209873197934083322e-01,1.875531281816929408e+00,-8.334382556551711119e+00
-4.486327086307686507e+00,-6.662856775491805550e+00,5.417503270137207672e+00
-6.661350347487416279e+00,5.059039980273367654e+00,-6.506951365521843833e+00
-8.020892492019871867e+00,-5.484857267042084317e+00,5.829675709668116212e-01
1.617274860601171582e+01,2.754678093347682655e+00,-5.626158336796110326e+00
-6.954428860508595767e-01,3.462931286303149586e-02,-7.246804703234521305e+00
4.923628092632627684e+00,5.672268210149050027e+00,-5.600117485435095466e-01
3.651382600064038364e+00,-2.906000904463780454e+00,-4.016683796871169498e+00
3.269889576141584264e+00,-1.424098310186668881e+00,7.894688100642028417e+00
2.701304410106167619e+00,2.188414574784663724e+00,5.081482092576176335e+00
-1.494267838779035529e+01,2.546910025704334224e+00,6.506603797086902841e-01
9.748371335095757928e+00,6.218386253684017539e+00,-4.074899839444737104e+00
1.355874266085752922e+01,1.871429226469710994e+00,-6.621431283710261795e+00
7.178902477220775680e+00,6.374572577670958751e+00,-3.301703235230298628e+00
-5.523538293644643105e+00,8.325267811199305035e-01,-7.348044376946483602e+00
-4.712155809442824861e+00,3.191989136016501583e+00,-8.083859804890057177e+00
-8.295079731355897934e+00,-4.595035897266715352e+00,8.323764509248185561e+00
9.534788646743011853e+00,-4.559386654712097808e+00,5.553628893445605286e+00
6.742654313660844778e+00,-1.987625217161380631e+00,-4.825226141189566498e+00
6.599772643144715012e+00,3.426090540695328368e+00,-8.587875424712015260e+00
1.315653670860971047e+01,-2.096614613338025901e+00,5.299525016637799624e+00
1.517527134120918575e+01,-7.986065581395788149e-01,-3.648846583954754585e+00
1.448134009992236493e+01,-2.096253540768396206e+00,4.701319063204339344e+00
3.798991980705275662e+00,2.773468223727320048e+00,-8.695011157316272943e+00
5.651820695271393191e+00,-3.707017008569357230e+00,7.774646850580488433e+00
-1.945535368207941707e+00,6.201888142702006057e+00,-2.960432720821930097e+00
-9.545893637860656256e-01,-3.613827090950881282e-01,-6.906115014388171325e+00
1.135844313389424265e+01,5.829335538046667153e+00,-2.984219487314920372e+00
-8.560511948622002265e+00,4.339217675441196853e+00,-6.603123200898566303e+00
2.862125636408547003e+00,1.404254878223368364e+00,5.875880937517490743e+00
-1.890860685568006971e+01,-1.965360945314559959e+00,2.209906444186493957e+00
4.447600915319803505e+00,4.605418192436169456e+00,1.722777264330408453e+00
1.733526782574803349e+01,3.686132578614383259e+00,-4.803442925215371417e+00
-4.398565857289220005e-01,4.588356190040706828e+00,1.637760057113432977e+00
-8.833490412968140859e+00,-3.801718122998017257e+00,-2.348981574776003001e+00
-1.818636945045977882e+01,4.943304243585321944e-01,1.195028345247643786e+00
1.472576182469393125e+01,4.220647103575377201e+00,-6.283188439429297389e+00
-3.177123649995709620e+00,-1.222825530760635271e+00,8.009351326120055958e+00
6.861215427191024396e+00,-5.401201818563134971e+00,2.042007351318544828e+00
1.788865468177133877e+01,1.202269965468907742e+00,-3.968339842376884086e+00
-5.144864872887715990e+00,3.975115486361079586e+00,-7.951973515153870409e+00
-1.500168934938679399e+01,-5.021061928328592217e+00,2.951750824665204664e+00
1.921144005257753662e+01,1.424739854281374285e+00,-1.723584857660377612e+00
1.605945000849638404e+01,2.415455814174511051e+00,1.561805279707863869e+00
-8.867539657381588114e+00,2.638806558115633027e+00,-7.022729973703859763e+00
1.121562589974189272e+01,-3.571878738563682099e+00,5.708578048707240171e+00
9.373926002376882227e-01,-4.775437739672960258e-01,7.532595420852710610e+00
7.353390421952998857e+00,-8.205620644898570237e-01,6.946743649132843146e+00
1.826477651731426377e+01,1.907580771147719401e-01,1.315304050466648667e+00
-2.498758985078179951e+00,5.581173045231913932e+00,-7.193745951600726940e+00
1.320456558173937012e+01,2.200405714213423902e+00,3.196010331974174168e+00
6.783707906916677466e+00,-3.534644761419442061e-02,-6.818441687082826164e+00
-1.147033437170505898e+01,4.281217116913106580e+00,-2.097247445554330625e+00
8.207192068713707656e+00,3.513755338639187542e+00,-8.418440534977195355e+00
2.751583960427594011e+00,-6.187065804924707368e-01,7.509834086110389606e+00
9.359204404069983996e-01,-2.246732446432047059e+00,8.339009395043893491e+00
-1.024800344459571200e+01,-3.415072396645532637e-01,-5.757549222865860017e+00
1.020461290132020160e+01,1.224479111125952979e+00,5.054005237391222316e+00
1.368370888043698308e+01,7.413107552946545109e-01,-5.823582665001062253e+00
7.160338867511623739e+00,-4.739945128506420247e+00,6.637590378973019511e+00
1.427386626288250193e+00,6.390545552527948203e+00,-2.883666450360212075e+00
1.606517844182969412e+01,2.757618558673712972e+00,-5.748543005380336801e+00
4.525057576692757877e+00,2.261247283168284383e+00,-8.396837902513309970e+00
-9.946952293137300671e+00,2.432011574555364986e-01,6.083988526676940900e+00
-9.831032639670787887e+00,-6.155994947728379962e+00,5.923158771269685374e+00
1.529623998916261662e+01,3.150847180962880856e+00,1.091263052088326191e+00
1.800820679614623110e+00,3.775396175730236781e+00,3.100389266793015075e+00
1.659967436192777157e+01,-2.095005279948614962e+00,1.397575625404384958e+00
-3.015546276902893119e+00,5.791148608163257272e+00,-1.875805950797361010e+00
9.440650362593077105e+00,-4.468623584857024378e-01,6.442853018185678238e+00
-4.098073641547934076e-01,-1.143723561930919619e+00,-6.217049832777551188e+00
-3.794123560812010965e+00,5.221793221905057791e+00,-7.339352597774097653e+00
-1.973743456610327129e+00,-3.725914397883395512e+00,8.818890890297153007e+00
1.485191967396780477e+01,8.310789904044186827e-01,3.780904021419849048e+00
-1.763865662317957828e+01,-3.789303590449002002e+00,2.527168820382238223e+00
-1.772812941872856385e+01,1.225227371812297905e+00,-1.376595445821766184e+00
1.426928965929464788e+01,1.238061585148304333e+00,-6.045268280072998657e+00
-4.797268748341278588e+00,1.843369499590495231e+00,5.279225261185494844e+00
1.552356153867593314e+01,4.860374625210801547e+00,-4.098179709699905082e+00
1.797748797846933755e+01,2.916631666440924753e-01,1.627961678098276632e+00
1.005376407846103781e+01,4.024677209411752443e+00,-8.080545221005833056e+00
1.420401729718769346e+01,1.959990014185120089e+00,-6.341161123056131110e+00
-3.855502114994285634e+00,2.624462838238815543e+00,-8.169586982197353464e+00
8.732695044299980225e+00,-5.093631573935620160e+00,4.803542482950446058e+00
-1.819949566996666945e+01,-1.007775293748661011e-01,2.320602136033676821e+00
-5.465836358350869340e+00,3.317334627841005634e+00,3.164727708856438504e+00
-1.434580400157085833e+01,-2.579030495438876525e+00,-2.256606896609983259e+00
-6.242481209801793440e+00,-3.918048418280190681e+00,8.688652509607647900e+00
-1.006647604793672102e+01,-2.395353561430618949e+00,7.875573355925860497e+00
-1.786358213226321467e+01,-2.264376351181570435e+00,4.370528617537337013e+00
-8.503025398279410396e+00,3.344061261155049980e+00,2.512248847956515707e+00
-5.519163715977826179e+00,1.320890682282773954e+00,-7.491805779048367420e+00
-7.766205949223017768e+00,4.145047944626703895e+00,-7.050653943121269585e+00
-1.359211542693377739e+00,6.256752573437006859e+00,-5.880413463833157550e+00
-1.027288720301007485e+00,4.222821495761005517e-01,6.861788254907525086e+00
-1.329370711715014686e+01,-4.532084600548719422e+00,6.891021317508402078e+00
7.551545730562954972e+00,-5.474923600121417877e+00,4.698122588954750434e+00
7.587524440743405485e+00,-5.796546848998578305e-01,-6.163480439492490248e+00
-1.530712759992235306e+01,1.785391075615478718e+00,-3.926513165552604434e+00
-1.378312138293606637e+01,-5.571403482613535907e+00,4.047923206787963579e+00
-5.516581723853685837e+00,1.841179813996681069e+00,-7.823400971263103187e+00
1.259613444483685996e+01,1.652328690869626637e+00,-6.777914477553748540e+00
-1.850063574511506559e+01,3.749554144003253153e-01,-9.800925214141292807e-01
9.580589368498280578e+00,-3.521562798008912143e+00,6.672460203362517994e+00
-9.699311143800066759e+00,-2.037149436171009409e+00,-4.482102331581905297e+00
-1.394489835036492842e+01,-4.638792743230893301e+00,6.566042086884146256e-01
-1.411707228686453819e+00,3.482996994991113038e+00,-8.650057742028259611e+00
-1.233217860181243530e+01,-5.595705781411022706e+00,2.726920854236325020e+00
1.976749431283355340e+00,-2.535648469394097937e+00,-4.713553598389203181e+00
-1.469803847456086776e-01,-2.505254900596202372e+00,-4.833085247738193146e+00
-1.696001115429319839e+01,-2.000486210422117939e+00,-1.518673123536096847e+00
1.290125592535180665e+01,1.934174666708298851e+00,3.650972834179551541e+00
-5.630651138064963313e+00,4.277312359590221269e-01,-7.107719520304583760e+00
-1.604917598576912496e+01,-2.815647735631488402e+00,-1.057192555003588330e+00
-5.984721905639120543e+00,2.883123230261743331e+00,3.789135423239495370e+00
6.766587830685133476e+00,2.877493644004527784e+00,4.042610863488807382e+00
-1.704105903520725107e+01,-3.541229361962610067e+00,5.203918078521558854e+00
1.705679867190919197e+01,-9.875529423061102374e-01,-1.681637481623817765e+00
-1.246502745077573771e+01,3.973737224905114385e+00,-1.417773724829201942e+00
-4.728303035630982087e+00,5.991109407230421624e+00,-4.885713389761315639e+00
-1.331772635902898472e+01,-4.195288980974692272e+00,-5.055407328922975063e-01
5.812532351539659636e+00,6.512426394732262480e+00,-3.417001545335123680e+00
2.140597030912775978e+00,-5.601610183852763214e+00,7.242384508496731321e+00
-1.277137773895170447e+01,3.881622198055814543e+00,-1.583343257930107661e+00
3.762681596424063191e+00,-5.841363326403235412e+00,6.053583481166616487e+00
-1.399825461464242338e+01,3.150140884636619898e+00,-3.671249249937429404e+00
-6.852112290485490753e+00,-3.846389930616306962e+00,-2.670904096069088851e+00
