-9.651930387182387605e+00,4.643900409695402409e+00,6.110100139085237636e+00
1.536750637529339381e+00,-3.636259484054544799e+00,2.936277662093128349e+00
-6.802782044573550735e+00,3.755249887590357272e+00,7.562322993827716111e+00
-5.188289294894917525e+00,3.986433794337985947e+00,6.899285889391415516e+00
-5.927566959149417336e-01,3.395963572407429520e+00,2.852425367614782381e+00
-2.598654414975441806e+00,-2.164559359309498721e+00,1.745964885069333006e+00
3.448176172609682233e+00,1.611093813694801868e+00,-3.250405169654921878e+00
-3.455630904643199219e+00,4.528115653521703976e+00,-1.499448621963346939e+00
-6.190524343748673886e+00,2.049828094875859374e+00,-2.422516728838705724e+00
-1.765069134495651060e+00,-8.395595994260169892e-01,6.690065579918313965e+00
2.091813811611947127e+00,7.503892635880304862e-01,4.705464659442425202e+00
-4.171150678846690774e+00,4.931759848448820094e+00,-1.186525018750948096e-01
9.289281679095876543e-01,2.583623132343755735e+00,2.729917075977231100e+00
-2.346085041127415671e+00,-1.988187954374688093e+00,3.970825469559962073e+00
-2.139041714508948200e+00,-2.361241716289898651e+00,1.301114853133094607e-01
9.138546084264424607e+00,-3.555463575525235509e+00,-6.567047055709970493e+00
6.729783290877739077e+00,-2.564645310892910146e+00,-7.820751863025756201e+00
-9.349684073640508686e+00,2.902880842698512875e+00,3.022350970979951867e+00
5.201780628438549492e+00,-5.329115251814242171e+00,-2.158387902321018181e+00
-1.468557527865780088e+00,-5.852482241519069150e-01,6.804955213103711209e+00
-6.514916535256744190e+00,5.613012264584456901e+00,2.782825177792243920e+00
-6.046562617566489273e+00,5.162922054567821384e+00,-4.517330955871516340e-01
-4.354393271319475289e+00,4.415511892435516117e+00,5.436365926853107489e+00
-1.227049565523866459e+00,3.875571983099005635e+00,-1.628305604084419933e+00
-5.344365106058310833e-01,2.513930943071260860e+00,-5.023820061948530480e+00
-6.739484650292808965e+00,4.687239342830163413e-01,3.705994469007823700e+00
-4.723440422187000998e+00,5.241993931136572193e+00,2.279346604478432514e+00
-7.593411802019798706e+00,1.191022843895279681e+00,3.324442001859592377e+00
5.296429969214933031e+00,-5.220584437415470846e-01,2.098598088102161086e+00
3.621765408933464325e+00,-4.608968991952822947e+00,-3.868108421380691553e+00
-5.982111815853419223e+00,3.004914789687478383e+00,-2.934541512445314471e+00
8.292099842876451632e+00,-5.584632782396278472e+00,-1.457198087641006223e+00
-2.542145787618241837e+00,-8.330245858515112900e-01,-3.909876928858690981e+00
3.515789465649768353e+00,-3.729788032464049774e+00,-6.037340282387792634e+00
6.661104854284420895e+00,-5.002802411002410743e+00,6.789739712836921903e-01
-4.677360274485635294e+00,5.163126156076558004e+00,1.026346253879731218e+00
8.546105488715690868e+00,-5.265280923545248903e+00,-8.294711216070483895e-01
4.665755305462921498e+00,-2.806466372163177070e+00,-7.707836162749551967e+00
-6.863362422066033197e+00,4.739142388544227202e+00,6.585815819670084004e+00
6.311146927990334277e+00,-2.288273596758423900e-01,-3.856006504256161982e+00
5.824885272555957449e+00,1.565319391743986710e-01,-2.377845137231563211e+00
9.428024543079832398e+00,-4.267389958412231898e+00,-1.305851793640063985e+00
7.507404127475245659e+00,-5.547050424742615782e+00,-1.009096940652614238e+00
1.769004310602608543e+00,1.515942945642223538e+00,-5.747623580433002033e+00
-9.521897355706437693e+00,4.185286057599666876e+00,6.513530038835751768e+00
-8.496269124639159731e-01,2.136683732168876748e+00,-5.481735887292932929e+00
6.876863215872539570e-01,-2.905526278482859492e+00,4.283174337887404981e+00
-8.827177887293371938e+00,2.439079077830271114e+00,5.320840480851468435e+00
7.881295500211048299e+00,-3.120661253355510034e+00,7.851065697629916462e-01
3.472042874906677845e+00,-2.112335519964946062e+00,-7.562951526628259202e+00
-5.110888017617774004e+00,4.157562194641928777e+00,6.646958070130481566e+00
-1.904741251780128541e+00,4.228948128125688655e+00,-4.714434206269847438e-01
-7.639504254525387950e+00,4.243681456268471486e+00,7.189000943634707319e+00
8.321760344361207373e+00,-2.803880189485687513e+00,-6.957910463887465369e+00
-1.046913736215676627e+00,-4.988859001820128425e-01,-5.832551431728332680e+00
-5.247847630152885579e+00,2.687149373068183245e+00,7.884248994628389795e+00
-1.723209915306526563e+00,1.879696623091962504e+00,-5.637519821684894517e+00
9.490606571187631957e+00,-5.479243961962733778e+00,-4.974211914785776401e+00
-7.867092127458015227e+00,3.082296034945592123e+00,7.439769714680255497e+00
6.890987789030307731e+00,-3.334477549437113275e+00,-7.689444174279309152e+00
-8.273125018658944896e+00,5.307227018455961343e+00,5.972761398261495103e+00
-2.256650888891774454e+00,3.898704468775072485e+00,4.136515852386653869e+00
-3.230954464706735418e+00,2.386801245702742769e+00,-4.759037300962003059e+00
9.153587176119545310e-01,1.445059728426218326e+00,-6.038199438410699393e+00
-3.758654128202191913e+00,-8.228647413092192719e-01,-2.017424626455334824e+00
-7.801861517839880023e+00,2.463942544947039348e+00,-5.095282364986541968e-01
-8.142409792009706493e+00,1.818473246853517633e+00,1.857772267814478795e+00
3.990949882170222285e+00,-4.839774398562553870e+00,-3.143758276298853183e+00
-8.761218668687179800e+00,4.885635283584858435e+00,7.215221965885685318e-01
4.292297093000288832e+00,-2.169540901721338066e+00,4.243668885786284761e+00
-1.064732395354901273e+00,7.409395437145124275e-01,-6.168950211654016691e+00
7.007782603910723829e+00,-5.662012888845031178e+00,-1.419777955300227434e+00
3.416072072656598291e+00,-2.085286468860847453e+00,4.875941444869498653e+00
-1.849490555079322140e+00,-1.843741822037974876e+00,-3.105109749380872142e+00
-4.050387421058633031e+00,2.273728493426336428e+00,7.713561906587242945e+00
7.306811644041646403e+00,-3.035898160428991854e+00,1.483821799534745578e+00
-8.499946108473736217e+00,2.159033560632759752e+00,5.352126986506066331e+00
7.033475226378485878e+00,-4.583129177421093381e+00,1.237568813899151854e+00
-9.440032912494437767e+00,4.848486032893370989e+00,6.141246216201927233e+00
-5.118348129954404691e+00,-6.241151581043068441e-01,3.069589796195647757e+00
7.087160045203012793e+00,-1.175370681146627128e+00,-5.807309053719948544e+00
1.000558108780661470e+01,-5.251259756604025775e+00,-3.788578749655925559e+00
6.310342268966510737e+00,-1.346107225540102315e+00,-7.123779597611463288e+00
-6.824010510918594008e+00,5.498739250908228904e+00,4.324137246367086185e+00
-8.294666499866117704e+00,3.435114793167254543e+00,7.358204201569429337e+00
7.401053042195785636e+00,-3.517442414186985555e+00,-7.651743583100578228e+00
-6.413086977427057356e+00,7.608995922384664823e-01,-3.770002762450435640e-01
-7.894714049367062003e-01,1.096937851149744070e+00,-6.209845061512593745e+00
-4.691331178914084354e+00,1.584478704035983565e+00,-3.773514441262221020e+00
5.879258008070006092e+00,-5.136922628111864064e+00,-5.099226198319172454e+00
-6.558414166456370431e+00,3.069849645538885174e-01,2.757198044800881043e+00
-4.187846184065049826e+00,1.662461070877475411e+00,-4.372653566590327223e+00
9.337478476114047243e-01,-3.840651951804858300e+00,-9.566954468846949888e-01
-7.352111368004397018e-01,-2.627633387602932302e+00,3.898990605712526314e+00
-6.600536575898352964e+00,2.163449570072535355e+00,-1.975049450336572754e+00
-4.629405555026210095e+00,1.256088506600055332e+00,7.711805418181555183e+00
-5.228844837071876306e+00,4.816965133235433072e+00,-1.311253086005109925e+00
8.903695089804552154e+00,-5.508782802518860322e+00,-5.180888171793523789e+00
7.682153383853590256e+00,-3.452688123944958942e+00,1.252901401771454593e+00
-1.765996138944679439e+00,1.965170372823651590e+00,-5.537455007063599943e+00
9.256415799435597336e+00,-3.898942551255284883e+00,-1.208908964885768267e+00
-6.616797978017792126e-01,3.721727444398647666e+00,-1.069323824784109256e+00
8.422773972395058983e-01,-2.198544763440374084e+00,-5.872747988030512900e+00
8.569328545714816059e+00,-4.908432004399716497e+00,-4.902225410499382319e-01
7.957255884691907255e+00,-1.887591656003511531e+00,-8.905593626380545746e-01
3.562920507604431908e+00,-1.765731463012382985e-01,4.022539866908901196e+00
-5.773786016122021358e+00,3.243679688230220570e+00,7.679695672591273059e+00
1.402207229184890602e+00,-3.989200499528028132e+00,-1.567085234009865546e+00
-1.278847860777975187e-01,2.567971777049131710e+00,4.454604293228367595e+00
-2.063550685574518706e+00,-2.481646817640214664e+00,1.016528342436310295e+00
-9.598802965951602317e+00,3.866348980692595916e+00,2.156979095773692734e+00
4.932544732951877897e+00,-4.367096362644753427e-01,-6.827623642573183993e+00
5.550206851859881496e+00,2.550408649451897936e-01,-4.202428062766849770e+00
8.556601369923857447e+00,-5.757324261154900924e+00,-3.319582823537572835e+00
-3.387647399051854968e+00,1.387648188168048913e+00,7.639964667834597378e+00
6.705840694671716840e+00,-5.612933124840765231e+00,-1.581043606384813005e+00
4.849651512615069215e+00,-4.482027401915074094e+00,2.097031687228703589e+00
3.355121558983770846e+00,4.991937591740582825e-01,3.362586371597651169e+00
9.528651586931326634e+00,-5.449345008989521233e+00,-2.493285635557191071e+00
-2.585019881367717876e+00,-1.951845891952300960e+00,-9.367007001776826991e-01
3.873824317228447445e+00,1.421704803299570719e+00,-1.391181764048516900e+00
-1.015644155820572614e+01,4.316688088639279108e+00,4.261421123756893969e+00
-2.651813216236849069e+00,-3.977532580649235650e-01,6.821484174052353744e+00
-9.155816510801811248e+00,3.951438287053561371e+00,6.592079748833272745e+00
-4.306623163333981097e+00,-1.078667826732255142e+00,3.178603598807183239e+00
-4.406818946699534223e+00,3.131567972677958167e+00,7.296281993156597423e+00
-4.792786856741078072e-01,3.424512139730593319e+00,2.379302148344594858e+00
-4.993911167564869302e+00,4.324389159246067926e+00,-2.350591074105986333e+00
-1.078644395963717972e+00,-2.627259075406646271e+00,3.581365126495521967e+00
1.388972816575980429e-01,1.628841571432625868e+00,5.682996757878705729e+00
4.920131604377330881e+00,1.241279574233976335e-01,-5.880413773436855784e+00
-4.548913581812816354e+00,-7.026802082066535560e-01,4.608674251314912595e+00
1.688576789012981028e+00,-2.868994420839487969e+00,4.690388649376301622e+00
8.721796433273260263e+00,-5.025104354671412032e+00,-6.988677574533873615e-01
-7.771424832316562004e+00,1.321307912956669162e+00,3.204808758379049216e+00
1.919699836192834796e+00,-4.154878849218616388e+00,1.159244365606893590e+00
-6.845559141053755958e+00,1.028313137781553088e+00,9.305679697046691234e-02
6.719111439742522229e+00,-1.957968880878494522e+00,-7.379924055177446540e+00
-1.854265577606326820e+00,2.015610440549631122e+00,-5.481032436607045533e+00
7.685479813132269911e+00,-4.648828948101121128e+00,-6.972018833699173079e+00
4.253992914964350724e+00,-4.956045122782493095e+00,4.021449171575638970e-01
5.554626882349134043e+00,-1.293230334683586058e+00,-7.533927743716430037e+00
-5.551465240813556079e+00,2.925604784128691627e+00,7.809650459573609815e+00
-8.636023375542656311e+00,5.527293608048568174e+00,1.566216497064201185e+00
-7.196228796483688406e+00,3.987406697613362194e+00,-1.591458276634600377e+00
-2.355734854808117174e+00,4.190465434392940836e+00,-1.711246154052962209e+00
3.260821153627259772e+00,-3.589228371217125790e+00,-6.044442369357986955e+00
5.626010457611302584e+00,-1.453109330597933013e+00,2.786738904798901295e+00
5.526001754377282360e+00,-2.181467211491138869e+00,-7.920023125562885014e+00
8.504746393597208964e+00,-2.042821725776476249e+00,-4.620841911309972794e+00
-1.018545480722713670e+01,4.826121242466153483e+00,3.750501842456470225e+00
8.229911781975321472e-02,-1.762393774826380044e+00,-5.628663464505587299e+00
4.747803028033496631e+00,-2.724362493082820968e+00,-7.686087185771646624e+00
-2.930608815260808964e+00,4.854337955653502124e-01,7.463301409625924698e+00
5.342178530512042833e+00,1.973743944126022942e-01,-4.971292025881577814e+00
-8.478247334665299562e+00,5.566277803550969239e+00,5.197547521518663061e+00
7.983703251508553755e+00,-5.284060765040835328e+00,-4.956893763431481914e-01
8.071334911690085434e+00,-4.231240983099105790e+00,6.567432308228381421e-01
-1.908060585122012931e+00,8.260928601947205019e-01,-5.711768379568241016e+00
-2.585878478851453277e+00,3.966641334907193173e+00,-2.668806580676077012e+00
1.979800486283193939e+00,-3.756728022463315497e+00,2.835410846104848837e+00
5.752183756799807313e+00,-4.136637547425517702e+00,2.424469405191007176e+00
-8.091714328238801102e+00,3.699413892501194567e+00,7.435216712210798384e+00
-7.669994154185694413e+00,1.237818850508292545e+00,3.965002261866025890e+00
6.230038366330652444e-01,-1.656507149450881844e+00,5.927470795895708022e+00
5.076303131288444348e+00,-1.249094743426942822e+00,3.203831622577206772e+00
1.393242753304097858e+00,-3.836272958361242491e+00,1.906728150638188790e+00
9.579473043651260511e+00,-4.803595495835383034e+00,-1.852580736631805225e+00
-9.171928599901638890e+00,2.861284993575799795e+00,2.370458143783083393e+00
-8.082157255002517360e+00,5.359347020354573665e+00,5.834138071206919074e-01
-1.296185398777950804e+00,-1.840705834639871086e-01,-5.871250679007344431e+00
-4.036168931967865525e+00,4.523174579046808752e+00,-1.753293351520458732e+00
7.469221593439594464e+00,-5.167119102848582557e+00,-5.983835434881201287e+00
4.977331441904305542e+00,-5.281507963256874660e+00,-2.022581634344102763e+00
-5.959703738838790343e+00,1.247604855952960001e+00,7.255686534544460109e+00
4.503835448746659864e+00,-4.104039750509895335e+00,-6.245724277069354180e+00
2.873553845822478081e+00,-4.596804298940693201e+00,-2.212342675061153230e+00
4.507375137503645490e+00,-1.353403088715819269e+00,3.955930869582804377e+00
-4.947980269101732276e+00,-7.943879293148309317e-01,2.371786695237630749e+00
4.651712359711655864e+00,-2.820866203771503211e-01,2.729757438066510833e+00
-2.439989522220286755e+00,4.016634506546990835e+00,-2.430156332703588440e+00
4.275683949292448993e+00,-1.849419789613873988e+00,4.241325296825320557e+00
5.384627616590548449e+00,-4.299690294912212885e+00,2.227967119381351058e+00
1.017623554829502908e+01,-4.493057718923325616e+00,-5.204118715169632203e+00
-4.118736963493584646e+00,-9.141496012269426652e-01,4.730726156108434388e+00
-1.329168115086668989e+00,4.025661791858759386e+00,1.954152714815796110e-01
-1.082998801143048029e-01,2.397312448634902005e+00,4.694702537357437144e+00
-1.005864702716718684e+00,-2.711211703401488204e+00,3.414785573426136533e+00
-8.552126902982747580e+00,5.598129073911998432e+00,5.190185198354329010e+00
2.149650225624105460e+00,-2.202347270361166398e+00,-6.914207026189758132e+00
3.043686825619255742e+00,-5.548782919176348249e-01,-7.422901182546952192e+00
4.312935289963990115e+00,3.270648332398032321e-01,-6.158242189648593268e+00
-2.099941847526157979e+00,1.349866960927951443e+00,-5.631281883383499220e+00
-1.001976594532484732e+01,4.864056275737163482e+00,5.281433839176024492e+00
-7.548726572489989017e+00,1.706253728224367494e+00,3.387911058955878629e-01
6.326148185249457212e-01,-1.300845211713291150e+00,6.123031853435324301e+00
7.313340045396598654e+00,-2.419420918072065607e+00,1.174115429338713268e+00
-7.730992554988508125e+00,1.696647465721851544e+00,8.325647639417743662e-01
-5.235171269567988617e+00,-3.122135257798967500e-01,1.110035940654417567e-02
6.423543921654338185e+00,-2.295043952986631108e+00,2.346799557267659875e+00
1.624022108100554168e-02,-1.770383642146619474e+00,5.835421638165478875e+00
5.196651210194353609e+00,-5.140017233277461850e-01,-6.703338747959859845e+00
-1.429494071649131115e-01,3.106056486638710368e+00,-3.328991852219088887e+00
4.853969972853276360e+00,-1.512311451771400916e+00,3.597968152915590689e+00
3.277845763532184264e+00,-2.995144553862469028e+00,-6.938623039183061891e+00
-1.277399709819031504e+00,3.593981007804949002e+00,-2.749104167582411051e+00
-8.257630592006397485e-01,-2.795074026647307086e+00,-1.862813227292251295e+00
1.174104562046856204e+00,1.974980149049073486e+00,-5.214596922444664884e+00
-2.608784296806595293e+00,4.239771033070744544e+00,-1.814511727970476107e+00
9.548300738139660737e+00,-4.965771052458283208e+00,-2.045528520880459666e+00
5.406693851202565071e+00,-5.091874576983770773e+00,-4.733574878392111884e+00
5.559329625765442984e+00,-1.580818847816088502e+00,2.978544282816993238e+00
2.273572135935032490e-01,-3.313236634094714361e+00,2.784050688549712493e+00
6.152693726500266358e+00,-5.516671579413644722e+00,-1.027661209837241296e+00
2.486703021681037296e+00,-4.443443800351468909e+00,-2.131212302592465357e-01
-7.289915522703729778e+00,1.697856022445225044e+00,-2.844046511757236662e-01
-6.023852467784433173e+00,1.504964632557076742e-01,7.154637713207988581e-01
-2.711270740385399058e+00,4.328482169746603603e+00,-1.549060565231916708e+00
-5.243960443861189091e+00,3.663766129637176405e+00,7.282901437405353562e+00
7.592179974825135957e+00,-3.474795360698832436e+00,1.345911014852716914e+00
-5.410868400536094747e+00,5.125896780818043119e+00,-3.641891912022881539e-01
-9.278185260481512486e+00,2.797654033340819968e+00,3.649272778131532391e+00
-5.445628088053734217e+00,1.122694497460399399e+00,7.407012141090497437e+00
5.271099905664610397e+00,-2.547653691078641258e-01,1.614206419509633506e+00
-1.020772397600697801e+01,4.808892366713815925e+00,3.775854539801588583e+00
8.624651015010234900e+00,-3.856628692227757949e+00,-7.207934830185293684e+00
-9.739261392419386709e+00,5.402064694888935925e+00,3.667121466811196218e+00
-7.478110186541965243e-01,1.957125407855571320e+00,6.118785584634831132e+00
-6.210389390301584989e+00,5.047569423961200563e+00,5.525377927790489530e+00
3.486919273787810525e+00,4.281845624756452917e-01,3.241183905022432921e+00
-8.845327903781804224e+00,5.624198669445028997e+00,4.667721768155278284e+00
7.742327065955010745e+00,-5.095129920809000623e+00,-8.249457352519479203e-02
9.545882936606796321e+00,-3.107517771597927414e+00,-4.591067519694753685e+00
4.560615303285900368e-01,-2.823003192529320415e+00,-4.371540202094146288e+00
-3.024361575654341383e+00,-2.274189741507742502e-01,-4.252146973793713869e+00
8.457562612754395914e+00,-3.428985550329191057e+00,1.608703754223956284e-01
-6.520133297779080461e-01,-3.003243370542119095e+00,2.503712624796973873e+00
-7.722962028727585526e+00,4.254857334268914215e+00,7.253048315392773837e+00
-6.843866417506767164e+00,5.493138886799481035e+00,4.745492520932090841e+00
-1.016813636652297070e+01,4.976885298442936367e+00,4.866693348128795726e+00
-8.282653711131670704e+00,5.702544985996355287e+00,2.508440330634882809e+00
3.643388295787685749e+00,3.647920443206361663e-01,3.106085365931933850e+00
6.212146821585161405e+00,-2.718686129827657894e+00,-7.884958197959516468e+00
-5.255727003152136589e+00,-2.852562669493824976e-01,-1.563134286555591668e-01
2.253772322089231839e+00,7.292572087228686994e-01,-6.657783389780170147e+00
6.289217259438977692e+00,-7.371564117859696896e-01,-6.163860147375075371e+00
7.941969174753981120e-01,9.591992934181705621e-01,-6.556938803206374899e+00
-4.672184018890620294e+00,4.666612060035955523e+00,-1.698998473800729991e+00
-6.038255490416790217e+00,3.940926704389740465e+00,-2.390572503701451801e+00
5.488910831217370223e+00,3.272982035202624540e-01,-9.902533017129830917e-01
-1.062595506645385601e+00,1.267785027966880529e+00,-6.028213732343820297e+00
9.042860405175865424e+00,-5.682427275815852497e+00,-2.895156031046647538e+00
-9.516301275900611145e+00,5.298581592937350315e+00,2.117466612320185071e+00
-7.516701926410913615e+00,5.201412509206598145e+00,6.029262523915858374e+00
8.285203077091171764e+00,-1.815190247944043156e+00,-2.561216120686109932e+00
9.123307025915629254e+00,-4.137648370975980150e+00,-6.705030753463431914e+00
3.876437049144657365e+00,1.234757951498188344e+00,1.378800983427423688e-01
-2.819230519312105443e+00,2.249941556184922309e+00,7.302956599262210524e+00
6.957532514936178636e+00,-3.190719089542403797e+00,2.013499145102787047e+00
2.122488598982702257e+00,-4.363900917159412529e+00,-6.895834760962378240e-01
-3.673225805820050649e+00,2.669340505450820800e+00,7.310616351618826947e+00
-2.869232696139456085e+00,3.529544098988694589e+00,-3.688038288705326018e+00
7.692762163571416956e+00,-1.375344865114229043e+00,-1.610532458783686449e+00
-8.724701546557193765e+00,3.555322649369493160e+00,7.068491510972723546e+00
9.928999601994251023e+00,-5.466526509600627470e+00,-3.847560253529201724e+00
6.138469466910985162e-01,-9.623922813174941027e-01,-6.793150572389973441e+00
5.264100741499166070e+00,5.880086498711215581e-01,-2.683536208129297940e+00
5.164085172992618489e+00,1.037648406428354209e-01,-5.682714373414524900e+00
-9.497992419728188196e+00,5.419256722600248821e+00,4.719259353220865094e+00
-2.585690614661221076e+00,-2.119580877513437489e+00,5.862460346304725345e-01
9.397581230681255338e-02,3.204831840677395238e+00,-2.406473831627673032e+00
-9.350017541299585844e+00,5.673061979223192886e+00,4.465975366762543253e+00
-1.865792519513556513e+00,-2.506102924822200428e+00,3.112487821254255049e-01
-6.791450475228339556e+00,1.949009959584646401e+00,7.293638656346316473e+00
-3.369461116203917861e+00,2.789985015340390007e+00,7.099514563116349208e+00
-2.269312597631834461e+00,-2.301861843765756976e+00,1.757764432797442655e+00
-7.014986445385839708e+00,1.519717986198982240e+00,-5.316374114118178618e-01
3.058107336732434622e-01,3.210447575709585610e+00,1.324831119276265623e+00
8.065007688645435380e+00,-1.852954395103938889e+00,-1.391825358046470340e+00
8.631501165720072422e+00,-2.452962281530401523e+00,-6.029169922680410743e+00
-1.049399532436281257e+00,1.206392981312120138e+00,6.830479657050361197e+00
-4.114332535912318178e+00,4.345711313790229013e+00,5.412506789278606512e+00
2.242863799065569541e+00,1.020810285653259042e+00,-6.199628380347493639e+00
-9.656580009991698077e+00,3.914919742813141923e+00,2.031883136032389903e+00
4.401505271750854043e+00,-2.596587912115106089e+00,-7.752686875173742109e+00
7.317297062903165283e+00,-2.162348913175898169e+00,-7.196709012731394850e+00
-4.090326736272529434e-02,5.134106634533880387e-01,-6.669176388688351054e+00
6.481858584035696147e+00,-1.885478910967382848e+00,-7.437732253577649999e+00
9.997582985961314117e-01,-2.769684450969320366e+00,4.730303816894806168e+00
8.379833028402892126e+00,-2.216824731866394060e+00,-5.951937359179003906e+00
7.981825302670103817e+00,-2.025675969426683487e+00,-5.174226875210633514e-01
2.596219256845916590e+00,-4.467397837082390133e+00,1.523097707373782805e-01
-5.389915362201185722e+00,5.442864799907283224e-01,6.681044911837278555e+00
-1.035762732368165517e+00,3.664441325001267291e+00,2.816685613770836927e+00
-6.660381247956994599e+00,1.226207032639513139e+00,-7.888623952378215343e-01
1.582713841573447411e+00,-3.616946427297771383e+00,-3.960190424127403297e+00
-1.091982252762969452e+00,3.378099810547753101e+00,3.842768641142854324e+00
3.563247076214536957e+00,-4.824502524714922025e+00,-3.594268274091518833e-01
-3.488038480958094656e+00,-1.102991406526778073e+00,5.188658346294262813e+00
-2.710495012162363881e+00,2.176829149632490690e-01,-4.922721993171673027e+00
-9.703658061914351762e+00,4.189321208196542301e+00,6.269909792991930075e+00
-4.829572520492069643e+00,3.212180204913650527e+00,7.461813004325869692e+00
-5.057676108783729418e+00,-5.883232341879109928e-01,8.916702679506502971e-01
-4.289160001372677167e-01,-2.573512514246104388e+00,4.301383874740444924e+00
5.686329586843334560e+00,2.504532906155589878e-01,-3.639206298795125694e+00
5.285264576967384720e+00,-1.374138277308776912e+00,3.103250620945214422e+00
-2.801628271777461876e+00,4.354731022093244697e+00,3.478512976454620098e+00
-4.530077783685090509e+00,1.966556666812356025e-01,-2.691913546094726328e+00
-1.862506310945050148e+00,3.452765843752302111e+00,-3.662636358902386480e+00
2.138045891570905521e+00,4.196703025573169654e-01,4.990427998803984799e+00
7.647303900616441830e+00,-4.909185304879765788e+00,4.892624398249390549e-01
9.286538682985309379e+00,-4.595992024616337268e+00,-1.162059022317609713e+00
-1.327254561081786521e+00,-2.887383143528164386e-01,7.029990359583957016e+00
-7.170417128669470230e+00,2.840044020116110790e+00,-1.742830724654425234e+00
-5.100255642496871467e+00,5.997733518405410358e-01,-2.443201954663304587e+00
-2.737815469299343718e+00,-2.090083236947431367e+00,1.818204178703921148e+00
9.293456950059946209e+00,-2.944691799433883705e+00,-4.936145865127611110e+00
9.572176815046047338e+00,-5.454382210430855693e+00,-4.523257481501471666e+00
-5.178371245378285970e+00,5.074924890984838122e+00,4.362453509954820063e+00
-1.356191397909115137e+00,1.679593332036464659e+00,6.806376963928182811e+00
3.008090391055541435e+00,-1.151567913993148506e+00,5.071153561807724586e+00
7.572834854042541863e+00,-2.796751320325223222e+00,1.028269648017299698e+00
-5.056411291476327285e+00,2.342555024853004486e+00,7.921240723361438363e+00
-3.250184842497735538e+00,4.506485891162098412e+00,-1.424072026528000690e+00
2.895568124180989411e+00,-6.631673513618485671e-01,5.041479406343041703e+00
8.279269073096873655e+00,-5.320723120382559124e+00,-5.712173193185583031e+00
-6.861956326084166946e+00,3.415618745999275063e+00,-2.051600121610692717e+00
-1.376274298655072448e+00,3.332672009036722560e+00,-3.676630507233010103e+00
2.580453234603367729e+00,-1.458653223928141784e+00,5.394306546898790522e+00
6.077668767853587894e+00,-1.327758123376038046e+00,-7.294014773264093421e+00
-8.970946844583705726e+00,2.939498075286428147e+00,5.918894682425515086e+00
-9.768939342641981272e-01,3.886219682173784218e+00,8.282609489527804625e-01
-1.812250199127980466e+00,4.312583469311172951e-02,-5.606267460598536978e+00
-8.646988172746220558e-01,3.458089617783448588e+00,-2.907555850075462800e+00
-1.196320820621641579e+00,1.189544421624145754e+00,6.989644491138888860e+00
-8.678344179497539557e+00,2.256664413761530597e+00,2.400518538778290356e+00
8.368297826500086245e+00,-5.336973206777025247e+00,-7.663817655053987155e-01
5.785963989664900886e+00,-4.516572461878189060e+00,-6.461231005857196230e+00
-1.892630110579602176e+00,3.505250649366959959e-01,7.361223793139127558e+00
-4.240789645430695032e+00,-1.046746871016057456e+00,4.094002946761213124e+00
-7.564845628687553614e+00,1.148800422880667638e+00,3.067170835402514673e+00
3.420440633800408747e+00,1.095498176581901406e+00,2.131595727832018117e+00
3.216231556338467357e+00,-2.717480519544187789e+00,4.680150052004556471e+00
-8.743639558588537142e+00,3.962717532711899082e+00,1.374063932725794746e-01
-8.462098498463396234e-01,-2.742326547088701716e+00,-2.200446080805242843e+00
-2.538434869221611656e+00,1.110548435759917130e+00,7.529892493457317038e+00
-8.150144147046031406e+00,4.667669726571132216e+00,6.765334201222827915e+00
-7.001612301095464730e+00,4.155784814269448013e+00,7.251708760920219099e+00
-5.115101639799772393e+00,2.177227284947109709e+00,-3.703572907745988463e+00
1.760510872290166118e+00,6.163821806065797881e-01,5.096046027372739928e+00
4.486760039017007706e+00,2.565459353750349503e-01,2.007142325290529605e+00
1.529966412656457164e+00,-3.466955115694764444e+00,-4.384772486727753993e+00
-8.998838219293237017e+00,5.637257200578163818e+00,2.613469588966737422e+00
2.310489912317700067e+00,1.652376325166959647e+00,2.689310154167793510e+00
-9.237828230331894375e+00,4.081986306129051556e+00,6.765269912881907821e+00
-8.508166563667584725e+00,5.184139874741556575e+00,8.753471226438668262e-01
1.036599407081343571e+00,-3.890213382809630360e+00,-7.234522755769876579e-01
3.611544380180812475e+00,-2.737274771109934779e+00,4.411391487358533148e+00
9.023318336086996183e+00,-5.176636003906161854e+00,-1.291188918767744997e+00
-5.314734129811357732e+00,3.134742037294547590e+00,7.761507307212585083e+00
7.215314800499433190e+00,-4.601386141041309052e+00,-6.933524246654158674e+00
8.197813189316153881e+00,-3.151036321809062457e+00,4.241670573873226879e-01
-3.481138129458071440e+00,1.323550375751045394e+00,-4.752221537029676313e+00
6.463519221600286357e+00,-4.350442000506583362e+00,1.755921034254282365e+00
-8.130290388489644471e+00,5.587550052159993008e+00,1.599931307993809559e+00
-5.080048898357423681e+00,1.232232683702920717e+00,7.583030159034041873e+00
-6.599387448617754615e+00,4.680126485269591186e+00,-1.283850690441681763e+00
7.700234677328115396e+00,-5.642208876872230050e+00,-1.250861656995861271e+00
-6.158851057026032194e+00,9.376713631496257362e-01,-1.188992308086102234e+00
2.204002318200023680e+00,-9.538888445903483948e-01,5.579718282886178216e+00
-7.113757817980062015e+00,5.659465374959346207e+00,2.061376420564151601e+00
-4.525383620997229350e+00,3.572029502763131692e+00,7.040708998223828452e+00
1.432703344665187117e+00,-5.946846016367220988e-01,-7.162444328474291133e+00
-8.632648778546608170e+00,5.531414006399347549e+00,1.546903159614515078e+00
8.428270345096775529e+00,-5.836537114503226320e+00,-3.642523482440831906e+00
4.395046452400799275e+00,6.179122443918120267e-01,-5.400344991821480534e+00
3.300581575305739701e+00,1.135562419178676619e+00,2.123473043460397669e+00
1.657836954475647273e+00,-1.513952977646164433e+00,-7.050866824770201546e+00
4.185734362183525015e+00,-2.058551818986533721e+00,4.315221525556887094e+00
4.114053198885465612e+00,6.709130194473709174e-01,1.626276014798832215e+00
-4.665598078532177340e+00,-8.857795105308510775e-02,6.304049728757275872e+00
-6.786495765538617775e+00,4.630823540614245282e+00,-1.260858312063515507e+00
7.589031453545627137e+00,-3.754064691491832306e+00,-7.624866995282856941e+00
-6.650359745600825434e+00,5.450194239725747458e-01,1.325291660575119268e+00
-4.886925777710739993e+00,-7.535065997969168095e-01,2.935896435803062143e+00
-8.534698827825023315e+00,3.589336876042972246e+00,7.210139098119853429e+00
6.207267670601359200e+00,-4.655212655638280239e+00,-6.451492592904938483e+00
-1.011876799920572800e+01,5.258169720121816937e+00,3.911305298386507534e+00
1.741741681677693165e-01,-1.332134549592590700e+00,-6.183393856223723617e+00
-6.052184796405399858e+00,4.918988467251655727e+00,5.685980055862255966e+00
-3.537624671715194347e-01,1.374422610548847956e+00,6.264733192884285984e+00
4.425224627904236208e+00,-1.453674237977260031e+00,4.077936282170280258e+00
9.663252859018438556e+00,-3.950420383199792607e+00,-5.807168486045116929e+00
7.141579847368106915e-01,1.979661065692873922e+00,-5.489717882842463759e+00
-1.838873549812542807e+00,3.734526861039499934e+00,3.934832467393664768e+00
4.457298332663798490e+00,-1.558229017837698294e+00,-7.868034715997787032e+00
7.529213628046380613e-01,2.284742828915060198e+00,-4.852499010554588210e+00
-2.758765183395911702e+00,-1.533165958506590876e+00,-2.285178573139064362e+00
-1.702381631726335609e+00,-2.361563099171330560e+00,3.469280003744810603e+00
-9.392678927876959349e+00,3.689732729656410637e+00,6.159053247564966860e+00
-5.182113151093306058e+00,2.680897858386857902e+00,7.877185417165327941e+00
-1.794197706803962955e+00,-2.515390205059675921e+00,2.403127412933157903e+00
-8.937549340972964274e+00,4.127076878210200306e+00,7.026372300588883846e+00
-4.062963502071915478e+00,2.614953267602011078e+00,7.593595922565229195e+00
1.364243312494286764e+00,2.314999668187669002e+00,-4.164197440893468105e+00
-9.100188015714518741e+00,2.537991679909728848e+00,4.514143385743022208e+00
1.816373964618656967e+00,-7.489392334363870196e-01,-7.330722690555838916e+00
-3.519906938099031546e+00,6.996713100504771410e-02,-3.971023802751258547e+00
-4.114731822253760996e+00,4.498311426333561514e+00,-1.913727763398578530e+00
-9.439556949530532037e+00,4.753411520103148824e+00,6.232932181013399742e+00
5.808422084904251825e+00,-1.349336803731718548e-01,-8.745660058123937153e-02
5.892437681896906199e+00,-2.364274241073315019e-01,-5.364056962132691453e+00
1.934186294820540164e+00,-1.175158348782145756e+00,-7.269502225075728852e+00
-9.921826948449458117e-01,-2.679657252195585038e+00,3.312001884418415365e+00
2.916343306201801600e+00,4.320300946629095362e-01,4.014443942312452940e+00
-2.073192005128008386e-01,1.612421188020078056e+00,6.008894670689111095e+00
-9.424011086804906512e+00,3.517324395161516737e+00,2.037680956267607257e+00
-1.955877594713929968e+00,1.200713470759085855e+00,7.270745444096759158e+00
-3.331468418127428333e+00,-2.956399405000769698e-01,-3.803740783023023209e+00
-6.557773531281132051e+00,2.038495332473224231e+00,7.583131952324596803e+00
-5.744136737495709077e+00,4.194914854042600894e+00,-2.286970488187203276e+00
2.007556034094667152e-01,-1.280685928338703761e+00,-6.288590523487050277e+00
-9.736098722918804071e+00,4.437371934305778254e+00,1.993958082067682991e+00
3.923872968420637264e+00,-4.695754202638839914e+00,-3.933795012916323053e+00
4.273446560471103606e-01,-2.841982351662090789e+00,-4.234860231634269390e+00
-9.704172527755877908e+00,3.560892737268242847e+00,5.039793138893044144e+00
8.649561883333470647e+00,-3.635602444673158296e+00,-7.038932392358785428e+00
-8.788703969290359908e+00,4.016258560834951474e+00,3.106536855975476907e-01
-3.567944772971134881e+00,3.664171693633413884e+00,-3.568059882060201637e+00
9.464018371546512043e+00,-4.481252840495184131e+00,-6.418104436088809095e+00
3.061007622879838408e+00,-1.447674627429370808e+00,5.063886356415241430e+00
-6.971221997648381352e-01,-1.680804317949368354e+00,-5.064511882593266456e+00
5.474313491563940204e+00,-2.266063361891772932e+00,-7.894629817482181622e+00
1.269939562674907929e+00,-2.710467146632924873e+00,4.900448757195673188e+00
-8.900453535525338467e+00,3.020491872283914692e+00,6.471731797238799544e+00
-4.920163270631650043e+00,-6.836666090007816887e-01,3.984464651622796172e+00
-1.292064597957333305e+00,3.905916076922607338e+00,2.179207422323741650e+00
-9.765440559380870411e+00,3.568806577308097694e+00,4.965406676755418580e+00
1.992050004198595126e+00,1.744874834848104683e+00,3.126945480605250349e+00
-4.939293305680626744e+00,1.528607311989944151e+00,7.764156954809823041e+00
-6.319164937447181885e+00,7.423037886822039244e-01,-5.137566979821097668e-01
-8.303987877408889773e+00,2.419090558886244136e+00,6.519258097592866008e-01
-1.929216997137595202e+00,3.548622824334450421e+00,-3.444594089388314462e+00
8.256445079401990128e+00,-1.986310184126241385e+00,-5.432139642636846233e+00
-4.537391755036559893e+00,3.566360020166708722e+00,6.961936312453620879e+00
3.022956176375849235e+00,8.289226172312790242e-01,-6.107041659678973389e+00
-7.319876695822131296e+00,9.202543647012777495e-01,2.959458833958429569e+00
-1.386501147575369242e+00,-2.664453176761802489e+00,-8.302442774879619236e-01
2.179222895471342181e+00,-2.786756847113468272e+00,-6.304674227193070024e+00
4.742715879109896449e+00,-3.970315300433680417e+00,3.010273203623132332e+00
-6.904810180965912814e+00,2.075926645741788423e+00,7.315423961181329204e+00
-9.235294856924008977e-01,2.754347268621049061e+00,-4.685356998776945225e+00
-2.321483857093669945e-01,7.442033239326414362e-01,6.622042136870514462e+00
-8.851236415698386040e+00,2.379886018390230618e+00,3.936631062689887273e+00
5.173636533901238899e+00,-1.393094855421632250e+00,-7.656045651709169064e+00
-1.969700221442814314e+00,-1.224657324342460996e+00,-4.211976437998422362e+00
5.828226819226839162e+00,-6.603758341760940231e-01,1.407443408854758493e+00
-7.900648524881901835e+00,3.215733442284551380e+00,-8.268398709956520376e-01
-3.021338126469344854e+00,1.696880525042569587e+00,7.532826055709810120e+00
5.642190197946124641e+00,2.493261217709012989e-01,-3.766630592577710601e+00
-3.409314868100507545e-01,1.894256241069017577e+00,5.780424421601013663e+00
-6.256375707013548393e+00,8.125892479652718770e-01,-8.603337826375827557e-01
-1.963809363362466032e+00,3.493795007141580200e-01,-5.617012123597108442e+00
5.789474007189432392e+00,-3.116515855340673546e+00,-7.757168318391353345e+00
4.216215427300130658e-01,-1.995803479266380576e+00,-5.700202138008927832e+00
4.820329016281552192e+00,5.448688985255945028e-01,3.288477736273159868e-01
-8.273940285155374497e+00,2.278049018340104315e+00,6.121697814054495979e+00
-7.783876410667754930e-01,1.146401275856307578e+00,-6.277435660900778203e+00
-3.971677121410770894e+00,1.319301033732919848e+00,7.709013508209142884e+00
2.742353672687731780e+00,-4.563844324132166008e+00,-1.514820317017188334e+00
8.762227769569735258e+00,-4.939679899505751592e+00,-7.270181516063769500e-01
-7.975655054138439670e-01,-2.886147248702644053e+00,-1.825552801572408290e+00
8.416607300720421847e+00,-5.794884605982644210e+00,-3.687715626609175956e+00
-6.881248427450613825e+00,5.249471773462919266e+00,5.475497861224660312e+00
3.539568899568648064e+00,1.522792929430463849e+00,-3.123281846744446533e+00
-9.734603423455708837e-01,-8.044885946796358489e-01,6.682817458144255873e+00
1.293411475313238634e+00,-3.849346684976400201e+00,1.748542030516299084e+00
5.391079579735774452e+00,4.157720500761121762e-01,-1.256185185867192855e+00
-7.340521039505251366e+00,5.595794628289132433e+00,1.194761183500679058e+00
-8.564066549323266386e+00,3.585495701728796281e+00,-3.208091502627755109e-02
-9.432479656264646906e+00,3.162730413681417829e+00,4.988466664096704584e+00
-4.242388313992590199e+00,4.783515903647619361e+00,-1.067127120125891393e+00
-1.013083800285274094e+01,4.260919469642803215e+00,4.879416782582970846e+00
6.723547201902483117e+00,-4.804298498502190817e+00,-6.315814840677005826e+00
8.352416541750303125e+00,-2.836815388941192673e+00,-1.847456474585005282e-01
-3.455809825832343307e+00,4.195079275799276530e+00,-2.457871624571619673e+00
3.585081510534619209e+00,8.586261137451499659e-01,-5.602452548798449783e+00
3.164135454748791432e+00,1.414750139108034377e+00,1.521023752909975713e+00
6.739948404566050932e+00,-5.511617380950561973e-01,-4.168335536095238325e+00
-7.747805494723476905e+00,1.430532380579175866e+00,1.703206945308201270e+00
2.255757940349874868e+00,-3.251149946095345022e+00,-5.697546811357433683e+00
4.293995956848378093e+00,-5.824262929706266329e-02,-6.811606907843154701e+00
-6.640115337978107490e+00,9.119971002083887557e-01,-2.293215379321793534e-01
2.534962196656172839e+00,-3.030995281197964436e-02,4.978948795481269229e+00
-8.006935918796363794e+00,5.261783541468098235e+00,5.859997951735127941e+00
4.182426696858540183e+00,-2.519170449005062817e+00,-7.626908556975220854e+00
-5.646981997345544180e+00,4.291441340194061205e+00,-2.203125487466371712e+00
-8.641952686620685498e+00,5.290253176918390032e+00,1.117241846533333804e+00
3.552100375312371217e+00,-2.332943135636140197e-01,4.051017322409353305e+00
-5.719250974401051124e+00,4.066566398868396881e+00,7.043653966742543737e+00
