2.802111453357893467e+00,2.741296395269126496e+00,1.524459734916457920e+00
-4.069422836449760883e-01,6.590862971136559612e-01,-1.488654632924478527e+00
1.850874951379003708e+00,3.044722675210145724e+00,9.908716959592416273e-01
1.316786250809956371e+00,2.774881659975050763e+00,1.041350247345014468e+00
-7.087510417315190381e-02,1.204595977418821962e+00,9.343873060952533338e-01
9.362760147403412780e-01,5.354018074604386390e-01,-7.225750519441284103e-01
-1.145981061004330392e+00,-1.107123704226418592e+00,6.126964061097134318e-01
9.590402444015382333e-01,-4.264315274308962123e-02,1.764842176317910738e+00
2.038316364000612335e+00,-4.081222025386104790e-01,1.143999550988373137e+00
4.361625218728886200e-01,2.231845809542812198e+00,-6.928954319376713356e-01
-8.838514910258864488e-01,1.526147211955054983e+00,-2.004602091972318145e-01
1.135631137479118813e+00,4.722523283434486019e-01,1.828317402605430075e+00
-5.336041719852074872e-01,1.045582372190908549e+00,6.049897792737709556e-01
7.750597966294646701e-01,1.274788415922155860e+00,-8.419069671903351981e-01
8.413887470344568742e-01,-3.263707423558696863e-02,-6.884263932435363831e-01
-2.675091951156921777e+00,-2.796518191238916096e+00,-1.107808095303677076e+00
-1.883072623884243013e+00,-3.045085601866152736e+00,-5.758183515720510792e-01
2.887910891673096447e+00,1.584997415785740493e+00,1.166563671219346121e+00
-1.391284797895439018e+00,-1.296698656707827801e+00,-1.837623473757686199e+00
3.194823538400975993e-01,2.275386312058642613e+00,-6.314275277164372868e-01
1.797569002259682414e+00,1.577031136022129409e+00,1.945766279119622855e+00
1.762180411999134444e+00,4.545270826564589695e-01,2.016553171908351150e+00
1.057877924292789373e+00,2.285495545346843738e+00,1.252940737725158016e+00
2.507472089197776421e-01,-2.216254953750780021e-01,1.455701855153000990e+00
1.943337336275575700e-01,-1.469682119897577355e+00,1.227608854964210128e+00
2.123623743333003411e+00,1.536563011121917732e+00,1.919558239042882808e-01
1.231919143835338293e+00,1.311207443991142529e+00,1.777649001726007372e+00
2.382420288927749930e+00,1.494947506947610361e+00,4.981582299886905818e-01
-1.811389685677998296e+00,4.429449192154940596e-01,-5.747477243092518062e-01
-8.488628583997608334e-01,-1.749042028752065825e+00,-1.399429824784726106e+00
1.932111465056015165e+00,-5.203436519209113653e-01,1.487226975773754845e+00
-2.435090867253172586e+00,-1.208322760013248232e+00,-2.117818140030779617e+00
1.015432090349047689e+00,-1.249711098678336629e+00,1.349154127195961728e-01
-7.956378992420248819e-01,-2.403003091399441793e+00,-9.431627568515266180e-01
-1.983814198821612695e+00,-3.932631710966942307e-01,-2.009291818465774426e+00
1.258439169331011520e+00,8.885107517077743822e-01,1.842838122936266698e+00
-2.556467825575673647e+00,-9.885455793577246908e-01,-2.071133780850347161e+00
-1.181072600724896171e+00,-2.939954357697518006e+00,-5.679173105715569214e-01
1.847312239001118517e+00,2.791522848497055787e+00,1.390701734899183251e+00
-1.988426630947686125e+00,-1.552184992107557004e+00,-8.179043708274354174e-02
-1.890672361914459199e+00,-1.015654780895882903e+00,-4.225812734173208657e-02
-2.891966904177741160e+00,-1.113538692633232907e+00,-1.747783021579070617e+00
-2.187411482277416663e+00,-1.025087973123922858e+00,-2.102305316052539119e+00
-5.024624136052350254e-01,-1.872830045681682876e+00,8.454449774342400747e-01
2.771185552418975018e+00,2.838002987197520977e+00,1.337208641385090102e+00
3.342573606557180388e-01,-1.634668722246413353e+00,1.152041060467822176e+00
-2.022470405425613182e-01,1.190821385634453389e+00,-1.308637701326897496e+00
2.668597138651231937e+00,2.293489238512968154e+00,8.181974758232227751e-01
-2.498177295300429090e+00,-2.778565413355417180e-01,-1.453625048989992452e+00
-8.226238711733246944e-01,-2.795110485045509741e+00,-2.944032508439357598e-01
1.289153025000835617e+00,2.699903160732016527e+00,1.112945658860995168e+00
4.241102742023652450e-01,2.140150449675752575e-01,1.517528817152323350e+00
2.116314609490606902e+00,2.988962209359110389e+00,1.218580836287431080e+00
-2.430058460021836453e+00,-2.840714574930151670e+00,-7.929880809817317910e-01
5.536770504787288383e-01,-1.925115172505256211e+00,3.186951811079549723e-01
1.377466140775178927e+00,3.013992122214567360e+00,5.425294372214605199e-01
6.458713603913414092e-01,-1.668347730682473218e+00,1.119580876352077370e+00
-2.736957405461827531e+00,-2.415916390093213018e+00,-1.876878535341818699e+00
2.247982105080956750e+00,3.001100286144238183e+00,8.277107500851337285e-01
-1.899415681865519456e+00,-3.061377762496420463e+00,-8.468248732965079073e-01
2.307859948792806204e+00,2.685238070263209487e+00,1.689175630174058362e+00
4.213597394183801748e-01,1.733075053727035852e+00,1.081842161953632031e+00
1.097700848698650367e+00,-1.280409197841711810e+00,1.291421004133057604e+00
-2.035551408389992822e-01,-1.939139677308627796e+00,8.834346437701926513e-01
1.365968180184898850e+00,-5.719206269643980489e-01,5.389798003970160817e-02
2.498795834227612200e+00,3.205540207132281383e-01,1.212957513324937731e+00
2.576728192985271892e+00,1.074595132030538913e+00,8.397374420655139282e-01
-9.819946364622108570e-01,-1.539983828690116630e+00,-1.546625335847067850e+00
2.652422482536511250e+00,9.353110046212639306e-01,1.964053798102470605e+00
-1.449944670789634626e+00,1.081180649566677587e+00,-1.230799265583486513e+00
5.026526537009151641e-01,-1.950178241889100716e+00,7.532117132870140841e-01
-2.001248427899480209e+00,-1.148738915118450166e+00,-2.086366106984905766e+00
-1.179634023649270169e+00,1.332437225615746179e+00,-1.209363731963527089e+00
8.136078745655624944e-01,-1.081148585314008148e+00,-2.903664344179153201e-01
1.003339172086130437e+00,2.879849947467685300e+00,3.632815704008547919e-01
-2.331102107677676560e+00,-1.688102849880202677e-02,-1.451006811236960292e+00
2.573058896383258354e+00,2.271114110695387378e+00,7.083455959966850068e-01
-2.148243483557286559e+00,-1.943076875418758842e-01,-1.929899573839614746e+00
2.719024344570714735e+00,2.757099352074906751e+00,1.579712048065123886e+00
1.658187808645155137e+00,1.183735772486747218e+00,-1.962407010131732021e-01
-2.138747280012644136e+00,-2.296208801505509101e+00,-2.845200822730196144e-01
-2.957709439382072425e+00,-2.028188962157057684e+00,-1.914001616409611861e+00
-1.829331259801858955e+00,-2.712640050595243491e+00,-2.066035632319301041e-01
1.861048319828554343e+00,2.092704430050681186e+00,1.807680716342081384e+00
2.374749833032455015e+00,3.015943966287238265e+00,9.699603849923107424e-01
-2.061727962116303825e+00,-3.082392534076769497e+00,-9.336627386123519390e-01
2.121194803669705031e+00,1.899357595964022150e-01,5.771818174339821139e-01
3.922828938144095612e-01,-1.950379187521836366e+00,8.607861584984248804e-01
1.601313739358643851e+00,-9.494588302431767879e-01,1.021513326999319293e+00
-1.540428528006957620e+00,-2.285982883263497190e+00,-1.586752531251355736e+00
2.100198345319182813e+00,1.203456450952254064e+00,2.008943619154206495e-01
1.446245078509374338e+00,-1.163269584463612727e+00,1.068420066565317184e+00
-7.647049871917502295e-02,-6.208699808537168074e-01,-1.238011879142468130e+00
2.715299592009891572e-01,1.140878689495781195e+00,-1.122243435631097297e+00
2.156223638301650425e+00,-2.351650032562084824e-01,1.167191985261892162e+00
1.252698388962859122e+00,2.832590317960386184e+00,5.494450949662239847e-02
1.532501017888572736e+00,1.122387788398806346e-01,1.928511114311797670e+00
-2.532279876356436255e+00,-2.462465066986412321e+00,-1.843919001200871932e+00
-2.427483303096814371e+00,-1.375977746840664484e-01,-1.588636175737968781e+00
6.525837328715041741e-01,-1.627517448750686269e+00,1.142289237432742244e+00
-2.857271787300379451e+00,-1.048909603169990712e+00,-1.625584890926111026e+00
5.262166666325495540e-02,-7.008855529734921153e-02,1.337062802951488383e+00
1.324335635404130622e-02,-2.133223558281798660e+00,-3.263781567459480559e-01
-2.593785877399573003e+00,-8.523648448708305292e-01,-1.979868914868701646e+00
-2.539988732333648525e+00,-7.511781218241774249e-01,-9.259456071607313765e-01
-1.306545838686941297e+00,1.175503976170592546e+00,-5.235418457800197212e-01
1.529898706663015862e+00,3.006174145611950621e+00,7.656560444653907060e-01
-2.071880972838016644e-01,-8.526400049539595294e-01,-1.263299791999620947e+00
-2.301863822373231561e-01,1.659443895487865639e+00,5.205322621257435500e-01
7.959120390078273655e-01,2.497902113511230593e-01,-7.976446141464875739e-01
2.945348228608208885e+00,1.374937218002730388e+00,1.560154722187216292e+00
-1.425344339565904006e+00,-2.495238267265312615e+00,1.351559291783790695e-01
-1.748967877713975438e+00,-1.602443221512098948e+00,1.388858974051506434e-01
-2.458415025664815179e+00,-1.848445796294601040e+00,-2.048324103412582531e+00
8.312334248635504519e-01,2.767082997701459934e+00,4.589288391273994849e-02
-1.897776879508148218e+00,-1.186454118634219679e+00,-2.044133065610974853e+00
-1.447093611922896095e+00,1.869070616336755419e-01,-1.859007310605571339e+00
-1.253573259530009976e+00,1.011956572526347520e+00,-2.419958785723434203e-01
-2.825994628063685177e+00,-1.592999069670302470e+00,-2.053579386499900128e+00
1.000914974565747517e+00,-3.397299066108506183e-01,-4.532899537786022059e-01
-1.334445215795129647e+00,-5.213104467023066402e-01,3.919965910999038128e-01
3.044678938561954595e+00,2.126486262970717522e+00,1.577776947967977295e+00
7.057155723827100990e-01,2.342224879269629856e+00,-5.158208594077756670e-01
2.658693332753150784e+00,2.832900371598477296e+00,1.237255568662604110e+00
1.407252128029378158e+00,1.155245069931487789e+00,-3.919346313268591842e-01
1.089005232233531739e+00,2.815414459154106375e+00,6.936755516801244026e-01
-9.624541268720494813e-02,1.045092133234173160e+00,9.737572795213889076e-01
1.511645259836425836e+00,-2.759586500723072433e-01,1.832647870420031966e+00
3.962605192661438624e-01,1.049661049995230133e+00,-1.082487016971582339e+00
-3.057901163690560642e-01,1.990802650554406528e+00,1.071024065380870305e-01
-1.480048595120862176e+00,-2.141962168335001415e+00,2.500283097737584503e-01
1.425129366412617449e+00,1.665207067657928697e+00,-3.632580439423435115e-01
-5.521926155961826010e-01,1.287398215456961870e+00,-1.373486096314002980e+00
-2.632330551280832154e+00,-9.358317405870083538e-01,-2.009874709329198428e+00
2.438674958027229778e+00,1.471578853662418807e+00,5.582898842961609986e-01
-4.538354662245923099e-01,1.849450943324574409e-02,-1.545041380329596148e+00
2.237629382138651035e+00,3.819330917681192372e-01,6.504245342368536464e-01
-1.925604270882605329e+00,-2.856572816472962018e+00,-4.082024571345419517e-01
6.777618883180004383e-01,-1.601716136902570975e+00,1.158817239148146383e+00
-2.116330370801530414e+00,-2.946926785168234364e+00,-1.370412683850913638e+00
-1.170633889311201381e+00,-3.833443661938166769e-01,-1.861290333132797237e+00
-1.566373366372502351e+00,-2.814035530156519194e+00,-1.234734193266535662e-01
1.468638901386826179e+00,3.018168302616205168e+00,6.408012306480346254e-01
2.550271639453135730e+00,1.254563721223940442e+00,2.106798200814941513e+00
2.245735350875264658e+00,4.246480458942306080e-02,1.767485844237904669e+00
6.147726464604263974e-01,-1.811838719256293195e-01,1.618167836943492865e+00
-7.175139077574296254e-01,-2.385210705548789001e+00,-8.844465748701091368e-01
-1.892236761160614122e+00,5.932049073623131275e-01,-9.481966713969514071e-01
-1.497064283038610055e+00,-3.002264786004956498e+00,-3.861369414376251141e-01
-2.602966994391471722e+00,-2.020860716688355208e+00,-7.247347386660762947e-01
3.042204607161728358e+00,1.993529679144705691e+00,1.785084241421851958e+00
2.371930321760109539e-01,-1.991072499584164657e+00,-1.654559362800246680e-01
-1.213692219607522382e+00,-2.930423902284577942e+00,-5.462933807113320439e-01
7.320980354298564086e-01,2.627448347917697991e+00,-2.595681590037858255e-01
-1.652932865331269596e+00,-1.852793711252182618e+00,1.868234538539424172e-01
2.385964252171796751e+00,2.454561602803717602e+00,1.841837240036473533e+00
-2.376857364143971196e+00,-8.561955464127437576e-01,-2.076022939083036700e+00
-2.497929751239244656e+00,-4.049661015685037113e-01,-1.818938313463781320e+00
7.671494904676980919e-01,-1.758246121593358691e+00,7.864544273400675412e-01
7.328996129085737499e-01,-5.046692539406939515e-01,1.626425110661456230e+00
-5.459902907759144330e-01,5.991995664463533044e-01,-1.541456242551201283e+00
-1.778369260751101466e+00,2.824159740959295561e-01,-1.811542451892242500e+00
2.290049981544755031e+00,3.051445716784594531e+00,1.041893422024086746e+00
2.386297464245730193e+00,1.713655584951081279e+00,4.694335405502442216e-01
-2.976547111927428380e-01,1.824894525388488953e+00,-1.016438087527800072e+00
-1.731453503259286375e+00,7.680565968190299353e-01,-8.864511467757312246e-01
-3.169970018175738979e-01,3.098399451455314257e-01,-1.471217780500929662e+00
-2.897282294476817288e+00,-1.338042317339933396e+00,-1.890833290193616900e+00
2.850158233272964470e+00,1.358754176750922582e+00,1.193140065703300889e+00
2.403164445803975813e+00,8.945075817822444320e-01,2.098882269124132005e+00
6.214069389398697574e-01,-1.905981944634766556e+00,4.369324156702404927e-01
1.161667722530739910e+00,-1.033877708544840152e-01,1.809125592583857411e+00
-2.045470952288582556e+00,-2.646341768184273580e+00,-1.604777613751661836e+00
-1.322665423220737768e+00,-1.239208331858846712e+00,-1.821607123835706998e+00
1.713085360670547175e+00,2.735214285120890931e+00,1.480028953152696947e-01
-1.100510433863267190e+00,-2.538368134892075911e+00,-1.096951823895057743e+00
-6.483865082036475158e-01,-1.168726197783412024e+00,-1.483941310554583337e+00
-1.557611970234755949e+00,1.033428829097316148e+00,-9.503832418437559992e-01
1.631261197771207705e+00,9.336791035611067269e-01,-2.083115439124399448e-01
-1.627127118229087843e+00,6.951299622799683720e-01,-5.126757186319447213e-01
6.740780341321710445e-01,-4.280691364666586174e-01,1.618340682541946851e+00
-1.461633211929601162e+00,1.103216423704256988e+00,-1.124343767309951669e+00
-1.640344500115935800e+00,2.210369529994617444e-01,-1.833549090513988178e+00
-3.013401221904071559e+00,-2.451986357119517734e+00,-1.566612640212948770e+00
1.288617807039111884e+00,1.673450743295446186e+00,-4.620571680395024194e-01
2.219928482035288531e-01,3.974765441289266898e-01,1.374084763722156266e+00
-2.347411435830802084e-01,1.726434024596698924e+00,4.454908212724710825e-01
3.814071405898161182e-01,9.856601093629062671e-01,-1.101135064083197390e+00
2.409241684339746392e+00,2.457344975021961364e+00,1.856320072440922342e+00
-3.937228597282157461e-01,-2.532193800374576309e+00,-3.108762322216314655e-01
-7.674821094537832566e-01,-2.623482370616779580e+00,2.284108996436169103e-01
-1.279012313023435432e+00,-2.195194158613310353e+00,3.658522793532541506e-01
8.007301372950643703e-01,-1.687503724554510809e+00,9.620151330320240168e-01
2.938506500222572537e+00,2.496866787628765572e+00,1.675852257248458876e+00
2.429383713331994432e+00,5.390247650399269119e-01,8.882722008550841819e-01
-3.260188696445273648e-01,1.913918730933161116e+00,-9.142290443437819381e-01
-2.357348035308740375e+00,-7.718987839815721896e-02,-1.225059172098242222e+00
2.476179570353357562e+00,7.094972009189105533e-01,8.568071115594049214e-01
1.772523701030325194e+00,1.962152900047209880e-01,1.397964419912195722e-01
-2.100920084365110796e+00,3.565377211122159884e-01,-1.230019609520815349e+00
-8.520187081458924228e-02,1.811324629517481188e+00,-1.018889491821731275e+00
-1.513485055685882763e+00,-2.470184977670677462e+00,8.813885120442577215e-02
-2.003642296241090262e-02,-8.829333802119421204e-01,1.278320656998584992e+00
-1.654489700114608830e+00,8.896043187413381625e-01,-9.922182240347905413e-01
-7.284796637574920686e-01,-2.641245447906359178e+00,-6.228347247788865726e-01
3.166085281548826624e-01,-6.105706207840946309e-01,1.448714746457215874e+00
4.843555651182157584e-01,-7.769839786476806509e-01,-7.440644593005042440e-01
-3.438166305432559522e-01,-1.640066573414549866e+00,9.847101298329064001e-01
7.000873301274126437e-01,-2.016566589753144567e-01,1.653880986280325649e+00
-2.872240142619361780e+00,-1.411940728724284666e+00,-1.928463174311813910e+00
-1.395365780934871403e+00,-2.142329734111755535e+00,-1.577157501292338448e+00
-1.868728751407627398e+00,6.506842338405460779e-01,-1.001472555746789617e+00
1.934024223317922300e-02,6.845132059390069967e-01,-1.309942651952402004e+00
-1.734107479651340045e+00,-9.737329069051782193e-01,-2.027892859727198349e+00
-5.870957700194082696e-01,-4.795753189138367567e-01,-1.564307205048221183e+00
2.361782887599280123e+00,3.212744539743360161e-01,9.198824118475860123e-01
1.990811851061164095e+00,4.939551824944732883e-01,2.765246774925986251e-01
7.216718620361295411e-01,-1.033365827767268458e-01,1.668115055454367335e+00
1.341384411078269556e+00,2.882014738241871488e+00,9.090198261468166452e-01
-2.398906899177075669e+00,-1.046143914277900266e-01,-1.598664739197395601e+00
1.548329215528784664e+00,4.549868995990263842e-01,1.968258925994193831e+00
2.850760371113805203e+00,1.782616988050889972e+00,1.081861568044307331e+00
1.542865584437094206e+00,2.755715108586062723e+00,7.164949031909301214e-02
-1.802788230691077853e+00,3.018898121401875634e-01,-4.493941202436066429e-01
3.049843860329063627e+00,2.001653504929779004e+00,1.778553373907388879e+00
-2.467132792529956209e+00,-3.008770984842208840e+00,-1.135428760298418549e+00
2.863872231851802397e+00,1.987460889091146710e+00,1.960363155218148634e+00
-3.926226185935151325e-02,2.194227483376062882e+00,2.240893963563455882e-01
1.643508482714986396e+00,2.434614213308645247e+00,1.540965226704219759e+00
-1.290282418017453692e+00,9.614124871806744022e-01,-2.624881717576049711e-01
2.521896568202949496e+00,2.297947317155780933e+00,1.917465524303743285e+00
-2.318559035128259893e+00,-6.962898249498982173e-01,-2.033301190770464562e+00
-2.895433042796900391e+00,-2.127187002809608707e+00,-1.126294358748603397e+00
1.314187962536944032e-01,-1.662964365024670155e+00,-6.260402668943706450e-01
1.154686767802394431e+00,-1.301576228613862352e+00,3.824402877001273349e-01
-2.655988277597695735e+00,-5.296728331664355416e-01,-1.535556757655013982e+00
3.059473059922201421e-01,6.489832747151675907e-01,-1.145986470843369354e+00
2.141775174366395085e+00,3.014379553259843192e+00,1.221376085118969446e+00
1.855331797132009353e+00,2.232805067148322387e+00,1.775374972029169829e+00
2.994644223779815206e+00,2.373253252930839885e+00,1.750832023981703678e+00
2.393904068400884988e+00,1.564566806585016900e+00,2.077942116076201717e+00
-1.335266916845953222e+00,9.058458128919217867e-01,-2.805976188258491044e-01
-1.699177724018438695e+00,-3.055848157480963057e+00,-5.977271846737642891e-01
1.782996857381874412e+00,1.434235963201614672e-01,1.621068183429343890e-01
-5.950805403186528730e-01,-2.248759130949563367e+00,6.314035394802947065e-01
-1.884100735964602480e+00,-2.351467963926222815e+00,-7.641502123159099602e-02
-1.210009369304740762e-01,-2.139734187558475664e+00,7.675738432894437802e-01
1.365597081237321264e+00,-4.945876465619216539e-02,1.881942475087846844e+00
1.883897726015517859e+00,-2.730103516172070477e-01,1.757820975161149324e+00
-1.828983118358697313e+00,-5.301314124699548769e-01,-7.369824246463553552e-02
4.691773540787910757e-01,-1.867186601054025008e+00,9.162719780588164387e-01
-2.638340603372338666e+00,-1.722461836006910829e+00,-2.077870656712951458e+00
2.841323870784190131e+00,1.457489312782929369e+00,2.031306958930399365e+00
2.058172897150553737e+00,2.665713488729358982e+00,1.614905444480891683e+00
-2.603632447010977735e+00,-1.313394202498971763e+00,-7.929035212592571158e-01
-2.634308755795790269e+00,-2.881887579084360329e+00,-1.288703103559348362e+00
-1.371213771380034752e+00,-2.747167553309162388e-02,2.163713126480332483e-01
6.040348157466984835e-01,2.691737965961760182e+00,3.287546813323008466e-01
-2.221506063795064989e+00,1.622839900355317888e-01,-1.525238166195340250e+00
-4.549012675314278997e-01,-6.171223327056141184e-01,-1.485660527942549436e+00
8.675407992100391263e-01,2.758203327171628416e+00,5.061385224432638497e-01
8.822766684030342033e-01,-8.611674963157039953e-01,1.571458703312947902e+00
-2.457340751275255641e+00,-9.436084397042201477e-01,-6.911862584903194495e-01
2.521200164270651634e+00,2.945806541057002015e+00,1.051161981285260616e+00
-2.918593412613281313e+00,-2.059492137178402071e+00,-1.976995564443396969e+00
5.063436627881855168e-02,-2.343518755693089872e+00,1.602228955893654772e-01
-1.716737973234817360e+00,-1.064220041778231707e+00,1.488062145590622054e-01
-1.566721097025554066e+00,-2.087812253154269104e+00,2.172437132885854660e-01
2.750354635516679469e+00,2.327556332439845388e+00,1.876440506075292669e+00
9.643916317746142886e-01,1.535443551278741492e-01,-6.219750205002064769e-01
-1.326133779990701922e-01,-5.799874996076616052e-01,1.231143373979431521e+00
2.694602619004176525e+00,2.255090639437343558e+00,1.972073571747809728e+00
7.521287813544118572e-01,6.216637406267889673e-03,-7.623732561733269630e-01
1.952949453677320646e+00,2.830309229145849148e+00,4.150414535494817980e-01
7.654745084635100616e-01,2.684142038356289728e+00,5.474946476677307050e-01
8.328883381269259756e-01,5.163498646997910502e-01,-7.840272269251484794e-01
2.286651859254200669e+00,2.157576308553046107e-01,8.667958034716615190e-01
-3.162548304069643934e-01,6.486327576072988821e-01,9.452235958364865187e-01
-2.562921137353914691e+00,-9.193558815342435242e-01,-8.822063627128032826e-01
-2.580897107434711568e+00,-2.521251058959681046e+00,-7.609127904823512756e-01
8.112293213191437702e-02,2.390577630642639839e+00,-6.232284687947724222e-02
9.818549634831852391e-01,2.262941785321735733e+00,1.220545440816068083e+00
-6.209934420600866645e-01,-2.076280464463178710e+00,6.938789270602123693e-01
2.965862356739167094e+00,1.339190261980433894e+00,1.588168147719785095e+00
-1.102452346367522873e+00,-2.929502994738903077e+00,-4.831111004925429664e-01
-2.120692933856567208e+00,-2.834435599470900513e+00,-5.170358874506228997e-01
1.866166444903655242e-01,-2.173605653479057764e+00,6.678533541364963799e-01
-1.848211132535555024e+00,-2.861019990500260235e+00,-3.689686003939722792e-01
-3.277304204933721432e-01,1.335669188774801563e+00,-1.311685822964048453e+00
-2.511592484598445196e+00,-2.469029173169534630e+00,-6.771302281375191079e-01
-2.551982463072070217e+00,-6.380385071325881396e-01,-1.000391599388042341e+00
-6.335290605819110521e-01,-3.645734883069093324e-01,-1.604514747345369363e+00
1.577339996884689510e+00,2.472793280637020086e+00,-6.750675994720839457e-02
6.425583914583227196e-02,1.229430341532105286e+00,1.046143761581669773e+00
2.191343256288729169e+00,9.569278199841924071e-02,7.727215821487848357e-01
-2.158716888402245349e-01,-1.627579433616719085e+00,-9.707615654844062858e-01
6.773768891897710698e-02,1.552069998075149337e+00,8.779589730228060107e-01
-9.231514488077516845e-01,-5.984521635434610909e-01,-1.729080207799698954e+00
1.073515641557584166e+00,1.786398896560741356e+00,-5.877433907795939216e-01
1.045492793996424696e+00,-1.505929223895636326e+00,5.644865201651326769e-01
2.839263516974420476e+00,2.764958052902956709e+00,1.365138996145270234e+00
1.221457470682604241e+00,2.893151030758138287e+00,7.275805208625828469e-01
1.701439086391806521e+00,4.617669108489027563e-01,-2.504962669084860941e-02
1.537548221325255038e-01,1.265482907712113692e+00,-1.148625036584081105e+00
-1.811325932268071259e+00,-1.421624645343200433e+00,8.909171586539542387e-02
-1.791745680556286135e+00,7.175226703092468794e-01,-9.298927893495151364e-01
5.992650392297225181e-01,1.568772248024756122e+00,1.306503583347420783e+00
1.589815478438684426e+00,-6.934666611168697203e-01,4.760418865479953965e-01
5.479979942669310766e-01,-8.992312077508813895e-01,1.497431478973477503e+00
-8.900285900695433794e-01,1.595853336139466450e+00,-3.328366306995932389e-01
-2.313959572522563679e+00,-4.900144710002168336e-01,-2.010181690765975304e+00
-2.831047020737921027e+00,-1.082805270337336312e+00,-1.860214911656161041e+00
2.492622787569953313e-01,2.364704868935467275e+00,-5.570355307347043539e-01
2.303751162891331639e+00,-8.809822773040633381e-02,1.399402530955105473e+00
1.751752446318239009e+00,-5.598286558056695394e-01,6.169031140008099934e-01
9.767466974555047976e-01,5.701895836053387789e-01,-6.969357863175719148e-01
-2.809196684917593778e+00,-2.219995391875539514e+00,-1.035184427506562477e+00
-2.779233707496352679e+00,-2.268046129420653312e+00,-1.906066995979679879e+00
1.330868653768194410e+00,2.008795674960022648e+00,1.588592199018699525e+00
1.591317371189287233e-01,2.427852845679595362e+00,1.097047160654888720e-01
-1.099216870609425856e+00,1.478392402346901502e+00,-8.971828388168398005e-01
-2.419568904124688391e+00,-1.622386545298608318e-01,-1.350630829089952689e+00
1.330798703187878518e+00,2.994599448766147365e+00,4.172948980002298969e-01
8.890333269019974338e-01,-2.755481019657353425e-02,1.742542268175037767e+00
-1.087024265045102522e+00,1.506925908667418934e+00,-7.287673524649765922e-01
-2.317031864751410986e+00,-2.600039690308830309e+00,-1.713318836091596076e+00
2.178418873255679955e+00,-1.632737174383697698e-01,1.597754366961487760e+00
3.918315310973827237e-01,-9.320606531968140818e-01,1.436274168641696658e+00
-9.488799164329568825e-01,1.581773675184490857e+00,-1.002571310401070059e+00
-1.747159693011851367e+00,-2.758286417936156365e+00,-1.770530810684399492e-01
2.671729666819939286e+00,2.532218375372033758e+00,9.452728616569024966e-01
9.234023523122476818e-02,5.832102819289589624e-01,1.264603613183244990e+00
7.742283041308897218e-01,-1.781326484501256635e+00,5.160829320287386723e-01
1.903078876316192658e-01,-6.893712925882836684e-01,1.396530754413275455e+00
1.265250134904024049e-01,2.448183704306219788e+00,-7.289656310434453057e-02
2.716432230734302955e+00,1.306727556561136705e+00,9.686651468172399193e-01
-2.494845588831112071e+00,-9.653163377845791482e-01,-2.091190660468167817e+00
-1.501735767389743792e+00,-2.690769227371171635e+00,-1.276507212085551179e+00
3.943202486416141905e-01,2.541828859570545163e+00,-3.447132831557357946e-01
1.355895598345411290e+00,1.458206625566240033e+00,-4.526574258317652699e-01
2.382866660242592971e+00,1.405576648333676903e+00,5.020755861291642530e-01
-1.270722420304925881e+00,6.424504153483950875e-01,4.318776492468549139e-02
-1.072485658904917427e+00,1.231997759540751858e+00,-1.393848413794602337e+00
2.714070556355899999e+00,6.771520268562046807e-01,1.702559624848148268e+00
4.985182388962148270e-01,-8.844231800977842006e-01,-7.005806660587297063e-01
5.647094289481563445e-01,2.676702961544779935e+00,-7.674041129409575612e-02
2.277385362772480715e+00,2.898720306375108802e+00,1.413631608163645081e+00
1.905227819624929264e+00,2.977581938547266382e+00,1.155267606898862764e+00
1.709256526950702071e+00,-8.679586805787266046e-01,1.231379442283180303e+00
-7.772260256450135296e-01,1.659906915404552707e+00,-2.583075582681951810e-01
-1.579215827397028482e+00,4.995768385525075628e-01,-2.736535288245685038e-01
-1.935231505458605006e-01,-1.755797011869460134e+00,-8.872486287578282838e-01
2.634497103847945443e+00,1.624161556964159425e+00,2.081916040831158110e+00
-9.453608925096300686e-01,9.112283288675007142e-01,2.368200257775733564e-01
2.673921664732064052e+00,2.902691874361829960e+00,1.271197980488480095e+00
2.546754992038791077e+00,9.965912697551786437e-01,2.039208880930331258e+00
-1.153040918762602979e-01,-5.511852077139065553e-01,-1.276503622857817932e+00
-1.195920157277789109e+00,1.125369421882973953e+00,-1.398743388062723358e+00
-2.707437058130176322e+00,-1.154990563008328808e+00,-2.029726160898586151e+00
1.379361817845836224e+00,3.006986534429340274e+00,7.023041734785205881e-01
-1.962356974028675927e+00,-2.911655891875811530e+00,-1.335772539306112838e+00
-2.591835916838124199e+00,-4.125508701338790885e-01,-1.451476150453154812e+00
1.238975494205804662e+00,-1.341430285559919833e+00,9.521162168005193882e-01
-1.985268017470977586e+00,1.692128127243295796e-02,-1.865304046253920989e+00
2.376364403045259976e+00,1.249221204600605484e+00,2.100621608071266078e+00
1.409017627407559425e+00,2.806684630592279461e+00,7.763604051428632524e-02
1.998785279277137450e+00,1.679175424431143537e-01,1.945123414761763980e+00
-2.239662504372891050e+00,-1.119697094094831646e+00,-2.124631117006967163e+00
2.050784844965197085e+00,-7.740918840150447233e-02,6.840965355132253567e-01
-8.555201470103743766e-01,1.693532598014673374e+00,-8.325054231176687303e-01
2.017624623949199947e+00,1.365581727658691014e+00,2.042668318044151832e+00
1.112617864298054871e+00,2.765997037144370285e+00,8.633974705541610506e-01
-2.328169525178294674e-01,-2.474005008441557241e+00,2.708300683552233301e-01
2.549497860235016233e+00,1.248308373391898485e+00,2.109437763549345313e+00
-2.401364163769330151e+00,-1.955725854673744823e+00,-2.044408726913522933e+00
-1.345107233828910509e+00,-1.927206838048054260e+00,4.014425490431207111e-01
-1.232444550790253945e+00,6.474301711916420343e-01,6.257296350869817614e-02
-2.619185794493820718e-01,-2.509784313890434326e+00,-5.093308955321668163e-02
-1.422364100803081843e+00,1.116932017360545926e+00,-1.194590995149285018e+00
-1.465176963250498732e+00,4.172161546178324021e-01,-9.137791647956224061e-02
1.380001252501561915e+00,2.274441253882860448e+00,-2.817050554264666218e-01
2.063521559144847917e+00,1.797833748379356333e-01,1.935864957876427317e+00
-2.112776777611163226e+00,-3.097531673849884815e+00,-1.022396702328175477e+00
2.161240920792996789e+00,7.490098726253836547e-01,3.902766438547713435e-01
1.591593742584347382e+00,1.121006097305040861e+00,-2.396938902361504808e-01
2.451366338706773007e+00,2.987342026564855590e+00,1.042984030861632494e+00
-1.635834375517857930e+00,-2.714358210625954282e+00,-1.342524563557386141e+00
2.991606745293700964e+00,2.073978955823937209e+00,1.912403215699764347e+00
1.997758326522325045e-01,-2.148970594308293514e+00,1.339634549861521036e-02
1.592572735845725118e+00,2.472491707659608906e+00,1.479265196693417828e+00
-1.442764315346926618e-01,2.186202978056530633e+00,2.836880196683477622e-03
-1.528300248196623468e+00,1.070299863022218245e+00,-9.886972865756231688e-01
-2.852570212589445653e+00,-2.593393008548020351e+00,-1.318986668223448344e+00
-1.815179993909069311e-01,-1.712131090659762434e+00,1.028139978922908648e+00
2.961887554748358631e-01,1.637780098060944711e+00,1.023319226958556039e+00
-1.173911816246561601e+00,-2.898229700013140953e+00,-1.348841885838187038e-01
-2.302125453948715150e-01,-1.481390502554027488e+00,1.079426554123235737e+00
1.077103663507013254e+00,-7.506851484443799460e-01,-2.067779235272813876e-01
5.944594406565337774e-01,1.056387263540765842e+00,-9.575539166262507784e-01
2.765340173438397109e+00,2.680949249930324019e+00,1.194271531246395623e+00
1.355968835275949358e+00,3.008529791494451544e+00,5.379373450886333341e-01
6.656674716923609569e-01,6.960863932430001455e-01,-9.245728490774933750e-01
2.562905183322969460e+00,2.980081068750483286e+00,1.252643647124460413e+00
9.926935560079350740e-01,2.864188875958719738e+00,4.852655977345355920e-01
-4.576099602694832513e-01,-1.276135851616526651e+00,1.009695529406509973e+00
2.779089323415361079e+00,2.044081056927549156e+00,9.235823205269373393e-01
-3.480905098501083095e-01,-2.556145418050875140e+00,2.146760881609801885e-01
1.296339843022249916e+00,-1.167556855844178454e+00,4.825678494215217551e-01
1.194192874087853129e+00,-1.550761900111487790e-01,1.816535057173814138e+00
2.721252962152310939e+00,2.780899560964109174e+00,1.541525473947501279e+00
-1.938294253308601389e+00,-2.758888337085728115e-01,-3.081496733045274161e-01
-1.802192616520954305e+00,-2.035490999136308599e+00,4.750510361866552150e-02
-3.663732978774235094e-01,-2.570138731723525805e+00,6.415914934152711080e-02
3.782026654805986099e-01,9.532102523451186915e-01,-1.083715956275168590e+00
-1.122380366720996614e+00,1.241344502789659021e+00,-2.922734716023446255e-01
-1.985820760381922789e-01,2.111860248539090268e+00,9.352176492114296080e-02
2.909206619131803784e+00,1.304110232218246734e+00,1.445875132501022842e+00
3.722279168089899781e-01,2.573204917679079884e+00,-5.482006332513209013e-02
1.247894738463220188e+00,-1.145089269582105995e+00,3.408428005330467192e-01
1.861014365069153298e+00,2.922903290628140915e+00,4.121026303077308106e-01
1.768377330473968723e+00,-2.331360778024998970e-01,1.820134386038648522e+00
1.912402395001195632e-01,-2.181372446218604821e+00,3.695201755009041439e-02
2.965389813878902991e+00,1.365993125941186159e+00,1.766885966277319087e+00
-9.435190022040060853e-01,-1.789173311745534622e+00,-1.437193885287890271e+00
1.379653345261566411e-01,-1.617793784499831578e+00,-6.411400056736468178e-01
2.910476664294390670e+00,2.313756252445411388e+00,1.249662401767181352e+00
-2.492540363581990270e+00,-2.938485221946828485e+00,-1.076327609975642696e+00
2.721073650658325960e+00,7.401270358752454204e-01,1.709398502199944492e+00
1.105735908712034421e+00,-7.835097192483172490e-01,1.639396165220257995e+00
-2.738620040503558783e+00,-2.824466049274187096e+00,-1.439170973399790165e+00
-1.100716187603141050e+00,1.453346223908164703e+00,-9.966964006796269482e-01
4.772284962108815920e-01,-1.766541047304960754e+00,-1.443279606395275472e-01
-1.475911383905638807e+00,-2.997582008847133217e+00,-4.135058019157047959e-01
-4.266793812248925177e-01,1.385114490274455656e+00,-1.317409363960321267e+00
2.627063824943780546e+00,2.718195909503874130e+00,9.275116579674699269e-01
1.567406766710919941e+00,1.474785803992083366e+00,-2.932292614294141342e-01
1.563332624791509973e-01,1.045290165897412749e+00,1.185134353330489887e+00
2.932836905327584454e+00,2.292150833178454583e+00,1.260661208341690376e+00
-8.567288738403391335e-01,1.075720507482108568e+00,2.495232059692751303e-01
1.340309792199857242e+00,2.881460973488968680e+00,1.552793137807855495e-01
2.094814090365603398e+00,1.394749687555250361e-01,5.768698286352261784e-01
2.634693567386682922e+00,7.230025016172352270e-01,1.135024368292503194e+00
5.586225865367151489e-01,-8.175959697556284267e-01,1.515887678834713093e+00
-2.498328474928166454e+00,-2.275736185887313301e+00,-6.341315002470245821e-01
1.119322995623824868e+00,2.739983707937147184e+00,8.679546418234781457e-01
-8.750454335220702040e-01,-2.090762160815552217e+00,5.874512719864648513e-01
2.316315253816760844e+00,1.344049962994199099e+00,4.233769006451099104e-01
6.342909369999771840e-01,-4.027303754464909846e-01,-7.518376993492009719e-01
-3.903444830283826494e-01,-2.371754414276777023e+00,-5.502658694828174157e-01
-1.466411757680364358e+00,5.293924368116261769e-01,-1.753399152185317611e+00
1.983445140303517151e+00,2.850942379363008872e+00,4.605222427888613357e-01
3.016399269171307074e-01,-1.324947919422697851e+00,1.299737174280310548e+00
-1.616998958568299505e-01,2.256100441513279264e+00,-2.371463508154066369e-01
2.721525959949012030e+00,1.831526873652253640e+00,9.029065729431698939e-01
-1.429502006067886466e+00,-2.845838455695361091e+00,-1.295693723857647139e-01
8.537192879342161422e-01,-1.400345431087876014e+00,1.710463634621985128e-03
-1.961475101454354775e+00,1.825188499477429505e-01,-5.935942788678540971e-01
2.500777243825742957e+00,2.713871438008261805e-01,1.488968367460514530e+00
6.948500739250565994e-01,2.737965468222223642e+00,1.387525090801305372e-01
-1.792625364513541486e+00,-1.462137327473977955e+00,1.002643244574244197e-01
-1.621498038583078227e-01,2.061075185640579122e+00,2.096435591289108058e-01
2.080377810760286383e+00,2.687899582739903051e-02,6.229282210117600416e-01
8.088062644510778387e-01,-1.757515006934981416e+00,6.248709170710555760e-01
-1.539713988032839209e+00,-3.023705220822386686e+00,-7.187037519804142516e-01
1.381688246641279427e-01,-2.044803425337367031e+00,-2.528409533807088327e-01
-1.656205327506629743e+00,-5.047223053579501933e-02,-6.913887047211744741e-02
2.467651255270457256e+00,2.525205295411469653e+00,6.797390320842076061e-01
3.879212633149287659e-01,-1.969818335725060265e+00,8.816074485086728973e-01
1.028748154993022856e+00,2.809133797542283872e+00,4.539092524493694436e-02
-6.271547585035431860e-01,-9.298583808691710528e-01,-1.518928205153810884e+00
-2.649669585858150711e+00,-9.409107836800350011e-01,-1.981503854984129953e+00
4.787071261785529330e-01,-7.720825604518664065e-01,-7.781680367964799450e-01
-2.398347321229504558e+00,-1.967349790228730022e+00,-2.026771998338468883e+00
1.859094632266496516e+00,2.459477503166696444e+00,1.642431485667252833e+00
-1.175680409644135338e+00,-1.074826538178781599e+00,5.698736925589882318e-01
1.689645012771694155e-01,2.199490591001576512e+00,-7.176199503591568218e-01
-2.780440526866020945e-01,2.605818278463596926e-01,-1.459100773977314969e+00
-1.792956440388409511e+00,-6.081671493119206184e-01,-2.018022024141057774e-02
2.123210266904519194e+00,1.083178648184690784e+00,2.096779183188671070e+00
2.679362208573560000e+00,5.875426458903040272e-01,1.582502362774084403e+00
2.842447888194920225e+00,2.258100603137794149e+00,1.109617341338164254e+00
1.196093339383350385e+00,1.505050626977718908e-01,1.853416421545023063e+00
3.020513315914341579e+00,2.326443577321313683e+00,1.512175438367102887e+00
-1.805013619748370157e+00,-2.700806151689628010e+00,-1.425782951104497043e+00
-2.642380320164073204e+00,-5.989984600208776433e-01,-1.309751031804338606e+00
1.005972332607414810e+00,-3.833711175384073577e-01,1.726471319701771145e+00
-1.080383218763943054e+00,-1.944432726498426023e+00,5.335097098405767735e-01
-1.183664424135937088e+00,4.726070737974057967e-01,2.058089221932335178e-01
-2.105403045048369837e+00,-1.695543897848435844e+00,-1.847116331903608799e-01
2.470026432053717524e+00,9.803962246419535287e-01,7.050332487458325081e-01
-4.091432967221633188e-01,-2.205735249244436424e+00,-7.521048858246364155e-01
-1.232137755472267449e+00,-2.437644578317637034e+00,2.884046834515457958e-01
2.184719035662971987e+00,2.586225094347664455e-01,6.265430093511038523e-01
-9.984528588081803546e-01,1.544702308185267770e+00,-4.987532272147365831e-01
2.224429816709318608e+00,2.633828661886976619e+00,1.670214540605600817e+00
-1.036946510717273728e+00,-2.873495437778580186e+00,-4.567725875391883128e-01
1.728041119055834240e+00,-2.026420218800783213e-01,1.841184038675850010e+00
2.578604625035096021e+00,1.089585948143564798e+00,2.062389011031041886e+00
-1.300702682001905863e+00,1.181464863630339313e+00,-5.438542231064367183e-01
1.486195916841546838e+00,2.849995520527864645e+00,1.081706934004662779e+00
