6.435904666384648642e-01,-1.023408802033270337e+00,6.867897702309484764e-02
6.884213024664246339e-01,-9.648359787349755079e-01,9.960002114795469819e-01
7.504689406412196062e-01,-4.038837340700031642e-01,7.892297287533505123e-01
2.005637167216130778e-01,-7.943512342850498342e-01,9.794943005499044952e-01
-1.065806677506111910e+00,8.118806945404393183e-01,-8.821548530210470140e-01
-2.888710348931799454e-01,5.068081444625159061e-03,7.951812644492612936e-01
1.373580205349370198e+00,-1.375194556809439916e+00,5.780846796420536782e-01
-2.870315599410870888e-01,-3.451267777286429750e-01,9.259461731448136446e-01
9.310516999295040397e-02,9.668004150678276287e-02,-8.171086379698794255e-01
1.234384386133679179e+00,-1.915425130547302249e-02,7.859616056260104733e-02
-6.228061615139630636e-01,-4.804785169706620174e-01,8.750041610948175452e-02
1.460332284290936311e+00,-3.957723388464838843e-01,-4.771577727692827287e-01
-4.981082220125677140e-01,9.476718394597509754e-01,-2.217483676273110729e-02
8.554804082535517606e-01,-1.257413013032235849e+00,8.348734045770853651e-01
-1.075788891733318042e+00,-2.698090626187830132e-01,3.902686244668228110e-01
-9.266806234434072920e-01,-3.507296011508668765e-01,6.283482701152049987e-01
-8.939568760582863316e-01,2.951482273484078434e-01,-6.582630599961789564e-01
4.571075077094929329e-01,3.562023444269774020e-01,2.433027536401045077e-01
-7.972524674601931816e-01,-3.598775720097083242e-01,5.780762868360522083e-02
1.377496709121905916e+00,-1.143440039881777004e+00,8.356374499154333169e-01
-4.717483111464220169e-01,1.148074917924080562e+00,-8.577518308451258511e-01
-4.621540910422390347e-01,-4.198976327109076312e-01,8.940076200749043078e-01
1.661327887685508931e-01,5.203844847503397847e-02,6.705395148420403295e-01
3.488089973647252179e-02,-9.690050159323552181e-01,4.793932371946107440e-01
-7.012852328552268144e-01,8.786071613431175598e-01,-9.935071041706572403e-01
1.526776960149617945e+00,-7.803052028754897673e-01,-2.689062758611395765e-01
1.723838583686844173e-01,4.985630202075925221e-01,2.375214367208060562e-01
1.829149903405259847e+00,-1.181586048381273901e+00,3.137760168093032265e-01
2.698357228005465736e-01,-9.569284801210898861e-01,1.809089731505944265e-01
1.237523415865870779e+00,-2.410232018075315619e-01,-5.925675723346378598e-01
1.710429988551610325e+00,-7.809605993303000426e-01,4.623987669930023636e-01
-3.842855767481175855e-01,1.143608552469335127e+00,-6.490627635705826792e-01
6.840860951016120017e-01,-6.651731855003754912e-02,-7.691669543067780612e-01
-3.711143052109231941e-03,-3.344597935614928574e-01,9.270706336017654481e-01
4.684144400956888332e-01,5.181298649709068505e-01,7.201089666932759814e-03
-7.861327409859245607e-01,-4.351204354046877554e-01,2.312944086152826095e-01
-6.157056036380643693e-01,-2.076210884343654417e-01,8.525336240480947403e-01
1.842921735026173957e+00,-7.049427307539463117e-01,1.265393286670084272e-01
-1.901801094174819129e+00,9.248614531230938685e-01,-2.894488359846201231e-01
5.587165615292174481e-01,-1.085725418002608578e+00,9.508122069531818044e-01
-3.711157382912741998e-01,-5.261607132344039428e-01,9.014109113712769350e-01
-1.853789141165224752e+00,1.172302732613143217e+00,-2.674344836949354987e-01
1.025984534431870543e+00,-6.927913056791642488e-01,8.357246486406207930e-01
-8.496522379773535638e-01,-1.946592120076097165e-01,-1.633814217200945940e-01
1.751609387848272137e+00,-8.858946956039718268e-01,-1.287009652695431383e-01
-1.243547513705240304e+00,4.732944033215074064e-01,5.248366267821400477e-01
1.339406483733832642e+00,-1.027216517199988521e+00,-9.876394804242664971e-02
-8.581710418056559542e-01,6.243486928111617873e-01,4.363251717908301353e-01
-7.209689249995037130e-01,1.214759783502593171e+00,-3.743060870903264226e-01
-1.178204555314586122e+00,5.354935257791024750e-01,-6.799523344234563726e-01
-1.688638491961321542e+00,1.329462412837099761e+00,-4.346156675650730272e-01
1.185530762916097158e+00,-3.317224328747644946e-01,5.204012187729958328e-01
-1.156095795625222467e+00,1.365737220541356045e+00,-6.671667890951722413e-01
-3.790108949675120020e-01,1.066830361074705191e+00,-3.133406921741554996e-01
-1.559269625357300182e+00,2.189240465262511370e-01,1.918356844988950427e-01
-1.827683772178757549e+00,1.050175682302064706e+00,-6.941898771885976482e-02
7.683509144407928426e-01,-6.307395666581762095e-01,8.993473748978542126e-01
1.219956487656901345e+00,-1.355750494680648233e+00,7.440620068663056363e-01
1.781858552684105756e+00,-7.928511537655053010e-01,-1.568471712559392495e-01
-4.542733000154092760e-01,-3.284856303591217608e-01,8.896360936473841630e-01
1.691761138406644993e-01,-2.827619349327773479e-01,8.831207589882231757e-01
-1.631872051070720531e+00,3.245450574293694546e-01,6.907798098558928790e-02
8.458010462011800179e-01,-1.259489773480105379e+00,8.114857782554726340e-01
-1.023265757852874547e+00,1.071267325956130945e+00,1.213323353403740826e-02
-6.954896870088258520e-01,1.186425500220398277e+00,-3.399388569781378600e-01
9.760003876055269867e-01,1.048805850514779869e-01,1.851293418487402198e-01
1.809512142806406709e+00,-1.197211952572015958e+00,2.478451582013789789e-01
-1.779391419839292610e+00,1.037546711212986139e+00,-5.319214263163720702e-01
9.188578204806400196e-01,-7.903270196765875832e-01,-3.053872153535279188e-01
-1.565948904612672665e+00,9.513964921468256453e-01,-6.843958119791404560e-01
3.942904154858565269e-01,-8.759559277819811696e-01,-3.224436022529932749e-02
1.441343595537782241e+00,-1.279306328283253302e+00,2.782565796553290727e-01
7.070558277883244591e-02,3.807773228697206025e-01,-9.410621516471174841e-01
1.307496618211514194e+00,-1.385281358632585169e+00,6.549986233605444852e-01
1.241069273198762923e+00,-8.504628948682314560e-01,8.359151396671643530e-01
1.788811980554770642e+00,-8.124558130386005939e-01,-1.113515432329554161e-01
1.759669638973060168e+00,-6.780388824938784476e-01,-1.828295396858040378e-01
1.012380940759806114e+00,3.181406478135844207e-01,-4.727787366365288069e-01
1.871876003860499571e+00,-1.070755564144182603e+00,1.855011986307238125e-01
-6.734523122544716633e-01,8.655852694344402520e-01,1.560980042833192971e-01
-1.022427421813014048e+00,1.998799694465444587e-01,6.744877421240755844e-01
1.339271554208298909e+00,1.190621759773778654e-02,-1.966126610541488462e-01
-8.460821503040273361e-01,7.279599692237939124e-01,-9.230233275146130234e-01
-2.962922137650511600e-01,1.478750599546734268e-01,-7.718895301846192547e-01
-8.796285408528657923e-01,-9.510240347966703034e-02,7.809447622073454331e-01
-5.120508871802620376e-01,3.403148138690600955e-02,7.926915563416806476e-01
-7.985301880057674162e-02,7.590179010609972021e-01,-9.709389816701262665e-01
-1.013415674518944876e+00,-1.139400038297659346e-01,-1.136736443223845677e-01
1.897861537128415543e+00,-7.815129479712065175e-01,5.831739223938556954e-02
-1.680106995741086351e+00,4.265791285168872293e-01,-9.682496115893282629e-02
1.588582004443309437e+00,-7.129189231590643550e-01,5.267893187697327839e-01
9.106186252608373666e-01,-4.490497401938419730e-01,7.524107157843270555e-01
-1.839812467784333050e+00,7.172107369330587012e-01,-2.232860044262241217e-01
2.005099334251069995e-02,-7.712241452277034393e-01,2.713060938070778819e-02
-1.786309119227751152e+00,5.533417024650805205e-01,-1.323639015057139282e-02
-9.387722716544778523e-01,-3.339925679653354962e-01,6.245048764319451884e-01
-1.617868491030296285e+00,9.767944562650962004e-01,1.069610233847555214e-01
4.559744608336357419e-01,3.216265739367006882e-01,2.940599795892353541e-01
-1.325511282597349405e+00,8.452637670233497103e-01,-7.907328015436192459e-01
4.844913986823209395e-01,-8.651352455216660964e-01,-9.448966404096043048e-02
7.776356088216935802e-01,4.822029316322761772e-01,-5.651746839612408202e-01
1.045238727951047331e+00,-1.245679642398640929e+00,2.692023649289051468e-01
5.627860054536841516e-02,4.210972420744019118e-02,7.016880039634679767e-01
1.475339377179956779e+00,-1.085862850044995831e+00,7.914863732680538222e-01
1.747720566384792562e+00,-5.063565812709363012e-01,-1.342300717861230341e-01
-1.588801694103917583e+00,5.714557168361413808e-01,-4.146123519374189659e-01
-1.459058688270299164e+00,1.089250813339023294e+00,5.032026669834652362e-03
-1.424491114908051026e+00,1.373939572588093183e+00,-6.547164990617134750e-01
1.703571782572323334e+00,-4.431665696665076926e-01,-1.541177984647741361e-01
6.626790353846617743e-01,-1.127672295162973848e+00,2.399672255319484637e-01
1.262293417867547118e+00,-6.914145426389997073e-01,-3.884208539168820806e-01
1.472446092770694159e+00,-1.235721646831319104e-01,-2.836758289213967554e-01
-8.994048287796287955e-01,-1.772247585322213048e-01,-1.463909374686936937e-01
-1.891512208157325459e-01,-6.395694362157312851e-02,8.165400192041309957e-01
9.269866605027788919e-01,2.963558374567007991e-01,-8.397671428082706391e-02
-1.902531174527474889e+00,1.102661059323470472e+00,-3.015980253430411984e-01
1.219962113840458384e+00,-1.156619558446184692e+00,8.744366291732903473e-01
-1.907851325877390758e-01,-6.580325156740535197e-01,-5.130383579644206410e-03
6.056317019197462459e-01,5.563461970216767444e-02,4.957757955012850326e-01
-4.419010321940717301e-01,1.152323495736151227e+00,-7.889415507720087817e-01
1.393598695974889168e-01,-6.945379710814795216e-01,9.825714809573773412e-01
-1.857103110641667776e+00,8.485944314302347191e-01,-3.192253799250934776e-01
8.396634967916314363e-01,-8.713675142709753629e-01,9.695621222794730265e-01
-1.726123542290940227e+00,8.896491203385957780e-01,-5.120818197333533162e-01
1.689906741157424230e+00,-5.381736084891159955e-01,2.330886867220380299e-01
-1.392048037138619021e+00,9.628238426400612671e-01,1.634979510112380963e-01
1.861532483058956799e+00,-7.091161009488040623e-01,6.187931376978701714e-02
2.159866739787939527e-01,-1.083312273480817600e+00,6.686352759035093518e-01
-1.473430666925096943e+00,1.392693773192574258e-01,2.522400873900328966e-01
-1.321445089381044324e+00,7.449166369417369316e-01,-7.383502048370773618e-01
-9.530011294133647337e-02,-8.799593614880301118e-01,3.583089191511415472e-01
1.171763277052642049e+00,-8.153231852653974876e-01,8.466431407230159412e-01
6.243040346874110247e-01,3.403200647977967092e-02,-8.055068144323848101e-01
-6.213938464335754253e-01,-3.864744946364647715e-01,-8.937331757272547195e-02
-1.563697804799806912e+00,9.205556158347485418e-01,-6.892765791931496633e-01
1.214042000820507283e+00,-4.463987970206464984e-02,1.559858526195552764e-01
1.103730617346712961e+00,5.576708064269909892e-02,-6.484656562127049106e-01
1.081279042329664986e+00,8.016147441320019273e-02,-6.690578145940607735e-01
-1.854694591684712957e-01,4.419006236887194072e-01,-9.478469846198434023e-01
-1.267786009587324181e-01,5.117919087640775827e-02,-7.609770111701553708e-01
1.751495497662591605e+00,-1.111797278325554750e+00,5.719428788349493198e-01
-1.180826256777461225e+00,1.346124596157382891e+00,-7.803479401297219731e-01
-1.778835502190043938e+00,1.192846573332057014e+00,-2.383480076948364390e-01
1.105118983764305618e+00,-9.132439208217385529e-01,9.075375709574349248e-01
1.911690297361978264e+00,-9.712632123604547640e-01,1.245105171421517221e-01
-1.084163353543812214e+00,-2.420351270362986265e-02,6.705499092850338849e-01
-6.642206206268514990e-01,-5.696299808519174057e-01,5.668384118120705084e-01
-1.524606469625344740e+00,9.418923646099268687e-01,1.488615147733867716e-01
8.924892562128620144e-01,-5.041541184468166792e-01,-5.268912815776699565e-01
-6.382943872836013832e-02,-7.284903611260021283e-02,-6.879756651663049283e-01
1.395219222354181499e+00,-1.199702761154473718e+00,8.078959674490217013e-01
1.093944720592264330e+00,6.611308774420275591e-02,1.251062266503765730e-01
-1.314761096740256319e+00,8.285572473479648758e-01,2.705560839970491682e-01
1.531037281607188438e+00,-2.083538121578435987e-01,-3.401094888063169730e-01
-2.569059687284611093e-01,8.027296440316459281e-01,8.092525351730205097e-02
1.323777451881108735e+00,-1.332941266938214353e+00,4.161817121649212803e-01
7.709003255428299450e-01,-1.131912354005776722e+00,9.494094590390127486e-01
1.586701283609812885e+00,-4.579751758564575836e-01,-3.767730104961991011e-01
7.253925030091789017e-01,-5.063300232134878565e-01,8.546546547317036557e-01
1.333943725798351521e+00,-1.199214850014508560e+00,8.322696880564508515e-01
-1.512266311825176679e+00,1.302131370201833782e+00,-3.002387190900825398e-01
4.519303209882226113e-01,6.061692632680143467e-01,-8.196292991051504773e-01
-1.540827645326836359e+00,3.980205071048724119e-01,-2.470647888160874550e-01
1.350763873397844872e+00,-5.551952125222955337e-01,5.949670308105280414e-01
1.939474707835784906e-01,7.897866599020724188e-01,-2.397175667661833320e-01
2.621701221950499816e-01,-8.738858482341743672e-01,9.846732137341255298e-01
4.864239177101785383e-02,-9.716535324399361295e-01,8.075708412281327186e-01
-1.695706080392319404e+00,4.813020712291370407e-01,2.447130247081411303e-01
-8.571007438408037027e-01,1.305676830310982472e+00,-6.537715337857632480e-01
-1.064047088513989658e+00,3.590258327161270913e-01,6.145736892726145761e-01
-1.678441973737712312e+00,1.085681808939005899e+00,-9.248945788024305267e-03
8.831935412267225560e-01,-1.269425970701024475e+00,4.036444195633131504e-01
1.883318794531025908e+00,-9.468773536351969833e-01,3.581150194730014502e-01
2.137278433118357246e-01,-9.405577549335764065e-01,1.875637901834889543e-01
1.836222903725752476e+00,-8.960931137466474627e-01,-2.662198965961498284e-02
1.163244229880394887e+00,-7.304623994818141286e-01,8.096839962980522110e-01
4.908032190878185985e-01,3.227522655374443494e-01,2.547943956897603113e-01
-7.746431129780078084e-01,-4.775444283981281623e-01,3.462439164805119485e-01
3.457600355868238884e-01,5.325968282016179112e-01,-9.081136469487065543e-01
1.799560207440636495e+00,-1.234332622782491562e+00,4.014037302263099849e-01
-1.720072190832327541e+00,6.698350881517597388e-01,2.214121988068628033e-01
1.240322884420844152e-02,1.649933302647295374e-01,-8.542554222314526768e-01
5.696203116683780099e-01,-3.967319236472487409e-01,8.414531523056508755e-01
-1.415714370894014973e+00,5.178026257864708909e-02,3.200552590583719548e-01
-1.499773665376065379e+00,1.066554612060702123e+00,3.969969931057823476e-02
1.062190529906201553e+00,-6.940309847206836968e-01,-3.883796783333993141e-01
2.480302172980532183e-01,1.529571106540325853e-01,5.640125283500669884e-01
-1.535180949844355824e+00,1.318029858370289187e+00,-3.656239024092184930e-01
-1.187179529644236453e+00,1.093959498879304215e+00,2.553279063786408325e-03
6.134089111570660835e-01,5.890082507067756490e-01,-6.741702389208777957e-01
1.593932549254100328e+00,-1.172958634259376298e+00,7.024693027678644563e-01
1.420832507073755968e+00,-8.420161636132020844e-01,-2.512099934392670875e-01
1.879589905200028443e+00,-1.028703780633219322e+00,3.658790595755168629e-01
9.854279128324944237e-01,-5.674827101324602108e-01,-4.927431632622377711e-01
-1.743546979851225975e+00,6.131171665177548302e-01,-2.484224911832501603e-01
3.389084777799918347e-01,-1.098544741474815067e+00,7.929181347994375129e-01
-5.414494299273401798e-03,9.535452438967941813e-01,-7.480080642110693567e-01
4.993595328542836942e-01,-7.469780468975038001e-01,-2.494222968865444923e-01
-6.407844676059211431e-02,2.670478955857080172e-01,5.626509906127626914e-01
-9.626071642637868964e-01,6.851471578870214074e-01,-8.554822901587452177e-01
1.731706916769082394e+00,-1.117668914107092126e+00,8.323302705568595694e-02
-2.259326029245145584e-02,-4.691099118147952773e-01,9.658205666912809129e-01
6.245823146107289947e-01,5.545788977343844017e-01,-7.344387124314968318e-01
1.732574125531387788e+00,-5.582357215515140192e-01,-2.127629106263349279e-01
1.061359166371568019e+00,-1.320368286576506511e+00,7.518084307829251411e-01
-1.008643782970278791e+00,2.317026599355398175e-01,6.631287576479195645e-01
1.808454073953920105e+00,-7.978600737932501907e-01,-9.761434068228344585e-02
4.128229136914481345e-01,4.604467123220746250e-01,1.389310205491802175e-01
-1.787068587230166150e+00,5.569579833761241217e-01,1.423668208180854933e-01
-1.112253887814882020e-01,-2.564495573380773386e-01,-5.144770359459965858e-01
-8.008278737325620344e-01,1.073114685780810929e+00,-6.348955692749258528e-02
-1.757076663198170463e+00,1.096459348884008422e+00,-6.260903416378846287e-02
-2.188862856257550449e-01,-7.322127017618851319e-01,1.560862228760548365e-01
1.021452216409025393e+00,3.039283602625161285e-01,-3.663474555269399802e-01
5.650470719498439376e-01,6.038813603311881106e-01,-7.344143848004343056e-01
-5.298258271820180942e-01,6.824841249909398000e-01,3.205609137672347786e-01
4.617803396007582606e-01,6.242686016471146182e-01,-8.018830974566309999e-01
1.083515195435172052e+00,-9.710668599561045333e-01,-1.427243969368814647e-01
-1.583754674577726673e+00,2.474560827359830184e-01,1.737915067900099586e-01
1.660493073878045678e+00,-4.967518595791751146e-01,-2.850277898575064306e-01
6.587046698668743705e-01,4.283699754102056056e-01,-1.798750679538138608e-02
-3.132909858770713818e-01,6.950073080754998189e-01,2.402887444048768806e-01
-1.613248314048646659e+00,3.049382071793999005e-01,9.094604667301356415e-02
-2.270156316609109326e-01,-8.093541720153536456e-01,3.648526085608692626e-01
9.694241240206633581e-01,-1.218058538193945495e+00,9.088298030109978054e-01
-4.729294056857116790e-01,-6.115063480480634750e-01,1.641549652258443015e-01
2.976467067881616857e-01,-4.336894911744470366e-02,7.030146278690534434e-01
-1.151360459150793103e+00,1.307750891221082679e+00,-3.985078769939516818e-01
-3.677453925863947287e-02,7.102549761492383817e-01,8.401149714168537619e-02
-4.405888842769943858e-01,9.492526587679754879e-01,-5.396918031526857368e-02
1.581930220030689505e-01,-1.031886712405757356e+00,7.843968653320505524e-01
7.086618539278547457e-01,-4.929708634421616220e-01,8.575323592640383685e-01
-2.491365605186359519e-03,-3.167684405592830488e-01,-5.068985203417916141e-01
-7.759604912992663917e-02,-9.260126605492897678e-01,6.427037392311607533e-01
-3.776289516306972072e-01,4.834905338119898505e-02,-6.801044267142499766e-01
1.163037884127444910e+00,1.224611372266136422e-01,-5.628563438001360497e-01
5.268961190242099635e-01,1.601924696250793811e-01,-8.550871223914405794e-01
1.573626320132391454e+00,-1.270460921408652633e+00,2.511969210580133338e-01
-1.297478600688890538e+00,1.370285543386445148e+00,-6.505444352656917228e-01
1.296207218110131842e+00,-1.346406169960293608e+00,4.461454198529892778e-01
1.285268962186847830e+00,-1.140308353740544955e+00,8.559115514535590163e-01
1.029251994163136841e+00,-3.475437170617062810e-01,6.236368734726808194e-01
-3.015662398632842911e-01,-6.609893589334361330e-01,8.916079559198285542e-01
7.560224367354783093e-01,-1.939972849200593263e-01,6.372606359077758187e-01
-7.386131049078218380e-01,-5.288239670152462546e-01,4.480150020331210015e-01
3.312760922328145119e-01,-1.006811124902892013e-01,-7.500252239613778293e-01
-7.731661111769106975e-01,-4.023895824237475605e-01,7.206324712015524936e-01
6.166862864241431375e-01,2.642956436852185176e-01,2.507615038995053003e-01
9.657444125226245513e-01,-1.287564094668311121e+00,8.139137293477816115e-01
-3.070091041082238514e-01,-5.192875839771566859e-01,-1.191606787856783617e-01
1.770640511822897167e+00,-1.187578560006039785e+00,1.773981671292078344e-01
1.985554531667204359e-01,6.250351436002312688e-01,-9.379721908252164342e-01
-2.180322660189663586e-01,-4.988144909567234775e-01,9.450754843559944218e-01
-1.098613835319808552e-01,9.628451449576680421e-01,-8.489388351854149084e-01
8.016201162583302953e-01,-1.071939856971483529e+00,7.544865360582436731e-02
1.864520926806560785e+00,-9.043735928374614375e-01,3.213472293094949972e-01
1.671280987069227453e-01,-2.795906092852187275e-01,-5.818890916424979132e-01
1.214241371416918458e+00,1.351449816874714382e-01,-3.001503124973513570e-01
-1.527599450130634251e+00,2.374980549855973677e-01,2.162470837000327398e-02
4.637054143222593128e-01,6.598017446920999562e-01,-2.967597744656245706e-01
-7.019182427412384850e-01,-2.125956008632279293e-01,8.282895525187327079e-01
1.450542520315716288e+00,-1.217032715544978938e+00,7.903209719999380045e-01
-3.565559669241614160e-01,9.597970625025565861e-01,-1.208634622288108224e-01
2.116527180353381180e-02,-2.943600168339485235e-01,-5.272260394606784750e-01
-1.924359625012028452e-01,-8.160425525950107950e-01,3.081423811195929674e-01
-9.980376850594055993e-01,5.290856049097925062e-01,5.071328574502336206e-01
-5.446266514065808417e-01,7.375543776641934057e-01,-9.736361319947368642e-01
6.747496025062855729e-01,4.903014539026814278e-01,-1.941531354836953382e-01
1.403887527416977532e+00,-6.294035973093574654e-01,-3.970363380373887474e-01
4.460617201885487271e-01,3.467865980482542215e-02,5.900949051359756226e-01
-8.096108668027824917e-01,-3.474085684850519162e-01,3.370261481995965452e-02
-3.110538769522189564e-02,7.778096326518112447e-01,-9.478415003652739257e-01
-1.571541418778763965e+00,2.389007121215148133e-01,8.172257780236835689e-02
-1.173042404657401949e+00,1.213410816940217130e+00,-8.678704681258203602e-01
1.550941783189852430e+00,-9.430162717444547926e-01,6.918974975144714934e-01
-1.204952196636547068e+00,7.238706858422083723e-01,-7.734824141749421234e-01
-4.857844754309258439e-01,7.536661040978344106e-01,2.214480102611977586e-01
1.052684944534601819e+00,-1.251338216313119700e+00,3.015768772931874953e-01
1.444230777522503173e+00,-1.344902977456538640e+00,4.191906689140542097e-01
8.238630083239432134e-01,4.123198707369824523e-01,-6.791246287099994561e-01
-8.357701183533010614e-01,-4.184048666948690376e-01,2.736530959625240733e-01
5.347259112708772077e-01,1.572907093327024219e-01,-8.646050060472708632e-01
-1.300857030931399816e+00,4.943748180618534049e-01,-5.643665299030294902e-01
-1.045301749304081929e+00,-2.033862338251993529e-01,9.513501820212803828e-02
-1.720149498992819659e+00,1.257490867742220964e+00,-2.942509057844966969e-01
-4.903167253516018120e-01,4.754556110235855781e-01,5.008738498156709573e-01
-1.759413212939319404e+00,5.324453180216627279e-01,9.391406459560532050e-02
1.084667550941734504e+00,1.910875493942747472e-01,-5.884562072679044853e-01
-1.347538776966749063e+00,1.931208763374643034e-01,-2.258560513098817613e-01
-1.895706954263614907e+00,1.062303259138961398e+00,-1.752602240276019685e-01
5.775017691321764346e-01,5.437770509548591757e-01,-1.707815969773594789e-01
1.645805540159441138e+00,-1.317715236787724287e+00,5.150513392914863875e-01
-9.379421734945626588e-01,-3.769819901135113560e-01,4.592559115742917419e-01
6.356928687380191123e-01,2.550564083176967700e-01,-8.520340455960578874e-01
-9.937427315263477334e-01,1.315294200610793718e+00,-7.430076319781238059e-01
-9.070874400257442627e-01,1.161931762076533481e+00,-9.312724338447981864e-01
-1.485564671034466100e+00,7.679169834236687642e-01,2.999463340239461595e-01
1.852210721030099538e+00,-8.883028351387030064e-01,3.353946804437483720e-01
-7.618013654427242820e-02,3.921481786438645867e-01,-9.299161349372234708e-01
-2.887416758601628608e-01,-7.934443103965973521e-01,7.290226146883226344e-01
4.278638906974400191e-01,-7.342249129491844606e-01,1.000349559100289110e+00
1.461883504260561129e+00,-1.307057311845444936e+00,3.328006645447924017e-01
4.117396917725102967e-01,-1.034871992208983960e+00,9.324071158716475960e-01
-6.881327232040276853e-02,-3.791335562666492409e-01,9.349937484763580775e-01
-5.350834936526182029e-01,8.506784962989184795e-02,7.688605754940078807e-01
7.501723631091318234e-01,-5.043734389719157774e-01,-5.240085063889582395e-01
1.388110024246638652e+00,-1.316296968689671276e+00,3.588483267835073653e-01
-1.460347198408617209e-01,3.046156749631754312e-01,5.692439389480170586e-01
4.825881383492771071e-01,-1.106031323512325137e+00,8.938031424394501379e-01
-6.319074738505789934e-01,1.180659221620070198e+00,-3.818233172929934027e-01
8.057878558927465684e-02,7.538031422136485249e-01,-6.048091253473678042e-02
-1.802581387426464843e-01,-6.509472223218254472e-02,8.198532047279445401e-01
-1.725419849489553403e+00,5.949345942970244439e-01,-2.562564471257217646e-01
-1.895141666642055966e+00,9.296077131855786657e-01,-9.052856242515296137e-02
-1.101804880760405059e+00,-2.484658241731191874e-01,4.293346367376060235e-01
7.360288289558485353e-01,-1.225746936688785427e+00,8.509151618467661882e-01
-1.630079833088536212e+00,1.133701120282111674e+00,-6.978517083273554356e-01
8.830317569705014025e-01,2.239737167950016650e-01,7.181509101753383306e-02
1.009314384548760213e+00,1.723340486248081393e-01,-6.777218193475775809e-01
1.325232922794757684e+00,-3.581580617356748819e-01,4.255177039601649724e-01
-7.159008399195965211e-01,7.090989498213583486e-01,3.448045392205744131e-01
-4.213341752853326794e-01,8.070350737387770312e-01,-9.999866064307012525e-01
-5.054644207696240565e-01,1.150934256500641739e+00,-8.741627908735321029e-01
1.505038619081146001e+00,-1.342091026440086488e+00,4.010848504591697505e-01
-2.736573854072319456e-01,8.169880074195549069e-01,-9.895674889329473256e-01
1.873621706975737988e-01,8.668440684228062576e-01,-6.463227170531720134e-01
1.014712500517360727e+00,2.931932090473814978e-01,-2.849025693845669283e-01
1.880974987688577960e+00,-8.940416089309235481e-01,7.916986936133997566e-02
4.600011621590854860e-01,-1.171545612993581731e+00,7.816279609330529787e-01
6.584980194390919195e-01,1.162224123792371111e-01,-8.246131421637379333e-01
-7.201570002403513415e-01,1.619004772170070383e-01,-6.265185434797286845e-01
6.860680868101600716e-01,-1.075650213672759037e+00,1.320283326813338209e-01
-1.838194678526930970e+00,6.717703126906228173e-01,-7.799304745071200008e-03
5.599166084298780044e-01,4.356146888743867573e-01,5.160980558726620954e-02
1.871146736700595614e+00,-1.104559329998115347e+00,4.628430421022060037e-01
9.805672049678143543e-01,-8.263493455605969151e-01,9.159961366949368466e-01
1.387140052674635804e+00,-5.816496152161448885e-02,-1.484736747583161043e-01
-1.430550211460613452e+00,1.103795926509761882e-01,4.154860927426458073e-01
-1.550526835058795017e-01,-5.531473849889193550e-01,-1.724915226585880257e-01
-1.344833219701620841e+00,1.875060292297540954e-01,-2.047253790770340587e-01
9.649744271377396210e-01,-9.596789411952494353e-02,4.343696291677917043e-01
-1.378207287449266349e+00,1.291491189954860230e+00,-8.034276740943625539e-01
1.161393178278176785e+00,1.005758812096977511e-01,-5.830237677525935691e-01
-1.141135791729297466e+00,7.850661565603025416e-01,3.124057167163627469e-01
9.396088914686159810e-02,-9.947441306717592635e-01,8.138525425372530320e-01
8.459395519965060006e-02,-6.240577522626299389e-01,-2.188282508883528099e-01
1.280171202474942316e+00,-1.372075991233305592e+00,6.561970012817969211e-01
-6.916404739927476397e-01,-3.346814929744544864e-01,-8.793948862253238297e-02
6.310054475599061741e-01,-9.324601883628325094e-01,1.001699581072455603e+00
-1.769364783697739529e+00,1.073320807856316783e+00,-4.266450701968643733e-02
-4.437351497123139671e-02,-5.580160968066197880e-01,9.752903240080543767e-01
1.348942163693310992e+00,-1.221737643267524431e+00,8.252206001416574344e-01
5.189643893186166590e-01,-3.571222117252769168e-01,-5.989201650228070939e-01
-1.437634889388489601e+00,8.984471556217896171e-02,1.657365757420525276e-01
1.376178182347926215e+00,-7.828848397978570572e-01,7.180279042346655594e-01
2.162408319407695678e-01,7.195841453554193690e-01,-1.247165714223257976e-01
-6.591171024085704100e-02,9.839210194718548408e-01,-7.993450007165252558e-01
5.839400607814621003e-02,8.595454401618045637e-01,-8.715639982029768085e-01
1.881361084109406612e+00,-8.724560704509082276e-01,2.547465595719859352e-02
-1.786253074990691025e-01,1.010404784214870677e+00,-3.752029301228386737e-01
1.718106907898959257e+00,-1.089379411138486242e+00,3.962216775395454443e-02
8.213405213744130462e-01,-3.202494307020666287e-01,-6.504934319852844204e-01
-1.604648530977449417e+00,3.240477501767300983e-01,2.989866589355570370e-01
-8.337801383446052927e-01,-2.082159740168555151e-01,-1.497047879714739904e-01
7.089866772481788759e-01,-5.547883751802514807e-01,-4.726780176594273519e-01
1.642296050794550988e+00,-1.117272939848129809e+00,5.323565506233975814e-02
-7.867518415924803499e-01,-1.602639268781634319e-01,7.966178945247129883e-01
1.036136637696737139e+00,2.730734393319951825e-01,-2.799386700033168474e-01
-1.626715262086704916e+00,7.539701353266482498e-01,-5.253401031920938991e-01
-4.433206395319704840e-01,9.845001442957613813e-01,-9.699870229504882202e-01
6.394261520798502074e-01,4.798182348372810879e-01,-1.141881631518840839e-01
-9.881900753836464490e-01,1.308967974236860954e+00,-8.094863343889685536e-01
-1.429239510304660676e+00,8.157083471267512209e-02,1.913202503147344857e-01
4.248718260235929689e-01,7.312424426864896354e-01,-5.121866169188590279e-01
2.088110530099566431e-01,-5.240237389306573457e-01,9.682055796149123816e-01
9.848033038076353662e-01,4.413104497355178207e-02,-7.283315696500297642e-01
8.262712911412090078e-01,-3.166984133471566487e-01,6.960475298294409585e-01
-1.323952997160547707e+00,1.355756737254042443e+00,-6.577438326080518038e-01
4.836694971311225055e-01,6.375975771385318236e-01,-2.616963491878722126e-01
-5.199348878516845129e-01,1.299722287092813788e-01,-6.867394465771597956e-01
-1.046460016358376904e-01,6.909185208926704735e-01,1.370697767502659647e-01
-7.634472790571187328e-01,-5.002486732401092429e-01,4.131993922049443935e-01
-5.837577634965763762e-01,-4.000265130880720776e-01,-7.915731200228631748e-02
1.429720936384998753e+00,-1.010832498004550439e+00,-1.150287283581859221e-01
-8.069545936261603991e-01,7.164101506021423038e-01,-9.198230440739499914e-01
-9.964031535695824227e-01,1.330862035011640465e+00,-5.730300688389087238e-01
-5.959646505791639237e-01,4.908399942293658058e-01,-8.846622796742584782e-01
9.637032366368614156e-01,3.410689759753583461e-01,-3.074907767408918136e-01
8.998190397856382639e-01,3.712428596652569968e-01,-5.999335018370653971e-01
4.015360494078613618e-01,-1.089657817865913314e+00,8.837467308627781071e-01
-1.222787446699092895e+00,1.920432792837722391e-01,6.120398681028678123e-01
-3.770995867243820410e-01,9.108947743637804129e-01,-2.176376229279027366e-02
-2.046374997021232212e-01,1.059348309017571710e+00,-7.497053869469385567e-01
-1.596257559945033933e+00,3.346910812189822226e-01,2.995953571246458003e-01
-1.299899387374197524e+00,1.241786777707629907e+00,-1.877179334871603156e-01
-1.694480917979023671e+00,4.667594581825190714e-01,2.653403952408561195e-01
8.835266652380979746e-02,9.322044244344186437e-01,-6.560587312139990468e-01
-9.706409970502453133e-01,-2.697142381547067425e-01,6.361824391371453391e-01
2.984768606691693416e-01,-5.866978208092162722e-02,-7.680006113619979313e-01
4.942609953996003336e-01,6.051312856784738514e-01,-2.035382923946319478e-01
-1.026195577755348198e+00,7.207469408230383623e-01,-8.525413150915764904e-01
1.187742276525763918e+00,-2.985212044319108388e-02,-6.353679926554286483e-01
-6.370112710733052408e-01,-4.368448314708939795e-01,3.407185589669328718e-02
1.784539311186604138e+00,-1.221369390247146969e+00,4.723678832849614873e-01
-5.916810212182077588e-01,-7.259172775602928951e-02,-4.823359378819876420e-01
-1.497039838354131458e+00,1.311748053192961061e+00,-7.404514628744861549e-01
-9.805395992038114239e-02,-3.445766257844514735e-01,-4.378674043635731872e-01
1.057475307389304175e+00,-1.495910271631694655e-01,4.126174265077777736e-01
1.744472818644744683e+00,-1.173799008559284429e+00,1.596166210355896287e-01
-1.157166845234946839e+00,1.281220097528999347e+00,-8.284892813021600411e-01
-1.276382825262564191e-01,-8.883586070139799507e-01,4.556628014291150275e-01
-7.457857278153237068e-01,3.979245154851059896e-01,6.009662740174448459e-01
-1.573955933620385217e+00,1.355117735707775273e+00,-4.435454301058618376e-01
9.272802644490595325e-01,3.057303148065763643e-01,-6.767099072969309237e-01
1.383740533460343869e+00,-9.560758051185522799e-01,7.970414350520219626e-01
-1.836933579152042473e+00,1.212752401778479872e+00,-3.983384805861035494e-01
-1.720199970617297458e+00,6.882594197774549727e-01,-3.573242202531781708e-01
1.260352906288256580e+00,5.331628053276794843e-02,-4.618667700769354401e-01
-1.410083747935568788e+00,2.383079881759522234e-01,4.939910797346773186e-01
-5.195366833164988263e-01,-6.344601719590133859e-01,3.182941285477184912e-01
-1.123799919487312282e+00,-1.988709603567711259e-01,2.744284672400276182e-01
-1.903119078919661034e+00,9.183953113515260780e-01,-1.436702600401752739e-01
6.024643231429434032e-01,3.285320923894346490e-01,-8.494121220652730564e-01
-1.526015474105402170e+00,3.790834003695458532e-01,-2.474841710748842960e-01
-2.877633974465840794e-01,1.029346926813449636e+00,-3.083557745770605374e-01
1.221506063969330036e+00,-6.168361296808103633e-01,-4.374093840500133945e-01
-3.759416357907935935e-01,1.132582115115014165e+00,-7.681411018174361116e-01
-6.981065819731634425e-01,-5.230795953405161791e-01,3.159344936706759421e-01
-5.468745093120997991e-01,-6.460993724820838224e-01,5.411924261683925819e-01
1.357388778149887010e+00,-3.665731038235518768e-02,-7.689724776775727633e-02
-1.322112461363581293e+00,6.813354864585087489e-02,-4.492018541860137021e-02
-1.042624403630760588e+00,1.304173022983817765e+00,-4.215090925895013663e-01
-1.045520362427442951e+00,-3.926208167206821781e-02,6.935388420809741605e-01
-4.508276693951383113e-02,1.209405653876785003e-01,-8.173710755899932234e-01
-1.306230183388989108e+00,1.360938483696048307e+00,-6.615248662043675676e-01
4.111867423219494992e-03,9.644790316649056727e-01,-5.959576639610746351e-01
6.438035679606901596e-01,-1.149657296364853476e+00,2.884098746681368897e-01
7.088412495085654186e-01,-8.965286887247659875e-01,9.812106830381791545e-01
-1.624738031118002857e+00,6.619270975313150673e-01,-4.477708505559029328e-01
-3.971433184370120051e-01,-3.235488765166786296e-01,-3.165569691920635531e-01
-1.717285320703580531e+00,8.977625985021830957e-01,1.248512332561970833e-01
3.477304314652844841e-01,-2.068321068080720138e-01,-6.735054257154690083e-01
-1.307572295010582364e+00,-4.536853484366699246e-02,1.956600679032099444e-01
4.086299504797714088e-01,6.001545796957286072e-01,-9.794189786078238980e-02
7.440732990176405215e-01,2.808058171551857662e-01,-8.033130786023386927e-01
-2.678674464890062334e-01,-8.045863119793437157e-01,7.476601159847339195e-01
-1.709723870386518296e+00,4.683839891270713540e-01,-9.181232475005379756e-02
1.658657348969324818e+00,-1.112226039367335773e+00,6.715162958619511624e-01
1.838058100869838674e+00,-9.330535609462946578e-01,-1.842270582824130296e-02
-1.093716971654772108e+00,1.340588842755374710e+00,-4.893935030104080153e-01
1.581767658498143825e-01,-8.365268922788280381e-01,3.591096573989476654e-02
-1.368642331733759265e+00,1.099225010281374759e+00,-8.261800882178811367e-01
-1.893346755767193690e+00,8.689694427631817764e-01,-1.406097917318522572e-01
-5.852487072574418248e-01,1.188459679268073943e+00,-8.289498713466925128e-01
-1.077873738621654809e+00,1.338450028856985607e+00,-5.785222830063565524e-01
8.250653631430460155e-01,4.489718909549615944e-01,-5.490132888744175821e-01
-1.094070882210825157e+00,2.355754013511119072e-01,6.505920775117908228e-01
1.687673312523227276e+00,-1.258458853966837765e+00,2.658831433036872860e-01
3.304287524265592246e-01,-7.301537902610248931e-01,-1.961665934277556644e-01
1.590357751171297407e+00,-5.188935528746314585e-01,3.338349433199357952e-01
1.683393798580098133e-01,-1.030486874936980657e+00,8.038368951450011179e-01
5.810760523554264756e-01,-1.228910933385439552e+00,6.434232000157661391e-01
1.559635643427523588e+00,-1.352941161159116445e+00,5.741270470963673045e-01
6.710871617452424109e-01,-8.443560391468961646e-01,-1.944939294109366001e-01
9.663432457396861075e-01,3.371251110571211740e-01,-3.661797464976260241e-01
1.135982317421450283e+00,6.468469975252157111e-02,-6.378924015463459662e-01
4.063069662622733613e-01,2.465041168326024268e-01,-8.860239019464092314e-01
-2.942448501276980211e-01,-7.169516182970340212e-01,2.137950187529774893e-01
9.825225010842618678e-01,-1.244683176249324674e+00,8.713311315510152699e-01
-9.659474373628252897e-01,1.914339716235486932e-01,6.994854329496684731e-01
-3.998466959043130431e-01,1.033826647101208307e+00,-2.324549732643984012e-01
1.735989413081478139e+00,-5.754945366395103346e-01,-1.953550096306100048e-01
1.205022336938287975e+00,-9.688950870322099451e-01,8.858218550013287063e-01
9.795700519887989843e-01,3.495172990325774998e-01,-4.351964435083734983e-01
-8.889147742427624399e-01,1.298183595054879680e+00,-5.457791903362095853e-01
1.901562549597058505e+00,-9.837899598605682749e-01,9.624584621529889972e-02
-1.302297757728187788e+00,5.234698793513973408e-02,5.389480028144109092e-01
1.247449324281777461e+00,-6.330583417949516012e-02,1.499274278886298384e-01
1.405349538462219883e+00,-6.942594960488095435e-01,6.616150634830395560e-01
5.992031058045746983e-01,6.032148586135666068e-01,-6.832780049472366724e-01
1.135792613753934921e+00,-7.609930669330240427e-01,8.267116911820266978e-01
9.872026915014167625e-02,6.466654942481707691e-01,8.680535361302513242e-02
3.175400109390661973e-01,5.348493766733865007e-01,9.898043157109040480e-02
1.803386798147455838e+00,-7.590024893196031242e-01,3.219425437041594229e-01
-1.518912919480948087e+00,3.286853678984523186e-01,-1.989352381534600367e-01
9.649297522457235265e-01,3.270484951826413966e-01,-2.534559711590499975e-01
1.694526055244882867e+00,-7.204622908498209410e-01,4.194009116404170401e-01
3.511595681502046040e-01,-8.027234952520617695e-01,-1.210505176646174269e-01
-9.379896433240718645e-01,-9.427134995749075763e-02,-2.304296285253641940e-01
1.443194924487317454e+00,-1.337609507189824631e+00,7.364670713347619690e-01
-1.598522340272925613e+00,1.172370205868864534e+00,-1.128743767776280438e-01
1.285316843521298047e+00,-7.264602867432276012e-01,-3.696927415455762977e-01
6.890075889787439234e-01,-3.046122835997991038e-02,-7.891764305207840113e-01
1.404454002977276295e+00,-5.654424821718895267e-01,5.648498971934299284e-01
-4.542302887240040610e-01,4.182176598876325979e-01,-8.911659445015263081e-01
-5.692267128222623374e-01,-3.529090929151441070e-01,8.567709267858396593e-01
1.326382826423481376e+00,-7.252071935606917430e-01,-3.627962408356839585e-01
-6.608566601106822258e-01,-1.397740809777797411e-01,8.244435284026945254e-01
1.576164421528111426e+00,-5.736204193938356788e-01,-3.475166781981853803e-01
8.782874037957352220e-01,-4.081492376246074159e-03,3.872276014520826815e-01
