-5.744020570743015863e-01,4.441701074921586390e+00,-6.013615463445012743e+00
-4.948556724689140651e+00,1.329603696976374261e+00,-8.102263297993516744e+00
-2.547789856984146173e+00,-1.106470056535366897e+00,-6.634562760472835663e+00
-5.966514644725282146e+00,1.065832693726433300e+00,-5.078203022991023552e+00
2.928345710745708708e+00,-3.989056152907685115e-01,9.483341114156811358e+00
-4.825403772124908564e+00,-2.032725143563258285e+00,-1.702158429442311438e-01
-1.676004450910626664e+00,3.912894266921982833e+00,-1.181311863380017613e+01
-6.211159589485792942e+00,-5.660532060273668620e-01,-1.304499083502713708e+00
4.563625415626818338e+00,1.795509792946540673e+00,1.496890049838451642e+00
3.260510537354564864e+00,-1.626753919717021768e+00,-6.737752629220604916e+00
-3.313291772722485096e+00,3.042201530387198982e+00,1.945607394176706917e+00
5.918625317858898782e+00,1.742375159989314914e+00,-7.644561835154010332e+00
6.177943487977701764e-01,-4.354259246536326344e+00,4.962488027256754641e+00
-4.260578333537681672e+00,3.155460416443936822e+00,-9.343522886875106792e+00
-5.736899299570422883e+00,1.577280733711249994e+00,4.196048767423363302e+00
-6.650457594390912774e+00,1.120240629974349922e+00,2.701572712795746511e+00
1.235119844907040632e+00,1.468681850820355628e+00,6.849406384495522637e+00
9.032722164119375563e-01,-3.162744409351083696e+00,-2.080287588793932496e+00
-3.432755735609285264e+00,2.702229140740493474e+00,3.221725802233185831e+00
-2.462222778931522083e+00,1.916636768278648484e+00,-1.182905586162512357e+01
5.292574871356177546e+00,-2.972987430690544386e+00,7.101607878699067733e+00
-6.733222886001908769e+00,1.370708819551463842e-01,-4.905903799772998175e-01
-2.742410686375764239e+00,-2.463667764689529971e+00,-2.193536849837518066e+00
-4.332498797214017650e+00,3.673967874714145765e+00,-3.548675947633819661e+00
4.715865583015220963e+00,-8.643249906480843237e-01,7.957173915378502826e+00
4.266774506924670973e+00,3.083233789988725881e+00,-9.369464681668778994e+00
3.802746026110457311e-01,-3.555302011880838720e+00,-2.204158690428191514e-01
1.415360286944305157e+00,3.117749329120924173e+00,-1.318606095615721685e+01
-2.113168055990296335e+00,4.209605474692795113e+00,-4.119677261368936527e+00
6.154565564636192754e+00,1.533928201861549656e+00,-5.846422607837033603e+00
1.162212398449618878e+00,6.976339111850877739e-01,-1.191309698831553732e+01
4.502509020642380122e+00,-3.673538928302952478e+00,6.180201061586030775e+00
5.748488533616278318e+00,1.802587412308251480e+00,-2.122095164338429374e+00
-5.346558156777878601e+00,-9.691658061279890823e-01,-2.778336965750308085e+00
2.457677537126400580e+00,-3.335305189436040152e+00,-1.242596327721725569e+00
-4.424601977243976414e+00,2.573628009783178960e+00,2.608894405602963040e+00
-6.538093952647368923e+00,-6.792645401731709498e-01,9.212614615834188170e-01
3.396411100292992202e+00,1.129193100940793171e+00,-1.170832347476894597e+01
-2.295360237230275491e+00,-1.740964071297818494e+00,1.289928788907453949e+01
-5.365751708219981708e+00,2.261422736196268879e+00,-7.610966730213570841e+00
-6.721775993263568338e+00,5.681240351584680992e-01,-1.243528489946009508e+00
-1.740116221717486589e+00,-3.175982965728751051e+00,1.319430812236743478e+01
-2.564581718934942689e+00,-4.656255643977447178e-02,-8.886272691536314383e+00
-2.136518604798581134e+00,2.545223455053092554e+00,4.371933952010258473e+00
4.016657067380242196e+00,2.955184778182993632e+00,-1.111316795494124321e+01
-5.344722989997288565e+00,-2.557188495989919819e+00,6.583303055029980477e+00
2.335889820909037073e+00,4.114986041035167297e+00,-9.339763803937467301e+00
-3.431145172453667236e+00,-3.562545708229890806e+00,5.100976383673772929e+00
2.272728437112173872e+00,-4.456810733931007462e+00,7.540223526859905157e+00
9.995290530570103416e-01,6.032814999624833696e-01,8.976973876068271352e+00
-7.967975515054331881e-02,-3.713834923586415648e+00,1.305946455440407838e+01
2.488088087020333683e-01,-1.219613926361950096e+00,-8.181965052976243769e+00
2.751758998717609650e+00,-3.862324871652234481e+00,1.083255161974244096e+01
2.679610439039848746e+00,-4.267562524851764572e+00,5.245908788970486292e+00
-5.162293452956626894e+00,1.602224118541748787e-01,8.354540810279099006e+00
-2.908458165168078313e+00,-3.146885307576337887e+00,1.233664284304501813e+01
-3.522449389749223947e+00,-2.518569166111485624e-01,-7.512148258602987738e+00
-2.923702884375093625e+00,3.504209669201737931e+00,-1.131119735945535254e+01
4.443862136629523008e+00,2.508721240183872325e+00,-1.098840070839396077e+01
-6.495134929932971701e+00,-3.440807358676763461e-01,-3.026472193047660131e-01
-4.500770180833192136e+00,-1.322448070654425489e+00,-3.472925360808518214e+00
-4.543762650410417159e+00,5.198960830829120472e-02,9.256413909653677052e+00
-4.177101935833285040e+00,3.247483989577028662e+00,-9.247117116264375269e+00
-8.644045314824588822e-01,-4.474834818812827741e+00,7.961500770229150703e+00
2.117588373264920776e+00,-4.439301618438276975e+00,7.263479103778972323e+00
2.216714292736509773e+00,-2.286825795552996698e+00,-5.302574876808951565e+00
1.652975099731138542e+00,3.419698007019638109e+00,-1.297824346032379594e+01
-4.804884867613683497e-01,-1.768226634116465634e+00,1.304496950193791704e+01
2.608885082544035061e+00,3.980920254170397854e+00,-6.102852664947802097e+00
7.381529416555068224e-01,-1.118420633567818623e+00,1.203725573821479422e+01
-5.054622576619847152e-01,4.261105719739259889e+00,-4.124199099564732407e+00
2.264313997723211846e-01,4.210794965572267401e+00,-1.129587790296710104e+01
5.714524628275282403e+00,6.839355239637225914e-01,2.565963659264427932e+00
-2.279163249829070814e+00,3.818554319323762769e+00,-1.165350861585265640e+01
-2.254300112162823666e+00,5.280847703189945896e-01,-1.040302579925862858e+01
4.196106293206386617e+00,2.469430947275279120e+00,-1.117013890178635194e+01
4.749240057440151652e+00,2.003983553170223697e+00,-1.053875515766377724e+01
6.061162787789304396e+00,-1.512212023297076158e+00,-3.567252363585995401e+00
2.417507198254088774e+00,2.858528816582096788e+00,-1.286919949455068135e+01
-9.703079148875758397e-01,-4.234864920227731311e+00,5.308194434573409559e+00
-6.006859246292136412e+00,-1.819120527388971231e+00,4.434662408740424944e+00
5.014418375778237014e+00,-1.103127688897076242e+00,-6.625744539455438620e+00
3.613037758633598440e+00,-9.917452311941861443e-02,8.207957756653312842e+00
3.280540585644800000e+00,1.861917120220061284e+00,3.580676267294001125e+00
-6.733058888004531006e+00,-7.438729004830333391e-01,2.740757994463260516e+00
-5.419706506691370329e+00,-1.908499239394882085e+00,1.084223662354343087e+00
6.210492765930132997e+00,-1.050123437665300585e+00,4.336849891522741807e+00
-2.704665386393851456e+00,2.168479482318526941e+00,5.324901150583886356e+00
3.740161091529281112e+00,1.670632626366132856e+00,-1.203646551422910704e+01
-3.644380943742652423e+00,6.107270925424764657e-02,1.011360519881086795e+01
6.194246107738472507e-01,2.938114200274012933e-01,-1.124370979574971940e+01
-1.979895351380253521e+00,-9.519925169349152672e-01,-7.510492493450251494e+00
-2.878023103125859183e+00,-9.113660153459577362e-01,1.192935629234792394e+01
-1.701055923432808425e+00,3.983424076307696016e+00,-2.021972963541804003e+00
-4.112475285139290726e+00,-7.298478252074289685e-01,1.080050588392982114e+01
-6.632163341975767068e+00,1.057556571553054825e+00,2.814042689208039238e+00
-3.316306466173368772e+00,-3.534642411978044407e+00,1.067213515171279070e+01
5.734848420818591253e-01,-3.128467569255487302e+00,-2.266664974046124215e+00
1.765004170997956479e+00,-5.320835111627150171e-01,1.073961062320037030e+01
9.813961704338905467e-02,4.278880053765664826e+00,-4.441005379339873826e+00
6.166068378176190024e+00,-1.823746525548419539e+00,-1.733062836686829700e+00
-8.426701890728415245e-01,4.539245665697473342e+00,-9.102331408566243454e+00
-3.247616439026327129e+00,-2.370232500207157145e+00,-1.703902918047421222e+00
-1.827581727458147620e+00,1.623700760600087944e+00,-1.211250074231862150e+01
4.832605581523671923e+00,9.644267795408782984e-01,-1.016650969073380217e+01
-1.478547201917978615e+00,1.239826423055305077e-01,1.066304390904490518e+01
-2.094985013652985728e+00,-4.021167503375980168e+00,1.032288788121135603e+01
1.903784542879005892e+00,-3.617532939589413576e+00,1.224380226283531137e+01
4.933028852057540270e+00,7.418754662646238618e-01,-9.738268903126137133e+00
-1.592591207811008713e+00,4.463791363573382576e+00,-6.733735477633699951e+00
4.259708083604762940e+00,3.286537520861879003e+00,-7.500926804474924658e+00
5.562202115410856074e+00,-2.883892285615676787e-01,-7.468699814999354203e+00
-2.333501532284290914e+00,2.462745176488588594e+00,4.640318365337605222e+00
-4.779196821413215446e+00,-1.850925137926568320e+00,-9.093205147619973783e-01
3.817759814222874137e+00,-2.445155708101284464e+00,-4.004036716729098444e+00
-1.862106981394795913e+00,-2.646563583298349620e+00,1.335753629830616873e+01
-3.155160254672793485e+00,2.062401680844708984e+00,-1.111174216287925098e+01
-1.932192687853076629e+00,3.734421146778613476e+00,-5.658925347098966441e-01
-5.468845907291532971e-01,-2.497416645704268134e+00,-4.131692640865366251e+00
5.047145893338995215e+00,-3.235526648033722363e+00,6.806247922149267104e+00
-5.954634520709564782e+00,6.017749479759204601e-01,-4.520974902725056310e+00
-2.173641833442483406e+00,-1.302623153249692578e+00,1.254337540370913295e+01
-4.166959474824293075e+00,7.292462345609832530e-01,-8.619492162967745230e+00
-7.319273853973482513e-01,-1.107563729869265323e+00,1.236460261003463046e+01
2.757885749965902633e+00,1.148952883666728014e-01,-1.072703137061429679e+01
-2.952454909256409188e+00,-3.901662455815726460e+00,9.323707462385501188e+00
3.766262245040580048e+00,1.320331911680858727e+00,-1.167776231559581213e+01
-4.976754238807611586e+00,3.499826593390126916e+00,-5.187700496258067950e+00
-5.375048325302790531e+00,2.995067413338441953e-01,7.579270156664988711e+00
1.304026357361222743e+00,-1.602809945282154258e-01,1.036383729375201490e+01
-3.929545956434711496e+00,3.718395336374843652e+00,-2.386069947620526044e+00
-2.441191871121432655e+00,3.939967348013478365e-01,-9.975211202057744586e+00
5.963053104684440164e+00,1.449683339925254666e+00,-1.485898514966268014e+00
-2.227487207082351706e+00,3.066205707377661849e+00,2.544687560896822909e+00
7.042622700620576603e-01,-9.432070761341819765e-01,1.196156032013848858e+01
2.759382879968363067e+00,-1.696292150146692768e+00,-6.857962228352690204e+00
6.658993299985299430e+00,2.883994293172954526e-01,-4.304405857909803679e+00
6.746085054820060378e+00,2.472965077629940001e-01,-4.082753579230748997e+00
5.110733497052690311e+00,6.903866595206367140e-01,4.081452403509813642e+00
3.529433948028261714e+00,2.136788582477654685e+00,2.428564752084775513e+00
4.062130449570634100e-02,2.077039858309710496e+00,-1.316242370189089606e+01
3.201736844221346967e+00,-3.393088902633126125e+00,1.115921909371796339e+01
-1.617823384201377168e+00,-3.461858779180559953e+00,1.278521763639390940e+01
-3.151145819005551907e+00,8.133846481295228248e-01,-9.989785176700529234e+00
3.050975317205248949e+00,2.463599347626248104e+00,-1.270885845322437824e+01
-6.644223123286360888e+00,-5.448438463107273533e-01,4.229579096828224749e+00
-6.019298206349002811e+00,2.144849181374698599e+00,9.195890831116242392e-01
-3.320100990889295556e+00,-3.586754661169386349e+00,1.000520466952172782e+01
4.239525458364270527e+00,3.152157474723154884e+00,-4.798167265396095615e+00
3.091742873732687968e+00,2.501698195343312392e+00,1.640290161969766070e+00
-2.389219563597234863e+00,2.275590394865532051e+00,-1.199861242152739749e+01
2.787709859661453127e+00,-2.046389292529186221e+00,-5.890204951638837727e+00
-3.538930783212829834e+00,-3.600748865202924254e+00,8.361818293371658939e+00
5.840690341878484126e+00,2.572295047601977913e-01,-7.861249415810299901e+00
5.190442875677288015e-01,-4.183611015148778201e+00,3.117231659665383070e+00
-9.272951504224343777e-01,4.228911384288510433e+00,-1.110023805682621756e+01
-4.821211661775585355e+00,2.253348546837746991e+00,-8.840423765008493362e+00
5.664233493384175588e+00,1.621602876221316381e+00,-8.677881808722675672e+00
-3.165534374310166488e+00,-7.268740591633279235e-01,-6.889426017283740933e+00
-2.693277088136410313e+00,2.275028146552900754e+00,-1.172602634622170115e+01
-2.807372887434430031e-01,-4.180739138120395992e+00,1.177286726136492589e+01
6.723741978402198782e+00,-1.332425761623793781e+00,8.334620539272243889e-01
-2.537419107500597626e+00,4.888252961952285758e-01,9.631706700408686928e+00
-1.002517224677228758e-01,-4.561203164047832326e-01,-9.753629285481888900e+00
3.442316230000685540e+00,-3.711260359368089734e+00,1.392736079709407937e+00
-5.975685371310011540e+00,1.397450292815433315e+00,-5.606453980120996050e+00
-5.936074695621358366e+00,2.699068607864506752e+00,-4.333038082471307284e+00
-5.281615641129338456e+00,-1.221952263747624334e+00,9.593873400327991519e+00
3.452896470747300661e+00,-3.945870172392810460e+00,9.079148581688468056e+00
-5.496696400321386733e+00,-2.434794218155071022e+00,5.166694042388799701e+00
-2.687603161197960944e+00,-3.694160721546760673e+00,1.150424179212849474e+01
-2.049089718005971505e+00,4.463133641595506518e+00,-8.592175755173926177e+00
1.850683374721455055e+00,1.676624568806422522e+00,-1.300222157539259449e+01
-2.279784742566108857e+00,4.171085805155444248e+00,-3.798060977541194205e+00
3.738476572103588857e+00,2.604314997555416955e+00,-1.180421777272148454e+01
-2.103215329607565298e+00,6.398467306229660423e-02,-9.646357007368383307e+00
8.761924040568781491e-01,-3.060299925423878520e+00,-2.363611822205226254e+00
-5.053787874396268975e+00,2.444036872925008375e+00,2.198960560823067567e+00
6.692952402838913351e+00,-5.516648125189290708e-01,1.407420199418382145e+00
7.779678693239219234e-01,3.173587066287743230e+00,-1.334507378112364506e+01
-4.840761676395894497e+00,-2.122774529193080628e+00,1.022683856578024120e+01
4.651679954229335223e+00,1.641216705952555754e+00,2.167715432713831269e+00
-3.334683981220578630e+00,-1.080003571851272604e+00,-5.773928801651800669e+00
-5.725478188953645464e+00,4.924345902596410918e-01,6.917807195717705859e+00
-2.437804523656975864e+00,-3.954241581869043731e+00,1.040886084231590836e+01
3.655251600411378199e+00,3.542705969775802988e+00,-6.449938207331818774e+00
-1.752574486464449910e+00,-2.782233873783448441e+00,-2.154275975967493206e+00
1.079236201429267100e-02,-4.043541232035498645e+00,1.207276326525386700e+01
-1.259178809358726392e+00,-4.368160605930196283e+00,8.902898791641918663e+00
6.444203970581674490e+00,-1.868027911512098127e+00,-3.737532087778506762e-01
-1.211690249349795634e+00,2.205427231229866170e+00,-1.275766304784928806e+01
3.731314323119568233e+00,3.486272796616886271e+00,-8.996313689607061903e+00
1.628277591651503764e+00,2.091884414874547904e+00,-1.319630513244563552e+01
4.213568974611813900e+00,3.274087100563229491e+00,-5.515202339441772850e+00
-2.683834593818288816e+00,-4.017424438016649058e-01,1.122395198236849900e+01
-5.261824575835603923e+00,3.063449644285670015e+00,-6.141020993902726488e+00
5.729749042290902317e+00,-2.831912407787013475e+00,3.932992771553607270e+00
1.165523885120224090e+00,4.093548723151073432e+00,-3.902000426821795376e+00
-2.439173271640890039e+00,-3.004856528839436880e+00,-2.272913461269177038e-01
2.836788628326076811e+00,6.883638754640482305e-02,8.575421980672576439e+00
2.410025801529638745e+00,3.580000938967973223e+00,-1.202174762338611380e+01
-5.880410400700509577e+00,-3.473405919335917358e-01,-3.086178897242359387e+00
6.706095058979967938e+00,-1.520508911830154464e+00,-3.862095953950953620e-01
5.070190567340208787e+00,1.490439828352795093e+00,-1.004266942818453501e+01
-3.362363471980607255e+00,3.485844411016835842e+00,-1.040455975750153428e+01
-5.841807232771559555e+00,-1.970852013902105959e+00,4.462892123627192120e+00
4.217028143302609777e+00,2.327567853124348662e+00,-1.126829489572491383e+01
1.511798764099105963e+00,-3.352457202526986979e+00,-1.370879072451987923e+00
-4.884326928521560696e+00,-1.209090593692146554e+00,1.047883359626832700e+01
1.696360480122390602e+00,3.018333339668135995e+00,1.075630015605099299e+00
1.827727465783354488e-01,-4.530065129835637805e+00,6.953064814615239619e+00
-2.633651903267493655e+00,-3.497939705813963851e+00,1.206039494465653661e+01
-2.977866853696574445e+00,3.684054323258319830e+00,-9.425450098737661042e-01
5.526750328300472859e+00,-1.763181250844985337e+00,-3.878145243645223950e+00
6.631752506299604555e+00,-1.709796801736681582e+00,4.709219465882262534e-02
-1.747940414422907374e+00,-3.925527855594904025e+00,3.754758435524803595e+00
6.702725232115178677e+00,-1.492874904107782674e+00,7.868730979583788976e-01
1.908148016470383235e+00,4.257594980579191279e+00,-7.757863322558782748e+00
-5.085291626551648569e+00,9.210154982443487237e-02,8.591429341740253633e+00
5.345051976217692236e+00,1.465945695035380636e+00,-9.358379095660659175e+00
2.963673278815496026e+00,-3.015416368327068941e+00,-2.410205450328998911e+00
-6.727014554133103896e-01,-4.016422614368701183e+00,2.813222674993018924e+00
-4.638589793364706892e+00,6.857211912707138202e-02,9.063778824194896444e+00
-4.207524124725943615e+00,3.484317034487608655e+00,-1.534051204909425925e+00
-4.206088451787425520e+00,2.589704979093860437e+00,-1.000976000912135966e+01
-3.523883474485253409e+00,3.328080174721486095e+00,6.732804007862186468e-01
-2.712202080868757026e+00,-2.213472076658128618e+00,-3.188086218134981831e+00
1.301819672855092591e+00,-4.356623789748958586e+00,1.009049584072277916e+01
9.673808893807179787e-01,-3.969251547904816491e+00,1.724633421191834604e+00
9.520375274674659494e-01,-4.338127859240908712e+00,4.730680458896757479e+00
-5.619491129319578171e+00,2.954288780291638439e+00,-5.007210588832734288e+00
-3.201810649201880299e+00,-7.859447499880060084e-01,-6.775023165297185734e+00
1.856718550899776776e+00,3.183889059269131572e+00,3.394780727956051569e-01
-5.394126446159334343e+00,3.098511029384575011e+00,-3.201727641138972125e+00
2.368949641290760688e+00,2.216096442878285888e+00,3.573487996236775377e+00
6.549424408061334191e+00,-3.906093189081712436e-01,-4.641121421424790228e+00
6.185150364331565953e+00,1.045829677794023027e+00,-5.607341528593049462e-01
7.760403966618690808e-01,4.083816678559550439e+00,-1.191542475255273814e+01
2.255283663405795114e+00,-3.764397468240063382e+00,1.155487768361654055e+01
-1.187831358317747554e+00,4.244915623827208329e+00,-1.105137906508203827e+01
-2.832844775372231449e+00,1.951704189106895804e+00,-1.137773403910004077e+01
-7.677842314438526605e-01,-1.252268009014945838e+00,-7.616126878510851128e+00
-6.748894427876777513e+00,1.227606115804749098e+00,-1.914747249809738650e+00
-1.329737032341258063e+00,-1.775533739767605423e+00,-5.831750026905475615e+00
-5.562387572142031722e+00,2.370699529226386826e+00,1.666340670291841075e+00
4.525214441027170409e+00,2.354395903807188883e+00,-3.812133766074966568e-01
-6.760944220103001889e+00,9.346955219820035632e-01,1.567614851205631821e+00
1.149784240368660670e+00,-2.890991199616126828e+00,-3.160943308560887122e+00
-3.889514906783526627e+00,3.243797477086753478e+00,-9.953762199324572180e+00
-1.417958419302896678e+00,3.477596299534369439e+00,6.275176515559636181e-01
1.908836520989777519e+00,3.624433692753639136e+00,-1.259824114309073728e+01
6.596467917025338856e+00,-7.748649710585265860e-01,2.472106871307656828e+00
-6.424184190334994327e+00,1.083478860650512743e-01,-2.080414329086758496e+00
5.940956436985403322e+00,-2.455653685427257038e+00,4.724213824547600638e+00
-2.376588822916676780e-01,4.487447526291632016e+00,-6.980121736288492862e+00
2.067670852763316969e+00,1.583023690323315247e+00,-1.272149256441513465e+01
2.817165351066255763e+00,3.003495107673370246e+00,-3.061109303242499635e-01
5.417211958435549590e+00,-1.298174854908250797e+00,-5.445700851340954607e+00
-4.178218900858723828e+00,5.276687423933076326e-01,8.597719635810461725e+00
4.260407942677449711e+00,-3.180050855686638922e+00,-2.232338097150451950e-01
-6.685445872186416949e+00,-4.766245210608364702e-01,1.416943249145577344e+00
-2.172428542535304263e+00,2.352497616022577009e+00,-1.229492560082414343e+01
1.559821907145860775e+00,-4.297643353889286644e+00,4.455792652118205410e+00
2.076264854906990198e+00,3.096669997324527746e+00,3.121337908954833762e-01
-3.834900022582928170e+00,3.645889071501447809e+00,-1.611015163734205835e+00
-4.404103454768261372e+00,-3.097907026904499705e+00,5.458420239735674251e+00
4.788056653842113874e+00,-3.652939378937759551e-01,6.746892288837046614e+00
4.022123283020586193e+00,-2.841227551045918620e+00,-1.967224353465538478e+00
4.857112904407866694e+00,2.811816422799120030e+00,-8.081249301828034248e+00
-1.539611925057801978e+00,-2.472449302872994803e+00,-3.541669509274922412e+00
-3.323053518290046249e+00,2.722519705250132205e+00,3.368867434985511444e+00
6.280594161500888006e+00,-1.277220429207625685e+00,4.074886732969476455e+00
-4.606917729343101620e+00,3.954211470187594113e-01,8.704143325659863706e+00
3.382455440787270007e+00,-2.439735416739082119e+00,1.098649721010628788e+01
-8.028621867760156183e-01,1.069955090287818544e+00,-1.195389060810713211e+01
1.783707217874237916e+00,-8.576658241276099992e-02,9.773072977503650449e+00
-9.710837387314429359e-01,-4.062569348561458682e+00,3.906495142367309104e+00
-9.940199288619707696e-01,4.464306094283006843e+00,-9.224882724933671341e+00
-6.071230365685902353e-01,4.137476280657255145e+00,-1.177201459505968728e+01
6.726245054097005571e+00,-1.171724379555823647e+00,-1.900788076598592946e+00
-4.749463591883537283e+00,2.419664371883253562e+00,2.820421284992367550e+00
6.250001635746431639e+00,1.079923530412348898e+00,-5.886436658018641133e-01
-3.145587134481585972e-02,6.273970926753860144e-01,9.277647692090305043e+00
-4.031552540276227781e+00,2.062622699848196017e+00,4.829199359566297645e+00
-1.026751389817283311e+00,-3.710002133580706740e+00,1.275096179181169909e+01
-2.966706631102243641e+00,-3.410178176653875681e+00,2.659799183427572711e+00
-4.611234382075032556e+00,-9.691109700363762514e-01,1.037777836078132054e+01
6.587441279419719464e+00,-5.835960875448706897e-01,-4.006677129482945965e+00
-2.496879460315313271e+00,1.277954487491186786e+00,8.071195658332836587e+00
-2.557779281351523437e+00,-2.815194327150174036e+00,1.295275851573609494e+01
3.727121409202534874e+00,-3.076117162535736416e+00,-1.374764183779914273e+00
-4.254797101220013089e-01,3.465156453405129788e+00,-1.297768994815175425e+01
-5.894910456338112503e+00,1.773999061604072169e+00,3.061229244808022276e+00
6.695384731699792091e+00,4.021258194201532410e-01,-9.136897410742720327e-01
3.510028600459890846e+00,-3.566937384826805335e+00,1.001612679554768270e+01
4.386403574483026091e+00,-2.301219778587014542e+00,9.593394231929330829e+00
-4.324610460847694071e+00,-3.159454494387443191e+00,9.055144880195832968e+00
1.994546258319589205e+00,1.471132357059163676e+00,-1.264792060803904761e+01
5.243316940620460720e+00,7.685891596667603354e-01,3.345570967990164402e+00
-6.177626696691436159e+00,2.395863726612277311e+00,-1.952169297139304316e+00
-5.263836917725268627e+00,4.099594312655526207e-01,-6.179284965540611019e+00
-4.303702627002867903e-02,4.171419624606077292e+00,-1.158847768931180333e+01
-5.606412298152090301e+00,2.224446993977844400e+00,-6.672266349111865225e+00
-5.675087690823992226e+00,-6.769628853946093594e-01,-2.558962288320604905e+00
-5.262021757537474365e+00,-2.080526215435275716e+00,1.380081414080373658e+00
3.798832204508570065e+00,3.317193959866195030e+00,-4.052862757838449070e+00
-4.133544111667304399e-01,4.232602956949453876e+00,-1.127687903070287057e+01
-2.638145086652862847e+00,-3.124239040699559045e+00,2.821046489598920681e-01
-5.351591406944924856e+00,2.630184653234949543e+00,-7.135088797388390525e+00
2.504884510947524401e+00,-4.361676699212559960e+00,7.003620599806670732e+00
2.132012359893028286e+00,-3.914185959131606385e+00,1.519934542228089880e+00
-4.771534189926456726e+00,-1.865483556873798632e+00,-9.661739645780913488e-01
-2.628791043156217810e+00,-3.041121877267101703e-01,1.110120243922877492e+01
-3.258990322103743953e+00,-2.363516627758359245e+00,1.244804494617856960e+01
-5.964882328357749230e+00,1.379924860870727743e+00,4.300979134872817689e+00
-4.631375222027188876e+00,3.084793224529839950e+00,-8.670516715839429622e+00
9.977240357575080099e-01,-1.967219969495653586e+00,1.284418539435788276e+01
2.755534452014095859e+00,-2.469775497807184195e+00,-4.280925901277489842e+00
6.768307182215322015e+00,-1.284383398070325089e-01,-3.461836020354763122e+00
1.085018723095925619e+00,-9.676270040068027933e-01,-8.779946410887891517e+00
-2.369697131471333762e+00,-3.913005342272554810e+00,4.750021302569896520e+00
5.435026803501285642e+00,-8.048963622443678911e-01,6.319385013775712601e+00
5.279687143570756191e+00,-2.898678181705489632e+00,7.321925068448837948e+00
-3.288162437535331883e-01,4.102543791601370060e+00,-1.204765075294285204e+01
5.845833732919158088e+00,-1.067430559914123389e+00,5.540617864613815335e+00
5.615926058147481470e+00,-2.907129168294418253e+00,2.486956486223234286e+00
5.077159212657792686e+00,-1.939402003216758708e+00,-4.043417758999652278e+00
3.348299734941036832e+00,2.225802580664947516e+00,-1.226310427709896800e+01
-4.996973328904700473e+00,3.337158370420668430e+00,-6.932477117325411164e+00
6.334033974824051505e+00,1.029189103327450061e+00,-1.427546295579646740e+00
1.315745511523490840e+00,1.870396872520523335e+00,5.541831126413558017e+00
-8.738294780927349237e-01,4.479480359475219942e+00,-6.500053106830541161e+00
-4.045264380739431509e+00,-1.310861977990908533e+00,1.134826341091115864e+01
2.335733269804663781e+00,-3.140329613055656388e+00,-2.020307506276608489e+00
9.588183780223149544e-01,2.216939349549721161e+00,-1.354278856143497833e+01
-3.382919627020300357e+00,4.786080098233769786e-01,-9.140498376125814062e+00
4.769512912880751188e+00,-9.323050024136554370e-01,-7.150929104898143152e+00
-6.123011474493650574e+00,-8.294011185473590397e-02,6.932271861172172756e+00
-7.682760622175036636e-01,3.630986415401868062e+00,-1.423986997209939764e-01
-2.606161422901291491e+00,1.241837622282421894e+00,7.997963538586915888e+00
5.154900721513229200e-01,-1.947218572707738682e+00,-6.263738501220168509e+00
2.611269780422585285e+00,-2.795988651078651355e+00,1.212021465508153639e+01
6.599106309900727219e+00,-2.128592680554050043e-01,-4.641806997185094374e+00
-3.320116391982635307e+00,-3.704540751619205707e+00,7.249654031322478431e+00
-5.880519971144500424e+00,2.747953998729356417e+00,-4.641629079452012974e+00
3.076084802296312481e-02,3.853817476401511843e+00,-1.479963420617207648e+00
-2.339076873120458977e+00,3.778109440523016893e+00,-1.147988264348835230e+01
-2.335670450079540217e+00,2.872516844291297389e+00,3.037560345934344319e+00
-5.080580300016831252e+00,1.210659840742619675e+00,-7.733129343351662577e+00
-2.818807945640358525e+00,-3.419488552670007397e+00,1.202673030918841768e+01
-6.180270360711451971e+00,1.222630520812658383e-01,-3.205595079516417645e+00
-2.660663316559069180e+00,2.397130069871375113e+00,-1.184438469581145625e+01
3.791558821294497506e+00,3.038686439159995256e+00,-2.315433833713419709e+00
-4.940052006102213511e+00,7.744075999845995151e-01,7.456964153612110735e+00
-1.118779241501808075e+00,3.554413852410652774e-01,-1.070084083946382769e+01
2.786649543931233985e+00,-3.706844605689807448e+00,8.586901577916913331e-01
5.869173003658950449e+00,-2.767544500682116215e+00,4.436164435759882174e+00
6.339678669294330327e+00,-2.044892870932433215e+00,3.634917304571071650e+00
3.663146646298270692e+00,2.269993234403256288e+00,-1.209775675546574902e+01
3.469249193968431122e+00,-4.027951887820167443e+00,4.184062109712447075e+00
2.646785558347977574e+00,3.575723103293488414e+00,-1.178801818670923396e+01
5.031625393500004151e+00,2.629700396568784626e+00,-3.713592214406323144e+00
-5.611693932476099711e+00,-6.594879475537018809e-01,8.617280895164215693e+00
-2.185912745748727737e+00,2.557337439849454608e+00,4.226016041831745618e+00
3.312953527307965551e+00,3.482255538285817575e+00,-4.066979967624964054e+00
2.293160309190587665e+00,3.775092623733427910e+00,-1.148386544060214476e+01
-6.670785897546398502e+00,-5.574178106279340517e-01,2.059338509811466267e+00
5.074062489784290975e+00,-1.873412574001626751e+00,-4.215758577968942156e+00
-6.542378821096767050e-01,-4.695107530945347718e-01,1.154098201756602293e+01
5.593449655849827451e+00,-1.807841769151891542e+00,6.798571072586867992e+00
3.494928434016091323e+00,-2.979770606703945557e+00,-1.977668056933208129e+00
3.845354347824649910e+00,-3.343179004408274313e+00,1.011441189772798843e+01
-5.060155470789926113e+00,7.323000092238468595e-01,7.337691301667322641e+00
5.370797160583093977e+00,-2.873467779049292403e+00,6.170145356651322022e-01
-5.315672756695548173e+00,-3.436624859508645158e-01,-4.446362010119498720e+00
6.677531702073691733e+00,7.307705948560733189e-01,-3.532366933524639929e+00
-1.671791379418809953e+00,-1.384390174360796699e+00,-6.624853485576587708e+00
2.181404880142291614e+00,-3.633981008449165717e+00,1.167524806597997866e+01
4.098209119240035392e+00,-3.190417212581006634e+00,-4.575651613303436949e-01
2.148331054559148967e+00,1.975487831796565841e+00,4.536329864805103362e+00
4.585300707260354103e-01,-3.941719741749166062e+00,1.922677029112160652e+00
-5.402569847739942865e+00,2.352459765367195921e+00,1.941220585960939271e+00
-2.194465422061906423e+00,3.062180390810458785e+00,2.291213288134891890e+00
2.721895397339410216e+00,3.966909878614770069e+00,-9.742582402385727036e+00
3.689784240443874985e+00,-9.483502231876363153e-02,7.966502156450662397e+00
2.685883303776433806e+00,-4.149815586997537942e+00,9.702397301713732602e+00
3.670032806696737371e+00,7.410850260155422697e-01,6.232681195873561286e+00
5.138264772186830420e+00,-2.064463937611070943e+00,-3.610010311599158417e+00
6.471395500098788389e+00,-1.280616908879124605e+00,-2.571283451286743738e+00
-5.509370172041424318e+00,2.671378807896439778e+00,-6.645743172834010615e+00
-6.310969962631419961e+00,-1.349837624759677501e+00,5.608726271201514457e+00
9.002995111593096178e-01,-4.307129694851147939e+00,4.233585140746376041e+00
5.365128860906853703e+00,-3.146367890869528061e+00,5.244227594283968230e+00
-5.567193889517080052e+00,-7.278748178874311359e-01,8.597270914449451240e+00
-3.345110830829194914e-01,-4.451501065131681756e+00,1.026351424411739011e+01
-5.411630693572790918e+00,-1.207460395626797078e+00,9.508040469649495563e+00
5.506067431844376081e+00,-3.104797883936557312e+00,3.188502699321448031e+00
-6.650363699719695099e+00,7.208431690309354822e-01,3.112180151615283830e+00
4.605406324261591244e+00,2.224692893299376362e+00,-6.807028710129578442e-02
3.770984063555182342e+00,-3.203452228871550123e+00,-7.167204814312825301e-01
2.706868758320117863e+00,-5.154712582360999190e-02,8.990866634390032530e+00
6.664485226558436892e+00,6.016662570915990438e-01,-4.982724321924524524e+00
-2.996963904745853391e+00,2.986406704111428834e+00,2.240593727276402269e+00
4.058971299867264459e-01,2.912829254186954042e+00,-1.338697924268712391e+01
4.857568877007504837e-01,2.530584378242950461e+00,3.988245980041318806e+00
1.983850909275804986e+00,-2.945977115476155817e+00,1.266160374345622941e+01
1.167375199722640033e+00,3.242553518420655312e+00,6.291138473133122133e-01
7.878892245414190754e-01,-1.710593534194158716e+00,-6.834950307207156683e+00
1.948397447796937021e+00,3.635772994898784916e+00,-1.238856122941676219e+01
3.376181961828226719e+00,-2.935082424357529529e+00,1.098131464282052683e+01
-4.530269458739011768e+00,3.513672175776080042e+00,-2.444637887035527868e+00
-4.394459397564832948e+00,-2.986242337083546694e+00,3.607885396117560095e+00
3.621434430488150724e-01,-3.962308713106280411e+00,1.253444993091965820e+01
6.798959976408415429e+00,-7.391582268271359446e-01,-2.709204344384649410e+00
-1.855847198693911571e+00,1.030240436794236825e+00,-1.132778457509275860e+01
-9.505899687472482151e-01,-3.022998934274331528e+00,1.348399188364384749e+01
-1.911658199159099070e+00,-5.057050504143643099e-01,1.151561726700430732e+01
6.190446123178991122e+00,-4.411768798537817338e-01,-5.538936582348092053e+00
-6.184246998804431961e+00,-1.018436505795324631e+00,6.963566023116933401e+00
-4.481608536527958542e+00,3.049561078568756134e+00,5.330206990417022395e-01
-5.152441652263490823e+00,1.602608423455539555e+00,4.869566711507149925e+00
-3.041062433459867265e+00,-2.136978758243905485e+00,1.257739394329090921e+01
6.737732020587509751e+00,4.513506853855001055e-02,-5.667514096036854188e-01
-2.530918793848552006e+00,5.725046039815363530e-01,9.508722324771973433e+00
2.848731971146527986e+00,-4.194184125713207756e+00,4.662738261135303652e+00
4.539544679351580569e+00,3.085761149854237217e+00,-7.000477609348497054e+00
5.099002653003970487e+00,-3.272414419253091289e+00,6.365453012741578931e+00
-4.769367672333492791e+00,2.682481701326493440e+00,1.749979174738042209e+00
-5.701264075499445028e+00,2.484013560750400806e+00,1.704266957085028289e-01
4.368318058420725514e+00,-1.222323274287056893e+00,-7.095730710975407973e+00
-3.587973219969061489e+00,1.373637035199213985e+00,7.246933491909344660e+00
1.734517711352378644e+00,-4.401246217803730154e+00,9.556727053492437562e+00
-6.675161707628356034e+00,-5.799444886719168357e-01,3.939705748562043919e+00
4.202593335655206097e+00,1.835099810039676482e+00,2.286102328470036138e+00
2.264241185297198644e+00,-3.671717439802085536e+00,1.160220483110488665e+01
5.021842908818003437e+00,-3.351879173122420674e+00,3.582229741660092781e+00
-1.937367565154172189e+00,4.459679103942999490e+00,-6.791056139077978671e+00
-4.669613116947679998e+00,9.865988324420957856e-01,-8.013845015366396041e+00
-1.229764708227959025e+00,-2.138142789972949931e-01,1.114212300208541073e+01
-2.891383238386378007e-01,3.134034464149863197e+00,1.999507004384554198e+00
-3.869711657870654076e+00,-3.048271694745257943e+00,1.096865388829806953e+01
3.968511030052392474e+00,2.670445988773748613e+00,-8.882997912363373993e-01
-4.985341625845038926e+00,1.244923296718577932e+00,6.379683499524651857e+00
2.976845185638774982e+00,-3.386173584936591041e+00,-5.031485643512207950e-01
6.830597567853136987e+00,-1.000918279578820111e-02,-1.529069429244826139e+00
-6.231742437315402228e+00,2.374420408271282312e+00,-2.129363776076269144e+00
-3.669921949448236465e+00,-1.394960791783973475e-01,1.036003279908606522e+01
-7.354130020479507923e-01,1.896785922368653621e+00,-1.288686954918304828e+01
3.625111219863262235e+00,2.773719676727272709e+00,-1.192056568515730675e+01
1.997463284813427054e+00,-4.331264921947716395e+00,1.006031311083850710e+01
-1.469261199487012171e+00,4.136229980727038402e+00,-2.928024044996714093e+00
2.348285223841047209e+00,-1.721007936658837778e+00,1.165543894232200728e+01
-3.131285485691451598e+00,-1.895888879277916272e+00,1.240012175791706284e+01
4.894227281839079069e+00,-3.134883927861679798e+00,7.736746308299428776e+00
2.485537669797392102e+00,-4.075066321589257079e+00,1.016298329341395679e+01
6.157220116904948526e+00,-1.752936395050047613e+00,-2.098468048465309543e+00
-6.026636654220308920e+00,-1.850745644856725214e+00,4.950574574714119436e+00
1.069228091657864699e+00,3.838520565744533819e+00,-1.252072023874843687e+01
4.295206542566930019e-01,4.051247123965844743e+00,-3.083262048204734374e+00
1.997454672982246437e+00,-1.651754571606706135e-01,-1.037106204069922732e+01
-5.683279672923673864e+00,2.876982914837419525e+00,-5.099231100962067664e+00
-4.065311171143737745e+00,3.904008094275020380e+00,-7.413432956575538135e+00
-1.052628536197229403e+00,3.581255784841304912e+00,-1.273416013943333347e+01
1.199755361024318567e+00,4.238951345410968408e+00,-5.162045764418470739e+00
5.430988988830323549e+00,-1.872883365255582966e+00,-3.507336042919154906e+00
6.721480041309487952e+00,1.707320911208229097e-01,-4.476071235566926099e+00
6.160775101770113338e+00,8.260559360884219826e-01,3.508711356586232677e-01
-3.459425739039753367e+00,3.523484787117218797e+00,-6.315941892994264562e-01
-4.035717056115343482e+00,2.826062441346183007e+00,-1.006252143595765070e+01
-5.980522722555174475e+00,-1.916833394181574723e+00,4.062146585040920854e+00
2.143698408878111472e+00,-4.307008647441063154e+00,5.102683938931014573e+00
4.957084121124118781e+00,1.526214475899406287e+00,-1.013969938370215296e+01
-2.861054234452644618e+00,1.051683787993294983e+00,-1.060507648968014571e+01
5.841407118891317474e+00,-1.750125252491912198e+00,-3.399059604385402000e+00
2.802514293347014185e+00,-4.187548638912396370e+00,8.997130988088262171e+00
3.135443910500515408e+00,2.626008112622973734e+00,-1.262477420842156661e+01
-6.478242888597808502e+00,-2.964685724203232620e-01,5.849451048701517664e+00
2.850259717189369546e+00,-1.619871512781490441e+00,-7.066435090605541092e+00
-5.629263595923803543e-01,1.744690719915293828e-02,-1.052027485286024699e+01
6.477133187147258830e+00,-1.899141111472227861e+00,-2.448935991515108490e-01
-2.334754481440611595e+00,2.086316905667769117e-01,-9.611432711212446023e+00
1.224815673155952300e+00,-3.804604180279607117e+00,8.494768989370307111e-01
1.583064178134274025e+00,-3.513057555397006482e+00,-6.023117934616523117e-01
2.188180022714472095e+00,8.847420049247732843e-01,-1.204956006591594431e+01
-2.858383405733428528e+00,6.872169010688934376e-01,9.245459764539004865e+00
4.842492018335242676e+00,-2.151715070560447085e+00,-3.766386339652594728e+00
1.456904480155922554e+00,5.235991913664590491e-01,-1.159092638695710065e+01
-3.659503175301924427e-02,4.188267840745245607e+00,-3.529039284180378377e+00
-1.854355013017091824e+00,2.318746845542022150e+00,5.224626458904515047e+00
-2.179570614671774376e+00,3.160099567732710391e+00,-1.243080973522823207e+01
-1.748171094674776604e+00,-3.943495407060623403e+00,1.151344046328137694e+01
4.161187575430402852e+00,3.388930638427528397e+00,-7.747251793105200512e+00
5.939153837032126404e+00,1.664780072095455088e+00,-2.018248739558415217e+00
1.892261157803991345e-01,-3.776206949832873194e-01,-9.997298366694819194e+00
3.973537234373270444e+00,9.735995433832049795e-01,5.322776201428951914e+00
-6.726416292650436723e+00,2.201400119406001984e-02,3.165845858179812122e-01
4.252257581913259088e+00,3.312105787475376761e+00,-7.976054176191860634e+00
-6.389884983594408041e+00,-9.009868196664925222e-01,1.383643307554139446e+00
5.242827071821964502e+00,2.160703167747897613e+00,-8.963640799552964111e+00
6.852462917466751735e-01,-2.189604692838028832e+00,-5.483024142506019771e+00
