4.844798783408920784e+00,5.160522268695812542e+00,-7.879973126740674516e+00
3.413925048733043255e+00,-9.400470695361695661e-01,-1.307143801291095464e+01
4.622313574425996663e+00,-3.180401278239163521e+00,-8.470979334562107610e+00
-6.207388160316114067e-01,-1.355717860725470514e+00,-1.107016158594372257e+01
-6.923481065427474768e+00,1.589183316067915186e+00,1.210131922497220103e+01
-4.032761674300770594e+00,-4.599088896311905650e+00,-4.165978926602074139e+00
9.873376805511822951e+00,3.400373207211174087e+00,-1.433872777754336170e+01
-4.445360458088333466e+00,-3.254798306464840696e+00,-7.118123353810704934e+00
2.460179580834323421e+00,4.321662186661807681e+00,5.266639207297794556e+00
1.033406514391972131e+01,-1.703927034488083025e+00,-2.719316537672541667e+00
-5.702540127523866964e+00,3.086957424908309378e+00,-2.425408124936899501e+00
1.317743197653294907e+01,3.773710845693162952e+00,-2.168038149543393356e+00
-3.736157435741741306e+00,-5.139038853001723695e+00,6.882804691978289924e+00
5.013695319288371977e+00,1.663265744089122533e+00,-1.422709825035661346e+01
-1.005485707475730806e+01,4.269464061702611946e-01,-2.120761558268687175e+00
-9.298082181642522315e+00,-6.997090796238737420e-01,-4.288106939912945670e+00
-6.155087641487506644e+00,3.199357132898621003e+00,7.269814366400014549e+00
3.576755331299712903e+00,-4.175268186362933953e+00,-1.439608250905626170e-02
-7.069290027352677086e+00,2.718381310477472113e+00,-1.198594628183926591e+00
9.507194521971086942e+00,3.929133268682448721e-01,-1.442655597213420116e+01
-1.757065299076673970e+00,-1.268111038153284964e+00,1.301868748029609790e+01
-5.907534045056517691e+00,-2.409936169275904483e+00,-7.091130482618719810e+00
1.073562641925686345e-01,-4.615759111061169762e+00,-3.925102138813389985e+00
-1.121604245436571556e+00,2.965732370591847467e+00,-8.914729711445650295e+00
-3.569834029677370513e+00,1.467848694639948492e+00,1.254304885095435296e+01
1.314401659771237618e+01,4.782976669287046789e+00,-5.903123371947602394e+00
1.235049291927743820e+00,-4.704536241642559347e+00,1.397229581032197743e+00
1.436614760633454857e+01,3.340595825123426899e+00,-1.236240959223004054e+01
1.475052488525590677e+00,4.469047624312449507e+00,-7.483015738794280836e+00
1.158589645242164856e+01,3.774228848935730518e+00,-1.389506426877807066e-01
1.325440837338557110e+01,9.855527020850564368e-02,-1.054499826018853703e+01
-1.429462377297748610e+00,-2.616646966649454953e+00,1.160680251579759492e+01
7.313099587250778910e+00,4.387777255193317849e+00,2.946510466039948373e+00
-2.032619787234002384e+00,-3.634490947044889619e+00,-7.548727977420885082e+00
4.219524024119333028e+00,-3.731872244672258976e+00,2.367149084275973259e+00
-7.355271757300831048e+00,2.103079886777134977e+00,-2.710310059471574995e+00
-7.029009123817000493e+00,-3.291433679036197990e+00,-5.261104899408563185e+00
1.508453018078580676e+01,1.550067736318057943e+00,-8.317794655339989518e+00
-1.515606486887780768e+01,-1.835707375774450867e+00,1.074884711057761066e+01
2.342136583239525560e+00,2.198933573329789892e-01,-1.333140035128426071e+01
-5.199080767549682847e+00,-1.902041853838494223e+00,-7.952833369485129644e+00
-1.467216559387514607e+01,-3.541374972000700172e+00,1.207359719077331839e+01
6.734291029505404147e+00,-1.991771601638882228e+00,-1.101798208274438728e+01
-6.996401068217307007e+00,3.119145006693389011e+00,1.225549103280742846e+00
1.472723822469798094e+01,4.326379520465209794e+00,-7.776653376958225117e+00
-1.139080619068395883e+01,-4.777273253057254365e+00,1.993069842832538852e+00
1.109366926569434497e+01,5.456978059871011588e+00,-8.118552316858888673e+00
-7.864475341774293859e+00,-5.578928157093966611e+00,2.787892011040101536e+00
-4.804199805683995628e+00,-4.374692725964941076e+00,1.100855458202350157e+01
-8.413965039789253808e+00,2.165933650250348563e+00,9.383573958636279855e+00
-1.285993167797296266e+01,-3.658680950881623595e+00,1.375216694550167595e+01
8.891108697830189200e+00,-2.444914011000280496e+00,-7.187282010621411921e+00
-7.851283270702875683e+00,-3.031408893076394051e+00,1.442984465356868640e+01
-2.087880608048765740e+00,-4.212092094883973736e+00,9.137293385227645004e+00
-1.353790065816820309e+01,-8.296488438186290226e-01,2.925579442377616246e+00
-1.490195374155748986e+01,-4.035795706453399134e+00,1.009966274904171968e+01
4.446568835960693633e+00,-2.483648777225110571e+00,-1.056234951814999334e+01
8.246663183100963579e+00,2.428818768318574239e+00,-1.493252072531734420e+01
1.508521624660961713e+01,3.895375485853291408e+00,-7.084453949884940371e+00
-5.787784819265739955e+00,-2.952608527490843571e+00,-6.510808111664766251e+00
-4.499629942424662188e-01,-3.869486055546253578e+00,-7.266961580523012998e+00
-1.386091472764838528e+01,-6.454809000163975741e-01,4.432818500924232907e+00
4.976781498741786436e+00,1.830078121911555611e+00,-1.408509959529697575e+01
-8.211521846699673333e+00,-5.538437263834976143e+00,8.357031911697603732e+00
-4.669339846885814715e+00,-4.439423487587243145e+00,1.058534845342842701e+01
7.984661216665368322e+00,-2.838768062125325287e+00,-2.130636929185506734e+00
1.432243646683100025e+01,3.862514276403777647e+00,-1.203607444208663502e+01
-1.357937227142595837e+01,-1.171540790139161903e+00,1.266972837793163720e+01
8.040823955995792360e+00,5.727858713403013446e+00,-4.697962373352710053e+00
-1.150279633587931016e+01,6.158460789524601575e-02,1.266565925748374788e+01
2.995671820721906187e+00,5.145623419964132417e+00,-5.935967530354422372e+00
1.109100360467995117e+01,4.578979288505364842e+00,-1.208886796371432304e+01
2.652536929813603006e+00,3.363475790034040180e+00,7.803320585334037496e+00
9.153783678095983589e+00,3.061808012133747869e+00,-1.474141761159809860e+01
8.487389859549161031e+00,-1.258685861970008757e+00,-1.237123688532979315e+01
1.504462145456059652e+01,3.728856973481460280e+00,-7.487085705855998974e+00
1.500336628940628358e+01,3.374384449008088982e+00,-6.179002807467964153e+00
9.702569071432357362e+00,-1.482557105388986052e-01,3.018277512016157793e+00
1.503754062323831775e+01,3.401560688278032263e+00,-1.098976694269606647e+01
-5.620936807116540201e+00,-5.539457089623136099e+00,5.622940003116276841e+00
-9.938764229123037808e+00,-4.257953282240880988e+00,-9.728854788647015583e-01
1.178736059568601213e+01,-3.188979254090961168e-01,-1.082039879537943117e+00
-5.013897153162349518e+00,2.116703097455779670e+00,1.144095130462478060e+01
-9.169890487733469708e-01,4.152312093389832981e+00,5.991515460133066462e+00
-9.077563522440872390e+00,-3.256167322138762810e+00,-3.682201934762467488e+00
-5.912162665824206798e+00,-4.519448616415310482e+00,-3.585069703398815477e+00
1.613462756498760475e+00,1.389085751075648467e+00,1.059114437734309710e+01
-8.449083221916996678e+00,2.496306644414142184e+00,1.716967937833424607e+00
1.565033636619200408e+01,2.379143454700836990e+00,-8.485750351328531949e+00
-1.389276663412574031e+01,-2.008803366526907830e-01,6.130468828119228775e+00
1.212299751211905097e+01,-5.820862202548028330e-01,-1.029163725360820791e+01
6.035807912817550580e+00,-2.850938342004570192e+00,-8.811315143854619336e+00
-1.486016454381614693e+01,-1.034830307324143162e+00,8.960168959829756474e+00
-2.548687925556415435e-01,4.544399132418147857e+00,-4.988206157691510434e+00
-1.490090881153810365e+01,-1.376690270634436386e+00,6.608305324030090411e+00
-9.385238275493632543e+00,-7.657079416216188150e-01,-4.140457101595100831e+00
-1.350273963072146088e+01,-4.895816180170451837e+00,8.238603067028062554e+00
3.449724127237222326e+00,-4.273442298945496987e+00,-5.271636844987900306e-01
-9.297802798979640571e+00,1.104830449087207622e+00,1.221813874260906552e+01
3.891641245873456612e+00,5.363478155543174530e+00,-5.657100816866617699e+00
7.968318314933485524e+00,-3.332147308753351522e-01,4.989953374026032229e+00
7.756032632232003010e+00,4.857879933572400333e+00,-1.114096763594892892e+01
-8.936309341166965847e-01,-4.626876198491431502e+00,-3.980720349658860790e+00
1.045477793679326517e+01,2.044786045321938805e-01,-1.397720292399958630e+01
1.488799376184615042e+01,2.035465258192877158e+00,-5.378391433726881665e+00
-1.241565458853363602e+01,7.618125340230110787e-01,8.750149814625215683e+00
-1.189547965929794593e+01,-5.132477883690617304e+00,9.264847489277570958e+00
-1.015492585308060924e+01,-2.867030442359165043e+00,1.487170826780546307e+01
1.458239310673977052e+01,1.817667446368816497e+00,-4.791781464120325573e+00
4.616978833227848966e+00,4.728160704727953245e+00,-9.572856962136905068e+00
1.117442592699977411e+01,5.258046130461239365e+00,-4.186991510532636518e+00
1.302761816957285745e+01,9.024685378305642436e-01,-1.640193895120032774e+00
-7.444901118515998562e+00,2.961827045452745555e+00,1.319631012724591157e+00
-3.260222326777362234e+00,-4.414794567073515807e+00,-4.893704185794930162e+00
8.194099811661290644e+00,-2.308659670284843202e+00,7.338951608658800252e-01
-1.505249996242397970e+01,-2.851421001994346671e+00,1.192692282348268051e+01
8.083902822218744788e+00,4.065013258580282840e-01,-1.446506648736877132e+01
-1.929611656325875169e+00,4.276530090600815015e+00,-3.729302243809140993e+00
4.194171648078627967e+00,-4.041759029420330052e+00,-3.630887551477083530e+00
-1.637711436010663046e+00,-1.748961885288200735e+00,1.258696493201872890e+01
-1.099336891046837072e+00,-1.920731065201779275e+00,-1.036208160124609456e+01
-1.475352699643129384e+01,-1.233385303706810099e+00,1.037339142633224398e+01
4.797845870858287398e+00,-1.515391031949954170e+00,-1.259605468385214344e+01
-1.323692363259142191e+01,-4.435228942939756225e-01,1.154115609384096075e+01
1.365191840335066864e+01,3.858544903006013577e-02,-7.645943236355464911e+00
-1.170092004588640933e+01,-5.402102593970999678e+00,7.427035463192943610e+00
1.536914422945121572e+01,1.952415340849724013e+00,-7.993973306922308453e+00
-1.182861888763800558e-02,2.309045668850376209e+00,-1.105644944036241561e+01
-1.296604078908358204e+01,-8.047550136205874338e-01,1.925156538849144061e+00
-9.415524980985857439e+00,1.394651472585957563e+00,1.127799668624320084e+01
-1.945670398480523033e+00,3.303802525736412310e+00,-7.420759240882371266e+00
7.893533927307520237e+00,-1.465000219262220016e+00,-1.209628548982223251e+01
6.925178541175938562e+00,4.058672299835701658e+00,3.889551526132198678e+00
-5.294203907731618308e+00,3.594326338129965048e+00,-7.987679180370748089e-01
-1.148882152642471155e+01,2.783622064833499166e-01,1.249891648241496966e+01
9.995168820501161733e+00,-2.000533858042066626e+00,-3.299672861760660769e+00
1.070182772133380311e+01,2.441215497970171899e+00,2.267353322929587467e+00
1.056348314879654637e+01,2.442279186317337647e+00,2.579460624109899403e+00
5.165081697294383600e-01,3.307921297384946779e+00,8.666574507125869076e+00
4.565945737806039184e-01,4.494828532010529010e+00,5.032750065497006098e+00
1.322689628670554995e+01,1.411769176914718260e+00,-1.331934961994147670e+01
-7.846456655440019468e+00,-2.189448197121870443e+00,1.501933400516793959e+01
-1.408246251171131114e+01,-3.927301767792668485e+00,1.189975804928304726e+01
7.158646904231461328e+00,-1.165617201926566038e+00,-1.294927116986109183e+01
1.554516845187589702e+01,3.122227901713677589e+00,-1.008001819174365643e+01
-1.056401724875902559e+01,-2.791701560484425748e+00,-2.235498944026863999e+00
-7.049070387719281072e+00,7.364800304885620319e-01,-5.739403791384832587e+00
-1.280945618825890264e+01,-5.040014148407744976e+00,7.612784812330663620e+00
8.394026438796633016e+00,5.360069174433843564e+00,-1.565256559651591273e+00
7.873816629940282308e-01,4.739526574634324696e+00,3.721735837823072934e+00
9.685886718727843459e+00,8.892460190070731185e-01,-1.464302593091000837e+01
9.088305151762627432e+00,-2.360346215989345353e+00,-2.221100399503076250e+00
-1.132070407094785480e+01,-5.319191353577807924e+00,5.826396283772994344e+00
1.359713003137456155e+01,1.705609582727793283e+00,-1.935139292610013051e+00
-1.959018225545596570e+00,-5.144125303408269012e+00,4.955557053768297138e+00
9.791449024782490795e+00,4.188970789793135197e+00,-1.303353747937725693e+01
4.127435331105160365e+00,2.817694437893900616e-01,-1.397733432174286961e+01
1.402308850241567484e+01,3.402119448384572920e+00,-3.366303635395730076e+00
4.229817619186865052e+00,-2.926148479135943337e+00,-9.450783792202980038e+00
9.116558604428616874e+00,8.030985503494034727e-01,-1.467794404176589751e+01
-1.163962571012016944e+01,-4.507173585341504918e+00,1.248330717709710314e+01
5.762703374694470249e+00,8.213691957742733640e-01,7.827148322195832897e+00
-1.242368643386482319e+01,7.455595087486681649e-01,6.599469863016842908e+00
1.004087367799723474e+01,-1.710520352506678776e+00,-9.302589197968215373e+00
2.505926013754757875e+00,-3.585446962311546137e+00,5.989076585056186453e+00
-1.453320511142888183e-01,-9.662645809208395553e-01,-1.170167501441582125e+01
-1.657147983398545410e+00,9.524898277858216966e-01,-1.089363330116587569e+01
-1.467691654902416687e+01,-2.616354546223620403e+00,4.480017543855795203e+00
-5.363648461282970459e+00,-3.069405005815832865e+00,1.346005147442973282e+01
-1.009718369516183323e+01,-4.821629666725937291e+00,4.421700441358232259e-01
-1.373486062403495822e+01,-4.784935085036434721e+00,9.706648715243948899e+00
6.099466366015474428e+00,4.354086867239427505e+00,-1.180233404386735963e+01
1.485197466977135150e+01,1.569341067485487518e+00,-1.125932537792885846e+01
9.924965923895426867e-01,4.388598270050806605e+00,-7.323492348866550650e+00
1.523942893626949413e+01,3.670551711419455465e+00,-8.589460041273101254e+00
7.935310128406107388e+00,-1.749636697019776310e+00,-1.133579783651646622e+01
3.824437326731604081e+00,-4.077092900754670346e+00,-3.484832486403829921e-01
-7.506119128866422407e+00,1.645320775674194769e+00,-3.672897924391602231e+00
4.999816737495696550e+00,1.931196258406503219e+00,8.076304911500811201e+00
1.391514352823589817e+01,3.158461899290965658e+00,-1.315667273212084787e+01
-1.474708875091936733e+01,-3.603839716830582685e+00,5.831578040735648116e+00
1.880391035290181145e+00,4.218023119325952308e+00,6.050296321775592290e+00
2.983873198617422506e+00,-3.348695450670664098e+00,-8.422086211898992758e+00
-1.265186570324204673e+01,-7.467704687218985615e-01,8.809279268524405904e-01
-1.232152644696010668e+01,-5.161847645418656150e+00,8.989450560845339666e+00
9.471072319710364340e+00,5.490910417965526591e+00,-3.857237497636472057e+00
1.063990745657687809e+00,-4.669962672952186367e+00,-2.810314803141742424e+00
-1.169710363021780175e+01,-4.178502873391860106e+00,1.300801674556432097e+01
-9.575774236830918440e+00,-5.441077118608670382e+00,8.838294461341535069e+00
6.839234938378997875e+00,-1.414062912343076739e-01,6.581803425883252956e+00
1.159819933336195774e+01,1.156751794965373170e+00,-1.419787995200341513e+01
1.217803393640449627e+01,5.167963822218823999e+00,-6.207873601750870662e+00
1.476542550783437591e+01,2.027861356981489394e+00,-1.180729726967707194e+01
9.086249489165837190e+00,5.438253169299509082e+00,-2.321393797450729490e+00
-1.404162550803845200e+01,-3.461691951504660136e-01,8.295125632996455778e+00
7.797077914145580380e-01,1.506253132484184576e+00,-1.209799613818671560e+01
1.897894790589987446e+00,-1.253892903553026850e+00,1.035443390560781296e+01
4.382519763896754128e+00,5.573343754058411648e+00,-4.033241722884192804e+00
-1.533035484369245305e+00,-5.023175363595946408e+00,-1.553111254036404709e+00
-6.159694195944568129e+00,2.091217539722553642e+00,1.097751794056735619e+01
1.402567132434137065e+01,4.469285762411691287e+00,-1.043466497819586358e+01
-2.335003851868878044e+00,-3.025586908634426475e+00,-8.581825355075327622e+00
7.037296466902449588e+00,4.277196997066356476e-01,6.704508172876737504e+00
1.489002831013226569e+01,2.852342557947958657e+00,-5.210702751522621412e+00
6.899357966244503260e+00,2.336177644308883306e+00,-1.448393921501101822e+01
-9.783649370240594223e+00,-4.398459351814816287e+00,-7.318547818817973116e-01
1.519145939873622631e+01,3.533654159202363587e+00,-7.511509539276538305e+00
3.457450676648665677e+00,-4.126235065519973766e+00,1.326675042321275644e+00
-1.521444462863316893e+01,-2.353251880313124822e+00,5.712906749560407782e+00
-4.854534187565826692e-02,4.852574803365859779e+00,1.637751452456748469e+00
-6.168561176129240486e+00,-5.326840681679070322e+00,8.430329527936372358e+00
-1.429260839826927842e+01,-4.438214862499346047e+00,1.022491385782856810e+01
-2.524329645662250599e+00,3.772574477949341532e+00,-5.094061992883681889e+00
9.561649923534492501e+00,-7.242250770432329121e-01,2.285532569081462295e+00
6.554614051449887846e+00,1.896014990480880680e-01,7.113804643059061128e+00
-4.813914582157030608e+00,-5.581217205370754719e+00,3.264889753859788080e+00
5.819984598833698897e+00,5.906782697276895533e-01,7.817761787178808319e+00
9.031438436359843891e+00,5.659845154155429547e+00,-7.067095180236118601e+00
-1.369660467787315739e+01,-8.674115740616551440e-01,3.251869794476508702e+00
1.444997314202445260e+01,2.996839193428578074e+00,-4.276957233496543331e+00
5.844816809367054056e+00,-3.232844375064712672e+00,1.628798241122669577e+00
-2.806792358022945244e+00,-5.400189668239065099e+00,3.442218505254436067e+00
-1.375535414565274195e+01,-6.796039457571922959e-01,4.149552895940670005e+00
-3.044970344382136318e+00,2.973235240231366205e+00,-6.792674552240166364e+00
5.855047193651117254e+00,8.441704471947998334e-01,-1.461655402396832670e+01
-4.642997378232860406e+00,3.257889067128983296e+00,-3.951925875888198991e+00
1.115553128957440965e+00,-4.372294690037652032e+00,-4.937480550613766894e+00
-8.372138112673225052e+00,-4.329909811188174196e+00,1.247422168080071181e+01
-1.373294207902924502e-01,-4.834377440422622740e+00,3.981669472245201291e+00
-3.183053948158178326e+00,-5.015959263018697101e+00,6.980915394309028521e+00
-7.083729886946825705e-01,1.345539046182736564e+00,-1.132066122261142382e+01
4.088237179223537687e+00,-3.007645013121980071e+00,-9.355803725745847288e+00
8.322095482094956642e-01,5.058256955371614794e+00,1.029941028447288298e+00
-2.381698431930985294e+00,1.821408334130023343e+00,-9.417614327940796670e+00
-1.838925983563276301e+00,4.287856547566001986e+00,4.971497519320787539e+00
1.106850446263876364e+01,1.442081651417947308e+00,2.073522363886799447e+00
6.255840966229022193e+00,3.694495028600500053e+00,5.135091260530047386e+00
1.227412393079628572e+01,4.547315074243590161e+00,-1.210294688240337635e+01
-9.084638531159908936e+00,-3.007994398660150726e+00,1.460456973038298756e+01
9.490990551122463259e+00,4.117569513899415945e+00,-1.324651905374248706e+01
8.684006519798769475e+00,3.492835540090904467e-01,-1.436726534433634406e+01
7.349341847535210803e+00,-2.812029823227531367e+00,-7.625027371317445457e+00
-4.653019126274898554e+00,-1.089918959908051876e+00,-8.853248236461972454e+00
5.072277775427441959e+00,-3.541529585787825951e+00,-6.278401239460762007e+00
-7.426345819129653414e+00,1.296182243677252099e+00,-4.655140387485728226e+00
4.257760700000404519e+00,4.862631984154862863e+00,3.231607244923530686e+00
-8.200378299282984784e+00,-1.115717269362526354e+00,-5.419968007318058056e+00
4.874998350621189580e+00,-3.830162701333336361e+00,-9.058026980025438712e-01
5.978636808111872369e+00,1.857346484509311502e+00,-1.448147751415266171e+01
-2.625018634328095679e+00,4.251173580403540875e+00,-1.992266580223537531e+00
1.413626090095588417e+01,4.278013347933600663e+00,-1.149278968695735337e+01
3.851536621596733490e+00,1.706910105149950230e+00,9.081924582797022083e+00
-3.970485369972640566e+00,-2.503953091127270714e+00,-8.305707679532753573e+00
1.214296047451492333e+00,-5.780854906325607612e-01,1.118919318387593975e+01
6.152131110765526323e+00,5.245359125809932799e+00,-8.495044209415578251e+00
1.478553536381655142e+01,1.554608005793234327e+00,-1.074543513617475732e+01
2.441680877221486412e+00,5.106458182555000391e+00,1.410483877704291622e+00
1.098875576036970614e+01,-3.039574398184307080e-01,5.118788003079079996e-01
-1.292176573826686337e+01,6.688149235870197162e-02,3.991696936953685881e+00
4.850983981103222931e+00,-2.730238329786204954e+00,5.051379114229479939e+00
-7.716586946882596720e+00,-3.018562300219234995e+00,-4.999623402445422471e+00
1.018297982497208487e+01,1.043468013802544059e+00,-1.474264507927124512e+01
-2.330454625115599754e+00,-4.761179873156239140e+00,7.296200962701732351e+00
1.084564669141780069e+00,5.019867480159788009e+00,1.248356207989000488e+00
-2.641519033400161032e+00,3.324893252964916446e+00,-6.559078390887105314e+00
-9.240562234142013054e+00,-5.277280357519866349e+00,2.019567946943671810e+00
-2.344741522483137164e+00,2.041517452039446123e+00,1.127792487952892309e+01
6.360755696572239160e+00,-2.548878558976391151e+00,3.026600792958692221e+00
1.242575548882039449e+01,4.776803387821634495e+00,-3.995707751185006096e+00
2.639633178658291612e+00,-4.319059697311794288e+00,-4.042178022794148617e+00
-7.120559054510128938e+00,2.803242010191071998e+00,-9.573188518756995391e-01
1.991307817772585143e+00,1.079102182438499646e+00,1.048714118966663911e+01
-1.341411970420633715e+01,-2.629799711727893174e-01,3.721438305965781179e+00
-7.670488601592301947e+00,-8.462099882385227811e-01,1.469805233091987517e+01
1.136429985185515790e+01,-1.427819742305785344e-01,-1.263192129103919825e+01
-8.365088198213939563e+00,1.613101131119834220e+00,1.115314913187276069e+01
-4.208313148351241928e+00,-5.457386817347237518e+00,4.216569737068813772e+00
7.752389343684822798e+00,4.685791257825539624e+00,-1.138026585290534598e+01
1.080425175302594809e+01,4.113242724951895468e+00,-1.333408834803000254e+01
8.553995631132753630e+00,7.449836029611565102e-01,5.148762207943564206e+00
-7.853485265340547805e+00,1.794321917978025649e+00,-2.770751988483455719e+00
6.339930322136368090e+00,3.762235593891271712e+00,5.159732400094988236e+00
-9.706416281882304986e+00,1.841768753928096913e+00,8.657459770231749729e+00
-9.177803339842851571e+00,1.797987320755570551e+00,-1.726106348238099636e-02
-1.344120501756890107e+01,-4.044489091104282785e+00,1.253021179466182211e+01
-4.935466454574445549e+00,-5.460501373421086768e+00,8.446631650315240547e-01
-1.489486500888209441e+01,-1.935391971468822359e+00,5.798925842402172570e+00
1.048578206416712000e+01,1.263109352175355138e+00,2.786880309820496837e+00
-1.092044443588902070e+01,1.663084215582622871e+00,4.866243061404034620e+00
-1.526463613058222890e+01,-3.386707483085038106e+00,1.091797602046070637e+01
5.512976508168118350e+00,-2.915017377274363941e+00,3.389173743107989356e+00
1.234163111083202047e+01,3.139289636194804167e+00,-1.408019295666906956e+01
-9.070927980013397729e+00,5.116062173224167342e-01,-3.432909162365624489e+00
7.220876993194242033e+00,2.975594194499434852e+00,5.518383425115943375e+00
-6.344145345389337720e+00,-2.432411753175356406e+00,1.428341091558610465e+01
-5.307331981594678005e+00,-4.295948796399712832e-01,1.429242678096494856e+01
-1.286105032583902741e+01,-4.942204091276336086e+00,5.571453710818952132e+00
1.466069216851925106e+01,1.383109242164549668e+00,-1.070723391952915016e+01
1.386531320686036128e+00,3.384609713501386619e+00,8.062320848725875067e+00
-4.285078071668636746e+00,7.070474245570300686e-01,-8.738228315173371286e+00
1.300181987481581647e+00,-2.099275403406186236e+00,-1.121298832326541373e+01
1.114408818688034764e+01,4.392168306776421005e+00,-1.261909167908578588e+01
1.153026835059010047e+00,1.802413144712631810e-01,-1.265228785049097837e+01
-2.623605911263582335e+00,-3.338363799758478745e+00,-7.760531232464892959e+00
-6.036185420532375723e+00,-4.661363818391762059e+00,-3.087241640305952384e+00
7.177697392152867728e+00,5.498096516914374732e+00,-1.337383319841233487e+00
1.046044733567496898e+01,4.368996445662496342e+00,-1.270272954003291765e+01
-2.225114161529613277e+00,-5.205283822551642459e+00,-1.216752233095393043e+00
1.797972437149558456e+00,7.770414022063691917e-01,-1.298910362633906956e+01
-4.048181887822093650e+00,-4.215894673103913526e+00,1.068690984389961685e+01
1.168589006039874256e+00,-4.341925369315057459e+00,4.902811458240741160e+00
-3.191704306524650647e+00,-4.437797706023100197e+00,-4.935736066099193131e+00
-1.388065449846931187e+01,-2.061634366912382388e-01,8.197028911828088127e+00
-1.549192283476451237e+01,-3.093159159244757372e+00,9.591748725307907009e+00
-1.034339019169050111e+01,8.437962979770805005e-02,-2.173865863507912444e+00
3.981097524151285594e+00,1.500043660305770743e+00,-1.391835350656375958e+01
-1.193373495609420587e+01,-9.049792476786866491e-01,1.398916227380062693e+01
7.476167523949154514e+00,-2.773151026143505060e+00,-5.602103300386775953e-01
1.001297798763214608e+01,2.007901631379887419e+00,3.328031647477876831e+00
1.025494497195164989e+01,-1.851773836092713843e+00,-7.032822008085926946e+00
-6.431901562201956857e+00,-5.691520615705558228e+00,3.609075281479011910e+00
-1.210283135281526645e+00,1.643157382788249965e+00,1.165206833171084178e+01
-2.009896098629620376e+00,-1.148343059770117858e+00,1.319174483124805164e+01
1.135875238883345872e+01,4.141171081856530378e+00,-1.331487811777320651e+01
2.992544407934327744e-02,1.357928936854278623e+00,1.139683806314146430e+01
3.294009360292733835e+00,-1.555167123510471816e+00,8.881313626883617474e+00
9.337512107207325940e+00,-1.150998564788481060e+00,1.749358888391783884e+00
1.541110418753231315e+01,2.959998485677092450e+00,-9.279088698738862107e+00
1.796919196096790960e+00,1.892181859495672525e+00,-1.269454975452884149e+01
7.293539946040819899e+00,3.634497841462029033e+00,4.454070502726731995e+00
-4.804001196786519934e+00,3.633648007056342166e+00,5.953398085008540619e+00
5.055203787811651139e+00,5.046149921236314562e+00,-8.652383627410415556e+00
-1.529596333013362397e+01,-2.080533045402527481e+00,7.402016759400126489e+00
4.869921056439144635e+00,-3.597375839162046951e+00,1.433638832861605428e+00
1.446462402228074851e+01,1.907287260127740414e+00,-1.283692898963663076e+01
6.124327210675022393e+00,-1.615671547353283666e+00,-1.224365399746892713e+01
1.206521571223746925e+01,-2.363327004167679046e-01,-1.884741148712731684e+00
-1.293921887054215070e+01,-1.676094592266540229e+00,7.070665824188723247e-01
-1.242996071661781832e+00,4.621502830091164249e+00,-2.150615788988939681e+00
-1.094207407496770124e+01,1.564891629090124914e+00,4.701840131055489813e+00
7.299454886006809140e+00,-3.124279820721574730e+00,-4.832179541877882123e+00
-9.505833509185626085e+00,-1.498397902525053560e+00,1.515766817304730019e+01
1.108399626232324842e+01,1.701967593188952188e+00,2.059483291114750703e+00
-9.947913379365422415e+00,-5.497543682670523069e+00,5.008435995640916794e+00
-1.295275219422900470e+00,1.006467341348628697e+00,-1.115267080653469911e+01
8.531598620204088324e-01,5.081140488667342581e+00,-2.732293815616380961e+00
8.925346318087346020e+00,3.003056680498060516e+00,-1.461913994524504901e+01
-5.869591387875418675e+00,3.343891398744299082e+00,-3.637837465890496613e-01
2.929851309739351262e+00,-1.111429139478097294e+00,-1.280453399410908766e+01
-1.444785820289707523e+01,-4.405325858467565858e+00,9.984551231439494856e+00
-2.581888408731797924e+00,-2.514510609910973304e+00,-9.152638684065449226e+00
9.247269170741159172e+00,9.683143215277901783e-01,-1.480223822885968232e+01
5.430734565651726520e+00,5.305133159883410165e+00,4.204047244967465402e-01
-1.251370641902911629e+01,-9.270106156579747611e-03,2.067034306675236799e+00
9.903107050372760511e+00,-1.096275815469825554e+00,-1.148863447041406260e+01
2.433486033474154375e+00,-3.884775755104177275e+00,4.834843206671046723e+00
1.499845639621335769e+00,-1.059533220935356290e+00,1.095116779757376690e+01
2.640556585550799973e+00,1.219702237236325142e-02,1.038967720902790148e+01
1.553135433584921188e+01,3.156733997745876152e+00,-8.828408832105333559e+00
-2.878752138591938459e-01,-3.703447827114285662e+00,8.805290565390011537e+00
1.401017611558245690e+01,4.578148777125617741e+00,-9.977688518624415082e+00
8.122769553789296992e+00,5.067448320702629516e+00,4.309969988683090003e-01
-1.408588862498378447e+01,-2.083288831749509296e+00,3.024490090316124036e+00
-6.895072991095110737e+00,3.101164154477694446e+00,1.033035803924304163e+00
6.701222278419096234e+00,5.537048958028872647e+00,-1.882672255429258312e+00
1.332489617658855607e+01,4.747987377151901889e+00,-1.010028486566194417e+01
-8.350084127183594163e+00,-3.053256662300087410e+00,-4.340487319975136593e+00
9.500193776324849182e+00,-1.081242980747432192e+00,1.557916885643835236e+00
-1.243044478564544342e+01,3.626400231569398280e-01,1.060420005174465885e+01
-1.371330097965715256e+00,3.938178689861980830e-01,1.261586330505190112e+01
5.896552251224169261e+00,-2.937107262019085674e+00,2.550196522996782900e+00
-6.168027029363101654e+00,-1.991523917352185924e+00,1.462719125113326690e+01
-1.249705901960394172e+01,-1.246527068053687320e-01,1.849954469426686510e+00
4.982645043144766639e+00,-1.804086612506633047e+00,6.835170610874811814e+00
-3.979432010739279435e-01,-2.954258547391325429e+00,-9.337632492787806271e+00
9.843169872301180234e+00,3.131896189358334581e+00,2.872614890318391456e+00
5.494003855174566020e+00,-3.225636178870117110e+00,-7.509830378443274057e+00
-9.302532889281030393e+00,-2.845924309381218542e+00,1.460261169767416511e+01
4.940505538606661418e+00,-2.830878316042422682e+00,4.671703163523130975e+00
-2.996841078764960642e+00,3.982063697270996183e+00,5.764235926860407311e+00
-8.292408661802634917e-01,-4.967800222124446385e+00,3.665507343853477984e+00
-7.554713075314527515e+00,1.361486735582696950e+00,-4.228903878269767880e+00
-5.000887904308091159e+00,3.573951550719151271e+00,-1.008469382619468613e+00
1.190202884055409882e+01,5.358311356710752094e+00,-8.076924028102203224e+00
-4.693006730237375024e+00,2.125490805316796017e+00,1.128255656148318486e+01
-6.696619978302998710e+00,-3.568492349509186479e+00,1.338066895989156180e+01
-3.076853906705657948e+00,3.065014470070182462e+00,9.307811959334339136e+00
8.971539600379795587e+00,-1.250799777895694298e+00,2.268612988651545592e+00
9.023095846957660982e+00,4.285370818729562492e-01,4.294227086795544324e+00
1.136416380487759392e+00,8.262175355577997538e-01,-1.268768186830085121e+01
-1.152280098718068757e+01,-3.609177036327101185e+00,-3.059919778930779155e-01
-2.725431420339127886e+00,-5.047139871040948300e+00,6.442409134641606805e+00
2.577113866540980402e-01,-1.676638268601851056e+00,1.136677420964903718e+01
-1.401059786289890674e+01,-2.161441371234179787e+00,3.072524053455988557e+00
-1.008568877927336338e+01,-5.057953079751744241e+00,1.107608915729353960e+01
-1.471444042086657689e+01,-2.655065549844129791e+00,4.265662386037891274e+00
2.502678962755891856e+00,-1.789091293375377534e+00,9.516374915271326174e+00
-9.648510463333224152e+00,-1.197273370640904666e+00,-3.754796884519551625e+00
4.034696619439460008e+00,4.750748710017560938e+00,3.655653410813097359e+00
4.899527829659490408e+00,-3.000146739304483390e+00,4.108039392654180944e+00
-6.689241992354929778e+00,1.923679598851983252e+00,1.129143499055371080e+01
1.134915893582222779e+01,2.795092987531168305e+00,1.512475289996605632e+00
-5.696304665447903481e+00,3.162583134708826904e+00,-1.814023131881578488e+00
1.365278699300482934e+01,2.659581435240223612e+00,-1.346931618913990647e+01
-4.110354895722800883e+00,4.048182482739073329e+00,3.421964257502395412e+00
-1.063181152811622887e+01,-1.880391909942001671e+00,1.511717830460489864e+01
-1.310159902504313134e-01,4.908808004564392036e+00,6.146873335373128633e-01
8.103573104967017215e+00,-2.762026927414588329e+00,-5.197021135362217770e+00
1.395561595490118201e+01,4.330993766839026371e+00,-1.125682741960160271e+01
-7.580944020488573187e+00,-1.521296791120001268e+00,1.485938845899827676e+01
-2.417988897939775672e+00,2.792802589699039384e+00,-7.992097908343635204e+00
-7.344406983211600348e+00,-5.322037212994443323e+00,2.135915770771523170e-01
-1.185439537570283974e+01,-3.885702283490111597e+00,1.376592090255314282e+01
9.377483194546616829e+00,1.272076478722750759e+00,4.293078514319125460e+00
9.727173181169646909e+00,-5.267117031434622731e-01,-1.304487448965563345e+01
-1.424951018097981859e+01,-3.004308544929374047e+00,1.306911308956305895e+01
-1.359070809119827139e+01,-1.641031232370897264e-01,9.365053833751975532e+00
1.166249216613620554e+01,1.140894143470733368e+00,8.788137911010424075e-01
-1.285930763890859652e+01,-2.965255719414539470e+00,1.002991074277846062e+00
-5.356395727397486262e+00,2.503098131471890753e+00,-4.924476841300678309e+00
-1.019914351191738255e+01,7.548096718840379138e-01,-9.124973377880262193e-01
-1.545971041561151615e+01,-2.689481329684058952e+00,9.849788292342102736e+00
6.968442138950233122e+00,2.544652740766894183e+00,6.017053240087852473e+00
-1.230599029254291210e+01,8.482759577018413877e-01,6.458620042938162165e+00
-1.339711146644945838e+00,-4.111652330639022246e+00,8.716987568590347735e+00
1.096065837465764581e+01,5.145355613827440777e+00,-3.363512052507136918e+00
-1.127474810207652167e+00,-1.827052855833705580e+00,1.222726010700729304e+01
-6.816908724710980749e+00,2.027788113995597108e+00,-3.909297451508926269e+00
-6.036905950459860115e+00,1.235883079156544717e+00,-6.266228069783042365e+00
1.168046878076661521e+01,-7.754266541877369301e-01,-2.122407473738249006e+00
-1.112348932651704025e+01,1.291798346749098991e+00,2.976600504103875444e+00
-7.403338300108457837e+00,-4.284708532884709875e+00,1.239970171576691804e+01
-1.028821247708693676e+01,-2.882332028599662976e+00,-2.531759120941928121e+00
1.297006519219243481e+00,4.324294986436662214e+00,5.658092179296835056e+00
-9.141787717933347324e+00,-2.873736941591618521e+00,1.462648474217513161e+01
1.682423585879895045e+00,-2.264707189628607065e+00,9.507703171144900267e+00
4.349696052975050797e+00,4.586176481577210140e+00,-9.962997209208262817e+00
3.649872733178927131e+00,-1.290584365933726163e+00,-1.259486992462086263e+01
-1.261192091436100782e+01,4.491560581410819486e-01,9.570499504377892208e+00
-2.905602649937918169e+00,4.359522964719276139e+00,5.463102800191335096e-01
-1.442193039672652510e+01,-4.412808868570158971e+00,7.813760568163639952e+00
4.194707904839203749e+00,5.026461152212430505e+00,2.091372366585618092e+00
-1.153196819710802146e+01,4.957047720171383620e-01,8.248426285977534800e-01
3.959207576905725556e+00,-3.524938056506079498e+00,3.601499708056243421e+00
8.058438061424173071e+00,2.400934013667123335e+00,5.203069616784848250e+00
-4.149885656926433519e+00,6.383690734561388025e-01,-8.953694442429526390e+00
-1.413448532112789024e+01,-4.560640895037578191e-01,6.411928808566640825e+00
1.223941940121644301e+01,9.038597760077036192e-01,-1.374957284959682546e+01
1.522095847850800787e+01,3.845039957691281263e+00,-8.870784177298569162e+00
-7.685643471011114336e+00,-4.036036690022261730e+00,1.311545150824676220e+01
8.710965038042656206e-01,4.741404977362736695e+00,-5.684951007121043176e+00
-9.471954135959636645e+00,-1.892435390141255780e-01,1.408056600951095660e+01
-1.540647721627257738e+01,-2.415562147454078268e+00,9.507612080349707284e+00
-2.760168187053028799e+00,-1.569622164015920474e+00,1.329594404730356949e+01
-7.375026784354798082e+00,-3.492967088735407177e+00,1.360125007667264718e+01
8.323655389885882272e+00,-2.799475389724852548e-01,4.605876682628358587e+00
-1.048351819207299407e+01,-4.252599737089649778e+00,-4.859045200049491586e-01
1.322080672569725657e+01,4.259797465539074679e+00,-1.231245533368520739e+01
2.848060215433841691e+00,5.326428985064391775e+00,-3.950953919848547713e+00
1.261452915763095284e+01,-5.901891804649221918e-01,-7.948989820313658861e+00
-6.599785805057594157e-01,1.206607018486224092e+00,-1.144435564730303234e+01
3.073393740472365021e+00,2.961265077937070611e+00,-1.244417868789137138e+01
1.147448106412851310e+01,3.086284463684174195e+00,-1.449899270051033895e+01
5.687250286609491390e+00,5.647446541977619638e+00,-5.260090709631328743e+00
9.108571764462192633e+00,-8.691905066618765829e-01,2.586224053387538024e+00
1.095946260785567894e+01,2.286601179541693618e+00,2.204509902958248890e+00
5.333131330823232652e+00,3.485553699557932372e+00,6.062947005646680765e+00
-3.272484758837129082e+00,3.406414127511402157e+00,-5.209712730756900889e+00
6.028052051195526673e+00,1.223538046554768721e+00,-1.458318020136118776e+01
-9.512044473565797631e+00,-4.420842147252663779e+00,-1.270779250070871003e+00
-2.441534336198358357e+00,-4.483489085122241313e+00,8.490413212603106885e+00
1.487621382218179455e+01,2.847687269614595618e+00,-5.426710964082305466e+00
8.024678687330236926e+00,-7.991728673890546863e-01,-1.333974201190671849e+01
9.364019412948469068e+00,-5.359147558219991003e-01,3.048054593322443662e+00
-5.852185940000556030e+00,-3.651839121235032515e+00,1.283059265073847399e+01
1.550908530218339720e+01,3.383592537182174897e+00,-9.973381498277806401e+00
-1.212133321181352308e+01,-2.216982662503424795e+00,-6.048622601953064226e-01
1.028235157233543084e+01,-1.885036283885344943e+00,-3.437703276112405337e+00
1.030588836524497154e+01,-1.325478983662346399e+00,-1.065505127379486083e+01
6.743325305060412944e+00,-1.572674747311863241e-01,6.748482745940365568e+00
7.653311884878828408e+00,-1.637031194353559593e+00,-1.157863389048961444e+01
9.789642987832700705e-01,-4.608282257592962061e+00,3.335489182661032448e+00
2.762139529511451030e+00,-4.234213969134964728e+00,2.189972035657241189e+00
1.433440543623165908e+01,7.251842029118934496e-01,-9.739667813469962354e+00
-1.236621247778600008e+01,8.518191473198177821e-01,5.846309397885509185e+00
8.867976643576765738e+00,-1.497792942856098763e+00,1.860154254157311504e+00
1.323361813386062025e+01,8.501860404386551995e-03,-9.887475008709895263e+00
2.840346935851347343e+00,5.288161252953877955e+00,-4.881585293927432900e+00
-7.566337154517802865e+00,3.010514022772911691e+00,2.398401052017931079e+00
1.016927161077283692e+01,2.121960221772682065e+00,-1.516119981464176014e+01
-1.280766327504608348e+01,-4.767479418324933604e+00,1.071927554326902943e+01
1.131620220380861319e+01,5.333167941522119371e+00,-4.555276249180870707e+00
7.412043718290794558e+00,4.284008033516953695e+00,3.280287978808871241e+00
1.055237975949092188e+01,-1.520998586453622625e+00,-9.281272998231237636e+00
-1.893388162197273683e+00,3.396846562363608601e+00,8.649617418971441651e+00
-6.712083001909836533e+00,-2.476288346595599599e+00,-6.269543795979651613e+00
1.165241292250017935e+01,5.238596801549381787e+00,-4.659288265534438978e+00
-7.324612223332439775e+00,-3.486370924832449703e+00,-4.595363344453783583e+00
1.381968445295154346e+01,3.943623566930841484e+00,-4.239643147055021544e+00
6.699953616763308695e+00,-3.304728064356255324e+00,-3.832611863929580309e+00
