2.778273975213555680e+00,2.586339105210917033e+00,-3.705045845431160334e+00
1.803713364941031294e+00,-1.789069369599234627e-01,-6.534948655530680384e+00
2.232264739832705569e+00,-1.522221383165763386e+00,-4.311447709445817900e+00
-2.504173600557681456e-01,-2.406615167627912388e-01,-5.582832649372297951e+00
-3.504964456632786884e+00,7.248289550225265332e-01,6.047014602327569044e+00
-2.202293623557076696e+00,-1.916815861544161503e+00,-2.282602143581675236e+00
5.264365275433418923e+00,1.674975966367260316e+00,-6.955829725851047307e+00
-2.301625262449889853e+00,-1.120659632846602971e+00,-3.710046738153702339e+00
1.391761829975229903e+00,1.823874622856283212e+00,2.809521118037240139e+00
5.086137064383612127e+00,-1.303399612047058564e+00,-1.339743121389044278e+00
-2.646545688085131687e+00,1.926789804702186304e+00,-1.141385519492100986e+00
6.785516429312960618e+00,1.243936316479581805e+00,-8.388152584506911591e-01
-2.213486997760397035e+00,-2.599291014149082368e+00,3.216653825064014427e+00
2.751741759691527900e+00,1.069514987563426889e+00,-7.002799181610805057e+00
-4.957802169866249997e+00,8.288198914345290547e-01,-1.122234163184905098e+00
-4.615259129378393332e+00,3.068450648557224936e-01,-2.240305861065372550e+00
-2.980136970296979104e+00,1.657317585474882060e+00,3.700314786544262713e+00
1.559358752300182616e+00,-2.264993099782063979e+00,-1.339929732173151256e-01
-3.360931035928535149e+00,1.772976510606979916e+00,-5.532377419383674999e-01
4.923660882830028562e+00,2.044157275512713257e-01,-7.114178153888151002e+00
-1.095358307626834504e+00,-1.004727617970929909e+00,6.439698764881170767e+00
-2.985038735658323894e+00,-6.235264219099352356e-01,-3.676720482532522816e+00
-1.450141333345058015e-01,-2.156265709614088699e+00,-2.130364668034442577e+00
-2.960435324269196644e-01,1.854420478243230530e+00,-4.350131748644105123e+00
-1.847116295060168500e+00,4.684277459953402056e-01,6.289470171663340992e+00
6.866412320456478646e+00,1.881585833770017535e+00,-2.666653063046658279e+00
3.489303653513435854e-01,-2.452871744407794541e+00,5.328008334600899953e-01
7.474460597639868809e+00,1.332589988815214843e+00,-5.935863471504199573e+00
1.059433240729857229e+00,2.409748442292781068e+00,-3.559013399309062908e+00
5.969343117995141057e+00,1.256553112755774082e+00,1.618587026576350507e-01
6.727716762716997145e+00,-2.830919060419621602e-01,-5.157446284718047558e+00
-9.871298325556562281e-01,-1.641059258463114956e+00,5.687237523467977951e+00
3.838455868296180906e+00,1.679576702240914043e+00,1.691659913466048382e+00
-1.115588398019209393e+00,-1.423333494576851654e+00,-3.920163908457073632e+00
1.874776365585927751e+00,-2.165236585400637015e+00,1.076691056328073826e+00
-3.518101443406496553e+00,1.537318297397569422e+00,-1.333163995181659844e+00
-3.611626659713918830e+00,-1.066972012658905067e+00,-2.804477610178815361e+00
7.689480884108549574e+00,2.590203407638143607e-01,-3.977072736274818610e+00
-7.768887862288871737e+00,-4.846781172364140189e-01,5.179800339630024730e+00
1.334725296501502179e+00,4.640523367433974089e-01,-6.630141869855475711e+00
-2.595278422590566958e+00,-3.783217895105053241e-01,-4.082568523176889563e+00
-7.634041157677525113e+00,-1.405430729543269086e+00,5.781792139190607749e+00
3.376670808310206162e+00,-9.536388376225527486e-01,-5.522504196366472051e+00
-3.331968985893944080e+00,1.880651970581209698e+00,6.726502203996560514e-01
7.652433097111128291e+00,1.637332588860882732e+00,-3.606644178169804871e+00
-5.947256558247101310e+00,-1.831974681485371237e+00,7.282643903159864429e-01
5.907568851446848512e+00,2.406343925651058147e+00,-3.763998881576276379e+00
-4.243674951805703977e+00,-2.448212784860284152e+00,1.123139825156145077e+00
-2.753273285888341970e+00,-2.311119119389766219e+00,5.296715193149188927e+00
-4.184336791181568316e+00,1.189322160032796116e+00,4.699645058584734691e+00
-6.757891293390586362e+00,-1.621597294198180883e+00,6.629855563068201008e+00
4.381188644829241419e+00,-1.432693250830185949e+00,-3.609574966239370131e+00
-4.239254090628769234e+00,-1.603711478191310658e+00,7.030932178823144696e+00
-1.370380560240048951e+00,-2.308872541101370413e+00,4.389753074737567040e+00
-6.817802317375892152e+00,2.100425875404159370e-01,1.323498761673168822e+00
-7.751381194808284469e+00,-1.567415936514984454e+00,4.775995557079188991e+00
2.206365857661242380e+00,-1.091378729638562639e+00,-5.331251481933062308e+00
4.410055505343335902e+00,1.301364002746987270e+00,-7.301183872889033921e+00
7.799629875985440108e+00,1.379112346321180071e+00,-3.274188284303086505e+00
-2.961037076387016409e+00,-9.203610461370813622e-01,-3.406146753526244186e+00
-3.435019702413811826e-01,-1.635235199480335799e+00,-3.775736912106667731e+00
-6.986602666003077999e+00,2.645023850615993988e-01,2.080397402799911699e+00
2.740536075601419430e+00,1.149211824966162920e+00,-6.925995164973525853e+00
-4.479929475739675482e+00,-2.610277256554608183e+00,3.902735621569022317e+00
-2.684582357701861710e+00,-2.335248895354692156e+00,5.084055764771523656e+00
3.849469462845373169e+00,-1.761897090998636894e+00,-1.106403216564195047e+00
7.476525560301743312e+00,1.582338997320905438e+00,-5.753890108989588192e+00
-6.971417161674665408e+00,-3.088710133998997520e-01,6.176004738831304408e+00
4.361871338090912431e+00,2.581566331035701989e+00,-2.069975487135422565e+00
-5.872246040472341555e+00,1.920119575981884541e-01,6.236077401310929247e+00
1.834053833388078925e+00,2.608211140687405116e+00,-2.749454817617152713e+00
5.906485789507792461e+00,2.113669819073830336e+00,-5.779091215109392721e+00
1.406821598439738974e+00,1.246262019806418264e+00,4.042109454074340746e+00
4.892938870148783259e+00,1.560046722286253074e+00,-7.175131187616937467e+00
4.304201246717939355e+00,-6.350246701843687003e-01,-6.157219737716420838e+00
7.775338177548609231e+00,1.313124994182275795e+00,-3.481732579580801179e+00
7.720590523976508024e+00,1.092153695083601939e+00,-2.842050663911653618e+00
4.786626418689148288e+00,-7.038636913587144051e-01,1.577958885586910665e+00
7.795742836450296309e+00,1.277286179271716948e+00,-5.242919505016343074e+00
-3.158134387605148863e+00,-2.651409058788606998e+00,2.557876828023191607e+00
-5.161922314855714511e+00,-1.545177734442652273e+00,-7.220190030440055695e-01
5.863740328004797497e+00,-7.527779968242572783e-01,-4.593689187848719602e-01
-2.518598765913560911e+00,9.079712598892709652e-01,5.751878995320605981e+00
-3.069566614938060711e-01,1.895128076438918008e+00,3.138610934378579742e+00
-4.648161549865860387e+00,-9.963070950494506972e-01,-2.030899965345910996e+00
-3.140506994708938571e+00,-1.797219220275951823e+00,-2.004372208345290840e+00
7.520224331172103982e-01,2.211560215477614277e-01,5.352696596747366975e+00
-4.093945677391293003e+00,1.631716358305331793e+00,8.834829790506143476e-01
8.017081666425772468e+00,6.463625709367376571e-01,-4.025716756148923103e+00
-6.998895419184585798e+00,4.257715162246199503e-01,2.944329929335438134e+00
6.125414036138633556e+00,-5.694112003822486834e-01,-5.065099316494696247e+00
2.957398432757630591e+00,-1.422308425022425160e+00,-4.458036602153932826e+00
-7.558042977352049441e+00,-3.839134283796406810e-02,4.318714734435245006e+00
1.728483542541414952e-01,2.450168070029196787e+00,-2.324103449414189448e+00
-7.568731927621203504e+00,-1.211509637458615951e-01,3.131357174621196116e+00
-4.663885826700053805e+00,2.734316973598702738e-01,-2.169715434786485098e+00
-7.078497311057001973e+00,-2.002557208454740501e+00,3.825811501656675162e+00
1.496959460848316770e+00,-2.288426408236138521e+00,-3.946749323255591690e-01
-4.713987603992762843e+00,6.076966225953356338e-01,6.068686443955143339e+00
2.288342095875666171e+00,2.658186257638198491e+00,-2.595073442150712228e+00
3.890250718703779143e+00,-7.736090569339540979e-01,2.541959213948669305e+00
4.249910628120914247e+00,2.397200016201523898e+00,-5.321671976494384282e+00
-6.432519192651247053e-01,-2.105988407400978701e+00,-2.166425988487517884e+00
5.380093257722006861e+00,4.371951993960795230e-02,-6.889340190099463967e+00
7.582733955365067224e+00,4.046207964999096185e-01,-2.492880877929392724e+00
-6.243405866292418338e+00,7.299698845165428773e-01,4.299759348927099545e+00
-6.303025800684717517e+00,-2.243454209422179879e+00,4.342108530320773596e+00
-5.382528787179687413e+00,-1.414224378964314299e+00,7.239539129341165058e+00
7.412141233087078618e+00,2.917393531140075602e-01,-2.210458144853034046e+00
2.661891554809847182e+00,2.444930102360513224e+00,-4.568187553597039319e+00
5.890886663144067725e+00,2.161450642256451005e+00,-1.807610061855847716e+00
6.552488697931253547e+00,-1.928110911487502799e-01,-6.829836422327771883e-01
-3.564687412034210467e+00,1.823242466620668800e+00,7.102601918985116392e-01
-1.799366125943501427e+00,-1.840575433058007748e+00,-2.633056504009244403e+00
3.948074852163179660e+00,-1.613211583241662694e+00,3.452574609595565058e-01
-7.785067694979609598e+00,-1.037094470824966308e+00,5.731165984554769999e+00
4.216302842666391548e+00,2.890381135173097915e-01,-7.144103519857115892e+00
-6.898986545464023123e-01,2.361756678830305045e+00,-1.718618324866616476e+00
1.916418190328559534e+00,-2.101467041396249513e+00,-1.929992868709760945e+00
-1.056347976706319747e+00,-1.234348549275271489e+00,6.207221928060521421e+00
-5.269706386135619702e-01,-5.210421340633538678e-01,-5.254003713353686322e+00
-7.532140528127983181e+00,-1.936780345223298172e-01,5.017845883707922283e+00
2.456540000589509720e+00,-5.561165409414023930e-01,-6.308038239379838430e+00
-6.749042718777925387e+00,7.493168837068038546e-02,5.642190453835516983e+00
6.888254820410002033e+00,-4.387714800931988290e-01,-3.708966152345823275e+00
-6.198806331729286079e+00,-2.321525678498557177e+00,3.415963464082927725e+00
7.848680436680429473e+00,4.318411619827035031e-01,-3.798208372296020485e+00
2.468424393766626423e-01,1.545922701319674575e+00,-5.435188674506571616e+00
-6.520012673009833115e+00,2.277476657096426382e-01,8.293841771595586998e-01
-4.746145050164819246e+00,7.918396140368962888e-01,5.609077108691625568e+00
-7.059578813432473288e-01,2.012707576230118534e+00,-3.598089831432284669e+00
3.994393457728158570e+00,-7.154749614409210423e-01,-6.032258860668073375e+00
3.616780898411316336e+00,1.502994858875146944e+00,2.147279859807456059e+00
-2.435542544355167038e+00,2.098132930998018342e+00,-3.071168894897486346e-01
-5.851830887743218135e+00,3.049182593420698417e-01,6.160973112907539573e+00
4.908544771099577098e+00,-1.411545419061613238e+00,-1.643205373680186154e+00
5.430208629007064580e+00,5.553612647723451534e-01,1.306964876016990518e+00
5.357716914697705057e+00,5.520695053017024012e-01,1.461759404459309408e+00
3.303602963873776832e-01,1.302335090172773713e+00,4.454285054141542410e+00
4.062897854606589143e-01,2.025968052358148697e+00,2.683393576199951003e+00
6.816343006121361014e+00,4.705273230733930667e-01,-6.494236881358966151e+00
-4.199159941481690694e+00,-1.207137630392963290e+00,7.356564897815870196e+00
-7.358891830891514552e+00,-1.622490795519974993e+00,5.685307651398101569e+00
3.654483412988853264e+00,-4.965607621429387608e-01,-6.452850412378721146e+00
8.022914444766756858e+00,1.078494107595070250e+00,-4.795028866432409664e+00
-5.380562352180068508e+00,-7.379555674494491235e-01,-1.302981760244860565e+00
-3.402424416639631577e+00,9.514826802058717892e-01,-2.893980674763221295e+00
-6.733641448742356594e+00,-2.088850828106664004e+00,3.513427520516845259e+00
4.481278790369422005e+00,2.266989313351796653e+00,-5.165994821869953624e-01
5.993845634147229040e-01,2.176975485974054880e+00,2.040452463220521651e+00
5.041481924456464370e+00,4.490812703713963350e-01,-7.202441627698567217e+00
4.425308302008002848e+00,-1.580375264407389402e+00,-1.125134193744778965e+00
-5.986269363216085715e+00,-2.243068751836086339e+00,2.622789472306883418e+00
6.882055893296149307e+00,1.860328901481123343e-01,-7.959704165898476846e-01
-1.306360342665986662e+00,-2.627822822083878407e+00,2.268122325401280559e+00
5.250007638719484504e+00,2.023905669803637508e+00,-6.275491005834761715e+00
2.234362683648942749e+00,4.221297962594441899e-01,-6.936329053320751115e+00
7.200916363754719107e+00,1.057180427866375227e+00,-1.444277703979214955e+00
2.061903189377843226e+00,-1.339544106827184278e+00,-4.794343836207623610e+00
4.753907477304506024e+00,4.381575641240853525e-01,-7.227554475663586331e+00
-6.180438523366256653e+00,-2.062754347696741597e+00,5.974393086399969910e+00
2.820043008983291521e+00,-1.840610788971713263e-01,3.984140290610149293e+00
-6.222918271907591503e+00,7.998834160477201749e-01,3.225199549610912708e+00
5.017422779992825710e+00,-1.053527727045958429e+00,-4.629503404965435109e+00
9.868015207106771713e-01,-2.131044661826571929e+00,2.877167978749405997e+00
1.433700933658946242e-02,-5.004763927872694224e-02,-5.879970238954967954e+00
-6.460587961688819547e-01,9.548485605316993086e-01,-5.417181630032640527e+00
-7.497866538931349467e+00,-6.720193978683233205e-01,2.024401447150688593e+00
-2.991463124457009570e+00,-1.721291917436275298e+00,6.564853678324028330e+00
-5.287348146822365536e+00,-1.867593872838742897e+00,-3.760862574259084962e-02
-7.205473546133498886e+00,-1.987960458077405512e+00,4.561135266328903981e+00
3.406336012326590446e+00,2.259903876694747460e+00,-5.683642923671861524e+00
7.609402207654996531e+00,3.871585325430673130e-01,-5.446974389108810044e+00
8.130655229726729827e-01,2.389979694852832015e+00,-3.486141977686413984e+00
7.882216988928904655e+00,1.313454909403489745e+00,-4.032809094575597442e+00
3.991136307860926991e+00,-8.864839493170735274e-01,-5.662761123765379878e+00
1.691800498180711987e+00,-2.217505638191433093e+00,-2.952193208092586674e-01
-3.606119660801513138e+00,1.352827105422255816e+00,-1.831985744871361010e+00
2.496172794544382345e+00,3.990548365638392769e-01,4.143735149952204821e+00
7.249649868667497721e+00,1.295025611022903256e+00,-6.342769185795786413e+00
-7.601082922081906723e+00,-1.207337749698257801e+00,2.662073215724743758e+00
1.088405053873664707e+00,1.775309815880507180e+00,3.192413846725709714e+00
1.407129857585138755e+00,-1.519505547437398629e+00,-4.306173058554214172e+00
-6.348231030696293686e+00,2.773118575209022052e-01,3.125964592854726942e-01
-6.513428526870542079e+00,-2.225212213160892016e+00,4.200152656644037030e+00
5.051395582340948209e+00,2.356729213308243587e+00,-1.647717040540108258e+00
3.151979125043405383e-01,-2.274788821096269675e+00,-1.568204369001724441e+00
-6.197810455304411548e+00,-1.915379290549507063e+00,6.248140152396073788e+00
-5.159581564601599446e+00,-2.505971898050599389e+00,4.135920706045547846e+00
3.319586902062159783e+00,-6.750888700962237587e-01,3.335046806661176255e+00
6.002391130942074327e+00,4.630981695329243197e-01,-6.955191936283006804e+00
6.409537111904095141e+00,2.135657949155889135e+00,-2.812137281159109659e+00
7.597085102689386638e+00,6.392553244060488193e-01,-5.704256399458668803e+00
4.838932940600607857e+00,2.295879489200185031e+00,-8.858106835708000615e-01
-7.106214519559880927e+00,2.835687631792420116e-01,4.018639050444694050e+00
6.105922279964730581e-01,1.142303670876113397e+00,-5.978825610109646860e+00
7.562807119554456614e-01,-1.098009607927627806e+00,5.138653538086306760e+00
2.524695578651170891e+00,2.677463571011659660e+00,-1.772584789691414420e+00
-1.011177945636984044e+00,-2.355955102298993520e+00,-9.739932351496046747e-01
-3.084880023262789095e+00,9.736012427194246088e-01,5.510511609536442812e+00
7.342087956478599686e+00,1.841843464573010403e+00,-4.934079527709013036e+00
-1.221660133975704499e+00,-1.067468894817972913e+00,-4.415799839910000912e+00
3.446912119933109420e+00,-4.075479598545421189e-01,3.418996457653440846e+00
7.625079598820112103e+00,8.040990552832245619e-01,-2.378817646313205802e+00
3.729151622987258996e+00,1.311588724786450166e+00,-7.091235226070868869e+00
-5.094994311961174027e+00,-1.631975617151056435e+00,-6.056595431626254911e-01
7.838374533200000549e+00,1.209183482168693979e+00,-3.500016858948562515e+00
1.486761347125946875e+00,-2.282592013167410006e+00,5.365214363780829165e-01
-7.766036220009701729e+00,-5.569424924935757470e-01,2.645551017831154983e+00
2.138048644357674055e-01,2.353181058259805614e+00,9.974792302250615750e-01
-3.452563673425571356e+00,-2.617635229145685027e+00,3.963264462409968214e+00
-7.470853138294483387e+00,-1.804506192480537674e+00,4.828397536552260227e+00
-9.965904882569044387e-01,2.192681166114184066e+00,-2.423462885535228484e+00
4.694574426166481906e+00,-9.558757786491860475e-01,1.189595153206456812e+00
3.189178341921464988e+00,-5.146097808020092534e-01,3.610734073382172671e+00
-2.730811022771158392e+00,-2.630484062604906192e+00,1.385238638214132623e+00
2.836438178912472186e+00,-3.013543637116720131e-01,3.971342776640519823e+00
4.879327926757327738e+00,2.579988288339276181e+00,-3.247677071063525656e+00
-6.902654875651366595e+00,1.880535693154650467e-01,1.483774149110161700e+00
7.402670566114724515e+00,8.658290044057012080e-01,-1.910673338161553048e+00
2.719026907516404634e+00,-1.978152855990447323e+00,7.393218905595538848e-01
-1.724132852244725012e+00,-2.654847011727632822e+00,1.496296584086734383e+00
-6.932523895139402370e+00,2.520997171736951148e-01,1.938519449461529431e+00
-1.278131617144671051e+00,1.884985617924139545e+00,-3.305388540305257195e+00
3.131740503784905982e+00,6.316093789492647215e-01,-7.221042265181221609e+00
-2.092038316292642364e+00,2.009775594509414010e+00,-1.888936254711083063e+00
3.817185757123158218e-01,-2.053042900653810676e+00,-2.618903790151887012e+00
-4.544337269785563294e+00,-2.149995089286548033e+00,6.002147782727194070e+00
-3.716006521820635622e-01,-2.536790094215384705e+00,1.807664215043938816e+00
-1.932776085709807967e+00,-2.571434834529010338e+00,3.274563401087601910e+00
-1.478752200884311252e-01,1.114436036093680471e+00,-5.608355484717571393e+00
1.985982479270870238e+00,-1.375829144744644461e+00,-4.751056294692034498e+00
6.703240439473736600e-01,2.429902494727319340e+00,7.085469481983384110e-01
-9.780769109809335227e-01,1.372036918631555080e+00,-4.653619609342384500e+00
-7.467002478510043062e-01,2.048760438939203343e+00,2.627063330303312405e+00
5.562057293151960735e+00,4.650888531551411464e-02,1.175985740503894261e+00
3.249588601485975836e+00,1.313212341550247908e+00,2.750429543471574867e+00
6.493944977992486933e+00,2.034874316899735192e+00,-5.777986008730822576e+00
-4.854051594151399307e+00,-1.532105770806295952e+00,7.109340526481744860e+00
5.099160293505749841e+00,2.012276529877432107e+00,-6.386852752530434607e+00
4.510855692284065022e+00,2.248499735694750590e-01,-7.092669790806266583e+00
3.599373388295101339e+00,-1.516352859838907330e+00,-3.853910090380924025e+00
-2.269772850829749444e+00,2.807545257943517766e-02,-4.497733995627358539e+00
2.411274774807667498e+00,-1.804789921757908866e+00,-3.226494574654860337e+00
-3.573341542204359733e+00,1.210588715266641024e+00,-2.334775665247009968e+00
2.339285849760757152e+00,2.069284501865039427e+00,1.827595866655868928e+00
-4.077524405409745256e+00,8.209395515800628484e-02,-2.812275710236058046e+00
2.234443092657404595e+00,-2.131247684927467301e+00,-5.560730403348794759e-01
3.245389496689901065e+00,1.123206855420496586e+00,-7.115021662572875272e+00
-1.057897745690262514e+00,2.323899204723844036e+00,-8.576822075903397513e-01
7.399470876684354437e+00,1.779076436836289243e+00,-5.468658357397553793e+00
1.900801349563929321e+00,3.131269838607231848e-01,4.628508830416582676e+00
-2.011421517492827604e+00,-7.305101590028887371e-01,-4.271438091491428501e+00
4.419683152250153957e-01,-7.557910102934634056e-01,5.575172614044465291e+00
3.440827314722004981e+00,2.580390691454449215e+00,-3.998731483922040031e+00
7.569490129708754012e+00,3.648822965077344049e-01,-5.191444511295739694e+00
1.469609410007706840e+00,2.353623942264698066e+00,9.130166289792890355e-01
5.448191282831303717e+00,-7.599188143769914916e-01,3.307883629625170130e-01
-6.476115592219398920e+00,5.836757752775169061e-01,1.893960696824307677e+00
2.210593588284688771e+00,-1.798584438707598432e+00,2.459142073412841967e+00
-3.942526162095466358e+00,-9.039521954884348620e-01,-2.669196770878079050e+00
5.298291698196816668e+00,5.025417446317210768e-01,-7.242548998256055803e+00
-1.498549557863781079e+00,-2.502106729917611183e+00,3.448158751958832369e+00
7.913400184530344772e-01,2.389402257141103547e+00,8.181687875122076736e-01
-1.061397472256436991e+00,2.029502936246266653e+00,-3.172522094643653201e+00
-4.903660011828305798e+00,-2.196769352905959316e+00,7.398604047803802874e-01
-1.191924642306084525e+00,7.330772905807478868e-01,5.688689509966931901e+00
2.995655860961000450e+00,-1.716648196435809348e+00,1.466726169401457947e+00
6.486045137084537338e+00,1.848338448699417214e+00,-1.720109489827123639e+00
1.132695085558731218e+00,-2.140795023690954757e+00,-2.157885656697314580e+00
-3.384797900350928757e+00,1.809170385890484400e+00,-4.300162665149757091e-01
9.249094773739742203e-01,5.067365801932142977e-02,5.292234322155697335e+00
-6.735518877404613747e+00,4.560814844375647992e-01,1.742896981644981080e+00
-4.036558500766044943e+00,-5.380008260168054335e-01,7.247374691241312838e+00
5.798598215149936230e+00,-2.261058029360757393e-01,-6.223334346935565975e+00
-4.210171345567845336e+00,8.483669880381554673e-01,5.563110516230566738e+00
-2.433986236266280301e+00,-2.635855605190027706e+00,1.869799724247381389e+00
4.241793500410155460e+00,2.320571225655144065e+00,-5.447575297389940729e+00
5.753720753639342433e+00,1.942712277145481670e+00,-6.420404651610446933e+00
4.237100366727683642e+00,-2.754115853989417273e-01,2.665879399610983747e+00
-3.781775690947645874e+00,1.412952290607961015e+00,-1.378723407906893517e+00
3.294750379776379301e+00,1.341442644143722163e+00,2.765909226832851342e+00
-4.836363783885480494e+00,1.123991035360830670e+00,4.314875393298981621e+00
-4.473295689780991680e+00,1.386650280873208851e+00,-1.411536037143821913e-02
-7.053309351065956356e+00,-1.737876638506526517e+00,6.000807698382658373e+00
-2.756396456607380419e+00,-2.476736105843603486e+00,1.802766385212154487e-01
-7.585805231756387990e+00,-3.697227380557694953e-01,2.706525042222387434e+00
5.254074530677470989e+00,-3.677130356200176281e-02,1.520957340280157277e+00
-5.405512791956031293e+00,1.237212607278523224e+00,2.405632221183805708e+00
-7.907160201603782745e+00,-1.255117916316425664e+00,5.205836479249783544e+00
2.549935647899241875e+00,-1.865976053471074980e+00,1.627509345136262331e+00
6.476203817896497128e+00,1.403366131789701932e+00,-6.817002061234529897e+00
-4.448036714470657849e+00,8.652992381930462162e-01,-1.766540726985608378e+00
3.687363451742335041e+00,8.905483653499771668e-01,2.922732362696673025e+00
-3.455498603228297050e+00,-1.381981053381298841e+00,6.991903670382598079e+00
-2.833280972168390477e+00,-4.434906064651427671e-01,7.078892364094822476e+00
-6.730081084541383873e+00,-1.963899401890202512e+00,2.497358863438494669e+00
7.497798881189769560e+00,2.850530918855076479e-01,-5.179716626523557466e+00
7.746561766097080914e-01,1.315450941618217184e+00,4.162257140548240919e+00
-1.992691309257326626e+00,8.964694304384338563e-01,-4.370717569958968873e+00
6.681023569826946007e-01,-7.079659244281415464e-01,-5.666628335247138715e+00
5.929256767468602973e+00,2.037172566015960307e+00,-6.050361568799661249e+00
7.326654517697451796e-01,4.837755645606960919e-01,-6.301871386832956112e+00
-1.391592300448635688e+00,-1.236889924108564909e+00,-4.019583944112377516e+00
-3.215638462722106627e+00,-1.878976244722121436e+00,-1.762035696442391997e+00
3.880407291172138340e+00,2.392676514930309750e+00,-4.072653442225955267e-01
5.588689060668492914e+00,2.065420346590853384e+00,-6.098363952830026413e+00
-1.369322635018707324e+00,-2.421321476579373133e+00,-8.182444700009019467e-01
1.089338202169531256e+00,7.576135087674279456e-01,-6.442829233127913113e+00
-2.364708137619960571e+00,-2.261294551152476906e+00,5.147951740686352196e+00
2.937541439115661235e-01,-2.395649433278384866e+00,2.296167995065141465e+00
-1.765981199607803642e+00,-1.854164476612218060e+00,-2.654358670233194495e+00
-7.017502169524658662e+00,3.479779102714187777e-01,3.976119241850674335e+00
-7.989112263970647554e+00,-1.049314102433203333e+00,4.552720339594504395e+00
-5.118973862895056293e+00,6.761329246623138944e-01,-1.163734365999465448e+00
2.225409189615988215e+00,1.032821902585577378e+00,-6.862817717888550995e+00
-6.153616550585585543e+00,-3.125185681356720258e-01,6.857676753120083291e+00
3.581304999149931945e+00,-1.758616787547756966e+00,-3.238125172237844573e-01
5.051816208257493557e+00,3.389623806720775123e-01,1.815088873319750773e+00
5.089749965087810857e+00,-1.217020409041198681e+00,-3.499704029819723505e+00
-3.546169677301815870e+00,-2.610719190978920246e+00,1.540273963128863777e+00
-6.527069847284157067e-01,4.608086070508840559e-01,5.869653156997338250e+00
-1.216910404737018947e+00,-9.379082686671974534e-01,6.528566232111979062e+00
6.031012369277885199e+00,1.926089523330690279e+00,-6.405412467932144693e+00
-4.742983430866745675e-02,2.617294023732754105e-01,5.741383943375399035e+00
1.452672992928424556e+00,-1.269518249853122338e+00,4.402889861238388214e+00
4.566688442669971870e+00,-1.136418288559656320e+00,9.042668719096483843e-01
7.938134853616181985e+00,9.762596228686266642e-01,-4.402178420669589975e+00
1.144464795993583639e+00,1.300790662466980052e+00,-6.254373996223768550e+00
3.771013570968821060e+00,1.252212069801485805e+00,2.416316573583978222e+00
-2.269008974708637272e+00,1.847835444640189451e+00,3.069741407277143175e+00
2.886055951215371618e+00,2.546091396453459499e+00,-4.093320379375190221e+00
-7.812065887733174563e+00,-4.780471625682182757e-01,3.498449472565973384e+00
2.216685069649253936e+00,-2.099739831994166028e+00,6.206733561139733402e-01
7.453084896808038984e+00,6.326750781448493566e-01,-6.225221520023180410e+00
3.107408905856773096e+00,-6.899038281093299307e-01,-6.125358042690385751e+00
6.015898043670672379e+00,-6.977654229376992756e-01,-8.549290001069768108e-01
-6.538500787361138045e+00,-1.624484541453350694e-01,1.890327079252696052e-01
-3.484093171674222944e-01,2.439233931436052938e+00,-9.121312488899434578e-01
-5.419548634710001700e+00,1.195544058886980121e+00,2.319727035136765814e+00
3.525068014899470192e+00,-1.769433983475804828e+00,-2.471345347642492030e+00
-4.990210702991947578e+00,-7.797997198696599019e-01,7.438226852943875755e+00
5.583713392398840902e+00,1.752334176153009238e-01,1.178742353553937194e+00
-5.302692564819224685e+00,-2.375909822619835410e+00,2.218543419493432811e+00
-4.599992663337134080e-01,9.715460991245939981e-01,-5.541675279107702856e+00
7.263078467591747023e-01,2.575804478473079584e+00,-1.169025866293692095e+00
4.774663882206395371e+00,1.538739472383628071e+00,-7.118052596160656442e+00
-2.740381818376875778e+00,1.989010618348843185e+00,-1.037393176614263696e-01
1.550503403009766634e+00,-2.476204111386971496e-01,-6.411845752097894646e+00
-7.543561831275292562e+00,-1.771164240548628754e+00,4.708376753312744967e+00
-1.310738575336109157e+00,-7.798345924393476070e-01,-4.683798489594707348e+00
4.829201145807299866e+00,5.176560112312019735e-01,-7.282457939349857412e+00
2.979799846285257292e+00,2.327352299736850316e+00,4.495378482663434649e-01
-6.254332148922070012e+00,5.933352078178841804e-01,9.333089413689950042e-01
5.007171298229703638e+00,-6.622827761654410672e-01,-5.699344189553744222e+00
9.484738435976098891e-01,-2.234167454873922765e+00,2.289148995202882286e+00
5.613984128097309068e-01,-1.001624175734584510e+00,5.440699766287001360e+00
1.192697147408132485e+00,-5.104918334912430522e-01,5.209082392327166744e+00
8.003115735068460523e+00,1.051238543431340711e+00,-4.168894154131771224e+00
-4.434352322578704042e-01,-2.141055257304059101e+00,4.257016352178269791e+00
7.334760076596776202e+00,1.880255571002946713e+00,-4.701980512109006582e+00
4.307201972469822948e+00,2.064276446514694996e+00,4.671903659891760707e-01
-7.158228748938135766e+00,-3.865920819934917652e-01,1.322050631562594614e+00
-3.280210977794620231e+00,1.873219945062593483e+00,5.766531361620521601e-01
3.651703935096357156e+00,2.457287232631076623e+00,-6.818469754923600634e-01
7.004068594726327035e+00,2.005838903052019617e+00,-4.762285896361193593e+00
-4.267496867212008382e+00,-9.109049030438322037e-01,-2.346344801027385962e+00
4.653628014524347378e+00,-1.103619002824985929e+00,8.125435684689529259e-01
-6.293783535839315491e+00,4.656924857558958908e-01,5.210607083456955557e+00
-8.104747847938089667e-01,-1.856718041516909612e-01,6.303270009713444644e+00
2.749601349862300648e+00,-1.867304993625313658e+00,1.210783708860228458e+00
-3.348501486413429262e+00,-1.184911675904559702e+00,7.181310611647217179e+00
-6.249603741499039522e+00,5.429731994955739882e-01,8.207639955629454365e-01
2.304215243196375607e+00,-1.410086104055225054e+00,3.385245135532983785e+00
-2.446776899897492863e-01,-1.108891308238886486e+00,-4.775304658985783490e+00
5.032243012694332052e+00,9.226485469685655749e-01,1.628063840328145107e+00
2.652476768259554252e+00,-1.626185994986764305e+00,-3.826338870267857128e+00
-4.953906413808436326e+00,-1.439847055283682176e+00,7.112662844144160168e+00
2.254297620224867682e+00,-1.839678790588769930e+00,2.266529023950988542e+00
-1.348680432908619720e+00,1.930553228088225159e+00,3.002438895113814787e+00
-7.193903415869269402e-01,-2.554460109248812838e+00,1.639399416528435349e+00
-3.638805619870970620e+00,1.234545200795853281e+00,-2.120530699819544562e+00
-2.288134900228184332e+00,2.079814703232912176e+00,-4.102745312469064931e-01
6.304258577672677610e+00,2.312407705238332944e+00,-3.740513211711776087e+00
-2.356522790788169619e+00,9.008022448606876065e-01,5.675639464469290019e+00
-3.680557947982384004e+00,-1.894627125288216085e+00,6.496204328091534030e+00
-1.478896056861440655e+00,1.351696704174035313e+00,4.737180626710512321e+00
4.373091649372143230e+00,-1.185033353865856842e+00,1.156960940107657487e+00
4.463918387510456220e+00,-4.269433351722056735e-01,2.231134231476877616e+00
7.590620597148856064e-01,8.067150159711784507e-01,-6.295702055406155573e+00
-5.923938658377426059e+00,-1.161940060799221852e+00,-3.774088804358927685e-01
-1.700272257895030670e+00,-2.592091991252148286e+00,3.008116470025989475e+00
-9.456742771804139969e-02,-1.256293694784204495e+00,5.615546939121780490e+00
-7.125457681749389316e+00,-4.311782001481546667e-01,1.343727419431141712e+00
-5.419485285770222482e+00,-2.369016729466787208e+00,5.263518607898494572e+00
-7.516072404910435267e+00,-6.814959524724899520e-01,1.915636129251608644e+00
1.038851929306017663e+00,-1.366051985859521256e+00,4.705084844926638254e+00
-4.822372067538838181e+00,5.937176437602800089e-02,-1.995232593532290766e+00
2.217312192936021553e+00,2.010423276629867306e+00,2.033426206435664518e+00
2.231567409814004588e+00,-1.901204332842943767e+00,1.978471965131955779e+00
-3.361077819015845236e+00,9.075450992924043447e-01,5.656874221169985617e+00
5.780116933694077197e+00,7.235187937164926364e-01,9.482606053911907251e-01
-2.646637783976369729e+00,1.941961666211807991e+00,-8.332485797024149488e-01
7.096280665655370079e+00,1.072670581372568321e+00,-6.519459465883511662e+00
-1.871890264741698839e+00,2.107686170420552063e+00,1.826569707214306115e+00
-5.570511918708619170e+00,-9.075163202374449956e-01,7.394972084063186735e+00
1.877890271012514489e-01,2.422427777007308158e+00,4.880732111223806680e-01
3.948873967868010038e+00,-1.619607643031772959e+00,-2.633749112734365738e+00
7.309571465581976568e+00,1.806583757432013160e+00,-5.350291288130407885e+00
-4.029675314720936541e+00,-8.838564657394752944e-01,7.303585303013091057e+00
-9.614423641273445176e-01,1.804946016332152237e+00,-3.906055740637930374e+00
-3.940818222572113338e+00,-2.255768979979488442e+00,-1.486526919495182453e-01
-6.269521116116894888e+00,-1.788861153918258839e+00,6.636211002084752231e+00
4.685073106800030196e+00,-2.707246404521359770e-02,2.264654634633415764e+00
4.968128015623777927e+00,-3.138840973359823261e-01,-6.456664470963617397e+00
-7.406896885887118920e+00,-1.197352215224638750e+00,6.302137918129424143e+00
-6.884699483626337546e+00,3.111637365387038279e-01,4.563188681347766007e+00
5.855864104589735497e+00,-9.189056390106166428e-02,5.729317109964502386e-01
-6.570556420132385611e+00,-8.175687029318375876e-01,2.895818549304777223e-01
-2.475732015467822400e+00,1.708378402625488013e+00,-2.408183068255248305e+00
-5.026487562621065663e+00,9.558103089641889483e-01,-5.078826198048944640e-01
-7.954715563220950969e+00,-8.598968449415448356e-01,4.696801205270474178e+00
3.532973335176069707e+00,6.721408106967653451e-01,3.153752430873037582e+00
-6.157221810887882896e+00,8.496431292707291583e-01,3.159607537383591680e+00
-9.876537021113790393e-01,-2.284047331832949723e+00,4.189497908572592522e+00
5.768790463788699086e+00,2.087285581794854572e+00,-1.402288537924408995e+00
-8.022466198840864093e-01,-1.287574785506315989e+00,6.028728565594215993e+00
-3.239958322187716622e+00,1.514234744427639168e+00,-1.930408918052485712e+00
-2.865869934804413433e+00,1.164074093014866085e+00,-3.130539788366287102e+00
5.798585668667957549e+00,-9.362156470814690934e-01,-9.966366578853714797e-01
-5.504004795635208502e+00,1.131895433465841538e+00,1.446705075001634588e+00
-4.058781897990228593e+00,-2.176924855852678142e+00,5.974239175930219581e+00
-5.244576660643624599e+00,-7.870981452853383908e-01,-1.452105643737194862e+00
8.082457671890097561e-01,1.873574181470035738e+00,2.995928681472376010e+00
-4.875641400324314034e+00,-1.463157039586683084e+00,7.124816085555765177e+00
6.054046039129082901e-01,-1.557834730556720837e+00,4.676649091663568569e+00
2.525905288398564430e+00,2.402857231702436813e+00,-4.770367859924076193e+00
1.896969510265209546e+00,-3.828366738325558183e-01,-6.308137433685587325e+00
-6.367354639848303854e+00,5.556806696894041053e-01,4.696234748266848946e+00
-1.221750852037773782e+00,2.301240237666001054e+00,4.117117933203137126e-01
-7.505466708768310014e+00,-1.697995584056093854e+00,3.624367832578865745e+00
2.330021941682273390e+00,2.195141467663280110e+00,1.263829146416389548e+00
-5.724197576591651071e+00,8.361243350631831772e-01,3.395146349312561096e-01
1.741610923576948577e+00,-2.093000888170259977e+00,1.698667304461909389e+00
4.077560711510439084e+00,5.715513751455397751e-01,2.750551954225540108e+00
-1.926492571662490549e+00,8.628705275182348977e-01,-4.479790610011085583e+00
-7.136072568936124405e+00,3.018960699368774536e-01,3.073498164318984927e+00
6.302906949615276311e+00,2.868959852026120583e-01,-6.735679218379104327e+00
7.885588829799003108e+00,1.411237045285214986e+00,-4.166951744267373137e+00
-4.194568588966302691e+00,-2.064081429420270286e+00,6.338639739868384915e+00
7.520244969402627433e-01,2.512610699389733693e+00,-2.655835488675631684e+00
-4.891241825566839729e+00,-9.269754619181980182e-02,6.949251726528983930e+00
-7.909659927407952651e+00,-7.143995659138351328e-01,4.536527749872589332e+00
-1.613968634541845804e+00,-1.110540067200749714e+00,6.559057287873554465e+00
-4.016872848111409766e+00,-1.828620885375933147e+00,6.603810815421035763e+00
4.074492737828003364e+00,-7.524041578317921530e-01,2.354952281443539963e+00
-5.438563283538069726e+00,-1.530805104529511906e+00,-4.829442130931998478e-01
6.952441099945216862e+00,1.848783479716434641e+00,-5.885819858239090152e+00
1.746761756627717377e+00,2.634346976125678808e+00,-1.752734746017449829e+00
6.342064851891622723e+00,-6.843242055218567987e-01,-3.891783989235690910e+00
-1.296919283067204665e-01,1.047306663877610511e+00,-5.674894667776498203e+00
1.833639498670277979e+00,1.754037377160249989e+00,-6.079636478192568028e+00
6.046651423890988752e+00,1.438747082021993862e+00,-7.034911204339437063e+00
3.192594947975515129e+00,2.688385247282242485e+00,-2.372166728769142363e+00
4.457796791619145438e+00,-1.014355654135434825e+00,1.330793341970750499e+00
5.551005810288761388e+00,4.670059343885865633e-01,1.271874843214083173e+00
2.768239017649216649e+00,1.225586412435482497e+00,3.198718114803127399e+00
-1.387081452333558174e+00,2.055233460049519234e+00,-2.500686727331359105e+00
3.237584436992177128e+00,8.094902762388755946e-01,-7.188937417884377012e+00
-4.954621005762113839e+00,-1.638252576452741360e+00,-8.734526210208398700e-01
-1.553198657186500409e+00,-2.401308103329270249e+00,4.053893090898739615e+00
7.620501607005724765e+00,8.103189363034063453e-01,-2.486957939953071683e+00
4.109634993914315970e+00,-3.470560867184348530e-01,-6.627408796771947941e+00
4.597188338055866907e+00,-8.792428209149025786e-01,1.575776586624429765e+00
-3.258123915387159730e+00,-1.961557958002644320e+00,6.225088110583929080e+00
8.017552019691835952e+00,1.206372981904664687e+00,-4.732366518436600167e+00
-6.144561680339894139e+00,-4.276804640207625408e-01,-4.796863819087682224e-01
5.059258177162812231e+00,-1.364648737718109572e+00,-1.705581512740550032e+00
5.185704455208310470e+00,-8.278012780401929893e-01,-5.288449772507099134e+00
3.269036502735449989e+00,-6.838213050529361459e-01,3.416930982629098779e+00
3.859586222584326709e+00,-8.066568753271109449e-01,-5.782055965198956926e+00
2.037071691963116826e-01,-2.461206252755379076e+00,1.502183890830027346e+00
1.124727266523621871e+00,-2.329975544751789140e+00,9.581103998757711793e-01
7.289083816747230493e+00,-5.900651440131758629e-02,-4.723568692493868681e+00
-6.179796693790025053e+00,8.767185116340447948e-01,2.853521646303078363e+00
4.313255687687803430e+00,-1.287387800989372888e+00,9.430250130508399664e-01
6.704843185252186366e+00,-3.504022322077526286e-01,-4.832632547692693237e+00
1.751861419385278396e+00,2.649317164932721624e+00,-2.218905362611669929e+00
-3.635272748870522541e+00,1.815044676298647852e+00,1.249770865337122672e+00
5.353580083309438464e+00,1.053915050403114506e+00,-7.411628087283711253e+00
-6.754912393153685635e+00,-2.065634166159878937e+00,5.074711768655485677e+00
5.969788023644074570e+00,2.204414931390123567e+00,-1.987601148809287288e+00
3.878275994153714379e+00,1.610695279479164688e+00,1.855251741186569880e+00
5.281853705417026035e+00,-9.876739664924312212e-01,-4.607800990497850968e+00
-8.644016101246595474e-01,1.476609481630584586e+00,4.430153925240912116e+00
-3.398754200805117254e+00,-6.428650977908039188e-01,-3.275273404266046740e+00
6.133369808066587048e+00,2.143136997986416770e+00,-2.040401152505689542e+00
-3.776963088620401532e+00,-1.171892362788941488e+00,-2.481615241706662367e+00
7.138661818021655669e+00,1.368496550710393223e+00,-1.861864577266011622e+00
3.205281037368331365e+00,-1.862866000954126688e+00,-1.983648200350331292e+00
