1.445545591859914047e+00,2.161407975699499051e+00,7.625154827466201768e-01
7.593599312254392109e-01,-7.331452712373718317e-01,-2.339471780788137945e-01
1.617385133238827821e+00,1.738937302989981504e+00,1.933479757529174836e-01
1.367176105492023952e+00,1.579119697060864080e+00,-5.470784562792169875e-02
3.303383599632535583e-01,8.081472992583755843e-01,-4.522449576325254239e-01
6.750340007308809342e-01,-5.063394373764845691e-02,4.912321254570389817e-01
-9.798498579638464934e-01,-2.038942633571810825e-01,-4.560529724409898567e-01
-4.261356582980710406e-01,1.165573687146179038e+00,3.676290650753792355e-01
-2.394630704897704465e-01,9.683970140789629477e-01,1.158315712391635666e+00
1.484748617601653553e+00,2.956275761357090026e-01,-2.320725746446911375e-01
7.278726148557472797e-01,9.177035412467766939e-02,-8.771795281122629628e-01
-1.423212639798021317e-01,1.372688665882436210e+00,3.328490678938439973e-01
2.729614514315766294e-01,4.848973076756666334e-01,-6.436114082447600415e-01
1.079921664362617495e+00,4.038610213980577818e-02,2.240378212836186544e-01
3.454360152591935407e-01,-2.001447530604603120e-01,5.758555387796481240e-01
-1.587006128183779952e+00,-1.919803832911546326e+00,-7.220994611224988979e-01
-1.756021118915472856e+00,-1.518992787961828794e+00,-2.592100246991337342e-01
9.587281257795208234e-01,1.684528226038249921e+00,1.145619992946913746e+00
-3.371250894190098712e-01,-1.647835965185270979e+00,-2.719066643365896097e-01
1.468524616126557047e+00,3.148968333762530158e-01,-3.179294135481594563e-01
5.204912736152165209e-01,1.869067501665919950e+00,4.249410829978492732e-01
-1.061748164217367341e-01,1.608879916842928415e+00,6.802452112210405355e-01
9.948947633385551992e-01,1.511035831509855765e+00,-1.055485419685709553e-01
-5.421504740162803593e-01,7.942271129326732293e-01,3.621523354995370703e-02
-1.143483767606673362e+00,3.333031955645308075e-01,3.450632856463777820e-01
1.116039499511418231e+00,9.705805648385549267e-01,8.243511452548150098e-01
3.371346240094295066e-01,1.583734481002204486e+00,1.823917554889985804e-01
1.039494775855944075e+00,1.184254566209494763e+00,9.505212723178231293e-01
1.139610103280053743e-01,-5.979640558764185432e-01,-1.099946519638628883e+00
-6.268336017284320549e-01,-1.406092508434414912e+00,1.080627959842171831e-01
-4.271841321599749164e-01,1.103750650861601290e+00,1.085887197260684278e+00
-3.766961968244516012e-01,-2.007782488101311547e+00,-8.693405642494927976e-01
-5.373596530065336552e-01,-2.700245578238846117e-02,8.912266527414746120e-01
-1.112433802207066558e+00,-1.314331868539101889e+00,2.525110374573338867e-01
9.902208293055747568e-02,-1.637756341130001791e+00,-8.254463390633494102e-01
9.554129376885596436e-02,1.515604885285605885e+00,2.973158618752508864e-01
-2.950887825477511162e-01,-1.951925807937914259e+00,-1.000825330322314688e+00
-1.583883912899536117e+00,-1.333024273774189306e+00,1.215047806327297086e-01
1.353771621631706390e+00,1.891271213730903122e+00,2.098243671748875605e-01
-1.136810602089054489e+00,-8.846180129351324251e-01,-7.543199475907731433e-01
-8.471242923636849165e-01,-7.023304245204348151e-01,-8.376906632174547784e-01
-5.220029105852962426e-01,-1.881185623291343756e+00,-1.201093935183652484e+00
-2.421847798806734398e-01,-1.897301384017666015e+00,-7.734317169794774349e-01
-1.353577125633042222e+00,-1.336150334649648941e-01,8.534724952647031182e-02
1.551840356200667959e+00,2.077224767966931118e+00,7.413787247179728368e-01
-1.183511678440827719e+00,2.799308226200037386e-01,4.767602988355824079e-01
1.019551258691564488e+00,-4.517100008926271393e-01,-2.699062392481457184e-01
1.410728511583406508e+00,1.629430205949281341e+00,8.785203815249400527e-01
-1.044994502871290920e-01,-1.416874134886373815e+00,-1.216968450231195709e+00
-1.533775283019930491e+00,-1.066961538336166138e+00,2.621766478123781496e-01
1.299619111978958408e+00,1.592773288901844220e+00,-5.995773856932076068e-02
-3.005756827960524014e-01,9.791742249651639307e-01,1.979339281884575155e-02
1.559580220953421303e+00,1.907451557510886353e+00,3.358911613818995612e-01
-1.670013639784529991e+00,-1.705110273584398151e+00,-6.042602406874699739e-01
-1.034116137619215614e+00,-2.031595643718951960e-01,7.726503637900403731e-01
1.664659101005746988e+00,1.381523920736291267e+00,-2.314249185484453658e-02
-1.138378987142764531e+00,3.219605589264155077e-01,6.701740411803102093e-01
-1.148260423161937549e+00,-2.255532475769817857e+00,-7.668302188641936690e-01
1.713553710486693138e+00,1.725668825875977808e+00,4.538635710600629758e-01
-1.680621476093780320e+00,-1.675108573625750052e+00,-2.337529541093122665e-01
1.279354329668845214e+00,2.128310364777292740e+00,4.705485982904408782e-01
6.478331512291043426e-01,1.134153039307519872e+00,-3.164732338963673342e-01
-9.103994677878068931e-01,6.159729233347468469e-01,8.152252156541577310e-01
-1.350550917108393367e+00,-6.429243229151110350e-02,2.716091875406917988e-01
-9.106085292171559042e-02,1.815474061473997813e-01,9.328325691809449260e-01
2.044703699970838451e-01,1.296389983893229569e+00,1.233914666756230849e+00
7.389453875505641589e-01,1.304873437526525404e+00,1.130967627765761652e+00
-4.907964801829312051e-01,-1.461693023280390191e+00,-5.483278434809375421e-03
3.172610561741834312e-01,1.900625307029840227e+00,1.082273030041327910e+00
7.252960157051842049e-01,-7.119359261542962392e-01,-9.765555116238598954e-01
-1.195329995441765325e+00,1.688870701368398730e-02,6.998738206384502725e-01
-2.816981813641262766e-01,-1.879711016845768246e+00,-6.357158226807365642e-01
8.979728260577725107e-01,-5.755944357685768287e-01,-8.853668793038669271e-01
-3.453971783664177009e-01,-2.603826560718867644e-01,7.796248780213032026e-01
1.587394766561399440e+00,1.166371965655458309e+00,-1.863651782217191355e-01
6.193459145974244268e-02,-1.311011400376309810e+00,-1.186127416810031310e+00
1.417860307950779886e+00,1.542505440458902255e+00,8.411261663009963474e-01
1.517787374975360926e-01,-1.578869874849993638e+00,-9.804208145353553450e-01
1.422214814989767095e+00,2.177469315281064244e+00,7.039162346069649523e-01
9.737946585061262317e-01,5.642913923451959857e-01,6.871269119786255208e-01
-1.493627100679981723e+00,-1.221584854248908503e+00,-6.304594795791660378e-01
-9.671218076121651519e-01,-2.223828607769191112e+00,-9.890468464996110542e-01
-1.688142054897223465e+00,-1.218912984833929514e+00,-3.540669939872255756e-01
8.501887504115225314e-01,1.941214675101612164e+00,3.471276501520113023e-01
1.697306879757678022e+00,1.835236103483651959e+00,5.076358217075862544e-01
-1.691426654502846016e+00,-1.763771465071574118e+00,-3.129386803551797436e-01
2.747864108505543856e-01,8.315737187375014106e-01,1.119731264289672401e+00
-1.248564513726182490e+00,5.143034615410859572e-02,6.235041173402967596e-01
-5.624724532900058360e-01,6.648655821882959449e-01,1.055072042256718357e+00
-9.697546074884233480e-01,-1.799943867178237289e+00,-1.369408695961649713e-01
9.317568348441909176e-01,8.839235222122983071e-01,8.939716535288367849e-01
-7.176203419160537278e-01,6.009764980080588570e-01,1.013646651066971938e+00
5.302243526789427591e-02,-8.552959992530431155e-01,2.534623297866693825e-01
1.013300681381730239e+00,-2.584788575855451742e-01,-2.986873959020038428e-03
-1.348236242310409116e-01,1.051876469347732268e+00,1.180489025640948819e+00
1.703171682512811813e+00,1.040227626528165805e+00,5.676708818725687868e-03
-2.991362256402203545e-01,1.421415659899513795e+00,6.432893013450573516e-01
-1.149022918883466193e+00,-2.204559204966074049e+00,-6.397881809080908644e-01
2.543457561937832734e-02,-1.438828061541235437e+00,-1.195975328200506338e+00
-1.122769197512775374e+00,3.464528278889006385e-01,6.611650947546379165e-01
-5.208651677626209286e-01,-1.789925724795728978e+00,-1.211172555665917416e+00
-4.568939360960834750e-01,7.250408957064922166e-01,-1.038237326680574724e-01
-1.029626911197472072e+00,-7.289705876503336235e-01,5.844403573905267990e-01
-2.580930708346724223e-01,-1.874871114564760965e+00,-1.067357908361408647e+00
-5.328138316143533615e-01,-1.260083960187498020e+00,-1.181602219749671834e+00
5.731505515881797352e-01,-2.689218258452257815e-01,-9.975121252642371594e-01
1.614761443739122226e+00,1.535113781158482515e+00,4.208247327452864506e-02
-8.444276809964401664e-02,-9.579933304044138120e-01,2.389550909225695019e-01
6.783406061073512516e-01,6.646218675355021199e-01,-6.128420709341835249e-01
5.232068409798872333e-01,-1.966580978909850397e-01,4.903997594065954702e-01
7.304070413671809314e-01,1.858051692905749119e+00,1.187365174036837612e+00
-1.613550187741744191e+00,-8.866725543396305476e-01,-2.130346187868418506e-01
-1.193822305299983011e+00,-7.242385329737798250e-01,-6.274759205171641652e-01
-7.439257371660060736e-01,-2.140910850101701346e+00,-7.288922790890800529e-01
1.599932200460663534e+00,9.255993600683529721e-01,-2.218013602888223856e-01
-2.978335642768780156e-01,-1.843628429100614197e+00,-5.708138873012587045e-01
4.506675930754466264e-01,-1.287012334633486077e+00,-6.772038297822624564e-01
4.047577834483844228e-01,-1.456279677323388533e-01,-9.573783556221336921e-01
-6.682886904940049666e-01,-2.158366962052282734e+00,-1.006653846473029690e+00
1.334537231129237778e-01,-1.160450148169038104e-01,7.195403458426975485e-01
-6.289000145070312575e-01,-2.141671739991352630e-01,-6.887101120977363600e-01
1.141929539417025019e+00,2.084465378920110634e+00,1.053015377963373078e+00
1.532373341740350003e+00,4.804299873790503494e-01,-1.234005152324226667e-01
1.562136110264787714e+00,1.996468229017211105e+00,6.886303971110759869e-01
9.789083935036041462e-01,3.946336553342651432e-01,5.706858180124559921e-01
1.461676121522372362e+00,1.349291687197169409e+00,-1.578494866682165210e-01
2.284603193761509388e-01,7.827415493817818648e-01,-4.311311810846136794e-01
-4.787507662329985036e-01,1.263686912230957748e+00,7.402652405042091655e-01
9.730495853433378528e-01,-2.329531521613531497e-01,8.809226542361910106e-02
9.745685480153885027e-01,5.077083265186304040e-01,-6.935757689977847251e-01
-1.471403072608387319e+00,-7.442158156531325508e-01,-3.472778438470147666e-01
1.244417512906674350e+00,5.465241956359681019e-01,4.488230726401947757e-01
1.032629009315121360e+00,-5.391034096173709100e-01,-4.904461924833493636e-01
-2.994593582535947651e-01,-1.921415365108466222e+00,-1.065243816019831868e+00
1.017285665455934573e+00,1.223468874143728957e+00,9.823012636371014628e-01
4.282340910825718217e-01,-9.404608925481791060e-01,-9.276084153457675452e-02
3.732821671968201138e-01,9.470554537820116137e-01,1.130536519349208291e+00
-1.716493386100151453e+00,-1.387731764329112272e+00,-3.507000605816107397e-01
-1.110064141811282212e+00,3.677259862398111201e-01,6.673987157338698850e-01
-1.488535827966089409e+00,-1.979635580220776125e+00,-3.292554160449153167e-01
1.943352073186079831e-01,-1.375369340128855145e+00,-3.719399695260967587e-01
-1.724348946595825716e+00,-1.141895051169933062e+00,-1.849711180392339116e-01
1.650804846335782505e+00,1.456431786673608064e+00,1.763442082021279486e-02
4.243311965805596775e-01,2.039075199441479302e+00,9.258745380943083081e-01
-1.641478653599667548e-01,1.472052807262359986e+00,1.094002099107038939e+00
-5.111339288057952235e-01,9.736716952686261806e-01,2.191752340145725619e-01
-1.108564614890458211e+00,-1.260407007564616100e+00,2.867572336762541085e-01
3.000128274590685984e-01,-7.811239040956287072e-01,-1.142469869797390070e+00
-1.728742179991682448e+00,-1.319204423012948046e+00,-6.716596762190109315e-02
-1.284344390429206006e+00,-1.493143378334012894e+00,-9.199540739834917158e-01
1.004250415568210597e+00,2.162876322031355603e+00,1.061617327851646531e+00
-9.676086459052348765e-01,-5.547949084968376576e-01,6.603957903569650512e-01
-1.591249677775843141e+00,-1.325893079072684166e+00,9.766532318203784147e-02
1.606668505653043422e+00,7.004320130342506223e-01,-2.093670425952914582e-01
-1.326321691059557217e+00,-7.418202972700003173e-01,-5.137612970723530736e-01
1.120747271181973481e+00,2.169193753971566441e+00,5.569430036540992113e-01
-1.926539344870237258e-01,-1.880775682487356715e+00,-9.293050095711203884e-01
-5.511238455883023940e-02,-1.649688932066011304e+00,-1.143101138436708242e+00
-1.059023845615396420e+00,1.430258359348099972e-01,8.013442965104129456e-01
-6.661456170519901576e-01,9.202661872282404953e-01,3.687510495603066873e-01
7.208719882151665148e-01,-8.081493776459547362e-01,-2.936454387488611761e-01
4.303424833272292416e-01,-1.309118630434568331e+00,-8.993979930753701613e-01
1.678852612730521665e+00,1.865179770273690973e+00,4.412177753443821682e-01
1.165868947909442399e+00,1.226114501409508950e+00,9.007223252536922242e-01
1.247586608984805556e+00,-1.483406330705537846e-01,-5.190248171052369575e-01
4.005550264080458556e-01,-6.666277397100497382e-01,-1.100230925687039507e+00
5.829192161951368689e-01,-7.944066665794875526e-01,-9.528711987791080307e-02
-5.966639424948664283e-01,-2.018861125928101519e+00,-1.131118102893719612e+00
8.233019916911971103e-01,1.632088774061594361e+00,1.177871129164018704e+00
2.101859436453145102e-01,1.909006503846680136e+00,9.323100260878356416e-01
-1.050362576248238478e+00,-1.186024927751797992e-01,7.937400883787746331e-01
-4.384360441332881830e-01,1.218610659634895121e+00,4.957812746805318471e-01
-1.241324819826068904e+00,-2.014336733051516948e+00,-3.374146290218410504e-01
-3.000310965785241701e-01,-1.609070511032376638e+00,-2.483698700671603810e-01
1.699296826228958945e+00,1.167137667198937745e+00,2.874293567119649007e-01
-1.186801329173010178e+00,-1.500640005312251057e+00,1.269714269954803632e-01
-2.567087943093093183e-01,-1.257736064440747148e+00,8.746411514758214989e-02
5.918005719732081227e-01,-5.945533242258818074e-01,-1.058994346477268200e+00
8.398963207410321541e-01,4.869083338681332029e-01,7.360947896610887664e-01
2.595658423355209909e-01,-4.580681846931726198e-01,-1.063653194082087028e+00
-6.326900174216166794e-01,9.227743603195672772e-01,3.160907805432786044e-01
7.009468489607156849e-01,-6.505380365998306713e-01,-1.001040399681512705e+00
4.280261585490003351e-01,-1.306727294442226350e+00,-8.011077183554431436e-01
-1.313626512733385043e+00,-2.155901792155245467e+00,-9.537628263312333265e-01
1.257393504200157608e+00,4.645785714713328018e-01,3.786004495194090769e-01
-1.910379212142203631e-01,9.038168961212009744e-01,-1.278194426510781134e-01
7.373052864890397018e-01,6.399321836183694545e-01,-6.238964091650189836e-01
9.424186975187275328e-01,-2.630235909007119233e-01,9.776626312896588566e-02
1.121523853032412976e+00,2.182959708230982621e+00,5.681264917676540627e-01
-1.315932144270783422e+00,-9.134637780470381552e-01,4.469485796138668587e-01
-1.600552705507890972e+00,-7.242341234211822076e-01,1.913338737302190951e-01
-1.502894691579991004e+00,-6.504328903199042555e-01,-2.300922109929235959e-01
-1.071917253603763776e+00,2.648265067868310618e-01,7.829988408751366036e-01
1.289871464302395410e+00,2.210848578807100395e+00,8.864287195927443852e-01
4.131677054509619307e-01,1.160120111746626437e+00,1.175237644797744618e+00
1.257466763163057832e+00,-7.555900614357197176e-02,-5.696679336088600332e-01
-4.703361307073539166e-02,-1.208785596657211858e+00,-1.211845880147162324e+00
5.219777245483261385e-01,1.197408053705563136e+00,1.162908590815262544e+00
3.593508991730794411e-01,5.171863672401915135e-01,9.651661337901631388e-01
2.289642616002315056e-01,-1.042614160413317226e+00,-1.171882235738403111e+00
1.277054590631514053e+00,-1.064809308709849245e-01,-3.917738855674565146e-01
-1.600035867709704185e+00,-9.252856522435995990e-01,-2.652745754215266594e-01
-8.833859796014471577e-01,4.660936993989409083e-01,6.621999240659633135e-02
5.122097699281286109e-01,-6.760533984288626952e-01,-1.074186842983128054e+00
-1.330648968488661765e+00,-1.186070074164180532e+00,3.153745147617623146e-01
-7.359848132323497660e-01,7.040079367672241739e-01,1.736918229518508716e-01
-9.362815043186165087e-02,-5.021644923826962259e-01,5.628578518554975263e-01
-1.247384866925723701e+00,3.785059379958961162e-02,1.028730978002971030e-01
-5.190634893518325521e-01,1.006665781341946175e+00,2.698995747245709897e-01
-6.197413506558762109e-01,-2.053112131990698863e+00,-1.093581590431313977e+00
-8.717792056217890106e-01,-1.725533689450136743e+00,-9.001710146009975211e-02
3.516797072465503438e-01,-7.901988420925410983e-01,-1.137277015437712091e+00
7.876952095537024245e-01,-5.350140997467973669e-01,-1.283597331814111640e-02
-1.620471807079085502e-01,-1.743576215008143970e+00,-5.312974775761640789e-01
1.465411845745472064e-01,-1.109491381028770318e+00,-4.207136585026489961e-02
2.756076982097717121e-01,1.106074033865027229e+00,1.187411220637974107e+00
5.110530963462333043e-01,7.172325100739505022e-01,1.001226393947955762e+00
-4.675972637226142870e-01,1.044702364906499037e+00,2.559609456211947576e-01
1.470812049274807354e+00,1.539903987539837482e+00,-5.244495222427254799e-02
5.105003093537324038e-02,-1.429476686242603600e+00,-1.186560344583460269e+00
-1.266024194170745631e-01,1.535544109104859611e+00,5.612719682721147851e-01
1.084870044937261691e+00,1.681264945113856157e+00,1.083668115184887482e+00
1.705912322219330646e+00,1.093240743577258201e+00,1.919510329489541589e-01
1.010013760590222376e-04,-5.640633824216674252e-01,-1.073529616835427358e+00
1.011962339381795140e+00,2.163089603950255402e+00,1.064747747224393137e+00
-1.656078505899789111e+00,-1.944236816308446913e+00,-5.443405600321323812e-01
9.147066131408831957e-01,2.217998539411856651e+00,9.395077694022626602e-01
1.090505510623168473e+00,6.830982121575696064e-01,-6.033610753207963029e-01
1.081032354538382201e+00,1.836107253834708519e+00,1.644950385283761030e-01
3.781924936295180673e-01,-1.780236517155121823e-01,-9.636073485352708579e-01
1.036055511799842010e+00,2.199850399022663883e+00,6.669958986349939778e-01
-1.113014204882937924e-01,-1.803103466543471978e+00,-9.407147507420863253e-01
-1.261748868332606577e+00,-1.804772792117183444e+00,-1.017429613580787429e+00
-6.631020296813895376e-01,-7.449895400730257577e-01,5.683064196861578043e-01
-6.207686408334518458e-01,1.256159316021672190e-01,9.571541107797174597e-01
-2.390727637098463976e-01,-1.561724700341629246e+00,-1.235713742246823843e+00
7.646749539344447344e-01,-3.914837122090066290e-01,1.441533550043233303e-01
1.576528997346278382e+00,1.921172601203080976e+00,3.439488506462751727e-01
9.342115674186763918e-01,1.958617126371271056e+00,3.120413193956780851e-01
1.209480326125687677e+00,2.232161944955978861e+00,9.418080129160094627e-01
5.722971061176375107e-01,2.069302549044129247e+00,7.598165452807228437e-01
3.467891049691688155e-01,-2.122379605878314812e-01,-9.736490720999410042e-01
-1.723649848853610944e+00,-1.493332360843196538e+00,-1.470612354183108983e-01
3.258478810096679390e-01,5.180054701977113707e-01,9.820710270489175775e-01
-1.500916942839938484e+00,-3.686108095072493374e-01,1.509388630270181164e-01
-1.546707394782121936e+00,-1.066041552333406361e+00,-4.920883447820959544e-01
-1.406334355512255829e+00,-1.615650090942087058e-01,3.835385685295626956e-01
-3.985686017606632769e-01,1.317290106578501208e+00,5.924368329524772880e-01
-3.902793248249039615e-01,1.305368338220657343e+00,9.644959786567046667e-01
-5.679650117505398166e-01,-5.800398726504278901e-01,-9.210543496579239875e-01
-1.209026808377092532e+00,1.202797844830967300e-01,6.408599653245370398e-01
-6.977547515663931055e-01,-2.163970427506304972e+00,-8.620228185188073544e-01
6.058255745193885655e-01,2.114403725849325788e+00,1.052379374378421550e+00
1.250546563991644877e+00,2.027696408746611390e+00,3.387481189526950764e-01
-8.857180971688206617e-01,-1.347098751795192895e+00,-1.091537455147945979e+00
-1.567625768251287743e+00,-2.031963793496999404e+00,-6.562051642309277844e-01
-3.157506158999628942e-01,-1.902706724839374475e-01,-8.150219114192802650e-01
1.430748260865264854e+00,1.010877299274759000e+00,-3.670452174933952483e-01
1.996948926836203120e-01,-1.281060358670013555e+00,-1.159270894757538528e+00
7.040826323415019794e-02,-1.073059626715141546e+00,6.064147558958361828e-02
1.453857199289471769e+00,1.183129373363589920e+00,-2.508166910913791625e-01
-8.132027492779679845e-01,8.305741637164205660e-01,5.520436924543919988e-01
-6.965851476505263706e-01,-1.163357295064900487e+00,-1.111582422931154168e+00
1.658676658220498146e+00,1.893684738486806962e+00,6.012963024741970752e-01
-9.570004448054079127e-01,-2.257816171007875017e+00,-9.512146528936875622e-01
-1.291265918734278983e+00,-5.090209403077778916e-01,6.040041020556567997e-01
-9.048210021723548380e-01,-5.721251994491074466e-01,-7.460070065829016439e-01
-1.446700352647374732e+00,-7.671712559403390808e-01,-4.076436328667600306e-01
1.103592556626400878e+00,2.235321323434336094e+00,7.970211218443301604e-01
4.441199058239689856e-01,-8.844328470775648932e-02,5.927241637364113469e-01
-7.259067668443959231e-01,4.940952288345414334e-01,-7.050415080029417969e-02
1.024918560350608354e+00,2.256596548695164017e+00,7.720494078067628996e-01
3.747425717703705139e-01,-2.501607290889079627e-01,5.225384175054211822e-01
1.704932517959520499e+00,1.390675701655503804e+00,3.724661751791769615e-01
1.383897064361614415e+00,1.164105125625774173e+00,-2.961396744741949250e-01
6.671001131176953480e-01,-1.119384014569594354e-01,4.429252661830968552e-01
2.237062842884865455e-01,1.033135089932593287e+00,1.176454691386973561e+00
-1.079448786390565032e-02,6.159169329120545155e-01,-4.555332892631262509e-01
-6.403008080943981550e-01,-1.284812426449082334e+00,-1.157373959092288018e+00
-1.535598137837176580e+00,-1.637871379088622126e+00,-7.764299436040110747e-01
1.307236200085833300e+00,6.037727128333393312e-01,-5.504325149655721061e-01
9.804098594524819354e-01,1.470740988150547768e+00,-1.403638144318057057e-01
-1.433430737477078720e+00,-2.953872701629690067e-01,8.513282639029995380e-02
7.058541820210951778e-01,1.868620489983204402e+00,1.205148355284473505e+00
-1.592202004046645580e+00,-1.266617702272975654e+00,1.549275350549508268e-01
-1.702801861054501043e+00,-1.484446434336607279e+00,-4.573572706750718697e-01
-1.340426755809020598e+00,-1.572692213087722723e-01,5.823310281749491946e-01
-1.718352670842793195e+00,-1.350396653365583788e+00,-3.090363500228973104e-01
1.076483112036959566e+00,-4.434044165176270758e-01,-3.791661295498727213e-01
-1.522910095968832644e+00,-1.563239678674961830e+00,-7.588735187319839426e-01
-4.507117820478265258e-01,-1.274114081862783854e+00,-1.208723529810972863e+00
2.128424604724256652e-01,-1.111876690514465027e+00,-9.358620627495492506e-02
1.605607668495862672e+00,9.512945424143937068e-01,2.993980557629492001e-01
3.305988840922059468e-01,9.054589699183708262e-01,-3.926667295643267441e-01
1.737780050454876823e-01,9.295569762690552018e-01,1.162109208027255258e+00
-5.924919805651345239e-01,-1.000818060041074542e+00,3.966371408141071142e-01
5.569633418152321047e-01,8.978750969383987313e-01,-4.531151317160130310e-01
7.920626401531591365e-02,-1.304391006700468925e+00,-1.886644710902593558e-01
1.321480891388448375e+00,3.777941153650006267e-01,2.392526989886901434e-01
-8.064279042194141267e-01,1.482172270197843755e-01,9.246338464655972089e-01
1.515483928778237788e+00,2.088534061819088627e+00,7.962638407076868541e-01
1.514613717426454231e+00,1.417134630391404304e+00,-1.043513748415867554e-01
5.416282612889731229e-01,4.802247414891398503e-01,8.754184785920094969e-01
1.068227953943969410e+00,-2.664968550556086613e-01,-9.998862768898379716e-02
-1.092077776785349341e+00,-7.183010560239908582e-01,-7.038083079897515804e-01
3.773627421615045607e-01,-7.167649512698323067e-01,-1.117564275421795150e+00
5.183839194795412109e-01,1.253597534321582163e+00,-1.970278990146511477e-01
-2.532476708257299092e-01,4.302481359857088239e-01,1.045704833875463535e+00
-8.662637015035596910e-01,7.066821015635931236e-01,3.757157521855608584e-01
8.063824658164655546e-01,3.605435090982873902e-02,-8.833397921772141448e-01
-8.041558778863071993e-03,-1.735939927460254051e+00,-9.928484687375001005e-01
-4.593047275880890457e-01,-1.921340740824652338e+00,-1.160649339833812466e+00
1.480400253555698598e+00,3.633286047577093392e-01,-3.898203816693147639e-01
-1.059481844813485729e-01,1.249530383473005601e+00,1.202649927961238152e+00
-1.998184987228541765e-01,5.776010642986818544e-01,1.090036647819219828e+00
6.921918192073202025e-01,-1.868127254388800979e-02,5.030482696313894886e-01
-1.325810006161862953e+00,-1.760024071099480114e+00,-9.541759320771139308e-01
-1.067277163151814756e+00,-2.242448944697041924e+00,-8.254958009541635278e-01
7.860741367478133457e-01,1.682972899629056274e+00,8.498882346884538419e-02
1.285155546995085940e+00,7.247299949303522837e-01,-5.340758030751193708e-01
8.892863831286793586e-01,-3.492269635796404481e-01,-9.110491539238267933e-01
-6.262146955024140704e-02,-1.313240906463642776e+00,-1.212224189655558781e+00
1.686569807873649074e+00,1.297702460688805681e+00,-3.112269739767271198e-02
-4.227852268187232143e-01,1.141889193199870256e+00,3.256416861528080853e-01
8.525809966571311627e-01,-2.469872379137816043e-01,-9.303417316853150876e-01
-1.227779752686933623e+00,-2.121441028495185677e+00,-4.946855384481667062e-01
-2.307425111760277314e-01,1.311009539894202103e+00,1.126214407896563019e+00
-8.905532685621604383e-01,6.303589374851044091e-01,3.001699570809262529e-01
1.003544361970673426e+00,-3.470216615476747202e-01,-8.377871049033734918e-01
-1.708039072831886163e+00,-1.196511535651084257e+00,-2.981014050569475993e-01
1.497718054660374332e+00,1.761573761924392079e+00,8.054947584724218013e-01
-7.892377613178519491e-02,8.635693853002327502e-01,-2.377342110534153841e-01
-9.834849464023684984e-01,-9.352368193558880521e-03,8.420657936808083610e-01
-7.825921195682944420e-01,6.272394322866045036e-01,1.261200455362490036e-01
1.348987905544829058e+00,6.229122345473520062e-01,-5.373998232995277347e-01
8.449122155209624063e-01,1.466353192076584211e+00,1.138814995208590197e+00
-2.658703955111700878e-01,-1.943324737185164519e+00,-9.685859963217073876e-01
-1.278274883599914702e+00,-1.726655219811088271e+00,-4.735513166877639707e-02
1.531243921699675381e+00,5.573523017303109173e-01,-3.744352812513112583e-01
1.151084801499137722e+00,4.286901195237531881e-01,4.710982688017180120e-01
9.907036425092973220e-01,1.163316499011343153e+00,9.729414234556077457e-01
1.136242564788492448e-01,-8.918293747110955794e-02,-9.063364278285764852e-01
9.216929932692702332e-01,-6.790329341011522857e-01,-7.766613512055600133e-01
2.739438878700101720e-01,1.704133626738453255e+00,1.213179033951830021e+00
-1.624051845115695725e-01,-5.031215691348925878e-01,5.933218209185324721e-01
1.546028521400526268e+00,7.764406939702377386e-01,-3.399659787350905460e-01
1.476228954565604212e+00,2.026199789202905777e+00,4.301831997527477136e-01
1.538124923752363093e+00,1.823434285453814585e+00,2.232294401769643333e-01
-5.680579584016703931e-01,8.245815954421177318e-01,1.073342545849742979e+00
8.356915171587716573e-01,1.182569157111835606e-01,-8.424295180339443911e-01
8.689323158456972729e-02,-3.674578014040398299e-01,-1.013527656388423459e+00
-6.837817546947470015e-01,-9.834600474718978580e-01,4.325618760350745662e-01
6.434404140541861716e-01,2.139843033919575088e+00,8.841925761001275808e-01
2.497618946749295132e-01,1.580362056807484150e-01,-8.071634204439228633e-01
1.591014290364842765e+00,2.036492156044103385e+00,6.759692789245447253e-01
3.079632877050271778e-01,1.934407169009986882e+00,9.967751531956352551e-01
9.591635835150313927e-02,-8.668248949538859272e-01,2.176343509093278117e-01
8.455919450156165196e-01,-7.365119257805179398e-01,-8.209087568204377350e-01
-4.225480135430463302e-01,-2.005637424470056551e+00,-1.051222341326688570e+00
1.610048993636791881e+00,1.467553319492037156e+00,-3.844974788258975762e-02
-1.454819119280019724e+00,-1.917671790878251903e+00,-2.525849012150458428e-01
-1.927763586806814089e-01,-1.471230027217205416e+00,-1.237603709729466095e+00
-8.103003975739766496e-01,4.455446463238876831e-01,9.514218197851127545e-01
2.711578147377446957e-01,-1.452897028595706796e+00,-9.464330743530042778e-01
3.940681086177570958e-01,1.996065563509644925e+00,8.268032612454689900e-01
1.708522620206113896e+00,1.080301782251703813e+00,1.005456301178202505e-01
-1.959795808805855633e-01,1.547488218469084131e+00,8.984551632622008732e-01
-2.942647787411186711e-01,-1.945547201872346532e+00,-7.773432675338612929e-01
8.619993036462417213e-02,8.052536867267887644e-01,1.134247011096245483e+00
1.024367482156573361e+00,-2.044433786806136022e-01,-8.311213730369854114e-01
4.139894050160897176e-01,1.915642480623844346e+00,5.953606365682861945e-01
1.384955002147167491e+00,1.434539811745139559e+00,-1.509323901226945208e-01
-1.444136845725163321e+00,-5.446739765754485818e-01,4.595995584362695952e-01
4.200221124850253007e-01,2.038726989846812110e+00,9.267065128455803658e-01
-7.926890995810198515e-01,-2.154047104580933514e+00,-6.690267532134251960e-01
-1.382704355076600722e+00,-5.759857213974330925e-01,-3.403632589235795480e-01
1.165355941170594239e-01,-6.886595494686290064e-02,-8.875437592206841808e-01
-1.365010869944516037e+00,-7.364241129906480277e-01,4.883427829105552176e-01
7.374015714849623260e-01,-6.767845957672414814e-01,-9.736813005068876148e-01
3.884313635755953873e-03,-2.639989016088786222e-01,-9.471240496861412783e-01
1.535218964773031436e+00,7.392413027907315248e-01,2.591952623240034170e-01
-1.757488009500722537e-01,1.559735762176772012e+00,9.341508500476043420e-01
-1.679686810938654462e+00,-1.827479915457327797e+00,-3.286961503630791981e-01
6.392879909017125106e-01,8.831100678187264741e-01,1.022868839256597884e+00
9.430436979828681343e-01,5.095988368989067263e-01,6.692152988915647249e-01
1.671620505295202896e+00,1.884625423845119663e+00,5.511127528953231325e-01
-1.292354135225664669e+00,-1.798388191813633741e+00,-1.118529874994619866e-01
9.977578784601893735e-01,2.242284743284355564e+00,9.973571404142222985e-01
-1.115363436085475835e+00,-5.061080065709027132e-01,6.582257772094346482e-01
1.112372532489156018e+00,1.800967522460899639e+00,1.323164151732800220e-01
1.139378030798502195e+00,5.368526749807305265e-01,-6.372185639650813638e-01
6.286752531401001987e-01,-5.995098740986273267e-01,-1.046916404051780880e+00
-1.441122994055717532e+00,-2.021707303002211020e+00,-8.526508879604112190e-01
-1.272259209761230192e+00,7.861573066960773903e-02,2.105349376925855776e-01
5.946609115163542514e-01,1.049886189146057136e+00,-3.584945522425438402e-01
-1.699206779374009768e+00,-1.083669661042318655e+00,6.583725410688988366e-02
-1.174000138539172955e+00,1.558179664931868824e-01,1.180174516617637365e-01
-1.515921271082524557e-01,-7.098578414280973248e-02,8.397426200394817464e-01
9.701014648309310706e-01,-1.192584691872191072e-01,1.874249865838463203e-01
1.512986634159856125e+00,1.956988891634583450e+00,7.939720406490232696e-01
1.659586835996193610e+00,1.372866865680150372e+00,-3.373873043010397477e-02
7.796233520051742971e-01,-1.790016926497659533e-01,3.162168778929007051e-01
1.619422560058786598e+00,2.021997575197055586e+00,5.939499616757331069e-01
1.538163346554836775e+00,1.226719187596533089e+00,-2.024752697976558435e-01
-1.080746175410133958e+00,1.208898479619285454e-01,-5.819626394507720901e-02
1.262766404160972522e+00,1.646707578787094617e+00,9.938661265279870038e-01
-1.489387264771378172e+00,-6.220561191089239994e-01,4.197364869766850859e-01
-5.575122169607280576e-01,2.463174585403252459e-01,9.942298580883230930e-01
-4.628489136892150468e-01,1.216411536651907710e+00,5.269257927781028084e-01
1.447507363444372475e+00,2.163236510263898182e+00,7.035373498418291405e-01
-3.758695575297810176e-01,-6.664295195819976980e-01,-1.022248994111188969e+00
-1.404238161392711515e+00,-8.982654418659533624e-01,-5.384874425907015816e-01
-1.451700632481569331e+00,-7.120697257322321505e-01,4.297729603366483020e-01
9.190079451798343069e-01,-2.626128798937413800e-01,1.021288680333969079e-01
5.652485887040831214e-01,-8.479377286229858313e-02,-9.333931748703995224e-01
1.061534150763314255e+00,5.552514630964947573e-01,-6.603113482414096902e-01
7.231855083170268816e-01,1.769199232094488261e+00,1.197269336203180323e+00
1.451331107939354270e+00,7.192628816043324935e-01,-4.282068883305068518e-01
-5.083171834906307085e-01,1.639385387559155471e-01,9.765039431065712927e-01
1.739662550947581821e+00,1.392865849371768050e+00,2.959194739609083968e-01
-4.085313623525567150e-01,1.324404409888627843e+00,8.801446953922389405e-01
-1.141616159509029060e+00,-5.034992571247015603e-01,6.587779275997104333e-01
6.627846898675988641e-01,1.973263627746388416e+00,1.177756512127637434e+00
-6.521119905201893108e-01,-1.457981831122133531e+00,6.746966786027183693e-02
-6.330927577146797658e-01,-7.400967922517840414e-01,5.624055533169802779e-01
1.324152187277410020e+00,1.923978512598888191e+00,9.649459143876979450e-01
-1.641867739364441192e+00,-1.899253986417752671e+00,-5.836190734013271264e-01
3.064854043695512398e-01,1.725749572843268353e+00,1.200543504042158371e+00
-7.558293033578517006e-01,9.370328551213656931e-01,6.546087668583882024e-01
-1.506451120509551656e+00,-2.122346522893141074e+00,-7.142634839006496428e-01
9.075781191245176904e-01,-4.105071436557936604e-01,-8.942613686828581043e-01
-8.141883071441474717e-01,-4.322111666769042904e-01,7.407747901898824594e-01
-1.713901826376785120e+00,-1.328314490077912469e+00,-5.293579884713233569e-02
1.087932894813153917e+00,-4.554718595734312259e-01,-4.485599646705497046e-01
1.594936853631336859e+00,1.790268617559236830e+00,7.345000713473959220e-01
1.144582315175799225e+00,5.667437138840815125e-01,5.717542548598054664e-01
2.035261852847680408e-01,9.540043165842696515e-01,-3.083627370862188632e-01
1.312897308331833157e+00,1.929310649410314715e+00,9.821616774174634079e-01
3.483043857742879612e-01,2.271423952821396419e-01,-7.986785546852571693e-01
1.711864836099389331e+00,1.127073460093841462e+00,3.284249021515237010e-02
2.435447498744159334e-01,8.125137400960964484e-01,1.117190675417395029e+00
4.668144565750856345e-01,1.388011714690057241e+00,1.220007063960385052e+00
-8.268916744084040538e-01,7.402913539430878709e-01,3.591439863079747830e-01
-1.431471964341984648e+00,-1.486659891819983148e+00,-8.049471534553788166e-01
1.370769785565909560e+00,1.431761058601665138e+00,-1.409719261938253698e-01
-1.449985209868362768e+00,-4.132498957247581761e-01,-4.682205148218177015e-02
9.718948778717716452e-01,1.089658828543228264e+00,9.587610976681070207e-01
1.335861515890650608e-01,-3.763766931997856169e-01,5.562610314159346370e-01
-1.153178555928930038e+00,-1.002103406591514201e+00,4.355713717166485033e-01
5.960161508851250511e-01,-1.144641986837966474e+00,-7.870866007823424937e-01
1.706505472484761032e+00,1.427620904307510541e+00,3.798044851670699940e-01
-1.071352808889052044e+00,4.339092118300846845e-01,3.626424918417677223e-01
1.250570447843610600e+00,4.198301156768887155e-01,-6.377217237577272879e-01
1.146425812996965554e+00,1.567605413098899891e+00,1.016511942507322130e+00
-1.716202345686754782e+00,-1.123379899044205210e+00,-9.664337558954382013e-02
-6.022589188913691771e-01,-1.745248153613665476e-01,8.504531619372139861e-01
-4.410826036424995988e-02,-7.088282625821885619e-01,-1.119200422513184412e+00
9.016697909652544862e-02,1.435107986272371905e+00,1.216094823057416452e+00
1.531610766344290830e+00,9.388683036515200753e-01,-3.043088065412001830e-01
-1.114079584728129957e+00,-7.185825306986289851e-01,-6.839577968060922553e-01
1.003427068983649306e+00,6.136337897845288714e-01,-6.394943474305893050e-01
1.663613147310973872e-01,8.053387794893775986e-01,1.132036031668552045e+00
-9.998149611054117925e-01,6.395693762586690534e-02,8.437698803309972018e-01
-1.640805480125924198e+00,-1.516126716900754845e+00,-4.869844401339008810e-02
-9.849698438674360235e-01,-6.383249464863520739e-01,6.263493420387952204e-01
-2.846878334883278239e-01,-4.151416101256173996e-01,-9.424342502609602823e-01
1.544573772806766110e+00,1.569574288816786511e+00,7.188154529512214008e-01
-1.266329756818049379e+00,5.682282196413256797e-02,6.235156335517302306e-01
1.655881747501680490e+00,9.796669120413660226e-01,-1.175279075702044679e-01
-1.146545785618392904e-01,-1.210257613343418415e+00,4.336990370644148995e-02
-3.141872269753015479e-01,-1.911021069670725270e+00,-1.077270042797862981e+00
-8.104356343601760992e-02,-5.207970293251747984e-01,5.622143521793621090e-01
-8.040232035997644244e-01,-2.146747623802510052e+00,-6.663391897097403760e-01
1.098205319632727495e+00,1.945488559271174145e+00,2.720209254109763330e-01
-9.539419405459145240e-01,-2.254814680184861475e-01,-4.766194245151679776e-01
1.430269066965893510e+00,2.149465634028796535e-01,-3.764480902497923664e-01
5.593790856546096979e-01,-7.919859167011294998e-01,-6.155533577363237613e-02
-6.205973154484806242e-01,-5.630717555403365049e-01,-8.864561125831444954e-01
2.640505636485881991e-01,1.895225694897531454e+00,7.220340792783794814e-01
2.588099215868514547e-01,1.607563256473750091e+00,1.229325106843900395e+00
1.327879325310724834e+00,1.817949660469419193e+00,9.554023709456977986e-01
-3.115510579708198891e-01,1.316268742474980602e+00,4.465371569244951933e-01
1.265391131955139192e+00,2.095115891838957189e+00,9.958492116952065709e-01
-1.287051989010150610e+00,-1.877637010294071152e+00,-2.041828046707937494e-01
-3.460624345476033259e-01,-1.453150899079555636e+00,-1.235960576689298041e+00
-5.874258886210395048e-01,1.066524348831336066e+00,4.854732649284317358e-01
-1.389453757569881098e+00,-4.499700274922973087e-01,-1.970999154534602005e-01
-1.425262363154801253e-02,-2.510253116157165620e-02,-8.312566249782037398e-01
-1.199976176440892273e+00,-1.003843927015938720e+00,-7.743660938406807803e-01
7.138905802226274133e-01,1.183265684215628832e+00,1.108077836766422131e+00
-1.003233855968125754e+00,-1.073624945210516879e+00,4.056138259500283172e-01
-1.599316614341096399e+00,-7.453879434498363876e-01,-1.326940238463054644e-01
3.062988629059460455e-01,8.903691396242717770e-01,1.133678649236909308e+00
8.139714995512408180e-01,-9.184659679145169842e-02,-9.145683419097333511e-01
1.243939976288500393e+00,2.086253674217838583e+00,4.371964078622600502e-01
-1.559731876764350877e+00,-1.223273190779929687e+00,1.758542846278540461e-01
-4.058493497389283333e-01,1.334961654358562289e+00,8.465807122826082276e-01
3.554609293350205479e-01,1.978215258880359650e+00,9.891346292622362757e-01
5.838227564547920911e-01,-2.772058304957115138e-01,-9.933107315445990348e-01
1.422896131752285465e+00,1.657940150739589447e+00,2.020992557842453755e-02
