2.940693602777949334e+00,3.499849475537332388e+00,-8.824359623088467997e-01
8.299013346262779089e-01,4.755535377235220018e+00,-3.482434897995640544e+00
7.636934054471886668e-01,2.451897767642071901e+00,-3.653701789853779136e+00
-7.050038533843564492e-01,4.271553603990742687e+00,-2.315475215160239131e+00
-1.946510039725873442e+00,-3.934728888823880943e+00,4.332257997483381473e+00
-2.660797701039399499e+00,1.326445629964777773e+00,-1.319747028389106402e+00
4.232459531836474831e+00,5.331277066909406948e+00,-3.801315935117051570e+00
-2.510727571354726351e+00,2.755830009135241454e+00,-1.324533141451331941e+00
2.037728734926145258e+00,-1.661310333033415354e+00,1.795479104992040664e+00
3.268670623179971813e+00,-1.555909187614157030e-01,-3.451428050063737984e+00
-1.316173771397006087e+00,1.991110549878592595e+00,1.887569617479338380e+00
5.674031049404680616e+00,2.126718047432564762e-01,-2.228403652494953313e+00
-2.547872724533504663e+00,-3.202589578601406028e+00,4.500455570959764340e-01
2.044644522986470481e+00,5.473777373338242214e+00,-3.217371335810867983e+00
-3.549544558407002004e+00,1.864122628480060051e+00,2.088397539913405598e+00
-3.586250961911200630e+00,2.482704425716746766e+00,1.150653813387507940e+00
-1.327555117353655501e+00,-1.824034514420784348e+00,3.796984936347924666e+00
2.451043523767818255e-01,-9.853895021814419453e-01,-2.192791174487407790e+00
-1.886164647280800688e+00,1.572116552821961610e+00,2.308809186190150520e+00
3.345884848562629355e+00,4.930352920683045426e+00,-4.711264081944324111e+00
-7.855911150016083866e-01,-5.236460736791126891e+00,2.369056097033280572e+00
-2.826556526871844888e+00,3.015333744573596597e+00,-7.048733303043770437e-01
-1.167481485356550497e+00,8.365585214386026536e-01,-2.243145028390818752e+00
2.241210117868046581e-01,4.133494454578906740e+00,-3.993659918836419132e-01
-7.607281787139785756e-01,-4.447006713026723013e+00,3.594133154464115520e+00
5.867058783188644711e+00,1.866785678004372784e+00,-2.573096600868566508e+00
-7.146944615283891133e-01,-1.411329039125986506e+00,-1.563650090191451181e+00
5.864435435302596034e+00,4.107631754481667841e+00,-4.504264872501719807e+00
1.556227731228370104e+00,3.551209080210520508e+00,-2.522487795627291751e-01
5.125594158748670637e+00,-4.480298359854378298e-01,-1.488513620967539364e+00
4.674321326653764430e+00,2.978828738618334526e+00,-4.969984137423938186e+00
-1.023137519499007553e+00,-4.914048538430912494e+00,1.596534824244949302e+00
3.776366353209984705e+00,-1.181849072253034372e+00,2.664859798240294952e-01
-1.740426179653526972e+00,2.640681217805368242e+00,-2.087204893898942260e+00
6.185895433933077392e-01,-1.928684288463622165e+00,-1.763574564579816206e+00
-2.162812613676162954e+00,2.107119097805474350e+00,1.899330857133972872e+00
-3.428780499684590755e+00,2.251790888230692289e+00,-3.976086867822327675e-01
5.726924066975502825e+00,2.142847575176994201e+00,-4.516600338196316677e+00
-5.793242236664625899e+00,-3.152554191866327571e+00,4.883478947981440221e+00
7.302383469103850278e-01,5.142179916303978970e+00,-2.903227231048897128e+00
-2.454626412377234335e+00,3.372352408341815266e+00,-8.612475303836978346e-01
-6.028872971501343159e+00,-3.994702766584483200e+00,4.457346229369564483e+00
1.791219381962576351e+00,3.456555633456345422e+00,-4.221836646649204106e+00
-1.728517062157117312e+00,6.589421026689842309e-01,2.864316936486480891e+00
6.300247541734106171e+00,2.394723193771998826e+00,-3.431159345629757329e+00
-5.282727270663342800e+00,-4.685003464887689262e-01,1.454721643221382754e+00
5.267489614998166481e+00,3.051463372263940155e+00,-2.281254205602669671e+00
-4.200503459443102550e+00,-1.244686172969626803e+00,5.193911392507407632e-01
-2.689257918134472458e+00,-4.631303461870903249e+00,1.699232144861813065e+00
-2.374764605750976365e+00,-2.617351809795597006e+00,4.370782349043354387e+00
-5.382674295695611733e+00,-4.855181319360720948e+00,4.304162385373464517e+00
2.505166983957563875e+00,1.650710898625911360e+00,-4.172015253792983103e+00
-3.408987595031596207e+00,-5.500929422698359161e+00,3.468236269436903108e+00
-1.691947764464625692e+00,-4.114389173145523770e+00,7.798922057628935312e-01
-5.057074346939876008e+00,-2.074784916778409094e-02,3.408645231331404624e+00
-6.260863420569863003e+00,-3.261328617356627380e+00,3.989888035383474474e+00
8.480628628811905934e-01,3.413508081754187184e+00,-3.767367765156687476e+00
3.394353859058825140e+00,5.570229853897435746e+00,-3.847906684516247289e+00
6.330349977113368887e+00,2.016778333886421581e+00,-3.528428026015685059e+00
-2.911843317015378130e+00,2.687133736465642020e+00,-8.035425523962604899e-01
-1.224411602430967472e+00,2.341812017226479359e+00,-2.480033824915238050e+00
-5.108292085372612590e+00,-5.639122000977131455e-01,3.818451837810097782e+00
2.074914944705850584e+00,5.446605549448269024e+00,-3.128603022763588370e+00
-4.244508208525326509e+00,-3.431727815884072275e+00,1.628597592560921070e+00
-2.662196732260714072e+00,-4.485000625455858092e+00,1.569666795649428570e+00
2.143905998480807984e+00,-3.466085610604466849e-01,-3.167673095642783210e+00
5.983549582614562823e+00,4.062984809255165253e+00,-4.264711264032102100e+00
-5.033235116888573835e+00,-3.965360865250301181e+00,5.083589755883734185e+00
4.277067255932649914e+00,2.014849398623518972e+00,-8.601359547071139033e-01
-3.974867130880027410e+00,-3.966883992849378426e+00,5.001805507705061160e+00
2.294328582039345754e+00,2.895072112140820497e+00,-1.032299282296335469e-01
4.995911014738949163e+00,4.501378579525099788e+00,-3.290336623346786560e+00
1.899561679346732479e+00,-2.843403583593529405e+00,1.901372928273760143e+00
3.882772590183845018e+00,5.507223269855651360e+00,-3.817762999490668108e+00
2.590350267582018251e+00,3.946644498835471637e+00,-4.637233608832198151e+00
6.268847144258085535e+00,2.155498951695845822e+00,-3.646612807272962442e+00
6.181876735890067032e+00,1.581046342574488062e+00,-3.513921885401973366e+00
3.503648394971143887e+00,-2.146006543996156424e+00,-1.752187766987823414e+00
6.139580990931887250e+00,3.505078724493371212e+00,-4.390138973529823296e+00
-3.344584072207943404e+00,-2.583643479216528593e+00,5.278911240931583038e-01
-4.666403237585917907e+00,6.612147273257679148e-01,7.456476438206900426e-01
4.161068299087174793e+00,-7.305765021691893457e-01,-3.039695513107245617e+00
-1.133533461740578119e+00,-3.768553633586148255e+00,3.939917643210547382e+00
7.855476507760832394e-01,-1.658625596472712571e+00,2.657144622918863330e+00
-4.139228645744055690e+00,1.819639927982395378e+00,3.776938073338871327e-01
-3.311819343887826950e+00,1.284191682378962529e+00,-7.512591228221184858e-01
1.065577216220403356e+00,-4.168607395323450149e+00,2.008357126538118376e+00
-2.402602569249213005e+00,5.022354085471715246e-01,3.088671050313835487e+00
6.136670208428185447e+00,2.286285378934498347e+00,-4.408791727263059457e+00
-4.986749961331171654e+00,-1.169933952860418902e+00,4.280106439907521931e+00
4.098683649447917077e+00,2.877894894579404284e+00,-4.882492675681827876e+00
1.352081667155158540e+00,2.506004891417616509e+00,-3.936906811964473896e+00
-5.508682295269459850e+00,-2.340187518745941553e+00,4.749317717592267840e+00
9.825303795375990301e-01,2.729123576113410721e+00,6.290662166967342372e-01
-5.639050288541730183e+00,-1.449723956873448349e+00,4.218694951020869333e+00
-3.632355841467379776e+00,2.421587716779850741e+00,1.176338960584448090e+00
-5.994979795809544321e+00,-2.784126766803017183e+00,3.045524660389625993e+00
1.681130905476677928e-01,-7.837865327472973709e-01,-2.288726411366723834e+00
-2.923367857885725396e+00,-3.832986786179042760e+00,4.747522070142461637e+00
2.675864652454825077e+00,2.733075716254299792e+00,-1.896317147545099058e-01
2.856507588840052847e+00,-2.799304848527107037e+00,-1.049985658327919014e+00
3.874082809578875963e+00,4.481072001678419348e+00,-2.251894110902751045e+00
-1.532292221370356256e+00,9.515844173217391511e-01,-2.024341399316405887e+00
3.646465771579431969e+00,4.631756505887077324e+00,-4.910832031247423402e+00
5.815098499421018197e+00,1.062396625797994210e+00,-3.777000492804162946e+00
-4.178991416167071371e+00,-2.205953461733432430e+00,4.727940582253276958e+00
-5.460994191322330771e+00,-3.383170556868297041e+00,2.782174211178567891e+00
-4.193694764055674540e+00,-5.434277255400840723e+00,4.137522923874180414e+00
5.657728942423162266e+00,8.226904142091048255e-01,-3.669944525387560219e+00
2.728546791209073508e+00,4.130404518761967125e+00,-1.278906832053670728e+00
5.297023023341670189e+00,1.441144225247445121e+00,-1.647951680187984325e+00
4.907537683808099516e+00,-4.334733641174428609e-01,-3.032026277914270374e+00
-1.928609250110813855e+00,6.390736221981406784e-01,2.934460816767721525e+00
-2.345075903778643500e+00,1.573219471865963781e+00,-1.571923826770090349e+00
2.388863532403450396e+00,-1.428475097779950964e+00,-2.521491239830355280e+00
-5.995219283949873024e+00,-3.792188298105847899e+00,4.743567412133102401e+00
2.835045588528824378e+00,5.082288707335661293e+00,-4.383183491743863236e+00
3.270003269530103451e-01,2.342147800461148233e+00,1.160496790473324769e+00
4.552205424773335674e-01,4.228139791454594287e-01,-2.952154697735485556e+00
-8.684610239672277965e-01,-5.150404627412486391e+00,2.106081983093311738e+00
-1.010233957808337468e+00,3.945297017814012541e+00,-2.259107261036574776e+00
-5.501874137880713000e+00,-2.946236248024261872e+00,4.917573231756370511e+00
1.191406029313391235e+00,4.344781748412423816e+00,-3.904582452960907890e+00
-4.741691901464966108e+00,-3.432655561688405577e+00,5.035250081478751305e+00
4.839809536234972676e+00,1.773064131270539079e+00,-4.553290006436272463e+00
-5.481769346277077126e+00,-2.709107464764110684e+00,2.314121570513683057e+00
5.934569430630089570e+00,2.049487724463895599e+00,-4.392709713492452650e+00
4.328735772681795435e-01,4.782037267206137088e+00,-1.261463677220594937e+00
-4.857197261465098670e+00,3.290402788930212319e-01,3.101484115985293055e+00
-2.905276099206167029e+00,-3.400714191473263259e+00,4.697806018977309428e+00
3.042201645894265782e-02,3.667036284433283555e+00,1.745321735611357616e-01
2.327828267961176145e+00,3.860537389034481404e+00,-4.516291249748585201e+00
3.565955420317023172e+00,-1.573674766781159695e+00,4.214205959673202884e-01
-1.020926843079858592e+00,1.381724434840456039e+00,2.254439536822370638e+00
-3.917656147656034538e+00,-3.867629830097479626e+00,5.038724369970521089e+00
3.064640158016720406e+00,6.198665289757739061e-02,-3.575058327089433607e+00
4.503333117408376829e+00,-1.535003363681737509e+00,-1.278317278989919314e+00
4.457648647469018677e+00,-1.646530332770387073e+00,-1.188923852726166963e+00
1.125651467593579813e+00,-2.995438850688620924e+00,2.536953071899979761e+00
1.354901312307027483e+00,-1.351501745616293659e+00,2.274706145932379187e+00
4.957879038753525869e+00,4.295913334901889868e+00,-5.041939055307751438e+00
-3.188831825641799789e+00,-5.605270009526789998e+00,3.848675179008784752e+00
-5.914896839232685721e+00,-4.041296279369693600e+00,4.163013161666799355e+00
2.126656501562281143e+00,4.317752298095336450e+00,-4.403615548829852067e+00
6.264468251083938455e+00,3.049773774702437823e+00,-4.433138436897435142e+00
-4.540968249148805924e+00,1.454410551134292851e+00,1.138014200561313638e+00
-2.433261891035451541e+00,3.075172791234100256e+00,8.310435605962153138e-01
-5.788841925443929171e+00,-2.622006494407127519e+00,2.723408581084912683e+00
4.352446823954965183e+00,6.717036332941705989e-01,-4.907510720334703480e-01
1.518848490765839720e+00,-8.203985501989726759e-01,2.038478088415905276e+00
3.531937027385645411e+00,5.077674022193534142e+00,-4.630678242754460605e+00
2.660951506861134686e+00,-3.398112334249686062e-01,-3.284841112300586730e+00
-5.344201735218916838e+00,-2.092217281535317053e+00,1.960937487335045804e+00
5.310503807027954437e+00,-2.436822340889539529e-01,-2.956674505489143456e+00
-1.932284061150175480e+00,-2.600839694606392971e+00,-3.158856577240080621e-01
4.417074845915223591e+00,4.940691980802363936e+00,-3.287601851005740095e+00
1.381907940172494742e+00,5.241458024296674623e+00,-3.415640168580822866e+00
5.870903697774783048e+00,5.536433196269430201e-01,-2.764315592444566150e+00
6.731876584803915264e-01,2.920408463552323308e+00,-3.658388506388563943e+00
3.304409348535497948e+00,5.131918653048897383e+00,-4.532813919342948417e+00
-5.170918950677729775e+00,-4.595999606841679075e+00,3.513091055593054790e+00
2.385791092701377014e+00,-3.544446891947635958e+00,3.555945539879443174e-01
-4.213427732411358484e+00,-1.348046740440492774e+00,4.332392546812432244e+00
3.077114165282850866e+00,2.502598562770337320e+00,-4.585753013918306031e+00
8.298040895806249595e-02,-3.191732534987741232e+00,-6.574134614902150675e-01
-4.439202048673337453e-01,4.540033615000836242e+00,-2.414291313200304323e+00
-4.987163737827291499e-01,4.660061886225024708e+00,-1.291111334784475373e+00
-5.895876119081386868e+00,-8.141225225155448442e-01,3.375068335563475852e+00
-2.532953953412463655e+00,-5.354151895735249411e+00,2.701088050516365691e+00
-4.846698202385473664e+00,2.233025628577635022e-02,8.569619622394698544e-01
-6.032245439632268003e+00,-3.331676364202685203e+00,3.403210888538825252e+00
3.141498368265488228e+00,4.823051553787464307e+00,-2.151600167984322631e+00
5.610242104087150850e+00,3.343644412967242907e+00,-4.992611204541486103e+00
1.363931726535720923e+00,3.520426474996118493e+00,-1.372380825445010111e-01
6.310482719609791680e+00,2.568629791695541620e+00,-3.911843838414512220e+00
2.281327286038132840e+00,3.508061695113965150e+00,-4.479998204582471111e+00
3.548308165201796704e-01,-8.598732134612321332e-01,-2.279289833148683275e+00
-2.344210150383391422e+00,2.434509306645130877e+00,1.609860459590790827e+00
2.391579276427181266e+00,-3.398327055186913359e+00,9.395458453094270856e-01
5.645878734842797897e+00,4.439214749018104200e+00,-4.603585252594958099e+00
-6.151279318802900242e+00,-1.502278731100934905e+00,3.316341603744731081e+00
1.812498153586092897e+00,-1.936024096170372966e+00,2.039326687055374787e+00
1.307545131432977237e-01,2.560753009840069261e+00,-3.318906676918515153e+00
-4.742605212147299021e+00,7.258527310065899796e-01,2.856976939347246613e+00
-5.625653179408521609e+00,-3.237446095092414211e+00,2.821386789734904976e+00
4.744717772894124330e+00,1.506635487643142701e+00,-1.116278819859038762e+00
-8.215144845460421452e-01,2.921180014189727059e-01,-2.279794407441695370e+00
-5.102643225290953488e+00,-4.748882476386436124e+00,3.729104337392428636e+00
-4.706416316712144443e+00,-3.480027788823417012e+00,2.064999268976203783e+00
2.517325659697581486e+00,-3.298969957889980709e+00,-4.349879968372960537e-01
4.294891542778997540e+00,4.760996834659340315e+00,-4.906731200377611124e+00
5.610913519733679244e+00,2.140074579060057491e+00,-2.278905885307191959e+00
5.686848423412347309e+00,3.642609244253411926e+00,-4.923150995232509430e+00
4.612237464680901233e+00,9.208152906707698371e-01,-7.639897504282701091e-01
-5.049227623737224668e+00,-2.043889312233961419e+00,4.662067474039342407e+00
5.042099034284377446e-01,4.997999361752511582e+00,-1.896595786901819958e+00
5.032379680606563488e-01,-4.514428013728707612e+00,1.038753005231163984e+00
2.926355087120178222e+00,2.070452022221745292e+00,6.070821525390755063e-02
-1.831349251653408006e+00,-2.043239214634501311e-02,-1.562177977434251686e+00
-1.559421755750856731e+00,-3.479084313093318670e+00,4.113333151917244912e+00
6.048858457530382537e+00,3.545828701943139372e+00,-3.706264385345738432e+00
-1.710256569764186718e+00,3.177481140231510182e+00,-2.007095506878460611e+00
2.732933451974239425e+00,-3.277665577495437521e+00,-2.733659573960497413e-01
6.022577025263444739e+00,1.123001038432887677e+00,-3.480983150354907352e+00
2.890556164896200819e+00,5.503661165315960169e+00,-3.483251656294573451e+00
-4.642527283761500811e+00,5.282317527387876410e-01,7.078165946345292836e-01
6.272645506209480359e+00,2.120848746242246285e+00,-3.748725220584983475e+00
2.314482512926857027e-01,-1.502516046250853776e+00,-1.904599884282486055e+00
-6.008257748778296659e+00,-1.215010393318182613e+00,3.810388320978360888e+00
1.218813205906650321e+00,1.092677267427998589e-01,1.889529497588184448e+00
-3.453147414867424825e+00,-3.620853221048744519e+00,1.236193335756321510e+00
-6.140108381660476233e+00,-3.431913281083513123e+00,3.740154396830597250e+00
-3.132349915895694947e-02,2.864988433615331065e+00,8.857882027927724833e-01
3.299161836339423726e+00,-1.929926892483385226e+00,-2.040539361826929188e+00
2.504290435602014586e+00,-3.432950421675858177e+00,-1.641114923287800009e-01
-3.093855847472745779e+00,-1.723809736499400058e+00,-1.031336240463672088e-01
2.348566458308992466e+00,-3.582203478128920260e+00,2.654785108058690390e-01
4.587347656283440323e+00,2.857666520190737636e+00,-1.544382240320662181e+00
-5.119651445061861317e+00,-1.420971079318594787e-01,3.492715700682327284e+00
5.911851670179592233e+00,8.139248247541738257e-01,-3.161460412005547838e+00
1.320816243533783352e+00,-1.708946930146646892e+00,-2.113357645145216956e+00
-2.321759311036200923e+00,-1.955918445581883658e+00,-4.781949637666195740e-01
-5.082353325783732778e+00,-4.659912057545157471e-01,3.731172075258654353e+00
-4.411565335445591929e-01,3.468061938276861156e+00,4.368436152656990368e-01
2.138206712205700910e+00,5.421823434879653902e+00,-3.750491609159246398e+00
-9.104036316148617081e-01,2.527990161579567019e+00,1.418722251732134509e+00
-7.555118537829461633e-01,1.184120361956850553e+00,-2.582710992443558062e+00
-3.947204815992388927e+00,-4.873210822054245384e+00,2.809991010435386460e+00
-1.209583170590466716e+00,-2.335117811526271403e+00,-8.158583462277428922e-01
-2.316144091902193392e+00,-3.274782715939647204e+00,3.794947957551578210e-01
-6.325376365840759685e-02,4.802660681950158050e+00,-1.461453417622306405e+00
6.028834549658864672e-01,2.883060173798927206e+00,-3.634706695404317678e+00
1.580484862210051134e+00,3.012349361011312232e-01,1.641036403731138016e+00
-5.237623245289263485e-01,4.274449530129217578e+00,-5.708012223106371241e-01
4.736887465231192085e-01,-1.142615689777854104e+00,2.729490154527840051e+00
4.382960964854829555e+00,-1.648498930479354030e+00,-1.724094658435839866e+00
3.249043152864647066e+00,-2.065329496790306418e+00,6.854739245869944098e-01
5.414858956349306141e+00,4.390317555130038407e+00,-3.578089977633197805e+00
-3.846083012822336666e+00,-5.450630248771964226e+00,3.794265238235918325e+00
4.288017672248092715e+00,5.043029400019958253e+00,-3.279870206179014147e+00
3.038576512489035153e+00,4.977567279107574016e+00,-4.523402208361719801e+00
1.851109792276273147e+00,1.913848288462159930e+00,-4.013129101469552040e+00
-2.065607625823276727e+00,3.807788046284577010e+00,-8.879160213593754181e-01
8.636621388378959985e-01,1.476453531091973304e+00,-3.476038546064726731e+00
-2.415407836213286252e+00,2.764973417174194203e+00,1.298584556890336694e+00
2.796089853793136903e+00,-9.329582544529366750e-01,1.182903149015191557e+00
-3.308676386809798142e+00,2.766378301012951013e+00,5.538310637570280637e-01
7.887718121378909375e-01,-6.976706748814315295e-01,-2.544601469708869246e+00
2.438312002816568125e+00,5.514701512654996307e+00,-3.424760971418311595e+00
9.181909519510060569e-02,1.709508773338442644e+00,1.630514577022696088e+00
6.027355707159800069e+00,3.928418180565893092e+00,-3.987145411623254976e+00
1.933762498391444762e+00,-3.726956701078349088e+00,1.316668649984927164e+00
-2.166419857070529975e+00,3.303189914915699799e+00,-1.406968417650393821e+00
4.364160449158587252e-01,-4.677795501798872380e+00,1.569767806143346878e+00
3.425981737118583226e+00,3.635522868292222487e+00,-1.270699697816344509e+00
5.589132895405195534e+00,3.142196084585634264e+00,-4.888275952285872528e+00
2.178371829419177619e+00,4.664639077928158656e-03,1.352175232331145116e+00
3.896902222206872324e+00,-1.289955592996042233e+00,-2.558677432420761289e+00
-4.596505954182004139e+00,-3.648038387593500187e-01,3.751721843421303770e+00
1.131679724680624721e+00,-2.904549012898650417e+00,-1.094821555602219165e+00
-3.605283080615865998e+00,2.254903244265718865e+00,-1.013592583153379162e-01
3.748723185839124561e+00,5.094682310917963974e+00,-4.714129333352389928e+00
-1.940549284716413636e+00,-3.441462899284773336e+00,3.218294232074832562e-01
1.664748861097647969e+00,1.840881230834409688e-01,1.609731550941953193e+00
-2.044641613907192401e-01,3.391612797421804437e+00,5.001731326310203674e-01
-4.631474012487660552e+00,-7.604037340615843465e-01,7.972124395077797576e-01
-1.909897753783525720e-01,-3.967227388628282725e+00,3.265583745186571019e+00
1.696212992609724468e+00,-2.209387470974063739e+00,-1.755723172268286447e+00
5.630608857646773657e+00,1.171200832928840807e+00,-2.060459784787769255e+00
-1.806129075825068098e-01,6.906371780978077801e-01,-2.756240558467249802e+00
-1.880334380346453171e+00,1.493792401695837269e+00,2.392335888714594905e+00
1.122994470324368832e+00,-4.211224800868593299e+00,1.800700316293159187e+00
-4.860297445427897323e+00,-2.618928647450472491e-01,3.709458302222869541e+00
-2.792977766903723236e+00,-5.283269592556933070e+00,4.186475272911120094e+00
3.904968922345546822e+00,3.953771579159998772e+00,-4.989908798765837261e+00
-2.472990363141266634e+00,-3.415828649660668681e+00,4.502102597597684941e+00
-2.832088619762479720e+00,-2.142040624714441233e+00,-3.000978028443531884e-02
3.826608750016744498e+00,4.550141956119622577e+00,-2.350697386368277630e+00
4.759849853193347080e+00,4.953332004614333428e+00,-3.602359748217752067e+00
3.339997042774442981e+00,-2.749378033150115641e+00,-8.061200514006502393e-01
-2.420753825725962205e+00,2.130015718285609427e+00,1.903553342870795140e+00
3.296677629264657572e+00,-2.072520508568887365e+00,6.924812552995925907e-01
-2.931753800404369947e+00,-2.255769037092687057e+00,4.433148847833440875e+00
-2.862696350994476280e+00,1.155004720984248889e+00,2.714461342340536820e+00
-5.704729092631184884e+00,-4.372205716846613299e+00,4.090827307468151375e+00
-3.138404202044970948e+00,-7.260030886040197418e-01,-4.768651322363378631e-01
-5.787142836740716056e+00,-1.214188275092783931e+00,3.887847586341144801e+00
4.136904939736115061e+00,-1.906623238030620504e+00,-1.516905808274476408e+00
-3.463141404246523170e+00,-6.536137297126273227e-01,3.965807259182236422e+00
-6.218749866291011230e+00,-3.452610565909903784e+00,4.434646764420397069e+00
1.303122863063650883e+00,-2.331548721684630010e+00,-1.611837518630478749e+00
5.061307997189762098e+00,4.953976000563106830e+00,-4.412627315555242902e+00
-3.189938614914539894e+00,2.308952988656169492e+00,1.648119008567381805e+00
3.422214689259298392e+00,-2.422176124900457861e+00,2.971251852332524312e-01
-2.716811452013835559e+00,-5.490997185614979514e+00,3.286368761997241261e+00
-1.840804657043094705e+00,-5.279112553111306561e+00,3.699098082891332684e+00
-5.809036692208905173e+00,-1.785846932080542349e+00,2.395049284432907211e+00
5.501602255522909601e+00,3.111879596051593477e+00,-4.908133202682591900e+00
1.451185867274466634e+00,-2.824065107326393598e+00,2.249610783391930546e+00
-1.481242148918382906e+00,4.008256040384210905e+00,-3.674678686871671873e-01
-1.996913124634741021e-01,4.030880422543686059e+00,-3.029859500909904302e+00
4.961510541483050929e+00,4.679079051111436627e+00,-3.460155287045959316e+00
2.997590630995877192e-01,4.976812918551128284e+00,-2.516045320585857059e+00
-1.882282509054986619e+00,2.827496725379516462e+00,-1.892118354068849984e+00
-3.385774188098970239e+00,1.074700329291438994e+00,-6.778751345316819110e-01
3.950882921471861042e+00,7.170848032021116536e-01,-1.216779632626296404e-01
4.707871832189979955e+00,4.773448691827343104e+00,-3.324114791230833976e+00
-2.122478628766456765e+00,-1.180220275271978286e-01,-1.399339304326324473e+00
6.777369438095884879e-01,5.143928245287526124e+00,-2.533023071376962143e+00
-2.380699680298711929e+00,-4.549281655202932484e+00,1.516632829037107388e+00
-6.030914215255669397e-01,-2.749596955922631647e+00,-7.910131023346332890e-01
-2.326642030991099563e+00,1.579950454190106823e+00,-1.602994510071915402e+00
-4.957309252829407598e+00,-1.997970794564306818e+00,4.652358704279444979e+00
-6.244203582877929648e+00,-2.855077550006755782e+00,4.341206499684979292e+00
-3.740173973857807255e+00,1.858993482817588250e+00,2.034236317149137552e+00
1.634979291384163647e+00,5.422340009230143032e+00,-2.974305307055827630e+00
-4.355610613162546052e+00,-4.606480181103629334e+00,5.028591885665379735e+00
1.996851224390653545e+00,-9.160652831098069493e-01,-2.741844218602659922e+00
4.159700303249209696e+00,-1.961739343498485333e+00,-1.065941396180273282e+00
3.147992733455328374e+00,1.552983751741480845e+00,-4.267635017577479317e+00
-3.701115821683845564e+00,-1.725848851850333654e+00,2.996263371637796213e-01
1.235051357153923585e-01,-4.286258323345537136e+00,2.940549308669759832e+00
-8.446445247589291494e-01,-5.263018064439094701e+00,2.498337752919926213e+00
4.967242713022502976e+00,4.897656338216568095e+00,-3.718595021827935110e+00
4.964698692887529741e-01,-4.345993603608383715e+00,2.513022269650070140e+00
9.129058623488242041e-01,-4.104570646448292948e+00,3.477282720837073793e-01
3.104516074382682067e+00,-1.761217016440148386e+00,-2.225149155135038193e+00
6.185671641206158533e+00,2.716893165170097380e+00,-4.308771256091372237e+00
9.604268227897098109e-01,5.200785313650635899e+00,-2.116064694896258924e+00
3.599885833137137059e+00,-1.900493807636146171e+00,3.006833486137381328e-01
-7.479029081942678570e-01,-1.357461139592493149e+00,3.384439637744475426e+00
2.978130134031025111e+00,3.770837308282527722e+00,-1.109381467894585915e+00
-5.947803475878550294e+00,-1.839824224572759848e+00,4.226072826093487222e+00
8.751219794763420712e-01,-1.595909358752848339e+00,-2.041103980411975716e+00
5.534921748041820244e+00,4.063724026546917223e+00,-5.080242725749637422e+00
1.649595536746446545e+00,4.062951548867888008e+00,-4.181161427539349162e+00
4.271791546966881903e+00,-4.230333001194256926e-01,-3.223726105146840659e+00
-5.081315530661189683e+00,6.770652849705905973e-01,2.589518770851021667e+00
6.814072139525820804e-01,1.700237422144331045e+00,1.401105382662615417e+00
-3.497642631609544583e+00,-6.012196204320141568e-01,3.908893344632209832e+00
1.790560979683159859e+00,7.533127127512690979e-01,-3.593977959606880823e+00
-3.612946386110650998e+00,-5.395717678767017134e+00,4.484382296247611421e+00
4.453467005689173419e+00,-1.603682608875969029e+00,-1.645653543115590312e+00
-4.903797646823120360e+00,-1.922809282934672348e+00,1.434798374237189478e+00
-3.578833773244879946e-01,4.737878223337018468e+00,-1.404844515711813235e+00
1.545731322465761393e+00,1.806715748595726145e+00,9.576676902650099743e-01
3.787162135566604082e+00,5.470725296643704105e+00,-3.761520156135223836e+00
-1.285789550252852687e+00,1.222999160857989986e+00,2.385906599183923227e+00
6.156529614666794714e-01,4.667743495391232678e+00,-3.377094466853960419e+00
-6.190979271970333819e+00,-3.316024766817827096e+00,3.743106273468999490e+00
-1.678652898820319983e+00,3.508942539768724167e+00,-1.887440103550379167e+00
3.391384685917478770e+00,5.195111801709607846e+00,-4.532062069103938384e+00
3.294417177582711798e+00,1.492318883150332287e-01,5.418748025290156534e-01
-4.492866452392282994e+00,3.540882383702250169e-01,3.281211795196583569e+00
3.153317392123617946e+00,3.485555676853182572e+00,-4.752362872773326252e+00
-3.288081248182351396e-02,-2.770349115213182500e+00,-9.484689147978927481e-01
4.158602809142410428e-01,-4.684954906870081537e+00,1.303302392597430304e+00
1.088875480573595844e+00,-4.400532261781656906e+00,1.284780603982975444e+00
6.284108888530654191e+00,2.556172041171244302e+00,-4.190496252293486990e+00
-9.190588003838965347e-01,-4.072076415865343080e+00,4.667353970854912770e-01
6.076368174551047829e+00,3.381659951354481386e+00,-3.583908047866101398e+00
4.206735626366149283e+00,-1.464314466469611720e-01,-1.590176495135045831e-01
-5.567610868674638169e+00,-2.047057790230958629e-01,3.145900777550697303e+00
-1.698903949172350325e+00,7.235123532115882439e-01,2.799821696588995046e+00
3.781687168811530775e+00,9.861468844634667663e-01,-9.771654592541056950e-02
5.869983455645215287e+00,3.521959971207493822e+00,-3.391759609814530396e+00
-3.834222039892109191e+00,2.045825149763345507e+00,1.547067326267368703e-01
3.178264311035655876e+00,-1.689140037968624553e+00,-2.275142946910306385e+00
-4.260632478186670902e+00,-3.008139752367452679e+00,4.939475356397919903e+00
-2.352387662735177798e-01,-4.851806315332810371e+00,2.746995571691282834e+00
1.425330828429004715e+00,-2.035865851497470125e+00,-1.861112739981619191e+00
-2.538420630036407388e+00,-5.576058044441064787e+00,3.451651550730103324e+00
-4.518529518648872312e+00,4.212340769911488980e-01,3.200204674951621087e+00
1.433957256136783931e+00,-3.485091960651475418e+00,-4.986926115291275274e-01
-1.002842742077233007e+00,3.307825575850347199e+00,-2.571723540753528603e+00
4.374116317693639289e+00,-1.587773721046914721e+00,-7.436318996268164172e-01
1.079283243186967223e+00,1.978296699659422453e+00,-3.695708371679493620e+00
-3.884165518806643291e+00,-5.403908530554689449e+00,3.897290758695644897e+00
1.133937347175984156e+00,-2.776983894173393974e+00,-1.217606056485074362e+00
-1.073948524847320903e-02,-1.397994708500178485e+00,3.043505173273207021e+00
-1.496791248021989817e+00,-2.164272456191527194e+00,-7.561810847281238424e-01
-2.439943016030672318e+00,2.616935854052922839e+00,1.427380711899592702e+00
-9.228329593499101646e-01,1.434659360712073672e+00,2.141425884670597579e+00
5.535093437839149644e+00,2.943042215001291151e+00,-2.493592304430920059e+00
-1.017526783476550234e+00,-3.734168265254625751e+00,3.839345231961694083e+00
-3.140122624326562750e+00,-5.274632753293499121e+00,2.833842208926383943e+00
-2.240585624587659308e-01,-2.950414175806798323e+00,3.409653415711551894e+00
2.954049029300905183e+00,-1.949833172117759528e+00,-2.077936286916202135e+00
3.419149933068291958e+00,-2.501614712640439553e+00,-1.173923322476635001e+00
4.551084800539724751e-01,5.093613453569190597e+00,-2.308356248927340371e+00
-5.067161199065107979e+00,6.457557284760709893e-01,1.446459060041639377e+00
-2.165647869231416056e+00,-3.107622647782509073e+00,1.648401700507572121e-01
-1.817581171136791740e-01,-4.830344079983023065e+00,1.466782946151184319e+00
-5.559395306988612617e+00,-2.432463430848921526e-01,3.111725181232312121e+00
-4.765935304830151154e+00,-4.266433240292536233e+00,2.716193634113793109e+00
-5.921854157331673640e+00,-7.309521431483734233e-01,3.332102535512248220e+00
5.767871008665718113e-01,-4.320295470652534497e+00,5.712199975225051851e-01
-3.830555054345433863e+00,2.224758837767984332e+00,1.167335105944244056e+00
2.692964897358983922e+00,-1.098903835494361214e+00,1.275621703333953860e+00
1.069550994317682635e+00,-2.574288083090484847e+00,-1.365957250284052904e+00
-1.788521189261545352e+00,-3.580772609741190937e+00,4.239061777118069863e+00
4.815988424010249069e+00,-1.239014334144591833e+00,-1.451150624706397219e+00
-1.287173134197836522e+00,1.757966769394682327e+00,2.022210100792243281e+00
5.422231680656381947e+00,4.510898784571038433e+00,-4.762033153355834436e+00
-4.260253555130485981e-01,-3.462115502858111871e-01,2.896680250109515686e+00
-4.115573795530920620e+00,-5.332970542773834310e+00,4.614253101319778949e+00
1.190063798647829740e+00,5.348052703737942171e-01,1.740465240315683060e+00
2.166888985450962313e+00,8.798960730982353651e-01,-3.729398301617207867e+00
5.978433606196050576e+00,3.859447566141414043e+00,-3.884907011037277869e+00
-2.927683811004127001e+00,-5.461856167928338834e+00,3.975327268261064084e+00
-2.753521689109996173e-01,3.860060911224596936e+00,1.375363606349246266e-02
-3.981312827888609185e+00,-2.245772156873916126e-01,1.282677870864463651e-02
-5.076402499273751090e+00,-4.991166857727682427e+00,3.999148292670211102e+00
3.758335407007967532e+00,-2.402625028944711971e+00,-9.818734902099996997e-01
3.212595938890394187e+00,4.213373499972768776e+00,-4.809820494906964505e+00
-5.729079148456286852e+00,-4.348514673638109507e+00,4.715486770676453609e+00
-4.827198690433214701e+00,-2.485666361593799500e+00,4.811646605828241441e+00
4.506670762786612272e+00,-1.274164656059157075e+00,-2.177968497788720370e+00
-5.371586695290321067e+00,3.494977539505869091e-01,2.205249602382034713e+00
-1.369383907155135249e+00,2.866010048772665630e+00,1.161442858448567206e+00
-3.504075788132827718e+00,1.446074239402872275e+00,2.448945811847648368e+00
-6.128171929848035049e+00,-2.898097471812933090e+00,4.512177896820701584e+00
3.229526844518602946e+00,-2.665104178255140788e+00,3.064110780262485068e-01
-4.147015662399157421e+00,-1.286786756797071662e+00,4.312804319689663046e+00
-1.402099452632080911e+00,-4.001320389946434908e+00,5.621307072375365532e-01
5.202152698112029405e+00,1.114528852692011629e+00,-1.484829021866849397e+00
-7.084393698905488979e-01,-5.067026387632309614e+00,1.896532723223124606e+00
-2.002655799868842124e+00,2.523765604774201421e+00,1.531135681056761566e+00
-1.949554391424499045e+00,3.268319176976411722e+00,6.623996838251637875e-01
3.994851793520521444e+00,-3.760540253299842761e-01,-3.353158958290658020e+00
-3.653560639650950570e+00,6.280919917491693816e-02,3.547588047358690932e+00
-3.587137377136736305e+00,-4.927843225471908006e+00,2.586033467996192048e+00
-4.467897534186774600e+00,1.532605595967981404e+00,9.904169919272638456e-01
1.623528907052928849e+00,-1.707523795156512758e+00,2.137952332146182410e+00
-3.832804329651587683e+00,-5.432984264150236164e+00,3.855243101370381176e+00
1.614701676990074053e-01,-4.313789608971855927e+00,6.053858351480383426e-01
2.591523362287417864e+00,4.289379502231867036e+00,-1.334160225574486214e+00
8.333563642873502708e-01,4.487901013737253031e+00,-3.564472699669053224e+00
-4.317669785986347541e+00,-2.564261703897098510e+00,4.821332028273241477e+00
5.009786084783642013e-02,7.382163130306058640e-01,2.193821149642634971e+00
-6.211217740316206992e+00,-2.451913987551349372e+00,3.338856454972114030e+00
2.799802597246326297e+00,-4.455809992459694446e-01,1.042989741245934132e+00
-4.027881949456533661e+00,8.369338478628125522e-01,2.991021189292114357e+00
5.922203077552800066e-01,-2.365125571515713787e+00,-1.410678148975773816e+00
3.576578878850744214e+00,-2.465159086305845459e+00,-1.420260116486130042e-01
-1.452396668700284943e+00,4.070869821479622175e+00,-4.605192570978817734e-01
-5.134321794465608768e+00,-1.299545779132315726e+00,4.304513756437073013e+00
4.468729747070161018e+00,4.481665055541608211e+00,-5.056293925965222869e+00
6.343926777521605942e+00,2.710132172997430811e+00,-3.902044275045722710e+00
-3.617612691738985031e+00,-5.148376332470115280e+00,2.863071333357805059e+00
1.429404162601407347e+00,2.932125188804812765e+00,3.045630880820708319e-01
-3.286570113635582935e+00,-4.763507723170407715e+00,4.706293985975614547e+00
-6.044718502355116208e+00,-2.723483206067541573e+00,4.526590926092810108e+00
-1.219649154165989957e+00,-5.299736604029653186e+00,2.554511464079413319e+00
-3.363266296780318854e+00,-5.286918552858631770e+00,3.056262108157175472e+00
2.993206680535490882e+00,-2.671000507720806993e+00,-1.185229410087265567e+00
-4.855477300437661015e+00,5.188380909681739039e-01,9.627440589791791403e-01
5.681883283985731836e+00,4.339668255737956670e+00,-3.929830000760220710e+00
2.311683519633488171e+00,2.143835729357105091e+00,3.518405835009132399e-01
4.303995052149176992e+00,1.893779984809314643e+00,-4.572206007876080669e+00
-8.216322570211044563e-02,4.825794306085990470e+00,-1.540475910433967366e+00
1.692152458344203581e+00,5.147446692483315545e+00,-2.018967742603387183e+00
4.729677213607694775e+00,5.194982162041841711e+00,-4.304771479664354139e+00
3.400202526155246652e+00,2.449237478734069828e+00,-4.419878388920470136e-01
3.103149668566527186e+00,-2.030018129929097359e+00,-1.927640595696886505e+00
4.556800212692783347e+00,-1.558408391722728270e+00,-1.399963749707562100e+00
2.875498492805360851e+00,-2.381776249320497918e+00,1.001005919800354249e+00
-3.945661332864770499e-01,2.924575714611663990e+00,9.193285463836934346e-01
2.296100586776850250e+00,5.451508613472745957e+00,-3.661106947404442646e+00
-4.556977672899717113e+00,7.145032011578335007e-01,5.391678322729096529e-01
-1.895840344229120733e+00,-3.864881437031471023e+00,6.557680921188256962e-01
6.013665913063653612e+00,1.209922192602104651e+00,-3.518672757976800458e+00
2.526055319940219146e+00,4.449389208281492536e+00,-4.556728933633839240e+00
3.284729279845490790e+00,-2.186598449200699346e+00,-1.794295866626269387e+00
-2.863216846333878074e+00,-5.147541351168289481e+00,2.510227156019071426e+00
6.318269331665890221e+00,3.051454489149247440e+00,-4.320231120976731454e+00
-4.938322233938150951e+00,1.039602227350512553e+00,1.984224490815577058e+00
3.195467333575470636e+00,1.081133353458500340e-01,-3.629349362841657989e+00
3.251942512192443679e+00,3.078442491765758238e+00,-4.768571275599216897e+00
2.480862074167191178e+00,-3.359020984019990497e+00,-3.874783502863049511e-01
2.204640266690076178e+00,3.649383251943779438e+00,-4.422099425593243538e+00
-7.582686951220969362e-01,-2.146863027298401505e+00,-1.119425859871032936e+00
-3.555124038551108617e-02,-1.798833416342182634e+00,-1.620804872487055848e+00
5.231392731517841455e+00,2.652975262084607877e+00,-4.870086816311747668e+00
-4.175685778155240335e+00,-1.035785933554625782e+00,4.216309673154599480e+00
2.849586395584659204e+00,-1.815429472782893017e+00,-2.208750566033208074e+00
4.652658493639521886e+00,2.703868579991408616e+00,-4.874585635606994316e+00
2.287429387161362460e+00,2.510577320476433894e+00,1.714978205723355631e-01
-1.946471230550851361e+00,2.269438385632735200e-01,3.175210504277710122e+00
4.008558787151551783e+00,5.432050687838375858e+00,-4.436178514505235704e+00
-5.680260314771657271e+00,-3.821286816634839489e+00,3.378101369140835697e+00
5.362310879479734282e+00,1.586724592200902784e+00,-1.723584486494750934e+00
3.790352857730586944e+00,-1.340852312523928225e+00,2.705742368640839390e-01
3.309488791857663426e+00,2.475427977925331202e+00,-4.639012104354672594e+00
2.778327046851232218e-01,-2.747154715554351867e+00,3.122709357535911501e+00
-3.123092924711557306e+00,2.752519502441745480e+00,-3.897528758426416218e-01
5.458653879630759320e+00,1.581750877585137882e+00,-1.851447138553430349e+00
-3.575804888760316214e+00,1.983086503100469189e+00,-2.710060555141544092e-01
5.921959755046675156e+00,1.006688651825071057e+00,-2.700015250362350905e+00
1.541733956330033628e+00,3.821353994294773293e-01,-3.331188005796530849e+00
