6.617857677026438346e+00,5.754704663416666754e+00,2.401735416066142825e+00
3.048710292300801150e+00,7.826355462762973225e+00,8.037827580333134492e+00
1.136039490963535251e-02,7.323686422439249277e+00,4.737351186939026348e+00
1.954220273342741399e+00,4.122320193533665744e+00,8.434165523123697383e+00
-2.426425818944958124e+00,-1.016785669021536975e+01,-5.985775643139470859e+00
-2.766951698441873830e+00,-5.318675065271732949e-01,5.694092937710204971e+00
7.239905392190341793e+00,1.233541873313859405e+01,5.224144772078560095e+00
-8.755340166417679981e-01,7.681004812517515379e-02,7.676931416158757848e+00
2.157500547056078855e+00,-1.016722988034380659e+00,-5.742439029527592886e+00
-1.109291404274338755e-01,9.042696650504556288e+00,-2.122447729940803995e+00
2.894702175026775848e+00,-3.837884235763118213e+00,3.494694057269152054e+00
4.316007869935260644e+00,9.950279144404619913e+00,-4.928061423949195330e+00
-6.267681621162919825e+00,-4.544910399487982922e+00,-2.172344763588005989e+00
5.559900079122079397e+00,8.997713712238429196e+00,7.606125260752598649e+00
4.381040098949377515e-01,-6.708428348583878709e+00,5.723391496249528032e+00
1.662647381544536673e-01,-5.094335018830772555e+00,7.186230957937899788e+00
2.625854415942537323e-01,-7.993945173227480439e+00,-3.230519901827894280e+00
-3.202534657253401029e+00,3.412417500430413142e+00,-6.113185622210124404e-01
2.186443558233799767e+00,-5.266731113679735010e+00,3.288327997687465309e+00
4.808743128441308912e+00,1.263980259635451731e+01,6.099738856908285989e+00
-4.741492719060094174e+00,-6.178195415308802119e+00,-8.228440352969467853e+00
-2.708355748316376710e-01,-1.171184140049411182e+00,8.099912906031317306e+00
-2.642222042520903980e+00,2.449528093659937955e+00,3.752435329502896266e+00
4.831367198561855147e+00,2.127345860000815936e+00,6.173035808859310691e+00
-2.481482071039810666e+00,-7.830049482607530642e+00,-7.710433628977908960e+00
6.172804939817021719e+00,1.120760085144520168e+01,-2.477820845951284490e+00
-4.140868064340608612e+00,1.216467553466994422e+00,-4.962886139654368312e-01
6.863752056959909531e+00,1.490613221821910450e+01,1.906653920857069417e+00
5.779724625440254115e+00,3.222648149303608545e+00,3.714228962780904642e+00
3.672254366198341557e+00,7.973667939921564418e+00,-5.689169971552302307e+00
3.674753672430258078e+00,1.395268118507995325e+01,1.798017306468826515e+00
-5.424892476977312583e+00,-5.138760408106645805e+00,-7.070523839118767029e+00
3.098090336993773786e+00,3.482560145974502586e+00,-6.186371513354127494e+00
-9.436460003375208849e-01,2.104715391260519652e+00,7.032162832318474166e+00
-3.474713819831606099e+00,2.876191650539663858e+00,-2.677085289788704969e+00
2.094687936709692000e+00,-4.775651578341879144e+00,4.620159697385941122e+00
-1.550673224838628794e+00,-2.562015951530653979e+00,7.471404527243377558e+00
4.321510766301473794e+00,1.417660833439444268e+01,-8.867330663105118527e-01
-5.233772897113863287e+00,-1.513107194468572025e+01,-7.490917022235262790e-01
4.008069803956918697e+00,6.923818657334714466e+00,8.428846041712240833e+00
4.159789447262859929e-01,-3.991227134019847411e-01,8.298310658797943162e+00
-6.961202464144695234e+00,-1.498389559916131297e+01,-1.526333764240452417e+00
1.788973382392977429e+00,9.675357124923435137e+00,5.384289246654632599e+00
1.839580760731912790e+00,-6.234939114660349446e+00,1.445758203051323187e+00
6.403172867091665665e+00,1.319922720012796447e+01,-1.724255107034440293e+00
-4.992015494168427381e+00,-8.374891660977406005e+00,4.505914291274156547e+00
7.234517715367032586e+00,1.043273266378722042e+01,-1.708688134333514741e-01
-5.688248458094141924e+00,-5.924761017907629324e+00,2.604613591758677682e+00
-6.850469385228603159e+00,-7.092337644157768572e+00,-4.815440530349916592e+00
-1.275835740687522257e+00,-1.031279818214041910e+01,-3.540285105579799918e+00
-7.433987059960033505e+00,-1.427561866704173710e+01,-3.470949393196366195e+00
4.615805295107745509e-01,9.856376623367026468e+00,1.834850179640443057e+00
-6.865960365738741800e+00,-1.093679264663815509e+01,-6.235896485156423807e+00
-6.062690953119045822e+00,-4.372151549418506811e+00,-4.684118908392568059e+00
-2.158828113337930787e+00,-1.104505087022457843e+01,3.901407935848388853e+00
-6.823441485249494676e+00,-1.429172215303930926e+01,8.374280329342088935e-02
1.149929833065937546e+00,7.887429418794748237e+00,6.147867920197185754e+00
6.537215955744192897e+00,1.153580853620158919e+01,6.555435878327836363e+00
5.878786582166516617e+00,1.327125718033565249e+01,-2.275845991287256176e+00
-8.663764495768019325e-01,-1.212003873087953876e+00,7.754326401109472577e+00
-1.134097811736634265e+00,3.211260749207402565e+00,6.204912686926665089e+00
-2.445452622112178620e+00,-1.190871232445421235e+01,2.927781985276508792e+00
5.653710113167755402e+00,8.884613104397791616e+00,7.484563782275142962e+00
-7.224022604677927895e+00,-8.372394487409943409e+00,-1.215919160495366302e+00
-6.778351962059883995e+00,-6.814713411942465271e+00,-4.558146182406029645e+00
-1.311199621651894187e+00,7.272661152128779172e+00,-1.286757883460791341e+00
7.193678960898432173e+00,1.465177184088951456e+01,1.579432584167528297e+00
-5.152377012577549209e+00,-1.483335408316087900e+01,-2.935614281755275723e+00
6.349781661403374855e+00,6.777450414602316897e+00,-1.354358451265496921e+00
-4.048834471879950492e+00,-1.351264760593334202e+01,-4.091582071628790729e+00
5.972534262286125717e+00,3.623032679979703907e+00,1.814870838659504937e+00
7.628789426308617116e+00,1.214503067610534259e+01,2.845279304851834556e+00
6.838208480832626002e-01,-1.695577986354381839e+00,-7.419704779918638415e+00
7.041993118514939809e+00,1.202015200143011242e+01,5.892724927108999644e+00
2.847041803903422874e+00,1.137484991581897908e+01,5.435488913407571232e+00
5.853974224346341515e+00,1.342893003805733088e+01,-1.935791957909907435e+00
5.200248844498700507e+00,1.294947418162981023e+01,-2.770990191441992767e+00
-4.797235653267182265e-01,6.044987171313942476e+00,-6.271504120045729991e+00
6.564089228612029814e+00,1.485546761151744732e+01,6.295335046938184131e-01
-6.334734248425939462e+00,-5.377878364619691709e+00,-3.814314620297739045e-01
-3.672885284610756251e+00,-6.228257833557790946e+00,5.879603597243130864e+00
6.275893367820524205e-01,9.230133725897802677e+00,-4.211708021938790125e+00
-1.720217209513132950e+00,-8.586760469924723083e+00,-6.449508841731617537e+00
1.650820112081118562e+00,-3.776864119063228387e+00,-4.773887416442974541e+00
-2.063524713680399358e+00,-4.707641822595887149e+00,7.218683343456634205e+00
-2.957441611611971499e+00,-2.168788315194540406e+00,6.068915833874673815e+00
-1.744501209897852068e+00,-3.203784287349935589e+00,-8.526173463998782509e+00
1.125843918576206137e+00,-7.393534505045646910e+00,1.854657555143962799e+00
5.068304287529801222e+00,1.451303527549463013e+01,-1.190641652382405935e+00
-2.559604681205483345e+00,-1.267781473965836270e+01,1.637161369642875286e+00
2.996418314590307830e+00,1.313625012324219021e+01,2.251158769957634309e+00
4.432938724071776027e-01,8.446827762055693967e+00,4.301818016765951214e+00
-4.071740692795374095e+00,-1.435466622730628750e+01,2.213551756587223140e-01
5.060023295717022584e+00,9.473123829866920698e-01,2.664897881532228396e+00
-3.695678520599265049e+00,-1.340154023729927779e+01,1.985897612007276436e+00
6.732129884183384039e-02,-5.205003534888608563e+00,7.132978713007632976e+00
-6.932637648968732691e+00,-1.236888435686136312e+01,9.953132762663406963e-01
-3.145562543125493882e+00,3.536792566411803396e+00,-1.708188846639768221e-01
-2.969284152151786316e+00,-1.188862014057863803e+01,-4.945790331563855169e+00
6.115854812687087971e+00,4.139481122836470739e+00,1.185109149431122555e+00
-1.264886652417607671e+00,4.018364815892947028e+00,-6.890161958289313660e+00
7.425370104012221084e+00,9.248052368207247298e+00,3.539340886297986266e+00
-2.685385512855323675e+00,1.730395387125039930e+00,4.223326158363381211e+00
4.577844935618491817e+00,1.320092481606646651e+01,5.415275292883777070e+00
3.886344280493030379e+00,1.279123698370927720e+01,-2.998742388676141069e+00
-2.435862628886063419e+00,-1.278166666904572502e+01,-1.068770786009133333e+00
-7.330606885210512402e+00,-1.153556800526686210e+01,-3.715389155801382959e-01
-6.970080179253416830e+00,-1.284935295100992292e+01,-5.598900207880756597e+00
3.531257674064332441e+00,1.237373708099309511e+01,-3.237429994384648513e+00
6.727722181424240055e+00,6.327005425637398872e+00,3.797562668527689311e+00
5.982091195746540357e+00,8.987573778623580978e+00,-2.957930824420229587e+00
1.834471751902594816e+00,1.014940894047645870e+01,-4.612727389636980035e+00
1.663626002913422441e+00,-6.576352759844963813e+00,1.605358148005136210e+00
-2.376549592540727396e+00,2.935385964315664342e-01,5.840364295712317855e+00
-1.669137045722877799e+00,6.209896065227922257e+00,-3.529236038439619971e+00
-6.380018191429526198e+00,-1.533297619219177044e+01,-1.409607869255116164e+00
4.759891464100997283e+00,1.159607950247773367e+01,6.734026435859309601e+00
4.409169988491966841e+00,-7.408454344510573275e-01,2.545708777284358071e+00
-2.056271615332487812e+00,5.264058323497886605e+00,1.666802124718484990e+00
-5.005026262848046414e+00,-5.833785114375586112e+00,-7.867647628268990445e+00
1.275306981107057647e+00,3.591357371137542387e+00,8.258986938211167583e+00
-4.621052305713687858e+00,-1.479364998889327332e+01,-7.860032911317877957e-01
2.518622622050826987e+00,8.770820655675978017e+00,7.232310772391017828e+00
-4.230970205324935840e+00,-1.426799684249960443e+01,-2.438638532028710504e+00
2.838284489889746354e+00,1.312226445874014757e+01,-4.208423092408885569e-01
-7.027527180587198607e+00,-1.062228775712254070e+01,9.108568618119683435e-01
4.571513138710703750e+00,1.418845526524889955e+01,-1.326760349271490558e+00
4.950794759682574764e+00,3.908736464782073927e+00,7.363846993051376799e+00
-1.831604598519077198e+00,-1.023299539122412405e+01,4.362374330597170946e+00
-2.478338175593170156e+00,-1.165972190857177004e+01,-4.290020021326010458e+00
4.648321459981380244e+00,8.692804696306137835e-01,5.389959814409343686e+00
2.573783177886455498e+00,1.086348902201902966e+01,5.539441074333093518e+00
2.549419418837294948e+00,2.884312845456170837e+00,-6.618968502058018899e+00
2.873035631100728349e+00,-4.263753385244778649e+00,2.052258772653815289e+00
-3.825999835740640620e+00,-1.347597125652029071e+01,-4.026294824341693612e+00
-2.064615355456362600e-01,9.072059948887476466e+00,-1.499803094201838327e+00
1.877717836077364977e+00,6.614506419068644227e+00,-6.730694398323947780e+00
1.784775568805034629e+00,6.389308345252201704e+00,-6.893597268825202740e+00
2.923790902056773167e-01,-3.609277123786710728e+00,-7.106204642109767100e+00
2.263627653826881136e+00,-2.443309461980100128e+00,-4.755381353051370219e+00
5.510556709960765964e+00,1.478308460324297258e+01,3.496196265119172253e+00
-6.347546403713974605e+00,-1.131591858752974034e+01,-6.840887178816973169e+00
-7.196312085694898109e+00,-1.440856480830613506e+01,-1.571183147653007595e+00
3.017589996101008865e+00,1.059844421129376890e+01,6.395594111374220958e+00
6.109448720821158751e+00,1.492598096742152869e+01,-1.739823432387473390e-01
-2.163815973672504001e+00,-6.461574271639833000e+00,6.725467693079754561e+00
1.846087254533948174e+00,-3.115000272499517386e+00,6.941239936508979191e+00
-6.840788676442442373e+00,-1.158307122189405014e+01,1.174752864594870827e+00
5.196547822837509933e+00,5.878020152873730808e+00,-3.653223098194628982e+00
2.843560444970200773e+00,-1.728039715264711340e+00,-4.018207196673721171e+00
5.280171721072949076e+00,1.276786544978904736e+01,6.068809794209969688e+00
-8.435129664174982889e-01,8.041064070392858198e+00,-1.799718891302738433e+00
-6.495586804002598136e+00,-9.727673517756233679e+00,1.868115377625860551e+00
2.595804832743072943e+00,1.054303009602443453e+01,-4.822258179301183389e+00
-5.646794408153854583e+00,-2.469635920393300044e+00,-1.562190485122273431e+00
7.511396524578485057e+00,1.162100510831741040e+01,4.159012236964929166e+00
4.326701458464381034e+00,8.490890640269196155e+00,8.109707293142424334e+00
4.390582736347342419e+00,1.111450899117685687e+01,-4.357208125714117308e+00
4.708997284933399419e-01,7.370599378535334090e+00,5.546825630764945281e+00
5.191841093366897475e+00,1.237451300565868983e+01,6.356390160141771162e+00
-7.707680976826604358e+00,-1.271974934890576137e+01,-2.906367314209691077e+00
-1.228869331631760264e+00,1.061369478419240897e+00,-8.214634519098185095e+00
-1.850325327180322388e+00,-1.194176556822235646e+01,4.676383980381747518e-01
1.703067547185061814e+00,1.140651633761243922e+01,2.686208225716356424e+00
-4.449979920017597124e+00,1.584072319078230207e-01,-4.550450746017275172e+00
2.469359711008949798e+00,4.652529095737005349e+00,8.594569853563555739e+00
3.724382825367754002e+00,2.868124007952272958e+00,8.249067910018505145e+00
-4.096413419841628212e+00,-1.217783058183449540e+01,3.673912603204327443e+00
-6.503221692817749755e+00,-8.703522606454832555e+00,-6.603879815344863680e+00
-4.531774970584742768e+00,-6.798915476982201334e+00,5.064185765066580025e+00
-7.263233120330026438e+00,-1.313652206961471691e+01,2.660357326292002791e-02
7.119131958467431964e+00,8.368511064937393940e+00,4.829411285329606507e+00
5.145010228906260252e+00,1.515343318402181971e+01,1.300531098381274342e+00
5.646150907440254052e+00,2.816462614039248358e+00,3.825111037885537524e+00
6.123466411212621807e+00,1.401608225504865501e+01,-1.222607116897152624e+00
2.133318160116163931e+00,1.064770317293789859e+01,5.042839906565025565e+00
-3.017616075117989016e+00,3.709504554433965318e+00,-5.012891194236647197e-01
1.984349767405474418e+00,-4.427877961530093387e+00,5.469208593216594139e+00
-4.366282183791490024e-01,1.975837227481465619e-01,-8.307094308416330009e+00
6.915023976123055860e+00,1.491550702527302619e+01,2.704473871218830094e+00
-5.276724401014351251e+00,-1.258176303093360815e+01,2.958310690615830740e+00
1.826446641553792771e+00,-1.735519660580912671e+00,-6.028676291167519352e+00
-2.199206083016704283e-01,6.118785708187246541e+00,5.441359045053023813e+00
-1.478139713108869824e+00,-9.600985506740606468e+00,4.957687386983256950e+00
-7.298824803605447720e+00,-1.173855140438687528e+01,1.327048023075318682e-02
5.994480374545647194e+00,7.552152397812771589e+00,-2.513371172789578889e+00
-2.949248513282627826e+00,2.732379185435528157e+00,2.561591279691713741e+00
-7.590319594181311302e+00,-1.302726783585653081e+01,-3.326593607774227745e+00
-7.346842533328726610e+00,-9.591107780135137872e+00,-9.948367038780443483e-01
-1.608867828557663637e+00,2.521898902370092177e+00,-7.580232112532646838e+00
5.467821601754814687e+00,1.396453026968631406e+01,4.874474420504028238e+00
6.521809538921640836e+00,1.054074174228238725e+01,-1.931193291955665803e+00
5.664982960493679442e+00,1.522137318253361116e+01,1.627248259341771197e+00
5.504881443537216867e+00,6.674065066753245290e+00,-3.429178895691475937e+00
-3.287742317944733816e+00,-1.361053947156501032e+01,1.932875034598914021e-01
4.629551630565776676e+00,5.049047518930164458e+00,7.940530754651856427e+00
-3.806518392439253162e+00,-2.423815748122795544e+00,-7.903016137677164821e+00
5.857938365775834377e+00,3.829555067238823884e+00,-2.258014007832679915e-01
-3.714540142078278429e+00,3.757408984188901901e-01,2.857422707448606047e+00
-1.668604378362705365e+00,-9.250944497399933297e+00,-5.623422079493400894e+00
7.224632541777962658e+00,1.369455867164164253e+01,4.353789193187286299e-01
-1.773562481471705476e-01,2.175512825365409686e+00,7.763538335969953685e+00
-1.171964378100011972e+00,2.518289570458635218e+00,-7.876542913343659080e+00
4.501790051997877740e+00,1.257987709949994048e+01,-3.297106775371639209e+00
6.270349437426138373e+00,1.037670785052291222e+01,6.833955714254886793e+00
-3.846211552795113509e+00,-6.182290880187679250e+00,5.672391923237136702e+00
5.709854032010561298e+00,1.358264841768041009e+01,-1.938748480068160029e+00
-3.542289926321364302e+00,2.789419305742633526e+00,-1.524577777023423231e+00
-4.253278056492113990e+00,-1.310739505368477609e+01,2.970079585963367741e+00
3.474252028026022288e+00,-1.552035576372848391e+00,-2.202696299186018170e+00
-6.971621130342384731e+00,-6.922949662662428949e+00,-2.189602546224573398e+00
-7.154260166956746048e+00,-1.381606707082032237e+01,-1.786176270773594532e-01
4.351407561881472041e+00,-5.565650371380395089e-01,3.881029971175024684e+00
-7.494022299931457631e-01,6.331338723573487925e+00,-5.564364832109462533e+00
-1.502909308904472940e+00,2.042515705096605405e+00,-7.908825190166351327e+00
-5.671678373509790205e+00,-3.847171824427054965e+00,9.587688438412038661e-01
-1.410382407300032170e+00,1.149117595293556837e+00,-8.182166862115522576e+00
7.003752822232685915e+00,8.453492183812771898e+00,-7.921589344210430705e-02
-2.288198875669255283e+00,-1.128392473756602321e+01,3.745614806316612366e+00
4.336964353838130393e+00,1.186126796267533479e+01,-3.804094817901094494e+00
-2.783973899482298009e+00,4.281983420466723977e+00,-2.957329304459402231e+00
-5.474809441156596179e+00,-2.459593690775626840e+00,-6.686798013983520639e-02
-2.388964443552474393e+00,-1.171319568453998983e+01,3.091435753234180073e+00
4.150918964801227240e+00,-1.332463103644703772e-01,5.486476824336338431e+00
5.046263766118435967e+00,9.922354884620180115e+00,7.701296978574612595e+00
3.511026085409154174e+00,-2.483979056174606459e+00,4.088951393136730061e+00
-2.112881098424436388e+00,3.550747671157181706e+00,3.987245278020663974e+00
-7.399422283863192007e+00,-1.032298523477381558e+01,-4.338671462705036674e+00
-5.034107356661580823e+00,-7.916672726189951659e-01,-1.717789007679579427e+00
-6.167826560643158373e+00,-4.195020197717171939e+00,-2.505970054243022993e+00
4.208951797615032575e+00,3.668873988657400442e+00,8.060437460634128470e+00
3.713685660316012327e-01,7.242971988824185914e+00,5.557730541427409854e+00
3.853951342116081591e+00,-6.971636431559329328e-01,-2.192736564748851258e+00
3.981512047793633879e+00,1.595332102274613195e+00,7.320284653265417774e+00
1.999092521049462112e+00,-4.085758579283822023e+00,-3.683053311242312056e+00
1.140127609321153646e+00,7.142600888552645522e+00,-6.531959906522739168e+00
1.874099552306030647e+00,1.964954518392699301e+00,-7.138445513389151564e+00
7.665728503673277849e+00,1.303436616899586475e+01,2.355245149065019472e+00
-6.956827871224744442e+00,-1.192488998089367769e+01,-5.836777972446265395e+00
7.497955229067324368e+00,1.149434179798614863e+01,4.454793941382341416e+00
4.716037635144414430e+00,1.201345209452331453e+01,6.419823240066167891e+00
2.095160427884546483e-01,8.949773848242761787e+00,2.886882559664653680e+00
1.352092267407994708e+00,2.127826306342598117e-01,8.527438006684253224e+00
-8.697870327542993607e-01,6.863345357878021247e+00,3.064128206129721033e+00
1.978959095117373224e+00,-3.920800045213636231e+00,6.209714736702905746e+00
3.251990886574019246e+00,1.017605808052187699e+00,-5.183544897588947542e+00
1.988438912139555148e-01,-3.761060796407936113e+00,7.611553832086637605e+00
-2.610129418275062285e+00,4.663187367668055749e+00,-6.089958349475623756e-01
5.835917993783181323e+00,9.778635516420045803e+00,7.331206472523434492e+00
3.870247864913681557e+00,-1.933221445705959107e+00,1.613951824104525423e+00
7.369854873406578299e+00,1.422581281616834303e+01,1.182196469075714740e+00
-9.554907442504018134e-01,-1.008411471531737380e+00,-8.481258324329820297e+00
8.738059094598929488e-02,7.594715524630464287e-01,8.154148257823926826e+00
-3.525235730621106178e+00,-3.380093155328256938e+00,-8.351188304501539150e+00
6.922794965656549948e+00,6.950796916445057150e+00,2.260442827049217840e+00
4.986621403484310378e+00,1.490536227763742083e+01,9.667697350984542082e-01
3.866836737878651675e+00,3.395562932042904825e-01,-3.163513494011680471e+00
1.560761316573562596e-01,8.009998389104950434e+00,-5.006263242419324300e+00
-1.698640198141951441e+00,-1.116710165464822069e+01,2.683624167558455564e+00
-3.379334793683111737e+00,2.112381666850213779e+00,-5.075063903283391298e+00
-1.436460653294458822e+00,-3.223974980348337294e+00,7.520535639874981193e+00
5.457569880382604488e+00,1.314807287585705531e+01,5.893001468051019209e+00
-6.006875707476465820e+00,-3.731686401485815985e+00,-3.151103763282273373e+00
3.774510703036985326e+00,-5.885554568472942671e-01,-2.447814019041657296e+00
4.390866587324114612e+00,1.129540219605167789e-02,5.070751657460247586e+00
-5.297992121380410424e+00,-6.699295446058758152e+00,3.674814494547953281e+00
-1.603355170593839141e+00,-6.528269450511071881e+00,-7.460876347090712457e+00
-2.593429879812868322e+00,3.993856594521969949e+00,-4.321670710644460733e+00
5.600834578301987499e+00,9.928028450562257134e+00,-3.525133777338758989e+00
-2.243546211401495682e+00,4.321429102062793959e+00,2.685896288872679616e+00
2.185466621542698995e+00,-5.414634549838476474e+00,3.120200212237220772e+00
-1.948022538588835006e+00,-2.826746097782481648e+00,-8.546477389641776057e+00
-1.915118719967869643e+00,-1.136718387949383846e+01,3.158759130024270334e+00
-5.160661387876692707e+00,-1.130135314289681148e+01,-6.980909524606688343e+00
3.966758758011707631e+00,1.341125839051322899e+01,4.144651585912601632e+00
-2.214412771446196082e+00,-1.087050349383530623e+01,-4.699004394595867495e+00
-5.806387201878896676e+00,-3.792999624326000241e+00,-4.517080449632206174e-03
7.352376667334332261e+00,9.370137324116342370e+00,3.748624983862071325e+00
7.583977253524173179e+00,1.250414740034554839e+01,3.955292145641583712e+00
-4.062260866811811533e-01,4.196593373492206069e+00,-7.489317251443050161e+00
1.836574622884085128e+00,-5.066119471798589124e+00,4.943992863011454020e+00
1.926307923886432238e+00,2.005505662013477242e+00,-7.206781179741685861e+00
-1.400394125621102548e+00,-1.092907250790402607e+01,-2.399385107525228822e+00
1.006830564295065900e+00,-7.128890152961685267e+00,3.552549774552964834e+00
-7.435107907419721940e+00,-1.415861248949952333e+01,-2.268722180654398901e+00
-4.905675010472882569e+00,-3.010552263936606021e+00,2.705617201626083990e+00
-3.922725313552742232e+00,-1.297918699539457421e+01,2.680794321042676565e+00
7.674556284380577020e-01,6.462749641435866721e+00,-6.750510133913407707e+00
-5.493187306637767886e-01,-1.031201464215160790e+01,8.558653829927420631e-01
-6.543315959964147055e+00,-1.499855614208943422e+01,-4.844133685736292660e-01
-3.033224493652322273e+00,3.288480806240166920e+00,-4.136351732181876351e+00
7.078704808518291536e+00,1.411306061554432922e+01,4.039638172352777445e+00
9.210401853889876866e-01,-5.479123315662167926e+00,6.216427284349382631e+00
1.232540635189102618e+00,2.660476159027793663e+00,-7.667660939848316204e+00
-6.264946754518604166e+00,-9.868698521126246348e+00,-6.908257974303798399e+00
-4.592804666615552200e+00,-9.463480423080472548e+00,-7.795950514325410197e+00
-6.195427839090657862e+00,-1.083890664436458984e+01,2.627177707501748394e+00
4.830792661515046049e+00,1.482862346040720958e+01,1.030518845648720649e+00
5.660093350473530682e-01,-2.740528357509412150e+00,-7.066029226855433443e+00
2.794694176691168153e+00,1.170960070057985858e-01,7.895884346306150547e+00
1.486646854027066311e+00,5.737948756524253291e+00,7.874884008205666142e+00
7.627719751237761692e+00,1.242589606352108689e+01,3.240355449019641565e+00
3.727777367072314885e+00,5.782231810533400740e+00,8.464080036873607327e+00
-6.739530298981315504e-01,1.695756340412102992e+00,7.371399707281199198e+00
-3.217289808633081449e+00,-2.430392701411656198e+00,5.799002046065844240e+00
5.184610132730727905e+00,4.861083366508256454e+00,-3.324204251806132326e+00
7.598331234230187192e+00,1.195545172935937117e+01,3.597822602748184551e+00
-3.990158294976199116e+00,-2.369493576594098316e-01,2.954511548776927565e+00
4.337281625434263432e+00,6.285419358148894631e+00,8.297025900234395124e+00
-6.594671365241864258e+00,-6.433759720663596582e+00,-4.945304169488295543e+00
-4.826817032364308702e+00,-2.721505286361155518e-01,-3.039870862451898859e+00
-2.380085991807540768e+00,3.650103079157913655e-01,5.845914604472467246e+00
-3.138961054545595264e+00,-1.347783825476519048e+01,1.635235083121433231e-01
-5.947232684989202767e+00,-1.470032653294033409e+01,4.920492109964397232e-01
1.609452205075727615e-01,-6.840056973916397887e+00,5.959537781813797785e+00
5.290392258567330863e+00,8.139710712236777113e+00,7.864639582332983103e+00
-5.222266615611365737e+00,-1.417711322581770794e+01,-4.637211585898032062e+00
-1.720707836501260024e+00,6.267925691111984499e+00,-2.199974514945445936e+00
1.196893108014752904e+00,5.765574230797395394e+00,-7.095263767609348626e+00
9.669207344728957265e-01,1.070123518744964564e+01,1.011194314992718946e+00
-5.937203657292827508e+00,-5.163074539589516121e+00,1.431366569770745611e+00
-1.974172795624933308e+00,-5.761156396595811024e+00,-8.126123957938947484e+00
-4.705171854965861655e+00,-6.455248798569957813e+00,-8.269305298165219753e+00
7.628763121216350029e+00,1.290313855502787632e+01,3.697939085218994837e+00
-2.072732559620567461e+00,-4.689258187413177126e+00,-8.413800998745202264e+00
-3.571086356968824038e+00,-7.559753185625762706e-01,-7.387913400888863613e+00
-9.570473078696454250e-01,6.452006332018874524e+00,-4.993910340807587112e+00
5.748204320874068074e+00,1.454178583796508839e+01,-6.507065295963090357e-01
5.158968180816141391e+00,5.968317413541929461e+00,7.844685132144619821e+00
2.066650868204240599e+00,3.012862064883887747e+00,-7.085700900834618565e+00
1.048287627726396609e+00,-6.553442310287959316e+00,-2.968061671119676781e+00
6.750765569004182787e+00,6.234207308122223345e+00,2.885822339210172061e+00
-4.506820010948654698e+00,-1.387905145093263393e+01,1.744318787210247246e+00
-3.073404706669585984e+00,3.700568873348839105e+00,-2.321270539045593662e+00
5.839163108415767134e+00,1.542338969253661851e+01,2.514654019032330101e+00
2.404971299751490044e+00,9.635281409483878790e+00,6.435203965242969559e+00
9.318932907673870281e-01,9.736095186458207706e+00,-3.777954005588502806e+00
-2.197152328059677640e+00,-9.578714878920187914e+00,5.407233577809828162e+00
4.283046026298005238e+00,-9.121274477971463845e-01,1.053570102050815915e+00
-5.841767804627799876e-01,-1.024594463787940057e+01,1.003471677063853873e+00
-8.240236241398745110e-01,7.874369007083157790e+00,9.903034476669214659e-01
-5.908305231156681714e+00,-1.272620976282894567e+01,-6.379022693867380411e+00
1.355437452128962939e+00,7.112787444927576530e+00,-6.585321724747065453e+00
-6.344192556081908130e+00,-8.356068885498707743e+00,1.900484065780426945e+00
3.858237542671337117e+00,3.228510215884718981e+00,8.266441393912305813e+00
4.921571135018163901e+00,7.888289758544257957e-01,4.687455545291254189e-01
6.948984218760208442e+00,1.181326313870705746e+01,5.916471892299817625e+00
2.520354599210114621e+00,-4.816182444369796478e+00,2.044119829253832510e+00
2.811450046566456695e+00,7.393336709419896735e+00,8.092839659562248045e+00
-7.068347471216291922e+00,-1.384301067972024946e+01,5.165894290434104585e-02
3.836223214882863997e-01,2.123937046682900842e+00,8.163733161803710559e+00
5.366851299677861675e+00,1.249048153093822577e+01,6.352721515703784405e+00
4.451911324918096824e+00,2.910298843642381339e+00,-3.783565684330755907e+00
-1.203972847142467550e+00,-1.009617231604432419e+01,3.894083796431241584e+00
2.803023448473782597e+00,1.205041594881422107e+01,4.165781697814379569e+00
-4.374639582689897388e+00,6.109497508129343446e-01,-3.633282705928800649e+00
-3.834967713889082752e+00,-2.988142028236096426e+00,-8.199223156953621583e+00
-2.753369320473832982e+00,-2.114488372182945497e+00,-8.522564247060467224e+00
5.788072871009660503e+00,1.441895832376542330e+01,-1.065654109830582952e+00
-5.468686957557991057e+00,-2.997683554217914992e+00,-5.330291661261789216e+00
7.184796070395218948e+00,1.348434157691758095e+01,9.329303163007393596e-02
4.389842415414651811e+00,4.946994479003651968e+00,-4.892745390805725236e+00
-3.229602301995100788e+00,-1.126471380370783137e+01,4.339422243925820766e+00
1.883661244971116311e+00,-6.081040920102569913e+00,1.543166281898438852e+00
5.344447401189980518e+00,4.714146046828217251e+00,-2.740765471110770957e+00
7.322608663187628153e+00,1.299318256645293346e+01,4.370521218211175785e-01
-1.679613092448973388e+00,-3.946248863650750227e+00,7.330819299264431876e+00
-8.391141940641079211e-01,6.635217176815650042e+00,-4.942697688106320264e+00
-3.276592002804131099e+00,-1.344741397594735588e+01,-2.293811234194624848e+00
-3.263198313105540649e+00,-6.033387413729645488e+00,-8.469896867973654153e+00
-2.798391939670727968e+00,3.905978020071019241e+00,-3.699265041724154823e+00
-5.994649610028554676e+00,-9.952142335920632021e+00,-7.324398943267889983e+00
-1.236190446469013215e+00,-9.977950437629845126e+00,4.066499967769596324e+00
-3.119088613750368388e+00,1.344133692259752655e+00,-6.602081084520006193e+00
1.870703112165114645e-01,3.896583598369044221e+00,7.455443143804886930e+00
2.226302822082713906e+00,5.615569749450536996e+00,-6.943897263869557079e+00
-2.498116874648156627e-01,7.602093076639413027e+00,3.690205355894732975e+00
-6.835735999827996956e+00,-1.211503817819283668e+01,-5.777383849079669176e+00
-3.350695597387131741e+00,2.345762932886287011e+00,-4.821462849047175148e+00
1.472994785349358571e+00,-5.200786454295148076e+00,-3.683916923867882165e+00
-5.088487952528411462e+00,-1.157255013701282920e+00,-1.167365251624738143e+00
1.906784525048935697e+00,-4.194896454813513031e+00,5.947358135498449272e+00
2.929486126997122852e+00,-3.960193534293415141e+00,2.080147375054990366e+00
7.183047559297186524e+00,1.103415569574329069e+01,-5.253169688377564706e-01
-1.653056010103318929e+00,-8.288097048968941394e+00,-6.476284835945868679e+00
-6.951717854156820309e+00,-9.571841056110795165e+00,-5.867361761498315786e+00
-2.613408414960791681e-01,-6.483846104046098624e+00,-5.969487746126691086e+00
-1.200731994103262812e+00,5.994842684830590684e+00,-5.184577158524279028e+00
-4.013860364208916010e-01,4.936687953546802454e+00,-7.013584261621700122e+00
4.260359720508938963e+00,5.667414400942621278e+00,8.355414620542857662e+00
-3.411408554619117517e+00,-7.782179386915354158e+00,5.942533439281569407e+00
-6.020390512040600939e+00,-3.638694004302214680e+00,-2.312303124014184696e+00
-4.512496310839303248e+00,-3.961787390818180654e+00,-7.827879730484301746e+00
-3.302589279888631157e+00,-1.121358143435153387e+01,4.290055294340592518e+00
-7.684996896547830580e+00,-1.091565853350741833e+01,-2.451312894009861409e+00
-4.069936504812826428e+00,-1.211469366435573569e+01,3.850873189199830904e+00
-3.976831009166710729e+00,-1.550069619611692096e+00,-7.449407214340361350e+00
-4.029409369129388074e-01,-5.473820685611912040e+00,7.065700265165404836e+00
3.032123735391938801e+00,7.060010518396638846e-01,-5.365104659229605666e+00
-3.332897483013516293e+00,2.566761612155697314e+00,-4.366129398580015142e+00
-1.918100748248662946e+00,-9.736832841805245664e+00,-5.583196166317405229e+00
2.406916412400656125e+00,7.327077622779106569e+00,-6.548466572966952448e+00
2.785992432056243473e+00,-4.086504347338888010e+00,3.040744082866750464e+00
6.584774414383732122e+00,1.493318732301624685e+01,3.148078629130237616e+00
2.123833900550167630e+00,-5.121121360170524106e+00,-1.555545961297955637e+00
-6.262468132814105637e+00,-1.347723319267301356e+01,-5.784407067546374570e+00
3.800729013300938597e+00,-1.222396453821347206e+00,-1.452093123755415327e+00
-3.889119683312600162e-01,8.548928709948725668e+00,8.261539832445975451e-01
7.338103222036002293e+00,1.398971162916019750e+01,1.080239908427892415e+00
-5.748303030569683614e+00,-1.117652173461867804e+01,-6.986705387502929909e+00
4.369899667073195104e+00,8.347024558508714387e-01,6.110142578037392802e+00
-4.737135950763705416e+00,-4.576072050916425660e+00,4.156387609385415516e+00
-7.571940840249033577e+00,-1.349380489085941903e+01,-3.862056320370057527e+00
3.001770557792799998e-01,5.048215976282985906e+00,-7.348680146847008210e+00
3.689431124322504196e+00,1.242719114290014026e+01,5.223582973121544626e+00
-6.782279400056097529e+00,-1.515712448886778851e+01,-2.532570888050991176e+00
-3.415864698558547907e+00,-1.372801017443648774e+01,-8.005152477842261138e-01
1.258289903023454004e+00,8.105965632849807534e+00,-5.871160662092560045e+00
-3.320454582223489659e+00,-9.403168924085488101e+00,5.443846860803589038e+00
3.134825602144077905e+00,-2.496321564440095120e+00,5.250945563534548555e+00
3.600897473357569933e-01,-7.348142302225433298e+00,4.854439164255003547e+00
-5.690346136483324102e+00,-1.485026965892866890e+01,2.066629121696149929e-01
7.318408860917759995e-01,2.355297263139862984e+00,-7.820084173586869802e+00
-1.722002798699014736e+00,-1.181770940891336963e+01,4.949569956248576763e-01
-5.827096330587714590e+00,-3.670217438176556879e+00,-4.727724492923410793e+00
5.650761977718146589e+00,8.526460975313936430e+00,-3.427348426794625258e+00
-4.942808441958675303e+00,-5.300037769970714407e+00,-7.813441167042361357e+00
2.394365808228360315e+00,-3.892585703517882134e+00,5.258545679282435437e+00
2.447797126558783010e+00,-2.247246295851591302e+00,6.773209780626481269e+00
5.420953188244432841e-01,9.640794474059971364e+00,-3.326450322750287736e+00
-3.339147341076832975e-01,-9.655210166463486843e+00,2.367671761398526975e+00
-7.293978712343695214e+00,-9.582875544278413926e+00,-4.710661869185360118e+00
-2.141061967288531154e+00,-6.124430236036478625e+00,6.837744375715067768e+00
1.992897687572616539e+00,-2.033931572847050617e+00,-5.522980834095864822e+00
-6.856955034784808944e+00,-1.200007968047139961e+01,-5.857169741616126579e+00
-4.400572275969179437e+00,-2.069791647922365030e+00,-6.987989251203952534e+00
6.708071268104621510e+00,6.307114790759867695e+00,4.220513712176702015e+00
2.643555488218511496e+00,7.877833921869370926e+00,7.674310286462254993e+00
-2.927519080529979334e+00,-1.319254296643447510e+01,-1.499829016662648673e+00
3.236982257789368767e+00,-3.155955025494012745e+00,-9.473045352921996565e-02
-6.468415801743001126e+00,-1.297160227530110888e+01,1.585904533168747355e+00
3.699274530351352119e+00,1.388199098609356419e+00,-4.381415549903606710e+00
-3.999785287091198738e-01,-8.971624239827836078e+00,4.246597124478181051e+00
-3.663759534238344884e+00,2.161919052607261804e+00,-3.488483980926768702e+00
8.961709848521072219e-01,3.509213947738023531e+00,-7.676925764100247740e+00
2.805759178174179969e+00,3.142567375072882196e-01,8.006166673502121967e+00
-2.856818500900648594e+00,-1.292156684116331533e+01,1.596261096670572588e+00
5.169778898503626152e+00,1.431028996689593669e+01,4.336092969335842540e+00
6.342336013093740732e+00,1.408120423752714423e+01,-1.052707134261201549e+00
-7.305822716016836083e+00,-1.011772679659253882e+01,-5.152951236165791649e+00
5.469626778845945836e+00,2.020599570428843528e+00,2.634924845590195908e+00
-4.545544960890115505e+00,-1.251472785515070285e+01,-5.913234827291327100e+00
-5.370382679064260145e+00,-1.472598958887868825e+01,3.674166187294346519e-01
-5.112845692945866993e+00,-6.977055449542433507e+00,-7.929997180532760481e+00
-6.985600721098164989e+00,-1.017541442818228248e+01,-5.750013558765449950e+00
-1.097100005698167458e+00,4.423035870596168984e+00,-6.780913412999753476e+00
-3.831221765038084204e+00,-6.824406052857248106e+00,5.765548497888992152e+00
7.538018615415350787e+00,1.387090130969822610e+01,2.161326161966166559e+00
5.558792020906229148e+00,2.702902544790494410e+00,4.270587187824052000e-01
2.361645865881584871e+00,1.258435111911103377e+01,3.763746597739692779e-01
4.133208506430625206e+00,3.778299209360858502e+00,8.157979341807068963e+00
6.018996998142333688e+00,6.625011848859331920e+00,6.886406013567514250e+00
7.109400548538335585e+00,1.364315234060380888e+01,4.720591796737831025e+00
6.324468024243762088e+00,5.265429233487498806e+00,7.141898426871280681e-02
-9.731272474700156661e-01,5.903323822566466816e+00,-5.552425599330738315e+00
1.782691253525602537e+00,6.858205263423585940e+00,-6.762661298164763579e+00
1.400523856482373874e+00,9.540926562685486667e-01,-7.357311942855847775e+00
4.049753935646014824e+00,-1.000561452132230356e+00,4.363746745453290110e+00
5.353014959164542397e+00,9.969342374836264398e+00,7.520654438850196577e+00
-3.700754676135527887e+00,-5.765448109679110367e+00,5.944143272024833280e+00
-6.119992037604402135e+00,-4.332209063107841374e+00,-4.013344327528647781e+00
4.557504640529088213e+00,1.265512450771811359e+01,-3.136560876037520540e+00
3.466308941310042080e+00,1.132824633176644191e+01,6.222226546941870495e+00
-8.189971661911481515e-01,5.851874362457559542e+00,-6.063026815531630476e+00
-6.824153065518538064e+00,-8.714491207775802550e+00,-5.819829157409883713e+00
6.289782724161757876e+00,1.481032465904372408e+01,-2.913840754357591156e-01
-2.229502446031302210e+00,-8.360051692187251859e+00,6.107756988922761643e+00
-6.015947476971855029e-02,9.318501990375740007e+00,-1.549901657061204308e+00
2.405028715117356164e+00,1.206393431337528455e+01,3.450417102672870051e+00
-1.672911149920924156e+00,2.388243675036344715e+00,-7.654206156130679339e+00
2.278241535264384332e+00,1.051329657461571720e+01,5.311791635879394846e+00
-4.615493039834091427e+00,2.493835109586178267e-01,-1.785923361304594392e+00
-3.904775857057687816e+00,1.954449384385379407e+00,-1.817002402597985400e+00
4.011846846833730496e+00,1.432574014870200685e+01,6.258204758980707716e-01
-1.551548529232259943e+00,-1.162305642596545319e+01,9.554232675919553941e-01
-1.292266801992817848e+00,6.122560405551483953e+00,-4.795838473571087945e+00
3.417572389464895721e+00,1.369576340393262903e+01,1.358988466193467914e+00
5.786637601334581049e+00,3.068821430812904705e+00,1.100517261646479117e+00
1.396552889756901061e+00,-7.098064577556331578e+00,8.796189035628365627e-01
6.447574817757523391e+00,1.310767477848363072e+01,5.961195546401611978e+00
-7.485183165128934668e+00,-1.284838677204661650e+01,-1.094613289770719700e+00
6.152599170661818384e+00,9.223613485082767127e+00,-2.773172489736874802e+00
2.925916169561757485e+00,3.443868533061736681e+00,-6.443486002981027028e+00
1.876101498060052108e+00,1.174366321501334198e+01,2.410520421544268377e+00
2.496487931730133891e-01,-5.407277960996422550e+00,-6.080932814534573794e+00
-5.933829907491178224e-01,-2.078380974953800919e+00,7.874874209346537590e+00
6.121601389245246772e+00,9.530951258662954118e+00,-2.822633460459912591e+00
-1.908779534866622107e+00,-3.007228315956632869e+00,7.167171723459215826e+00
5.062652573885425333e+00,1.120829517755249150e+01,-3.767147057492000073e+00
-1.278452579933857303e+00,7.070153660070444879e+00,5.757314403771341960e-01
