-1.073304517076988596e+00,-5.712537558976726881e-01,-2.090163000916748781e-01
-7.774889689537534121e-01,-8.763107365953327621e-01,-1.056174664265454144e+00
-5.625131743794459238e-01,-3.061721835237948830e-01,-9.951424903349349593e-01
-3.072731384430723023e-01,-9.524745511903501827e-01,-8.312389823116368426e-01
1.014716254288642538e+00,5.335383200927781289e-01,1.164795519563136317e+00
4.791773677090602201e-01,-4.475840125945601544e-01,-5.594984532161494384e-01
-1.678840228324773642e+00,-7.314941230474615308e-01,-9.564046998922087761e-01
3.142711867032234041e-01,-7.857105812932485556e-01,-6.188693767430692994e-01
-2.758389868401403544e-01,4.504385863345075625e-01,6.578387598874165798e-01
-9.364165896666050148e-01,5.148977897629772871e-01,-6.681268552479074918e-01
2.258091192917807966e-01,-7.117216218514693660e-01,3.044101798145461002e-01
-1.508473206573532233e+00,5.336489395329887531e-01,-2.285595832422923079e-01
9.317651779456757044e-01,5.568685602518954614e-01,1.093782730519671093e-01
-1.128993330036950571e+00,-9.745568458827574831e-01,-9.486414667984671700e-01
7.946395486172425082e-01,-8.676951686987333101e-01,2.249561274572720593e-01
7.084220073313025612e-01,-9.618002033956086771e-01,-4.415573431182807929e-02
6.510566712344562079e-01,9.918890102278210552e-02,9.674732644651280467e-01
-6.548646587842182898e-02,4.014571813146788348e-01,-4.945460290275093818e-01
4.213047339954382187e-01,-6.806166177527027683e-01,3.961381692481684702e-01
-1.463825390900707957e+00,-6.439281638318711254e-01,-1.222339390451882002e+00
7.622007771098101570e-01,1.069146397966070250e+00,7.992650217661098067e-01
3.950736423486821414e-01,-9.137429375197754222e-01,-4.932760052795581718e-01
1.166379733077163167e-01,-1.517651661837575716e-01,-6.793590720695096286e-01
-4.417116576744348211e-01,-9.693761922327520653e-01,-2.822392659507168555e-01
7.376538797681881920e-01,7.989484243571068900e-01,1.074184870145340698e+00
-1.718504965143335284e+00,1.656744943135312065e-01,-3.820654608208190472e-01
2.352899002623323743e-01,3.904992469090846630e-01,-3.735815857861252698e-01
-2.000460339230859752e+00,-2.592944714613336088e-01,-9.773539259065060492e-01
-7.107884687318615224e-01,-7.323143595886982826e-01,-1.361921352767992421e-01
-1.283094655389494854e+00,6.051581581394426257e-01,-4.334748101970788137e-02
-1.626839399277459020e+00,-4.565866580646261996e-02,-1.114917815868138540e+00
7.588646497733977370e-01,1.021306179373161038e+00,5.737277310787562978e-01
-8.111382855072479803e-01,5.668713543072958494e-01,3.537709238427393932e-01
1.027698865638983355e-01,-6.484032513226337668e-01,-7.597720650944729259e-01
-5.465786232864099786e-02,6.340575755248039069e-01,-3.185029224681886761e-01
4.240256606282989948e-01,-8.069200520320369829e-01,2.502403697400829019e-01
6.244491568724703789e-01,-7.934250945488856566e-01,-4.161837523203205658e-01
-1.791493585015343504e+00,2.120620107201034721e-01,-8.963413425576221005e-01
1.913702972417058668e+00,6.515713428535159848e-03,1.032857938603113812e+00
-7.629078307188043029e-01,-1.016028877677059183e+00,-9.336275991285837295e-01
2.650766839384376961e-01,-9.621394738064008578e-01,-5.270279826216844876e-01
2.028780433366956792e+00,2.218242459190245541e-01,9.501014448722435723e-01
-9.290882328862093420e-01,-4.356153708032169392e-01,-1.123761567015906460e+00
4.878660506310667500e-01,-4.803452307662879894e-01,5.896031167386862615e-01
-1.908716764104335883e+00,1.252959103951980513e-01,-5.980200366825452196e-01
1.402234119320884043e+00,-3.907295302121386871e-01,6.835305821204480659e-02
-1.664651401129053854e+00,-1.900391614106979321e-01,-4.004759479535410227e-01
1.165827496821457476e+00,-5.607187167115758319e-02,-6.614642852208867108e-02
1.147457661281636287e+00,8.155112203075073340e-01,4.847294383194873379e-01
1.003812294369296199e+00,1.749637264163088624e-01,1.086372760739201304e+00
1.940379194355392967e+00,4.928457714909620924e-01,9.912428026121897773e-01
-9.409618982588084934e-01,5.921318173688819297e-02,-9.824942851742303196e-01
1.477434363960177244e+00,8.586824264208203772e-01,9.302256510724468130e-01
8.169712068178160980e-01,8.257651856406975632e-01,2.881989779187738576e-01
1.389922863571744216e+00,-6.084210326923368273e-01,5.564021953013656985e-01
2.000318093390283991e+00,5.413821986498220523e-02,7.828882396574832203e-01
-6.740777842296238331e-01,-5.278385686464137638e-01,-1.064097151281972353e+00
-1.496199215815523731e+00,-8.523919363092747892e-01,-1.030637286316292922e+00
-1.886460284082528638e+00,2.264766045813459139e-01,-6.030419169390838219e-01
4.411829473889306574e-01,-8.336561978131125095e-01,-5.080403692956902972e-01
-1.405725933205668847e-02,-5.096984940926745367e-01,-8.137835938211439579e-01
1.468529581674387519e+00,-5.057080706782488555e-01,6.827511820891295491e-01
-1.130224192444059916e+00,-9.712467973037698377e-01,-9.230091025804797455e-01
1.419436624832957738e+00,4.049212933287567040e-01,3.153767953408710967e-01
1.122207560712708885e+00,7.901128888243493797e-01,4.466436160820967394e-01
-6.308064568530177274e-01,4.557325794737578928e-01,-6.558603828614073539e-01
-2.015545083249650649e+00,-2.544685950677173514e-01,-9.072473348771475932e-01
1.808108324296257674e+00,2.520233162393952786e-01,1.168269787277325555e+00
-1.268022094985400194e+00,-1.047090772618122362e-01,-5.183747293185225063e-02
1.544633633312015419e+00,3.401909570330979293e-01,1.212221614040150941e+00
-8.271838316158625082e-01,-5.236079632882923995e-01,-2.244920335005268219e-02
-1.770517710376017906e+00,-5.015155052451581996e-01,-7.411659202516689415e-01
-1.316668242803757660e-01,7.224179989970683780e-01,7.319226769316583558e-01
-1.609326728342446389e+00,-8.008064331555551085e-01,-9.902095134012129929e-01
-1.187011233531556353e+00,-4.666416247476762313e-01,-1.203367514635824032e+00
-1.888780305663862347e+00,1.952973043922564544e-01,-6.432923243691226478e-01
-1.810386660243263002e+00,3.207008945149946166e-01,-5.879071198707165324e-01
-7.438382919681147953e-01,9.115519156881796148e-01,-1.292460669353843461e-01
-2.009346284833616103e+00,-9.757435734822048068e-02,-9.032444684637567223e-01
1.075550517541232765e+00,3.381174702723604986e-01,5.132358411948399063e-02
1.119542173431287813e+00,-5.738136360232807265e-01,-1.269910081801940149e-01
-1.086807029279529102e+00,6.988697688536258390e-01,-4.821825389011704655e-01
7.833367082872338960e-01,5.814544744343599358e-01,1.107135489216676927e+00
6.837157247349551215e-02,2.967367641219645913e-01,7.997160438857530140e-01
8.707176776120945094e-01,-7.928119127214839912e-01,-2.426487561058608411e-01
6.671694628440670849e-01,-5.245491995768430948e-01,-4.531301611195509560e-01
1.963690372033207732e-01,9.751197970871227083e-01,7.705429322048299445e-01
6.771097507519158176e-01,-5.089502448238071297e-01,6.127085738001354365e-01
-1.900438663503665415e+00,2.019495212864425848e-01,-8.507497706731299569e-01
1.512503111135531375e+00,-3.774581290998882399e-01,8.357522164644838325e-01
-1.472606782611372456e+00,-7.144986156313429260e-02,-1.123126322496981411e+00
-7.240249384619591444e-01,-2.553345528888485427e-01,-1.033567651813552812e+00
1.765407937040895714e+00,-1.616629847965282141e-01,9.779579694292540593e-01
-4.587489082158671128e-01,-6.323345807298339505e-01,9.093265389366561591e-02
1.695232090225788690e+00,-3.558435256480650954e-01,7.935369353393834091e-01
7.263125090741994194e-01,-9.520759271506181731e-01,-3.758034524357117129e-02
1.852089632339387393e+00,1.868825009177667654e-02,5.372300363908464327e-01
-6.867544603036784823e-02,3.522362269246866462e-01,-5.330628477885144267e-01
1.263393438892716603e+00,4.057400064954134189e-01,1.205644077082902443e+00
-9.101515526487692354e-01,-4.486173001715228481e-01,-1.343130835608208860e-02
-4.964665897156812502e-01,9.759729845441151852e-01,4.003673982871126108e-02
-1.448763404490275075e+00,-6.507840630024640527e-01,-5.454310108490935116e-01
2.053321279181855585e-01,-2.224572804528952286e-01,-6.515770715645896605e-01
-1.519498826053435891e+00,-5.345147425114743500e-01,-1.240520434365169011e+00
-1.685061030331352905e+00,4.360565859693684709e-01,-6.525683881829071886e-01
1.425678927359504966e+00,-8.947414106274197143e-02,1.047394990443959895e+00
1.763200180191338617e+00,2.240007067547926944e-01,5.312784228765098371e-01
1.692837091913100833e+00,7.381345515736478236e-01,1.048857813011556006e+00
-1.620389418041020990e+00,4.756196225229468166e-01,-6.237455839190647611e-01
-1.094427531150904409e+00,-7.167694875995322956e-01,-3.521788119613270540e-01
-1.500949912709671930e+00,1.660105079409965045e-01,-1.622765709320818928e-01
-1.296517430430751405e+00,6.838128336291511289e-01,-4.486583510721618429e-01
5.418083899270490500e-01,-4.955917690233202499e-01,5.961060328005827191e-01
3.687748835329668351e-01,-4.672000173459420203e-01,-6.157777759893944269e-01
-5.667592541518799987e-01,6.983060939143713730e-01,-4.261324578221702963e-01
2.014585763311744770e+00,1.564415439780346972e-01,1.015181310733666464e+00
-1.337887929077050897e+00,-7.420745951095962800e-01,-1.177506872555966089e+00
-2.404009052113749989e-01,-6.228271342030231583e-01,2.038661893698908434e-01
-2.753833695187831720e-01,1.217101398465915557e-01,-7.405547323256354009e-01
7.636772942877524395e-01,1.058509175947225822e+00,7.234833389994789199e-01
-2.006785100045365700e-01,-8.999828295591132399e-01,-8.202173967911938757e-01
1.825091952525343064e+00,-2.349266158201307117e-02,1.049572867229221940e+00
-8.475835848003504536e-01,-7.203638366889614231e-01,-1.121782617445344687e+00
1.686758550926384936e+00,1.473770913612004185e-01,1.148724870605288828e+00
-1.541951367269275508e+00,2.358198447570851175e-01,-9.423862939714704456e-01
1.688103080609697271e+00,8.735320275069528850e-02,3.796027168988821421e-01
-1.828906217718847316e+00,2.431600256628824452e-01,-8.478586265044322223e-01
-5.877173463532066044e-01,-1.056541173075722595e+00,-5.185988955360673058e-01
1.296440370037059031e+00,-6.587705635606376786e-01,4.742591511346485600e-01
1.218175639059296822e+00,3.044587871138783597e-01,1.173785874722918843e+00
-3.279583806735422158e-01,-9.071130730016556676e-01,-1.266008272728850748e-01
-1.109638780724554019e+00,-4.737967639136648756e-01,-1.184677876232773208e+00
-7.177887947413323921e-01,6.364827545167144329e-01,3.986580964018833217e-01
2.233543042225072384e-01,-5.630078750269869037e-01,4.441445624668645675e-01
1.523268522583704598e+00,3.179662287965566714e-01,1.220399536742995394e+00
-9.109890902364486953e-01,4.536369655013648416e-01,-7.221731328281891793e-01
-1.024005431726703996e+00,8.093800529720169834e-01,2.314519592472800633e-02
-9.989980910869672437e-01,8.273899318536271918e-01,4.827179710263185958e-02
9.920248802686849887e-02,6.584479522012476327e-01,8.529681723578326213e-01
-1.153118549835822071e-01,2.904910756404081029e-01,7.230547679093712876e-01
-1.817372286055841890e+00,-3.415486003723926522e-01,-1.177878967360624918e+00
1.448851450060743451e+00,8.769535276216565700e-01,1.045029660309227504e+00
1.992402143466477149e+00,2.610474541695874673e-01,8.846345728148435894e-01
-1.096281809513496075e+00,-6.087265169698622413e-01,-1.189927262586209400e+00
-2.001158115372641433e+00,2.645930390891788886e-02,-8.850778716911668065e-01
1.034488777978555651e+00,-7.835538137045641172e-01,-5.721695431152537537e-02
3.584498978416953974e-01,-9.964670308553897904e-01,-8.269619849107268106e-02
1.773213174518541102e+00,1.575888157664450881e-02,4.605163763629851470e-01
-1.150716267315884833e+00,2.064360525631957211e-01,1.096691798637854515e-01
-2.131568507817567792e-01,1.883652079610523278e-01,6.481618346392171714e-01
-1.519296560174737687e+00,-6.706866720999339337e-01,-1.197488927023266925e+00
-7.634837742475565348e-01,5.019216133073950425e-01,-6.543190693755372989e-01
1.584091080787214834e+00,-3.032540785095937108e-02,2.694081962716117773e-01
-1.409322943635490155e+00,6.639035443248660906e-01,-4.138922861910213635e-01
6.940447016821481574e-01,5.067108913512599067e-01,-7.555971257769107663e-02
-1.667417238039472949e+00,-6.544447672972441010e-01,-7.965012107598830049e-01
-9.537709528242493962e-01,-9.565864285244676246e-01,-1.028425809377496503e+00
-1.610168027252906864e+00,4.999301682522646617e-01,-3.684639439710785114e-01
-5.823628732400657482e-01,-4.276939028957853495e-01,-1.023921465767544836e+00
-1.464058140110477746e+00,-7.080093092596640991e-01,-1.189123744227230217e+00
1.831476710117909024e+00,4.967256620361567010e-01,7.914108264939475612e-01
-2.542975669322002918e-01,1.031433239382533174e+00,4.027370111258797292e-01
1.340586847116145064e+00,-2.768817665206886325e-01,9.046082510455724091e-01
-1.175328955171824452e+00,-7.826178483060761137e-02,-1.092588881781512811e+00
2.370247345012058415e-01,8.305701582794322579e-01,-1.128168636594545013e-02
-3.996580955432616489e-01,-9.915274715079271939e-01,-8.529961423551367661e-01
-3.491033811642158535e-01,-1.097406742785244971e+00,-5.772447724038947126e-01
1.665601322669162609e+00,-4.773340551621085837e-01,5.340457166202406958e-01
1.216333434828066107e+00,9.403624299105675099e-01,7.823072216363721187e-01
1.225724888314133620e+00,-4.385307439607673552e-01,-7.968821617605879870e-02
1.925440250873845738e+00,1.269140514677142562e-01,6.514237313269973795e-01
-1.295016852777533201e+00,-7.981324601750227066e-01,-5.808353348875748834e-01
-1.890458573582083801e+00,-6.058023915186136477e-02,-1.080697278043984522e+00
-6.558761179852924394e-01,-7.471637094291696535e-01,-1.173245580748397271e-01
-1.947248731541946665e+00,1.143955550067735916e-01,-7.274492085258704721e-01
-1.065145525806203031e+00,-3.934149342130417448e-01,-1.161715269056796007e+00
-1.073619422862075873e-01,3.848287561845609162e-01,-5.156877891673102843e-01
4.270100454633222187e-01,-8.826540785861962668e-01,1.503600785999358036e-01
-2.439244919756685670e-01,9.585519506610195029e-01,5.442524968819866249e-01
-1.980622071436792142e+00,-3.511773102828894544e-01,-1.031493262753310214e+00
1.787410752163803407e+00,-3.249078597678149438e-01,5.359746693429493503e-01
-1.855338978425196128e-01,4.844910861129687052e-01,7.188468853230963740e-01
-4.024274934749693111e-01,-4.037193464491174999e-01,-9.540330132018621789e-01
1.222382022496570464e+00,-7.313177341891673455e-01,4.005787865204492038e-01
1.792309155110880958e+00,1.729427429103662928e-01,5.243039298533680448e-01
-1.348422787799421041e+00,7.271748289129041642e-02,-6.428941349013989059e-02
7.872948907025786869e-02,1.093558326363628687e-02,-6.418875213460678575e-01
1.837563568857741636e+00,5.256133294100480136e-01,8.575432955611195229e-01
1.555864840448851538e+00,3.526764058308906602e-01,4.000887236225904586e-01
-3.422368330534348857e-01,1.032382757712270616e+00,1.987768667698439073e-01
-1.690253149922443576e+00,-5.158690833312964408e-01,-1.205980742427927188e+00
-1.667461421162411250e+00,5.984276764552624861e-02,-3.359908313795155199e-01
-1.933063698235725880e+00,-1.323048527481544001e-01,-1.072491076467352977e+00
-1.248477591565694933e+00,1.832395582154047187e-01,4.452548888276205985e-02
1.622271624232890286e+00,-1.928036840973458566e-01,9.699335389497323323e-01
-6.516032772555508945e-01,-1.063049578373534532e+00,-6.854341859990806807e-01
3.242249872008474143e-01,1.078308338579336834e+00,5.066838044255272955e-01
-9.018067088279471122e-01,-2.828617923340445706e-01,9.653518403961036665e-02
3.854312890986324458e-01,-3.738754562354965755e-02,-5.068877199984488380e-01
8.695112766048127551e-01,4.661859060246252295e-01,1.111466094805983795e+00
-1.961575904544793580e+00,-1.585946047984807816e-01,-7.373257971287655588e-01
5.076393584221225441e-02,-7.826931610910811132e-01,-7.629023395587911649e-01
-3.902535143183654687e-01,1.033588350951683443e+00,2.519110806441822725e-01
-1.728872008262773319e+00,4.183617298809559348e-01,-5.677093517939993950e-01
-1.350896277939674039e+00,-8.988162704980587892e-01,-9.658116276585181348e-01
1.123954735653575288e+00,-5.369445863298399901e-01,-1.288612554765410645e-01
-1.890962883235296488e+00,2.106456773969959118e-01,-6.673161545557365626e-01
-3.617923868505349121e-03,5.085393613650910360e-01,-3.979622064357868916e-01
1.747604751577607862e+00,-4.158827082262382402e-01,6.564280138658681318e-01
-2.288869852586532527e-01,-5.318596923359941719e-02,5.482985721598317985e-01
1.225138675005925659e+00,5.381891745163358554e-01,2.731144297930611642e-01
1.975259979288254142e+00,1.213954649197640095e-01,7.349817010745793855e-01
-2.107800235864402405e-01,-7.611846760157426894e-01,8.772176179349078229e-02
-7.251778249915834529e-01,8.612116483205544126e-01,-2.250099481263822532e-01
-3.155195797965481552e-01,1.046772191939558949e+00,2.729639787936631312e-01
9.101719953145215314e-01,1.876141584146787666e-01,-1.338426965742619268e-01
-2.456088603329042164e-01,1.043572163547110687e+00,3.793963298571790821e-01
-1.448781808594880482e+00,-2.429784898852290209e-01,-2.460593979071634130e-01
1.419733822517482924e+00,-5.889803018151972269e-01,5.796106068866123673e-01
-1.660415717226032095e+00,4.648964367755983318e-01,-4.789070019377929532e-01
-2.617946783339575312e-01,6.574806617092198158e-01,-3.746577540404644191e-01
7.251908871844023885e-01,3.287938691414273307e-01,-1.708599896165975129e-01
1.449682058607399293e+00,-5.220608232750977296e-01,6.575957472710534102e-01
-1.830917679306068580e-01,-9.120119066343708170e-01,-7.951852819513478832e-02
-1.170041346554734352e+00,-9.202619836978649381e-01,-1.075639726347229042e+00
5.810774284416729552e-02,-7.814498013240668284e-01,1.850347889276157398e-01
-3.015384127309009635e-02,-1.829461184688378761e-01,-7.566641736970658449e-01
1.525562409090272853e+00,7.052611573035868497e-01,7.009246042338838079e-01
4.713692859620590148e-01,5.301214571041594770e-01,-1.707065173961041515e-01
8.782621036819474591e-01,5.971595517876981951e-01,1.090394390597081709e-01
-4.761364876841770455e-01,-1.087427139741146132e+00,-6.005607072510971145e-01
-5.607352892353001383e-01,-4.255502662113392898e-01,-1.020450766730350400e+00
-3.455254376774264391e-01,-5.603011603188323697e-02,4.983396340731558460e-01
-2.777979664706592966e-01,-1.051207096493977033e+00,-3.779990285649483805e-01
1.019589524459336011e-01,1.413654667641270624e-01,7.747155302103938546e-01
-1.003250211157926008e+00,8.564513692518507249e-01,-9.187223851569607802e-02
-5.846904446115940290e-01,7.152276810807640661e-01,4.694087957746897466e-01
-1.875807979656498370e+00,-4.231402441879721366e-01,-7.833097391538756948e-01
1.594247992019090843e+00,7.913153940878970838e-01,9.838269128838469380e-01
-1.644519163763930036e+00,-6.900745959171765698e-01,-8.072398734027669276e-01
-1.384517898143261760e+00,-6.915359363665450898e-01,-1.195697504803904243e+00
-7.969712386291224471e-01,-6.646496008866273342e-02,-9.945368985987583788e-01
1.293897297895651166e-01,-1.036750324115163213e+00,-5.305467576344383707e-01
-4.922940033313539243e-01,-7.085554058579612846e-02,-8.980576704296542312e-01
4.017059253662230156e-01,-9.491453467726514992e-01,5.153464274072799833e-02
-5.534423062820877925e-01,3.705444493980549758e-01,5.145333470977245804e-01
5.894223610884882225e-01,-9.712742884577978408e-01,-1.918768166303207179e-01
-2.398174265357503054e-01,3.959927943376831960e-01,-5.640966653087505778e-01
-1.238239315745972569e+00,-9.405491174338784788e-01,-9.791128038706755632e-01
-1.060146045655027264e-01,-5.164138684172138172e-01,3.384628418781785442e-01
-2.002461251492023475e+00,-2.359328225138820623e-01,-8.278665219991893087e-01
-8.595817411966606703e-02,9.791055733154432339e-01,6.273883981925816311e-01
1.771907235911061584e-01,-8.876398491669805768e-01,-6.445271179414171492e-01
3.778654271464236269e-01,1.078978629280792578e+00,6.449217449961506254e-01
-1.221242717206565187e+00,-5.416828644523347114e-01,-2.842118929693707718e-01
-1.862814356397612503e+00,-1.958754546852030029e-02,-1.046047265469533194e+00
-4.782545285776460542e-01,8.181271631146468104e-02,4.755762074357336444e-01
-9.513794179948504848e-01,7.843699640498282832e-01,-3.500169351780278992e-01
1.322095605524438611e+00,-5.102795302346985196e-01,6.877012681320034959e-01
-6.503098129820088225e-02,8.701245885200395991e-01,-7.167539577943761453e-02
6.801651277550259111e-01,-8.269966250907481164e-01,-3.520005031403424800e-01
-1.577652791505440577e+00,-6.525821670927910434e-01,-1.206211615200200926e+00
7.983969405241079231e-01,6.709868743306619532e-01,1.252004902949665210e-01
-3.570934703351644757e-01,-1.875041134458834899e-02,5.010648145934980535e-01
-2.317342581752190600e-01,-8.788978465116408234e-01,-4.541242193630336266e-02
1.240275833814130646e+00,-2.261693711018430974e-01,-4.483211688985470900e-02
5.407311245683398271e-01,7.469753116916788560e-01,1.003077570514056882e+00
-2.940842408238242278e-01,7.863516464683162344e-01,-2.375025354137144384e-01
-1.576363607648652909e+00,2.846680423342350941e-01,-2.337768992049270023e-01
-1.347143265400027323e-01,-6.075005925361586477e-03,-7.423180894056382595e-01
4.304318018574126992e-01,-6.663454659826868465e-01,4.213586975926241762e-01
1.772266881410602679e-01,1.003386247146488275e+00,7.234100864409658271e-01
1.375929234902382392e+00,-5.533431644040520681e-01,6.560351402576717339e-01
1.337145453413775442e+00,8.072323996071079089e-01,1.139671043676495632e+00
-1.525774800406558773e+00,-3.431947908270926995e-01,-1.212855331284842464e+00
1.104946543039385887e+00,3.544539498646408493e-01,1.151274148328694791e+00
8.863461706953732477e-01,3.057758304259080573e-01,-7.962585889596975053e-02
-1.447478016884578000e+00,-6.650538709039469643e-01,-5.766310104761772637e-01
-1.766196757525227534e+00,-6.105752814969958031e-01,-8.559675822511118026e-01
-6.093819454483442311e-01,9.857710377475989993e-01,1.290277611441390804e-01
4.855555574502797289e-01,-8.329157671186208090e-01,2.344850075981679549e-01
-5.954568194594046515e-01,7.202534807762926983e-01,4.744320930376004219e-01
1.111032787440616953e+00,3.894539572702184621e-02,1.051149999665259571e+00
7.158892394644995605e-01,-6.806747685719073404e-01,4.590061742762743813e-01
1.967263558267919876e+00,3.631364583518518208e-01,8.947496111772119676e-01
8.159840666755107108e-01,-3.625398808947345730e-02,-2.783046751392703744e-01
1.696482803466264899e+00,-4.038199212698459495e-01,6.895260633312844112e-01
-9.108707965082303293e-01,8.871727193172473935e-01,-4.221058818528827805e-02
1.078474423962131334e+00,-3.649105534837056020e-01,8.247711356530061932e-01
2.026007806533335120e+00,7.568671781529838494e-02,9.072237280148697236e-01
-1.804195208369116510e-01,7.763709174347698250e-01,-2.192695329108614866e-01
-1.874845120855370917e+00,-5.351352796920640920e-01,-1.043013488366064889e+00
6.477320620086568503e-01,-9.203119390777673159e-01,1.143404032362246997e-01
-6.118774128114645716e-01,8.411097256054596016e-01,3.983328310474786305e-01
1.298677971983432711e+00,9.219203750540043707e-01,9.259084925238996178e-01
1.081995443358764630e+00,9.118007834756285401e-01,1.074045770026178737e+00
1.689426015557428551e+00,-1.695302635753384024e-01,3.366570685438919908e-01
-1.839435294644855556e+00,-1.771087073544417440e-02,-1.054997492361464895e+00
-8.366561581395329239e-03,6.603275878277197197e-01,7.919238306058571375e-01
-1.000524404344045604e-02,-1.073741790185799072e+00,-3.723677202112640194e-01
-4.403642349726912264e-01,-8.081885461708032681e-01,-9.701657452807335158e-01
-1.785183003788255673e+00,-5.368102934130810633e-01,-7.946878071404336330e-01
-6.258315280356521182e-01,-1.033982294673607916e+00,-8.539616787391891561e-01
1.292363301481607996e-01,-7.177689216824539864e-01,-7.277723807482022744e-01
7.072036970716594206e-01,-4.837177683405243234e-01,-4.291744052339950266e-01
-1.040363285249884973e+00,1.402775338639472846e-01,1.765838795695695573e-01
-1.725489608256373764e+00,-5.884522753255679861e-01,-7.801280210438076290e-01
4.726454877783076158e-01,-4.665423977395062594e-02,-4.787821983814173898e-01
-7.343986184523501048e-01,-1.044350249095319150e+00,-8.430606749577197467e-01
1.056510525612375906e+00,8.312208768283004812e-01,4.534114188440385718e-01
3.604250550340396542e-01,6.773511263642852942e-01,-1.078603361291202989e-01
3.623194084403725257e-01,-4.654138532564465192e-01,-6.228464521126793052e-01
1.595160189904780257e+00,-1.962593370737504006e-01,9.709212285595131275e-01
1.974853331566846393e+00,-6.666123905372547953e-02,8.538388020966184433e-01
8.396457437375206556e-01,-8.778232308654261296e-01,1.998286283459085877e-01
-1.013356322571860257e+00,-1.009530351516692237e+00,-9.096069512102361587e-01
1.696548023170614483e+00,4.654501043423833750e-01,1.225890797759463524e+00
-5.256113629744462168e-01,5.563821709736275212e-01,-5.300620468823404874e-01
-8.923449464881687554e-01,8.734609939047289773e-01,7.610580613290117424e-02
-1.094289701856824060e+00,1.394299520857152641e-01,-9.628882971173337024e-01
1.076756207227401507e+00,1.148647447885373513e-01,-6.871222058037847191e-02
4.781233649912990935e-01,8.705450745905538579e-01,9.549000020775507691e-01
7.845941201366828377e-01,1.062735566004799237e+00,8.296861435930427131e-01
-1.817140566211049801e+00,-5.732913329022620852e-01,-8.701520336394678035e-01
3.735944392455745056e-01,9.417471629054664506e-01,8.720960392795169547e-01
1.574648364994940541e-01,1.054281887552887875e+00,3.372020968430452514e-01
-7.002833312564126222e-01,8.165732696372154376e-01,-2.916413561217052197e-01
-1.946729572201276293e+00,9.386071009348168070e-02,-8.426811620951892845e-01
-7.912110626690955772e-01,-1.063036558476290860e+00,-7.227723577937594790e-01
-7.020440989107957774e-01,7.269470443525520853e-01,3.855122808286352010e-01
4.493020068066975181e-01,5.662352732312362497e-02,8.762984494607916064e-01
-1.116400223696123906e+00,-6.201252715041031260e-01,-2.770288749426662034e-01
1.806315858440304956e+00,-2.848382514132117849e-01,7.949302555989637975e-01
-1.592823517763774788e-01,5.903889306340951437e-01,-3.888735934517377202e-01
-1.940067667608721180e+00,-2.372091001261889265e-01,-1.141425511977388174e+00
-9.467725726490866522e-01,-5.978155884148133037e-01,-1.150655089825766808e+00
-1.149357083559230830e+00,6.440002329093155176e-01,-5.365627189460144830e-01
1.298606776031349330e+00,-7.285875991954194886e-01,3.143917642664991741e-01
-2.598634940180118980e-01,-4.534159694808709284e-01,3.167342256142923196e-01
1.079845945899080562e+00,-3.767766909490462557e-01,8.057683463900109366e-01
-6.604669822288908865e-01,1.861489062072438638e-01,-8.373123355051212968e-01
1.561418621146933416e+00,7.516808300501164330e-01,1.170432998831283378e+00
-1.021247279920075357e+00,8.459290994216051018e-01,-6.979203370304916387e-02
1.438297916279320576e+00,-3.654934771338322515e-03,1.549293110935959783e-01
-3.955184345435273086e-01,-1.098174104253931693e+00,-6.011454637985519378e-01
-5.007006923510434193e-01,-3.835874782146713735e-01,2.520662865940971331e-01
-1.580169034271520445e+00,-8.029378030354008544e-01,-9.800689219903200300e-01
3.082437832191600724e-01,-5.532338244534921179e-01,4.687796150544991103e-01
-7.124949581548636335e-01,-8.782855744613203841e-01,-1.038413955188477678e+00
1.977525931663678405e+00,8.885084250995257948e-02,7.271663816359735799e-01
1.845088747103253157e-02,-8.691143956149706140e-01,-7.462485322535297172e-01
-1.491054019110774176e+00,-7.167544512692710645e-01,-1.186599423769348682e+00
-7.999858397171158986e-01,1.855255568580394254e-01,3.314747694568559999e-01
1.212306193373025254e+00,-6.480477284955118433e-01,5.408868587504218617e-01
-1.289049415243263441e+00,-3.023905331514008532e-01,-1.176469846847545409e+00
2.154289051796547116e-01,7.370246073333015513e-01,-1.119895635263655626e-01
3.722130139377915481e-01,1.096259204273303700e+00,5.764494196715012064e-01
1.805752202784499383e-01,1.080263810563969473e+00,5.994464148603654285e-01
-1.951516243117311644e+00,1.333037210603472966e-01,-7.991168558162118352e-01
6.098917609795716510e-01,8.958057105561217925e-01,2.539997859955719361e-01
-1.948447735507786938e+00,-1.241007395591813833e-01,-6.968945908755412866e-01
-1.027620359089435054e+00,3.741548668819441592e-01,2.234063275341038324e-01
1.520667420370223732e+00,-5.862828797300921879e-01,4.672861847454233275e-01
4.720677684797477958e-01,-4.897066607592883147e-01,5.720190710931518652e-01
-1.021817612088148364e+00,5.963380463790501906e-02,1.596571176234814204e-01
-1.902086914140792784e+00,-1.869155019714543176e-01,-6.673885500152374473e-01
7.660326359590844403e-01,-8.100966972065908323e-01,-2.912123840861253754e-01
-7.269831357292924068e-01,8.078826663785082518e-01,-3.032080431627606765e-01
1.526483810893681126e+00,8.706146338565916298e-02,1.133819651907071124e+00
6.086280570423725500e-01,9.935459343222813322e-01,9.105640059155879484e-01
-2.475095722394425324e-01,7.294965750199714494e-01,-2.889308599787073217e-01
1.269475789443426539e+00,9.460431572369470965e-01,9.827081231891354740e-01
1.209160544988741703e+00,-6.612893128100900686e-01,5.156207536616284060e-01
-6.203220052378321386e-02,9.975832454984779885e-01,1.252517564732583688e-01
-1.588012508554082214e-01,-7.231567227042492441e-01,-8.689980707181655939e-01
-9.647628765472121559e-01,7.778569798579650918e-01,1.532956827623646601e-01
-5.995181237286174580e-01,-1.628486200148645813e-01,-9.642199615876836383e-01
1.603816453411925025e+00,7.702776673855105116e-01,1.005420634028713733e+00
-8.222053427342307375e-02,8.469459689127917246e-01,-1.086739193754556188e-01
2.572288916396959224e-01,1.459574667525596059e-01,8.367777670522446032e-01
5.292236916804562430e-01,4.620373649348793466e-01,-1.811576066095903215e-01
4.264575496357203566e-01,-9.230756430552341518e-01,8.966137265978338378e-02
1.896993673288435989e-01,-5.610596362574679086e-01,4.189888685361138898e-01
-1.729769078955560646e+00,-1.289612597649286430e-01,-4.328644138171983125e-01
7.474675310181039256e-01,5.885436944937187942e-01,1.087101124148923015e+00
1.364106533229457296e+00,8.649993530546444820e-01,7.751500094074185165e-01
4.640677182256909283e-01,4.860594821180712066e-01,9.896947292998817813e-01
-6.401670927547086221e-01,8.415782324751307497e-01,-2.546227109053117998e-01
-6.666511322786181637e-01,9.548969004548439887e-01,2.894540427882077993e-02
-6.656158109467162909e-01,-1.063829841505085971e+00,-7.973248865231136184e-01
1.249261385767722610e+00,-6.463320651820073648e-01,2.694088505886373108e-02
8.171859687639357883e-01,5.817482100063032791e-01,5.593518937200444435e-02
5.390586490227188277e-01,1.074758475570298577e+00,5.882575055066856518e-01
1.520639490127005944e+00,-5.740044160060071565e-01,4.609386579839408471e-01
1.668540037396241127e+00,4.988078228915286960e-01,5.985836462805774749e-01
1.662719775390472776e+00,-4.969710305652738636e-01,5.176499495471882373e-01
2.688828192067803102e-01,1.066545597897380349e+00,3.835015940234811627e-01
7.922439065855702012e-01,-9.187391250834784362e-01,-4.269320257700820465e-02
-5.093093051795056780e-01,3.971912767139080258e-01,5.395590981580009604e-01
-9.083694195034251739e-02,8.018098996409980250e-01,-1.597612124132273548e-01
9.402661003963498354e-01,4.651462616455668830e-01,1.134143447291135143e+00
-1.134677040662311676e+00,7.723686732500338881e-01,-1.552398814229742630e-02
2.452616998440934892e-01,-6.610052741838162715e-01,3.512951994223852958e-01
-1.938809500886796489e+00,-3.759920469707454527e-01,-1.088693025449527951e+00
2.589959348531100103e-01,-1.346314328632668700e-01,7.246654547831938853e-01
1.684874269576236205e+00,6.887641958029563360e-01,1.169717021807371582e+00
-2.662195541051392000e-01,-1.500836539701921601e-01,4.887110306621027522e-01
-7.700468741832000585e-01,1.931950151602343790e-01,-8.546308108204351273e-01
-1.979916729711435952e+00,-2.294256473931876872e-01,-8.016853784543400696e-01
1.377233681454676395e+00,8.540470961184234433e-01,1.086327556772978209e+00
-2.769100422873456702e-01,-9.679058893346101922e-01,-1.951201282160424100e-01
9.991672800406233845e-01,-2.562961626096194045e-01,-2.292332348715998558e-01
1.864276714409078384e+00,5.696490117899735139e-01,9.390179314071432914e-01
-7.506923725269581960e-01,9.447541046864111891e-01,9.367947681374787228e-02
-1.371147931846994128e+00,-4.723579502701894528e-01,-1.221695451848139102e+00
1.997725036890882544e+00,3.152776583844866809e-01,1.050511515258592210e+00
1.613573447309759601e+00,-7.688818573531319700e-02,1.042216292280525369e+00
-1.086453386817817890e+00,8.035806811417069984e-01,-2.170161444514867033e-01
1.382881668361349403e+00,-6.462815799653144344e-01,2.146776001983961846e-01
1.297372784163244031e-01,-8.835043905369167616e-01,7.586834585228616201e-02
8.361971102612362206e-01,-7.849235065181788817e-01,3.388273123155656763e-01
1.957460805197995812e+00,-5.806545718690878793e-02,9.062935492670065596e-01
-5.423996643760377045e-01,8.849928745744179981e-01,4.003644045117939476e-01
1.317951949597793826e+00,-2.854494232431885048e-01,9.008115795268897275e-01
7.263493411866265292e-01,8.346709962234634128e-01,2.453621407972287338e-01
-1.441480939416925677e+00,2.281322732152775701e-01,-1.113309199037677971e-01
7.079692311744344435e-01,1.064035407666534372e+00,6.762007969157058929e-01
3.317286077002749578e-01,-8.728209843926644229e-01,1.470501457473038509e-01
2.151112757715045454e-01,-9.952161907822831832e-01,-1.050168476947202084e-01
-1.091001606866183860e+00,6.192158087575985181e-01,-5.884966007650220821e-01
1.043406759055987676e+00,-5.283676791539824169e-01,6.733773444892163784e-01
1.432414168750872019e+00,7.611208874761948850e-01,6.687020567735904031e-01
1.003252903904918059e+00,-7.875214270341666101e-01,-9.385765746971981571e-02
-1.553222788744176019e-01,4.074413730510624276e-01,7.215522141098825726e-01
1.592002544246307494e+00,7.841084344224824587e-01,9.992656826331434150e-01
3.718335351743441985e-01,1.030367016126078283e+00,3.665015524482585496e-01
-1.077317717650672746e+00,-7.628452975214976561e-01,-3.820392953403960457e-01
-7.578986796027959993e-01,-8.052085811975233653e-01,-1.064157311971009268e+00
1.495780363715184524e+00,-1.852265875493322098e-02,1.079480438531436048e+00
1.507722377816811399e-02,-3.179552375206516346e-01,5.244705193382177555e-01
1.888019002998211349e+00,-9.840988913866248466e-02,5.827481552372049123e-01
-6.038937205164565114e-01,2.604420025774431546e-01,4.563351223879281160e-01
1.042489119642745932e+00,-7.114071147963005881e-01,4.729646078044708046e-01
5.875201740476764141e-03,7.162243084662023307e-01,-2.100911580909988752e-01
-6.646709551155524087e-01,8.919078859364653056e-01,2.984472023892543735e-01
-2.665569454925633547e-02,-1.080848085998063146e+00,-3.971460690098076451e-01
1.561403001493286702e+00,-3.587862753707219410e-01,8.390349203695189884e-01
-1.714369055031493172e+00,-4.242733304786538429e-01,-1.220129449409578015e+00
-1.967704850523477544e+00,8.171174785535609275e-02,-7.295873399160324180e-01
1.471419891448390471e+00,7.949558295474855596e-01,7.474628256217706879e-01
-6.005514697070695185e-01,-6.263508323142299439e-01,2.638554403046041580e-02
1.434115681014932031e+00,6.080034647948741044e-01,1.216842698447022419e+00
1.921948737033136512e+00,-9.525683766762130245e-02,9.068186716859181207e-01
8.824389417451151685e-01,1.038874070515764858e+00,8.227623847886663677e-01
1.429519696452613786e+00,8.363085647154069324e-01,8.184936580058908007e-01
-5.472961348190097386e-01,9.638986764634196458e-01,8.052466699375973244e-03
1.187987875039676178e+00,-5.676386362850747158e-01,-7.679013843187676436e-02
-1.951884369576252665e+00,-3.672976180479628483e-01,-8.537957624453169636e-01
-7.448978675132860161e-01,-3.674884963573571972e-01,1.293610692759167569e-01
-1.421857209940581512e+00,1.656801178846455114e-01,-9.855790799572313743e-01
-4.769219220908509360e-01,-1.089488532762486361e+00,-6.228385209006939149e-01
-9.621532445818506973e-01,-9.991490887159120149e-01,-6.509718002679467652e-01
-1.810295030502665936e+00,-6.269672393379985831e-01,-1.047266686403980573e+00
-1.073544433245874341e+00,-3.063787258048434881e-01,-1.981966260353583420e-02
-6.632443377584338329e-01,8.631858835023183962e-01,-2.036404492167635805e-01
-1.040232972642245235e+00,8.271030243519424952e-01,-3.328227800621612418e-03
-4.511484506404149775e-01,7.433283938207103647e-01,5.415012331970026072e-01
-1.254015384198818861e-01,-8.062646821535394137e-01,7.124235209492428555e-02
-1.207697886274796684e+00,-9.209663342194618352e-01,-1.044737385774658023e+00
1.079091126132804890e+00,-5.650597753524511102e-01,-1.751671760814896561e-01
8.394885473319468883e-01,7.567253485677315483e-01,2.325321118214387361e-01
-1.736059080256472154e+00,3.987977605441765938e-01,-5.819021951181118091e-01
-1.212737300512221505e+00,-5.999817217737420938e-01,-1.210560811654341817e+00
-6.881946682022160866e-01,9.071296809525402072e-01,-1.513747703801078259e-01
1.270905039753366550e+00,8.762657549651907685e-01,7.040265066228984514e-01
-2.009724724086320524e+00,2.298497891314816785e-02,-8.532480632766215045e-01
1.205272190494489859e+00,-7.673304778520325664e-01,1.525924912093303831e-01
-9.495803715268993361e-01,4.560306256901920929e-01,-7.301223758177255441e-01
-1.277575197463716172e+00,-1.939321096650807041e-01,-1.155384154916165418e+00
-3.258821056052854659e-01,1.041194865676036141e+00,2.114236413468834341e-01
-1.056469280910569131e+00,-4.377351209778551633e-01,-1.158374305107131574e+00
3.306853039252327098e-01,5.387179928030373377e-01,-2.289803742826471422e-01
1.005858603374386040e-01,5.420584151929137562e-01,-3.283591311222245901e-01
-1.730366616285123005e+00,7.118272232518607634e-02,-1.040235492529657302e+00
1.298445403545229748e+00,-3.429664259103595847e-01,8.627764979276770774e-01
-6.320800049535817422e-01,8.089180582815403975e-01,-3.004943738509958107e-01
-1.592866057167220628e+00,1.387258335596726344e-02,-1.079105083962673239e+00
-7.794093708144302912e-01,-4.476223895127285912e-01,6.488731205854983419e-02
5.933018501690000557e-01,-4.115074511686948600e-01,6.754606315166205022e-01
-1.659850093356470158e+00,-7.328277598539538751e-01,-1.135771081932778648e+00
1.881640940406000828e+00,2.759112786813628926e-01,6.896059682741547681e-01
-1.533234675397104674e+00,1.403031803532206190e-01,-1.843215720901093257e-01
-8.001835608931719968e-01,6.066482105160438953e-01,3.631498125488555884e-01
-1.232280588604428351e+00,-5.006060229994966498e-02,-1.090624894616230911e+00
3.103188286301021837e-01,4.938561109370033786e-01,9.380163433656539818e-01
5.048748901910216080e-01,-8.927479177081817374e-01,-4.191124129018370392e-01
-1.561913198731841534e+00,1.572545701732958601e-01,-2.106213796677907368e-01
6.900033704349662900e-01,-7.472085552290692601e-01,-3.804081581386041799e-01
-1.660491126561457254e+00,3.888016447333562109e-01,-3.703824370319342418e-01
-5.549298918516133439e-01,2.407729200494059807e-01,-7.683993767390597807e-01
