1.776911707929768269e+00,6.847340899455338636e+00,-9.157220986776929195e+00
3.573412525694291464e+00,9.827078484809090853e-01,2.753140455438647383e+00
4.035817446303274103e+00,5.253713690990537089e+00,-7.722544915700105150e+00
3.904190666657920250e+00,3.727108506247594821e+00,-7.104803585843252556e+00
1.820757352905945980e+00,-4.852280223328812592e-01,-3.752145423000930347e+00
1.072298303847583734e+00,3.395661370720125305e+00,2.760387703602467657e-01
-2.054854530457783213e+00,-4.124593900452786066e+00,9.078107170140899962e-01
-3.020767976570816415e+00,4.366083038406817218e-01,-4.608076940677131361e+00
-4.283130513256937277e+00,3.554126302662456993e+00,-3.411199365231125213e+00
5.461139245867801861e+00,3.112123406879325760e+00,-1.807281204127337615e+00
4.641805907581293411e+00,-1.079622244842443513e+00,-1.064885217672216111e+00
-2.084283142365199737e+00,1.101092091042392473e+00,-5.585133386283050783e+00
2.289702678288664028e+00,-1.362469723563523694e+00,-2.470032257860233393e+00
3.072700898668974556e+00,3.554505241122661641e+00,-3.685834172792001318e-01
-1.776296786728049637e-01,2.796576613218584750e+00,1.049345390790334509e+00
-2.492554108290947035e+00,-7.015315861026584443e+00,8.198684020286354013e+00
-4.460509211358401060e+00,-5.780611101229429671e+00,6.798555090717435689e+00
-5.822030531620017157e-01,6.775935043735285213e+00,-6.796170301995599239e+00
4.554804121451346277e-01,-2.197781534142924542e+00,6.920915460948450892e+00
5.613118101747770261e+00,2.783509838258611868e+00,-1.929377818893428520e+00
-3.435997892672328913e-01,3.244538473106498344e+00,-7.828931477109822623e+00
-2.972711321378625815e+00,2.431993346829059099e+00,-6.410512630415361457e+00
2.807935305475671939e+00,2.578052549819940253e+00,-6.734830698877165567e+00
-2.369144206903805561e+00,-1.079165261803710862e+00,-3.179510502541087469e+00
-4.937248458808591423e+00,-1.693987786292019626e+00,-8.916273521235522637e-01
1.159914553655181590e+00,5.914893315919571570e+00,-3.994012691616246613e+00
-1.931424397133036930e-01,1.878079834972595341e+00,-6.697266158593781604e+00
4.624900367613616892e-01,6.198570262557387522e+00,-4.808156656166219456e+00
3.504986644144116870e+00,-3.588303050346143497e+00,1.912879480576146873e+00
-1.623835467549769485e+00,-1.594901504768965195e+00,6.184727748773706679e+00
-4.810967526695955954e+00,2.857585913476596851e+00,-3.966691472082100489e+00
2.034452548275139439e+00,-4.416981170582957361e+00,8.138259258987771361e+00
-4.066979243940092914e+00,1.634362950859029606e+00,7.427168709036404692e-01
-3.687746322082197992e+00,-2.333624903155463226e+00,6.015424152439387662e+00
3.332473832719588192e+00,-2.950576855533776577e+00,6.457911703484803034e+00
-1.266309947760207999e+00,1.628766697313277723e+00,-6.277740405684234304e+00
2.613728658994615373e+00,-4.639333967811810844e+00,7.808718778861054588e+00
-4.944414776371282016e+00,-3.998373423440610974e+00,6.163267340608971523e+00
3.015818627883056990e+00,4.667597487376202281e+00,-8.280586737942305930e+00
-1.455349956297229186e+00,-5.709490156354916301e+00,3.673729919731050675e+00
-3.620660212279425694e-01,-5.200971572507272711e+00,2.774217669763430205e+00
2.312696754533588805e+00,-5.886894539762419498e+00,7.470260515219562691e+00
2.186576803386126588e+00,-3.717386977264370174e+00,7.682528379337740354e+00
-4.733717563430586139e+00,-3.232339427456288661e+00,1.006411606861286723e+00
2.237501335393485391e+00,7.028863574307201212e+00,-8.843659768981012803e+00
-5.377402788881322060e+00,-1.363118947499751821e+00,-5.846550620911237228e-01
4.391732393148870983e+00,1.600579236207974487e+00,1.468204256295774446e+00
1.658422193649734311e+00,7.020594842646719513e+00,-6.836854034556277604e+00
3.512725437461931666e+00,-4.750306134261618851e+00,5.376790842470979825e+00
-5.277933182894456010e+00,-3.326076007013488045e+00,5.098230225534325477e+00
3.680818758972464355e+00,3.538492604134468422e+00,-7.145510065917879849e+00
-1.610229580640432978e+00,-4.666853736476037628e-01,-4.040778852006965849e+00
3.385380220718599897e+00,5.630182264191501140e+00,-8.342616885137058347e+00
-3.191343538514319622e+00,-6.776336022412764670e+00,7.377718550618848958e+00
-5.354065336744006309e+00,-9.215899703090690842e-02,1.570197060020011026e+00
4.942271079250780019e+00,4.552525722207189318e+00,-6.339946712220132063e+00
-5.737822510515476537e+00,-5.796847903369675148e-01,-6.732922033826136410e-01
-7.056675635453454332e-01,-6.118807078071085037e+00,9.465760552781349091e+00
3.708928561979496052e+00,6.382950917795346513e+00,-7.556891329659986667e+00
-4.183115703629988857e+00,-5.538217256751499562e+00,7.449880699022942920e+00
1.971619042950767620e+00,5.419394922248244484e+00,-9.122988907267169267e+00
2.373502221161633674e+00,8.744507302096623524e-01,-5.151487482465432421e+00
-5.494561156084858844e+00,5.728774025231164746e-01,-1.906263572882898494e+00
-5.233893146196036739e+00,-2.575016625389933811e+00,8.109505933682862322e-01
-2.773801465030908631e+00,2.977427090335764692e+00,-2.476120848023925791e-01
-3.150085301205370669e+00,5.035908289242549962e+00,-4.887787856386941243e+00
-1.080942598482775852e+00,6.066207404661589031e+00,-5.134622015754752411e+00
-8.438871822448279492e-01,-1.643457591286194619e+00,6.319893963403739434e+00
-2.716672142491011410e+00,4.960428046426005544e+00,-7.555289189611614553e+00
5.328664156551524478e+00,-1.621458779952033691e+00,2.280852620629671534e+00
-5.837866917203225370e+00,-7.007109598528193928e-01,6.487259855193168168e-01
1.693735292656125768e+00,-3.347293505022903126e+00,7.692550017498460235e+00
5.607929141627708169e+00,-8.331461394959963629e-01,1.702127692350680288e+00
-3.004127335896261020e+00,1.692830004666224575e+00,1.614061947809822595e+00
5.212742477315709166e+00,3.746180193365983513e+00,-5.494094154978919065e+00
3.940621678744697931e+00,-4.190499859530074644e+00,4.896832869354467377e+00
1.825392151621003212e+00,6.890616385111473008e+00,-6.491254085979576871e+00
3.871766055244475258e+00,-3.326316774288107680e+00,6.111594938175900715e+00
1.837458852497152684e+00,6.592173012096753659e+00,-9.249264475643187211e+00
1.249592593590229894e+00,4.982289325181821660e+00,-2.307384882320356656e+00
-2.793580241798969244e+00,-6.291631814708969372e+00,5.268188995351262172e+00
4.545402121189437983e-01,-6.398616241623599876e+00,9.161200819201047452e+00
-4.155470308665932144e+00,-5.853888290337708966e+00,5.459991430433706938e+00
9.321105966182955394e-01,3.847967630100405323e+00,-8.271626228545509107e+00
3.457024103578903329e+00,6.550616565620996923e+00,-7.986879787585954737e+00
-3.970084899096951059e+00,-5.856767305966049442e+00,7.785987344477422134e+00
-2.365532084663418022e+00,4.715081572779478591e+00,-3.003824182210247162e+00
-5.843902789317130697e+00,-1.088758560163480826e+00,4.779240829313556316e-01
-4.949444903869819612e+00,2.296213050322089444e+00,-2.088051034123394878e+00
-1.948467230849180609e+00,-3.407722225695333229e+00,7.820572659127501325e+00
4.062078221046573345e-01,5.654926075597713542e+00,-3.536902926649908796e+00
-5.335400384405624585e+00,1.739888335339343728e+00,-1.794430478276482832e+00
9.482194032245301260e-03,7.868787437842331700e-01,3.734079818127105543e+00
3.587223189561951742e+00,2.538354265469432214e+00,7.943020153512501125e-01
-4.030502940311787796e+00,3.919698491952711361e+00,-3.783019250023779811e+00
5.188254201359488782e+00,4.665683245899249876e+00,-4.893222693203803431e+00
-3.430035567039959155e+00,1.762962533668900766e+00,-5.581062196533903119e+00
-1.058442755986970241e+00,-5.676850834469401974e+00,9.317668972758530899e+00
3.912343958074147032e+00,-4.349479276881432988e+00,5.442638747180860825e+00
-5.675559790552022754e+00,-5.640097072755226870e-01,-7.861637429989067893e-01
2.291725458122269021e+00,-5.895729203144303376e+00,7.078814265497626046e+00
-1.686776896600348685e+00,-1.351925236918765094e+00,-2.986046218170570032e+00
-4.571458544414038982e+00,-8.490450389173268553e-01,3.692148527754985476e+00
2.865333803344009223e+00,-4.750921969844395853e+00,7.436973413523917387e+00
1.883741161825819521e+00,-5.695751729774178429e+00,4.858137893451013767e+00
4.621171571483627005e+00,-1.975814070082143159e+00,4.415745027085448138e-01
4.522893359490188558e+00,4.683166398494934768e+00,-6.940121556999147678e+00
-3.633095473714699764e-01,3.579899643904104201e-01,4.200807227943957223e+00
3.487470704869993998e+00,-1.687776143429552955e-01,-3.332251469674148758e+00
6.400457578694334071e-01,2.965523283697034884e+00,9.373586878920616705e-01
-1.558248920664257131e+00,6.371811659658958682e+00,-7.440764854975703280e+00
-4.443392226773679177e+00,-5.100970176616436369e+00,4.108219738176868141e+00
-2.058808881709677685e+00,-5.386285969045379929e+00,3.079513980205056178e+00
5.063251828444256253e-01,-4.919484934876689586e+00,8.882847987075669138e+00
5.478014719788044218e+00,3.598929855732683869e+00,-4.498678604624593902e+00
1.454562065475869082e+00,-3.159630359944089584e+00,7.579056154799080680e+00
3.955782834854020713e+00,-1.454431665884621250e+00,4.950583667368332108e+00
3.880207175681109621e+00,-2.243284595666639625e+00,-9.088193360344576713e-03
1.476631851987527222e+00,-5.671959689709485275e+00,8.787638223527652670e+00
-1.307306290477605382e+00,2.758710915433018940e+00,8.318818110519865527e-01
-2.690336775043419282e-01,-4.012442053973107825e+00,7.254434850149290570e-01
5.315616368589110019e-02,7.032155507659560101e+00,-8.589449309335853044e+00
5.245174063791317565e+00,3.649365745058420707e+00,-2.544995422982723188e+00
2.450720235551679060e+00,6.856423039599234492e+00,-8.533179081287796564e+00
1.655772350679312499e+00,4.558342896747614503e+00,-1.653246243658957892e+00
4.613057666632083276e+00,3.563936825075677550e+00,-6.215455687686956665e+00
1.435704755433096391e+00,-6.824083007177002003e-01,-3.603745083935129490e+00
-4.198019591715432597e+00,1.590428345500783491e+00,-4.810414600572706867e+00
3.205722268615506021e+00,2.750140498471685735e+00,7.463383422569180858e-01
4.783511999159417272e+00,2.820956759871868780e-01,-2.798374627362241629e+00
-3.699589171621761263e+00,-5.155321167494943069e+00,3.393403135333188825e+00
2.781408138575113931e+00,4.866355696388269259e+00,-2.437529307694576097e+00
5.043400199249782112e+00,8.639297124881800682e-01,1.717217245052863772e+00
2.745361014118754550e+00,-4.861830366311017393e+00,7.646964436073129256e+00
2.849503872082783662e-01,6.258879350247469553e+00,-4.950621424276186566e+00
2.206827032576633485e+00,5.575244325784123323e-01,3.801157889899157816e+00
-2.122591790848752602e+00,5.034089873101551760e+00,-3.515138542567607605e+00
-4.166973383241613149e+00,-5.957078904917801232e+00,6.183726076814823003e+00
-5.660012042770438789e+00,-5.048574273566066584e-01,-8.765177695085044629e-01
-3.121381331070718801e+00,-5.442272532301001498e+00,8.630461331083294496e+00
2.361281055913122096e+00,-1.100405324942712371e+00,5.560564004151680173e+00
-4.749451006089036476e+00,-5.354095968435668595e+00,5.234415546279908682e+00
4.750558354185117516e+00,4.673704295911921491e+00,-6.630990047296173806e+00
-2.033469596487146092e+00,4.739439713606104831e+00,-8.254606866226138706e+00
-4.142679163295692746e+00,3.653821166224555661e+00,-5.596373598524545301e+00
-2.826802701365657811e+00,-3.338044344801661678e-01,-3.850436049318196385e+00
-3.791205063625917582e+00,-2.194097134088788703e+00,5.804438835596792856e+00
4.344954020540320982e+00,-3.298155225150575021e+00,2.610179147397289068e+00
-4.965103684782792293e+00,-5.009033892562449353e+00,6.047527248735976357e+00
-1.199949332734176366e+00,-6.801957164243218834e+00,6.201803581731999415e+00
-4.789223039965329609e-01,6.725746854407703701e+00,-8.876043968338549917e+00
-4.649800529016332895e+00,-3.884050967766961016e-01,2.977844269294598334e+00
-4.912902424352669328e+00,-4.096554723809783027e+00,6.122675334793743929e+00
5.593644723715586409e+00,3.603112483839583380e+00,-3.542223871023324477e+00
-2.786785143577116042e+00,-5.346044906500691418e+00,3.252765435547070094e+00
1.192070535102206064e+00,5.313953494929028132e+00,-9.203685221756968460e+00
2.740591070173948651e+00,-4.114917540767084603e+00,7.515753659516631657e+00
3.621510369569497900e+00,-4.429459911094890678e+00,6.385560306894908500e+00
-5.702396654365789352e+00,2.624684865075447085e-02,1.292267983921841779e-01
-3.702268463530056231e+00,-2.386414510489962282e-01,-3.500193198982267440e+00
3.635607008421327002e+00,6.623286782228303693e-01,3.049917974629262840e+00
4.462305320502986561e+00,-2.266740098635151135e+00,4.932516272948261005e+00
3.546268485391078418e+00,6.284885988183762429e+00,-8.143170278287762187e+00
9.942627307788862723e-01,6.365543203461834665e+00,-5.048454307118054096e+00
5.629231354235982643e+00,1.417158605609113442e+00,-1.273037844341925323e-02
4.515695735988312975e+00,-2.867378949582751524e+00,2.119050253584948695e+00
2.657270863063571742e+00,9.836327148765737771e-01,3.137098097238658401e+00
1.958073408172851693e+00,-5.875624912306779635e+00,8.111121702011752532e+00
-1.094354842949977868e+00,6.523439972146539034e+00,-6.517775669368497837e+00
-2.704327517734205433e+00,4.177261829228005041e+00,-7.638640647676048445e+00
-5.509312075546715981e+00,-4.162190304952876480e-02,1.228655792826329307e+00
-3.416631435517883730e+00,8.530995047444834833e-01,-4.760926116479685000e+00
-2.243039642930708233e+00,-4.841253075430339337e+00,8.700433499498709367e+00
5.002319065781805074e-01,-2.012701064971476494e+00,6.758620473211204072e+00
4.390813121097318472e+00,5.643631091900374486e+00,-5.279618254567318480e+00
-3.518898421625230810e+00,-2.997450470706341630e+00,6.758418764052141370e+00
-3.981111111776522438e-01,-6.742301820250837796e-01,5.438279833251231210e+00
5.020048880289052384e+00,-2.216628402190046199e+00,1.780155040921334919e+00
7.140161623335191665e-01,4.784357878684276422e+00,-1.915155282804112291e+00
3.829624156883683295e+00,-3.055302844578098309e+00,1.298035953593190683e+00
-3.456683946112474093e+00,-3.305934941448112063e-01,-3.548435763285606726e+00
5.274249978563762653e+00,-1.752259009478093876e+00,2.015491183505406347e+00
4.203964382349713702e+00,-1.938371704635132087e+00,4.975050433161124275e+00
-8.476933591658470935e-01,-7.155316560262328984e+00,8.994196381937211271e+00
3.048671464064157899e+00,4.641196612711094183e+00,-2.132045417212659277e+00
-8.228977434869845231e-01,-7.040889726501876611e-01,-3.832343373070517867e+00
3.729122171080512249e+00,-6.038864265444841145e-02,-3.250995085407010432e+00
3.093903798829689578e+00,2.696629558625021073e+00,8.875417918651592464e-01
1.158755213865106048e+00,5.357316837026424139e+00,-9.256193192199754449e+00
-5.092174080798127278e+00,-2.099343547852717151e+00,4.483227428540688564e+00
-5.514047278933958296e+00,-3.654436570218396074e+00,3.631517787402080977e+00
-4.155239807267293806e+00,-4.815513252654280762e+00,3.068131022776009686e+00
-5.766863014239236307e+00,-3.931328792659451871e-02,-3.915858974062000342e-01
9.074776826049569811e-01,6.878963205205208098e+00,-9.255114738242925299e+00
-2.218243857582853806e+00,5.341118683961207481e+00,-4.403880000247118787e+00
5.750944106589570559e+00,1.288574133925256993e+00,-3.500695814987806465e-01
3.579781047940814531e+00,-4.533574621797869852e+00,4.483011221301196336e+00
-1.838507674063083908e+00,5.588921071850652567e+00,-4.599896128856198807e+00
-1.513326703813872465e+00,4.330879825753686241e+00,-1.781293868437274774e+00
4.322882209892443761e+00,-3.645517842361203353e+00,3.720841451822149981e+00
5.383494833133904756e+00,1.935510140367861176e+00,-1.310399375174428893e-01
-4.243810192031843620e+00,-5.253017997381289383e+00,4.239872774964140056e+00
-3.421479955808649720e+00,-1.937661739258166760e+00,-1.676576899648272390e+00
4.833593490959219530e+00,-2.493439086336524113e+00,2.139961477392204880e+00
-4.658062564552881035e+00,-2.651125513372371234e+00,5.570370033415400712e+00
-3.325296320787992421e+00,-1.134221642540723218e+00,-2.668670290152253433e+00
-1.467190590098247371e+00,1.546304252140002777e+00,2.447806986413098240e+00
-4.512614081778877129e+00,-2.856895608977940704e+00,2.597343563759564877e-01
-3.000498089567883220e+00,-1.738891298134512819e-01,-3.960772772534324915e+00
1.803552027061569474e+00,-5.816084085138842674e+00,8.282515869772261397e+00
-1.776178417925232678e+00,-2.977518446024892906e+00,7.502128570256184403e+00
4.512046083819270414e+00,-3.149568090513091168e+00,2.636154188884275662e+00
2.999631104404162585e+00,1.855299731910412975e+00,2.024176083243662827e+00
1.759721900850655718e+00,-2.650799836389038600e+00,7.137224203281586909e+00
1.216183382845066108e+00,-3.809796509829947025e-02,4.625008832785738377e+00
-2.685850209232777175e+00,5.014552907041815999e+00,-4.128683365521909288e+00
-1.200622646983955155e+00,4.893606840014602000e+00,-2.652320814704808072e+00
-2.811596256903699853e+00,-7.918936055718069078e-02,-4.144008871880724421e+00
4.271620223005939465e+00,3.992296820873554530e+00,-6.968184455165801872e+00
3.970198440281976104e+00,-4.249177343079603375e+00,5.400582429518378191e+00
-2.699918835371020620e+00,1.957308731458118123e+00,-6.157415162346443260e+00
4.499350800820018856e-03,6.889940364729247868e+00,-6.852074834860311547e+00
4.696082167296879994e+00,5.318298913814498263e+00,-5.019648144909403698e+00
3.033109964887523713e+00,-3.783770742994740921e+00,1.816885874314611904e+00
-4.608179480665399730e-01,6.756308751834724013e+00,-8.877549358184436912e+00
-3.163964725562892877e+00,-6.595791281884640256e+00,8.416179565195454515e+00
-5.035252930921516601e-01,6.093852133817972749e+00,-9.147393695871418373e+00
4.851236647488581077e+00,9.304447924827947691e-01,-3.526065595607174696e+00
2.236091069952421240e+00,3.797035327563009321e+00,-7.991472034309647476e+00
3.823776040317194092e+00,-2.340886978506342864e+00,1.323463289877077897e-01
6.089030733616449531e-01,5.476869261421215107e+00,-9.250291388199409326e+00
3.002571287765809060e+00,-3.924836998557046819e+00,7.157548577887026475e+00
-7.041767979065425287e-01,-7.151373101710687408e+00,7.461008089491471651e+00
-3.278520180954344720e+00,3.706109801822379812e-02,3.643982489474324460e+00
-4.601266746474250269e+00,1.680764104670431802e+00,1.568354644711562607e-01
3.183756374731298244e+00,-5.196502821411032258e+00,6.018625748465249892e+00
2.444349539834948182e+00,2.364341927772977137e+00,1.507168059527792758e+00
3.414867132352765733e+00,5.704609548206568626e+00,-8.401324331000557422e+00
1.296439389883469406e+00,3.949706552882039201e+00,-8.388351456903134107e+00
4.826518301261512600e-01,6.865018405505344035e+00,-9.292388676096113187e+00
-1.127324624113017260e+00,4.564444613396505979e+00,-8.513518490189207810e+00
3.761603988216127625e+00,-2.464354920808207616e+00,2.808700776609530658e-01
-4.649171835458928648e+00,-5.310041681211109754e+00,6.739890369068490372e+00
-1.670269582207370540e+00,4.302118620179528286e+00,-1.766006222101559553e+00
-5.270017159983342303e+00,-3.447255064206166786e+00,2.077645922048340310e+00
-3.410255674941061077e+00,-5.920342127135997501e+00,4.699359841642444025e+00
-5.653142338596155447e+00,-2.362686746226379864e+00,1.297666852780077651e+00
-3.580902828304648011e+00,1.308351140528677625e+00,-5.138652079469415490e+00
-4.489369234392000862e+00,2.590136984504132656e+00,-4.893980541865496470e+00
7.286150375182890437e-01,-4.734328445808036356e+00,2.131418991780406280e+00
-5.791801686039327990e+00,-9.109641192429243084e-01,1.844710053737667332e-01
1.013143640235445009e+00,-5.258192281337120022e+00,8.896420673734848350e+00
-1.780140925241503913e+00,5.655388223284089300e+00,-8.559322064712954869e+00
2.263562875206887259e+00,4.872840163727815366e+00,-8.758905103268057601e+00
5.064675821331632299e-01,-6.321061654941576791e+00,5.376957056237865906e+00
-2.531942618389562583e+00,-6.769206247009369015e+00,8.701980761365504691e+00
1.100127215946049786e+00,-3.628222442737470299e+00,4.659261217251114418e-01
5.225282428314996785e+00,2.690603968968486193e+00,-4.886410690147698688e+00
4.323268272857236028e+00,-3.736817253873312428e+00,4.744069595507289350e+00
6.774649795634097860e-01,1.233782315626295312e-01,4.547602019155163156e+00
4.913936298816018677e+00,3.187219655380144179e+00,-5.559895089164180071e+00
-4.616193436267056249e+00,-1.741396971146054462e-02,-2.981059968668192450e+00
1.097357701050784229e+00,-5.856366098459189651e+00,4.534229874826995577e+00
3.056302376608301952e+00,6.783447109479214809e+00,-8.173129173665753200e+00
4.117289691298368082e-01,-6.252426461404738234e+00,9.321913884856822818e+00
-5.629913399131588392e+00,-1.402950764967622943e+00,2.849327418547392021e+00
-8.620599177123993151e-01,-5.006347095157860139e+00,2.289169745832758895e+00
-3.450102674837553618e+00,-5.302266547844825872e+00,3.451293236303015100e+00
4.887850535942517838e-01,6.101203901093422033e+00,-9.351277079650627044e+00
5.266506990585726605e-02,3.135728297551728883e+00,5.571619318118482544e-01
-2.556199390768649771e+00,-1.989076028431495002e+00,-1.913357292539338284e+00
2.734929940118425162e-01,5.818839097947722472e+00,-9.431373150248379744e+00
8.454267410591001508e-02,2.678774847232326284e+00,1.224007061397966334e+00
4.070958780914981645e+00,6.001909817718967588e+00,-6.181277477854004943e+00
4.802037523172394629e+00,2.848297534409450993e+00,-5.482944156345046061e+00
1.201687615330265135e+00,3.196095882470292526e+00,5.119768489769515041e-01
-2.793851686080456531e+00,4.825610229186639621e+00,-3.810938146861951203e+00
7.781427687346055277e-01,-1.423068938442242803e+00,-2.841348829578482782e+00
1.471394862496786748e+00,-5.896648695990294620e+00,5.006964554116827060e+00
-2.336098379635171973e+00,-6.997907289711076118e+00,6.963085045189811417e+00
5.495971911238695107e+00,1.649339196109833150e+00,-3.226228361462976313e+00
2.869305401145028966e+00,2.412580894462668546e+00,-6.578655365020596335e+00
-4.914719762904669054e+00,-3.478720024657320664e+00,1.713549648186283525e+00
-1.692442944510420100e+00,6.371503520677642918e+00,-7.468849385866290547e+00
-5.094013931196173850e+00,-3.889986991676040340e+00,5.902652123577152743e+00
-3.796768847272148584e+00,-6.307743509493086265e+00,6.532171397512461120e+00
-5.935900929845788987e+00,-1.516719707641859483e+00,1.365301876664948066e+00
-4.299507222211330415e+00,-5.811213406350081989e+00,6.048470281065689846e+00
4.857223411718440964e+00,1.378383301455631038e+00,1.358654698467858690e+00
-2.378767720823723231e+00,-6.887222348780015047e+00,6.653158694095632875e+00
2.238715976966084931e+00,-5.579652613330241095e+00,4.879061714443278852e+00
1.572973149707509011e+00,-4.269478687231004904e-02,4.588437797717679345e+00
4.161848379772883355e+00,5.389649192914248488e+00,-4.333411978908371154e+00
1.616890878011893573e+00,-2.583105419347215825e-01,-4.132090927984244821e+00
-2.869655482606880526e+00,4.622707545222047187e+00,-3.366041035816909055e+00
-2.462614430019619327e+00,-4.267820300564141300e-01,4.614010489455409925e+00
2.542106565051107658e+00,1.180914909687041381e-01,-4.198290801921441329e+00
1.466997937024857590e+00,-7.573973122996270346e-01,5.391131899389223214e+00
3.667199058047292848e+00,4.311883499274903997e+00,-1.857622002276940298e+00
-5.161032951802915214e+00,1.097306293877644112e+00,9.847835857481776478e-02
1.968809857572282995e+00,7.124292320747486862e+00,-8.851802144049322862e+00
4.619544731082329214e+00,3.898749398011458922e+00,-6.489470861337364838e+00
-6.471567262714945645e-01,4.486917596353552362e+00,-1.725881832671553706e+00
4.023852143506879031e+00,2.348597685441776939e+00,7.608252579498788748e-01
-1.523483540495672361e+00,-5.381738542494725941e+00,2.984258035378311469e+00
4.508648778030415194e+00,-2.998357345238916505e+00,2.328625198428178056e+00
1.565699831073929182e+00,9.757296767638740098e-01,-5.555353195757381179e+00
-3.747337209421823356e+00,3.003799767802425524e+00,-1.191771371785853129e+00
-4.280785770961927028e+00,-7.834124564972362315e-01,-2.535009595356310541e+00
4.954473078712108070e+00,-9.118656058501833916e-01,-8.556079875484411401e-01
3.447893704474360277e+00,-3.819150118109320147e+00,6.815820269038150414e+00
2.445000352908946795e+00,-5.597818686645464226e+00,7.643027422042817598e+00
5.808904365017979465e+00,2.581929444760791892e+00,-2.175600347390699074e+00
-4.097853068754886863e+00,4.118016653362137625e+00,-4.615306481600007338e+00
-3.759839392427774651e+00,3.328318694241899411e+00,-1.806890586757209816e+00
1.082901973393263662e+00,3.487875609372212082e+00,1.421862557199483901e-01
-1.106512593731169503e+00,-7.090717848727507544e+00,7.324045553790899277e+00
-2.894912385785351483e-01,-6.106031138374389933e+00,9.355717033248218684e+00
1.521722055834487941e+00,2.729040862535978107e+00,-7.299766344499170501e+00
5.312840006032132578e+00,1.677722037793295984e+00,-3.722438345507095292e+00
5.518605397748922670e+00,-8.870448555943957203e-01,7.341668302702653026e-01
3.585532374623915608e+00,-4.600743607628656306e+00,4.928942610815250980e+00
5.083091642397750576e+00,4.561285264479358226e+00,-5.996243332594106690e+00
-2.889891644827485617e+00,2.968464804154647974e-01,-4.531134509319085346e+00
5.386571916065264531e+00,-1.022016857468854178e+00,3.025181547047893771e-01
-1.739291459993976163e+00,-5.366713768607421109e+00,9.066083229198289573e+00
-4.361312637495250222e+00,3.551906115303658851e+00,-4.879057085221448986e+00
-4.129531172264911731e+00,-1.121326808752504123e+00,-2.245193003371148244e+00
5.719215370848199420e+00,-3.432007927373221245e-01,7.301112721542714068e-01
-4.377196343566759573e+00,-5.709632202071429852e+00,5.400709335196266281e+00
2.065646997078076641e+00,7.029388842443211161e+00,-7.459553270089084975e+00
-1.417733425616841958e-01,-7.982059109189810764e-01,-3.753152435212358640e+00
-5.465289185331813293e+00,3.217506804936804965e-01,7.727817574645410303e-01
-3.320407874086738875e+00,-1.434788866054119261e+00,-2.355644877849288221e+00
5.593983751474881139e+00,1.805929916066174590e+00,-3.312475887621245452e+00
-8.305563154618957888e-01,6.405749106831825301e+00,-5.844136655489059251e+00
2.626358586097211401e+00,-4.452427407497796530e+00,7.780845860910487133e+00
-3.262477381595711989e+00,-3.880801564945792759e+00,7.648485128249893350e+00
5.835247666913556230e+00,2.812976612328351500e+00,-3.002558160194366277e+00
2.473420304307647921e+00,4.672404766225842998e+00,-1.900293927036194264e+00
2.517220556048815894e-01,6.143773130351779521e+00,-4.693500881852629369e+00
2.732176529794723585e+00,-2.806566694510459481e+00,-1.354424607267613878e-01
5.469920205015601944e+00,-4.283350297125150252e-01,2.189918614606905400e+00
-3.086969778040096646e+00,5.244916486341415940e+00,-6.642760898984368723e+00
-1.777168997079224377e+00,1.472217018390994614e+00,2.488103195055651806e+00
5.677069216659510253e+00,3.022039325910464758e+00,-3.914821324537986147e+00
2.798082580768763705e+00,5.764712032683316778e+00,-8.770339341596608662e+00
3.644583962694808221e+00,5.171651391303450751e+00,-8.040727655614753999e+00
-5.102875762780852753e+00,2.383152481829068581e+00,-2.751926049210558389e+00
4.904798574611092477e+00,-6.771724829698967385e-01,-1.190060160901113884e+00
3.066856945686308844e+00,-3.307920263654769766e+00,9.920727411083830605e-01
-2.872906268895153659e+00,-5.358539032359371790e-01,4.586363903106472684e+00
-1.240250087136302470e+00,5.187522396508686739e+00,-8.766797261663601404e+00
2.806056672632004645e+00,-2.058051499623077873e+00,-1.167959077338411644e+00
2.558671327663619266e+00,6.897721987034024949e+00,-8.717524976169885420e+00
-2.550122130299839807e+00,4.654458786696543449e+00,-7.740574079737580604e+00
2.521595568210549532e-01,7.729581367960171034e-01,3.751310952099270235e+00
5.355694536153562169e+00,-7.888970930797991610e-01,2.431797256715035438e+00
2.338813335688529005e+00,-5.152242072753517199e+00,8.046462897614548027e+00
4.748353632293313531e+00,4.380942518383696083e+00,-6.695717992115097772e+00
-3.235584656690112304e+00,-5.079770953411781420e+00,8.399179835265540461e+00
3.295620643878790279e+00,-5.061310213095791433e+00,5.621516807431484075e+00
-5.406212731760247081e+00,1.251443309062395315e+00,-1.143122464423933060e+00
4.120980590406836619e+00,-2.872176195916844588e+00,5.562070935097813695e+00
-1.861230091743643511e+00,4.314441452232240515e+00,-8.116305110232760356e+00
4.943789935673245317e+00,5.011471049603182237e+00,-5.014040311934474303e+00
-3.796582900126628246e+00,2.926334029880833132e+00,-6.009322543206828904e+00
2.046478999124512477e+00,-3.876792431689559226e+00,7.899664793736524970e+00
-3.027455734199934412e+00,4.271754398343301951e+00,-2.829650660713564303e+00
5.694237183625713072e+00,-2.318065445269477665e-01,1.248126473099362699e-01
-1.162559869791316203e+00,3.560127650067131722e+00,-7.904526432565764260e+00
4.288236009656012371e+00,3.410627632262995590e+00,-6.549698363154040415e+00
-5.762682892146694158e+00,-2.296130676657439196e+00,2.968474717753859515e+00
-2.050002160962170361e+00,4.731071058534599416e+00,-8.251432909533509275e+00
1.964210553435219442e-01,-4.845142583082205689e+00,8.984311717816616749e+00
-3.509135555512804316e+00,-4.861799735476576068e+00,2.659917266520397838e+00
2.683196370540265718e+00,-2.730250967742724466e+00,-2.122461049579739412e-01
-5.461308852791459501e+00,-2.041740756974182780e+00,3.771083965769365776e+00
5.343033179128506838e+00,-1.571844181799023410e+00,2.130230670266511694e+00
2.559857589487151142e+00,-3.270967008997916814e+00,6.141386631503533700e-01
4.142076864559437688e+00,5.019512259787312303e+00,-3.437633666959704737e+00
-3.825212361654794169e+00,3.102705754476374977e+00,-6.048150507957301691e+00
-3.855150368591075960e+00,-5.895685595377555543e+00,8.043533912752616644e+00
-9.121045844378917744e-01,5.338475581977399465e+00,-3.379655321113746780e+00
1.220888408238887335e+00,4.828741696005163675e+00,-2.076644869305741548e+00
3.232421509028267970e+00,6.644183273878236484e+00,-8.165155087464345485e+00
-3.107131294649287945e+00,-4.153752219688940706e+00,7.921747852000197376e+00
-3.818824337543801350e-01,6.510349605664670136e+00,-9.243800400148192153e+00
-5.172338380655506107e+00,-7.646775920494959244e-01,2.814158711398166091e+00
2.443363074022008252e+00,3.759913391712429664e+00,-7.869116994884264749e+00
5.183566843585952988e+00,9.054789353517687100e-01,-2.940053746595525652e+00
5.117240970318296611e+00,-2.081780625976566323e+00,1.796692961598998162e+00
-1.610540113472115786e+00,-7.107626709501413842e+00,8.517713201661038624e+00
-4.892409129013905122e+00,-2.545413628951824769e+00,1.516120193064512400e-01
2.346192521166535538e+00,5.739622863572445555e-01,-4.801906893521178610e+00
-5.332110643652579363e+00,-4.423321337111599583e+00,5.113513079497916003e+00
-4.367218250534836699e+00,-2.587273470381351359e+00,-2.524386598394453562e-01
-2.603723331084069947e+00,2.443158609887955635e+00,7.884399653671502195e-01
2.881151448313118202e+00,3.107806817524238596e+00,3.190940653933807547e-01
2.038767814661532007e+00,7.077705307067659213e+00,-8.296199107666353711e+00
4.956707100106344299e+00,4.501340045193963135e+00,-6.307467025712378828e+00
1.941574634777300412e+00,3.039411489808904854e+00,6.955282437013992070e-01
2.870947042735301658e+00,6.688884690260140431e+00,-8.707934864316415613e+00
5.053281575403309134e+00,3.579416884568982660e+00,-5.743298553646595472e+00
-3.584934500248702527e+00,-2.953821904354946071e+00,-2.252617235288693343e-01
8.546201188554689576e-01,7.035091832036285631e+00,-6.805571917257607240e+00
-5.772394777953246070e+00,-2.567175678200981803e+00,3.287772229121856071e+00
-4.547329652042161108e+00,1.999419629716969293e+00,-3.523343438102997105e-01
-3.577172946912575036e+00,8.953798972783321153e-01,-4.728013647853627432e+00
1.932064881609391716e+00,6.652583800682157822e+00,-9.196706268979946586e+00
1.684390839053774069e+00,-4.604012568205675393e+00,2.386851445513362258e+00
-2.902020841334543189e+00,-5.669352308191772494e+00,3.923857790503940457e+00
-5.620318347700994366e+00,-2.458095604445254434e+00,3.662556242879426716e+00
3.003212272452310039e+00,2.651195652467122077e+00,8.949689346151672442e-01
4.330182080737899675e+00,-1.733157902419209861e+00,-3.005800659709013667e-01
4.967915274814199478e+00,6.309262775157327141e-01,-3.007239977481284132e+00
-1.558799666109908832e+00,6.364963447623481763e+00,-7.057805928607281842e+00
5.611124072607397650e+00,2.464230660622018565e+00,-3.692027806509775800e+00
-4.290055991815304282e+00,2.045775738517372044e+00,-2.787291111320550421e-02
4.381593249149435820e+00,5.832056831742447933e+00,-6.241177337130689118e+00
-4.347956993996770159e+00,2.261350359664542342e+00,-5.013701439012475447e+00
-5.264223410752133070e+00,-8.298353656767121223e-01,2.811111914999626649e+00
-1.826857779495471235e+00,6.193215853725301479e+00,-7.913075995905137994e+00
-1.578027780053683937e+00,-1.810668693640115068e+00,6.390023323820700263e+00
-3.164475768055730498e+00,9.558641651444275966e-02,3.611390008202027158e+00
9.830777383062598851e-01,7.163356491953139837e+00,-8.010953570972830562e+00
-3.041026122732611636e+00,-6.681463073050698753e+00,8.201094596008909221e+00
-2.956496063756234971e+00,5.291216307962479881e+00,-6.750349855789322895e+00
-4.740362171300471772e+00,5.049450973433956547e-01,-3.393674421763437810e+00
-2.127375527235606079e+00,-6.830889664521374804e+00,9.035444903292248142e+00
5.571920749571685150e+00,-7.979665834741357378e-01,9.967355180542154525e-01
-4.400853409549936757e+00,3.101780256006719805e-01,2.457202950544220332e+00
-4.945811572948340284e+00,-4.924700401994035026e+00,6.089215011108702669e+00
5.078633279222159125e+00,1.169298106097285794e+00,1.369626501856583634e+00
2.559527705765749950e+00,7.045993901595237752e+00,-7.646864354672826991e+00
2.119991977682246009e+00,5.031395498864608129e+00,-2.428770413606641920e+00
9.453714843909071242e-01,-2.876752397940111616e-01,-4.255518212020589885e+00
8.983176779539608914e-01,7.194112802669701878e+00,-8.021095978414853889e+00
3.080638972789407237e+00,-1.758212750047847273e+00,-1.484469716465082856e+00
5.100932517994542614e+00,4.801704683423931641e+00,-5.248531652851757379e+00
-2.454536689039762631e+00,4.621229942700983528e+00,-2.915444229748847871e+00
-2.275578259489612787e+00,5.687501445811545153e+00,-5.359294155830775175e+00
-4.123786557462964630e+00,-7.299195941516778419e-01,-2.697379725261900951e+00
-1.994103183953151337e+00,-6.789115309299548429e+00,6.278291323533590429e+00
4.216406325127341148e+00,3.407198513086190594e+00,-6.528530951519106118e+00
-4.571301225329477802e+00,-3.998456532662722829e+00,2.146878497180361389e+00
2.645347860879763147e-01,6.029013559199155381e+00,-4.384114438075585873e+00
-7.492322494289002099e-01,2.140570507108835674e+00,1.846024318460250502e+00
-4.462364975368950937e+00,-1.740238088158394314e+00,4.804250556124020299e+00
4.648739039297888453e+00,-1.417833692495152009e+00,4.248073600513727399e+00
4.037296130361954560e+00,6.039972902289332701e+00,-6.334037640659042623e+00
-4.792693298462720186e+00,-1.423601797491231613e+00,-1.328753903411565629e+00
5.626591495688799682e+00,1.161609230511813529e+00,-2.478195968261321713e+00
4.462718672800077835e-01,6.792619648140387767e+00,-6.425133784805822756e+00
-4.955949515659907156e+00,-5.028617201854428842e+00,5.200457621742904379e+00
-4.102308608082391395e+00,1.292317129565915490e+00,1.363793097934421050e+00
3.078850268690016101e+00,-4.088432319909323098e+00,2.417656212199298160e+00
-3.569190229726720176e+00,4.714879839761494829e+00,-5.450135084941993391e+00
5.448108892584129670e+00,3.145915666389177634e+00,-4.578380111821753751e+00
-1.648275610356443099e+00,-5.371120578581288996e+00,3.002386827157608629e+00
4.685824643924095589e+00,5.661880734217697997e-01,-3.226015675591673126e+00
-2.750002846356535802e+00,4.470908636425325433e+00,-2.854658190235634496e+00
-5.565467872580814657e+00,3.034795510619706094e-01,4.685639408501479086e-01
-4.604941038717405455e+00,-4.768096053173817239e+00,6.863987613635886831e+00
-4.576267606603368066e+00,-5.693189875963300395e-01,3.318037428199275052e+00
1.652614182020163636e+00,-4.036116283110048997e+00,1.340067806388529403e+00
2.550297117133737856e+00,6.808606089497798664e+00,-6.707460419634205806e+00
-5.907165834451697961e+00,-1.133188026817975924e+00,4.603378210439484919e-01
5.373607842525354172e+00,4.110528126688835826e+00,-4.688498815859863278e+00
1.692827984386148510e-01,-4.460837938299403449e-01,5.172654329155507824e+00
2.720154527140552947e+00,-4.938074271075691968e+00,7.600980078478834834e+00
-1.412588368664929428e+00,1.571975230938570833e+00,2.522546463512849169e+00
1.471349575743388094e-01,-4.863437871085594111e+00,8.958195076575361071e+00
1.961379508803639427e+00,4.233329079149904750e+00,-8.402044058558253425e+00
-1.902926167772363897e+00,-4.132954604264183374e+00,9.806051921808495164e-01
5.686881982770379373e+00,2.461596931046327708e+00,-1.526589377826006677e+00
2.490580498949766408e+00,1.038084841665887437e+00,3.151593124458170969e+00
4.530212732199636605e-01,-4.748348848876664974e+00,2.093396720883954565e+00
-1.980973411597676037e+00,3.598718049119035367e+00,-7.707331362560213783e+00
-3.125920791609023031e+00,5.236967299396043884e+00,-6.221558393048649549e+00
1.078444929887025117e+00,7.114469564574424254e+00,-7.568873119027375473e+00
-2.915335653949827854e+00,1.037002667183479110e+00,-5.236956551834683005e+00
6.109545879371912624e-01,7.158925226425798094e+00,-8.700856677481034751e+00
-2.811343858586373035e+00,-4.473095871619819697e+00,8.206391366098255702e+00
2.761552099273674177e+00,-5.446424758700622704e+00,5.590856078618974934e+00
-3.811893070112373216e+00,3.966086803470560418e-01,-4.079820209934288400e+00
-3.964764869879274123e+00,-4.361731445901674498e+00,2.204927028590125460e+00
2.072736606791648839e+00,-2.865503258457249736e+00,-3.291825335779551276e-01
-1.552963259560681042e+00,-5.969723284164024868e+00,4.185638539649646717e+00
-1.040766579110560697e+00,5.893974749061889895e+00,-4.625310467828595229e+00
-3.838350739833201963e+00,-1.473030246502966323e+00,5.046838585430664104e+00
-4.676771520533283599e+00,-4.756713043456587187e+00,3.549270765721245890e+00
-2.326460747684619523e+00,4.858140922910719084e+00,-3.254227178956506261e+00
5.129984711981330214e+00,-1.029811917167959390e+00,-3.336629208001075098e-01
1.959263398823445579e+00,5.204505597849619747e+00,-8.952462035131901530e+00
-5.060857297983112346e+00,-3.724561841236755821e+00,5.720974421400802257e+00
-4.259603949252244171e+00,2.156893061376749632e+00,-5.076860610837554688e+00
-2.393832839615431141e+00,4.761734041786493954e+00,-7.943716072286700403e+00
4.651292718709352236e+00,-1.936075377192020053e+00,4.756889991414482988e-01
3.859756760080545579e+00,4.144526590819167744e+00,-7.414714879217427779e+00
