-7.028725641187980600e-01,3.916964970691429571e+00,-3.621508635077516303e+00
-1.648974328229666053e+00,-1.320099434050693299e+00,-3.833818753223645071e-01
-1.780214728841325478e+00,3.327219851339314971e+00,-2.854022911792441608e+00
-1.744354509311988766e+00,3.112648016113076732e+00,-2.117242330152158569e+00
-8.483937927620349706e-01,1.758314995613570630e+00,2.019719833802529133e-02
-4.444455754407750647e-01,-2.862560658794842117e-01,-1.574417979311223403e+00
8.876708435413331877e-01,-2.273135575982506706e-01,1.982425386303104942e+00
1.417559129265093310e+00,2.112007791953689040e+00,-3.682300572992934229e-01
2.052282856044109316e+00,1.413031041241453289e+00,-1.733633904391026492e+00
-2.485508657757010464e+00,6.901961065066803958e-01,-1.610894500363714066e+00
-2.172841699076698330e+00,5.423676928337868297e-01,3.750361036165597572e-01
9.944104672374450837e-01,2.532916803761433133e+00,-7.360570939721055028e-01
-1.082227478090352024e+00,1.205993590579243158e+00,4.780616879755807402e-01
-1.370590338050786006e+00,4.284759716829149821e-03,-1.710027435680317343e+00
1.257113432919143847e-01,-6.159052921934443647e-01,-1.241298025767896496e+00
1.034168911394474089e+00,-3.465557127757024514e+00,3.665974089289734117e+00
1.970511966226971445e+00,-2.875094868722808172e+00,3.061386273945061465e+00
3.888516496916785137e-01,2.828285854669837285e+00,-3.440546158792017195e+00
-2.569621678271337140e-01,-3.099531811865122499e+00,1.331563624831398229e+00
-2.561210171084587817e+00,7.619910886088989699e-01,-1.467083140775366834e+00
2.230341178136337754e-01,3.470785740249855422e+00,-1.859689859037153781e+00
1.429768182796650189e+00,2.852827675764294302e+00,-1.375655772903953578e+00
-1.253811816876299945e+00,2.995234108153202790e+00,-1.551099558596030992e+00
1.088408924615333229e+00,1.521687826038916613e+00,3.887725894524847181e-01
2.268675926706904544e+00,4.922377640117031050e-01,8.209417584553393432e-01
-4.386248593609082813e-01,1.571773236081800196e+00,-2.939740174086832969e+00
1.296093433846929321e-01,3.010934865381200698e+00,-1.177524765202818902e+00
-1.087870426785974287e-01,1.935307057134562969e+00,-3.097668588914837873e+00
-1.689009630565576847e+00,-7.181230770183266721e-01,1.692071297313645806e+00
7.200583228867079022e-01,-2.786756311870718150e+00,1.051859205394715113e+00
2.287261253848916542e+00,1.702597243925569881e+00,-1.428995556081544160e+00
-1.028005331663719657e+00,-3.559450007550043704e+00,2.389081050260414063e+00
1.915047827479690934e+00,-4.192739337856303261e-01,-6.557826556698227449e-01
1.667642099195130179e+00,-2.673673943877795001e+00,1.418663624243898136e+00
-1.605316701080674591e+00,-2.850618897776207916e+00,1.611871920437119465e+00
6.237322794446910068e-01,2.828622891671259687e+00,-1.025462632843900268e+00
-1.300277987455864981e+00,-3.396698213589323778e+00,2.467229481238720545e+00
2.224814911483955271e+00,-2.664241141982110150e+00,2.215469362242113771e+00
-1.314749279870161880e+00,3.612885333062929138e+00,-2.592661034011039423e+00
5.796735535665257233e-01,-1.433132259413415932e+00,2.834576283344930392e+00
8.105004539290701360e-02,-1.040846676573223606e+00,2.539962392825975801e+00
-1.179827447112508754e+00,-3.181873237812631761e+00,3.033124950931334496e+00
-1.086848763944038287e+00,-3.381259391568081085e+00,2.041915612742740471e+00
2.146714079557241917e+00,-3.141678412671659593e-01,1.617464656304200776e+00
-9.144770967879984891e-01,3.763361748057713285e+00,-3.698214697222660163e+00
2.478063456757688687e+00,3.348455155717467435e-01,6.893326925241730629e-01
-2.017502359095201481e+00,-7.545577151973167362e-01,-7.421138394216655332e-01
-6.484444843098768896e-01,2.835375346516200157e+00,-3.591533682622222390e+00
-1.716265247073666789e+00,-2.266511422616434679e+00,2.390727188578746443e+00
2.392118116351664714e+00,-2.202810303273255776e+00,1.860313217932991314e+00
-1.643504055591004098e+00,3.140311053272033082e+00,-2.028343047183668979e+00
7.467797115809599040e-01,1.891478274328932452e+00,5.323959448765847730e-02
-1.471014515215341101e+00,3.596630615369686090e+00,-3.046562108766710963e+00
1.363936561814976800e+00,-3.096782200701363674e+00,3.528416458792791754e+00
2.484371297977293835e+00,-7.213915190214066353e-01,2.017604133929029042e-01
-2.214701212588497725e+00,2.720133992779453447e+00,-2.479899452292730455e+00
2.658211568970740402e+00,3.393616571036226492e-01,3.287436356794344872e-01
2.162350964283750732e-01,-4.093847927738380577e+00,3.281841111073911854e+00
-1.610494717892571925e+00,3.197952625561831130e+00,-3.363185852115337493e+00
1.844519840639755826e+00,-3.187778996180942848e+00,2.975222850810399500e+00
-8.162332377499430525e-01,3.967706808345452085e+00,-2.962788731520692664e+00
-1.081477673466503919e+00,2.342222963939589064e+00,-6.826003722436887466e-01
2.565396360358019212e+00,8.560030563420691907e-01,-2.655636587037216167e-01
2.389950658601268429e+00,-2.543267677111332725e-01,1.312449480238435218e+00
1.337002882289551442e+00,-2.392813766396340372e-02,-1.343713899259223687e+00
1.551586134870051037e+00,2.026898691678068687e+00,-2.505805394371844574e+00
6.068426875650396735e-01,2.092742314146144533e+00,-3.026913119424499587e+00
3.566250024623417447e-01,-2.847138089091878488e+00,1.068092782199998148e+00
1.352878728788116325e+00,3.264485350651495033e+00,-2.602228010070624986e+00
-2.505611896909671898e+00,-9.803724887286811018e-01,7.705307494973072657e-01
2.700829191393881779e+00,-2.666145652384599440e-01,4.479451971213233019e-01
-8.519134744806272641e-01,-3.403088600549706300e+00,1.879171073392592373e+00
-2.621941655055809672e+00,-7.494348043451004582e-01,3.745688249833012406e-01
1.420773255557530756e+00,-8.252838147022104609e-01,-6.592525744830662893e-01
-2.354526141852368859e+00,2.366371345901788104e+00,-2.071969507617140049e+00
-1.905464802294480009e+00,-2.070631054306172114e+00,2.102640338821056609e+00
-7.286240208038572419e-01,2.681521460135738444e+00,-3.518002000749314906e+00
-1.861435254077538071e+00,-2.672944958065583521e+00,1.760802670531409930e+00
-7.349538786138336555e-01,3.971442953436231882e+00,-3.508788080230170081e+00
-4.976836246310035183e-01,8.349385437887442141e-01,-2.431330039630029027e+00
1.189931936719286432e+00,-2.143467931321630715e+00,3.199563828801437637e+00
-3.269641082830804790e-01,-3.940056616233668318e+00,3.378395807354186875e+00
1.829547336983779360e+00,-2.252429789799481608e+00,3.027964214084880812e+00
-3.595202905049844078e-01,3.647270009644071553e+00,-2.179818414720263053e+00
-1.490117990016154303e+00,3.389103338303990132e+00,-3.456714299102099375e+00
1.739934453227296229e+00,-3.328451348251914688e+00,3.134763732650458046e+00
1.179093534261488330e+00,1.170129820459478776e+00,-2.282220523141623492e+00
2.697681960173456961e+00,-1.694909820458612992e-01,6.195031074271690752e-01
2.339883502559722217e+00,8.596436902514826839e-01,-1.079619730300277025e+00
8.395424989508399882e-01,-3.458978672161129531e+00,1.971543969627966408e+00
-9.318769178164194866e-02,1.372524145615308333e+00,-2.786127431556443490e+00
2.509921457370713149e+00,7.498045118205513004e-01,-8.025034331850050551e-01
2.690520206726614624e-03,-1.764289487944131096e+00,-1.898941330434020525e-01
-1.627650074817473813e+00,-4.864025878047575357e-01,-1.194224797662260862e+00
1.941270852372603439e+00,1.567966217888457692e+00,-1.924056361809027171e+00
-2.329329647933539693e+00,2.045489082044865903e+00,-2.468719221019690213e+00
1.630384596736773828e+00,2.500352569444050488e+00,-1.020299387683022196e+00
3.874593735041020892e-01,-4.045897682316699218e+00,3.076248935291587383e+00
-1.895666001594312089e+00,-2.315730134028893605e+00,2.202049568241938537e+00
2.629692991829427395e+00,3.908419460728086436e-01,3.152340515351138017e-01
-1.169648261964333580e+00,-3.000354301353026720e+00,3.019296262065414904e+00
7.666541049812853892e-01,1.444806336683210901e+00,5.129572168550008415e-01
2.105463490642062396e+00,-1.667925697956032183e+00,6.380959211321984847e-01
-1.418442369087461685e+00,-3.219539981710161758e+00,2.497454776524142606e+00
-9.735928620849187975e-01,-1.982221061513693483e+00,2.829846313165162996e+00
-2.179789417009094343e+00,-1.127943433161497644e-01,8.599808746351513822e-01
-2.016838090245226756e+00,2.991772990270401333e+00,-2.561554725571857816e+00
1.683939682009474581e-01,-1.960163295927020100e+00,3.615812553536909557e-02
-1.618509222877756004e+00,1.549050202395773068e+00,-1.332990775388432636e-01
-2.514150207211131027e-01,-5.720919243488913342e-01,-1.337761210581564164e+00
8.369274238551765999e-01,3.145499788833833410e+00,-3.268074396386348557e+00
1.977370487156178580e+00,-1.662107418127564351e+00,2.621430698259862524e+00
8.661525551852431448e-01,-1.173206047455851664e+00,2.667116707790217145e+00
-3.269771731777659785e-01,-3.880278065186700154e+00,2.680670830518540271e+00
-2.481618804787974586e+00,1.912669816014333835e+00,-1.961733501024821136e+00
-7.375981383582931317e-01,-3.359299722649716102e+00,1.790947700967612910e+00
-1.868853324237271352e+00,-2.223126525248609209e+00,8.398081562455171900e-01
-1.839061328862855005e+00,1.082885189239421314e-01,9.745356806466111133e-01
-7.897881161634990876e-01,-3.801268263703771133e+00,3.008583864902450333e+00
6.504102877983253261e-01,-5.133671376940158737e-01,-1.215795372574820288e+00
5.982192550557666882e-02,-1.484277548764380561e-01,1.893401177778024858e+00
1.003145572286788800e-01,3.645909552395382391e+00,-3.652822543059481397e+00
-2.375474291861750409e+00,1.006472868746364657e+00,-1.890230555635306953e+00
-1.016776717654455320e+00,3.627729944576536081e+00,-3.607429253878814635e+00
-6.941810791067259956e-01,5.520163159077625670e-01,-2.211329168360233410e+00
-2.077694005543041733e+00,2.708698190337711420e+00,-2.011710235344283060e+00
-6.728213322894421866e-01,1.698909798370597857e+00,1.244683492277209591e-01
1.983394113290267713e+00,2.151967899324376710e+00,-8.922665370187314871e-01
-1.446902580536430838e+00,-4.740363219265986139e-01,-1.288262347375320083e+00
-2.214383936363539362e+00,1.280833693126176565e+00,-3.376853190859600562e-01
1.631889671059252311e+00,-1.328966494304229418e+00,2.601295453520431789e+00
-1.211213419467014329e+00,9.003388202309764443e-01,-2.408380820303498648e+00
-2.332487279202298147e+00,-8.354962239237703203e-01,-4.003547800420486635e-01
-1.364769546983054971e+00,-3.311502437627661610e+00,2.560452355592315765e+00
-2.510738657200741603e-02,1.998431090701179302e+00,-3.129346402210759326e+00
-1.022227581234820715e+00,-1.784939504199090310e+00,-1.159896046456197344e-01
1.072043853772463251e+00,1.391775937886237768e+00,-2.457461016157201250e+00
1.832181206221080272e+00,-2.582452871993375254e+00,3.109604236071157324e+00
2.623545797740514551e+00,4.298831062650195767e-01,2.834212918027817496e-01
1.350909772932116670e+00,-3.738605683974432381e+00,2.968859437275924940e+00
-1.123090312523805201e+00,-2.521621380769353493e+00,7.301477910470084431e-01
2.113903248092361853e+00,-2.171294459921453424e+00,2.795889189100173589e+00
-2.123243928730776275e+00,2.849161106860193193e+00,-2.546421535780615031e+00
1.032873821647948054e+00,3.598237206348369188e+00,-2.543618653454743139e+00
1.991813283529483503e+00,2.419338346754110525e+00,-1.883863571576511742e+00
1.313992110865208396e+00,1.797391395432407002e+00,2.020078138700450582e-02
1.718261655612215666e+00,-2.582554462308709109e+00,1.345973191579897810e+00
-2.075746068854787296e+00,-1.054385272711028332e+00,1.576940737880043741e+00
2.218443960968459194e+00,-2.563547879952691400e+00,2.677711434560400505e+00
4.398093876094880672e-01,-2.551831344451031658e+00,3.453473697476360016e+00
3.431056036166450496e-01,3.792872214921430007e+00,-3.515967320289166587e+00
2.150282543239726785e+00,-1.358926165620718995e+00,3.930614040901511674e-01
2.208660598176318768e+00,-2.640885915145794183e+00,2.258467799875140791e+00
-2.536691652964583987e+00,1.469951377889425315e+00,-1.920931058848310391e+00
1.204847723559843375e+00,-1.255134254125193083e+00,2.668272815992599689e+00
-4.555273102847248179e-01,4.010071152092094415e+00,-2.905284296501271069e+00
-1.350420836961057525e+00,-3.285636814478547496e+00,2.209056265401965646e+00
-1.763171962206669940e+00,-2.748203393943907002e+00,2.287660613608685445e+00
2.650256239356050703e+00,-6.019534794790885185e-02,8.542173210135103889e-02
1.721846948417257384e+00,1.631036810968218731e+00,6.581513219068973672e-03
-1.683434340934609086e+00,-1.442469134072770665e+00,-2.224077085368495188e-01
-2.117203459887232242e+00,-2.176949532813319710e+00,1.206427977274887375e+00
-1.535610065956874548e+00,3.473793993335943853e+00,-3.342565802235664574e+00
-3.528914584886202466e-01,2.038616872722981199e+00,-3.194612155899438033e+00
-2.593352894350272386e+00,-6.102001425104048443e-02,-7.462133290081663928e-01
-2.147486534077885700e+00,-8.472811670585834731e-01,1.352121315793838541e+00
-1.223772411815171379e+00,-1.497650665111874169e+00,-3.512028246384580887e-01
-1.015786910970990720e+00,-3.478844603268952618e+00,3.063485058173298636e+00
6.224148150246452404e-01,2.711336766934637321e+00,-3.302597896887499385e+00
1.334745341581092148e+00,3.339577593839370806e+00,-2.244194231252474747e+00
2.557826973295945994e+00,-5.657114884146572376e-01,1.649616353407248603e-01
1.608407374984055949e+00,2.163353151036846445e+00,-5.615779593404821579e-01
9.522300940394499147e-01,-3.799139102460998174e+00,2.680125372100627956e+00
-2.745624065477140219e-01,-3.033085105518499081e+00,1.237701729689264507e+00
-1.942541933880586491e+00,2.178753447092154794e+00,-2.926114298069911968e+00
1.577472961593316514e+00,-2.986482412293775202e+00,1.757531340262761255e+00
1.662504908074377008e-01,-2.484530458503297456e+00,5.716857728815691875e-01
-2.370970573699325623e+00,-7.209170137186667882e-01,1.027333391965524534e+00
-2.525294199027387498e-01,6.627815547612134761e-01,-2.312927449214233988e+00
-1.830453133799770926e+00,-4.585723217704726906e-01,1.411747706307310279e+00
1.606319500450008153e+00,1.657610387498390514e+00,4.290678902559489499e-02
-2.482025783868795354e+00,-8.514931533136295139e-01,8.195113447578149524e-01
-1.991960330532628554e+00,-2.211908036316922122e+00,1.060727854273365578e+00
2.663611161557646878e-01,-3.827308430837070841e+00,3.741393368549302600e+00
-1.339464019317233578e+00,7.694701499392692101e-01,-2.294320000992087660e+00
3.767888151049502699e-01,1.806006075530178112e+00,1.600893936566502584e-01
-1.729196531606417508e+00,1.506366235381188856e+00,-1.835061515456461179e-01
-1.396000775128831028e+00,-5.368524923642329361e-01,-1.255141976658725067e+00
-4.392747250247316937e-01,4.032346192084954595e+00,-2.927247800542474465e+00
2.326303952259318297e+00,-1.975525486953914056e+00,1.261445633517159770e+00
2.498749519599670510e+00,-1.508880842264021416e+00,1.947547581652454118e+00
1.849549615797742019e+00,-1.194263633073498587e+00,2.436325003794395982e+00
2.679931652418343191e+00,1.838275956220903617e-01,9.248835539314173571e-02
-2.981786937899379430e-01,3.960905218036405717e+00,-3.626738289449462194e+00
1.122707849827966786e+00,1.788647137244933516e+00,-2.639324156537690591e+00
-2.651475680546340641e+00,1.010314980700433019e-01,-7.044401671787983155e-01
-1.742651016452068102e+00,-1.863120623521002495e+00,2.247768819960324738e+00
9.504851305932532357e-01,1.867721395389352779e+00,-2.769136439881656475e+00
7.751193697032918717e-01,6.223216508079061349e-01,-2.061256195640834843e+00
-2.072671736093091077e+00,-1.552030609009114270e+00,1.789689495837314848e+00
-2.470694326440692645e+00,-3.042733205491099727e-02,-9.874585543785430186e-01
1.881996685770817690e+00,-1.715953323987855939e+00,2.694668498068162332e+00
1.561522779618797596e+00,8.665464985346909010e-01,8.726839960836508814e-01
-2.289273718668313862e+00,-8.744439280172902063e-01,1.175092306461925418e+00
2.114146958987039859e+00,-2.452819402954953709e+00,1.560294145651258235e+00
1.531123449168964923e+00,1.288050975735151260e+00,4.533939108780832283e-01
7.029596419474473112e-01,-1.204403775189674786e+00,-5.773013963719348940e-01
2.051060041725431660e+00,1.374031808608650561e-02,1.405506958924507055e+00
1.397430302965292803e+00,1.841004554019828321e+00,-5.609646166843876985e-02
-9.432773262082845278e-01,-3.560895851171607784e+00,3.046425921738113551e+00
7.668204328719326890e-01,-3.331741251227250178e+00,1.755015444231391664e+00
-2.151060304953970714e+00,-1.073357545970230253e+00,1.506766398569982179e+00
-1.367307336044181421e+00,-1.023462158884751672e+00,-8.116243497789381589e-01
-8.706302584320050331e-01,-3.178663121395882918e+00,1.530178518196141146e+00
-5.725845155861811753e-01,-2.138171832816142093e+00,2.137240064348070179e-01
1.334390464859512182e+00,1.676626304503903597e+00,-2.467991435030794101e+00
6.400728293050159667e-01,9.990115555119856161e-01,-2.367077172738130120e+00
1.311426303760665268e+00,1.921334955282655965e+00,-1.114585839257781208e-01
-1.911068427495979938e+00,3.037018311983191499e+00,-2.239387590117625670e+00
-1.920887162328733355e+00,-2.300959562634043998e+00,2.152782832138779856e+00
1.295036290416252900e+00,2.757834205428004726e+00,-1.148751248332684716e+00
1.181028616212366072e-01,2.848748455320803341e+00,-3.505283537861592524e+00
-2.089989069427876878e+00,2.073609057241911025e+00,-2.768467776806915470e+00
-1.472702035955763433e+00,-6.645261055306520559e-01,1.785549965749946288e+00
3.351828621646184003e-01,3.792140521527836761e+00,-3.530459226462711708e+00
1.352574716194721693e+00,-3.585654974357081581e+00,3.492913052852534506e+00
3.448366027851232363e-01,3.947891598530547608e+00,-3.236049898257753021e+00
-2.234425005547523213e+00,1.587249931396570224e+00,-6.724809604722467027e-01
-9.667334479094299438e-01,3.519844927708685844e+00,-2.164137980356778179e+00
-1.814604350621946471e+00,4.741418316549924489e-02,1.027164633719283904e+00
-1.818442248899307390e-01,4.024117814381590108e+00,-2.973424901964074163e+00
-1.468604437338265845e+00,-3.128816008612713251e+00,2.100261730708198105e+00
2.019794512446453361e-01,-3.118178534269568924e+00,3.665785045700825862e+00
1.518842346993475756e+00,-1.687159458100624621e+00,2.053814822707293875e-01
2.164944446256905852e+00,-1.503019980409031620e-01,-6.959766293339118004e-01
-1.571460843811387287e+00,-2.542598199567684514e+00,2.632242772454191027e+00
-1.100360098439548517e+00,-8.079318376740675101e-01,-1.062184822675179330e+00
-1.483441820652682042e+00,3.620315880066945269e+00,-3.084185977321363126e+00
-5.270340801622220850e-01,3.696475495121224863e+00,-2.238150256011554706e+00
-1.009211773046979621e-01,3.978861386581717063e+00,-3.615209196591392171e+00
6.093515146343274624e-01,3.726056531728517029e+00,-2.489321204474761018e+00
-1.787903312382422838e+00,-1.553267129448627180e-02,1.092175894419287863e+00
2.065795717529003372e+00,-2.869876404863701325e+00,2.844099066810240384e+00
8.475719121070760531e-01,6.166128164648189136e-01,-2.044725737751626138e+00
2.390936166900202942e+00,-7.996761558636176215e-01,1.775388943919059104e+00
1.483284316539595471e+00,-1.897528077232216948e+00,3.011266372479323383e+00
2.587464432410381487e+00,-4.893518089071382526e-01,1.243694671653471806e+00
1.692579484079178354e+00,2.316897315963623250e+00,-7.870495723378960751e-01
2.134893581339822877e+00,2.144039713031851591e+00,-1.353728180689995453e+00
-4.174100539194708914e-01,-7.653767595015360525e-01,2.276721192307534114e+00
2.676742256796103892e+00,-4.202476458584653712e-02,5.227771942708930863e-01
-5.679407762208479316e-01,-3.870830867304837941e+00,2.829778826094435651e+00
9.302352752048905771e-01,3.696453498636618651e+00,-2.985405083225584288e+00
-9.611769322756779088e-01,3.824714840199889831e+00,-2.697786044997902533e+00
-3.443013588723106144e-01,-2.192889353360530702e+00,3.165271407339592447e+00
1.055668887602475348e+00,-3.709883220369583068e+00,3.576275952183145979e+00
-5.699338934775036725e-01,-4.647931110181250519e-02,1.681670239926857935e+00
-2.378119133765630888e+00,2.134460789108532097e+00,-1.555764888529634682e+00
-2.075812543286574829e+00,-2.021171671831225591e+00,1.879603636780899478e+00
-3.195356636542261430e-01,-2.109814366436621569e+00,1.440995374700233533e-01
-2.224502889286082308e+00,2.422930125726670880e+00,-1.811790533496765221e+00
2.149341840995401487e+00,1.380669721662276528e+00,-5.683562286064918617e-02
-6.102355204903037178e-01,-1.824759509757027276e+00,2.901631984504369210e+00
-1.299898793739877600e+00,3.464469051925238574e+00,-3.566620972256954847e+00
-3.049678639463217489e-01,-4.021223992310460460e+00,3.318981082346428746e+00
2.589733192702657671e+00,-1.252003154822759701e+00,8.719045374413952887e-01
3.172310288678606427e-01,-8.254445306205284716e-01,2.435384027771904325e+00
1.513514030316602144e+00,-1.348930894490298016e+00,2.667933931796266478e+00
-1.158945640578165626e-01,4.041733938991046493e+00,-3.264882968141003872e+00
2.483223015538291861e-02,-4.040479351964702537e-01,-1.424757440199672320e+00
1.158933996881236661e+00,9.783680976048423350e-01,8.715282852659654855e-01
-2.023974811472970328e-02,4.091992503888134181e+00,-3.134602497045475999e+00
1.734767270030071777e-03,-6.912556607070754477e-01,-1.182894312598108844e+00
-1.786848126841769080e+00,2.579242600453679923e+00,-3.128677664873481312e+00
-2.178031751438552099e+00,2.403153748732409056e+00,-1.649696948462399337e+00
-5.081119568847772827e-01,-3.861232416431632508e-01,-1.473220354454585879e+00
1.381094411523058785e+00,1.538449267474790272e+00,-2.364080978286854595e+00
-3.801967099776299430e-01,1.380827387668577488e+00,5.130326130375141291e-01
-7.853964684292426002e-01,-2.041646224635901063e+00,2.936293959491068417e+00
9.635525526673324181e-01,-2.894737803096639528e+00,3.597806513270485063e+00
-2.522995935371649789e+00,1.414903813691281043e+00,-1.001251001918062045e+00
-1.285206133438929532e+00,2.930688827317112555e+00,-1.468293065854791246e+00
2.225853305369011270e+00,-6.298090217523071299e-01,1.767259383713093435e+00
8.993265720000179764e-01,3.158526764630032346e+00,-3.267087261810192711e+00
2.296451966155141466e+00,-2.548701023561612988e+00,2.155604717732541697e+00
1.654022342000422974e+00,-2.727358245690771898e+00,3.282046514213341037e+00
2.732291947797931275e+00,-5.600634694498393129e-01,8.602310855009159818e-01
1.896302732851802508e+00,-2.526661356764011934e+00,3.037980796327307775e+00
-2.237217047415695159e+00,-6.935764446192578259e-01,-6.519549443172496517e-01
9.856061474788743171e-01,-2.756506252631986342e+00,3.532863677893769871e+00
-1.136732160855360219e+00,-1.997367841234933827e+00,2.771442358026009245e+00
-7.384121925526775376e-01,-2.121088771583251820e+00,2.084173744478644008e-01
-1.841585912950910453e+00,1.752868027864425304e+00,-2.760889035085273058e+00
-7.494676644395751319e-01,1.923542471079422667e+00,-9.916588293789486974e-02
1.412425609399556636e+00,1.342091571440873876e+00,-2.248304405325753041e+00
1.130834974764905132e+00,-2.114426529857316162e+00,4.519804916660988825e-01
-1.173321328035947575e+00,1.936480163928376186e+00,-2.911431361780941751e-01
-7.017660190674354093e-01,-2.459104881452653046e+00,5.780041296567400844e-01
-1.632573990552153242e+00,6.577797518188861492e-01,-2.139187246890271954e+00
2.415838920090675579e+00,-9.600709178661405441e-02,-4.199347959451984469e-01
-7.880730060332781228e-01,3.762715975376816679e+00,-3.738405430673737317e+00
-2.074954479162265386e+00,2.819853736291196622e+00,-2.179399284966318628e+00
3.750044797693438681e-01,5.892826679165883430e-01,-2.144724448568617436e+00
-1.833545062852695917e+00,-4.621256572167055654e-01,-1.115055114042772466e+00
6.175878700583075087e-01,-1.129424318771834024e+00,2.651980153538054275e+00
-2.146612983066177982e+00,-9.381311098462972176e-01,1.422566756993389969e+00
-7.038627579471130602e-01,2.524464109858885585e+00,-7.352921592094558978e-01
1.791233358682434940e+00,4.117992898804724855e-01,-1.384300376181590186e+00
1.980571440170323383e+00,1.209985509005741200e+00,3.127566143946082788e-01
-2.315770459027794992e+00,4.376750795695771856e-01,3.022075411843120341e-01
-1.673364320836974173e+00,-2.975707887330121260e+00,2.028314127698649827e+00
-1.236944493358218988e+00,-3.275307419310841794e+00,2.905394104291946888e+00
-2.655057099983537672e+00,8.852815163957178379e-01,-1.388499249346047071e+00
1.976961719701606723e+00,1.943785506368751470e+00,-2.053476452633417271e+00
1.803133751401789553e+00,6.812505627308688139e-01,-1.562828243067792666e+00
-4.477028036843727077e-01,-2.286316781365232143e-01,-1.623466479947028418e+00
3.901241682839419744e-01,-3.057584099764630192e+00,3.637812047268243365e+00
2.319476105170155400e-02,-4.043591451666240566e+00,3.264122982600916156e+00
-6.528380494676527812e-01,3.249744515935963030e+00,-1.626606039870643006e+00
-2.436708524913380192e+00,1.643179199786929390e+00,-1.034569625923164926e+00
-2.579871714583089837e+00,-2.990777518978570138e-01,3.557952507058216307e-01
-1.747052051316174470e+00,-2.066299873033098589e+00,2.299524389532090929e+00
-2.280508049857928654e+00,2.560689796283022623e+00,-2.470185704110823721e+00
1.354391046072597860e+00,2.082910666128296562e+00,-3.021209333696226462e-01
-2.520036838341476404e+00,-9.305939959518369498e-02,4.001979440115757125e-01
7.091912526558152852e-01,-3.943869808424541823e+00,2.932047851341045952e+00
2.090734915354497403e+00,2.092254779435787082e+00,-1.799787790057734815e+00
1.904453193699385594e+00,1.091641495125619699e+00,4.800845478455634252e-01
-2.664400174865297455e+00,-3.225980362165793980e-01,1.009251014353513831e-01
1.934981148918920812e+00,-2.231699908774746000e+00,2.962058703263406034e+00
-8.366359910116614174e-01,3.123000621421100576e+00,-3.631168329505784609e+00
5.863495313417407123e-02,1.773660789461887877e+00,1.963658270278181850e-01
2.543846272756076221e+00,-3.717559373422588687e-01,-2.501415569193452676e-02
1.523587628312935704e+00,1.157248200048333953e+00,6.068848655262246705e-01
-2.565914439703402827e+00,1.447488219456810388e+00,-1.079249276326677220e+00
4.969518560964774068e-01,2.405127556768225539e+00,-3.221007924105104614e+00
-1.303118767918397980e+00,-3.392522881940795543e+00,2.379305958826966716e+00
1.442881700309717630e+00,-3.357106740304248937e+00,2.203353777764708088e+00
-2.662392234139984382e+00,1.257095061476198206e+00,-1.534307938665888660e+00
-1.071973752735446039e+00,6.608762048500841368e-01,-2.288711345229726302e+00
-1.188286222373847491e-02,1.884847408991204842e+00,-3.063602933996691924e+00
-1.314365396614021630e+00,1.931856121870884346e-01,1.247521127694889431e+00
-2.552051038996090870e+00,-9.939756803692703091e-01,2.123508733404722015e-01
1.528172077381242167e+00,2.829084155460271255e+00,-2.685280544817142179e+00
8.457698392047923175e-01,-1.219546740647837746e+00,-5.361907932827835177e-01
-2.584202345479960083e+00,1.669427280810309444e+00,-1.670966808753468147e+00
-1.195306366017547361e+00,3.788326597659943840e+00,-3.119280034382395428e+00
-1.599244828449021272e+00,3.478311928379504092e+00,-2.824633779953549695e+00
2.413550337619833730e+00,1.162754176371698867e+00,-1.148307307237740327e+00
-2.288443140726245328e+00,5.814701551492780229e-01,1.788951684804375719e-01
-1.479567782288186750e+00,-3.051248407658194162e-01,1.526531020946988448e+00
1.319803483005738132e+00,-2.096489313994908787e+00,5.077097070781648736e-01
6.721620962655379117e-01,3.814189125709920081e+00,-2.787413886657627682e+00
-1.335218453642340597e+00,6.359572147229924921e-01,8.521004202541320183e-01
-1.066013150570909840e+00,3.711076291142938022e+00,-3.636852417877968868e+00
1.270860407966277750e+00,3.364456245896318087e+00,-2.472066751586062594e+00
-1.103346840751516511e-01,-1.771646924560325020e+00,-1.865495723548535045e-01
-2.505086552208313666e+00,-1.089046640940737332e+00,3.921769840133311202e-01
-1.181066747034403397e+00,-3.482727065398809163e+00,2.719883456557626200e+00
-2.126804135996907430e+00,2.892764035021154978e+00,-2.414037640590934064e+00
1.410116600797483910e+00,-3.648495303095469655e+00,2.792297264543427637e+00
-1.620702612670005704e+00,-2.365196639851856908e+00,2.549422957860730143e+00
2.534065636859762272e+00,4.712687198039964276e-01,-5.451553671845354998e-01
-1.969184530835157432e+00,-2.439925242805577543e+00,1.521197982798606851e+00
9.458338054641385328e-01,3.554051078367749472e+00,-2.343425992440332006e+00
-2.210017076900873345e+00,2.085291268917446317e+00,-2.630312311469969355e+00
1.819952171142688480e+00,2.644274956200703297e+00,-1.572298478600762106e+00
-1.024609129291118803e+00,-3.474262634642212966e+00,2.127993289191270065e+00
1.479361433706927187e+00,1.110321855638530586e+00,-2.058490878765972809e+00
-2.650123131390585307e+00,-4.774719308683910562e-02,2.159929209621956614e-02
6.087781434013893600e-01,3.491156373094266296e+00,-1.995989805463257660e+00
-1.928702418063585000e+00,2.870534290508343300e+00,-1.951192958235879571e+00
2.636981643261744335e+00,-1.265445183057224865e+00,1.292576455960789739e+00
1.040418427880933416e+00,3.597161491745314521e+00,-2.539335827488835129e+00
-1.819186323320154675e-01,-3.930643962891223087e+00,2.656001615745133382e+00
1.549150391005892802e+00,-1.003335670117406320e+00,2.428323775494286796e+00
-1.290270616766589606e+00,2.251662828388465987e-01,1.209439918836067163e+00
2.499814940552866904e+00,-1.648684157131923289e+00,1.207534640102769785e+00
-2.511275306146123043e+00,-9.130031253421353465e-01,7.403370646649024556e-01
-1.242808817910707075e+00,-1.319235933503581371e-01,1.499962571758474805e+00
-1.839629201510375900e+00,1.355701436557237738e+00,-2.547665340930924671e+00
1.836133197126989192e+00,2.654015982671153573e+00,-1.655199408607096467e+00
1.685521748784135854e+00,-3.445807163105516047e+00,3.162921265726863940e+00
5.141711515059773641e-01,1.314722723370004287e+00,-2.611315657760925557e+00
-4.871373315122372594e-01,7.353523689592836865e-01,-2.349114700234352426e+00
-1.383982982105711468e+00,3.467250643609326666e+00,-3.504683813441633600e+00
1.365924796012246034e+00,-3.470822906098575800e+00,2.339806535794862974e+00
2.951057815453643207e-01,3.973049312111573528e+00,-3.435076024109803061e+00
2.387342670119711130e+00,-1.265570315140421842e+00,5.677972601248850726e-01
-1.063830203050917689e+00,3.464938891209567551e+00,-2.144596192696670123e+00
-2.390125268258109337e+00,1.317246689797990422e+00,-6.389503475552570366e-01
-2.414006560153318937e+00,-7.348722896781901825e-01,9.641938402999687963e-01
6.223341517874499962e-01,-3.608977328451878019e+00,3.709372714192280540e+00
2.232696723391287108e+00,4.928857472592203248e-02,1.262540257571640012e+00
-1.074102722240412922e+00,2.194508754427480834e+00,-5.269247118920664663e-01
2.399733630472959511e+00,-2.158691630026693620e+00,2.369236314255655618e+00
1.988553192805725844e+00,2.381012992597479616e-01,1.254627203058273910e+00
1.247902828561659572e+00,-4.783639848118909077e-01,-1.051107028325713122e+00
-1.289723095794163665e+00,-2.930074933079478416e-01,-1.468348367674525035e+00
-8.221442243240991710e-01,3.507827547656781064e+00,-3.692083929990593649e+00
-2.222275821998099143e+00,2.707492680202349788e+00,-2.454949808859131721e+00
-8.547274015831474170e-01,-4.638411397268965009e-01,-1.404091849394400127e+00
-1.214486736336193751e+00,3.716336026895894928e+00,-3.544856287370901526e+00
-2.282721143793259966e+00,2.489468127680909859e+00,-2.003920958824355392e+00
1.619109933879767427e+00,2.425136853650090019e-01,1.412820873721751136e+00
-2.747145557186633780e-01,2.820341398212991901e+00,-3.583875965822814535e+00
2.636693617456832950e+00,-1.400524754882826128e+00,1.432943797078896742e+00
2.145719830533990624e+00,7.039544139606886131e-02,-8.679202126326800437e-01
1.683642009532704709e+00,2.146176879984327712e+00,-5.770160181888784878e-01
-7.780308166962350835e-01,3.944295301136737653e+00,-3.535788814435850025e+00
-8.598714677039009935e-01,-8.897688307359543636e-01,2.213033309308152230e+00
1.252247075975581936e+00,-1.550519906277497473e+00,2.850900518762075286e+00
2.567213939377032794e+00,-1.579029618808441837e+00,1.397540031524145521e+00
-1.354591636065878513e+00,-5.381564152010944735e-01,-1.232332366345041841e+00
-2.039592087920787389e+00,2.192886236010314904e-01,7.178519117801097638e-01
-2.294197453452154978e+00,1.361168126651358445e+00,-5.116743707646150829e-01
8.365117617890013291e-01,2.968642155346562284e+00,-3.247044545155864714e+00
-2.562799832395951771e+00,1.592379873342787411e+00,-1.401603198927115379e+00
2.026423960898617427e+00,-8.191678622382432551e-02,-8.783566222964367398e-01
-1.933833822363020927e+00,2.614833881143875161e+00,-3.057920441616313489e+00
2.064096347926876351e+00,2.214745146516963192e+00,-1.209556430245807723e+00
2.429006544153145875e+00,-1.261108236232755475e+00,5.992575668298035785e-01
9.595941756128084643e-01,3.372385160415285910e+00,-3.203204595932596099e+00
6.950201147613714880e-01,-2.871678937993772163e+00,1.160461110068780277e+00
1.466826825340818541e+00,-1.674826710354561987e+00,1.749705784140127840e-01
-3.305919099102027636e-01,3.372013651333427564e+00,-3.701442613705192564e+00
1.294388756626938086e+00,-3.482166627288218574e+00,3.520524519038739086e+00
1.468436166845798807e+00,2.876682171571032232e+00,-2.713798911573286787e+00
2.216001307854153612e+00,1.547219155557356007e+00,-3.156064708279593956e-01
8.661823642476993435e-01,-3.861342100574295610e+00,3.613849957594077011e+00
-2.603610006202238480e+00,-4.247187133629982125e-01,3.259933588431578322e-01
2.046522561979194244e+00,-1.150671226491350785e+00,4.178300148747848830e-02
2.210765381331866397e+00,-2.586771394905813537e+00,2.640351497260135183e+00
-2.343469310294624464e+00,-6.889313846015336917e-01,-5.583212279293527924e-01
-1.065612596960057612e+00,3.208815446854013764e+00,-3.655506654455576765e+00
-9.012137969500406687e-01,8.886827855723528069e-01,-2.473666246453873896e+00
-4.376863783264191010e-01,1.982112332246856790e+00,-8.056384709141271860e-02
-2.906955589363559578e-01,3.375283554850802226e+00,-3.714775950845327745e+00
-1.457565228475431240e+00,7.683664233855154180e-01,6.942978429709462107e-01
-2.286053528957104231e+00,2.203541595596438363e+00,-2.546776182001415645e+00
1.218825937557432848e+00,1.133631054323601450e+00,-2.233276518313494385e+00
1.156291743737181799e+00,2.214523500199522488e+00,-2.843107174320099073e+00
1.908703952525364400e+00,1.282588887507207565e+00,2.779325311219881800e-01
8.089627655519787686e-01,-2.587703993246643908e+00,3.463849446017500888e+00
-1.895407504431814827e+00,2.860911354403408158e+00,-1.947467548345347854e+00
2.057315255122487141e+00,-8.060957459506432610e-01,2.022264063409493495e+00
-2.012578839670123645e-02,1.747059984708163372e+00,-2.996322008149070459e+00
3.796916574766984742e-01,-9.538097467619126579e-01,-8.916575050860768847e-01
2.038887199050066990e+00,-2.140888645967736981e+00,1.100261032667261052e+00
-2.189268759059777913e+00,-1.899914343498560587e+00,7.790101463051887221e-01
-1.770371697005342471e+00,2.648146915266025747e+00,-3.152858898603279059e+00
2.206461806823427185e+00,6.818427524818170271e-01,6.732211742165188362e-01
-2.592592056199756634e+00,1.091556000039265895e+00,-7.429573290470731228e-01
-8.938069846799924500e-02,2.655699185303042942e+00,-3.447470735051421542e+00
2.215120176081872394e+00,-2.170736291619971503e+00,2.647126744744718874e+00
1.925086871629303698e+00,-6.906568401366440790e-01,-4.681052508269351597e-01
-1.499710415865039836e+00,-9.282698387958359110e-01,1.953693743618237111e+00
1.742047020923760181e+00,2.302104926144348696e+00,-2.376860037118677216e+00
-2.474845370589593863e+00,1.970679331667273049e+00,-1.755506045859996034e+00
6.757245464287782166e-01,-1.138289081311506967e+00,2.649918980472304231e+00
-2.163817575512314573e+00,1.465445511291480374e+00,-4.874128035326588670e-01
1.353643300875141176e+00,1.112562305217151826e+00,-2.156194693748486380e+00
2.590555953358939067e+00,-2.301420044381174146e-01,-2.914141268112020733e-02
2.053721564851376691e+00,-2.952576051392600043e+00,2.598591672865546265e+00
2.112718939610350510e+00,-1.507889301134532234e+00,4.913921936399605062e-01
-8.344897912424813491e-01,-4.319563605755988855e-01,1.902157417663153716e+00
-1.066496521078550863e+00,2.785271663433265488e+00,-3.501798349430660817e+00
2.726397266651582996e+00,-1.592731528261124296e-01,6.402418252605661664e-01
-2.424642144276878852e+00,1.976641908379776158e+00,-2.205458759758466059e+00
-9.339283334768830325e-02,-2.372361197518940035e+00,4.447043848350223372e-01
-1.354206810982654829e+00,-3.286667585862037999e+00,2.593966471773664129e+00
6.778854579158699600e-01,-1.240187480049469437e+00,-5.865629680359841780e-01
-1.592684371083904482e-01,-3.917700569625645279e+00,2.664034430540725751e+00
-8.314922453387078027e-01,3.689485532812962543e+00,-2.380602530013453233e+00
8.168259664286438015e-01,-2.606239050899228915e-01,1.987246355166730760e+00
-2.601226859799004920e+00,5.906449885745135298e-01,-1.300643008241744392e+00
-1.145458673260107307e+00,-1.506872925871079572e+00,-3.730287832538666248e-01
-2.895040085469480218e-01,-7.470922040520041607e-01,2.285854934528052329e+00
9.894399287237759522e-01,3.398240517416271089e+00,-1.991502488065919563e+00
1.545528109856270982e+00,2.634589861150011814e+00,-2.661342224607826434e+00
-3.763414729521190605e-01,3.169750448115945307e+00,-3.659758268081632071e+00
1.379082892439014829e+00,2.374940123012463822e+00,-6.768509504543456234e-01
-1.567164193792082993e-01,3.691459449000410231e+00,-3.725585617812804617e+00
1.222943477790519484e+00,-3.587660504949062634e+00,2.495986635225480477e+00
-1.378620529147787765e+00,-2.332971052246608501e+00,2.734634228987422588e+00
1.783797165270337937e+00,1.869587185541913499e+00,-3.124075821762979377e-01
1.769552602121784224e+00,-8.160937422174080469e-01,2.183204481394117824e+00
-1.008567196529093213e+00,2.856635723176100816e-01,1.276324449388827942e+00
6.201253056155831000e-01,-1.657815710802988729e+00,2.980335462750626885e+00
5.846712789294095103e-01,1.865135857845796163e+00,-2.924176154548722373e+00
1.752809594717179342e+00,-2.265676118673000783e+00,9.780039366695649772e-01
2.092150288399500901e+00,-1.419532571204336513e+00,2.439940582958560533e+00
1.163590610339177767e+00,1.279300883979794357e+00,-2.360669474108473054e+00
-2.399986014617828456e+00,2.016721018848143809e-01,3.782604030272352924e-01
-8.141766258448261961e-01,3.898837407850029635e+00,-2.855280123375160350e+00
2.283954369685091912e+00,-2.472368351422475907e+00,2.070113431784684543e+00
2.021459746078800634e+00,2.248825755702212437e+00,-1.165620642661871154e+00
1.200242397186205290e+00,3.453414248668053244e+00,-2.533648069164112115e+00
-2.193202214220005164e+00,-1.304354652925119873e-01,8.427136338657545966e-01
-1.716577771008595210e+00,3.236565125435195256e+00,-2.323982470158652003e+00
