-3.024852811960457633e+00,-4.106052398731474540e+00,4.985461510775217597e+00
-2.188887917222182455e+00,1.515645793843337419e+00,-1.004232086843778626e+00
-3.810648325424061511e+00,-3.757572217813625937e+00,3.269047638480621298e+00
-3.309853470619349203e+00,-3.687558837575086734e+00,2.385222624993883933e+00
-9.459201071616140100e-01,-2.408143140792284864e+00,5.411070423736703827e-02
-1.512744828893025417e+00,7.413601268625320539e-01,1.416984382140622278e+00
2.277084536620438193e+00,-1.227091394738835661e-01,-1.783077789083587605e+00
1.460900797154260911e+00,-2.355755229663450301e+00,1.980228027807544366e+00
1.331484160543174200e+00,-9.572590287194087111e-01,3.674019957428072747e+00
-3.900168301482495714e+00,-8.555940759302586018e-01,5.531034962176175629e-01
-2.290511911406615031e+00,-1.181335159477195473e+00,-1.554481277507720138e+00
7.435692927107968586e-01,-2.863621418026280008e+00,2.281934022827341035e+00
-9.411150305035443919e-01,-1.871976142077297123e+00,-7.901707011229408550e-01
-2.673568867141860039e+00,2.464745598531870308e-01,1.108579954056255978e+00
-6.440135653776266622e-01,1.167755907779507440e+00,1.273886733379886893e+00
3.447507853480526574e+00,3.572141907943168437e+00,-4.684472854794645258e+00
4.171084228528276761e+00,3.151462384376721104e+00,-3.237249735991114541e+00
-1.656604157472278072e+00,-2.571916155213664901e+00,5.075075001916931505e+00
4.809633693416645039e-01,3.547723112995052386e+00,-2.700288099855162827e+00
-3.896897501412093678e+00,-1.002091507568094952e+00,3.687501681272734588e-01
-8.456352078596885979e-01,-3.878169741601765974e+00,3.401717245587824401e+00
8.556355509008246596e-01,-3.014552843758707912e+00,3.375621189861599536e+00
-2.383865509776651237e+00,-3.614018599239868124e+00,2.001538779130092482e+00
1.541682252103484307e+00,-1.873275369064419715e+00,7.272259690674044430e-01
3.172114179973668069e+00,-4.717397102043017765e-01,6.059386424173625052e-01
-2.330250647814417153e+00,-1.248448400973118266e+00,3.587808287441039301e+00
-5.344216066792614184e-01,-3.500479690889498396e+00,2.419430763961992970e+00
-2.038000616825907940e+00,-1.611870317984415824e+00,4.087453195161380393e+00
-9.211839664068525169e-01,1.413606192282922669e-01,-3.174798280523508431e+00
1.451103348171269181e+00,3.396993174555541284e+00,-1.689121257218578309e+00
1.802252867551433768e+00,-1.375051192137797029e+00,3.568268205036807750e+00
2.371337808657664470e-01,3.699848197178319698e+00,-4.516394205700788866e+00
1.815517568294311435e+00,1.059156188753315186e+00,1.757707880989397786e+00
2.789398675032849884e+00,3.311727731131808738e+00,-1.494087570384927233e+00
-9.120956936861623898e-01,2.913392167851047265e+00,-3.748122734448503746e+00
1.344880748291687467e-01,-3.224305714301215708e+00,2.484641572430593914e+00
-2.861699500414253625e-02,3.421334746516536018e+00,-4.714664818670891933e+00
3.940304461421617166e+00,3.168041543981898300e+00,-2.056001601580847549e+00
-3.098144254056812485e+00,-4.117821018946091982e+00,3.350114368227297579e+00
2.431288744892536879e+00,1.125397519047072414e+00,-3.337207930530647015e+00
1.671348894078983127e+00,6.200912056146085094e-01,-3.173495289759564297e+00
4.712553228398532745e-01,3.004492665536053320e+00,-5.210191389522105254e+00
-4.640894907073312564e-02,3.560710146103661433e+00,-4.099437712843740478e+00
3.515645080742225925e+00,3.125544562343950949e-01,-6.390887585914921676e-01
-3.322737447716473724e+00,-3.923923489063509962e+00,4.893010021169956758e+00
3.330991487442473087e+00,-1.957095685005875718e-01,8.285203464660527706e-01
-2.834170473174796978e+00,8.292200647478458198e-01,-6.313711841191694818e-01
-2.961884763572303569e+00,-2.718277186983436788e+00,4.621974237641485850e+00
-5.418941819426840167e-01,1.921647383618759974e+00,-4.500555571003620692e+00
3.920740423365031813e+00,2.707373680218224887e+00,-1.398548722505812192e+00
-3.135821305553120997e+00,-3.730976942801603968e+00,2.354805670261823636e+00
9.388561282865950375e-01,-2.310665986005773220e+00,1.024485567062273894e+00
-3.565909587030834604e+00,-3.993965765938354728e+00,3.763849373756045669e+00
3.752565273387794775e+00,3.196143169155152730e+00,-4.206161012162344726e+00
3.013171902317659967e+00,1.299655111490112702e+00,1.030014062738447977e+00
-4.093594588590436345e+00,-3.162090283993174822e+00,2.380006912098694638e+00
3.314818514145211115e+00,-6.669077189973376951e-02,1.346764820107419824e+00
2.240403636826014733e+00,4.345590443236151401e+00,-4.954265871192743198e+00
-3.934711187395416143e+00,-3.416197913771564565e+00,3.904258104270426966e+00
3.964322138887531377e+00,3.555195000934623373e+00,-3.320617734372808272e+00
-2.742482980530394521e+00,-4.379828998201273471e+00,4.188761286068065637e+00
-1.648920136477070475e+00,-2.995832734831029409e+00,9.041715947297054301e-01
2.842458014636259467e+00,-5.748301859067671549e-01,2.136233398537021877e+00
3.608997600955971663e+00,3.656713128597502416e-01,-1.270883102781960317e-01
7.158925114715334326e-01,6.489355011745456814e-01,2.319481877146227333e+00
2.731299627294788146e-01,-1.610052595453818514e+00,4.451028515003302211e+00
-1.155566119047911622e+00,-1.709458468317977209e+00,4.492242019050704194e+00
1.036075934723527991e+00,3.406490996492484769e+00,-1.947155403422565101e+00
2.839592425369204861e-03,-3.203914719538184741e+00,4.854853901114648984e+00
-2.457733787565037797e+00,5.998475755257174358e-01,-2.713119114577811519e+00
3.428570568093995963e+00,6.835618657559660027e-01,1.034574392061595516e+00
1.251557685965898337e-01,3.676290690772599845e+00,-3.780778170336372757e+00
-2.838070610902861723e+00,3.970640453733715325e-01,-2.257989334251148783e+00
1.229223677354776667e+00,1.494719494411430372e+00,1.327147472509532689e+00
-4.006884584148036943e+00,-2.849839184830542660e+00,1.715517235566447196e+00
-9.401424614951997549e-01,1.720183335842081496e+00,-4.223217846295453270e+00
-3.012027470991789802e+00,-2.556047442354083543e+00,4.438815593334203946e+00
-1.114266537976621896e+00,2.598250386457400918e+00,-4.011720724553496709e+00
-2.990514525317363947e+00,-4.213831185769764787e+00,4.856817696057203371e+00
-2.093032971576299861e+00,-4.597576077075311018e-01,2.730036863270391301e+00
3.360015807694177958e+00,2.037778390452905874e+00,-3.619713983957090431e+00
1.669870874013829498e+00,4.026119891964131448e+00,-5.339943811417462882e+00
3.996736163796876351e+00,2.338079685322619561e+00,-3.075895694934251967e+00
-1.723419063515510219e+00,-4.114050752106722442e+00,3.471306333473027195e+00
-3.849548798300210350e+00,-3.613517764729919257e+00,4.146808914908543642e+00
3.939957338931817876e+00,3.671598804157414797e+00,-3.611403660161375484e+00
-3.649739888310547103e-02,-6.404277276622890591e-01,3.686066041678960126e+00
3.534397403519935921e+00,5.092572868508465911e-01,8.711237690260016375e-01
2.068012453515117866e+00,-3.852191938392275361e-01,2.922294884832096873e+00
2.156177189760599688e+00,4.015928028688084517e+00,-2.882745901603567251e+00
-1.834193103814339310e+00,-9.768863537942994446e-01,3.555815548796749770e+00
2.438549144336642716e+00,-2.942725329341788765e-01,2.674631659241218706e+00
-1.477493544890668975e-01,2.317256218038940663e+00,-3.747416754972186514e-01
-2.658372923770800700e+00,6.829445215466352082e-01,2.053787445443299164e-01
1.085095727579813429e+00,-1.120626359637041380e+00,3.874350292030433796e+00
-4.232436515751283324e+00,-2.320171166292864573e+00,2.072076171895826935e+00
1.306655512611585745e+00,-2.629601697230476542e+00,2.976595372628341174e+00
2.311951583176258929e+00,4.372894943694069170e+00,-4.602214269377776112e+00
-8.706572398771827981e-01,2.007655585156271627e+00,-4.411902414107975012e+00
3.273972850642756338e+00,-1.337920419461269272e-01,1.362081106603587832e+00
4.777011806870795074e-01,2.777474213929053803e+00,-5.127573586693308094e+00
1.242806367949248925e+00,-1.866333794174503291e+00,3.666944974958273318e-01
2.828082968671592923e+00,2.322232522199091154e+00,-9.602394356454959506e-03
-1.443603508218358200e-01,3.164925810987524901e+00,-4.760841227584434954e+00
6.057510561841353836e-01,1.560426028753831407e+00,-4.453687269809114113e+00
-2.005754161588596762e+00,-4.815674329794100150e-01,-2.326872701277439948e+00
-3.909102272637634989e+00,-3.452534888508116406e+00,2.682880894945943506e+00
1.841127047595620958e-01,2.532418064450342232e+00,-5.960793799686177064e-01
-1.944841854001132964e+00,-2.229843684881545052e+00,-3.073326559916776390e-01
-1.143941860146874934e+00,1.073593565804050298e+00,1.170002620720600239e+00
-1.019663258107747605e+00,-2.950145138668485600e+00,5.256781925464993677e+00
3.924476206807756995e+00,1.723484990320363730e+00,-2.328886361260474658e+00
2.665094013501331904e+00,8.900152593239537557e-01,-2.887677508063837273e+00
1.232669347035312946e+00,4.149630915452450886e+00,-4.530532169231183737e+00
-4.094094705323772843e+00,-2.321818427434455767e+00,1.362029077437547642e+00
2.039360822204232260e-01,3.665352546080149043e+00,-3.597269591047851822e+00
-1.693362148763891017e+00,2.284384972853590767e+00,-2.823477672653719850e+00
-1.532194053400103728e+00,-7.386026847911925097e-01,-2.176667737161695371e+00
8.999347737403644576e-01,3.873673152496321492e+00,-5.154485050713525141e+00
-1.381143290179452296e-02,1.120303674170317398e+00,1.596197186745861085e+00
1.256444813533997173e+00,-3.424459651828113960e-01,-2.155763269671811866e+00
-2.112024920099850434e+00,-3.609671018010682797e+00,5.415008698101351214e+00
-3.941544001224109639e+00,-1.161855683361322278e+00,1.041557009505256648e+00
-3.387531244460231239e+00,-3.793860309605951553e+00,4.683081388430772485e+00
-2.189235559067888914e+00,-1.942961278557946703e-01,2.267685851559287702e+00
-3.639825635580391960e+00,-3.257890311414948670e+00,1.929200039786807430e+00
-6.765888223956607606e-01,-2.331316878979001306e+00,2.224188034482297086e-02
1.792810786226277653e+00,-2.158149568798985118e+00,2.928140271508255843e+00
-2.506278495625063218e+00,7.255322940629382877e-01,4.250462031644839378e-01
-2.773438720802449353e+00,-1.931018082342196962e+00,-5.257516994836660684e-01
3.514607123135578437e+00,1.241936201028776665e+00,-2.403066253557133880e+00
-2.910165903123829167e+00,-6.744234217391424924e-01,2.295172322173244961e+00
-2.988554696794739840e+00,7.801238664498461040e-01,-1.235332680260641025e+00
-4.379939801480890044e-02,3.274118363984123814e+00,-4.830524727821306818e+00
-1.959109414393033433e+00,-1.669156987322939267e+00,4.194969496641521189e+00
-1.297821341447000565e+00,2.144101986860676767e+00,-1.084101267463027929e+00
-2.675301647704621533e-01,-8.930027022722877295e-01,3.893966882672692087e+00
4.045176690197489933e+00,2.738298479364477345e+00,-3.277260439368833378e+00
3.247516009556742134e+00,-1.757972944437942997e-01,1.407444239256337548e+00
3.374391468314086318e+00,4.177399548647475314e+00,-3.796030926459243560e+00
-8.972535426726152563e-01,2.828430537642234732e+00,-2.349157790687259606e+00
4.184273662701512464e+00,2.350124621387164936e+00,-2.614455132609362575e+00
-4.026332219679444435e+00,-3.292532756901517921e+00,2.553725001625489099e+00
-3.278257452790273030e-01,-3.704402266695731250e+00,4.707171002941126225e+00
1.184581731164316976e+00,-2.215053996409011461e+00,4.144685705211797355e+00
1.578378903994550164e+00,-2.081794285589597671e+00,1.372808751615240519e+00
2.804447964419004347e+00,3.224553424320232953e+00,-1.350750538253161492e+00
-1.450863197508749591e+00,5.382432722338795772e-01,-3.390727030411153198e+00
4.225018564595698578e+00,2.905205818289504194e+00,-2.549074978549917159e+00
2.636760510482633268e+00,2.357980074335395138e+00,-4.496732040364722849e+00
-1.740082181980639797e+00,-3.795111344699258815e+00,5.456013585800411292e+00
2.732013422530410462e+00,2.004108247970147083e+00,3.982288998155779636e-01
3.948878490122172735e+00,3.122945727284066386e+00,-2.106576329787011037e+00
-4.140670683155608600e+00,-1.775423520630828200e+00,1.134260852681949094e+00
3.059623920652729367e+00,1.053702887460083559e+00,-2.711941624580825216e+00
-2.284644814740421914e+00,-4.387852521620428270e+00,4.355685828970181639e+00
-2.473104911217633151e-01,3.344259317882925853e+00,-4.415633343710091196e+00
-6.700057543089805723e-01,2.560712577795471123e+00,-4.573683464516118846e+00
3.145538902110014412e+00,5.140726945584523921e-01,1.483359427563586630e+00
2.042827592506624601e+00,-1.793569493118707836e+00,1.578727419065052207e+00
-2.130185188599594159e+00,1.620377667513438924e+00,-1.248166061453584552e+00
-1.752087467739338100e+00,2.076759828711978617e+00,-3.372737190711005084e+00
-3.829423170994096015e+00,-3.762781984069269559e+00,4.018576563969141979e+00
-2.381922311577988172e+00,-1.759027636139245621e+00,4.084365771112278054e+00
-3.496360860869085485e+00,-1.591639209597446314e-01,-7.420186508962001160e-01
-1.672090850775014736e+00,3.246856944916827192e-01,-3.110287817552479961e+00
-1.675628072228909859e+00,1.808109013825788924e+00,-8.434065695461446799e-01
6.764464176762122749e-01,3.405141143324506903e+00,-5.245009555538117318e+00
-1.299472930334219845e+00,-2.420868239056173543e+00,5.020835695938935750e+00
2.079120460332335441e-01,-3.406074894367523864e+00,4.463998332241128963e+00
3.078573094067601268e+00,1.123375085449034083e+00,1.168166247020827386e+00
1.563102500206114076e+00,-2.332900494939976532e+00,2.331413048367409147e+00
2.726670021318772008e+00,4.268445962352704015e+00,-3.730364492871618420e+00
4.026568723775239556e-01,3.486383320123179086e+00,-2.582455810722760425e+00
-4.065951488017002902e+00,-2.292496794720467523e+00,2.867752646425171026e+00
2.891413317378963566e+00,3.599921748597636029e+00,-2.036737197501597763e+00
5.085930656484554113e-01,3.050795327717028549e+00,-1.378969327266041933e+00
-2.134648974014772715e+00,2.169210358662694571e-01,-2.835422422426788103e+00
-1.735640810161760417e+00,-2.302925346018266650e-01,2.686409491946206263e+00
-1.257681772152511757e+00,-1.356597379544277893e-01,-2.856073772045207182e+00
1.931295030906741150e+00,-1.858177895642358024e+00,1.476781370993829112e+00
-2.397132682727498132e+00,4.246428305326636066e-01,-2.711106609677577772e+00
-1.698067432799732490e+00,2.185189355297748826e+00,-3.143990893716462232e+00
2.592334194482162069e+00,3.880701080875029962e+00,-5.354609744841535068e+00
-2.990540445721303175e+00,-5.616631241360049431e-01,2.044837932159843330e+00
5.726443460604097035e-01,-2.296133221099751154e+00,6.515635213718032892e-01
-2.106319710066445694e+00,-2.179977266465464414e+00,-3.316638328294932991e-01
-2.427195771095713273e+00,8.054400694969651164e-01,3.972587359000158691e-01
-2.279074023418151462e+00,-4.407284883867090386e+00,4.397812062224417673e+00
3.471842208252736484e+00,2.576278926596743624e+00,-6.845804449887789023e-01
4.112411521659867120e+00,1.811100611964358231e+00,-1.200327971235724434e+00
3.667417355709299720e+00,1.154430115021515268e+00,-2.039865531575697499e+00
3.188982464527932326e+00,2.043063393609624023e-01,1.575053152082407371e+00
-2.555055353116598482e+00,-4.090441268722782908e+00,5.250448943425124249e+00
-3.155245170934276033e-01,-1.340908198671176388e+00,4.263302285588858709e+00
-3.535050308966059429e+00,-3.890618992132153231e-01,-7.700702469258489113e-01
-6.552550822700334843e-01,1.440806952944314379e+00,-4.219572513617142029e+00
-5.966370657194903782e-01,-1.435045165768202846e+00,4.332681230605412992e+00
-3.789751873433708784e-01,-7.170542024811148163e-02,3.008592099420793975e+00
-1.322559604519155441e+00,1.115864157669378187e+00,-3.796328506199130537e+00
-3.504196694662150779e+00,-1.078288680131459648e-01,-3.847696316380342374e-01
3.858208482604084555e+00,1.754915756119188375e+00,-2.487374187961221672e+00
2.386043626940007378e+00,-1.089662280509394066e+00,2.458627091215694060e-01
-1.949245306646104625e+00,3.856184963489484585e-01,-3.004712359886469564e+00
3.403407587418085800e+00,3.065632682637020601e+00,-1.310725862882898385e+00
2.094752870942652390e+00,-1.515153110501826772e+00,8.431268226984783842e-01
4.361869896994930440e-01,1.832379872290876399e+00,6.739859248115651624e-01
3.276752573004999114e+00,-6.376055886258652494e-02,-3.471584995565585863e-01
1.628612205795463508e+00,-2.101304024499295764e+00,1.524122498685831273e+00
7.488827676206870620e-01,3.527871101452015878e+00,-5.209424470954478359e+00
1.937580629606959093e+00,3.902232358868865880e+00,-2.639042522915095557e+00
-1.583176211760272123e+00,5.695911967044576807e-01,-3.363164460065283468e+00
-2.123844525297821306e+00,1.307166400679237395e+00,-2.502623041791957048e-01
-1.118766748452063448e-01,3.485376622246697753e+00,-3.322033665505149447e+00
-5.722970484350496934e-01,2.580734450862842699e+00,-1.304011673090966328e+00
3.712903873374034242e-02,-1.209566395516808113e+00,4.159733046995424566e+00
-7.219240822166697047e-01,-4.905023187589993561e-01,3.399278988255816536e+00
1.494906977256729164e+00,-2.203400173218316382e+00,1.561748625316859984e+00
-3.582493146306488629e+00,-3.584562760190554087e+00,2.397412632594589255e+00
-9.307723426234183473e-01,1.998458599936445257e+00,-4.366441798287514331e+00
8.392196435446740432e-01,-2.981295926996462509e+00,3.005726735502471936e+00
-2.012875958842404334e+00,-2.626718321570497228e+00,4.991701141697283184e+00
-4.140891082298895576e+00,-2.228568206940701124e+00,2.565136138093023543e+00
-6.090672919521024076e-01,8.347454347331004221e-02,-3.131995020164605847e+00
-1.758444175031297796e+00,-3.791394911466864137e+00,5.467380563015109551e+00
3.708245422688943194e+00,3.831221487962643835e+00,-4.336673064876348072e+00
-1.559461727527041264e+00,-4.073891785550912026e+00,5.192313892809163001e+00
-3.001630145822201445e+00,-2.231370542657249878e+00,-5.639396620728079346e-02
-2.424496662749489051e+00,-4.060866477483349612e+00,3.044242355776725972e+00
-1.471684979572566165e+00,-6.713854444391260667e-01,-2.241842892932270459e+00
-2.007794001397413819e+00,-4.338669445174542894e+00,4.602730004888142545e+00
-4.507622883974340966e-01,3.153807824777627999e+00,-4.311352929964297864e+00
2.482412804754311253e+00,2.981881548714971242e+00,-5.070313845230117522e+00
1.871328375998808191e+00,2.368907590858776668e+00,1.193235717449346589e-01
2.086730218654062163e+00,7.692956002451496467e-01,2.044196743087179691e+00
-2.261465706662808550e-01,2.231590024925287352e+00,-4.778885624098950125e+00
-1.965826757782759060e+00,1.149151990951279068e+00,2.666164947452897005e-01
-3.603620824755617846e+00,-4.015706697119623136e+00,3.806849522885397796e+00
-1.954672737657595860e+00,-4.189574431134505339e+00,3.452648398246725758e+00
-2.317283986869647983e+00,-4.082432391622106138e+00,5.362522637893532895e+00
-7.856985925225189460e-01,-3.957611643847226190e+00,4.432857339682295894e+00
-1.400816509992626191e+00,-6.046722668930802902e-01,-2.320366643374077054e+00
4.145894755253603847e+00,3.223695310014006221e+00,-2.932137408854658123e+00
-2.841391025145807991e-01,-5.651393140520932085e-02,3.031722432510894905e+00
3.891159327447692551e+00,9.323227443579935603e-01,-8.329957201388898946e-01
3.588503235206763620e+00,1.827505195279709227e+00,-3.147144889252709632e+00
3.792106941887437799e+00,7.211492927970152289e-01,-8.801919120118510687e-03
1.522462134280458068e+00,-2.450448895304219832e+00,2.688779442647625917e+00
1.679620214561137859e+00,-1.989222496197825985e+00,3.539041811171059759e+00
9.292125780419578929e-01,2.556032236285860071e-01,-3.084322769074334225e+00
3.451487993433467683e+00,3.699137570275971565e-01,1.010627460588229498e+00
1.045282038402810532e+00,4.052790171798832830e+00,-4.841552631786870897e+00
-7.233458728724769804e-01,-3.721470167816923968e+00,5.177937443769875081e+00
-2.747746181689786571e+00,-4.297732199333921699e+00,3.753513731725350411e+00
1.547074703301345888e+00,1.843888752705971745e+00,-4.523818440789976414e+00
3.411879934100792156e+00,3.914911920864619255e+00,-4.651882279647692187e+00
3.903264532385475882e-01,-5.220662717126853813e-01,-2.262288458000268232e+00
-3.714333760553733210e+00,-2.704663451771965210e+00,1.039539272034690764e+00
-1.278153905780433641e+00,1.691091886259890931e+00,-4.057158980759688838e+00
-3.202028956422934280e-01,2.608400509274339196e+00,-1.062951750414179664e+00
-3.690703985237047124e+00,-2.974368270255566049e+00,1.518615731667911639e+00
2.497412529457009533e+00,-1.379911877397216546e+00,1.824692089435654196e+00
1.077716214037180320e+00,1.401180381642214590e+00,-4.262750587277039926e+00
-3.695239440043426526e+00,-3.645511266977134124e+00,4.411260025216607872e+00
1.656767301624879618e+00,4.151073585870880045e+00,-5.286641530222997432e+00
3.547559489873555627e+00,1.806136187434323137e+00,1.576397351866961338e-01
1.885153612057946626e+00,4.150050443119757682e-01,-2.840395894587918857e+00
3.417957168225437936e+00,1.227810219699742911e+00,-2.556622276567057206e+00
-2.113583921846625913e+00,-4.266162214749399162e+00,4.978200362942590829e+00
-8.731829068152113793e-01,9.311649788240116132e-01,1.491531740178689169e+00
1.917483022559576034e+00,-1.302805117692198866e+00,4.156579449756191147e-02
-1.919217930726872190e+00,-4.351330197142747380e+00,4.905400462662701244e+00
-7.533648994381041408e-01,1.226037492241895066e+00,1.107705919971072595e+00
-4.004309041010226444e+00,-2.720817977186082093e+00,3.325135127145068203e+00
-3.535009762109671438e+00,-2.987421175023729170e+00,1.356658651618042555e+00
-1.525271025406966796e+00,8.293017954831786165e-01,1.230586303105484225e+00
1.544272843903309878e-01,-1.054064363229802348e+00,4.024067752728147873e+00
-9.671646615179381457e-02,-1.983975542477668830e+00,-3.472767760878613386e-01
8.911817594623732131e-01,1.638851232013609716e+00,-4.480403122462305987e+00
3.332505782709362041e+00,2.847454982708028659e+00,-4.458707019563171947e+00
-3.548000967617143342e+00,-1.966294261504797580e+00,8.358165521293531297e-02
-2.369647836273644614e+00,-3.560474966011223152e+00,1.867269460472480214e+00
3.696437880688284938e+00,6.880982263388774056e-01,-8.665501539796086616e-01
-9.459873320292434551e-01,-2.956269272909751944e+00,5.297705828735685074e+00
3.988375811984619990e+00,3.049532674720343728e+00,-1.906302092282747385e+00
3.942976326353913930e+00,2.843620349351543286e+00,-3.628483416019965269e+00
3.718997374198330430e+00,9.470443303638624855e-01,4.887877121863362095e-01
4.076020555150908997e+00,2.698468958024111242e+00,-3.138816623341599943e+00
-3.032863319156011261e+00,6.869091320702704895e-01,-8.455995765755904836e-01
3.319927972686683049e+00,2.692674088200999627e+00,-4.325595910249602660e+00
3.784042458506877704e-01,1.568202125070777386e+00,-4.491186609422034515e+00
-7.688521486115632575e-01,2.531482125263962324e+00,-1.392407027696781263e+00
-3.851980621939781635e+00,-1.776217837429227231e+00,2.599063639249054258e+00
-9.024833110566105043e-01,-2.568545049153722726e+00,3.042518940620588808e-01
2.601957866478037396e-01,-8.300390187422503896e-01,3.846199524661168656e+00
1.565746101885176156e+00,2.778488188868835973e+00,-5.371194219100230427e-01
-1.517492206456675374e+00,-2.603849640943088684e+00,2.698705260461448097e-01
-4.999949490241462624e-01,2.865264244074515076e+00,-1.901689686982053651e+00
-3.237171029689325685e+00,-5.139784830705861340e-01,1.654923422881555695e+00
2.553895958231813701e+00,6.641614915241539352e-01,1.901569553779030697e+00
-3.200474792682708625e+00,-3.889559261545640023e+00,5.014584778678024435e+00
-3.739966233997215284e+00,-3.351838447607260463e+00,2.157821003440598240e+00
-8.989466842195199536e-01,-7.505183764260128787e-02,2.850372857004472404e+00
-2.848497835476431650e+00,5.932573137229515403e-01,-3.721658499391052467e-04
2.366285275135993516e+00,7.949439045927221281e-01,-3.005959951678424336e+00
-1.628450789280034394e+00,4.211230298104648440e-01,-3.219904038188726059e+00
-1.238058987922546317e+00,-3.148659997895304485e+00,1.252850856664132317e+00
1.228312857513947698e+00,1.809336923011483633e-01,2.785666930680883002e+00
2.529541503191781615e+00,-1.296459035132224491e+00,1.247448937879001241e+00
-2.504937067218945046e+00,-1.051079672713187252e+00,-1.593464756130597682e+00
-7.321744047329600269e-01,2.942473893350536773e+00,-4.302277410122612444e+00
3.226924154471381145e-01,3.151001525256334368e+00,-5.131475694884354510e+00
-3.954851384427326977e+00,-1.199066720690382670e+00,2.644935967645444252e-01
1.052190595989311861e+00,-1.559189231058316860e+00,4.168258072650974810e+00
1.134891592692808260e+00,-1.112893044634340189e-01,3.085126173144548289e+00
-1.546322156395924852e+00,6.809737830632460742e-01,1.489819668575977030e+00
2.685500945434471376e+00,2.944962335820470845e+00,-4.904762706289272245e+00
2.004888649881600315e+00,4.252623684303138418e+00,-5.033933369928477397e+00
-1.725370583103195354e+00,-3.814084746258579628e+00,2.535107032741573452e+00
-3.464137871265618784e+00,-2.234426223912540976e+00,2.498705013726921220e-01
-2.792695865708507696e+00,-1.677091361877317555e-01,-2.060435235174802315e+00
-6.315229382008776815e-01,1.685725281963526223e+00,-4.348869365383809082e+00
-4.167149447072708845e+00,-2.971881680492511446e+00,2.275854892549108666e+00
1.428184277884849696e+00,-2.348407390232992942e+00,1.857543836631331269e+00
-2.691284226273069180e+00,-4.342035843965779685e-01,-2.005508068380704945e+00
2.598678460372302101e+00,4.339447108492790584e+00,-4.210624080481032649e+00
1.346976811482686553e+00,-1.802540213063883456e+00,3.999686957995427505e+00
2.543690377291436544e+00,-1.205964420585194929e+00,9.725230162802844802e-01
-3.051855523798432390e+00,-7.914728074780623401e-02,-1.831000014026753275e+00
4.078756562227225047e+00,2.348760746054377346e+00,-2.930726453826188127e+00
-3.201254088970890255e+00,-3.108485179186468272e+00,4.649571634322811953e+00
2.235517343843741178e-01,-2.320453111335661234e+00,4.075872218525494750e-01
2.946404055732940730e+00,9.267371220752825822e-01,1.439652497300272893e+00
2.180025796355361756e+00,-1.392773554426516069e+00,6.210895830417044738e-01
-3.646497390395947225e+00,-1.993171913758552627e+00,1.568324224702135339e-01
-1.400131609385833364e+00,-2.073471887909376754e+00,4.750165080741377999e+00
-8.708431577542845303e-02,3.440710088775139841e+00,-4.615506496154526239e+00
3.007730271223854945e+00,3.923834617899992772e+00,-2.746587760167253034e+00
-4.048335531903250128e+00,-1.635282024191059724e+00,5.496224151534228053e-01
-2.676790741096528148e+00,-3.774562504076300895e-01,2.163608546163364732e+00
-1.904416000201020198e+00,-1.540069529448363506e+00,4.090512251253112908e+00
-7.468617928398321171e-01,-8.344335130381804744e-01,-2.140266175882342026e+00
-2.862779830339071907e+00,7.693387172977583788e-01,-2.114206341734681693e+00
1.474456935314727712e-01,-2.591265369156683818e+00,4.908754722677466376e+00
6.284037837097550261e-01,1.864865686314577831e+00,7.086261956932142780e-01
-4.035535104368339177e+00,-2.111189157065055166e+00,8.896154285266162365e-01
-3.286387457499996501e+00,-4.170912861226733881e+00,4.076824594174177641e+00
-3.578281478013634054e+00,-3.928239957244365588e+00,3.395694187347111814e+00
2.116271620612581117e+00,-7.413609609280574775e-01,3.146056171634913579e+00
-2.547923802606860022e+00,-1.195331156968919339e+00,-1.389267373349300394e+00
-7.733360565119289376e-01,-3.042648480426849433e-01,-2.722658961192001126e+00
1.821606633638445549e+00,2.772398006336499243e+00,-4.800636970047787444e-01
-8.980558030330093588e-01,-3.974169285062794099e+00,4.837568444556685776e+00
-1.011637663611526294e+00,-1.292380515951848885e+00,-1.557116855729240301e+00
-3.461980248606878252e+00,-3.900864224796321444e+00,4.714571045128094440e+00
-9.330686134675027568e-03,-3.383725234699558548e+00,4.691571627838471592e+00
-2.776856223274616342e-01,2.306054078634026894e+00,-4.492335586400748593e-01
-2.696720754240740536e+00,8.478331417422383387e-01,-2.321158627553123299e+00
2.676640261475040639e-01,3.479919200171538218e+00,-4.957361457124563664e+00
-3.946552438125916051e+00,-3.387042460671032540e+00,2.416410904990344832e+00
3.334200118167633065e+00,4.122813302200335706e+00,-3.530329416134494469e+00
-3.324562162373367880e-01,2.019298852885282880e+00,-4.655470019073295163e+00
2.623381998610236021e+00,-6.737782112212797533e-03,2.304716127697508110e+00
-1.386340628504271200e+00,2.349434547600473877e+00,-3.727611052003175995e+00
-3.044511845072850886e-01,-3.720328471551856087e+00,4.413318480455922455e+00
-4.193980885770648648e+00,-2.304078690026750476e+00,2.340274656189643920e+00
1.183744198635052758e+00,-2.622788198222482325e+00,3.763798049416567260e+00
7.862833997923310281e-02,3.666107394223618865e+00,-4.190409721349131367e+00
4.533862409770982316e-01,-5.756470911665100276e-01,3.594198759811584321e+00
-3.080095253056709392e+00,-4.063397410630804063e-01,-1.640531051565073950e+00
-4.807036617831479952e-01,-3.798032891443225090e+00,3.795654550324419230e+00
-3.425034016701438144e+00,-3.456832249279909508e+00,2.004921397653466109e+00
3.866693470634083418e+00,1.710914256257917376e+00,-2.942742181738360330e-01
-3.163499992944083794e-01,-3.702938110085287615e+00,4.706520347027113083e+00
1.385561090113946792e+00,4.246544923741147670e+00,-4.431915897202495458e+00
3.315233914671871673e+00,8.596052751288728588e-01,-2.148209206239052538e+00
-7.420888289769419499e-01,-8.603220132079216764e-01,-2.071917496549196436e+00
3.646330486093304124e+00,2.202850637652665533e+00,-4.093008634982764904e-01
-2.482101470425959633e+00,5.211374179288252861e-01,-2.659802975771557776e+00
-5.106131078357935005e-01,-4.775168738192546725e-01,-2.491610366065180493e+00
-3.722882654348715459e+00,-1.327769495401482258e+00,2.225920122902051990e+00
1.150730670801196398e+00,-2.608678959441027345e+00,3.870623993884442893e+00
3.892039027709013777e+00,3.804530802941182621e+00,-3.715439262760491079e+00
-1.016611738684446653e+00,-8.471824669548355669e-01,3.705380769129935192e+00
-2.030867993837285113e+00,-3.538106261892684512e-01,2.610017222068802933e+00
-3.754415255635238147e+00,-3.681485299966555491e+00,4.291349588958662586e+00
3.001589896969227844e+00,4.017106628095271859e+00,-2.985537898659088363e+00
-1.742061911147664954e+00,-4.057711390834412235e+00,5.395890624032143812e+00
3.120101123975282498e+00,1.875541720155939229e+00,3.749529388903252158e-01
-2.526521864583490373e+00,-4.012971763909269463e+00,2.945109271227205561e+00
-3.167115522026848762e+00,-1.921876976146541738e+00,-2.788156827912660618e-01
-2.224783285204694039e+00,2.454370302327064657e-01,-2.794648652508924247e+00
2.991569024249279174e+00,3.671898528302500520e+00,-5.030290601400044359e+00
3.399566548136166766e+00,-3.670676589302451082e-02,-6.382878654989165845e-02
-1.545176456528393416e+00,-2.849798905549813632e+00,6.829985135875086266e-01
4.250085073321456797e+00,2.506125241895709177e+00,-1.954948990060163094e+00
3.113053385414633834e+00,-3.190508424974684565e-01,-1.390149032925881711e-01
7.875596361346099972e-01,1.132192853815064737e+00,1.782357205832842073e+00
-2.432715919553226858e+00,5.724305978810857454e-01,7.843550065826037088e-01
-3.215708803928392090e+00,-3.581941802450646861e+00,4.856194024399096421e+00
-4.086989531736946013e+00,-3.154356940599809533e+00,2.342970065534136115e+00
-1.887757345041356061e+00,8.487825265618667014e-01,9.170532469884123961e-01
-3.577376091049110141e+00,-3.959849119388970884e+00,4.522605984805252000e+00
-3.878136566922434358e+00,-3.014704794124168252e+00,1.723132689501034820e+00
2.781341549518410172e+00,-4.344095253727338624e-01,-5.395753988757220343e-01
-2.521185379770177537e+00,-2.636132512316379906e+00,4.833923736104000390e+00
3.952105002090241292e+00,1.843804600468823995e+00,-4.985208002321022125e-01
1.960246917663641897e+00,5.322810122225607454e-01,2.301076761035770968e+00
1.640899759428507521e+00,-2.293348964881573693e+00,2.388548807305488353e+00
-3.058233371505446385e+00,-4.178773665731150722e+00,4.852259498711712027e+00
3.706085393895085511e-01,3.563499842926342587e-01,-3.321101151309640009e+00
3.224361031002423772e+00,1.388328484168103394e+00,-2.988925772923588298e+00
3.845582888439284641e+00,2.070758355846398668e+00,-5.602327923165097978e-01
-2.364565652900819881e+00,8.077774022694975686e-01,3.960176497088586101e-01
-1.925462197056939662e+00,-8.422083292846465064e-01,-1.970143300313750512e+00
-2.974431670778965753e+00,-1.998009528105742394e+00,-3.501750948331907587e-01
-1.010107928676131417e+00,-2.729469909289132357e+00,5.173473931910664625e+00
-3.842744399334580230e+00,-2.085942975257167209e+00,5.719685341367899412e-01
1.811739080851302752e+00,7.098131241318318407e-01,2.189816339492486108e+00
-4.130765629225171764e+00,-2.812344224369514034e+00,3.168261573955352794e+00
1.688821366011170833e+00,-2.133572411693272386e+00,3.356876753651222955e+00
3.188565548214479684e+00,1.868048035971308751e+00,3.660106510999896479e-01
-8.316943775702911879e-01,-3.238329994324991468e+00,5.333482304611297131e+00
1.488576454066350419e+00,3.470372504672150527e+00,-1.855565517358232164e+00
1.791743219865536085e+00,2.352762423733561370e+00,1.264563529948084242e-01
-2.650358191803012353e+00,-3.319529804312109089e+00,5.118061413041040453e+00
3.659537627364274126e+00,3.680469553920694636e+00,-4.368364947859340042e+00
6.067114052454238710e-02,-2.654517432860918458e+00,4.920902184171062288e+00
2.415651161320770957e+00,-1.507632471631168203e+00,2.213516593813726896e+00
3.211628365576342681e+00,4.065356673899199969e+00,-4.859554275414763147e+00
-2.841369952176485913e+00,-2.185441970854268279e-03,-2.083152741960688115e+00
2.394006403693764273e+00,1.819779642639567596e+00,8.027933847851690397e-01
4.192174567161255361e+00,2.944366004033831086e+00,-2.519225217376868997e+00
-3.097967484375308889e+00,6.355930715808291165e-01,-1.014130898233960298e+00
-3.482229406140595174e+00,-3.251404673618883301e+00,4.567611896254537562e+00
-2.589599275090370245e+00,-5.867789752113080626e-01,2.552300573816228546e+00
-5.258874272681852702e-01,-2.594705534183450180e+00,4.910802428964118893e-01
-2.612113839578662944e+00,-3.312951927671373031e+00,5.158330800978999875e+00
-1.251168565962341050e+00,-1.438194709446054098e+00,-1.408083903801450543e+00
-4.228128873954527300e+00,-2.492911124610833085e+00,2.239479959521261776e+00
3.996090433501326561e-02,-6.007502530436599208e-01,3.642451124817951857e+00
-3.967007536436281678e-01,-1.822691459618989374e+00,4.656844158889489549e+00
2.425096157589210044e+00,-1.392077951084849996e+00,1.267784919143090328e+00
3.073452738098987780e+00,2.465269258091907556e+00,-4.297603865528341061e+00
-3.384009837830363132e+00,-3.439765308012329381e+00,2.017584791559125623e+00
3.656762505834205257e+00,8.116488205423336710e-01,-1.315889009170670532e+00
-1.874243983588505857e+00,-1.384124545129995498e+00,3.963243332867037338e+00
-1.340448484940273410e-01,1.544953504777937248e+00,9.184303874638305443e-01
3.032207816693331281e+00,2.784524485501469915e+00,-7.311698079350177348e-01
-2.099697999801079185e+00,1.831596798921810265e+00,-2.839845851800157472e+00
-3.999034522882549680e+00,-2.799366849359729681e+00,3.385530908089458446e+00
3.010118214980793017e+00,-6.833184893263185566e-01,7.990381621768322118e-01
-3.472776022024655962e+00,-1.637888853759971841e+00,-3.590186900132618097e-01
-2.222163587029418963e+00,-2.431882457602842607e+00,4.736328425628235195e+00
4.208966964094911667e+00,2.409707619911628296e+00,-2.384849253936071722e+00
1.940255519935958128e+00,1.355050729539872156e+00,1.460496421994328831e+00
-5.396979148714416974e-01,3.687277153035188326e-01,-3.426915313480710434e+00
5.813306549144953150e-01,-1.966777993663676449e+00,4.512360446221651777e+00
-3.955614119555085573e+00,-2.454186896157686704e+00,1.152237148812340850e+00
2.432679747542758619e+00,8.170235158473992954e-01,-2.971496719777777518e+00
-2.805165101829830476e+00,-2.115984163841091892e+00,-2.639600971258317386e-01
2.453379085756823563e-01,-5.723769961385001270e-01,3.629582856669024693e+00
3.000861242749353064e+00,7.544645204177632403e-01,1.519978742248514703e+00
3.976112960923912532e+00,3.398069361298103441e+00,-2.689379229620570300e+00
2.747269858529373110e+00,2.160371369164105548e+00,2.143827571580046443e-01
2.131646528830800635e-01,-1.370889885573564060e-01,-2.800647840557644486e+00
-3.394302213889310860e+00,-2.752553958861769789e+00,4.251248517162378171e+00
3.581118947128683061e+00,4.952047217215718167e-01,8.684222409689712485e-01
-4.179543805094413145e+00,-2.324008362830999097e+00,1.693611775827690957e+00
1.278280862898753811e-01,2.898189882224396108e+00,-1.354486068594997983e+00
-9.976245544743153268e-03,3.234497411980641779e+00,-4.853742074119359984e+00
4.004657686691139307e-01,1.876556293420910349e+00,6.573339096133564707e-01
1.417272351503855665e+00,4.231586650717483522e+00,-4.422990968358692321e+00
-2.399591256437754172e+00,-4.192748193674975532e+00,3.427646808294998682e+00
2.196836854873949640e+00,-9.371267165222302298e-02,-1.842469090862713266e+00
-3.842123903833710497e+00,-8.370937323765554883e-01,9.886529926481507635e-02
-1.598107237471436903e+00,1.839829925017296919e+00,-7.745192396997968576e-01
1.084549127284502257e+00,2.518045844669769551e-01,-3.011302102939844350e+00
-3.530138753629847442e-02,-3.613905605702131929e+00,3.989278315997482061e+00
1.792522141589165119e-01,-2.345715492508705591e+00,4.826976390420149698e+00
-2.681191101801306154e+00,-3.080095327991105858e+00,4.975500387153187098e+00
1.226856576789227660e+00,-2.611067766797339651e+00,2.394270213536568548e+00
-2.456879065993727185e+00,-3.691951460913295069e+00,5.357404125295098574e+00
2.930731490425823704e+00,4.097227326127795166e+00,-3.287717314187131201e+00
6.697685043191733967e-02,1.966987399998126884e+00,-4.708049975327647907e+00
1.919035943780383890e+00,-1.997159541002180960e+00,2.056965202763581413e+00
3.421842513944332698e+00,7.282003007868075306e-01,-1.675068768166539268e+00
-3.702331974814452309e-01,-9.080418190335032280e-01,-1.957229281873214211e+00
2.566026561706617137e+00,1.378730667420059675e+00,-3.552982748663558343e+00
-1.120987835985425063e+00,-1.450937101719836919e+00,4.286351248738453634e+00
2.619314576725035870e+00,2.929806182916236068e+00,-8.073954116760793109e-01
3.948777373828242343e+00,1.484485481117859162e+00,-1.972965265405126623e+00
-1.019094784518341373e-01,-7.606086365095680035e-01,3.802043632606058043e+00
-2.559678307925961072e+00,-7.849378543802967290e-01,-1.809440553521400430e+00
-2.673788148923923469e+00,-4.322003698754170564e+00,4.045292675165544694e+00
3.921459227434306083e+00,2.974003264341514186e+00,-1.791546460531394880e+00
1.667270382027979947e+00,-2.197300451441767777e+00,3.292846066271579275e+00
-1.288316434805247823e-01,-3.492421587291103524e+00,4.748414839853102976e+00
-2.032569517915859603e+00,-4.563279878935377343e-01,-2.321346866865622971e+00
-3.405074818009409920e+00,-3.782308913939750106e+00,2.677418331421383968e+00
