6.465874991012841022e+00,4.858257927696314482e-01,2.999733558650257703e-01
-4.728319758525658667e-01,-2.273393283822069399e+00,1.146822640469313592e+00
5.620323841624476735e+00,-9.889400624335580314e-01,-1.032414701590604056e-01
4.853711271431485841e+00,-1.052854492410723486e+00,-6.200521367205600320e-01
1.774146871162247674e+00,-5.113722605133095289e-01,-1.462277636689419902e+00
1.063558039980161629e+00,-5.001178536138419783e-01,1.622592864976394988e+00
-1.948615579884550142e+00,8.523628294016216689e-01,-1.554861006001595713e+00
1.817506328226336842e+00,2.268112281518309903e+00,-1.079571301183688270e+00
2.078632180084788672e+00,2.906459881570672810e+00,8.005282689000918772e-01
2.481417753173590146e+00,-2.622118978155753677e+00,6.536057562107330243e-01
7.463884383058276839e-01,-2.422369973068480231e+00,-1.038552567516440650e+00
2.583638009572288396e+00,1.911309267608206630e+00,-1.111707133960059934e+00
9.869043091782438992e-01,-9.669673453209252090e-01,-1.498218019552619351e+00
1.661584000008085926e+00,-1.497483091612467510e+00,1.409274451247438220e+00
3.687492601277179149e-01,5.644987381177601210e-02,1.636529332044131868e+00
-6.179055086649083428e+00,2.432862674673988423e-02,-6.414792906355613056e-01
-5.422275244644560566e+00,1.323594416811342045e+00,-4.081751123569745676e-01
5.076070399184240856e+00,1.454413214633091478e+00,1.098276785093157182e+00
-3.734306502862497545e+00,-1.240565648791155828e+00,1.083277948120006773e+00
2.454511645724024138e+00,-2.700233601950115858e+00,4.558350058175530961e-01
4.480746626995321336e+00,1.336693523782775506e+00,-8.789503082666774159e-01
3.251215087074994514e+00,2.550693416187829410e+00,-7.047204248642103819e-01
4.190385569346116057e+00,-5.459330807764833926e-01,-9.938552694887607952e-01
7.907463692487584073e-01,1.671259442271734397e+00,-1.376711562476728323e+00
-7.610545849845039568e-01,2.744054683499553171e+00,-8.453318886517253716e-01
3.774604802812173254e+00,1.057568375712586439e-01,1.480928199446570837e+00
3.568855315061769673e+00,1.057004640701361131e+00,-1.175411310668088349e+00
4.138333430498433607e+00,6.028281213763341251e-01,1.393917868004029170e+00
-1.515673456599688773e+00,-2.286200566184318550e+00,-1.242881979946488302e+00
-3.485887383530552608e+00,9.197578618710134865e-03,1.230854855496038569e+00
2.045107020765235539e+00,3.242509950477387992e+00,3.278953836732282912e-01
-4.763309813163147055e+00,-2.338760982553645285e+00,3.513994942747054595e-01
-3.556532526651667303e-01,2.171829885499904744e+00,1.172812434498564427e+00
-3.905016194405315222e+00,1.128309567648591027e+00,9.257975990341373862e-01
-3.386187165006963262e+00,-2.770955813761326159e+00,4.611538341462110835e-01
3.164170853710964071e+00,1.576534354003050087e+00,-1.114908073828161150e+00
-4.608743575155306083e+00,-2.618143946938415567e+00,1.203705607260850130e-01
-4.648456323738884954e+00,1.733691143187039652e+00,2.500122218112540984e-01
5.558364728245797970e+00,-3.809240015693328152e-01,-5.031763151985696458e-01
-3.605262821736683776e+00,1.045593075477680989e-01,-1.470421962826906181e+00
-2.901913719464072727e+00,-3.532963497543923914e-01,-1.558500904692278199e+00
-4.880801226281137772e+00,-2.453605540565967580e+00,-5.528501206774243393e-01
-4.322429587035446552e+00,-2.336580491967399364e+00,5.310225746842945904e-01
-2.064035617544943246e+00,2.328079719753977539e+00,-9.885848616674866030e-01
6.440461618770372709e+00,2.001963362982176475e-01,4.606952852785075603e-01
-8.539377093049247414e-01,2.954566035132400348e+00,-5.767798444090208587e-01
4.021488122025805301e-01,-2.526840558610127907e+00,1.003447122976829364e+00
5.459932452070344944e+00,2.495210020173106447e-01,1.100167568211586344e+00
-3.432349459720140938e+00,-2.789484633333758623e+00,-7.198460055903787014e-01
-4.004680256652473958e+00,2.079679967298802890e+00,2.510302606169499962e-01
4.784852751362625334e+00,-9.326067394589080406e-01,-7.106910889746109738e-01
1.465729427303083199e+00,1.393907916732309404e+00,-1.389586656681236043e+00
5.931469402413790171e+00,-5.398246015981561508e-01,-8.930116573672602920e-02
-5.826241495589870922e+00,5.214687248702413180e-01,-7.513968406529736299e-01
-1.427939579916182256e+00,2.701697941592928753e+00,6.786784475015372742e-01
4.898872392362997097e+00,-1.689621620520069367e+00,-4.555292053804343988e-02
-6.186756941094615492e-01,3.189977361996345184e+00,-2.222159950918669025e-01
-6.241015537215786502e+00,-1.083701202124307317e+00,8.739584633543476255e-02
5.852324857459157315e+00,-7.932080372490454279e-01,4.895331144291587555e-01
-5.604581600129906249e+00,1.095099857873810700e+00,-1.069342688280303655e-01
6.034543928767461374e+00,3.250339842168369908e-01,-3.648696129875224625e-01
2.895400206444659563e+00,-5.790633248614666106e-01,-1.282679623135202451e+00
3.236779684682888347e-01,3.261340236761061107e+00,-7.433668083071862109e-02
-1.837749895902811792e+00,2.649199508139220338e+00,-7.195476147409395340e-01
6.722419595523210223e-01,1.646665638132657206e+00,1.437528172693282258e+00
3.347466206557736967e+00,2.537606691220490429e+00,9.875129207039912149e-01
4.044602300130883954e+00,1.480963138775114096e+00,1.300418692425766132e+00
-3.460772047265486151e+00,-4.346814985149566324e-01,1.215030574243795680e+00
4.580574865234144255e+00,2.651949315268212981e+00,1.121186356027668168e-01
-8.376382132897867150e-01,-3.257601219158687389e+00,-2.925825993179727025e-01
-1.263899146323149258e+00,3.065296055331443448e+00,1.325460990624221513e-01
-4.276390586817182538e+00,-2.056752367884731481e+00,7.288579648992342674e-01
-2.975512296140402357e-01,-3.305191207969940592e+00,-1.150491377055445907e-01
-5.921329949409449567e-01,1.480464152952761570e+00,1.420890511120152633e+00
4.304156193249924378e+00,-1.977051527869914338e+00,-1.737962693371539469e-01
-2.988061671563427169e+00,-2.939048224010943233e+00,-6.252302946582863896e-01
5.285873004108186279e+00,1.084009234871245869e-01,1.138390634056823503e+00
-3.276631251040934778e+00,-3.031776734499134651e+00,1.551279287729442624e-01
6.436301722570995310e+00,4.560648047485629242e-01,1.498153904400225944e-01
2.739150600920982281e+00,-1.989665309624443768e-01,1.560513219269489049e+00
-4.675771501575543887e+00,6.011623882276566633e-01,-1.191955703984624249e+00
-6.040257702351134128e+00,-1.684439982806537284e+00,-1.886529032140185080e-01
-4.803101699539779723e+00,1.332096633677120723e+00,-8.678806732056630890e-01
5.031463799306003182e+00,7.225295448591518843e-01,-7.902710484956542158e-01
6.065008379520792303e+00,-5.933944673722105767e-01,4.467218698598675042e-01
-5.826662289503691028e+00,9.235298984676388878e-01,-1.617278772621964233e-01
2.502134293111911045e+00,1.850342780064815340e+00,1.382501710855305932e+00
-1.307698869038188549e+00,3.077487239714788103e+00,-1.009221595167002633e-01
1.008404815651850805e+00,3.049597255188940537e+00,6.500573989544732312e-01
-4.824027853845933578e+00,-9.445855498884618562e-02,9.023007500693048799e-01
3.391060305995002633e+00,4.461539746826268527e-01,1.533790332145789748e+00
6.544694204491423584e-01,3.201111193575199465e+00,4.978589451756302853e-01
-1.435967512543093738e+00,-4.712524302034606372e-01,1.516020167720881107e+00
8.909782516146920184e-01,-1.967001414441638785e+00,1.269758595991460570e+00
2.391573401401547727e+00,2.831092971891039589e+00,8.455413849757127398e-01
4.314659624508556668e+00,-2.010777712865943201e+00,4.415074978113480708e-01
2.612110502973058246e+00,2.666194187482059164e+00,-7.414757314868684057e-01
-6.083501004891801678e+00,-8.566247830001300079e-01,2.638890474694283172e-01
-3.286438113950134632e+00,-3.001453645591458219e+00,-5.302418916726778786e-01
-5.549849814583293073e-01,3.171586527126708965e+00,-2.524040427603840842e-01
-4.710099573103230242e+00,-2.390739418497178637e+00,-6.764966409518453627e-01
7.077381031154589275e-01,1.264849779497936089e+00,-1.474929025936073890e+00
-2.515323111202904638e+00,1.968644927479543227e+00,9.433931576224339199e-01
-4.443374007784699486e+00,-2.709787360705389947e+00,-5.733213340113350875e-02
-3.701850899146994944e+00,-1.868058749320646195e+00,-1.248299089196367451e+00
-2.110205221564648015e-01,-2.641972294872804827e+00,-9.924937502168085235e-01
5.155025549829935549e+00,-1.377500730476622914e+00,-1.505597777282610128e-01
-1.826726876226142160e+00,-3.453002367900702696e-01,1.476003101527382455e+00
1.898659998257657078e+00,-1.462437712204281759e+00,-1.259571016169856561e+00
5.771538280802821497e-01,-3.675981619562459501e-01,1.644521554936675400e+00
5.114968733804901468e+00,2.056381977009335227e+00,7.547215526496369176e-01
-3.999492857067625806e+00,1.694044367316813071e+00,-9.194865062852990434e-01
-3.316126915667610309e+00,5.228212185888497787e-01,-1.475487077529216595e+00
-5.451363471085231893e+00,-1.623649946385568033e+00,4.139860789933537677e-01
3.845075768176500208e+00,-2.258195797373894198e+00,5.194461970326908623e-02
-4.198299545634888830e+00,-1.905016326946578076e+00,7.922080836022294958e-01
-2.165051968020126782e+00,-2.857941154775110792e+00,6.680943822249105768e-01
-1.867499524893289076e-01,-2.188717535457932684e+00,-1.223042497149901653e+00
-5.515403626727564124e+00,-2.165433834997276374e+00,-9.867059593852547938e-03
3.087081905137803450e-01,6.984179197678513917e-01,1.602259580722615651e+00
-1.600792054966404310e+00,-9.105004859687086671e-02,-1.638174847454369587e+00
6.044397342113561500e+00,1.354974901013337174e+00,6.377714226193756941e-01
2.951395143493295681e+00,-2.388129387069728438e+00,6.870539222447485939e-01
6.275073170265407008e+00,3.706438065234941154e-02,4.662256519870505711e-01
2.366397594376113300e+00,-5.213853573088267357e-01,1.545770454086859980e+00
4.494849711925176017e+00,-1.561847731286507779e+00,-4.541463476511032327e-01
1.596623244572610067e+00,-3.284818809582209509e-01,-1.491520331522721676e+00
2.112641075592172069e+00,2.975974968803541287e+00,-5.506734453227549730e-01
9.286143183778428067e-01,-1.745655171592752186e+00,1.370877413493355013e+00
1.965437786440999091e+00,-2.222192975553979544e+00,-9.425144316319088444e-01
-3.598366023954256754e+00,1.382035194070281525e+00,-1.197963027839033634e+00
2.960141295622792157e+00,-1.019148663848133740e+00,1.398093182320053751e+00
1.468652485002338859e-01,-2.940251072808437893e+00,7.071025165786866129e-01
-4.587655431192686706e+00,-2.676204021317501791e+00,-3.915152415560703425e-02
4.198094736668266158e+00,7.203769601905813946e-01,1.386146124389450174e+00
-1.252631753530052183e+00,-1.683563689460188417e+00,1.331684199629660670e+00
2.862207572989400983e+00,1.797052387001265572e+00,1.363280623478930309e+00
-5.162138042207135236e+00,1.239001427787575826e+00,-6.928397250028376364e-01
-4.940413896232721536e-01,3.177163474625241513e+00,-2.532824866133800978e-01
-5.968779594554522561e+00,3.647666160014220171e-01,2.538498125949731343e-01
-2.536521893461085586e+00,-2.058722382537815587e+00,1.092126919448802358e+00
-4.624069474408996960e+00,1.702675137255869053e+00,-6.774817121223354333e-01
5.042461575741945978e+00,-1.542566922179258171e+00,-6.999414529227226955e-02
4.915406584825612768e+00,2.364982024922826831e+00,-2.366911215902145482e-01
3.110902445582488074e+00,3.122561187652744152e+00,1.683959490901826284e-01
1.263683362772126229e+00,2.035234597951794289e+00,-1.214773901500630471e+00
-3.780361899814175253e+00,1.217413320215375405e+00,9.306272657969032469e-01
-1.631108785743324852e+00,-2.825131388582547753e+00,-9.302607249463108463e-01
-4.911268870164258615e+00,1.724620622743458842e+00,-2.565552019189759059e-01
-5.047293122118913899e+00,-4.072353911820428829e-01,-1.213929479858684601e+00
6.009844169326868268e+00,1.671524870278895625e+00,4.302237134718490674e-01
-2.061733384191219542e+00,2.121970898851837983e+00,9.421485044750087523e-01
-4.656442784485083308e+00,1.718455289686973142e+00,1.902768744689332381e-01
3.430942086129332047e+00,-2.447443238095730056e+00,3.430665782662389862e-01
-3.475868222911893568e+00,8.973457965593423236e-01,-1.370954068386061264e+00
5.937396307310188526e+00,7.560625088274756100e-01,-4.042025094467300850e-01
-4.298491247142168348e+00,-2.629923096486707301e+00,2.694155456948230110e-01
-3.773085150896045459e+00,-2.970762693986920056e+00,-2.644717591047257566e-01
-7.880261913243720162e-01,3.085934476005165905e+00,3.060642919514077187e-01
1.022177665059856411e+00,2.468522370030055590e+00,-1.023563506804941126e+00
-6.973009204580195020e-01,-2.357771561552655104e+00,1.085792472754278482e+00
-2.342310368292169542e+00,-3.159738471774749424e+00,2.607051625158791630e-01
6.064796132017664654e+00,-6.306423892329614533e-01,2.705836490068244116e-01
4.366865723721788051e+00,3.512106517237421621e-01,1.374241770753480196e+00
1.172037035653358039e+00,-3.010650423339332526e+00,4.069641104736616555e-01
-1.254934642021090063e+00,-2.837874848196687338e+00,-8.878698151454382792e-01
-7.638852860740895645e-01,-1.825759150093389183e+00,1.306220465111975315e+00
-5.211591780100804705e+00,-2.345048030878951639e+00,-3.345838131332157794e-01
4.806514546004235555e+00,1.687303371958609244e+00,1.088872015344912292e+00
4.377741234270560611e+00,2.628645722439461263e+00,-2.797376004995881793e-01
-1.278730570952601342e+00,2.833103032655241105e+00,6.040911733709256604e-01
1.963718633701051930e+00,2.518360082691669444e+00,-9.145120413495767542e-01
-5.700925301478075191e+00,-1.011148517525575358e-01,5.168649069806177110e-01
-3.598308988943355491e+00,-1.236921492609900142e+00,1.117756172702753625e+00
4.687440430881349762e+00,-1.491390380237401114e+00,8.147322402772306793e-01
-4.422571919342327185e+00,9.147905622177259222e-01,8.369721786351076442e-01
-2.706951449063547788e+00,-5.264175735175883331e-01,1.376409188950712625e+00
-8.361333991791179976e-01,-3.044480305274486209e+00,-7.107908875570138063e-01
2.432195155296304367e+00,3.353551029254379229e-02,1.612656898936843053e+00
-1.032333599807323754e+00,-2.362697791781624090e+00,-1.197688717238762690e+00
1.047262676708161866e+00,2.338062834152420333e+00,-1.092281669116162535e+00
-7.656788681770806404e-01,-3.197517100887651065e+00,-4.328856408754192531e-01
-2.293443105305195573e+00,-3.013249370180105302e+00,4.386169382574134912e-01
-6.367400961920504976e+00,-9.806177295554103779e-01,-5.353290438267015450e-01
2.787709594903446053e+00,-1.212878569109223204e+00,1.375064141444425792e+00
1.400490894042945467e+00,9.296642028237148692e-01,-1.471365633687572227e+00
1.926853397527597878e+00,-1.600820799752559198e+00,-1.194726050556305763e+00
8.340729702890793407e-01,-1.705386922573483455e+00,1.394326072679897610e+00
5.970108488000430924e+00,7.826590858861286470e-01,-3.986298826088875424e-01
-3.324931978056816728e+00,2.103211911148638258e+00,6.262625697878818620e-01
-3.476676974805939402e+00,2.390523570182002011e+00,-3.430981538988038260e-01
-3.405992680059719557e+00,1.684906751402365677e+00,-1.119101387397508862e+00
-5.822643741784232496e-01,3.187570821458185932e+00,1.180619126988268486e-01
6.407175438594942207e+00,9.728586976039333978e-01,3.233474349636650813e-01
3.344597176108920156e+00,1.977448812955738600e+00,1.237408829835848101e+00
1.299863524734808040e+00,-3.036781959487084848e+00,2.377000586384690750e-01
-2.954530618105345230e+00,-2.700118297329427097e+00,-8.966763032849447423e-01
3.558497497712790558e+00,1.805532545627732688e+00,1.275871303159482828e+00
1.943614727502690931e+00,1.211517123727816392e+00,1.541350583865651380e+00
-2.241054886475450481e+00,-2.972257423869632209e+00,-7.496864542191588043e-01
1.353602949171857084e+00,-2.843048262003855076e+00,6.235218993764803930e-01
-4.079876611339685155e+00,1.562699993734437909e+00,-9.588562160590532457e-01
-2.869501355012148980e-01,2.014697243762599843e+00,-1.268175279308309200e+00
-1.107684497187181538e+00,-3.000392828911876197e+00,-7.210063702917839379e-01
-3.928406766491445712e+00,1.703825948882263575e+00,6.838335831059459968e-01
4.201258997810076168e-01,2.121905176276691840e+00,-1.202624355703745485e+00
-8.136658877112895594e-01,5.289420084202420824e-01,1.540567260482190948e+00
-1.583444391264270168e+00,2.319785257699069181e+00,-1.052909502155399801e+00
1.340255704169651452e+00,2.149954925035042930e+00,-1.166324692749144409e+00
-5.290320657347492350e+00,-2.281556413933300220e+00,-2.471589846354036168e-01
-4.525535908830668141e+00,-1.309015879999036180e-01,9.974940473024181964e-01
-1.575270692494322500e+00,-2.914225959902399854e+00,-8.603369252149271063e-01
5.049800119426507694e-02,-1.834085957703715630e+00,1.355477602955679650e+00
-3.802799598360085298e+00,-1.994650826788778586e+00,8.802235125619917167e-01
-1.935559438070450389e+00,-1.274608921635167702e+00,1.351239519718421711e+00
3.059363138056105047e+00,2.183917773621067759e+00,1.190452121939525876e+00
2.549872175960270049e+00,1.176440303061463188e+00,1.522122001386657208e+00
1.476411152824694373e+00,2.074764413033940880e+00,-1.186910834052290697e+00
4.921708969451904281e+00,-1.261454408379466763e+00,-4.705653771782456474e-01
-3.229040494966171071e+00,-3.023828179085185308e+00,-4.989303174585914546e-01
3.025987853151164586e+00,2.352086499071040393e+00,-8.606186820590475683e-01
5.212374457335140931e+00,1.146660379815923170e+00,1.108164657961773658e+00
4.509462032054464942e+00,-1.703307839207010010e+00,7.292340790654965321e-01
-1.593930901840397540e+00,-2.023696183867729204e+00,-1.342661987996161432e+00
6.022305850724664289e+00,1.662952699786045985e+00,4.432231527800769566e-01
-6.234215601853279054e+00,3.756022940895921147e-01,-3.487654609221201296e-01
5.933556555220434348e+00,1.698517001251388603e+00,5.279072842524510506e-02
2.501942465427534401e+00,-2.139938825053620430e+00,-8.667450682447257471e-01
5.058421082989027262e+00,-2.568125801619662238e-02,-7.859348842886338948e-01
-2.878481086509898090e-01,-2.180165010705916728e+00,-1.222576388159158256e+00
5.933225318757091138e+00,1.085212680632252624e+00,-3.164990713478608719e-01
-4.044679517881571762e+00,-2.718365578076441302e+00,2.362651609208948622e-01
-5.657697681679497492e+00,-8.557856367105851625e-01,-1.011674627481202071e+00
-2.052582886064757250e+00,1.302898165768294092e+00,1.284690183572671174e+00
-1.468266853291837759e-01,2.541601322792865769e+00,1.037992119058491536e+00
-3.901579993234428834e+00,-2.711140328422616097e+00,-7.160122677828717475e-01
3.685361067785289935e-01,-1.445691393294254334e+00,1.458791669298039606e+00
5.984695269177928267e+00,-5.454773080716975864e-01,-7.393047017943155108e-02
5.162568061710658185e+00,5.433589301191231735e-01,-7.949192361026901077e-01
6.364660794776432873e+00,1.208401525017227751e+00,3.242928766318185496e-01
5.095123018392464509e+00,1.900111546778755711e+00,-4.384371353385901338e-01
-4.008697479929463903e-01,-2.170338911122423387e+00,-1.231749552720867280e+00
-5.274923303166957567e+00,1.450575705498418744e+00,-1.981153542131303125e-01
1.907539515003161101e+00,1.293858112276184302e+00,1.539618271245314585e+00
-2.681873357084564535e+00,2.470577188599920149e+00,-7.353953335916696421e-01
-4.384914979761639131e+00,1.024951948567377036e+00,-1.166169052074997214e+00
-2.045429051244165297e+00,2.820387896399935368e+00,-4.519614400871866944e-01
2.253067939523630159e+00,2.673728739324287673e+00,-8.108723355339200189e-01
2.421372118350672675e+00,3.180766565946451685e+00,-9.664844602746686109e-02
-2.327355009250320794e+00,-8.451630864967665246e-01,-1.587019421450426293e+00
-1.113981851603275786e+00,3.094222148972174402e+00,-1.105331791979154432e-01
-5.496514815262631082e+00,-1.913095341184266163e+00,2.374425248151804391e-01
5.368266396858633271e+00,2.299763215003622907e+00,8.590885464157779761e-02
5.739650668888600649e+00,9.879680776603770587e-02,-5.210242281218725457e-01
-4.306726339860133201e+00,-1.209483444854733580e+00,-1.319244695163911629e+00
-6.334599620915400742e+00,-1.212875528099038869e-02,-3.699422801831733221e-01
-1.188126799872840644e+00,-7.880049525319794412e-01,-1.599639566335326446e+00
3.706238790878148670e+00,-2.101455701442373147e+00,-4.802029872039156877e-01
-2.729646674311559718e+00,-3.111009442105205469e+00,-4.774630069864635451e-01
-1.920562873127555470e+00,-9.656163360982363830e-01,1.426812622726730595e+00
4.122419348313212772e+00,-1.825505756821767411e+00,-4.417091775440525336e-01
7.386408173391330045e-01,2.904840525113735694e+00,-7.198097150024757029e-01
-3.707485668197701312e+00,-1.403092167742902241e+00,-1.387928684559938119e+00
6.168884518208124668e+00,-3.425617293247721351e-01,5.159691801388570642e-01
-6.072955244505020111e+00,-1.677251097216810649e+00,-6.903552806206400549e-02
-2.444162120480940281e+00,2.636379059134231984e+00,4.725781477031952837e-01
-2.688232933887542586e+00,-1.029016638526321532e-02,-1.594615601893668133e+00
-3.637522844495757912e+00,1.233477958534295649e+00,-1.259872038447161779e+00
6.155993490737035501e+00,1.185923929586843339e+00,-5.072362077964459592e-02
7.248001365312876088e-01,8.218742496342260062e-03,1.633163443960689021e+00
-8.430398565153807144e-02,1.573487079391108434e+00,-1.403591126142302192e+00
6.076944158528816864e+00,1.303680342277154791e+00,-1.976145149973885518e-01
2.876918867443126193e-01,-1.134241432175851355e-01,1.623595178911004355e+00
5.162459638005669760e+00,-1.185512819071898871e+00,7.188020809781962006e-01
3.968610167338878281e+00,-1.786758860334355159e+00,-5.712861421451222999e-01
9.124841846359201813e-01,-6.087445501228093692e-01,1.596255066232267872e+00
2.844036643279449716e+00,2.193986917019607130e+00,1.204823638949033437e+00
9.396498526175885990e-01,-9.770932856620860585e-02,-1.573432589065918652e+00
-3.884246790673982375e+00,-1.670508034176892309e+00,-1.277929958492264539e+00
-5.597428291013168078e+00,1.032400118948332141e-01,-1.020540256704149717e+00
2.672542703274238374e+00,-2.504982678239906946e+00,-4.675532171486598276e-01
4.076933309907194491e+00,-6.058066390158889369e-01,-1.025789113275987097e+00
-2.481774417255843801e+00,2.324338498606101755e+00,-8.779546331649027424e-01
5.110144234791533790e+00,2.133086774063138957e+00,7.519139026019737715e-01
-4.517060931522236977e+00,1.853360934137303628e+00,2.270855654084354691e-01
-5.379350999880578854e+00,9.791650350330841635e-01,-7.658327902922517083e-01
-1.851118672367382034e+00,2.995089118993184751e+00,-2.357295269544587568e-02
-5.073365818525969573e+00,1.334130137106988689e+00,-6.604521836904950760e-01
4.430452360662204270e-01,-2.773413047141349619e+00,8.452562556050785547e-01
-5.429295084101405600e+00,1.713425567339425803e-01,-1.062331546939734528e+00
-3.629460999727855075e+00,-2.059838770715021639e+00,-1.203468436440753964e+00
-1.874348597144332107e+00,-1.464027791387458866e+00,1.321944507835132621e+00
4.153569163285926180e+00,-1.500925063948164384e+00,9.975163313811077348e-01
1.988832986161760852e+00,-3.422205636229516124e-01,-1.464165306854113391e+00
2.571348055424237167e+00,2.169232381828817946e+00,1.250370071594821386e+00
-2.526781046898106897e+00,7.144053588186994874e-01,1.330271890173001736e+00
2.254639407961169351e+00,-8.235116921857608130e-01,-1.350014386365078423e+00
-2.470051911856884441e+00,-1.537732284780669145e+00,1.239979047561239778e+00
2.642538454921269597e+00,-1.597260262752648208e+00,1.278199078112526310e+00
-3.732534529459285988e-01,2.833261017449776098e+00,7.725580161729140860e-01
6.438832592170951052e+00,3.508055914928501218e-01,5.147153451653083689e-01
4.722423282138813683e+00,-1.517333644122151881e+00,-3.824326348320267743e-01
2.078980521694218986e+00,7.384942943876566801e-01,1.592667216983271850e+00
9.039290987989933024e-01,-2.206789991208080171e+00,1.151408496690681682e+00
-3.202578426813515566e+00,2.443626701037908966e-01,-1.526525038981537463e+00
-1.390614454748563045e+00,-2.866375641325739743e+00,-8.842187389089392058e-01
3.003878125446024949e+00,-8.263700234102257236e-02,-1.323682597020807261e+00
9.792549390901449380e-01,2.302064335348968260e+00,1.202675970274053041e+00
3.446975385234347100e-01,2.636382131152691599e+00,-9.551353376642317539e-01
7.445050338884687813e-01,-2.614223381431637794e+00,-9.097582363979431763e-01
-3.800625729693936083e+00,-2.911700550101611995e+00,1.606139626643373064e-01
-4.852119254302634133e+00,-2.538235514075335875e+00,-3.706120028636794572e-01
2.528373213663769103e+00,-2.781284918343865264e+00,2.772278732569294357e-01
2.818638961330945492e+00,2.984794303457186881e+00,6.850242444203176184e-01
1.354682723191812599e+00,2.401657056704972426e+00,1.165464983852076086e+00
1.153649053506267563e+00,-4.849329661853272189e-01,1.623985820770616151e+00
-5.629397693941935898e+00,-6.166633349625426641e-01,-1.007576841946333124e+00
-6.133690735877162403e+00,-1.295096994780256194e+00,4.095744677727670979e-02
4.324784634205398604e+00,2.338026426336778096e-01,-1.039900210289083970e+00
2.880897544043185210e+00,-2.338734031445856676e+00,-5.988366254369983377e-01
1.098060539386024465e-01,-3.130485453646073779e+00,-4.340959727706883986e-01
-3.175198761532789682e+00,-2.764590090295627522e+00,-7.910713644409086420e-01
4.765141580180213055e+00,-1.811374251426448811e+00,5.802774666651373814e-02
1.756645297668522954e+00,2.181812458550673739e+00,-1.126979418761330454e+00
2.452581748961570052e-01,-3.006331889311568251e+00,-6.240587750405093281e-01
-5.962595778246037703e+00,-4.420368355362198631e-01,3.616049302720102943e-01
2.728342121512247420e+00,3.143038541216489623e+00,3.512852054173584149e-01
1.294697340275434427e-01,2.503857584222236810e+00,-1.030462297287694451e+00
3.055992288027915560e-01,-3.219906908133201462e+00,-1.903624654003881755e-01
-4.760556624574378226e+00,1.465641477441363527e+00,-8.088923673172735418e-01
5.795556016711242542e+00,1.106537665731770620e-01,8.945142763911189121e-01
1.423930019286882676e+00,5.453417393374480060e-01,-1.521284186079117084e+00
-9.556426490894893711e-01,2.882255625161840307e+00,6.315055610584726642e-01
1.870496680351775298e-01,2.067251029869423107e+00,-1.246851588274844769e+00
2.772411632018523253e+00,-2.541373916880839356e+00,-4.253481762811029965e-01
4.501169596727925715e+00,1.450558283777158675e+00,1.229462616029808997e+00
-4.536826907921981622e+00,-2.614738778744924552e+00,1.984967988152021023e-01
-5.062790811592826401e+00,6.264417882452654185e-01,6.870066539833790120e-01
2.975276839011558927e+00,-2.678103664658213923e+00,1.294576724393536327e-01
2.618618830209848536e+00,-9.294914969665768467e-01,1.486577399484126483e+00
4.042535100436007944e+00,7.003904456583994742e-01,1.413004992227736123e+00
-4.524774154699923168e-01,-1.567338402100597161e+00,-1.473773323647209921e+00
-4.098549344931929350e-01,-3.280353279280132206e+00,2.302071267677529565e-01
4.209913294811450157e+00,2.742737984728325973e+00,5.422455333834407254e-01
-8.948021591088778370e-01,6.896287750329991306e-01,1.532185830623956413e+00
3.429894919075719084e+00,-2.464036070497535036e+00,-4.660665165284447187e-02
6.089491400910967300e+00,-1.590253183100733270e-01,-1.319442331571634708e-01
5.687518266787104260e+00,-7.369225008720436954e-01,-2.220377057154593325e-01
1.314139684167804578e+00,3.223926935632711377e+00,4.931967264021777653e-01
9.610768987543759634e-01,-2.534694408521116049e+00,-9.008855837041845893e-01
-1.071408795395150104e+00,-1.916195330901099059e+00,-1.375804322790177725e+00
-2.601133862191360446e+00,9.374146471623044929e-01,1.289117895266779668e+00
5.386963346403096153e+00,2.017006678070874859e+00,-2.204325987996523795e-01
2.529344518410830966e-01,-1.444587809764450892e+00,-1.445312044118508110e+00
6.384754899942463702e+00,4.175073262995584143e-03,4.239717498225935022e-01
4.590983628336755551e+00,2.575063069437693919e+00,-9.517303376005735449e-02
-1.416615200285686882e+00,-6.060383591588477392e-01,1.504011684383219194e+00
-6.448653170900556786e-01,-3.262915380932073006e+00,1.413818109955670421e-01
-4.909752590908436964e+00,-2.518115341940102780e+00,-3.369803488436537431e-02
4.980861974800802727e+00,-1.543128872066392931e+00,-2.265033900180982995e-01
-5.767501092799061979e+00,4.702608143657258100e-01,3.570182396087676624e-01
-3.666645747250461440e+00,-2.714709904407158536e+00,-7.800734008432986810e-01
2.013343874303046566e-01,3.136276093601238379e+00,4.733811756428714101e-01
-2.856806735615240456e+00,-3.078662790818856188e+00,1.869621916956753505e-01
4.744171737589487847e+00,2.238009474285927780e+00,-4.002362951010438041e-01
4.444209856431438510e+00,-1.849619902935109916e+00,5.766674723393668822e-01
3.116776249411777666e+00,2.963249642692038943e+00,-3.137565161075366316e-01
-4.487512699737190580e+00,-2.294703967358969088e+00,5.296554497805033845e-01
2.201140973824467828e+00,2.171764069610000458e+00,1.258599605009791622e+00
6.091541593971139257e-01,-3.122339998101411052e+00,-3.235027538773438405e-01
4.506269038706080643e+00,1.803331187594356289e+00,-7.183800133604089089e-01
4.555855843173108433e+00,-1.346346102043304072e+00,-6.141081287790829402e-01
-2.790883077486350672e+00,2.661358074309200905e+00,9.813478842570948213e-02
4.909253494330473089e+00,2.373260921218872888e+00,-2.388851920383206762e-01
-5.514161266552652485e+00,-1.465860003525988553e+00,4.937250365784025541e-01
-3.152985036732224078e+00,1.385781389079927983e+00,-1.295112202459983930e+00
-4.006800837267020521e-01,-1.527845257871955242e+00,-1.459593748375914934e+00
-3.034455450780416008e+00,2.400233619889284853e+00,4.504612479230947764e-01
-7.526739200615963910e-01,-3.243748804183649526e+00,-3.164072973058345006e-01
-9.555425313168413037e-01,-1.589103001591650743e+00,-1.452261925258936159e+00
3.633579806991864558e+00,-1.621686731859605546e+00,1.101230729968507349e+00
3.185028422148220351e+00,2.990177287138572559e+00,-2.420819203479704917e-01
-5.939702697673414633e+00,8.255726514626292589e-01,-1.057667700971497288e-01
3.051930981334524784e+00,1.131361916854292105e+00,1.493160402659597930e+00
2.584171865828194470e+00,-2.192806190153012147e-01,1.561104563302095460e+00
6.145067210061585072e+00,-4.443348996790285610e-01,4.455550315990690624e-01
-5.249971332152137293e+00,4.961711157092252300e-01,6.367347618180383417e-01
6.121346403078756104e+00,1.659777390416571130e+00,2.121662941088586496e-01
-2.171941642214083146e+00,2.414612773562578862e+00,7.393782096663711334e-01
5.018719756406198051e+00,-1.559274494634779185e-01,-7.748499055576802963e-01
2.273542447070538763e+00,-2.399107163253140218e+00,-7.128792756509718664e-01
-7.893393601462967979e-01,-3.094785670519299092e+00,-6.470718637415988628e-01
-6.236983183687982546e+00,-5.009328406234834219e-01,-6.257012189994942686e-01
-1.487718744970611295e+00,2.551674452877620514e+00,-9.238311520486345296e-01
2.641732060486087885e+00,-6.210333914174394065e-01,-1.314186866284169586e+00
-4.357533190408079626e+00,2.068446602742930907e+00,-2.541529686640537355e-01
-1.250865119996018127e+00,2.317931369686969667e+00,-1.091107383088167238e+00
6.299718950953908658e-02,1.398287883024951217e+00,1.499317361072086241e+00
1.189354367572993620e+00,-1.499975377158016210e+00,1.420858519956759158e+00
6.183481504604394274e+00,2.376268766538427724e-01,6.608176822477001000e-01
4.870312844534734786e+00,-1.703574893801456769e+00,-6.009979374712016292e-02
8.772389981446129248e-01,-1.041041517716445819e+00,1.546619931206133280e+00
6.356338467002530912e+00,-1.743337923717107052e-01,3.155054689621185626e-01
4.344140507165358045e+00,-1.863226778957202123e+00,-3.212386159099806515e-01
-1.275089166652034089e+00,1.875852313177764241e+00,-1.288735621366059458e+00
5.346309157182702165e+00,6.831627402704907315e-01,1.152371999989920459e+00
-3.019551087463770322e+00,2.614857846332359070e+00,7.027187214409222338e-02
1.877124614750434184e-01,2.590832471575766238e+00,1.027686411953209866e+00
1.941193184268653393e+00,2.602832477229137353e+00,-8.774914653090113426e-01
6.443557191940819884e+00,3.997781649251274105e-01,1.899794465328173976e-01
-2.278345003451423878e+00,-1.394291209489093353e+00,-1.490153889628595740e+00
-3.892640201161163382e+00,8.598825865051982209e-01,-1.310262584916743522e+00
-3.134819692872448105e+00,2.486408501032947971e+00,2.297545029995319288e-01
8.049583032703533370e-01,-1.658634874871736553e+00,1.379438979117884934e+00
1.602411027445359015e-01,-2.376968279825733443e+00,-1.094610777136511892e+00
2.191050707086148019e+00,-2.282587092929759809e+00,-8.521340736458400400e-01
4.940456138149887266e+00,2.005793369736742715e+00,8.693928920799316451e-01
3.148786822079749470e+00,-2.477292874462142969e+00,-2.355494560908923396e-01
8.932563790738712317e-02,2.409599724898269457e+00,1.137711606009183418e+00
5.177143394924030417e+00,-1.352564278689238675e+00,6.072270760673860179e-01
2.391976018075970156e+00,3.108079880296671149e+00,-2.932981924298674326e-01
-2.202590811604065557e+00,2.462703888852081580e+00,7.121122450166512685e-01
5.237566841139383200e+00,2.258672094295417931e+00,5.379627853061876852e-01
-3.638994496222378583e+00,-5.047947993262436733e-02,1.191246820342876767e+00
-2.005077706799053949e+00,1.247231864334607421e+00,1.296905344039829711e+00
5.944961201172975329e+00,7.772171624466848172e-01,8.356151308471642114e-01
-6.147986313484953946e+00,3.341485668222484717e-01,-4.604282558208258047e-01
4.289515243288867019e+00,2.687621503744340057e+00,5.249427911409052516e-01
1.069610399943586199e+00,3.045373362189272903e+00,-5.973602864582878702e-01
-6.451351229298727397e+00,-2.784886987974845018e-01,-3.141519980321338945e-01
2.607232158104305295e-02,-3.191073424060859143e+00,-3.140831878483639206e-01
-1.579426302973670149e+00,2.080028659513019296e+00,1.097011767518330849e+00
-4.901478454641657656e+00,1.711585749880282226e+00,-2.052115172681286126e-01
4.021709392837893304e-01,-2.902682430053285856e+00,7.411475158940573627e-01
5.948889193049764934e+00,-1.326594256930304361e-01,8.226251243869019403e-01
2.921586353019822280e+00,-6.546784675776081697e-01,1.507311284454223355e+00
1.948396268136432408e+00,3.837360041659362148e-02,-1.485940189332691119e+00
5.948057114282110369e+00,8.257522674220603154e-01,8.506302066035708043e-01
5.235220725050155899e-01,-1.541530298177385294e+00,-1.414947940931742254e+00
4.505262599895379694e+00,-1.911489155443756305e+00,3.995698551096836248e-01
2.421853043472419920e+00,1.883764014364681882e+00,1.369844228835271238e+00
3.874104772284507003e+00,2.147205471301425028e+00,1.107687642311044884e+00
4.546051240685577977e-01,2.574334272530207635e+00,-9.871186729301859586e-01
-5.180520936930491871e+00,1.512086968448490484e-02,-1.149016971253596697e+00
4.535975544759175193e+00,-1.310191120328877634e+00,-6.059954898536119572e-01
-2.792880450330223585e+00,2.061886891261240251e+00,-1.002573026039289994e+00
3.869522157630523207e+00,6.484576221343796298e-01,1.454057836476860821e+00
-2.663745102031869760e-01,2.389112403002511820e-01,1.600861901417047317e+00
-3.276943878053165893e+00,1.730801230986027006e+00,8.646546162250458023e-01
-1.747947077928890591e+00,-3.140710719505707349e+00,4.381338060072573204e-01
5.238601473294189681e+00,-1.145655691096241213e+00,6.910658838446869234e-01
-4.621179184195703393e-01,2.732760066607343941e+00,-8.600423633481720787e-01
2.202172674855651380e+00,-2.692163301396116371e+00,-4.709069521941632863e-01
5.047365460166258977e+00,8.464418459324447586e-01,1.174423238707009709e+00
-4.534965331202069905e+00,1.830976287879461983e+00,-5.267668550075235157e-01
-7.453662574684820630e-01,2.096851736591624160e+00,1.205804187461129384e+00
-1.952465951566872304e+00,-2.138772667653340509e+00,-1.302075891299531385e+00
3.447101786779037447e+00,2.828652304685725483e+00,6.832516244873491074e-01
3.737123393399222504e+00,-2.247357984485510940e+00,-1.827594435402733197e-01
-3.223606131349801895e+00,3.102262574332293465e-01,-1.510429419494306202e+00
2.232990162049431682e+00,-2.102479078680371316e+00,-9.371145543919066068e-01
2.309824316158554325e+00,2.031158600927251978e+00,1.331528007393719015e+00
-8.373583643253654785e-01,2.976341751352813425e+00,5.338238644320001391e-01
-5.157621478750717969e+00,1.429209114664146796e+00,9.113374513842985303e-02
-2.261187285892197529e+00,2.030599762817354659e+00,9.590888874483394222e-01
-1.635984278599617481e+00,-1.218544500729183300e+00,-1.545706095803906166e+00
5.451642402503341422e+00,-2.602446620668462662e-01,1.001274470328499921e+00
-1.321697887513545000e+00,3.112661679191750963e+00,-1.242593643693050837e-01
4.075024549837828580e+00,-2.158257582519906403e+00,2.370477693023819443e-01
-2.443514139038867938e+00,-7.919065767392126087e-01,1.375913911130417500e+00
-4.593778801562091729e+00,-2.659098295056568695e+00,-8.777687324569639904e-02
-8.323007390767070968e-01,4.902591175373536281e-01,1.573119241720900119e+00
-5.514439443588686984e+00,-1.436239468694133770e+00,4.793421321871212393e-01
5.342401311111696138e+00,1.934423151808536134e-01,-6.963337870270619456e-01
-1.964292771729001075e+00,7.597919919928191046e-01,-1.543132723542658402e+00
2.183362847381244087e+00,-2.804979767091652754e+00,4.261950257854411062e-01
-7.751587975855309676e-01,-1.735076926947582088e+00,1.343530492478654859e+00
-2.350243172433240879e+00,-6.907061008386112810e-01,-1.592987904772957375e+00
4.323539459266299012e+00,2.223828810681771628e+00,-6.032207414517730681e-01
4.012881918646990620e+00,2.707942519787526425e+00,6.698819019899925342e-01
5.743271445152179133e+00,6.651482528222381063e-01,9.445784599377567980e-01
2.299613050038616269e+00,2.315094864940776098e+00,-9.974654695287592521e-01
6.205879404976319513e+00,1.070736149062953668e+00,6.378272832953020277e-01
-5.438429474353692505e+00,2.863596912611114931e-01,5.620475359684622418e-01
-3.840936950624096458e+00,-2.433699769178790717e+00,-9.455238879676626240e-01
1.465057290653500655e+00,2.627210928783974886e+00,-9.004467556984433463e-01
-2.852729600085649242e+00,1.711446892840626122e+00,-1.181343439292279029e+00
-4.688465867612073845e-01,-1.185059102880846371e+00,-1.531530011267374425e+00
-3.928638787868281579e+00,8.078552357455472122e-02,-1.430050478926626845e+00
3.767412570099426095e+00,1.385678093481601536e+00,1.374939523716345535e+00
-3.222800413414365739e+00,1.368676130478910125e+00,1.036262109420072575e+00
-3.671828395492971797e+00,1.907061384461211428e+00,-9.203569156732532841e-01
2.664062683838999135e+00,1.867247821497396210e+00,1.370500870406363481e+00
4.959153803476990530e-01,-2.782887767578765992e+00,-8.120329821320627639e-01
5.889826105330180361e+00,3.016268867041733692e-01,-4.121756101499708946e-01
-4.379914036478389505e+00,1.865183101422613454e+00,2.469388983046430786e-01
2.399561766168790911e+00,3.064685999138066386e+00,-3.654404284015219662e-01
4.735760685395300484e+00,2.520689697432097365e+00,-1.145602724991498372e-01
-2.101971577646368772e-01,-2.661468824058818239e+00,-9.647840931006176346e-01
5.116366290142653206e+00,-9.729797754862559156e-01,-5.185476351618383273e-01
