-4.821155000870797736e+00,-3.426424126405541504e+00,-5.147491592436534980e+00
-3.296121624418908991e-01,-4.240689858614691943e+00,-9.077783044149414948e+00
2.452905542213994206e-01,-7.381397616948510709e-01,-7.481070075538170272e+00
1.602820243403167533e+00,-4.939534899541212276e+00,-6.434525472505811194e+00
1.540681970273812817e+00,1.997451018975932691e+00,1.007635073079729970e+01
4.702268395594885853e+00,-2.038250406790551583e+00,-1.935614254338696050e+00
-5.691989104522666487e+00,-3.567864020946142745e+00,-1.128218405713229266e+01
4.228454758679522030e+00,-4.091081012875015688e+00,-3.127486869131080205e+00
-3.895941598797206140e+00,1.957763795204397583e+00,3.120734766933608739e+00
-3.424107096820733886e+00,3.928780230733148748e+00,-6.082966296502113401e+00
8.045212319142459600e-01,-4.787049694279815526e+00,1.643645733182829138e+00
-7.949917152130528741e+00,3.432580973774125965e+00,-5.526980178091175588e+00
4.366331050464988373e+00,3.443914727740796433e+00,4.141780460245285234e+00
-2.522901881129061330e+00,-5.027762630172149194e+00,-9.724280670672774463e+00
4.287056069512074963e+00,-5.593655977480664454e+00,2.880354232587908569e+00
4.723178357760613011e+00,-5.856008629280691657e+00,1.057063902376229825e+00
4.772507249843426780e-01,-5.070337119313260699e-01,7.405694369318307047e+00
8.944749477041611385e-01,3.108426259193057373e+00,-2.469953909424312144e+00
1.567967449446560968e+00,-4.684186485240195097e+00,2.796621824392889089e+00
-3.744895770930466661e+00,-2.666635334533387525e+00,-1.193838790355388291e+01
9.084618729114175562e-01,5.759730589738072837e+00,7.838779026630524172e+00
4.372325523111252110e+00,-5.035486020629928561e+00,-2.320970314682131441e+00
2.872848110633656304e+00,-8.837267684840174886e-02,-3.444144158980527948e+00
-8.379270791187266587e-01,-5.742485803658308186e+00,-3.921640050045377635e+00
1.109372814607632873e-01,3.731522478655564079e+00,8.968738895531656041e+00
-8.355523912527322850e+00,1.305355506465363691e+00,-7.401501156588016883e+00
2.174758345341873955e+00,2.925194367116176863e+00,-8.644718573625229663e-01
-7.734002245848650148e+00,-6.368184203877753635e-01,-1.194713136982717394e+01
-2.942728679357995869e+00,-4.478067970062011405e+00,-3.756013288493737168e+00
-7.343940893462338693e+00,3.674646295073780156e+00,-3.733019277661048907e+00
-5.409303992471526712e+00,9.092598894120279551e-01,-1.127464218930964890e+01
1.629595211774617525e+00,5.741308832840319454e+00,6.563129826541827860e+00
-5.967453346085954458e+00,2.998209754852144027e+00,-1.170995106784924050e-01
3.408571491448379120e+00,-3.085196482915943506e+00,-4.426139024826664325e+00
2.349631869244047933e-01,4.340630204793894720e+00,-1.249792158337849957e+00
2.130459852277539756e+00,-5.289793546622333587e+00,1.890319570090556400e+00
5.302624679256966012e+00,-4.354492290634019547e+00,-1.047818074926641918e+00
-7.182784139788018329e+00,2.224597763987591570e+00,-1.036213200908572674e+01
7.268076156918787056e+00,-1.017623205333471503e+00,1.171193227850361929e+01
-5.310799526415750371e-01,-5.261908125593996566e+00,-8.511834283431937820e+00
3.799658847531627970e+00,-5.310429856831696327e+00,-2.968832618413890234e+00
8.001743437235568024e+00,4.404725510053148496e-01,1.185291792857572268e+01
-1.270166348014680091e+00,-1.428106994791161544e+00,-9.481200746629653509e+00
1.183283132226443213e+00,-3.668555940932543002e+00,4.256609351631449378e+00
-8.695092413500875139e+00,1.299605367001682943e+00,-9.216955403673653180e+00
7.763824636032426341e+00,-2.355395343749695058e+00,4.467341567173349404e+00
-7.744269591301923938e+00,-8.822809817216707984e-01,-7.689030355384057991e+00
6.644008385248917570e+00,-1.304910639104408798e-01,3.323597506080450792e+00
4.189201590880074377e+00,4.614918179184239300e+00,7.120039905418392046e+00
1.986216264577507218e+00,-1.410798550185650424e-01,9.254656567065206119e+00
7.191396449205069707e+00,2.068019432632752785e+00,1.206637714825752283e+01
-2.135958138957521957e+00,1.478839654946307425e+00,-8.255347006575908253e+00
4.576382045071007987e+00,4.369387053853198921e+00,1.062438338394910886e+01
2.982527940601755301e+00,4.884127849693132184e+00,5.011042899965492126e+00
6.329378164219767733e+00,-4.319646727616933468e+00,6.839291501086592007e+00
8.489785672385137261e+00,-4.002182488619388523e-01,1.068970726415034100e+01
9.544631127231745574e-03,-2.047024173025699056e+00,-8.435489276375434997e+00
-4.370164576763749587e+00,-4.207677573006081140e+00,-1.121971914258766034e+01
-8.630742215937951656e+00,1.939015947902038794e+00,-9.070046868296502751e+00
4.613305776389489132e+00,-4.512634941247585019e+00,-2.171543048402587939e+00
2.835631442458556251e+00,-2.167410708491244620e+00,-4.951239011505226273e+00
6.291319625606250021e+00,-3.827234220199652093e+00,7.876934308781975425e+00
-2.612148415326570827e+00,-5.039113477584352907e+00,-9.586621827703634580e+00
6.508727408145777993e+00,2.298352059903664646e+00,6.661976477657074014e+00
4.188101013696094554e+00,4.500973605794167831e+00,6.807916916290040810e+00
-1.742669646987651477e+00,3.580686162287843644e+00,-5.097150482001341132e+00
-8.039324877156985849e+00,-6.955840885971310561e-01,-1.161247653542492486e+01
6.087361769783514731e+00,3.318208216156031121e-01,1.235283361779670663e+01
-6.719350961419281454e+00,-7.369603948210758926e-01,-4.450647922241342869e+00
4.440398119934982901e+00,7.957815890536292791e-01,1.183472204546337636e+01
-4.088280475292904725e+00,-3.332325563865677687e+00,-3.303939819871593020e+00
-7.034493687637758619e+00,-2.412707260140522170e+00,-1.018188165574650306e+01
-3.533839593407118951e+00,3.577656687542565717e+00,4.258389039935016385e+00
-5.154638871374845444e+00,-3.949679485971458348e+00,-1.131198890936198787e+01
-2.414070239790942818e+00,-1.552859966300068617e+00,-1.076883802901784648e+01
-8.495070475396408582e+00,1.794423144872288711e+00,-9.326203285920193764e+00
-8.329040508251482677e+00,2.516354783102486614e+00,-8.648962695255383082e+00
-4.339213775600009093e+00,5.754064396802323067e+00,-2.156804462470585104e+00
-8.131725781579707046e+00,2.779426901349080770e-01,-1.141184792050483487e+01
5.495456107763915021e+00,2.169623931077842904e+00,4.067670501917638681e+00
6.956044474282420786e+00,-3.286941145389727925e+00,2.321815674661298790e+00
-4.963822653621474679e+00,4.826715462972788195e+00,-5.375548556735039618e+00
4.165322301105508496e-01,2.340528476739201835e+00,9.072253050542304464e+00
-2.339056624317462862e+00,8.640699068128627758e-01,4.833431095993948823e+00
6.111175610212678855e+00,-4.537299855837392926e+00,6.782055095503378706e-01
5.457258822100815365e+00,-2.627948110945981242e+00,-8.373668206752027388e-01
-2.038116643601527667e+00,5.143030399015809273e+00,5.774618530359470370e+00
2.170191536957797762e+00,-3.853313945226949588e+00,4.958857243155088135e+00
-7.915652355522383665e+00,2.092169066525621179e+00,-1.047573594156201615e+01
5.961421046285637182e+00,-3.212839345106423217e+00,8.973208363822605449e+00
-4.518693485003500321e+00,7.768206645387094600e-01,-1.085066297441182748e+01
-5.577326767269865648e-01,-3.925464687375125328e-01,-8.154490007182872091e+00
6.748052223617816203e+00,-2.014935859797920337e+00,1.076983408326076663e+01
-2.342098241153403038e+00,-4.107499143789691054e+00,-1.621649804983058774e+00
7.080224220040277849e+00,-3.004264467612963951e+00,9.353216526360769834e+00
4.793734291207789155e+00,-5.801473760855001771e+00,1.159743808901026574e+00
8.469802626933159218e+00,-3.334355575442132236e-01,8.853632447948548645e+00
1.033060426591284164e+00,2.849142140882208185e+00,-2.737849049697514303e+00
2.870262685064755459e+00,1.179454048484925632e+00,1.096418708038589074e+01
-4.626124994902223619e+00,-2.885916367370624069e+00,-3.445190560988903528e+00
-3.557648157584897497e+00,5.974320578649533253e+00,-3.854456789602647149e-01
-5.772321097646106125e+00,-3.548297749697804537e+00,-8.246197067306331618e+00
3.324007815551868195e+00,-5.530257764383543773e-01,-3.081697694763036122e+00
-4.072988988042874681e+00,-1.968719058850754600e+00,-1.210391671903896693e+01
-7.523117994339177272e+00,3.330269323394010605e+00,-8.478931037662327697e+00
4.614669491076822005e+00,-1.691155266808674673e+00,1.012852000737314562e+01
7.851626690484695636e+00,9.430409274039472933e-01,8.744872225245343245e+00
5.475089893375279182e+00,3.496065328920207715e+00,1.183242984742217807e+01
-7.287061505572384412e+00,3.548619057902855811e+00,-8.076025852165800600e+00
-4.384087174429234679e+00,-4.157957976817400869e+00,-6.134967404460470952e+00
-7.848839110022591825e+00,1.060005167648863988e+00,-5.518336724617237898e+00
-6.208271521398914139e+00,4.666636335545584657e+00,-5.882271951311692781e+00
1.470002253914449497e+00,-3.765319791376487313e+00,4.449135335065946606e+00
4.286605518149352534e+00,-2.103555239245483932e+00,-2.612965617102322113e+00
-2.285165645847101690e+00,4.814612443369829187e+00,-3.406725012632261684e+00
7.767982110284424202e+00,-4.948814305532123203e-02,1.209208854897202379e+01
-3.122734441558922658e+00,-3.319190960917277611e+00,-1.139244365408250736e+01
-1.503844646766649751e+00,-4.162887994031662764e+00,-3.029566938646316987e-01
7.145862085020293630e-01,1.645939395429220298e+00,-4.753444596713034542e+00
1.161070585855992654e+00,5.787731259277973273e+00,7.423997114071320347e+00
2.115133323591360970e+00,-4.613585164430426211e+00,-5.980123316061892957e+00
6.751447482443563963e+00,-1.235793731099762205e+00,1.148758368448307365e+01
-6.224257965262929293e-01,-3.195564302812404556e+00,-9.498127284683180349e+00
5.558586490247835243e+00,-3.103033736978475510e-01,1.175225112246904935e+01
-5.686982358758430500e+00,2.459125588989993005e+00,-9.786424565048548629e+00
8.012713102001976395e+00,2.710140436882684800e-01,7.547455599118214842e+00
-7.562122986325058527e+00,2.353797421195349404e+00,-1.018902672863037218e+01
-8.372232544969232526e-01,-6.009280811628750385e+00,-5.752902709883001009e+00
6.109676683881130721e+00,-4.542376560595329238e+00,6.045506445075314872e+00
2.795236321927482503e+00,5.825268549982215438e-01,1.054466013787854806e+01
-7.452949688218314384e-01,-5.534410924337218596e+00,-2.654394863263354498e+00
-2.042748145964595086e+00,-1.611584218386271417e+00,-1.042726623673040010e+01
-5.646057320654457534e+00,3.387235562129126354e+00,4.948630381919778554e-01
2.464770563638869483e-01,-4.034094672888614674e+00,2.540294169321311912e+00
4.313755454901215813e+00,6.446124644287676286e-01,1.178779317354397982e+01
-3.071245984264690421e+00,3.617108261568870109e+00,-6.355098454443539602e+00
-6.278404780402454755e+00,4.895184308157531028e+00,-2.336663206086147415e+00
-6.232780232221820427e+00,4.979150311759785730e+00,-2.102708699824135330e+00
-2.598886288327565186e+00,3.055747699180136223e+00,5.586430018786910701e+00
-3.102816908294391940e+00,8.988044601035649617e-01,3.824801766336322295e+00
-6.043171187788594523e+00,-8.788984772736651019e-01,-1.252518000573526535e+01
4.047576918652596056e+00,4.337315562825452275e+00,1.117048056456994587e+01
7.978223808606782264e+00,7.619526807384152667e-01,1.142300200308875979e+01
-1.855100688294416100e+00,-2.444384661160954320e+00,-1.054964603221150732e+01
-8.233610230814711883e+00,1.029323532376712480e+00,-1.116178773323053264e+01
6.423634043180588726e+00,-4.690687793274894268e+00,2.212705857445694146e+00
2.948553918621008130e+00,-6.065253200003485112e+00,-3.078601477933027297e-01
8.278849583580417004e+00,-2.656704136483949985e-01,8.184059771726280630e+00
-6.806250513471326258e+00,1.015285342580716454e+00,-2.887875425536448493e+00
-3.331518294941786085e+00,3.438861647304521374e-01,3.003608290718694285e+00
-4.107473281958815114e+00,-2.870768055694354892e+00,-1.200932616689477328e+01
-2.508988022233527015e+00,3.851055290495990935e+00,-5.467296490478158688e+00
7.871768194339110458e+00,-3.377094737209077602e-01,6.500317806123402598e+00
-6.921383568412832865e+00,4.486145636250335578e+00,-6.076576578449010668e+00
3.676279853947589160e+00,3.333124424880134384e+00,2.331395070526586455e+00
-6.184880443484075840e+00,-3.284945323122780980e+00,-1.030497045822660240e+01
-1.325253015255698719e+00,-4.796119436517210843e+00,-9.574659434585734985e+00
-8.046272661398234050e+00,3.384269165794533407e+00,-6.641751319885655924e+00
3.145263334181634396e-01,-1.462054142150863933e+00,-7.823201926878632584e+00
-3.803434420693760920e+00,-3.107271802874851385e+00,-1.182499744237835770e+01
7.215445332496569719e+00,2.327606793327354318e+00,1.064342853172201586e+01
-3.402468332456234812e+00,5.897902403911646552e+00,2.403329309752636700e+00
4.729993428797667043e+00,-2.691733856180327233e+00,8.895509197887740527e+00
-2.978070692464689362e+00,7.313244664272219309e-01,-9.739902249633956899e+00
7.327563812044759484e-01,5.217969058714208686e+00,1.541580197508186645e+00
1.192259736663095371e+00,-5.166732823424031729e+00,-6.887644414977507346e+00
6.849067024301713769e-01,-6.163120788846072173e+00,-5.345749782819234852e+00
7.816646347913484227e+00,-3.442593251027605827e+00,7.735429688427000627e+00
3.546663787002134249e+00,5.031493299088547921e+00,9.072459492087832089e+00
7.292628195653938050e+00,-2.490142380878805017e+00,3.054568892688020121e+00
8.436882790708066793e+00,2.078129955044102084e-01,9.814459964842185968e+00
-4.711152023449765913e+00,-4.404566586044458276e+00,-8.093773942180932934e+00
-6.951811690854655446e+00,7.428338123414899297e-01,-1.195028537172993843e+01
-2.689609879520735269e+00,-4.587599310800363206e+00,-3.493286820604141862e+00
-8.494184746566514121e+00,1.387900428107096351e+00,-1.004960193463671736e+01
-1.928729391370391344e+00,-1.133939725963577505e+00,-1.007924206316718951e+01
7.428450744002238482e-01,3.026141138524703234e+00,-2.735088344577248254e+00
2.513899756563080512e+00,-5.637371831348791495e+00,1.284356740328044921e+00
-3.734816319956403952e+00,5.269161860472959091e+00,3.125899020747123558e+00
-7.389285616147802216e+00,-1.139868217366705849e+00,-1.226874841501963864e+01
8.368297674129388852e+00,-2.480769927471735414e+00,8.290947570039898906e+00
-3.615804735421213056e+00,2.104806120653850865e+00,3.773811081698151160e+00
1.066012950224604516e+00,-1.378329831866364819e+00,-6.845130509482900472e+00
5.986224195216168553e+00,-4.911674132480789545e+00,5.337112027783167179e+00
8.070201074723673429e+00,6.369235598467170023e-01,8.748771035571081711e+00
-7.250395246740149346e+00,3.747994414022583487e-01,-4.595545295057799073e+00
2.429650310659097645e+00,8.745976519833406071e-01,-3.198506291411040703e+00
7.021234879048074973e+00,2.426215171278600646e+00,1.104892854092816101e+01
7.030518756448380202e+00,1.883558346564626174e+00,7.503204352314276626e+00
-3.248373021535009286e+00,6.146814490479566295e+00,1.022343641790352864e+00
-5.131336070093722945e+00,-1.915452440105985144e+00,-1.244609231401485872e+01
-8.142589449378895949e+00,5.945740671517192322e-01,-7.096738268025314156e+00
-7.159144818719888725e+00,2.806520803761072269e-01,-1.211536716195112007e+01
-7.122257591010572320e+00,9.401594094861126516e-01,-3.576145407621648786e+00
6.010377886498561750e+00,-2.215835420903220498e+00,1.023611740253170055e+01
-6.617375246897765351e-01,-5.850132515995422722e+00,-6.864117188027260674e+00
-5.870708467215884907e-01,6.128814551485240791e+00,4.866056944757458425e+00
-5.044274569418630172e+00,-1.988518216625396517e+00,-2.657184641414795490e+00
3.725717870144818367e+00,4.417681668196696831e-01,-1.536237288603660822e+00
9.595054216302398853e-01,1.626903622291980600e+00,9.254916447223388687e+00
-8.343743988653415045e+00,-3.027993314939469993e-01,-1.042574542637557755e+01
3.230502131382047892e+00,-3.924310998399858530e+00,-4.745971267257945492e+00
-3.678725833623010644e+00,6.082702106130600583e+00,1.156217907409308188e+00
-8.015799668502003428e+00,3.109460667654516453e+00,-8.179643304967552098e+00
-3.741769484961921410e+00,-4.560457754090273319e+00,-1.045139241101833427e+01
6.959331987366855543e+00,-3.054331248912430574e+00,2.363277175422928700e+00
-8.443124646093748353e+00,1.919655692522514556e+00,-9.447200056541234403e+00
8.544091162784013260e-01,3.663071436999712382e+00,-1.642071878903497595e+00
7.839574828212882984e+00,-3.201999599202229430e+00,8.720707436489908204e+00
-2.930430704137348297e+00,-1.039288043588472377e+00,2.169524596874998323e+00
5.477959408214561066e+00,3.158572383589091537e+00,5.946384653551442412e+00
8.453156104166881235e+00,7.548987903920328923e-02,1.041923079874962887e+01
-8.779735920933485760e-01,-4.877413216556997000e+00,-9.747829044323951253e-01
-3.901060724206819152e+00,5.561467946148209940e+00,-2.664551804462030660e+00
-3.344030904719030417e+00,6.147486438239720741e+00,1.522711383752692438e+00
5.275892354419278618e+00,1.442247931266085192e+00,2.386157015115782265e+00
-3.290678809228233526e+00,6.003560731402957096e+00,2.317610661096662916e+00
-7.003894543626031144e+00,-1.378652216729240321e+00,-6.217898006791085841e+00
6.406313748254111040e+00,-4.223817596701612054e+00,7.079750697606749021e+00
-7.951448955034258859e+00,3.297209091992098884e+00,-7.434037145206777275e+00
-7.430935439048568236e-01,4.532041161385270911e+00,-2.192905921394608715e+00
4.274111125392626498e+00,2.346354069639922102e+00,1.736747222681363834e+00
6.278379569387975145e+00,-3.900114343098210146e+00,7.664251673147637334e+00
-9.400107490313239222e-02,-5.606416985015630239e+00,-1.941037171017491625e+00
-2.390726381395992473e+00,-4.536482855482866228e+00,-1.048574167548897762e+01
3.080019529676955581e-01,-5.093015222723145996e+00,3.914708504985643378e-01
2.331618083460697211e+00,-2.039071435506117358e-01,-4.363280871723446808e+00
5.668299025061346086e+00,3.703693487662514272e+00,9.386299585516292510e+00
2.734808526364428616e+00,3.571061119605361878e+00,1.128156498327541168e+00
4.044579752685512730e+00,3.689152470887826052e+00,4.009315634648938698e+00
5.351288103420839826e-02,-6.086875827866233379e+00,-5.868602645761948899e+00
4.207911005580516894e-01,-1.450467648774752538e+00,-7.732977691032175471e+00
-3.412233676577832497e+00,-1.008651511754259156e+00,1.523286421790913669e+00
4.200455699049380209e-01,-6.114294138357261765e+00,-3.995680766774944104e+00
-1.963855448431717221e+00,-6.921875906936410250e-02,4.648638700136713098e+00
-5.839320027073776842e+00,5.333818799583588621e+00,-2.842714883894837730e+00
-5.194011849050098384e+00,3.805724138797156986e+00,1.383005848542687488e+00
-7.537415892526346362e+00,-1.884282867198346922e+00,-1.066719456495098939e+01
5.098738723588291499e+00,3.896688655743349106e+00,1.121959895817312436e+01
-5.999823226881975557e+00,-3.490967747623182404e+00,-1.032563170717947543e+01
-3.358435316008927973e+00,-2.987111377044291860e+00,-1.158876204108088892e+01
-1.217045117240737273e+00,7.274612447205739407e-01,-7.986213640594630903e+00
3.120338456793236848e+00,-5.786958858327500899e+00,-3.498468463142330620e+00
1.563791889517175127e-01,6.160251176878904777e-01,-6.493623677122116078e+00
2.732121087425928074e+00,-5.931978384204616539e+00,6.027767892402832173e-01
-4.913315622585119335e+00,1.605268186377765804e+00,1.376874007337218986e+00
4.538697578796812238e+00,-5.745549008659020629e+00,-1.307434226740129546e-01
1.592445703389442913e-01,3.140296096299923789e+00,-3.409459062356883230e+00
-3.051788823230019432e+00,-4.790799492965647666e+00,-1.020433002191550109e+01
-1.264310511393553105e+00,-3.651113248467037220e+00,9.617333102113527765e-01
-8.229024432792972021e+00,-6.771222031364593219e-01,-1.112359448324381184e+01
-3.142777703696256530e+00,5.312535915284427368e+00,4.101524007023223284e+00
3.630496292317060281e+00,-4.710526897171781968e+00,-3.808709297806085914e+00
-7.251784320206120515e-01,5.967597898176178361e+00,5.784267201069639874e+00
-5.419372042749544427e+00,-3.166105262444654400e+00,-5.997293357066935116e+00
-6.938161236840972634e+00,9.585111633595460034e-01,-1.163319811583551200e+01
-4.169434932006430117e+00,-1.369126024759514670e-01,1.114870562089161243e+00
-4.695796255997147561e+00,5.211300646094881195e+00,-4.141848357530220071e+00
5.475722825900480650e+00,-3.879054246335844613e+00,7.429578023814060295e+00
-7.645647300723639184e-01,5.504037920773582115e+00,2.876923856440984362e-01
5.432153269794383732e+00,-4.636887628910396408e+00,-5.571017981722574675e-01
-4.413549449947231196e+00,-2.753954273242206430e+00,-1.222507436903572220e+01
3.502283566312262675e+00,4.119804115669245093e+00,3.915356578568681023e+00
-3.511284779709848536e+00,-7.810649765218379281e-01,1.538721433996639520e+00
-4.914985038805840811e-01,-5.448115578064276043e+00,-1.879424991322237615e+00
7.109381548409968943e+00,-1.208281213566341883e+00,3.504647614754692775e+00
-7.096197846450633673e-01,3.472830570244885617e+00,7.901233711166771201e+00
-1.442369377492277671e+00,5.161037768368525569e+00,-1.425938253526661814e+00
-8.125354134580872412e+00,1.879436017872685882e+00,-6.025342065990313856e+00
1.584685777501291026e+00,8.682737125078736629e-01,-4.441656203994471142e+00
1.528881503593397806e+00,-4.625500425332582211e+00,2.976383358642491928e+00
-2.016397980374949217e+00,5.375479657256247101e+00,5.487722905083002090e+00
5.901302323312831888e+00,-4.101783040551240767e+00,7.387672925431568949e+00
3.189576669767188566e+00,3.772160929590330891e+00,1.125210056059420083e+01
-4.332763265827802357e+00,-8.115016303233140160e-01,-1.178073245163650107e+01
2.208017809170591317e+00,9.087712713978760570e-01,1.011099112460329508e+01
4.889976378355269659e+00,2.108504262582786559e+00,2.722069041545021051e+00
-5.657422184584556923e+00,-3.598327275838035799e+00,-8.424828417737083797e+00
-6.572903098281486223e+00,-2.949284078033411305e+00,-1.089784614522539918e+01
-4.462359786511546744e+00,5.911608218216734656e+00,-2.575056343378781532e-01
2.536161447468854302e+00,-5.425012114852171941e+00,1.976215042005338374e+00
-5.272428761259926766e+00,3.829542970932321655e+00,1.380684063019587793e+00
2.783314870200773061e+00,-9.324241711671816812e-01,9.270406812294572418e+00
2.987890434237078452e+00,-4.728062717904922607e+00,4.079973209202076845e+00
7.734572704146110311e+00,1.382662844322662954e+00,1.150053988521424309e+01
5.373014200456348810e+00,2.154592795952612605e-01,1.077963805934446295e+00
7.446906136081132388e+00,-3.173929488110068586e+00,8.747578060281817613e+00
-5.509930615695004086e+00,5.474436718577399219e+00,-2.247564927661056533e+00
3.605209233169032856e+00,-3.171933270587331766e+00,7.535366582589374751e+00
8.226600580832409193e+00,-4.173343659743606326e-01,1.146451599442878866e+01
-8.684419804542242716e-01,5.089530014546151726e+00,-9.733554186070180192e-01
-6.639363380259269753e+00,-2.259581541997273568e+00,-1.217842199786181823e+01
3.864834964542353646e+00,-5.801421878160924805e+00,1.759441474513117276e+00
-5.212489097202717581e+00,4.675310308969534923e+00,1.040216665937264251e+00
3.563166302764416482e+00,4.747874807314767409e+00,1.009222255949717706e+01
1.918762447507930569e+00,4.475400640584055623e+00,1.018631630713604075e+01
8.340655311727948273e+00,-1.276400837753998818e+00,7.059465179096496179e+00
-6.783282717567894693e+00,9.840659436160479334e-01,-1.160462156054058269e+01
-2.999719974826101421e+00,3.130655029997337468e+00,4.914269026593933276e+00
1.888126066343340126e+00,-6.230302232776832483e+00,-3.129719366292798899e+00
1.201914915676676854e+00,-3.883412361726292783e+00,-7.464084857472985668e+00
-6.922102111134071478e+00,-2.567913689762768570e+00,-1.055336675637224886e+01
-1.486169140411194856e-02,-5.456653022896817973e+00,-7.660955711824511738e+00
3.504160948055614178e+00,-3.554123221651330766e+00,-4.239079541399607187e+00
5.572422364675232664e+00,-2.398539899328874458e+00,-5.384038647820142964e-01
-6.361817963530482345e+00,5.328253896563774905e-01,-2.240339225894443231e+00
-6.602579459759883918e+00,-2.900826935483349356e+00,-1.033587360826588331e+01
4.123151756980513838e+00,3.593451630700443267e-01,-1.114474459796855443e+00
-6.370775706709760344e-01,-5.547544601636142048e+00,-7.960708501537073545e+00
3.776646031471506237e+00,4.741045788869401534e+00,6.675520515355747975e+00
1.822828053410458393e+00,4.397530371034713781e+00,1.260828245175657836e+00
4.271975629098268001e+00,-2.084402162976954020e+00,-2.669972037635640838e+00
5.861046518482637246e+00,-2.241779136491382385e+00,1.015102884973163988e+01
8.216077129819009173e+00,-1.244151983651451410e+00,1.086819316131751734e+01
4.619859951230835371e+00,-5.620285662864189291e+00,2.878830051648164634e+00
-1.985003960220903751e+00,-5.280629859408945137e+00,-9.178538732351826823e+00
5.140268417781191701e+00,1.577250284954602844e+00,1.252250538607523112e+01
-1.631625468328334883e+00,4.064043453122013538e+00,-3.979337739004685126e+00
-5.768016207379764282e+00,5.244212501124337678e+00,-1.563955934842754525e+00
-3.096729227301185272e+00,1.936411914852151916e+00,-8.559739707798099673e+00
6.039212350808241148e+00,9.275274304995549945e-01,3.197641517790337229e+00
-9.923114049743375631e-01,4.295410975677744325e+00,7.566053014495861540e+00
9.409303645365632018e-01,5.684623400194785958e+00,8.068134969472787077e+00
-6.835167665100588152e+00,-2.705290119205367994e+00,-1.109983294198072734e+01
-1.358803316106802717e+00,4.829720118427400344e+00,6.856605652003876727e+00
-9.550447968773068119e-01,6.170005194655189484e+00,3.393018164432881623e+00
-3.523868906218208252e+00,5.368955571031768237e+00,-2.989406334259291143e+00
-8.116378229822879931e+00,1.403102664382979148e+00,-1.069026642433021657e+01
-1.311076533705022973e+00,-5.820059926131305517e+00,-7.513019195522762317e+00
-5.584271890477769951e+00,3.969186734807763628e+00,5.662093953388803724e-01
-3.139456414446911148e-01,-6.827398500574642926e-01,6.224010974342430558e+00
-4.809620632990792011e+00,-3.651580198568426638e+00,-5.702042852570253118e+00
7.633811478284409979e+00,-2.550452740348982061e+00,9.788861749233197074e+00
-8.750566777286140907e-02,4.143607502788704267e+00,-2.009023321439858289e+00
-6.906023458840158114e+00,-2.883221627785682584e-01,-1.261603767744819393e+01
-1.165408428474275615e+00,-2.407618928589034368e+00,-9.847490216618954406e+00
-5.097270467407556183e+00,4.544965617931092439e+00,-5.925023201897343661e+00
6.671766386040049568e+00,-4.778673415810527736e+00,5.119387596079429059e+00
-2.086287133337866084e+00,-3.249574233414711966e+00,4.152661744861780857e-01
3.680724705566544408e+00,-3.222121559388363643e+00,7.425234741200533506e+00
-1.142734104870471112e+00,2.122508919194779686e+00,-6.444372415577302782e+00
4.364323471739855798e+00,3.414072155702361666e+00,1.208059850636232113e+01
-5.999417594073928051e+00,5.238708756777306519e+00,-2.791993830811350996e+00
7.410169362250632830e+00,-4.642554456322434131e-02,5.442577869538649971e+00
5.054745834023843809e-01,-6.143665307382200957e+00,-5.624225700372905479e+00
-3.256340453793546974e+00,-2.762344371578085767e+00,-6.347162452095151952e-01
-5.024795023099031255e+00,-3.972135252263660821e+00,-1.116598907582199196e+01
6.281759000729223441e-01,-3.993817576099717215e+00,2.955203712320305431e+00
-2.706606310073088328e-02,-4.267429060253579820e+00,-8.775646982957551856e+00
8.513635685169527179e+00,-1.173571259137424355e-01,1.035132691124389837e+01
3.063913843175866791e+00,-4.487366673933544270e+00,-4.847408230938373919e+00
-3.953092903857538865e+00,-3.168074714193403807e+00,-1.190679399653051718e+01
-5.559740097899967814e+00,6.506481164948763052e-01,-5.884744321435044778e-01
5.432084857891134710e+00,-4.568173762328888721e+00,6.146032033746125833e+00
-3.177219377594294070e+00,-5.746203518272525734e-01,-1.078423448914090343e+01
9.968474207127543396e-01,4.757532262733218609e+00,8.342885139652596038e-01
-5.547913362462999487e-01,6.159668788671345041e+00,5.414377395861484032e+00
-1.666505836404484464e+00,6.008936314864683048e+00,4.907858704500007718e+00
-8.307396658890771945e+00,1.594245544489557131e+00,-1.043063481190521991e+01
1.902339954205092942e+00,5.338798828611423630e+00,4.233822497794368367e+00
-8.423085252671576484e+00,-1.365063473717227915e-01,-1.013060410397133992e+01
-6.607994985605052385e+00,1.933700776124761100e+00,-1.709688835707974919e+00
7.309119316428176028e+00,-4.055659392604265001e+00,6.800230649125296623e+00
1.158340553788848482e+00,-3.706911554763801853e+00,4.101629986729876443e+00
-6.148626189338718184e+00,5.344937504857092542e-02,-2.353994203071423374e+00
-8.215304421657455336e+00,-5.591761186044066356e-01,-9.886573598754450742e+00
5.701082342296341920e+00,-4.596988250663414988e+00,6.316140551562655914e-02
-3.627914223231443192e+00,5.326027973800163018e+00,-3.146197406012577247e+00
4.769558066799139517e+00,-6.864874636524833651e-01,1.109688571066789287e+01
-2.270306133543547045e-01,5.132334721212385986e+00,7.870065995751901688e+00
-9.848572544550648900e-01,4.876052604030290283e+00,-1.611690548368422071e+00
3.207953536543662221e+00,4.824238562548773146e+00,1.032942812012840150e+01
5.503384389204320826e+00,-4.619685050872181620e+00,5.986243530369752541e+00
-1.455957666433738362e+00,6.054138325249556196e+00,1.488725595864595519e+00
2.368946839403804461e+00,-3.446099830464703917e+00,-5.929585865767795561e+00
-6.337132755279073493e+00,4.544039157848765775e+00,-1.476773645639773314e+00
-1.584191019607911477e-01,1.123109512136024613e-01,-7.287515557221441398e+00
5.099041000914348309e+00,3.739884637699160574e+00,1.134539385800784572e+01
-7.264478208732542130e-01,5.403522106618808607e+00,9.524876914626173238e-03
-1.309177072284977150e+00,-9.946156619199328364e-02,5.485767588017900209e+00
3.134326133636105016e+00,3.166527120470679968e+00,1.188179489701344682e+00
2.729871408130524646e+00,-5.813959091232219656e+00,9.142035720965996370e-01
1.390065116715671623e-01,-3.994659506923019965e+00,2.298708942358125729e+00
-8.044697601525388819e+00,-4.690564302269656927e-01,-8.010497049055194552e+00
2.771783970791173446e-01,2.405382049515756293e+00,8.856406793562323188e+00
4.434536727450094418e+00,4.588056576760179084e+00,9.431111462355547204e+00
-8.990137226178436247e-01,1.854418613966943630e+00,7.318600452806897749e+00
-3.327845976165982211e+00,5.485865272462523201e+00,-2.571669420252563398e+00
-4.441453928450187050e+00,5.836779252114222771e+00,-1.012200274520135945e+00
-3.884447583922844838e-01,-5.717673882741014069e+00,-7.513303510735484636e+00
7.239461381767983816e+00,-3.914837075993066406e+00,3.494302941596379775e+00
3.886585656584568671e+00,3.651895872323247527e+00,3.511477601490481160e+00
3.393658187325382936e-01,6.030587819590707888e+00,5.991100452660135467e+00
7.319885179503848427e+00,-3.971259343716220691e+00,6.778362553342639707e+00
6.922439533258893718e+00,2.560950452962174939e+00,9.083221184767534595e+00
7.866322038202591571e+00,-3.544946612695812238e+00,7.617841325794422858e+00
-4.972897458370346691e-01,6.202004105258319022e+00,4.012340448149176453e+00
5.147257347484312184e+00,-5.579631075593427525e+00,1.377341105771920038e+00
-4.768708372848671218e+00,1.745429449118146792e+00,1.680356949025223035e+00
-5.813297181685485038e-01,5.184670511322609698e+00,-3.394226828936470763e-01
1.277618426119157435e+00,1.600562208310948975e+00,9.602986030630479064e+00
-6.737939284088325209e+00,4.699567897061889710e+00,-2.937545616143110383e+00
7.279376637941178396e-01,-4.526930949419548433e+00,2.010326765977294539e+00
-6.963130018207812633e+00,-1.218567596525571117e+00,-1.246838951523359640e+01
-7.454722850324811967e-01,-1.708654203092318191e+00,4.602105779429648713e+00
5.089610118253474980e+00,3.037348861515373422e+00,1.240866439767547291e+01
-2.878732974829228741e+00,-1.573532467710124561e+00,1.630165598964532725e+00
-1.694975979498700713e+00,2.175071504128861299e+00,-6.881905417268904479e+00
-8.191856829243274518e+00,-6.664401918848846806e-01,-1.090351673254307485e+01
3.542219134159790617e+00,4.134867173863145950e+00,1.114039800221562437e+01
-2.069762049475953603e-01,-5.822184749814278248e+00,-2.921980043174298824e+00
6.384520894900644450e+00,-1.195302659912980126e+00,1.706617983420174012e+00
6.881260973079310617e+00,2.602592260216450182e+00,1.161866384536838126e+01
-5.097470623937302214e+00,5.683309397022568099e+00,-9.427580153791577100e-01
-3.362968144253462022e+00,-1.587328162929666497e+00,-1.146376617370935236e+01
7.449764906399672704e+00,8.945268858918637989e-01,1.238972836555900336e+01
5.652646348065144544e+00,-1.584239667419407693e+00,1.071568206750299268e+01
-5.866431958266599800e+00,5.149989211948900802e+00,-3.838028142053631520e+00
7.385972229882107776e+00,-4.132007770316474371e+00,4.935240562651157070e+00
1.116205548955381932e+00,-5.585036231015573449e+00,-7.122574993914479458e-02
4.099182582776423445e+00,-5.214368652711386609e+00,3.711701734210556491e+00
7.950509626922887207e+00,-1.257771097256110693e+00,1.110407048593401669e+01
-4.869487921736046054e+00,4.954421153174071613e+00,1.318414572417448971e+00
4.623884122630412818e+00,-2.743068436153303757e+00,8.793780624646055699e+00
2.612687941137629810e+00,4.982197887866003150e+00,4.498537738721491763e+00
-7.726830164228427833e+00,1.390855247496053604e+00,-4.989905531256584759e+00
9.991388792542321706e-01,5.874357891223248807e+00,6.996007305405497867e+00
1.994316188647492716e+00,-5.583161126343354042e+00,9.710411920859259860e-01
2.230922803180537262e+00,-6.046555639682452465e+00,-8.864701033311854772e-01
-4.596823426168606730e+00,4.461856205308978751e+00,-6.043201534206969150e+00
4.004510637512480820e+00,-4.006691797389031251e+00,6.440592740443223718e+00
5.217343870540349648e+00,4.080903009820440630e+00,8.970577697886424673e+00
6.369616888167344726e+00,-4.673572489974148425e+00,1.910930040531347851e+00
-3.402555655304376980e+00,1.624814465105397066e+00,3.807083629250125334e+00
5.043411283211595375e+00,3.832336553902988996e+00,1.128835744608717739e+01
1.469599796296296168e-01,6.009731723062426312e+00,4.213973148004960478e+00
-4.163457640453516184e+00,-4.406010520831528332e+00,-6.287913524494794792e+00
-2.488026309745267617e-01,-3.785365529737854562e+00,-8.985904590646548229e+00
4.847535829448618827e+00,-1.280606527141969098e+00,1.059827156846397145e+01
-1.325181943805078255e+00,-2.631119487576026206e+00,2.554467402440443458e+00
8.609727429859130865e+00,-1.115512041071705429e+00,9.095513329505909184e+00
-4.928352282858092792e+00,9.854663128503676761e-01,7.895575856087451161e-01
4.758564824681735139e+00,-4.898600521045966438e+00,5.171045320517676736e+00
1.687013143427565087e-01,4.725154647800471786e+00,-3.876745130577663456e-01
-5.226935114671547034e+00,5.109747057758178279e+00,3.837864593958672521e-01
1.879349683960230610e+00,-6.245768610557185241e+00,-3.323944687800898468e+00
6.205910484383897696e+00,-3.094814742607660651e+00,9.166611987442276899e+00
-5.285944229524981886e+00,-1.329881641701669670e+00,-1.250678638936609666e+01
-8.576013525857872466e+00,1.184468872118566773e+00,-1.015986654979181836e+01
5.160701825902285655e+00,4.198521669101328513e+00,9.554733084975277180e+00
-2.922798115152478005e+00,-4.006681449878396251e+00,-2.418279926388723577e+00
3.625141638390581900e+00,2.446091845853082258e+00,1.177705743622361467e+01
7.781023376593083185e+00,-1.494368389906727934e+00,1.095533290571206742e+01
1.516739055967149197e+00,5.555997945695954954e+00,8.320241343475153428e+00
4.678842807904961099e+00,4.363098354735472917e+00,9.845467987144731481e+00
-3.727835047578986316e+00,5.932832349118395854e+00,-7.331420393137783043e-01
7.170251023961911940e+00,-3.302775107642751173e+00,2.818248576077170497e+00
-7.775132678813321263e+00,-1.457654422618401391e+00,-1.123457901302704443e+01
-4.224480362046423743e+00,-2.538272248655732088e+00,-2.062998227478112678e+00
-4.842173913076683434e+00,2.089748420030150378e+00,-9.705558216790789672e+00
1.203084344857156401e-01,-6.072146173980436323e+00,-5.993365727276584565e+00
-2.519723850818566646e+00,-5.531143741779216860e+00,-7.608935342697564330e+00
-6.205232914784318154e+00,-2.819025110326001116e+00,-1.208759908997626908e+01
-5.605927539908985402e+00,-2.010718566987506950e+00,-3.859126525108612871e+00
-3.629449919501402277e+00,5.554498366756766892e+00,-2.348756630804328616e+00
-6.297590405031296967e+00,5.036609735860224646e+00,-2.513485971493695459e+00
-4.706956914309087026e+00,3.906981695959727663e+00,2.228429172710164163e+00
-3.253028909554017134e-01,-5.127868160453274093e+00,-8.357031259808122003e-01
-2.693383980124500532e+00,-4.583670978111508809e+00,-1.044050021945557560e+01
6.878273364409664303e+00,-3.177299680158772954e+00,1.941189262312725594e+00
3.330132883923641263e+00,4.525648027849197064e+00,4.712949480758737764e+00
-7.996683561247097671e+00,3.004321093153901057e+00,-8.299078292380601241e+00
-2.435942439397947190e+00,-2.377925344660529738e+00,-1.102537615450996533e+01
-3.961557179618306002e+00,5.760517415783636075e+00,-2.102266395387381692e+00
4.137212657299020435e+00,4.735666558883065314e+00,8.760169368883214958e+00
-8.377545150946486885e+00,9.671343569655009853e-01,-1.102110192900043018e+01
6.693341096521219669e+00,-4.830121715627571533e+00,3.908230716816574191e+00
-3.259887141477987083e+00,3.637370088683114400e+00,-6.519254105891342910e+00
-3.258887349996246741e+00,7.645515686282548795e-02,-1.052369739515179603e+01
-3.204551726638970699e+00,6.187943971353356609e+00,1.151920633912025149e+00
-1.859387529160396735e+00,-1.413276139956651356e+00,-1.007837230140547646e+01
2.138747967174949860e+00,3.680501832087091252e+00,3.715972046342104762e-01
1.184336654362133867e+00,3.797745469788760264e+00,-8.986260254797702185e-01
-6.295509992059980853e+00,1.532518332700183672e+00,-1.108518530183125961e+01
4.677456655308080080e+00,-3.056566860056438184e+00,8.467758957542564247e+00
-3.116433781117165402e+00,5.340246242420026768e+00,-2.826284478272590661e+00
-5.378019079992461648e+00,1.239768818521529870e+00,-1.091218765351093190e+01
-4.154207303774547277e+00,-2.961644499605684988e+00,-2.602660603194669076e+00
1.443541040368726103e+00,-3.333817311802009797e+00,5.127502535136656547e+00
-5.026384546058049629e+00,-3.351178347026594118e+00,-1.219006249048674739e+01
7.969091567999524450e+00,1.083808564266934171e+00,1.003114479125603076e+01
-7.938433483244665467e+00,9.233871627035241669e-01,-5.766808720000683230e+00
-5.965530247353030724e+00,3.235737722316371023e+00,8.955349816617885761e-03
-3.317161550831648764e+00,8.979533561565734567e-01,-9.883266874095623322e+00
-1.586785605404110289e+00,1.949149821142539984e+00,6.554920351956408986e+00
4.727807830580287529e+00,-4.983869486395033910e+00,-1.547689626368853988e+00
-8.025917029451745677e+00,1.058327433668720063e+00,-5.983391393955820092e+00
5.516968913786699069e+00,-4.103209302594631680e+00,-5.978342061090662352e-01
-8.235710041174757023e+00,2.688189756216087467e+00,-6.926156178276250408e+00
-8.186568920655346027e-01,2.389723425906975507e+00,-5.678963696808636996e+00
