-1.196597225315749524e+00,-9.178764728462539324e+00,-9.741088700970655656e-02
3.636053060603706477e+00,3.662270504054557785e-01,5.346483097863972134e-01
2.871504309711978009e-01,-7.992340654812110756e+00,1.514730379900266266e+00
3.833626093079553487e-02,-6.826413506701551448e+00,2.085237505592773655e+00
-8.618197428476637167e-01,-2.301498827250687995e+00,2.289663466646729262e+00
1.773425037661809256e+00,-1.794719840082717122e+00,-1.340808536414771712e+00
-2.002811068609194667e+00,3.055116456393415447e+00,8.786546266759104329e-01
-3.758211835974593740e+00,-2.281366578201726725e+00,-4.715630749625597806e-01
-2.975669111499650299e+00,-2.922832275459568585e+00,-3.142252920613435307e+00
3.226584946225813599e+00,-3.754867685063028482e+00,1.692721303427812130e+00
1.834009794094076051e+00,-1.013628812039203630e+00,3.296920346583847472e+00
-3.477868750505856532e+00,-3.379376495772734579e+00,-5.858111722328524645e-02
-2.582343214184716906e-01,-1.204521751191690360e+00,2.632517231002641012e+00
2.665998870988483205e+00,-2.658422702675700133e+00,-2.004898380106465428e-01
1.237792463811099308e+00,-7.844317875889492697e-01,-1.892758706306637784e+00
2.863545177844266099e-01,8.854340622113440418e+00,9.254016252067270853e-02
-1.123273746670429230e+00,7.812083294721712257e+00,-1.186275885643439665e+00
-1.463942760752203975e+00,-7.290248536589079897e+00,-1.966787820565967682e+00
2.837798941581050727e+00,5.047893702057502985e+00,-5.862653925759689910e-01
3.156843374300494887e+00,-3.688753162438196398e+00,1.982886355562945457e+00
-2.881805237093375105e+00,-6.132951943441073084e+00,3.462818283345767689e-01
-3.970305116203838303e+00,-4.357556801219575782e+00,-9.941902384767500322e-01
-7.649650858404981602e-01,-5.800428585012651794e+00,2.024103700941180861e+00
-3.174895616974640955e+00,-8.102132914150536047e-01,2.657469154609741757e-01
-3.761059892208505673e+00,1.356319545340526567e+00,-1.400101257999274207e+00
5.865214620238374810e-01,-5.579128443001546422e+00,-1.410418999538420204e+00
-2.679575201127683659e+00,-4.808174692626444369e+00,8.290933376232381136e-01
-1.086844151051645641e-01,-6.054370473325652924e+00,-1.689362676158870036e+00
1.817232863228299022e+00,2.229444643041641250e+00,3.189231846210784038e+00
1.483904749068402751e+00,4.736777430360535668e+00,-1.776468625841186810e+00
-3.749665597219982160e+00,-2.781410269954046832e+00,-2.883015262544736945e+00
3.640355364428499385e+00,6.566786673704815946e+00,1.070408489955559705e+00
-1.487338868998627328e+00,4.256761167240670218e-01,-3.202255823095286225e+00
-2.277550629758589608e-03,5.437472068890935262e+00,-2.404146163773650535e+00
4.041477686221207399e+00,4.576765919862471499e+00,1.445031055286653654e+00
-3.173635338366997960e+00,-4.218142694327070785e+00,2.839054179072292849e-01
3.750518428946731930e+00,6.370943911238050816e+00,1.585577202862985979e+00
-1.157954286170707947e+00,6.630919257166874026e+00,-2.208323714424102580e+00
-7.366317937655616488e-01,-7.808393897322241983e+00,1.459925980098643716e+00
-8.436494945485898400e-01,5.348510987350286072e+00,1.239514051586348753e+00
-4.843907776749990512e-01,4.343244365938440765e+00,1.795047553308578570e+00
3.041148585432706053e+00,6.873762009197098344e+00,2.194946386746511990e+00
3.726096301479929096e+00,5.913532255023065787e+00,9.065303365804238123e-01
-3.221410818487272287e+00,3.202985115712850384e+00,-1.019106727360206133e+00
-7.306546629893595490e-01,-9.183580062055101578e+00,-4.593716007614405406e-02
-3.769163658987151333e+00,1.455185090622390209e+00,-1.894582384019580790e+00
3.690270649451285578e+00,-8.625399086082358169e-01,1.000157551652880228e+00
-1.246724368270865635e-01,-7.896305534971891582e+00,-9.221194965000018007e-01
3.092527754883489521e+00,4.832569762278601466e+00,2.814611099698374197e+00
-1.644339195149415511e+00,5.737079953329661031e+00,-2.433817326136488379e+00
-1.659439746691484807e-01,-6.708014835537940534e+00,2.081953063844986129e+00
-2.957831780330567373e+00,-1.778181062699350390e+00,5.808789408579623226e-01
-2.620521802425528901e-01,-8.411965866029623484e+00,1.154442097017450708e+00
-4.263816405716985281e-01,8.398269543787867164e+00,-1.612104292752179202e-01
-2.360704872604806770e+00,2.051408020419548617e+00,-3.185519596003553389e+00
1.241945997225714082e+00,-7.016351005345089042e+00,1.961557884426597509e+00
-3.779737875156074622e+00,1.076765890527933811e+00,-2.475653609072476335e+00
2.176013523209495482e+00,8.766722300035526771e+00,1.746691030094261188e-01
5.197946702726731205e-01,-8.406797274495643180e+00,6.924615723134314171e-01
-5.855963354392952347e-01,8.009595459920955562e+00,-1.360141886482014284e+00
-1.501897209381534593e+00,-8.468586026825951407e+00,7.583761095272789632e-01
-7.885141989726308642e-01,-3.921719976065135782e+00,2.253101603588240298e+00
-3.868639608076672065e+00,-2.778233880606572059e-01,-2.610154125045417661e+00
-3.400374498809871859e+00,2.855563065022921787e+00,-1.574390476164731156e+00
-8.030500581427272300e-01,-1.099777499180287110e+00,-2.963470869411044983e+00
-2.568956408075907749e+00,-4.768768624799780476e+00,-2.920431323106490229e+00
-1.186373025604010145e+00,-5.861148448030120583e+00,-2.325918508108062444e+00
1.979528526179852754e+00,4.680855769362837648e+00,-1.384374130582706197e+00
-3.593411672580189009e+00,-6.366991250015164638e+00,-1.884189027446118381e+00
3.631174914066938708e+00,1.065213936302331188e+00,2.977172229175646834e+00
-3.254281672147079973e+00,1.926424937140789106e+00,-2.844779194932214761e+00
3.560539787931616296e+00,5.830734082846653621e+00,4.494738008354770553e-01
3.759047395295776361e+00,2.692576780506757972e-01,2.867372721231569610e+00
-4.521605466202665569e-01,6.846044529003414425e-01,-2.933202021473457766e+00
1.548847506418177034e+00,-6.168334110948610061e+00,2.289398360064099247e+00
3.282586073468880095e+00,4.180430157893873400e+00,2.875827850666113683e+00
9.356001076253095405e-02,-7.663332050629801273e+00,-8.656444184082904281e-01
4.074359030122054470e+00,4.457767725222402611e+00,2.026401723188848258e+00
-1.282390225158344998e+00,-9.114092752724948454e+00,9.725298807063052775e-02
1.145506913188120368e+00,-4.141631144072006165e+00,-1.351808308397109082e+00
-1.039967705427394140e+00,6.844796815736132523e+00,3.953771332377011838e-01
2.613408582183344819e+00,8.496174721287506060e+00,1.015151754530599026e+00
-1.597905616790657568e+00,7.010316566073253597e+00,-6.018525140854461553e-01
-2.175156821293070308e+00,-6.958821028399074571e+00,8.137789460678664932e-01
2.247665893299192197e-01,-8.690684961899799887e+00,5.960700525494440072e-01
-4.025859364451272460e-01,8.324065848059612804e+00,-1.176034466224778363e+00
-1.333768993110816981e+00,-3.671344048664842763e+00,-2.885428369511124025e+00
-3.455427800920400472e+00,2.026908909525231284e+00,-2.590802528075293321e+00
-3.118914099679455099e+00,-1.375684413505906312e+00,-3.197157879510813761e+00
1.514773765765127678e+00,6.679387143301772412e+00,-1.447125633690457214e+00
2.899335157226685666e-01,-5.027042340015881905e+00,-1.794815382397576764e+00
-3.371195852957536765e+00,-8.420448289704957068e-01,-3.184615982226121744e+00
1.993765482896627139e+00,1.763201341226224184e+00,-1.495220875718720865e+00
3.197721107971525534e+00,-1.568935404044232484e+00,2.748595525807734918e-01
-2.894277826754773741e+00,-3.377123261373042418e+00,-3.099328985129595093e+00
2.095156305641509675e+00,-6.284666955297979918e+00,1.610764618453810249e+00
-4.046575175314970352e+00,-3.440706144943944000e+00,-1.113188546635301313e+00
2.038429558924230722e+00,8.526816724071261788e+00,-2.024232504678435685e-01
3.473939579200216343e+00,4.584293736706277933e+00,2.788564471420641677e+00
-3.792191859093259954e+00,9.905267544579759997e-01,-2.419092757156274143e+00
2.843022205005927727e+00,6.655345533032756222e+00,2.301878900033284214e+00
-2.775855210499482695e+00,-6.977511067720512106e-01,7.103497699730614290e-01
-1.147320598095667776e+00,3.510309251984066847e+00,-2.986816639146634866e+00
3.686690639348062515e+00,6.160858084636668508e+00,1.883424420500625196e+00
1.629234959201686594e+00,5.347397003397436954e+00,2.624473368066746470e+00
2.256386793785972067e+00,3.231912871685622690e-01,3.330787039815796824e+00
7.599614422930628388e-01,-7.345908821954568957e+00,1.847164794424614787e+00
1.868781437647930144e+00,2.329480389699301490e+00,-1.594085109317250781e+00
3.861166373142039809e-01,-2.559771287879719637e+00,2.864702861953494661e+00
1.705168319215984107e+00,-1.102714190166698138e+00,-1.526112532982180081e+00
-2.447914842710593231e+00,-7.258558539352458538e+00,-2.071194516978271505e+00
-2.168076641872719090e+00,5.899517560793965387e+00,-7.639828965057110510e-01
-1.369960743468437325e+00,4.961536594308587844e+00,9.246769026171998140e-01
2.961104888942963420e+00,7.567813611968911225e+00,3.305326520652678290e-01
2.122681365694641720e+00,-5.569411914763968241e+00,2.218441020945388864e+00
3.427178149117383832e+00,5.717732226293906983e+00,2.575476429233179987e-01
4.145998504234813531e+00,2.809691099172319628e+00,1.403257944816570069e+00
1.539451770644752804e+00,3.495983820400273556e-01,3.219299248473484809e+00
3.244457434625933168e+00,7.699200664126697014e+00,1.264954366620095083e+00
4.769650983516884879e-01,-6.607086805006963104e-01,-2.396473584775693055e+00
-1.030766533082401848e+00,2.527400587010771194e+00,1.798952833805742557e+00
-1.862437180477244159e+00,-8.591837891430067486e+00,-1.255817860608395176e+00
2.920006904053798369e+00,-4.413659932781532014e+00,1.506031577073504657e+00
-5.152463117844513496e-01,-8.958722627005927919e+00,6.744341169799465685e-02
1.556288379509113140e+00,-3.628100534721953263e+00,-1.102823542806848911e+00
8.118755248741384989e-01,-6.371464786710929751e+00,2.283877633961697740e+00
-1.072745740824229355e+00,-2.035952638388755620e+00,2.152341958864989468e+00
-4.177915964754418177e+00,-2.748414608843792628e+00,-1.642400666217225913e+00
3.020808694624355528e+00,-1.627181630963804970e+00,-2.284823682841678749e-02
1.515778353124505706e+00,-2.744946072038380702e+00,3.142291290658878467e+00
-2.093220866174655637e+00,5.360566261994167192e+00,-1.419859435645260404e-01
1.927293806016190825e+00,-4.470575639217702957e+00,-4.564238712063061199e-01
3.957101562058197519e+00,-4.743997781351179666e-01,1.661135004862081210e+00
3.682705655312922932e+00,6.363938816096645468e+00,1.819814881690865249e+00
-2.589097788203314487e-01,-6.131657975254833026e+00,-1.772716125451712088e+00
3.215012923369230169e+00,1.470873555713608782e+00,-2.503777273698896133e-01
-1.337413246625454244e+00,-4.180820588161037854e+00,-2.782303300171955041e+00
-1.296647758490980795e+00,7.485511773058939333e+00,-7.616789268606181107e-01
-3.807686151606299862e+00,9.046651513815304746e-01,-2.416582108594274914e+00
6.052095661141566607e-01,8.429086027767084488e+00,-1.201078327534906398e+00
3.625318223972040954e+00,3.308223221010014647e+00,2.092003032423554454e-01
-1.892503842390332647e+00,6.745101082003057691e+00,-1.112819933718460552e+00
1.032429674185221025e+00,-7.208107707474733061e+00,1.881179145562322796e+00
-3.596546867079229326e+00,-6.799381329686542408e+00,-1.208930169173350055e+00
-3.888902675800105957e+00,-4.270850035323367599e+00,-2.491335041440703169e+00
-3.525598860780146726e+00,-1.487306476462378679e+00,-1.772169643467016165e-01
-1.181355826079481391e-01,5.264789177071784287e+00,-2.471635367671781047e+00
2.713356513750330823e+00,2.314394800883334380e+00,3.268747775255818055e+00
-1.530464037336330740e+00,7.084672127879298564e+00,-1.644514422237757900e+00
1.561424853703685944e-01,7.322327652648817242e+00,1.226693319757018452e+00
-2.394579033281281522e+00,-8.492928277867369147e+00,-1.285352966592914647e+00
-1.387278424417391687e+00,2.876177340378307079e+00,-3.067767061165687981e+00
-1.188682024862923958e+00,6.651121649440554506e+00,-2.127659479717606494e+00
2.638407130075840712e+00,-5.039981099545377319e+00,1.999928968683251762e+00
-1.693796949116523010e+00,5.190121086352917246e+00,4.749240045634623431e-01
-2.018457493005447745e+00,-8.302396194772100557e+00,4.332035980122856400e-01
3.844940613040995103e+00,5.906884403829815611e+00,1.455342372292591335e+00
3.724852504535085540e+00,5.231866126253264859e+00,2.407884064661965695e+00
-3.199670630339209065e+00,1.225565850878620244e+00,-3.013535262418972849e+00
-3.834376584965282220e+00,-1.153961586928660799e+00,-7.841259977387968760e-01
3.713631588695725405e+00,6.895928766160120960e-01,6.527450734830948509e-01
4.181552609938885112e+00,3.111113653401972101e+00,2.106511641616349628e+00
1.221125774969066685e-01,-8.663762396006998046e+00,8.298583935412015000e-01
1.341096660770260407e-01,-6.387762961507455373e+00,-1.433102365362968866e+00
3.649946620619792803e+00,-1.880967615740550825e+00,2.169058670764248298e+00
2.711678663430951097e+00,1.774229503420781784e+00,3.268695284276870172e+00
3.291189849525534505e+00,7.756246205470783694e-01,-5.267495699374886292e-02
3.141624641985782063e+00,7.312372365470007018e+00,1.819544561973623242e+00
-1.703568735214428420e+00,-6.895023684999356028e+00,-2.178073517454399255e+00
-3.862839094358406999e+00,-6.017490146635947390e+00,-1.434380425275458393e+00
-2.594402053460023616e+00,1.859012678279696296e+00,-3.194543969855427878e+00
-3.930440741704174012e+00,-2.502219221193785259e+00,-8.560291312328778268e-01
1.323617420394755939e+00,7.983136168522830367e+00,-1.086825660512576341e+00
2.843510645383201307e+00,4.849930952463878064e+00,-6.152227039498212591e-01
1.753560891022559298e+00,-6.846161470499312784e+00,7.845633359738756196e-01
2.413925863180815257e-01,6.173663923054174774e+00,-2.175683598018562481e+00
2.115751772721761625e+00,3.582605356686445752e+00,-1.417031539538453400e+00
3.039230196060406897e+00,1.141866775727545580e+00,3.280180041435259319e+00
9.623407822205058970e-01,-3.703445865699138473e+00,-1.637364965582803977e+00
1.876777545709878092e+00,1.533793168222352010e+00,3.250133323025491183e+00
-3.744110703159668763e+00,-1.185081210754426850e+00,-5.933854198167209937e-01
3.435985783801445592e+00,9.891656256484508969e-01,3.095605876595974859e+00
4.152978789091243961e+00,3.020653328907272783e+00,1.784214451330657036e+00
1.559389187315951331e+00,9.051920922155471061e+00,7.920930967165797920e-01
2.155351382947908068e+00,-4.232697234697296196e+00,-2.852999178610282627e-01
-2.480898713216449725e+00,-1.696530609999458594e+00,1.056750710975590923e+00
5.955510696100394519e-01,-2.617347234368227582e+00,2.908721353994974113e+00
3.006665899518356611e+00,-1.495037988972683696e+00,-9.307908785001983709e-02
-2.049009012731772383e+00,-8.348243941822493852e+00,4.078511314562279777e-01
-1.454134251459076710e+00,4.715005978241019413e+00,-2.816441690006621812e+00
-2.566506166256768751e+00,5.101804043008435485e+00,-1.956900838577866342e+00
-2.403760570271483044e+00,5.091040097540980192e+00,-4.666357399786374982e-01
-3.500543545109672472e+00,9.699386856176296368e-01,-2.861448854630577632e+00
-1.731175956647320380e+00,-9.074284923117447832e+00,-5.376915230704977233e-01
-1.715604478803518740e+00,-4.834135459696175197e+00,-2.739602635942947284e+00
3.522643703741349608e+00,-2.035879162701308420e+00,2.398591944769147499e+00
2.777850602328988838e+00,4.189283997138423921e+00,2.991632924276403482e+00
-1.514689951614100138e+00,-5.152116011752454483e+00,-2.618389234444298719e+00
-3.889653963656294899e-01,-2.939254782257102683e+00,-2.590251221521141733e+00
3.115839078355318037e+00,3.141173983273237269e+00,3.122372758678093163e+00
3.610826699111341576e+00,-2.164492973435434564e+00,1.798060930630151821e+00
-2.038098388277735040e+00,6.012932520685596138e+00,-6.169379262816323539e-01
-3.334035557263046456e+00,7.158792381063632249e-01,-2.554739698088402400e-01
3.017045593740334652e+00,1.530297233841398485e+00,3.227576857301606594e+00
-8.631999823148610584e-01,5.539528448954413875e+00,-2.609606098046093781e+00
-3.500206305754862246e+00,-2.903791068635843131e-01,-3.490458766159676429e-01
7.749574722880825384e-01,9.297423042600514442e-01,-2.297263453114409160e+00
-3.330749081345405926e+00,2.532496878666155471e+00,-8.895403491573508070e-01
-3.628366878572685916e+00,-1.597654764526796223e+00,-3.211859483320172459e-01
3.151430548387703201e+00,7.412957752426708957e+00,1.657879808550602796e+00
1.594727782639859592e+00,6.239433193627771601e+00,-1.495959774755801552e+00
2.866342217580355012e+00,2.219398300294468829e+00,3.268485242503099908e+00
3.230174986008970350e+00,-3.858997886377116271e-01,-1.998855091270603304e-02
3.549303685400321040e+00,5.138837669415589282e+00,2.712857545181307506e-01
2.852716955616835914e+00,2.455804539966194966e+00,-6.840979545138832218e-01
-1.953656088552799153e+00,-4.411990076907626346e+00,-2.887166827925050416e+00
-4.472928975123389717e-01,-3.796369542858669011e+00,-2.477448553033986034e+00
-3.577254044180528503e+00,-1.790988661416939243e+00,-2.208225195066010060e-01
3.933390212084105775e-01,-6.957693490584345497e+00,2.094645116743386826e+00
3.517800217747847569e+00,4.496792549308668008e+00,2.777065626776777929e+00
-3.839279017427285279e+00,-4.023642000937293517e+00,-6.714604794753492589e-01
-1.119320944906978088e+00,-7.500742534445286935e+00,-1.706909139812382792e+00
1.951702049132398420e+00,-6.591244608428708851e+00,1.042212962084274830e+00
1.442543984637103760e+00,2.369979988380780611e+00,3.076501989255451264e+00
-2.375642476365010136e+00,-8.513122639869285635e+00,-1.291876726807708264e+00
1.306631371604890235e-01,8.903147560779807179e+00,-5.436841359904541759e-01
-2.727413254194215764e+00,-8.322347677258999710e+00,-8.814130171561529448e-01
1.410172663188891784e+00,-3.512631749054067942e+00,3.040582579097935056e+00
-1.311977574042646255e+00,-7.036335585278943761e+00,1.437467868364391332e+00
1.543793207395471656e+00,4.931126825394601121e-01,3.201379902635734798e+00
-2.325130628392279242e+00,-8.293704661979573345e+00,5.651231747845037595e-02
3.884865408936819531e+00,5.548308994520011694e+00,1.593150860396792323e+00
9.243974951914487592e-01,8.130674960103810633e+00,1.307498653770806651e+00
-1.602217722183461035e-01,2.765405151502202674e+00,-2.775704780459822274e+00
-2.054023431379252251e+00,1.709386687386141579e-01,-3.335366564300277670e+00
3.069466067598366266e+00,5.500393251682963225e+00,2.697185869465913211e+00
2.823997766563378864e+00,-8.329046810712446014e-01,-4.316058146291659181e-01
-2.500970962665259312e-01,-8.490113068850060785e+00,1.146871877200993373e+00
-1.990201858916696542e+00,-7.152955925401180082e+00,9.822839908589885427e-01
-1.996348179470793571e+00,-9.002075435265908254e+00,-7.401347328027052530e-01
-3.251592967155722214e+00,-7.045160482225618637e+00,-5.697290527135100424e-01
1.540324280243998256e+00,6.551377857595971355e-01,3.192278849327929713e+00
-1.116220954638507346e+00,7.575957794448434868e+00,-1.519275735974877417e+00
-4.804695036153647791e-01,-2.883641393645571149e+00,-2.660794075371294642e+00
-3.091964428851590618e+00,4.044127881082297371e+00,-1.492122509939881159e+00
-1.547378784424223497e+00,6.450671653754192825e+00,4.059445939910608092e-02
-3.348209674759660803e+00,3.115097666072747629e+00,-2.046476796074633064e+00
-4.063562490425914220e+00,-2.920690360091221738e+00,-1.075974852254069081e+00
-4.080956834263353983e+00,-3.248561477553120191e+00,-2.304853490005066341e+00
-1.902587238980698453e-02,3.508927043391259382e+00,2.297480198932135398e+00
-3.509172537720995244e+00,1.755040640827074450e+00,-2.574147045286373725e+00
3.155243865860314578e+00,7.645407579386295893e+00,7.712283493830166536e-01
-3.316442952371391417e+00,-7.496250411165791050e+00,-1.479706325655549382e+00
-1.329677649366023617e+00,-8.037414303413145333e+00,1.097468092521556304e+00
8.934155721792992333e-01,6.249370199723465191e+00,2.093940017903346273e+00
5.742377962142530823e-01,9.028691759849351683e+00,-2.051014780146202532e-01
-2.511849818612146290e-01,1.900854391482027950e+00,2.379436886884595204e+00
1.520754892480296938e+00,-5.278490944169360155e+00,2.685506517295570994e+00
3.567856461444705030e+00,3.781703095229353995e+00,2.875826390838596147e+00
2.556649261615478341e+00,2.438280952815755409e+00,-1.028030254151005130e+00
1.177291883684163043e+00,-5.859761156203174615e+00,2.452465249538331893e+00
-4.047834582895543321e+00,-7.791862157997847538e-01,-1.527304536612615227e+00
9.780626471662555721e-01,5.402018136776252533e+00,2.395558831493552976e+00
-2.158102219552637813e-02,-8.836034540869897924e+00,3.170638647027365642e-01
2.708503918414404854e+00,8.523457776640615435e+00,8.682088748531853195e-01
-2.316822535396917626e+00,3.520338323934073532e+00,-2.996565077953314393e+00
-9.392318968690841485e-01,4.064254681506605849e+00,1.571258076345280363e+00
-1.967658899072980194e+00,5.418370521651073801e+00,4.956179604625746138e-02
-2.252005152378566244e+00,-8.647000709926279782e+00,-3.109815931844548964e-01
1.241972511507693389e+00,-1.290521149873786522e+00,-1.812514667586633266e+00
-2.964663624698016697e+00,4.281053606124992639e-01,2.899394548959731699e-01
-2.498535586327383484e+00,-8.505184766790453210e+00,-2.484945113950458861e-01
1.434179176090697228e+00,-6.763371968235210030e-01,-1.743962430804223862e+00
1.256358915750215743e+00,-7.487412230790098988e+00,6.870932018265401009e-01
1.046462322456614080e+00,-5.618976836970342781e+00,2.553568168131849614e+00
1.897634622674505556e+00,-1.582151220230534117e+00,-1.234914101630472327e+00
-1.923946096852797716e+00,-4.108911437109654230e+00,-2.933909696772667886e+00
-1.316915133032834362e+00,-1.080529292383616058e+00,1.987053322294432878e+00
1.401739198678030318e+00,5.620662046846361726e+00,2.474840748483686070e+00
-1.976909492423312154e-01,8.096304278185746384e+00,5.214786762796628228e-01
2.138145915674988906e+00,-3.837738006786234557e+00,2.903963321865413061e+00
-7.067784271022025111e-01,-5.637704767711938736e+00,2.099455894748886831e+00
-3.068487209502801516e+00,3.776352491590824201e+00,-1.185520258323275122e+00
-2.538078335918181327e+00,-7.247310855721607936e+00,-2.132623343579077346e+00
-1.332954303136802743e+00,6.454768356759456260e+00,-2.268768503540227854e+00
-1.027512108076302333e+00,7.791480655628294727e+00,-4.822970498338100542e-01
-3.222087415336555960e+00,2.779563419801120983e+00,-2.665837030302477206e+00
-1.391761666388293683e+00,7.359480474473564016e+00,-8.695443073347370877e-01
3.838354293486446078e+00,-9.075438499450283469e-01,1.392576456664290641e+00
-3.338168156539516596e-01,7.868529164635345019e+00,5.295955152944497035e-01
1.877684006259223937e+00,5.227727676725385741e+00,2.740661505834622425e+00
3.038671303122515877e+00,2.364099082385839878e+00,-4.857339996877269028e-01
1.988716910842724950e+00,-6.120351178571275419e+00,5.282339476370865317e-01
-1.087902049169717555e+00,-2.596437872159327309e+00,2.172043282958301624e+00
-1.820432907022315971e+00,-3.731462813202801154e+00,-2.993189482368107779e+00
6.213108873345254413e-01,3.399057099692992967e+00,-2.383790418686463575e+00
-4.745394515799887802e-01,-3.016158340480756817e+00,2.470249776706777478e+00
3.137383159440664482e+00,3.217051737868968697e+00,-3.900383543520093421e-01
2.538594420322175083e+00,-4.031298152865456785e+00,1.330294700579629785e-01
-2.579080722777887580e+00,5.496241290763066445e-01,-3.296891627596356233e+00
-8.595311683321372742e-01,-9.182249829614145042e+00,-2.342516081979278408e-01
7.887023268669909326e-01,-6.703016803284245206e+00,2.187153703622621403e+00
1.807318266341174373e-01,-3.163669934022125041e+00,-2.239867283008882382e+00
3.374745460729605906e+00,-1.580476713485475582e+00,6.129387142958522272e-01
-1.106410183171183448e+00,4.794649786745143416e+00,1.227841541702840988e+00
2.766134332764121240e+00,1.964279257962875613e+00,3.274611664834379265e+00
-1.410027542990239580e+00,-4.043033772635387990e+00,1.895942046971985651e+00
-1.795437107224431950e+00,-1.462577117625294632e+00,-3.210515418113643271e+00
-3.878828078398281143e+00,-1.971161322119348025e-01,-1.071824464134765176e+00
2.162134050250414496e+00,-1.041743493604881943e+00,3.309054831413138054e+00
4.012002062386185841e+00,5.205020756965199169e+00,1.866622321300893894e+00
3.285575830489584792e+00,6.799245154927471724e+00,2.058982949295641074e+00
3.092559065399653306e+00,-3.768576247493408804e+00,2.263654986848653738e+00
-3.262753997838348408e+00,-3.947866954645312010e+00,-3.000032689651442652e+00
-1.992453098957123858e+00,-1.982983262044823336e+00,-3.213040885090208132e+00
1.744738022822391210e+00,-1.921724117501307783e+00,-1.346000281227852646e+00
6.480192186375877128e-01,8.102289712714355829e+00,1.105598370453480417e+00
2.366842291086369343e+00,8.611365913023394825e+00,4.158078041721537943e-01
-1.721072358167370364e+00,-5.942996031944197455e+00,1.438351780349041542e+00
1.809273656620565385e+00,-4.102891877057096792e+00,2.937002048309385049e+00
3.237933516075039098e+00,-2.468036068429626251e-01,3.129492508123666639e+00
2.969742161240413125e+00,4.481290609079162657e+00,2.901745587406070914e+00
1.486366208937409450e+00,-6.850072027827645904e+00,1.930715854887833371e+00
-3.689522530927992428e+00,-2.191965358387757412e+00,-3.509788560515844646e-01
2.919073134041750617e+00,-4.013963680083685870e-01,3.257883360714642240e+00
1.624356426973925238e+00,8.361198676724374224e+00,-6.494569309831994541e-01
-3.708977069714100239e+00,-3.757752823032281420e+00,-2.757585298334767732e+00
-3.758785268069108731e+00,1.129953032824873166e-01,-8.960652164493291272e-01
3.515893186843142448e+00,-5.681522748286058633e-01,2.943693296303993012e+00
-1.709025016216008996e+00,6.947412779531616955e+00,-7.771378597135670807e-01
-1.804077632112698060e-01,-8.345368606159601299e+00,-5.353830791470453043e-01
-2.081956287536017580e+00,-1.741477536300585660e+00,1.438076490270879804e+00
-2.672621224969767173e+00,1.399637721042250815e+00,-3.234518592143885485e+00
-3.441850938100722068e+00,4.398602982173717424e-02,-2.760189127749089755e-01
2.201380000040625173e+00,-3.987865041098149099e+00,2.895954598115071388e+00
-1.272399486109764277e+00,-6.497687623500070231e+00,-2.172655633044210166e+00
3.801363260526593013e+00,6.256629162192459681e+00,1.500119421089297411e+00
5.376127737748039870e-01,7.089582483378772615e+00,-1.826686371462055813e+00
2.790201172298212740e+00,-4.372084285032695306e+00,2.392557759046646915e+00
1.943719684254946456e+00,-3.996712687109038598e+00,-6.677842187660867346e-01
-1.923675843736737945e-01,-5.916781167587224388e+00,-1.802634733252201471e+00
6.514997823951721445e-01,7.985767909661974917e-01,2.961039825965850802e+00
4.031258969443353379e+00,3.736011219926647642e-01,2.438011756550802822e+00
-3.291781875313260830e+00,-5.907178999725111623e+00,-2.492506434448334751e+00
5.937215885803331927e-01,1.054282933319657722e+00,-2.430259057392602617e+00
2.335450558711022140e+00,-4.976203154213174606e+00,2.462026489211861513e+00
-7.582867800589727647e-01,-8.609136599722685190e+00,9.009150038421888107e-01
-1.110531027320976333e-01,-8.055215046563382941e+00,1.447367396677728069e+00
-3.491576991402263186e+00,-1.774159283045176894e+00,-3.131600972527571525e+00
2.048098216768568847e+00,-1.345725158089377205e+00,3.254223643401188859e+00
1.219655096976616671e+00,1.641047294388164435e+00,3.077561086136320956e+00
3.401386232883229499e-01,3.522522794887967823e+00,-2.530533458142641745e+00
-3.246089677651694760e+00,-7.487680219952338234e+00,-8.888135366885304700e-01
4.369519172772627358e-01,-1.985115748005702729e-01,2.896968535024439628e+00
-5.272387187201049707e-01,-9.108875268263467717e+00,1.546683874601921527e-01
-3.677546269849442329e+00,-6.352105611193741730e+00,-1.580322608346999003e+00
2.136703664489163490e+00,1.730784766465994329e+00,-1.366685737424465863e+00
3.969818739060778423e+00,7.216559188298280469e-01,2.501841526568037821e+00
3.548856523404675833e+00,6.827287399577218530e+00,1.648697703190173058e+00
9.120739777125453918e-01,-7.095551284220782406e+00,2.055482309944637098e+00
5.412853272035004215e-01,8.132817736247593743e+00,-1.387667146509377947e+00
2.988484474281093650e+00,5.177939963137564661e+00,2.797643208564404738e+00
-3.254671669487283037e+00,-1.998178387142749979e-01,-3.148056862561338765e+00
4.097376092505302658e+00,3.855743987350298774e+00,2.071474402205411458e+00
-3.561878342772868855e+00,-6.536977163593111761e+00,-9.318692327717197355e-01
2.003271479615999606e+00,-6.481682766161290132e+00,1.333544579952562481e+00
-4.104614612193429046e+00,-4.209254975924960007e+00,-1.802741319407839216e+00
3.699221853331750243e+00,6.149663071716976681e+00,8.563680618207374362e-01
-1.765927599138269910e+00,-3.208477643749982899e+00,-3.042229371609892929e+00
3.251712448513558229e+00,-9.713492251672334321e-01,3.045958636688324894e+00
-3.290912457377653144e+00,-6.171012694644938179e+00,-2.262607798708289319e-01
4.226076523223873949e-01,-6.420791405458948553e+00,2.293798946939836103e+00
-2.607883608200772141e+00,4.073245724917266664e+00,-2.621740216932200607e+00
-3.607072046808297294e+00,-6.789885817503671817e+00,-1.213954475915126618e+00
2.853575889820801681e+00,7.651957409596067627e+00,1.004326553668776489e-01
-2.238781610788513898e+00,4.745874879502300026e+00,1.170992572505948071e-02
6.105762793491611440e-01,7.249769400220801296e-01,2.916926619075032701e+00
-1.981934992561940501e+00,4.347542050323691676e+00,-2.833280813818038091e+00
3.583872297563190035e+00,9.494868158375611156e-01,3.001589655949608026e+00
7.631880784831689413e-01,1.506272605442243062e+00,2.903604027146156952e+00
2.284920018211639814e+00,-5.407126779305066577e+00,4.573313522278531496e-01
-4.085744003775915623e+00,-4.316120624246764237e+00,-1.900825992971002076e+00
-2.278292801939255374e-01,8.469994991933337047e+00,-1.169903726207752737e+00
-4.878817308345266279e-01,-4.504885253385295663e+00,-2.355622451298530429e+00
1.190625420058792905e+00,-3.923336738828975712e+00,-1.351173117632336274e+00
4.087098932015814645e-02,-8.796155398203207909e+00,4.808093435612623701e-01
6.719395479646761427e-01,7.356036733736511124e+00,-1.678801212984378566e+00
-2.576596228303699387e+00,-8.616075235336255744e+00,-1.013367729049531984e+00
-1.877539763938418371e+00,3.080200418555026687e+00,-3.090451196793535082e+00
-1.147105127318136963e+00,-6.988644380428881142e+00,1.529661437833875093e+00
1.867670548520121043e+00,-3.227554003055559395e+00,3.057270963535167585e+00
3.143566781084599970e+00,1.062684925782600320e+00,3.253690255729910330e+00
9.133656029985911529e-01,8.906678136218854291e+00,5.079586468536112509e-01
-3.504647402790005639e+00,2.388013000049918677e+00,-1.222359078410143463e+00
-7.314590194680069546e-01,-3.559604460309846452e+00,2.298799391069907383e+00
-2.000896986169451885e+00,6.317987877939222230e+00,-1.878900493698855589e+00
-3.405673975528515918e+00,2.067681947774466789e+00,-8.103954925617080640e-01
-3.820705812766498344e-01,-2.599697645127910794e-01,-2.888404986532817631e+00
2.743025080669386995e+00,-1.991783636275010538e+00,-2.595077006883773074e-01
-5.732097824127080354e-01,-8.850213228926669728e+00,-3.334923332381204975e-01
1.249920611800438452e+00,-6.974275721838049336e+00,1.987078066925592079e+00
2.360188302472764121e+00,-1.546528764602465023e+00,-8.197161752757556874e-01
-4.070884423595768631e-01,-9.060280273867983070e+00,4.259246413220148519e-01
1.290121111362195760e+00,-6.195175425980351314e+00,2.367851708891542728e+00
-3.055725269133382493e+00,2.111178432750334899e+00,-2.156317307758937596e-01
-5.662972284738473361e-01,-7.721487251771531390e+00,-1.356459431596544363e+00
-2.546006283791186320e+00,4.399138161970887140e+00,-2.573916081156122360e+00
-2.165092076151923894e+00,-2.985333028253675525e-01,-3.330851138693257774e+00
-3.994209681485548113e+00,-2.471961765918144760e+00,-9.715697733725335850e-01
-1.185225157882734859e+00,-9.133782154244057594e+00,9.886717492029155341e-02
6.879561529664955932e-01,3.395473438764553986e+00,2.650392611530797193e+00
-1.543394764621455639e+00,5.768471196861733929e+00,3.942748793516485661e-01
-2.250155192470183252e+00,4.529870325716585100e+00,-2.661603473566874545e+00
2.944393771401958126e+00,-1.448986366661667802e+00,-1.180094924489063363e-01
1.815415539294361391e+00,-1.722540558403657662e-01,3.264132477720608438e+00
1.629352050405954433e+00,-3.082165235874646303e+00,3.111658711744579975e+00
-2.270855183888019102e+00,-7.032657383981553600e+00,-2.178457894196629052e+00
2.232935642056966152e+00,-4.548236891844037011e+00,2.662057560757050023e+00
-1.851547642922423798e+00,-1.864153591516687636e-01,-3.315771053187128725e+00
1.354825566707954954e+00,-7.498748640193409365e+00,9.567012758588558929e-01
-4.155693617189866629e+00,-3.178822637218486680e+00,-2.020771066629137636e+00
-1.951383913983102847e+00,3.130500124829258546e+00,-3.102415122123372004e+00
-2.877330130565244115e+00,-7.386572770604503901e+00,-1.978643901153672946e+00
1.540940702520507744e+00,4.956903693943229605e+00,-1.696463479150233544e+00
-9.238869081774991887e-02,2.693286449874097599e+00,-2.738382101404234881e+00
-1.018619543932793858e+00,-8.512945395143665550e+00,-1.010148416521327697e+00
7.436067014632338767e-02,8.797008383009254473e+00,-3.718114256065560008e-01
-3.253382118723328720e+00,-6.019932351794387237e+00,-2.418435944546551308e+00
-4.153974998678219066e+00,-1.260403444400631345e+00,-1.752268679043114563e+00
9.436622867493841271e-01,9.171206062269073200e+00,-5.826457704780235031e-02
3.418534732184008718e+00,-1.508212544548466760e-01,3.033633261713906126e+00
-1.276769006393124073e+00,2.165999224802347189e+00,-3.162054800144447508e+00
-1.474304009106647273e+00,7.061815376875059336e+00,-1.691690293404545908e+00
3.906999421293120722e+00,-8.394725425983329270e-01,1.616365395162751017e+00
1.990923866848508944e-02,-8.563393478576735163e+00,-2.336064616929951210e-01
1.602362042359130934e+00,-4.414861380932127766e+00,-8.908951531126826362e-01
-1.539506251158231143e+00,-2.515997100730549274e+00,1.874600775456323865e+00
-1.062625395589213539e+00,-8.517255761958287152e+00,-1.067714453752600878e+00
5.369140558226072057e-01,-5.915729422063770171e-01,2.970511418096658307e+00
1.919854808094534793e+00,-6.542623384979811441e+00,1.595232992087577406e+00
-1.371819994374722240e+00,-3.553893838388276549e+00,-2.906947957681565331e+00
-2.091145685062765658e+00,-5.554091867479988842e+00,-2.678805109823680919e+00
-3.848715117279220888e+00,-3.507589879479771078e-01,-9.719990639842369662e-01
-2.592714810320712049e-01,7.522262229198960704e+00,7.851906531010107715e-01
3.903195295749871119e-01,-6.392089758980297631e+00,2.252206884101151552e+00
-2.826187643471857136e+00,4.223499169681011800e+00,-8.540543143019838634e-01
-7.484163653492878487e-02,-5.681141900705860337e+00,-1.823923196538760116e+00
1.084619129751038802e+00,1.300642504284288958e-01,-2.068624877748225899e+00
-8.338707633533243291e-01,4.589189662480667842e+00,-2.774301147695009462e+00
4.225053853968675277e+00,2.241763354522626095e+00,1.946591685590720600e+00
1.177023972515427452e+00,-7.588670393147479487e+00,6.933628230971756734e-01
-3.801068815807062684e+00,9.348462120215780269e-01,-1.343484370988117460e+00
2.415656754951173379e+00,-3.180849549586270530e+00,3.016829244517937880e+00
-6.955752708046617494e-01,-7.293344242297060909e+00,-1.548672307064890674e+00
-1.928085190210356847e+00,6.601136380754467403e+00,-1.384540138092241301e+00
-1.320258795992318657e+00,9.682641985504366611e-01,-3.216913790649840177e+00
1.657906242614201497e+00,2.865120505422807717e+00,3.089807059603159711e+00
-3.169998387359171499e+00,-4.845504553233450196e+00,-2.803784034451485052e+00
1.930846797813421389e+00,-5.377961751987534456e+00,2.468481409789727188e+00
-1.166217346940474409e+00,4.825216657197623604e+00,1.152094805431515656e+00
1.345534736574707679e+00,-3.118474477900732289e+00,3.062994678999474196e+00
-1.558250236674025846e+00,-3.381446708554677549e+00,-2.997508552429918982e+00
-2.878129729772492151e+00,1.252845100122338629e+00,-3.188880395463984829e+00
-8.684101823128569375e-01,7.361885863071873537e+00,-1.822316377062323633e+00
-1.240573487416146481e+00,3.151126152718357609e+00,-3.030995032836375724e+00
3.514073553617935719e-01,2.504013857089056660e+00,2.632264236734072949e+00
3.828438359330305629e-01,-7.894867712999059428e+00,-3.827128413423784292e-01
-3.513396551693538594e+00,2.052329323130154037e+00,-2.594795985418609341e+00
2.129004091016795552e+00,-5.919841030449002339e+00,1.945134372327648853e+00
2.385639705634784224e+00,3.195964791708079122e+00,-1.167702698853414489e+00
3.623595247363254668e+00,6.381372977647973954e+00,1.860828620239632913e+00
8.490567464748745019e-01,9.488546528038941386e-01,-2.304238066659513251e+00
2.807543901796151875e+00,7.656212030689397707e+00,9.217171882291742835e-02
-1.529534447625961580e+00,-7.441636624974941050e+00,1.179793350591338275e+00
-1.884161125809630466e+00,3.070632641494017712e+00,9.410195206466874795e-01
3.290263496527465303e+00,-3.305430982356301950e+00,2.077185587039950487e+00
3.218956874102067545e+00,7.902238977952797949e-01,-1.726053797195425954e-01
-1.990431210900054371e-01,3.550279503169283313e+00,2.172813238983050788e+00
-3.655861144682218455e+00,-5.909226180825970509e+00,-7.290258729206073873e-01
-3.119143503969093789e+00,-5.650678294662681900e+00,-2.630176879048068628e+00
-7.716286072422813280e-01,-8.250813372064666140e+00,-1.062159992600591130e+00
-3.810443282303431545e+00,-2.974876988705589476e+00,-5.565573015364246867e-01
-1.556519160988408812e+00,-8.835174407988622747e+00,-1.001751921291202496e+00
8.780239632310971043e-01,7.624148901995695837e+00,-1.436411782295063277e+00
2.551268235012023933e+00,5.466051200084788064e+00,2.735270172912007691e+00
-3.976215269127253205e+00,-1.792806328430132545e+00,-1.013725002499018313e+00
-2.561505392955973015e+00,4.319114997869929695e+00,-3.612557072525831581e-01
1.649048341833197207e-01,8.508579500984144728e-01,2.706019782859052203e+00
-7.386165479579135384e-01,5.798618830206414110e+00,1.180239562071459858e+00
-9.769061560877737582e-01,-5.485664854456792305e+00,-2.359983365290457602e+00
-2.815445538373202994e-01,4.466012379835662571e+00,-2.663306620738905117e+00
-2.459377430515933494e+00,5.446709444183634119e+00,-9.080410262185754089e-01
-1.385339646859293339e+00,-3.897805685099793305e+00,-2.869381758695901397e+00
2.471543866776722442e+00,-7.143060350546903692e-01,3.312575465407797459e+00
-1.494222272392986772e+00,-8.257217661871864678e+00,8.177432428625608374e-01
-1.348929693623534876e+00,6.257970698564077949e+00,-2.287625179832639244e+00
-4.166322154955441448e+00,-3.180112972261997850e+00,-1.900700273826866793e+00
-3.650639523925071739e+00,-6.556766297607436123e+00,-1.497881824113739935e+00
2.301683940703400211e+00,3.165277896366861521e-01,3.315300897873311836e+00
-5.796847024518114039e-03,-7.210640267592455466e+00,1.928205656117935485e+00
