-1.365637561728148652e+00,3.121517709344007852e+00,4.462753509815629571e-01
-9.615180074874049021e-01,3.009788623753379078e+00,3.052607230726122722e+00
-1.454749646971077448e+00,1.446955593091394210e+00,2.579761035548233661e+00
3.106816141881230120e-01,2.347580670678709680e+00,2.742945364313210010e+00
2.122153529211172174e+00,-2.715883045612524693e+00,-2.973732643516385998e+00
1.263557096038697036e+00,-9.089770302511077094e-02,2.039451069124797566e+00
-2.948096691405563075e+00,4.403333251561926787e+00,2.243595674644013105e+00
1.460789056333273717e+00,8.999612286389293558e-01,2.362892922623840875e+00
-7.739993580692492436e-01,-2.692015448872605021e-01,-2.202324748423727829e+00
-3.344245101525856079e+00,5.174796549603890572e-01,9.334301374323111800e-01
1.937430863443845519e+00,1.122593610327529134e+00,-1.747982474629768412e-01
-4.160432668411160329e+00,1.639397924687678421e+00,-5.211367005389020424e-01
1.019735125848770796e+00,-2.852382206441738344e+00,-2.414154150777784447e-01
-1.412225742405269990e+00,3.888788992953301715e+00,2.668700651800791857e+00
3.288117993234031644e+00,3.728614386932122549e-01,4.265092305184457477e-01
3.047381851511519191e+00,6.654303809659313229e-01,1.164535839862319788e+00
1.965944319641214744e+00,-1.189501842135350929e+00,-2.312293622336642596e+00
-1.241374697971175944e+00,-8.218890178781034228e-01,9.821411707924336820e-01
2.356988176984822214e+00,7.171136812024967444e-01,-3.446480534420227060e-01
-2.889258589665276045e+00,3.762981391125271635e+00,2.987449620947268070e+00
3.815137504687168279e-01,-3.438967742297827979e+00,-2.521788316546165643e+00
1.950594631239317644e+00,1.043697009846351831e+00,2.163808870474387192e+00
-7.928408833816416590e-02,-5.814601205717638555e-02,1.963468004689946644e+00
5.332770406632423299e-01,2.757468246527048805e+00,1.238549076439576124e+00
1.029168839616967368e+00,-2.771939650992147008e+00,-3.063144506828695768e+00
-4.082944046881816114e+00,2.753981681390306413e+00,5.092558792359050401e-02
-5.119097272677090027e-01,-1.328782474176056105e+00,8.170659532123731861e-01
-4.427419228833088027e+00,4.018353941457321277e+00,1.797308267389815084e+00
-2.942523284854564047e-01,2.799470237049857424e+00,5.481708631733693826e-01
-3.670638514239427774e+00,1.116464685761889397e+00,-9.530283344587076044e-01
-4.155712028294098026e+00,2.852972059486836631e+00,2.187115999694313917e+00
2.657900091857761660e-01,-3.385603943628344936e+00,-1.892312332647921425e+00
-2.314048541473160192e+00,4.122118591744060589e-01,-1.744635379010902598e+00
6.778270024370487423e-01,9.757015990618568280e-01,2.531937399895757945e+00
-1.469906999065806685e+00,-1.282395095753744885e+00,3.522248067362865331e-01
2.455830422899909049e+00,9.397025501801636871e-01,1.345675298857634539e-01
2.272960153639089764e+00,3.876795456980948740e-01,1.984018596214434105e+00
-4.746138471484706578e+00,2.675425128843498701e+00,1.340853805707231894e+00
4.733381674559873353e+00,-3.322372791312197204e+00,-1.801735193089786469e+00
-5.881009331705377985e-01,3.299675868377277776e+00,2.837817104795276268e+00
1.742314049147323463e+00,1.376855907652418720e+00,2.224976582605317610e+00
4.525955900478304983e+00,-3.999619365468170429e+00,-1.684098285784502602e+00
-2.082499396590955065e+00,2.364225282855263899e+00,2.835513179530634975e+00
2.311449346461690535e+00,2.241669957378864542e-01,-9.698298881350644329e-01
-4.581185735281064986e+00,3.140360779154031334e+00,5.584946157525757515e-01
3.564281563277597265e+00,-1.774712943608296012e+00,7.884390539857382141e-01
-3.378491539473951644e+00,3.385268294775293452e+00,3.856148476566428340e-01
2.397311786045750903e+00,-2.059298161343851685e+00,7.842960153024620684e-01
1.329589591216871369e+00,-3.700596800708099821e+00,-1.317284589331467304e+00
2.649727148731683801e+00,-1.972458723304435946e+00,-2.509900862816327294e+00
3.916439565662727773e+00,-4.386619948806818492e+00,-2.033872024589210792e+00
-2.836962243190537691e+00,1.395763736232668029e+00,2.094955230550177738e+00
2.300177103884507801e+00,-4.299079300858700492e+00,-2.365489936384028713e+00
4.772135341186371504e-01,-3.154525785098968971e+00,-9.664379925231777468e-01
4.327118113144237554e+00,-1.190027773467332795e+00,-3.486626388686646094e-01
4.614787175401510844e+00,-3.638600158929917505e+00,-1.133525416466918179e+00
-1.357895768188639218e+00,2.096054425924228859e+00,2.869501003998015332e+00
-2.434037498346406370e+00,4.297823408009603163e+00,2.617165762939738904e+00
-4.714291139066189018e+00,2.888824660463998661e+00,5.087339827132092429e-01
1.893699138870784671e+00,7.893357523320724267e-01,2.166836362953690198e+00
1.575269592411722153e-01,8.930623500989877117e-01,2.516447135476308272e+00
4.416663983040620245e+00,-1.519018492777228335e+00,-7.193187745040576786e-01
-1.398674232887761049e+00,3.890103885421921426e+00,2.597928722820806779e+00
2.441383228150538542e+00,-3.394623242315118805e+00,-4.371666813716726385e-01
1.289894930974996523e+00,-3.610044856923764200e+00,-1.210377161062129892e+00
-2.614316652092457449e+00,7.635819460130274794e-02,1.093239306626883067e+00
-4.406783004980997731e+00,4.052400057688601009e+00,1.601114126400094317e+00
4.212849949443899789e+00,-3.603165864530113449e+00,-2.390448302686023041e+00
-2.427685364309116078e+00,2.553941054131589894e+00,-4.048491227315620944e-01
3.565932024834120639e+00,-3.287174298593356969e+00,-2.699492801101544437e+00
-7.917573918137338351e-01,2.609791716242200632e+00,3.834320633799016831e-02
-3.346144220871337005e+00,4.147155249272263866e+00,1.462001260841388373e+00
-8.870269291360215469e-01,-1.081540346678209419e+00,-2.526463845540197983e+00
-2.717120071439799389e+00,4.410062734459375910e+00,2.417466063266454857e+00
-2.618130820043340190e+00,2.887986617221898200e+00,2.942821029760179119e+00
-4.699528459069455266e+00,2.948345336509848647e+00,6.367663082682615272e-01
-4.709552316425767771e+00,2.556576993623841165e+00,4.370161363807286703e-01
-3.179634271673416279e+00,-5.356984111665111792e-01,-6.867556069969357191e-01
-4.660429217819038072e+00,3.717520431659694147e+00,1.478982498046677918e+00
1.637079222690436930e+00,-2.679921439424458374e+00,1.419021014175537998e-01
3.141729547452507543e+00,-9.172789346311641667e-01,1.300643111821320641e+00
-3.806780936767897305e+00,4.584678114444408203e-01,2.342364113083027777e-01
1.523152528784858850e+00,-2.399449856389583413e+00,-2.969139698568377117e+00
3.062655303715422495e-01,-5.567127488160696913e-01,-2.297258954327878744e+00
2.916902822834840148e+00,-3.008814119951577770e-02,1.644952565425009228e+00
1.866037384039939795e+00,-2.557294800959099557e-01,1.906162576999667957e+00
-6.252621452317431716e-01,-2.202822828812954548e+00,-2.653124406207603148e+00
2.762791080457736470e+00,-6.203671874692751054e-02,-9.177332979637109478e-01
-4.910380043701742636e+00,2.908633525270692743e+00,1.174599617498770732e+00
4.414903983640694918e+00,-1.830517659964303379e+00,-1.195961895665155428e+00
-3.806532707228686530e+00,2.618641254217245695e+00,2.302857801947606919e+00
-1.901208963046387534e+00,1.632309049616178065e+00,2.565446898165610445e+00
4.675987177838991649e+00,-2.712560950234802259e+00,-1.606117350832661606e+00
2.360542392448358451e-01,2.177897749703589181e+00,-2.299334551396993269e-03
4.711419179233672594e+00,-2.223434114982767884e+00,-1.011051950461682170e+00
3.072418017722361228e+00,6.136896279200264592e-01,1.148777845779285434e+00
4.167779791287988367e+00,-3.347005212163181032e+00,-5.305666826751104237e-01
-1.195900653360595811e+00,-7.230674374346726108e-01,1.118342424653169687e+00
2.879127751028203619e+00,-2.903096945741116652e+00,-2.867117772225081573e+00
-1.080702446396312633e+00,2.610569898399224709e+00,-8.071492247514545915e-02
-2.646698726831316240e+00,-1.088380640247283537e+00,-1.060640123235144117e+00
-2.273245496205560823e+00,3.904434369312399067e+00,1.210516188490636358e+00
2.450462980280955216e-01,-6.998277355783040499e-02,1.984905642435510043e+00
-3.205220292358515799e+00,3.635798814078694097e+00,2.928459166703186956e+00
-4.709183681678589473e+00,2.071101250076423206e+00,5.848105344169655107e-01
3.923957173357961015e+00,-2.216413721587259023e+00,-2.008043250533817936e+00
3.630257735637121286e+00,-3.608072172797321286e+00,-7.081120542495557002e-01
3.043353663454153590e+00,-4.421797014509482260e+00,-2.486002574268054932e+00
-4.621976887251270760e+00,1.876106210687493503e+00,5.112677674891691337e-01
-1.279673707940292893e+00,3.428624849690807164e+00,9.206634306967020898e-01
-3.457370170175061652e+00,2.400591236249586036e+00,-4.242036422492505010e-01
-4.176480696029667428e+00,8.858275680871290358e-01,5.435380582561444990e-02
2.452216980185906170e+00,1.572295560958349159e-01,-9.495808522845009536e-01
1.026346800174426255e+00,1.413005187139396712e-01,2.148703506988635770e+00
-2.706882604621670296e+00,-4.910583912295719000e-01,3.400853298663688018e-01
4.664761396567311813e+00,-3.823248371820152425e+00,-1.815300652990441854e+00
-2.428006454512376067e+00,3.742799600537138005e+00,3.002027370480246926e+00
7.568971896618337247e-01,1.779582418592569715e+00,-2.012866232740170291e-01
-1.393613619731381759e+00,8.886497407819395067e-02,1.734354779387431655e+00
3.385391879759133138e-01,-3.437089199385706895e+00,-2.312985206482801814e+00
4.453443104129133356e-01,2.044105241151203067e+00,2.727458894283072866e+00
4.619958297252018120e+00,-3.092333182258739210e+00,-1.867214356024648358e+00
-1.426790180957773879e+00,2.802264215447282325e+00,3.077967373725642997e+00
4.130741465929467893e+00,-3.166498957146343773e+00,-2.321540796097264270e+00
-4.321470685894312602e+00,2.153409294904619298e+00,1.566902412193151628e+00
3.584644815417609376e+00,-3.221245200977760348e+00,-2.440168611429530676e-01
-4.834113811326573362e+00,2.691576239606662035e+00,1.171745032290020250e+00
1.875009946460270138e-01,3.153975475504204873e+00,1.855778015700060735e+00
4.154998409635600964e+00,-9.315798109870705446e-01,-1.403498290558441997e-01
2.934721869863580856e+00,-2.617265568888757610e+00,-2.730994737173683795e+00
7.882084358712615479e-01,2.453685972364805679e+00,8.371492972171430402e-01
-2.433565160987522180e+00,2.763706400021156639e+00,2.936373282087717751e+00
-2.206872955771280509e+00,1.056533017502584715e-01,-1.868600058492972504e+00
1.795397366770637770e+00,8.517748590662710395e-01,-6.539575368811076927e-01
3.567854601356785338e+00,-3.199774087805248968e+00,-2.715298294758101694e+00
-3.233391948993921794e+00,5.846078274628100369e-01,1.133427447971141477e+00
-3.441345199012399103e+00,2.295277735730897883e-01,-1.151582740065304478e+00
-3.400431573696053089e+00,1.517270707340304947e-01,-1.218957701595172693e+00
-2.077454010909395299e-01,-1.349311813611935751e+00,-2.687130097235949311e+00
-1.193515727831512552e-01,-2.210502545051460099e-01,-2.179628955325599637e+00
-4.085904671914034836e+00,3.803182592904769344e+00,2.476707677104234673e+00
2.308309603122078890e+00,-4.257568816200100414e+00,-2.696234355325678678e+00
4.329521869269932210e+00,-4.028304159238406790e+00,-1.557431055570401179e+00
-2.179177054077679365e+00,3.016665188753266502e+00,3.055296235234147506e+00
-4.841587250969794809e+00,3.450127379795118632e+00,1.344378462989513023e+00
3.389285213354187754e+00,-3.101473343293216778e-01,1.227897492907431332e+00
2.366712258744719577e+00,1.376679770294537919e+00,1.121066350404605449e+00
3.948316252957096317e+00,-3.212395537612175556e+00,-3.641120330167516017e-01
-2.588220257801223223e+00,1.730464088792747157e+00,-1.001776623125887111e+00
-2.051848855754255241e-01,1.541682818237938291e-01,-1.954797651813750203e+00
-2.934368437769798277e+00,3.926767116808750568e+00,2.914252677860246887e+00
-2.960614543603427684e+00,2.270590786784421888e-01,9.907365055020070921e-01
3.483142157087480761e+00,-2.810545028485587071e+00,8.247807287237751694e-02
-4.340870817279580685e+00,1.143957422660321743e+00,-7.801340261486097716e-02
4.685350392674831888e-01,-2.350654342736277602e+00,1.681410602837162260e-01
-2.921844067107800758e+00,4.259561460052911919e+00,1.770223981497525800e+00
-1.156471269893737386e+00,3.508700446219888747e+00,2.951918304958884853e+00
-4.426691792933145742e+00,1.865442238344319881e+00,-1.762917260759023774e-01
-1.310480130237493990e+00,1.728329688610726222e+00,2.734895987761296166e+00
-2.751471262152687114e+00,3.903488211962756971e+00,2.946332454964505132e+00
3.520209426263247288e+00,-4.238679600459417607e+00,-1.561590768949909780e+00
-1.944935219926828163e+00,-1.568557792032645226e+00,-1.941782019586551389e+00
3.952886186664757773e+00,-1.704105223240090616e+00,-1.535250299118818162e+00
-3.167915031840592199e+00,2.088928448977315888e+00,2.372076316079783531e+00
-9.574176927746170795e-01,-2.158595634099833127e+00,-4.611283928470060189e-01
1.725574303812864585e-01,2.594488251085996566e+00,2.783924756080779161e+00
6.904274875896775354e-01,2.782900004581060571e+00,2.156997719682435477e+00
4.640296717392815573e+00,-1.976895295204523340e+00,-2.508633316404759728e-01
1.506566425345012616e+00,-4.018063582998380845e+00,-2.161464927757337673e+00
3.164063471554404039e+00,-1.382808936346288098e+00,1.128593910182709159e+00
4.226923556354149625e+00,-3.680439639821913023e+00,-8.756813870859075921e-01
-1.739244841711593326e+00,3.916037133463798892e+00,1.486676523882956458e+00
-4.634045448028482284e+00,3.380093510702553150e+00,1.979005853485741095e+00
-1.417250828020521214e-01,2.732749270887628423e+00,5.359191190145217165e-01
-4.750070600400033705e+00,3.204611491495537035e+00,8.897876182303831039e-01
-2.462255682675277058e+00,2.520378666018576741e+00,2.838672810740543451e+00
-1.315387707039911591e+00,-7.147771380791839713e-01,1.029748546311678004e+00
2.507324962317788231e+00,1.067822482275535334e+00,4.553438238462507170e-01
-1.678784744318509770e+00,-1.404681987734600623e+00,-2.257572013694605584e+00
-4.275331129635838501e+00,4.159114488636684648e+00,2.017188061796163723e+00
4.626307978633996676e+00,-2.517217292194230627e+00,-3.078738689885073820e-01
-5.982175089753462016e-01,-4.929206317415020244e-01,-2.344419584329656914e+00
-9.286430208479607984e-01,1.361411908837196316e+00,2.620394348998078549e+00
4.067462765489499255e+00,-6.612964392006785985e-01,7.127543154702004058e-02
3.770924103497323987e+00,-3.558063416806386492e+00,-6.381959974414406211e-01
-2.905642212140754577e+00,2.333298157459165356e+00,-5.407086578867994486e-01
-4.037121187313793547e-01,-3.156333928223409302e-01,1.727119274917752634e+00
3.538938800883144165e+00,-4.294508748169323376e+00,-1.754527298003924152e+00
2.878782184035611813e+00,-3.519981435827590044e+00,-5.564072890422216977e-01
-2.297246823097468305e+00,-1.454347092608554215e+00,-1.446226284015824204e+00
-3.553205849085248058e+00,3.921547992783558811e+00,2.740277110495045854e+00
-3.758852912922133971e+00,2.888733745945458065e+00,3.131111283818698715e-02
-4.589991922180952422e+00,3.609173573258045220e+00,1.988915927298909425e+00
-2.801234962032940423e+00,1.944609741305808992e+00,-8.603138225492813485e-01
4.433301199637081247e+00,-2.384828352465067969e+00,-1.631964258302382342e+00
-7.189729454236400141e-02,3.247547637429899936e+00,2.270376481024475090e+00
-7.677225848420299315e-01,-2.713504436397637498e+00,-1.968667444128700872e+00
-1.255414967419067773e+00,2.277690408743225259e+00,-4.883667583074705054e-01
4.138297693427009927e-01,-7.530510339723039959e-01,1.555119898247957266e+00
1.899100466512277707e+00,-2.319851918406131031e+00,-2.854388798361985558e+00
-4.318363832815375503e+00,3.793183741567719647e+00,1.108261838482880624e+00
8.007629676289910181e-01,1.348927642115028913e+00,2.612918107392686817e+00
-2.351357885520752422e+00,-1.355692570256668006e+00,-1.610972164057004941e+00
-4.695425924770403547e+00,2.208305360873993983e+00,3.520589284343185188e-01
-2.005553193072397988e+00,4.139431531364887284e+00,2.550568055137079515e+00
3.085717942387015356e+00,-1.002094384047385045e+00,1.280814525364725620e+00
-4.750676137997077220e+00,2.915155252701561395e+00,6.879963476303065928e-01
-1.218407164555905586e+00,-1.135722812158590944e+00,6.788110110307320477e-01
4.804242292976073969e+00,-2.227797952061941977e+00,-5.792461750370858642e-01
9.339050374136352584e-02,6.597228285191872876e-01,-1.522102703125509660e+00
1.783755428701785828e+00,-3.319793001835557700e+00,-5.175211805627945028e-01
4.407957608547941497e+00,-3.742181492320650449e+00,-1.068227721693387311e+00
9.560565825863739375e-01,1.984069222276146238e+00,2.212013995005969180e-01
-3.136587895105753976e+00,-4.881701179840121085e-01,-3.877600709806036661e-01
-2.205069430384207330e+00,-1.516584561952781574e+00,-1.639806144565881585e+00
1.404356100689291287e+00,-2.104858639518850882e+00,6.606171727124114934e-01
-1.968010153922342464e+00,-1.615099334458041991e+00,-1.884712768081877821e+00
-2.720201779196406822e+00,3.130137542879756207e+00,1.213685136968035844e-01
4.373659159765418636e+00,-1.280126034927440593e+00,-4.096696756522710814e-01
-4.561704243946348214e+00,2.005638038724021133e+00,1.167255108981936768e-01
-1.976535414663246781e+00,-9.599045898298079749e-01,3.825470322615133756e-01
7.564169241715921199e-01,-2.062442450427619534e+00,5.651638371396608962e-01
4.385332441256052149e+00,-1.456062678563973867e+00,-6.500739623128014566e-01
1.129422336598831400e+00,2.206198329398654234e+00,7.869157784394068544e-01
-1.696153742120221075e+00,3.823495303506668996e+00,2.944731609113949489e+00
1.616993275502146332e+00,1.550075112871931671e+00,1.098909658852622873e-01
-3.880172777364441217e-01,2.605593906260544879e-01,2.118998846859891927e+00
2.466718688889002919e+00,-4.123686894819877047e+00,-1.623867616232878452e+00
-1.025389522536060138e-01,-2.008287434779611580e+00,2.939634295095960304e-01
8.420498098312433344e-01,-2.836614230927901659e+00,-2.960328407005666240e-01
3.966848136191840068e-01,2.992292178937585589e+00,2.149395184859437258e+00
-1.267495252060125477e+00,1.684622864307695034e+00,2.734702862963087622e+00
-1.798870269854797588e-01,8.702553310748332160e-01,-1.444845772703582387e+00
9.241025104475526497e-01,2.600966701092097377e+00,1.631361197186461442e+00
6.199350584911232920e-01,-3.035106713090599539e-01,-2.101334697313619770e+00
-3.577754164608769827e+00,6.740375546429470954e-02,-8.718081972042480698e-01
-2.013103942854048256e+00,-2.875019182278722996e-01,-2.048217047564057758e+00
-3.729402989121433531e+00,4.170566956921091695e+00,1.464822887044261224e+00
2.697531333828941502e+00,-4.363969523691296537e+00,-2.401016868300158702e+00
-2.823433676351105870e+00,4.288323642203593522e+00,1.835794716200729093e+00
-2.624535276013023832e+00,3.720557721680906038e+00,2.990466078166139408e+00
-2.340116535668359976e+00,1.386004013957105485e+00,2.288780842191185716e+00
1.593197550941077401e+00,1.781675427140351875e+00,2.222596890006907966e+00
-1.634803652998053858e+00,8.526943519833186658e-01,2.185534201884466121e+00
2.486640011755404167e+00,1.229491544457531615e+00,7.527876079610719140e-01
-1.319451207606284093e+00,3.774332225587729295e-01,-1.900549527245733783e+00
2.697853815826300128e+00,8.716293139988369187e-01,1.503899477982949318e+00
-1.643398306385902785e+00,-5.035395413922977292e-01,1.084965554057310211e+00
-1.717356692109813343e+00,4.013916899969192542e+00,2.671139047188058058e+00
9.598501240622107078e-01,1.341485675804883870e+00,-5.692458583698341013e-01
-4.344891001645673434e+00,4.008042424335141796e+00,1.384129566232688902e+00
-1.324257142395086628e+00,-1.720787181436606472e+00,-2.415305685783120548e+00
1.337026930609815700e+00,1.358756282090419099e+00,2.438303593837235272e+00
-5.432480059561035635e-01,-2.782582221589860350e+00,-2.308406748981528089e+00
-1.779282678227081416e+00,3.317252109815272743e+00,5.513064385374590870e-01
-4.619216638979105838e+00,3.252083344689547850e+00,1.870959895463594869e+00
-7.043688080490391190e-01,8.260247171766812446e-01,-1.550059719668290814e+00
-3.567851064410724415e+00,6.111328685238370112e-02,-1.115170283591685324e-01
4.132658114231401392e+00,-1.237122088446741319e+00,-8.004719849862885761e-01
-1.687260218407806711e+00,-1.694556469019643297e+00,-4.776676825617802713e-01
2.497691965484363230e+00,3.685588720488155445e-01,1.866047003906094792e+00
-3.090852041163322905e+00,3.995466051160565524e+00,2.895631764261118679e+00
5.674311464852492826e-01,-2.837542096070507114e+00,-4.316101418395602574e-01
-2.650180423688240361e-01,8.152533256260598993e-01,-1.484914186082849863e+00
1.003092509404613031e+00,2.235692752716375242e+00,6.488606195486967820e-01
2.858153895897698860e+00,-1.840744708899542115e+00,8.884747573434363943e-01
6.600603724499742864e-01,-2.315952068412143294e+00,-2.933258552516328610e+00
-2.146980906874096373e+00,-1.135020512546429439e+00,-8.985291689724023145e-02
-3.874321322834350934e+00,2.278651031403879035e+00,-3.586309381486215142e-01
-8.911500538058599874e-01,9.197148262866379487e-02,1.900927947327986089e+00
2.372298888683854745e+00,6.764856175772047120e-01,-4.172848915661039326e-01
-7.524825295057853136e-01,-2.236590564330423803e+00,-2.558513661968641273e+00
4.288646611665440034e+00,-1.255108713403918941e+00,-6.590692922968596212e-01
2.282481255034927159e+00,-3.884784289580636596e+00,-2.949959385981253845e+00
-3.523179787558381459e+00,3.258296630777356206e+00,2.712557797966761441e+00
2.600815722112421735e+00,-2.515980190791712534e+00,-2.763213432299387762e+00
1.199120113691764855e+00,-2.292533628329332718e+00,4.193976561670501590e-01
-2.272575387095227217e+00,3.924396665713983268e+00,1.304035214317957880e+00
-3.247336064662919242e+00,4.338264760346986826e+00,1.847207716032998048e+00
-2.816389552989854383e+00,-8.790229700882388197e-01,-1.358088833991783373e+00
2.611540118364791496e+00,8.758233539972352100e-01,2.252019768881897144e-01
-2.039248323854621070e+00,-2.767911088750413806e-01,-2.070415467833392587e+00
3.070349496848067350e+00,-1.898031233048276256e+00,-2.265182265264333861e+00
3.005961408652287670e+00,1.858425976540260538e-01,-3.671349135808091302e-01
4.111864539736473922e+00,-4.190434238483512708e+00,-1.670978375194202226e+00
1.476120917505192809e+00,-1.500714825219935600e+00,1.160028477904928801e+00
4.708214861860904321e+00,-2.150426141290758597e+00,-7.004729003576793955e-01
-3.401672840842687950e+00,-1.558741856624233924e-01,-9.804665524820095346e-01
3.506529096144027413e+00,-1.054806212903670160e+00,-1.387747667303257160e+00
4.735094869075787472e+00,-3.702235111710884041e+00,-1.465392481489240062e+00
-1.884572700811571355e+00,-1.320806806295537594e+00,-7.533269342779025379e-02
-3.755167133380060474e+00,4.340745461426055662e+00,2.233557757516452469e+00
2.987745679335414462e+00,7.284538148158083981e-01,6.856879862314148033e-01
-2.344604825328194586e+00,-5.136326318837252103e-01,-1.965524611691035650e+00
1.826458785555648445e+00,-4.099587889985165212e+00,-2.487427013687094401e+00
1.531331548302756973e+00,-3.643239871892714810e+00,-2.977274009354322182e+00
3.992287442567047595e+00,-2.702544543585792436e+00,5.773896695669746004e-02
-4.582760581909397501e+00,3.202835600794286197e+00,1.904648281381911668e+00
-4.801994818573713242e-01,-1.167888901662852197e+00,-2.579597902323691905e+00
1.509010760801688500e+00,2.152673892702985814e+00,1.763518187913002855e+00
-3.240684366933604399e-01,2.264070637709942879e+00,2.939906462034781232e+00
-3.360519330553262130e+00,4.235013574736559150e+00,1.622099681423464945e+00
-2.125877007572261612e-01,3.101076998012396224e+00,2.707189057006296196e+00
8.776430890997692913e-01,1.077385055368325073e+00,2.510913050783735390e+00
1.897128093467073340e+00,-4.088142201953161026e-01,1.832544569722998062e+00
-2.194719292762544516e+00,1.678098263322481909e+00,-1.076528210717069278e+00
-3.138761200233231907e+00,4.234499859278069600e+00,1.650434406383430863e+00
6.299026096091271398e-01,-8.890425493769127385e-01,1.530124168923443273e+00
-4.050316001037774227e-01,3.326159963058142655e+00,2.633003986630005677e+00
1.092176383081507440e+00,-3.571743508854071436e+00,-1.290322564769691427e+00
-5.265379038616190277e-01,-2.092657340729194182e+00,-3.377571060591250812e-02
1.004234581761429101e+00,1.479484831040637494e-01,2.162935968691857003e+00
4.385262644542980759e+00,-2.327226915829828435e+00,-1.645272103404203268e+00
4.830999097947090704e+00,-3.325451472404816755e+00,-1.245273014903583997e+00
3.375212797260001896e+00,3.046489654658421919e-01,5.222721171636448556e-01
-1.085255637652911220e+00,3.755779368427094145e+00,2.647448822519171685e+00
3.669438068348408244e+00,-3.824426681588328769e+00,-2.753017162071294877e+00
-2.467936627045034470e+00,-2.977564080707706951e-01,7.385110402327378365e-01
-3.240367697778505196e+00,-1.347303716814631791e-01,-1.274167487184934000e+00
-3.268163840061003800e+00,1.518529327826845687e+00,1.909782662510122186e+00
1.921355809713872764e+00,-2.248194525586973747e+00,6.228154595821572270e-01
2.803293968753047261e-01,-2.466426002655349503e+00,-2.926677874664441514e+00
4.635894287458852681e-01,-3.460231971879234703e+00,-2.586599609690898305e+00
-3.426416737903072551e+00,4.352332481057148428e+00,1.832632594968445661e+00
-1.235309176709390167e-01,-2.438919166714872855e+00,-2.810768974328394787e+00
-1.207253440072831641e+00,-2.393723130791938658e+00,-1.584446403749789178e+00
-3.066040424150600519e+00,-4.572995130022001753e-01,-1.668948628538486911e-01
-4.811414902360055201e+00,3.219678581959295016e+00,1.209631372467689481e+00
-3.858247396389515860e-01,3.497625041682211666e+00,2.300985484440760231e+00
-2.341617308003798748e+00,-1.135286999321322293e-01,-1.892236178778554656e+00
1.553892446191017518e+00,-7.486089136507657615e-01,-2.138589142236996921e+00
-1.426448372740700687e+00,3.286793717935209802e+00,6.407280452311235885e-01
4.815186969996230637e+00,-2.575703282861373733e+00,-1.012418466735831135e+00
-1.666053377275199532e+00,-1.014414269927628620e+00,5.191074247855812507e-01
-4.482340760582308903e+00,3.823191565242847645e+00,2.244323579399568391e+00
-1.862361016289942661e+00,2.726105198043685451e+00,3.016426063184668660e+00
-3.885062885629467111e+00,6.753124436826004606e-01,3.875477521573989503e-01
4.143824678918875293e+00,-8.279278461839617576e-01,3.342716804204827197e-01
5.221427640362913403e-01,1.491333063427714878e+00,-6.328377310170127945e-01
3.513582389963501917e+00,-1.037175740282822334e+00,-1.328183061649848229e+00
-2.364899288604874528e+00,6.469631402521826002e-01,1.755277199607636174e+00
2.857433589178946853e+00,-4.178434499433361538e+00,-2.881341645805062690e+00
-3.577344772295990794e+00,1.275610522122704038e-01,-9.312653045951311270e-01
3.045518754021912411e+00,-2.621795644699008943e+00,2.945114979529739330e-01
5.776457834012227455e-01,2.865004257328023662e+00,2.198101459609332231e+00
-1.395689626527654992e-01,1.778388246874381906e+00,-6.303342650343282116e-01
-2.645912067331603446e+00,4.362770068491797382e+00,2.406436124842909585e+00
1.971113067637673133e+00,6.799362743960292166e-01,-6.848180229755054249e-01
-8.116668315496901043e-01,2.897522069826135027e+00,3.038795763852477627e+00
4.461831562598081113e+00,-3.680899386180036092e+00,-1.022698343565717760e+00
8.980367303866417794e-01,1.591254330430582842e+00,2.616249631949638221e+00
-2.788885395388595256e+00,3.972161609422498518e+00,2.932881854575990932e+00
-1.655181209564080547e+00,1.174707591502258008e+00,-1.401779666256779189e+00
4.022951412995604770e+00,-7.825863464788878066e-01,-3.653256739514635365e-01
-3.083841307592872116e+00,2.743689512904110117e+00,2.702018157211018679e+00
-9.257169681476810075e-01,-1.948305595865529316e+00,-1.371437543915348112e-01
-6.424075455746340868e-01,-2.823527687943510944e+00,-2.142788190946789406e+00
-9.828795209088810880e-01,-2.430126351021418163e+00,-2.285345841972092895e+00
-4.851935184312040406e+00,3.157003174354008568e+00,1.063339199424820025e+00
-9.078512361319476809e-02,-2.923469785470310445e+00,-1.028166392403549567e+00
-4.316816633044592955e+00,3.706827788462446094e+00,9.826015838271219272e-01
-2.531109189043028174e+00,1.181780671348654499e+00,-1.364872142069308181e+00
4.477877601908222260e+00,-1.498462483492574382e+00,-6.551105593747592881e-02
2.280688251557631663e+00,2.687574206645159669e-01,-9.242172264601034026e-01
-2.033012041869357578e+00,1.806552992843454941e+00,-9.638509144047597843e-01
-4.090147960174308039e+00,3.757538146663296441e+00,9.730861385325696444e-01
2.693786667659482159e+00,1.884669299223716010e-01,1.734895611216828115e+00
-3.114893914189889479e+00,-3.925179220095132981e-01,-1.429938843499350964e-01
3.897700605972532539e+00,-2.748283095229636430e+00,-2.316251672224217018e+00
2.952619052958228574e-01,-2.972640847502581618e+00,-2.835667102741155521e+00
-1.998723708842972568e+00,-1.115580519927126479e+00,1.103191472732834161e-01
1.774117626267439185e+00,-4.082323983208778984e+00,-2.669422579141205176e+00
4.017926168045404367e+00,-7.551792636322505192e-01,-2.904034406856399464e-01
-1.733268343479752227e+00,-1.918431716181058677e+00,-1.089824587996723881e+00
1.848434504276663393e-01,1.589818939903463457e+00,2.747693768837709438e+00
-3.157085897897291993e+00,2.147624043780238523e-01,-1.443702996172790520e+00
-1.749608810779590629e+00,1.226346824251136614e+00,2.375314438686344065e+00
2.771327024156893248e+00,-4.333260764926608388e+00,-2.438067003491545925e+00
-1.713550479859615949e+00,-1.623278097354474703e+00,-3.713246610625957622e-01
9.785729632225220742e-01,-5.864575026101410682e-01,-2.193022678394642710e+00
1.225511115602669898e-01,-1.977140793976268185e+00,3.995201269254384790e-01
2.524208005846566572e+00,1.138484776016001954e+00,6.450386950537680963e-01
1.702684051491243356e+00,9.043361717174065451e-01,-6.052971889494590529e-01
-3.642541390475093621e+00,3.372239925292738416e+00,3.948712481784068529e-01
1.421470508418411161e+00,-2.352238692307179857e+00,-2.938850658532324633e+00
1.928750375537927164e+00,-4.137716393217628408e+00,-2.015451593885360548e+00
9.420194831032177030e-01,-1.637646013348696972e+00,-2.744731159318120284e+00
-2.956083035533095593e+00,-6.118827670815267794e-01,-2.536920544446092385e-01
-2.963962544306740554e+00,-7.320406820740692488e-01,-1.098919775337867444e+00
-1.937310146669386501e-01,3.249470766807256439e+00,2.559876041764708621e+00
3.659072233158254139e+00,-9.724304113918977865e-01,1.009965431335632990e+00
7.000332386305083698e-01,-2.703771012183529443e+00,-1.741901824075003935e-01
-2.581322601003326334e-01,-3.085507531647087465e+00,-2.076939186100583257e+00
4.451344097212948547e+00,-1.525246479975735259e+00,-5.771260540074250878e-02
3.023760810708997493e+00,-3.985303067767268281e+00,-1.132861787817105670e+00
4.654312772299626033e+00,-1.934724166912790144e+00,-1.945891492071231410e-01
-9.638169060605442651e-01,-2.614893090581972501e+00,-1.661454696810763965e+00
3.144104005035641247e+00,4.214504696400538375e-01,1.170098949317725845e+00
-1.254795100188148549e+00,2.463202654132529978e-01,-1.964638709249117321e+00
-1.696723380143086102e+00,-1.525726285446445063e+00,-2.075252849910328989e-01
2.063159470738371581e+00,-2.443597997586197224e+00,-2.879070260065216935e+00
-3.634284062116565739e+00,5.022194825634754833e-01,-1.076307610837752726e+00
1.929362099641542816e+00,9.924663320614166562e-01,-3.262805871794853263e-01
-4.196644890830241614e+00,4.119824718228464633e+00,2.206895926468038560e+00
1.369214431122453446e+00,-3.543592275048789569e-02,-1.690909599494941240e+00
3.214527899104688835e+00,-4.277283101547435962e+00,-2.773301823328488069e+00
1.338903149792034508e-01,9.155261689349163401e-01,-1.312038150502136347e+00
-2.613231505250236619e+00,8.314568347554512906e-01,1.742474545126624363e+00
-4.288299093914753612e+00,3.958823538571353939e+00,1.321166108261694783e+00
2.237878109842889263e+00,-4.068058561169194398e+00,-2.823593838904158382e+00
9.377889489519384281e-01,2.469058513329714266e+00,1.087555377451074223e+00
2.266142399112151207e+00,-1.374021688002918129e+00,1.280332217736260603e+00
3.586347707025243636e+00,-4.416348900133603372e+00,-1.989021874829032033e+00
-3.061575972148894209e+00,-5.405227113219909230e-01,-1.303607488231787626e+00
-2.996127606181566705e+00,3.236768202357374946e+00,2.905649796808275731e+00
4.387712180021363650e+00,-4.112235345411750842e+00,-2.032903228014386610e+00
4.277822792013876274e+00,-2.591746952620495481e+00,-1.911920634152950882e+00
-3.761209311414109635e+00,3.021593000767051618e-01,-5.429766940760076821e-01
4.088270544973246601e+00,-1.177065092580493744e+00,5.788389750305039660e-01
1.844624716923507268e+00,1.603287365031031086e+00,5.079084180014802330e-01
3.326444686987150678e+00,1.508746842417068579e-01,8.533162501708323189e-02
4.825529560142192587e+00,-3.298969053187717826e+00,-1.398686075164621734e+00
-2.277813413603195780e+00,-7.326046098638788751e-01,-1.969060752504468326e+00
3.918626030630156354e+00,-1.645327852857475071e+00,-1.529995526899045277e+00
2.423842206648358366e-01,-3.014851893892354084e+00,-9.039008682455356158e-01
-3.400689351079515976e+00,2.173676906810091403e+00,-5.752348934130203650e-01
1.763359927916058612e-01,-3.356136770922357737e+00,-2.219203365873145373e+00
2.294986800576523933e+00,1.223274777287690629e+00,4.104493814970361920e-01
2.055844719756782624e+00,1.634553897271207257e+00,1.109256018464850335e+00
-3.768519089520127707e+00,6.065166737198659508e-01,5.713810424042061742e-01
3.588149235217954924e+00,-6.866633957147676437e-01,-8.852997662598229844e-01
2.155103754794914561e+00,-4.073956013089736317e+00,-1.624907963629261376e+00
3.301891896776481872e+00,-2.524725884135866072e-01,1.312416122797320783e+00
-4.024583585077577963e-01,-3.890087445475502448e-01,-2.280571964065693624e+00
2.718461043091203067e+00,-4.341372348363792710e+00,-2.437658477846337490e+00
-7.079227850844704850e-01,-2.734753134376388672e+00,-1.539895623292348636e+00
-1.191226458975528812e+00,3.485320247951261052e+00,1.041584937555453338e+00
-1.050843337010535672e+00,2.824688230460246530e+00,3.031337859348357533e+00
3.970976570881004530e+00,-2.485603398125290742e+00,-2.110484151850676060e+00
1.021353130875299220e+00,7.495426335505120941e-01,-1.146800766016674356e+00
4.480199431332140492e+00,-3.161088758519487119e+00,-5.478529740215800636e-01
-1.281608983157115134e+00,6.851568356663287895e-01,-1.690911735265985039e+00
3.730907924858405167e+00,-3.525535171999100159e-01,-2.223260966024491747e-01
-1.396804435665745414e+00,-1.539540740475604075e+00,3.517314060770820178e-02
-2.623289647522387469e+00,-5.437204906515955560e-01,-1.764335063595661612e+00
1.466553805726786397e+00,2.192532310976718080e+00,1.826085304093991502e+00
4.484469567611373719e+00,-1.958962621843916452e+00,-1.194428943250435360e+00
-3.771333473730165586e+00,3.773650731760643140e+00,2.699028109694714406e+00
-4.737084121957024330e+00,3.309582173572157338e+00,9.093318514836904454e-01
2.242591722222945894e+00,-4.198108260017255233e+00,-1.838785394642130422e+00
-1.156329671558994354e-01,2.413461752037689312e+00,9.480113272034131067e-02
2.886257936229352783e+00,-3.634936527014125396e+00,-2.961173358502897202e+00
4.818078623704470154e+00,-3.156174726526927543e+00,-1.390231838888854821e+00
6.965388353054954296e-01,-3.593782102307453208e+00,-2.503159872090315652e+00
2.147037054343890805e+00,-4.189670517921892490e+00,-2.077172953750487494e+00
-2.755830267584438609e+00,-9.765781745576650463e-01,-9.920645672455539188e-01
3.312054320272145969e+00,-1.045349855737177425e+00,1.196813629729524431e+00
-4.038907158376429329e+00,4.179930283715004968e+00,1.573262504290227959e+00
-7.649523947685248348e-01,2.169426093476048312e+00,-4.368217104426952435e-01
-3.994767486798931788e+00,2.065981283809311009e+00,1.790857534056364164e+00
3.797548842672910374e-01,2.992901068464053349e+00,2.209404898604086398e+00
-7.803392861935424252e-01,3.698746476100547742e+00,1.981181190261489533e+00
-3.470483265436891340e+00,4.409995940695058181e+00,2.343338639768999698e+00
-1.660851796819415860e+00,2.617820790828281119e+00,-2.473763016243489821e-01
-2.996650614112374100e+00,-6.021018326143449118e-01,-4.154870004628610225e-01
-3.527044991994248146e+00,2.168900458239874096e-01,-1.102460587874791953e+00
-1.730285018112567075e+00,-5.764861008394971398e-01,-2.194180908255969786e+00
1.192159149004012431e+00,1.915286178510227089e+00,3.393157252665532919e-01
-1.744882175265204172e+00,3.901805734152223870e+00,2.845198427188117662e+00
3.004069472808982955e+00,-8.714712391331919106e-01,1.401869997794020550e+00
5.941750194086140580e-01,-3.066297417426899763e+00,-7.578953560724132066e-01
-4.688372795471313914e+00,2.258807873059296423e+00,4.003572256696367737e-01
-2.447138840645238123e+00,3.209626625316196691e+00,3.046663086477124249e+00
-3.078294675175786921e+00,-6.347267202143610509e-01,-5.978990061204925155e-01
1.660672530265140834e+00,-4.004627506846270890e+00,-1.881125558578348622e+00
-4.825956953005794858e+00,3.480478537818662677e+00,1.258601871233614222e+00
3.884541129463457310e+00,-6.120077467547887506e-01,7.447375738417706392e-01
-3.322265696578690086e+00,6.493392022954393994e-01,1.133873228927620103e+00
-3.229120333070923277e+00,2.503072513993395365e+00,2.572674396929464979e+00
-2.268601968923376067e+00,-1.499964925180310216e+00,-1.478115670738127774e+00
-2.365732456725720301e+00,2.596682491016978123e+00,2.866437701318374831e+00
-4.511363465298481312e-01,-1.778758551677881217e+00,3.731191369671026936e-01
-1.006323232645631949e+00,-1.382120166375415238e+00,5.211640790825069480e-01
-4.502470151531960063e+00,2.820388379352097630e+00,1.853898323493377243e+00
3.945772057944261668e+00,-1.499014183067716610e+00,-1.396966468012647233e+00
-2.922499991421781740e+00,-5.698719723102312340e-01,-1.046446226255296208e-01
-4.158954069924844177e+00,2.675181300903318959e+00,2.065544969822094235e+00
-7.516939622810214772e-01,2.384230344253688294e+00,-2.247075918971449537e-01
2.479118449666205759e+00,-9.379300580674646004e-02,-1.195633556019183974e+00
-3.059451462294168866e+00,4.329783618155834013e+00,2.727952483710756049e+00
3.914733075135085727e+00,-3.898523386610559527e+00,-1.106774152424369051e+00
-3.497159411357154024e+00,2.508493198278104241e+00,-3.629019499354352862e-01
-2.352294162924694287e+00,3.118434528682367812e-01,-1.793132262317137959e+00
-3.329848155864466808e+00,2.136604386661277388e+00,2.318518848878381444e+00
5.739728333477919220e-01,-1.380745001515476744e+00,-2.688796203680746899e+00
2.199379578336706498e+00,8.138623762660535110e-01,2.005982376187001037e+00
-3.606559396451449295e+00,2.520559296852196152e+00,-3.197468493208747709e-01
2.356413017570258006e+00,1.788899329697520579e-01,1.887668992391530187e+00
-4.339121638969951178e+00,2.187951784590697724e+00,-1.146073483145359506e-01
-2.186966712664758727e+00,3.543116834516713554e-01,1.584692534545472098e+00
