-1.501994544383363550e+00,4.539183923765852113e-02,-9.906176422861908692e-01
-3.536975791070453567e+00,4.060916640251090448e-01,-2.854677724890120505e+00
-2.066532792587829181e+00,2.602421131739979798e-01,-1.456796276808746571e+00
-1.288852702824772045e+00,2.022122745556672596e-01,-9.249693563500073212e-01
2.595364044604518305e+00,-3.263197886271723136e-01,2.166589518979289863e+00
-3.929062697358221001e+00,4.992514733137897176e-01,-2.828914344949909232e+00
1.579808029121274382e+00,-7.455397976100372470e-02,1.292419651224249844e+00
1.828520872783588880e+00,-2.020227661452057566e-01,1.727388789391402613e+00
-1.589034535982772445e+00,-1.507152284926831752e-02,-1.236626982544544617e+00
1.498561171640386380e+00,-3.230919306856350204e-01,1.596225188239701387e+00
-1.207816013530312454e-01,3.957940919035844024e-02,-1.345343340594906123e-01
-3.302826016248145091e+00,6.485516696140574133e-01,-2.432512993826757342e+00
-3.054308828729820569e+00,4.302689213434424120e-01,-2.212791578234873047e+00
-2.333173751535607465e+00,1.258381954316208917e-01,-1.952635842562499668e+00
2.409380127849046538e+00,-2.090915605469617911e-01,1.826869608094302988e+00
3.710453103268620545e+00,-2.407140452861095403e-01,2.918309886536637254e+00
-8.217147881924610209e-01,9.445582300483489069e-02,-6.477266266285283125e-01
-3.738495734540085547e+00,6.182340820020949534e-01,-2.955909521602682055e+00
-2.949795092792119267e+00,3.544530875252918656e-01,-2.521049501828132033e+00
-8.818648548463376979e-01,1.057199767091552972e-01,-7.351032501813665743e-01
1.504403331332656135e+00,-9.986965262860685033e-02,1.216114368157778625e+00
3.133916340134175194e+00,-4.297084424473781028e-01,2.409045547504239604e+00
5.342051344157862092e-01,3.233531769847474563e-02,2.493983039489952314e-01
1.222854898856684747e+00,-1.941426584372977771e-01,9.371377319942699735e-01
-2.724160167044724634e+00,3.772810891610435258e-01,-2.023194272062845300e+00
-9.534199969701322441e-01,3.145781059261661822e-02,-9.112749371647727026e-01
3.575072794143169030e+00,-3.611082002249284550e-01,2.870980442691447365e+00
1.592264884979572193e+00,-1.752829391457298158e-01,1.436995622936333650e+00
4.969815257974822265e-01,-9.377530567607997303e-02,3.594126321576940897e-01
1.556143951649824775e+00,-2.331418934573890323e-01,1.151613956748793299e+00
3.505980503367109424e+00,-4.313329534892912931e-01,2.860081883926139046e+00
2.524433031828078100e+00,-4.485026591248305605e-01,2.023335386723055240e+00
-1.736696827368761298e+00,-2.273497771739715553e-02,-1.202390534794369525e+00
2.908862200444685797e+00,-4.071061549325956097e-01,2.395982866100048181e+00
-5.183959465100353992e-01,2.617908064919906991e-02,-5.156451937839582333e-01
-4.796730633344588601e-01,2.494924601700842237e-01,-3.101911863010873294e-01
-1.121786920916055363e+00,2.052357586389174648e-01,-8.738565178968431546e-01
-8.789720545597040635e-01,-3.038519704810131380e-02,-6.161439426931221153e-01
8.725681358895104323e-01,-2.986400324891805031e-03,6.655997845392388479e-01
3.687222471254004041e+00,-4.820875476468759468e-01,2.951797304038604963e+00
3.154713158041543508e+00,-3.995288160816803380e-01,2.475418336092462646e+00
2.539786944290853832e+00,-4.053614466686570328e-01,2.029327918668053954e+00
-1.308370943614889148e+00,1.708525601848536191e-01,-1.009228988895423340e+00
-5.405887948343676142e-01,-1.055515449371230950e-02,-4.877268784809395963e-01
1.656807861135760174e+00,-3.118645532864307568e-01,1.192937589057855741e+00
-3.698973655832016760e+00,4.224639591087430146e-01,-2.971715280768278511e+00
1.389190791560302340e+00,-1.680758784235561465e-01,9.354990081672555080e-01
-1.018760973189780872e+00,1.484655326069958259e-01,-7.263055901705345319e-01
-3.072770634820002122e+00,3.246796334585231314e-01,-2.357160777933880791e+00
-3.420182942101762880e+00,5.376486163431762888e-01,-2.722807207368898030e+00
-2.135667903405630064e+00,4.323483641052698334e-01,-1.830297824761863534e+00
3.725938182977926338e+00,-3.191449697404201702e-01,2.926598612394740062e+00
2.788718586952194101e-01,-7.478140362764483517e-02,1.694976163610784348e-01
6.108072722944841715e-01,-7.037307665155337572e-05,4.903919489427728817e-01
-2.692802155811927278e+00,3.610696318347627054e-01,-2.178131076636667274e+00
-2.867967937858499905e+00,3.911626470304522263e-01,-2.231393557807921812e+00
-3.884523937033590002e+00,5.167723899496494688e-01,-2.919490911540478795e+00
-1.975096981242943750e+00,-2.053261550497149923e-01,-1.706180781870357155e+00
1.733421593926092255e-02,1.935003436256288109e-02,1.770439532091168389e-02
-4.293996272937343761e-01,-7.800378216464354253e-02,-4.810217249232945358e-01
-3.181149236103467448e+00,3.175732292639372178e-01,-2.723086376567656952e+00
-9.130362780677298007e-01,9.254733412089981293e-02,-9.128780279546796494e-01
-1.344285435229450654e+00,1.717229333290623550e-01,-1.012260356215523460e+00
-2.219922402283454055e+00,8.495736609194050326e-02,-1.824399760104129520e+00
-1.994489374729980502e-01,-4.436103415972652425e-02,-1.201389605472957117e-02
-3.243940110190473014e+00,4.069004907099675328e-01,-2.669418373472054018e+00
-1.161037591190424045e+00,2.769684179781005673e-01,-9.914778920225875147e-01
-1.785010220257073232e+00,4.133207098509973920e-01,-1.448148897106936950e+00
7.358573461060856635e-01,-2.738026048231181897e-01,5.323902016809162197e-01
9.688454958093998259e-01,-3.567744412609735044e-02,7.109420035581848207e-01
5.575721866629618217e-01,7.687808335921041125e-02,5.545181227074572616e-01
6.804736353872350429e-01,-2.951654952267622825e-02,6.228282088662598914e-01
-2.522607105841690789e+00,3.513526300140137892e-01,-1.886667933025519162e+00
-3.162432421981849373e+00,3.040133615001759937e-01,-2.472069608246246997e+00
3.045736538818095696e+00,-4.707729378641050122e-01,2.569922895494190396e+00
8.321028594454150662e-01,-3.099375821927737862e-01,6.045289360353465202e-01
-3.097949460305074787e+00,1.347914629600011349e-01,-2.331625165420525558e+00
-2.144305417949575965e+00,1.978059860229458289e-01,-1.620633569095129678e+00
-2.672797819911137296e+00,2.853261128900936860e-01,-2.140384986566116421e+00
2.684861109079718311e+00,-3.642707495424558073e-01,2.000208624520002587e+00
-2.553363163705816063e+00,2.211227714155551693e-01,-1.942345334134304213e+00
3.753059764979123081e+00,-4.868413255131009976e-01,2.979011372021231008e+00
-2.923282324402548316e+00,4.350177309477310517e-01,-2.344186556577898095e+00
1.286869942207868045e-01,-1.697219402861899207e-01,3.972118421914944825e-02
-1.451352527315013630e+00,1.086002524257377311e-01,-9.584359132748543342e-01
-2.205969656886591856e+00,1.069364231713696572e-02,-1.603085452445166537e+00
1.550199989291487945e+00,-9.806583316366020153e-02,1.170767953050657617e+00
1.452964661854430739e+00,-2.548031830716667723e-01,9.353610363734614630e-01
3.021547291228626531e+00,-2.899850906242409931e-01,2.370028188661014390e+00
3.232242917855774778e+00,-3.303791580091924307e-01,2.780946953963682855e+00
-4.184288105884621106e-02,9.070729985817764518e-02,-1.208066954446837538e-01
-2.337590143056259340e+00,1.227436981941808919e-01,-1.930391473237151656e+00
-1.525239519680725575e+00,9.779311434798183822e-02,-1.178236075722967735e+00
2.529167974289909804e+00,-1.173744916984183345e-01,1.947452585367216438e+00
5.509035516690174994e-01,-1.451680018436192765e-01,4.031958734249916354e-01
-3.603101302897218972e+00,5.864159166054174754e-01,-2.894964432249306885e+00
3.431975204350984132e+00,-5.394455173205541243e-01,2.695101984842971365e+00
-2.922990435738189507e+00,2.000632438049958772e-01,-2.361630370766009790e+00
-2.889358416475343638e+00,1.518842465551869525e-01,-2.329785776637519401e+00
-1.325827801754587476e+00,2.820336118311518314e-01,-1.008629999895385154e+00
-1.751991080780199050e+00,1.462916445139094412e-01,-1.154015202333922741e+00
-4.712161395719982049e-01,2.564946069793638816e-01,-1.783276424093078183e-01
-5.314204093287508979e-01,-9.340705716427331884e-02,-2.511225455030161591e-01
1.361698897177435974e+00,-1.050698798530258493e-01,1.051397797405828838e+00
6.214010009569302939e-01,-2.567875493691786082e-02,4.376392235123114927e-01
1.010765424133021950e+00,6.156276168971016455e-02,8.278965937915594431e-01
-1.740148367546921371e+00,1.093405699827482980e-01,-1.523148232132268909e+00
3.223148385409151828e+00,-5.222307140209403453e-01,2.643615095449261432e+00
1.015508058048702367e+00,-1.449927624952882799e-01,7.423284826026503858e-01
2.477529590899641310e+00,-1.811160395949892588e-01,1.788789578481473574e+00
-1.427390700563226256e+00,3.108095928136875644e-02,-1.038037303765737773e+00
1.900290915914834455e+00,-3.250974573378908605e-01,1.523135937196393952e+00
2.801160943912010204e+00,-4.098311675552234745e-01,2.253602633966460544e+00
-2.274743262275087385e+00,2.289025877532399056e-01,-1.618701141528826382e+00
-3.400718478107173759e+00,2.169281546439000563e-01,-2.590776347658130696e+00
1.420185207050123521e+00,-2.551210064370137420e-01,1.267495666921888642e+00
-2.991966816002509688e+00,2.537549004086426252e-01,-2.517607584287571143e+00
1.774038392877873793e+00,-3.341356231417030864e-01,1.358940067766711390e+00
3.074133098977473999e+00,-2.883581572642528457e-01,2.677017760782195666e+00
-2.143905057689839300e+00,3.519702966031711400e-01,-1.793004778315555603e+00
2.014070949129169730e+00,-2.027115747142730351e-01,1.482543271126911533e+00
-1.223240869169062384e+00,-7.016104347011645204e-02,-8.805698336338867449e-01
-3.558411197153836802e+00,3.546667245242394184e-01,-2.852495603956183068e+00
-1.975021931404454145e+00,2.963320025530269963e-01,-1.450550266613835459e+00
1.944695098793022714e+00,-2.031096291141530619e-01,1.709250054895673498e+00
2.188969623891996452e+00,-2.480590758440094912e-01,1.723942791951520004e+00
-3.020168914572613605e+00,4.103943141517058524e-01,-2.288094725263180251e+00
1.840175258038063033e+00,-1.228703533812121745e-01,1.523590079702347833e+00
-1.519453467972494920e+00,1.694763553701515435e-01,-1.066607426201460873e+00
-2.491094252948522936e+00,2.333922132375911007e-01,-1.912370553333800904e+00
1.054169628775438516e+00,-1.822276479408659888e-01,7.215695313871942629e-01
-3.314481347598827732e+00,5.636376586022511237e-01,-2.766697827718880287e+00
-3.914160281176242151e-01,-1.185402710461580106e-01,-1.679400877514851398e-01
3.192512507311672909e+00,-3.236560378073303212e-01,2.583992498840324892e+00
-3.732956652336143932e+00,3.988064711336669621e-01,-2.820744683826114763e+00
2.115550035131748441e+00,-2.090863313835804871e-01,1.589414448951575132e+00
3.164295859624015606e+00,-2.773082742507007592e-01,2.424762278274018801e+00
2.238817007018477856e+00,-3.309312673312828634e-01,1.703410591769011884e+00
2.022430427866142910e+00,-2.544723277347021861e-01,1.571592136601076550e+00
-1.465116492609184751e-01,-1.915329645433027847e-02,-1.099572155777595733e-02
-8.209902336106743581e-01,-2.798993403436160141e-02,-8.478191474454561671e-01
1.048272538696623624e+00,-1.581449499080045118e-01,1.072811290788440619e+00
9.061464025034019487e-01,-1.743529148249664817e-01,7.211878494615696633e-01
7.657326818633711785e-01,-1.168754931875699010e-01,5.924058278544941381e-01
-1.332599428497792005e+00,3.095493312865914004e-01,-8.997109835300438618e-01
2.506510786843954008e+00,-1.120757498774641037e-01,1.850937189483110146e+00
9.535436656047340254e-01,-4.804673562495002936e-02,8.116625218991220247e-01
-1.475277506314701448e+00,5.258349510008237387e-02,-1.298506165142688573e+00
1.418575665744111758e+00,-7.270512739472007047e-02,1.211772194758622634e+00
1.832591125885541627e+00,-1.760080940651923276e-01,1.500742145855734178e+00
2.915541472352953356e+00,-4.462118683200624880e-01,2.229512641788002902e+00
1.056147954790220000e-01,4.844376224976706946e-02,2.535576544726559356e-01
-1.847169948782130533e-01,1.146554522318465330e-01,-2.553590927727167892e-01
3.409585873215230101e-01,1.710041374577087395e-02,3.540736660476569431e-01
-3.599681953753066654e+00,5.582200202133960065e-01,-2.868428466323480475e+00
4.826997822701102892e-01,-1.320509769894938623e-01,4.284323734926492322e-01
6.453164754578348816e-01,-4.558306478300963582e-02,4.715217394226281500e-01
-2.603980699442297819e+00,3.178525320641210072e-01,-2.012576074978135399e+00
3.173188091273583034e+00,-3.899531005020966945e-01,2.358819704939399742e+00
-3.636107464569649839e+00,5.024480315035799727e-01,-2.830381959114130819e+00
-3.089017083906127503e+00,5.067206460725767192e-01,-2.422116425772141923e+00
2.580105315420619494e+00,-2.717478915901770375e-01,2.134567486073110754e+00
1.168982185650230265e+00,-5.206113571052663896e-02,9.233455071900003031e-01
-3.472714949159473097e+00,5.576328286941272250e-01,-2.843870718749291537e+00
-1.138446946361156842e+00,-4.357641843294782213e-02,-7.343067601648057829e-01
3.138236701690882313e+00,-3.944610435031580264e-01,2.589629527822942645e+00
1.282914307027190226e+00,-9.347653781209733226e-02,9.470468578170461171e-01
-4.207072684695313813e-01,-1.104349289073281032e-01,-3.068419470750156086e-01
3.987815733804843443e+00,-3.454506988819657787e-01,2.830084122443696337e+00
-2.163025757275602423e+00,3.186199025514875882e-01,-1.791584559606770988e+00
3.085473430186671973e+00,-1.849358911704855057e-01,2.438156832181325839e+00
1.635473568277200140e+00,-3.083517665391208862e-01,1.124656697662078653e+00
-3.412968295969864396e+00,3.129155242020170147e-01,-2.791390670192710033e+00
-3.457560421194148859e+00,3.293571630438762443e-01,-2.777511363515891230e+00
9.446991641976727472e-01,3.978476657714833525e-02,7.663698613435826479e-01
4.002863528429467799e+00,-3.719238049559717707e-01,2.999964140115191302e+00
-7.136521813101284195e-01,3.531122852871921430e-02,-5.013731437187117779e-01
2.084650450186930737e+00,-3.282048368937791061e-01,1.792691036674489924e+00
3.364282192427785922e+00,-5.014430431558294377e-01,2.823726665095895427e+00
-2.440573523701988101e+00,1.582992362889001914e-01,-2.117111100887818065e+00
-3.442503340872392847e+00,2.332107038447102099e-01,-2.712942852928081017e+00
8.514680205734623808e-01,-2.040631284112817689e-01,7.398815050583542607e-01
-3.382390430874302911e+00,4.015834994718333606e-01,-2.809677120632630754e+00
2.469674416365509106e+00,-3.608178610193661373e-01,1.990485186556817832e+00
2.053527315605877313e+00,-2.867545466699892853e-01,1.452078352979257581e+00
1.870853271283968944e+00,-1.714073519785135336e-01,1.323501117838768115e+00
-1.666093093253636193e+00,1.847603115244009220e-01,-1.324037354883910167e+00
-3.602214390605618544e+00,3.737790067409181294e-01,-3.029202400240216697e+00
3.684212544303986814e+00,-3.418182306911046187e-01,3.027072140752237406e+00
-3.403616400160331401e-01,9.092233609096987690e-02,-9.310177619779781699e-02
-2.136153580393850504e+00,4.154976098272870066e-01,-1.824094339792245556e+00
-2.507315092373449517e+00,2.641171193521845706e-01,-2.000460290876234559e+00
2.954289128478382764e+00,-3.153364663307864357e-01,2.426266769428905956e+00
3.562965595357985293e+00,-4.107448501708332866e-01,2.791304068588433385e+00
-1.529300675785951080e+00,1.738496333454653542e-01,-1.252608967085333758e+00
-3.562097444357123166e+00,4.731688984125294040e-01,-2.580418706886327573e+00
-1.513158359129748831e+00,2.532865743436950590e-01,-1.252092022019448692e+00
-1.923273921974121281e-01,-3.636277871841297766e-04,-2.022699422283649739e-01
-7.936262928450527054e-02,-4.915556393641047628e-02,-2.077608140373444698e-02
2.008039813165928500e+00,-2.312758997322010013e-01,1.448516753521818190e+00
-8.681085503258703651e-02,1.319205250813930697e-01,-2.359601913554221775e-01
-3.288192632554967076e+00,3.798728184643684891e-01,-2.436928118864781556e+00
2.829891560672632700e+00,-5.116721225868416933e-01,2.088044403816470940e+00
-2.485458817505742157e+00,3.305743196938573658e-01,-1.753215500588239717e+00
2.070059073583165044e-02,-1.031520688507822914e-01,2.046323105810598630e-03
2.096811193585614408e+00,-2.694388583489250588e-01,1.597532457917894666e+00
5.739994342480029266e-01,-1.179063958915045202e-01,4.393860087951899640e-01
-2.122625932657510039e-01,-3.922049812291355207e-03,-2.598340308660785358e-01
-3.099167144945459640e+00,3.830826351692628862e-01,-2.487320425506999833e+00
3.503597832997127348e+00,-3.309541398602026674e-01,2.861754686683009474e+00
-2.200995394859557752e+00,2.387133604227390238e-01,-1.566221936839894635e+00
2.507951370513530343e+00,-3.457849139068350230e-01,1.847375939622121876e+00
-2.463119466771207300e+00,1.830850751097179985e-01,-1.890745453350835437e+00
-1.969383907900930542e+00,1.902978226263338235e-01,-1.550713430877908916e+00
8.114239312806238447e-01,-2.163343479809078373e-01,6.228082166414125043e-01
-1.257106505311731626e+00,2.701915942233311663e-01,-8.557255862396827562e-01
-2.055097513026592715e+00,1.881888421192022542e-01,-1.613976011892888085e+00
3.098419428515424290e+00,-1.609362802888916200e-01,2.547794479820820523e+00
-3.563641744700424052e+00,3.458065561507635000e-01,-2.919288292934036910e+00
2.099302592345832164e+00,-2.805315317546737686e-01,1.562414309118332012e+00
1.327143256974831154e+00,-9.146095366985051989e-02,1.003622178531610620e+00
-1.171535188264975602e+00,1.663377543229355715e-01,-8.202218741227513821e-01
3.987298705220014838e-01,9.991027505578332912e-02,3.082505263629268244e-01
-3.517374379496541081e+00,2.958244839263978743e-01,-2.948351868275556953e+00
-1.366828896398603721e+00,2.906074922379238701e-01,-1.027334304008780563e+00
-1.222670867174808551e+00,1.098453041599668223e-01,-1.074980511168573294e+00
3.334715905801416191e+00,-3.521382105267734652e-01,2.517497258136031757e+00
-2.507270514379932091e+00,2.932009679751525488e-01,-1.956931474172321384e+00
-3.184095726618239031e+00,4.625961824349198448e-01,-2.567004084985573087e+00
-4.592723025053280783e-01,1.710782557333481724e-01,-1.929873716797220473e-01
6.647017770155815297e-01,-2.031113654729040652e-01,6.480349115737806809e-01
-1.483164607079599850e+00,3.681863349216371040e-01,-1.155622701324159785e+00
-1.000325397192203702e+00,2.216349513576320110e-02,-7.690861830571019686e-01
-2.953340797839727916e+00,1.256278786895788091e-01,-2.485704155200814114e+00
-8.484407696449237646e-01,1.711475296540269919e-01,-6.755784708594930743e-01
3.053437259936934822e+00,-4.294170789433680024e-01,2.391763490213853149e+00
3.767890262285281899e+00,-6.581738927478457679e-01,3.168970596587628918e+00
-5.331929955929313181e-01,9.199363127395407402e-02,-5.467871592629484079e-01
2.503713106656165532e+00,-1.701688512314345203e-01,1.897102385855084172e+00
4.376746122250065318e-01,-1.593613383227077407e-01,4.049539738414907331e-01
2.449918256142562978e+00,-2.791333407656101384e-01,2.013936477814432191e+00
-2.004144888845259764e+00,3.291702803650557452e-01,-1.741009871515899698e+00
1.108071501981283014e+00,-5.306574634753943170e-02,9.567162621371881892e-01
-1.540284760893736005e+00,3.127057225838086874e-01,-1.341952103936843166e+00
-3.473693654408686271e+00,4.647876983788371552e-01,-3.043897791593551005e+00
1.260963590011086488e+00,-1.381212246429017187e-01,1.001550698103876424e+00
1.225304789271091543e+00,-2.217158024026169572e-01,8.113924994057902795e-01
-1.746839254135235775e+00,1.198208486060569761e-01,-1.153340051828226631e+00
-3.027357834078534538e+00,1.885742680970800000e-01,-2.736083300642122573e+00
-3.794165962967466221e+00,5.652311527145315040e-01,-2.951591580092009170e+00
-2.216288358136412562e+00,2.805699075922538643e-01,-1.625282340454667018e+00
3.275623359419665537e+00,-3.966907644321481241e-01,2.559267343467916067e+00
1.662107079323823289e+00,-1.415963266592827896e-01,1.161841451543090820e+00
-8.246045811420439353e-01,1.359010770651840339e-01,-8.455873486846412490e-01
2.462118671876704301e+00,-3.779619045270137256e-01,1.960851386685281250e+00
-1.956123123089320848e-01,9.752346734331324152e-02,-8.059435637727482837e-02
2.252846565998945838e+00,-2.730206854029434416e-01,1.798125653267183210e+00
3.722514658376011365e+00,-3.157661004123262782e-01,2.993990622695287929e+00
-1.429982691089969782e+00,3.044502956087410950e-01,-9.389019352324021739e-01
-5.583627954205537813e-01,7.147504339094958546e-03,-5.715146831432342811e-01
1.133102724273403750e+00,-2.603473560551293198e-01,8.161863026288079803e-01
-4.323581809226507144e-01,1.008012463720598523e-01,-5.843274858095885982e-01
3.751150754400569109e+00,-3.622804566580654084e-01,2.843363908478005797e+00
-3.872638403905193649e-01,-7.609616814564040821e-02,-3.263961703471778830e-01
6.725612731431489522e-01,-9.806639750543019729e-02,6.356913226831685249e-01
-5.011571185294035891e-01,1.164855986389123771e-01,-4.003602489577978707e-01
-2.066092056791531684e-01,1.105311368269766698e-01,-2.008076238031784588e-01
1.933888209209618125e+00,-1.535513677351194872e-01,1.450622729867981686e+00
-3.239857050071048405e+00,3.363897419589678695e-01,-2.651942912135867303e+00
3.803556911301547938e+00,-4.892515036541317808e-01,2.983940383992609746e+00
-2.107480333582126164e+00,2.403605588521680603e-01,-1.825876631134045969e+00
-1.605145686514177550e+00,3.437454166855696269e-01,-1.483910595425835366e+00
1.659604602335901902e+00,-2.225171517367703078e-01,1.263779619628477402e+00
8.844164189652551356e-01,1.615559558727398468e-02,5.679108261690551940e-01
-2.607439057343710620e-01,1.205288872098603248e-01,-2.372668539623381811e-01
-1.694014245782134553e+00,1.776134100486273792e-01,-1.284597331388781516e+00
8.441980668322328629e-01,-7.560622521813449570e-02,7.106920801400412602e-01
3.601377234738667887e+00,-5.684902596630014848e-01,2.966485718403394145e+00
1.905991110667403676e+00,-3.232498949740084671e-01,1.540346724834078973e+00
-2.078727976730412763e+00,3.016150789393792775e-01,-1.782024404792069028e+00
2.679628626131941083e+00,-4.447269808900681798e-01,2.308867700040213133e+00
2.781627727934921634e-01,-6.688939069940356974e-02,4.024771420163896635e-02
3.243192149455949469e+00,-2.910459217637837992e-01,2.413953263858994891e+00
-3.870908489573714473e+00,4.218857296554396341e-01,-2.919929011690895582e+00
-1.070119559919783025e+00,1.596337482390424445e-01,-8.679178311989991235e-01
-7.993493982849259050e-01,-5.317685582146049889e-02,-7.780543441737935995e-01
3.431894777669040053e+00,-3.817895008338853535e-01,2.667473780666170136e+00
9.841738487750621711e-02,-3.854382200103105560e-02,-5.944179574484449724e-02
3.461429824045766601e+00,-5.543437272595460596e-01,2.635485590343753959e+00
-1.832935749006375570e+00,4.529607544833488264e-01,-1.383973776565786462e+00
2.553954747527116265e-01,-1.812815797024574238e-01,2.375434339768985326e-01
-3.707967282733442560e-01,2.530206386220449355e-01,-1.549958099811445666e-01
-2.585052845945718936e-01,8.651826258585727791e-02,-3.352584159884111070e-01
-3.410953854451473255e+00,3.042052016022818162e-01,-2.715163394528481877e+00
3.705034153813339337e+00,-4.703886256094907403e-01,2.863618453373140582e+00
1.162859032454944597e+00,-5.324520049914469727e-02,7.201769171979851558e-01
2.594316146712208671e+00,-3.856193447024321430e-01,2.122991467268854127e+00
-1.002499888845867160e+00,2.066832933387071081e-01,-7.736393870102906689e-01
-1.146466455443637456e+00,1.122789664968861373e-01,-8.869196803461443235e-01
1.494777225990804870e-01,3.572924312841497391e-02,7.893876868153634763e-02
-1.671726271065780089e+00,1.004674224122738269e-01,-1.338545593312721937e+00
-3.812722672225222986e+00,4.029342725597836461e-01,-2.947506772854361135e+00
-1.499674824281832741e+00,2.950692626889532266e-01,-1.200712227938345311e+00
1.649419298076920892e+00,-3.126763682540112943e-01,1.253796068612686110e+00
-2.410330223861028021e+00,4.207422521681469241e-01,-2.200911893538191055e+00
-1.531379454540513940e+00,1.107480383400434309e-01,-1.012519137422148052e+00
5.783328926153233907e-01,-1.123491004614073363e-01,5.739045194342906608e-01
8.103447450247173167e-01,-1.864590026012482443e-02,6.211455698493576483e-01
2.673542405723032811e+00,-3.243146694450724787e-01,2.379827515058911658e+00
-2.510107349078988470e+00,3.426155028988635554e-01,-2.148426317739707159e+00
1.266290930562087858e-01,1.445613556871165883e-01,1.673026685348623366e-01
3.809071848196212251e+00,-5.053550855656911978e-01,3.133252287107379797e+00
-2.907661917917065519e+00,2.205830882402654014e-01,-2.485026385184650355e+00
-5.543050780426596047e-01,3.965686407075831588e-02,-5.173534987878930513e-01
-2.206718334036056106e+00,2.141985732503418893e-01,-1.751337011039750591e+00
-1.656736934467839983e+00,1.244872555650561735e-01,-1.455719806735778610e+00
-1.000993456532163206e+00,1.473671912641441040e-01,-8.718005946217510793e-01
-1.607174115256879254e+00,6.496329346290331819e-02,-1.419353000296574407e+00
1.007931110077463499e+00,-8.204031549162203729e-02,7.015553591541159317e-01
-3.084590926704955827e+00,4.286106305508011194e-01,-2.534350145133144494e+00
1.848889976079136854e+00,-2.061699418863072453e-01,1.416301364960433462e+00
3.664376934876996561e+00,-3.418982697665296500e-01,3.033354301197155323e+00
-3.799309039015832834e+00,4.276231470718355188e-01,-3.154007666279817990e+00
-3.396241506690706569e+00,4.050104966208342705e-01,-2.828715858257841109e+00
-2.940493765274180493e+00,3.400771517131108701e-01,-2.269978027983499125e+00
-3.171059625720054953e+00,3.736237242555567328e-01,-2.388249153343128484e+00
1.346911324406885602e-01,-1.537973359422342978e-01,3.193655754698608851e-01
-2.686329713302574529e+00,1.898126353321062110e-01,-2.064369575917902822e+00
2.590993272513006485e+00,-3.892719365693105282e-01,2.224305307945538601e+00
2.150780868243213906e+00,-4.629388187735349325e-01,1.744685399002393389e+00
8.845138343341604203e-01,1.076521332438437339e-01,5.979512864940140782e-01
2.362715073554893408e+00,-7.267750079431940791e-02,1.965890496366250462e+00
2.201280325741747035e+00,-1.970312466445071076e-01,1.730013968689254389e+00
3.529097052413324942e+00,-3.110100096506368539e-01,2.659140673213737038e+00
1.216799403134020574e+00,-2.578649833867813213e-01,1.068939210385742022e+00
1.234866816113565635e+00,-2.720488973738917626e-01,8.440157546140100164e-01
-6.165587793858057220e-01,1.062317795320725788e-01,-5.338157730850360272e-01
-3.285108446994605469e+00,4.292973606090687011e-01,-2.681950985316698510e+00
3.179754321892045432e+00,-3.826531276110935464e-01,2.705790071251569451e+00
3.789032558418607533e+00,-3.216856151929110008e-01,2.984270767653419476e+00
-2.062667125262070744e+00,2.144053454999837183e-01,-1.761989741436592372e+00
-1.459716424530942191e+00,5.206340709143256890e-02,-1.077525860781206601e+00
-2.364641199693728435e+00,3.737233038545303421e-01,-1.629590185609445685e+00
2.605653470408188621e+00,-2.015062418229709162e-01,2.083610262133373858e+00
2.134065702837270706e+00,-2.704626460601632365e-01,1.840031191424365220e+00
1.978412152411771485e+00,-2.890732365468416942e-01,1.558912806151144581e+00
2.719273956983866203e+00,-1.760471958303352347e-01,2.358777931582026532e+00
-2.571298126338710688e+00,3.152342551258990322e-01,-2.038368449545905570e+00
3.176354255837989804e+00,-2.846019160743574195e-01,2.584351968780294939e+00
-1.967662985099185580e+00,2.369135929081715025e-02,-1.313952289005132057e+00
2.659802295728916466e+00,-2.826579921730576483e-01,1.859447940089924201e+00
-2.315282107992783001e+00,3.521076833343089740e-01,-1.711955961837893447e+00
1.399526509772755611e+00,-2.523209465189614198e-01,1.253889278199368018e+00
1.309188102987141500e+00,-2.129710008462672166e-01,1.108613572612071163e+00
-1.723864802601187352e+00,2.686818163993752173e-01,-1.501547080889042540e+00
-1.337616346612396256e+00,4.387660692041579075e-02,-1.048067609022192537e+00
-2.130348968596243786e+00,2.796946677266212156e-01,-1.619351330530266919e+00
2.814667353382469983e+00,-3.574654836561452775e-01,2.339480539229052969e+00
-2.780033168477025196e+00,2.748368360228393703e-01,-2.138811182343090422e+00
-1.297423561223794763e+00,2.352469492477234081e-01,-1.158208694808884998e+00
2.719661837074604183e+00,-3.503825800666024448e-01,2.346312079981667686e+00
-3.545657725634350221e+00,4.127794772182931116e-01,-2.888275301796370709e+00
2.050065820889474644e+00,-4.687042038676601519e-01,1.729422394444729338e+00
3.611384762311380836e+00,-6.000134029829240490e-01,2.848145404227544031e+00
-1.266447988728842233e+00,5.204395052802283234e-02,-9.238104371874940046e-01
3.488713575598659133e+00,-3.803115004478102024e-01,3.012161846111573560e+00
-4.170623863877542803e-01,1.192503817699263301e-02,-3.866500861555910995e-01
1.371255207631470352e+00,-5.102011264132310688e-04,1.182239905887428444e+00
3.408914310652092716e+00,-3.039979370643673962e-01,2.754795541951990501e+00
-1.133784554463016070e+00,1.564621021137142798e-01,-9.451342622206986288e-01
-1.079291632433890369e+00,8.880786169719950829e-02,-5.638044421387339300e-01
3.288372056399914811e+00,-3.971627863417029891e-01,2.650634034396487593e+00
3.050610750770553548e+00,-4.195229337460786301e-01,2.584378023694689830e+00
-3.253622547243575358e+00,2.716474583363222561e-01,-2.668614863996675801e+00
6.542023366002231999e-01,-1.110297652330890505e-01,5.111933306988971637e-01
-3.320996027852487487e+00,2.601365255080204109e-01,-2.693418690124748327e+00
2.534397110099982697e+00,-1.306942550508962686e-01,2.058618261897919854e+00
-3.551480871554870244e+00,3.797161853696329747e-01,-2.735585697148265272e+00
3.678936097623567658e+00,-4.765616321257992172e-01,2.756634129358702001e+00
-2.920162142881712164e+00,4.772698783121480104e-01,-2.364349146088200904e+00
-3.281863055599469892e-01,2.510346451001916473e-02,-3.216241346204910118e-02
1.820410694069358737e-01,-4.106946976488017736e-02,3.268666142988979617e-01
1.913514420868194232e+00,-2.942382167382442959e-01,1.577228690067491446e+00
-1.006904868494833183e+00,2.155717143346032316e-01,-7.999816746382361066e-01
1.586658820200187447e-01,-5.320553603562826195e-02,1.404442528026288439e-01
-2.103603162350042854e+00,2.665165354639967288e-01,-1.674646797218882321e+00
-6.412529812102925053e-01,8.300860286243046116e-02,-5.437850054302242331e-01
3.864871995512757508e+00,-2.930124663034641141e-01,3.056859388307006764e+00
3.570252810710983660e+00,-3.046006539399826463e-01,2.838001212778181959e+00
-3.544121438965853743e-01,-4.581079749260904416e-02,-2.369522052723148364e-01
1.170812637378030319e+00,-7.300055624338444571e-02,9.571301800845950503e-01
5.787331522492981106e-01,-1.035591717461629285e-02,5.957467527349975533e-01
-3.444759414126430830e+00,4.054106247182358569e-01,-2.968767327962096303e+00
-1.894200258549517013e+00,2.375426990714252784e-01,-1.699894911034848022e+00
1.734297791381077536e-01,-2.273790318011167932e-01,5.899203027831365770e-02
-1.687511891701660049e+00,2.160640703139486141e-01,-1.460914740238780540e+00
9.397415249256716452e-01,-2.383103206708953314e-01,1.009125718515452075e+00
-1.633302744620326763e+00,3.421936021907247549e-01,-1.245716804672709177e+00
-7.894695463047539663e-01,-1.327493392322080801e-02,-6.522945804133417624e-01
7.772884231697643753e-02,1.508545690738682422e-03,3.333428779292159638e-01
-2.752543119084026824e+00,3.270857411532511749e-01,-2.120181414965863986e+00
1.032427762956139805e+00,-2.914549385064326703e-01,7.254138877729017221e-01
2.371736822404531431e+00,-1.876226875923970028e-01,1.957190765579581049e+00
-7.887420599731550519e-01,1.235815381331304280e-01,-8.031215502406967577e-01
-2.831088463557515311e+00,4.664755224906430020e-01,-1.999171925502740699e+00
1.631119600183151164e+00,-2.959918627078055309e-01,1.258398443083361018e+00
4.867117984937401332e-01,-6.693123800007007296e-02,4.184650327772027056e-01
3.239542148434395585e-01,-1.018008738109099920e-01,3.377023100457680060e-01
3.320560476293397123e+00,-4.386693545657833204e-01,2.646666885790221801e+00
5.670354282957522710e-03,-3.472440075145159094e-02,1.016319704518805767e-01
-3.143544014707133183e+00,3.562465012468190584e-01,-2.431026538779191615e+00
8.760464539600469891e-01,-1.558898587815619741e-01,7.524773219842300076e-01
-2.346006200530744934e+00,3.357696814524441242e-01,-2.165729738102007751e+00
-2.706000003788667563e+00,2.589880843989821879e-01,-1.893851424730417232e+00
2.020845802962778145e-02,4.890921541818091245e-02,9.686016475868640396e-02
2.859169913520574480e-01,-1.470236645426557243e-01,1.295307934400550809e-01
2.633575984270529968e+00,-4.114132742147812161e-02,1.979981270708489172e+00
4.905986049915529446e-01,4.871582530286550083e-02,8.082656374761203188e-02
-3.315017253034630684e+00,3.084775346676932317e-01,-2.470854494350501529e+00
3.699817319547053174e+00,-4.560978089869633934e-01,3.031082703305533421e+00
-3.788996704501193413e+00,5.925387152740466679e-01,-2.956072592956443312e+00
-3.363245235462839045e+00,4.305221217134164724e-01,-2.551820687718679537e+00
-1.473828771644460245e+00,1.415116755795556847e-01,-1.249258299894034030e+00
-8.884327206475541028e-02,-2.263333351367846288e-02,-8.483437730939175081e-02
-1.913698777568431986e+00,1.494268285744190794e-01,-1.506676523173896554e+00
2.026366014325114762e+00,-1.044744210503711079e-01,1.487032450344851764e+00
1.219875854577334717e+00,-1.528417999742862632e-01,9.773317482579803039e-01
-3.019046940483505637e+00,2.562594592794069093e-01,-2.419047946785596093e+00
3.785289444314430263e+00,-4.152614280687816906e-01,2.893306315762582681e+00
3.782183521404788862e-01,4.322069910861511127e-02,5.176809967188318318e-01
2.748295442392276300e+00,-3.763749862396968959e-01,2.219983492749177945e+00
-1.728471523377627106e+00,2.395128515963100280e-01,-1.457418621145320614e+00
-2.239427286576507914e+00,4.107873814400748724e-01,-1.836515134845710495e+00
-1.829282167644332269e+00,1.148199243394811692e-01,-1.451349531392838621e+00
-2.585387566305283880e+00,1.196295813387377865e-01,-2.106187347091518447e+00
-6.897059078257968823e-01,7.383617696247897488e-02,-6.974592212900372346e-01
4.771793456959581570e-01,-1.889001642291187888e-01,2.106121651411383411e-01
-1.628600003013392472e+00,9.537933487165924096e-02,-1.359913567304216642e+00
4.009475077743729354e-01,5.164698354558755478e-02,2.976179758248873042e-01
-3.531381059208255735e+00,3.478970873009329390e-01,-2.609090986977044668e+00
3.816942888609155204e+00,-4.915363659275936992e-01,3.229954701886123658e+00
-3.860614657522719373e+00,5.309909828542581645e-01,-2.782449284039188342e+00
3.016437292289011918e+00,-3.490831993671731914e-01,2.425211113686992714e+00
7.089355051313368516e-01,2.363716366463951973e-02,5.816248909495962405e-01
2.779048349693777009e+00,-3.072055254962522408e-01,2.341004767191528391e+00
2.401103333248606475e+00,-2.864743993586069681e-01,1.967970948434095035e+00
1.156517953715776592e+00,-1.435847135434732691e-01,8.038810767882507147e-01
2.217639832914057418e+00,-3.431125155464432308e-01,1.671404090984360158e+00
-1.382150565616027782e+00,1.852551050237035424e-01,-1.091779886092553165e+00
-3.567481935894309064e+00,6.864611039195058773e-01,-2.894847311812811519e+00
-3.466390831688355156e+00,4.411002307019508684e-01,-2.713543252760520996e+00
2.181301239567490668e+00,-3.357225276895458577e-01,1.680161341932166819e+00
-1.914912856797914564e+00,3.788836161792798474e-01,-1.731600813801397187e+00
-3.099319341700062846e+00,5.063070613668346764e-01,-2.229214396614419336e+00
2.939492451911846160e+00,-4.709068361472145137e-01,2.316637059642347563e+00
-1.261636664842419098e+00,2.859313978811443002e-01,-1.230857223117758803e+00
-1.803264711581917590e+00,2.684078182302367943e-01,-1.414731115801646455e+00
1.175732331162183231e+00,-1.506231796121939581e-01,9.987959846602295633e-01
-2.367868552264215332e+00,3.384090770652495306e-01,-1.834003641288302733e+00
-2.542663063105034649e+00,2.759577592928053602e-01,-2.193337393043898409e+00
-1.695176452650439813e+00,1.925814123323079663e-01,-1.462910467426023153e+00
-1.981738554458075008e+00,2.501650737655208290e-01,-1.505007447221025529e+00
-2.686113153189403135e+00,3.447786643320757127e-01,-2.101657097484747272e+00
-2.837656052571030152e+00,4.624280349562828740e-01,-2.292007384163406769e+00
9.234174644347929728e-02,-1.302259590896467402e-02,-8.450281693060712751e-02
2.838783476346713464e-01,-8.538375103105570740e-02,1.919138846338117044e-01
-2.593807218766834843e+00,4.721905353280571593e-01,-2.361177972706187678e+00
2.668366450830042536e-01,1.036204680246259335e-01,2.884236510869287451e-01
-2.961125170077299806e+00,2.838678492022764233e-01,-2.457924737869890741e+00
2.996126138068469391e+00,-3.515791223170404711e-01,2.354155714928390264e+00
3.350620610750629780e+00,-3.765056308107083138e-01,2.775059623783902030e+00
-1.227786374582391093e-01,-9.365022023979911736e-02,-1.402022476158775455e-01
9.552098965447358703e-01,-4.971105116247465094e-02,6.329987706760092925e-01
2.241990739581546599e+00,-1.987655752696676770e-01,1.621657687669729730e+00
2.809713501928809087e+00,-3.504762814360806722e-01,2.064716678173349695e+00
-1.433757366708476866e+00,-5.754150416749203439e-02,-1.071218334247621362e+00
-1.979635321775429668e+00,4.669858607405908552e-02,-1.594880840717392667e+00
2.290437899651575071e-01,5.529158677620854556e-02,6.676626972244396885e-02
-2.531156131773087736e+00,1.930367298009622590e-01,-2.124949962420701777e+00
-3.809781079446061369e+00,5.165609299731561688e-01,-3.022417790204824151e+00
-2.614243752395180920e+00,3.186169193578967107e-01,-2.128050317295750116e+00
-3.487673572660557220e+00,3.835283136456786313e-01,-2.668964122426317864e+00
1.363976183018561217e-01,-9.386642462301569845e-02,1.233886099857362667e-01
-1.156343316204873517e+00,2.923591199664724027e-01,-8.718192711290652097e-01
-2.172257000011529104e+00,2.347105903970405361e-01,-1.719280353908206438e+00
3.708531834610662159e+00,-5.517819189273084346e-01,2.813333479924888803e+00
-9.873209232820110426e-01,3.200797220190103147e-03,-7.441653673768146016e-01
3.760397762322758464e+00,-5.419445869308352481e-01,2.802582425531343180e+00
2.097960031429257466e+00,-4.099209281824415241e-01,1.808161762439399523e+00
2.953352791376800734e+00,-4.059828169193631098e-01,2.471041345039097781e+00
2.792538420331941662e+00,-2.869320549866389292e-01,2.290338506431583987e+00
3.853779263625087381e+00,-5.973566343374515641e-01,2.884713560140412358e+00
3.859280682096449588e+00,-5.472683155029889335e-01,2.770378492683322147e+00
-1.278364800260026746e+00,1.950544761441802277e-01,-1.075560859234893751e+00
1.355264697843858279e+00,-1.055094517481061922e-01,1.232409879180252466e+00
2.285942646056352279e-01,1.366348577301691181e-01,5.492097774086172057e-01
-3.042909063613065790e+00,1.752938155358672867e-01,-2.641646408106070876e+00
-2.707153144144855528e+00,2.981729575043756131e-01,-1.968955077261719255e+00
5.669737531517191620e-01,4.848557311412012016e-02,6.012356236439809765e-01
3.218137043009853926e+00,-3.242805313681516588e-01,2.570255565420324295e+00
