1.881098869004992624e-01,2.883920386887879772e+00,2.246124935528693634e+00
-1.074554124175088055e-02,1.677258922724073731e+00,1.216886129740020861e+00
3.480510305232857593e-02,1.439952392247262569e+00,1.086520329195330259e+00
2.076705140147896630e-02,1.623578095650486164e+00,1.247247831202897617e+00
-2.918471549011868258e-03,-1.350066439157091125e+00,-1.066881419706665612e+00
-3.052846282260925775e-02,4.855843010650859881e-01,4.795727856148013224e-01
-1.481930385255716409e-01,-1.736138476148136878e+00,-1.269222395889222144e+00
-2.066684385226242038e-01,3.556622884235250970e-01,4.459056661435256697e-01
-6.593428717355745428e-02,-2.730630238109085228e-01,-7.006681374777766480e-02
6.727438765906650076e-02,2.401849483615352554e+00,1.896962651535283761e+00
-1.046845363621800098e-02,-2.920289251275538511e+00,-2.142457730974156149e+00
7.681790732151436152e-02,-1.489110881756052107e+00,-1.154015041445461520e+00
2.799122091552822544e-01,3.490111365011218325e+00,2.236277777099064501e+00
6.039932121457775027e-02,2.942666354468957302e+00,2.168988485372879804e+00
3.347497848250651636e-02,-8.596033974372491171e-01,-6.412765857429659766e-01
7.727708091544789604e-02,8.830442386938699428e-01,8.131933414445384756e-01
6.848827195073749208e-02,8.495394166932858093e-01,6.477193206991449514e-01
5.729278764125744078e-02,2.376793572010930777e+00,2.055017912714458994e+00
-1.017758958582093975e-01,-2.276747787611357765e+00,-1.765065852144106495e+00
3.160020371956175078e-02,-1.421492223612915717e+00,-1.073914140892598512e+00
1.571546546630371230e-02,-1.202777107157433356e+00,-9.296037126187712829e-01
6.504384638605729962e-02,-1.206247190361122712e+00,-7.103728273715307351e-01
-2.038089263518566563e-02,-1.396633901459654492e+00,-1.128656983506912015e+00
-5.180509579558967986e-02,-1.932758993555593996e+00,-1.451642419401195871e+00
1.291051902310163813e-01,1.310548795502687769e+00,9.994235187856039815e-01
3.628748105498489501e-02,1.691354945427312462e+00,1.566625028952247867e+00
-2.360532709654257211e-01,-3.175111666967862512e+00,-2.350383641596903050e+00
1.066813161790401421e-01,3.165230092846304188e+00,2.469455433345553175e+00
-1.401859753576446543e-01,-1.876509046865553643e+00,-1.580430575419446981e+00
-9.644722150079818035e-02,4.372374761239881114e-01,2.951656187163360090e-01
4.350915194396656055e-02,1.969208289138142831e+00,1.744666264728155891e+00
-8.135250795007172020e-02,1.111096154786159529e+00,9.035418445128829967e-01
-5.798843812711860363e-02,2.646262083889863170e+00,2.172070442053818606e+00
3.487559311230163661e-02,9.838168724898836981e-01,7.542622146376879444e-01
-2.015974490471921562e-03,1.975280610233185907e+00,1.443311520670590875e+00
-1.921757399719632373e-02,1.004811821217022505e+00,8.093892967965063967e-01
3.785320110406917120e-03,2.623999277435900446e+00,2.015990467752081905e+00
-1.383343131843380036e-01,-2.027476400058991768e+00,-1.367732635028472421e+00
-9.992457484979609672e-02,-3.340093705694350490e+00,-2.465684159905991102e+00
5.634616654776381656e-02,1.742252006576455514e+00,1.170720237554512488e+00
-3.190891840260379198e-02,5.863917098254626259e-01,4.933990514090072499e-01
2.323243032408803255e-01,5.839748170223275636e-01,4.508787315170540433e-01
1.620025280856125516e-01,-3.144786660376874821e-01,-5.350089071816720859e-02
-2.127973826247137601e-01,1.264004600337204298e+00,9.430543299446769723e-01
-1.052170720236409451e-01,2.367008137913092725e+00,1.818273652741921431e+00
-1.412190870969375345e-01,-1.988985159293780391e+00,-1.478123480711245774e+00
-5.032675832573110797e-02,-5.988157786992173159e-01,-3.548798307161134535e-01
-2.723547082203730055e-02,1.718987978075782630e+00,1.341348855622022329e+00
-1.237654250618654486e-02,3.140672222154703874e+00,2.369699031499943764e+00
1.016826499318543645e-02,-2.849114505146817411e+00,-2.330621622401612747e+00
-4.656631336758740303e-02,-3.609812870366712056e-01,-3.898424380819650037e-01
9.486840858788765651e-02,-4.414857539422405441e-01,-9.092955464121779685e-02
-2.887155132912420583e-02,-2.700568494671943487e+00,-1.985731960765815707e+00
-1.164754017053713786e-02,-2.914266096483796531e+00,-2.098397413635444408e+00
9.637923236206734356e-02,2.093036002651551097e+00,1.677892521326827202e+00
2.930875984948499643e-02,1.683429312408599499e+00,1.346178296903964400e+00
1.705564011970347738e-01,6.787799494270450040e-01,4.993903628455361732e-01
5.734258737344312407e-02,-2.184923995568616828e+00,-1.518483694862548639e+00
5.121604206123118661e-03,2.427890656624513532e+00,1.804240371313198921e+00
2.110987129070428583e-02,1.939177565826064875e-01,2.052520580283190288e-01
-6.237824805369798081e-02,-3.703659344039138546e-01,-1.844927525446788397e-01
1.333879311025527037e-01,1.560237264100357457e+00,1.124338155585487886e+00
-1.156196783592874783e-01,-1.916174152374487738e+00,-1.466944067800922680e+00
-1.321176330631579354e-01,-3.250120511841796844e+00,-2.304937349136986224e+00
-2.678760753343101611e-02,-2.091805624313945344e+00,-1.617126070439416585e+00
-4.720907333240460801e-02,-3.263722115118299794e+00,-2.271887598324180857e+00
-6.285611551415135057e-02,2.097358105838644793e+00,1.681553111421111968e+00
-5.328117024174450905e-02,6.669207034565168002e-02,4.720973182320461342e-02
2.341222284024437050e-02,1.407099652681599311e+00,1.085560514842718538e+00
-6.885934154378903216e-02,9.348685351542741495e-01,6.070702904595352001e-01
-7.489728826359691449e-02,1.775439227471181880e+00,1.280657247952936117e+00
-1.047641917397754835e-01,-9.266900874401711174e-01,-6.741173130076282272e-01
1.547010278072393774e-01,2.497293775787956527e+00,2.020195912611281397e+00
-4.600601862088998101e-02,1.048626472768064179e-02,-1.091733194930779166e-01
1.639947615729950292e-01,2.839617355138535526e+00,2.344012252786780603e+00
-7.253075734028344157e-02,3.266074457386953789e+00,2.539504376729755819e+00
9.383750066856365660e-03,1.439185793553044546e+00,1.153268259064242462e+00
-8.591132251044297785e-02,-2.580623981397657030e+00,-2.046859760625417746e+00
-3.982114429428142144e-02,1.673169018006469111e+00,1.314286047491932008e+00
6.351712137877037201e-02,2.021114532337711989e+00,1.475413876666933133e+00
-2.338280475331306896e-01,-1.841226205360095403e+00,-1.576602860105999149e+00
2.634780024288052233e-02,4.783153555486197583e-01,3.143479872227285532e-01
-2.831010163477205577e-01,-2.296534213908652422e+00,-1.835952043854883975e+00
-1.767597767995778557e-01,-1.233943082757591597e-02,2.000127271535768678e-02
-1.365597080440318911e-01,-1.660249099719653953e+00,-1.245260623434678804e+00
1.577487129366846874e-01,3.108667598693879430e+00,2.323366678591170409e+00
4.093435359816698094e-02,4.880620990324945341e-01,2.776623194955591400e-01
-1.415888006332138294e-01,-3.375537135968163405e+00,-2.487316380102325031e+00
1.155379008793340767e-01,3.472025112532226565e+00,2.446341583843302914e+00
-2.282924235640618194e-02,-2.339565048291574190e+00,-1.813877526524062755e+00
8.959189789516704139e-02,-1.001688148116918420e+00,-8.294533401346013690e-01
-9.138734088897157437e-02,-1.899287799936898447e+00,-1.557078781857437644e+00
-1.087841650426236116e-02,-1.633891968687550544e-01,-9.888520523558281400e-03
7.123351762338873960e-02,1.656749401583099912e+00,1.149306210977014464e+00
-2.008658329544471266e-01,-2.798592606022161533e+00,-2.038571368062925160e+00
6.920131068412213593e-02,2.572815707342245517e+00,1.697487100010039107e+00
2.418798460045234675e-02,-2.581262537631827225e+00,-1.815223494644098601e+00
-6.308660891627562717e-02,3.558762467701981347e-03,-5.630798978121450554e-02
7.425433999982344879e-02,1.597846636789592711e+00,1.225145860671978504e+00
-1.915583338331131591e-01,-2.353516023759653297e+00,-1.692964627568027236e+00
-1.559172287072141116e-01,-2.888313963941912199e+00,-2.077762850500116443e+00
8.325953010015365793e-03,-1.953506579944213728e+00,-1.277063110775433996e+00
-2.736133606659339051e-02,-6.079941772067157801e-01,-2.413573968015343407e-01
-9.048089324948493939e-02,-2.094913517949564152e+00,-1.528587420106775063e+00
3.637680870144239381e-02,2.456366112153573589e+00,1.895984916597447834e+00
-9.461901761649578468e-02,-1.950797563585120464e+00,-1.530815620411689837e+00
-9.663691761296214211e-02,2.024705800964076374e+00,1.454263639528837304e+00
8.893472881398516161e-02,2.194033492384357409e+00,1.476335587722221954e+00
-5.767445628757786324e-02,-1.219999321871554798e+00,-9.218601280974181300e-01
1.735169401635524855e-01,-1.118530797323341458e-01,8.697607752222537292e-02
-1.064328371120315531e-01,-3.127062655128873381e+00,-2.424165280001299383e+00
-1.566757759597624811e-01,-1.989098270401438384e+00,-1.393854357564829893e+00
-1.029136509663971244e-01,-1.647605380155496180e+00,-1.151679661119215048e+00
-1.756848566210526819e-01,-1.146173450350917555e+00,-9.375918752678435997e-01
7.046034228115295728e-02,2.776335946354862472e+00,2.030259035952225677e+00
-2.133242872918602318e-01,-3.190870000567965103e+00,-2.301556300203812633e+00
1.697687520716106013e-01,4.166620472919910778e-01,3.080429971486202123e-01
6.974854429481741613e-02,1.845114245344951609e+00,1.392207336980382681e+00
-4.202980794467485112e-03,-5.912256303285613745e-02,-3.173236378664713586e-02
-3.628487966060296027e-02,-2.267873865877671591e+00,-1.798093219570479517e+00
2.626935421596852602e-02,3.112323534952877502e+00,2.370266462711762667e+00
3.539009043829224183e-02,2.605647446661781608e+00,2.094705365887544080e+00
1.827158688672644860e-01,2.452819493421639852e+00,1.927867356547291244e+00
-1.184279452639040442e-01,-8.589231085996049675e-01,-4.422826343520145920e-01
-9.347504456774341844e-03,-1.761748485497074634e+00,-1.423464713796662062e+00
1.447975762618350024e-02,-2.349694091498260029e+00,-1.777346289134936530e+00
-8.530399984036959871e-02,-9.635954091082632456e-01,-7.628248295030779502e-01
2.258042867944225207e-02,1.871111106568492000e+00,1.515801751465420288e+00
6.912167463699764314e-02,2.189161008347598525e+00,1.539566453961716874e+00
-7.731903975652665295e-02,-2.160155060740676092e+00,-1.602722718137172153e+00
8.015836981379877157e-02,1.940920484390576073e+00,1.515063891845453536e+00
-3.212512902676696591e-02,-5.523293875791497332e-01,-5.477010281215909382e-01
4.736784936226948184e-02,-5.740743309069591405e-01,-2.015815367380199286e-01
-1.787134217970759165e-01,-3.222875520923118131e+00,-2.574912221301399740e+00
-2.597158345539389290e-01,-3.342698622320422697e+00,-2.539899235226597884e+00
2.712689645483613160e-02,2.568955503877370372e+00,1.891084336281540823e+00
4.453269060516414080e-02,2.133270906800109668e+00,1.520394696378254862e+00
9.366961778229987434e-02,-8.438038044228440837e-01,-7.641891767259869628e-01
4.980485813635598946e-02,1.281121620077696033e+00,1.110918005097395245e+00
-1.202695082039176716e-01,-6.649208177425959265e-01,-4.240734014347209424e-01
-1.062782590954737816e-01,-4.782151340353341662e-01,-3.058614456174740259e-01
-1.398125513667282105e-01,-1.345016653123963568e+00,-1.177052017133175532e+00
-7.535312909256473846e-02,-4.425755656336213817e-01,-3.562872505263016687e-01
2.539118694243041596e-01,3.123015018928375852e+00,2.331601436980221376e+00
9.145264150839625683e-02,2.726138416836392242e+00,2.124753138827214727e+00
1.044929017178764658e-01,3.206623280248004804e+00,2.417514983875977741e+00
-1.429763879864896226e-01,-1.447424444341819827e+00,-1.052554159344236240e+00
-8.782094819796393281e-02,5.405402071607864345e-01,3.912566275759891132e-01
-1.427994907474568476e-01,-3.122543171525518968e+00,-2.391268692802609230e+00
1.722944666084784693e-01,3.217981048825949486e+00,2.593765728151907979e+00
-3.776966772588635779e-02,4.573183296698182243e-01,3.225955226609814597e-01
-3.268668353545050621e-03,-2.765035972836681122e+00,-2.095961772389636213e+00
-5.109839883999947596e-02,-2.631884755523000941e+00,-2.114594207006530446e+00
1.163096097040470026e-02,-8.323887339925568618e-01,-6.252299299798385057e-01
-7.875190017790921482e-02,-2.720582622236980885e+00,-2.050240014105362718e+00
-3.882297995848772720e-02,-2.376795374967270114e+00,-1.806261068817693660e+00
-4.364182743711750995e-02,8.051356185684961642e-02,7.150944274865045358e-02
-6.505945113581494688e-02,-8.460634968952119861e-01,-4.062242586875577377e-01
-4.514821021023452535e-02,-1.389133013469846745e+00,-9.128259394845286145e-01
7.273980061582134560e-02,-1.406403190331576569e-01,-4.191869756547993847e-02
1.491230662707829224e-01,1.463030620322586017e+00,1.207173456657946842e+00
-7.832999823529604444e-02,-2.427910977804802251e+00,-1.906668551370423348e+00
1.436247982682582469e-01,2.436797819571354662e+00,1.886235624462978322e+00
-1.505083973141607967e-01,1.604964604477888968e-01,2.318215551681674369e-01
-3.828139910888769121e-02,-1.866132570240767841e+00,-1.512935888756369307e+00
1.582794595226269529e-01,1.703710591154467879e+00,1.201814311712042116e+00
1.668185981597430367e-01,2.519100767083771508e+00,2.142210218118285159e+00
2.006000331066505882e-01,3.033847878698575418e+00,2.404889003859798535e+00
5.312158766585279440e-02,2.671328591818726839e+00,2.018732034570676515e+00
-1.198914017066474713e-01,-2.166215544171004925e+00,-1.519196638711415082e+00
-7.162330201188174539e-02,1.048399524142470840e+00,5.643251231079181585e-01
-5.584349132060650867e-02,9.061402990098884613e-01,5.648888304090626811e-01
1.186156759929710147e-01,-2.495065945611962821e-01,-3.959509133658397073e-01
-3.765653947731237294e-02,-3.182343899212502158e+00,-2.440279492927639460e+00
1.837675561688158904e-02,3.766178810384591125e-01,2.486311057421617121e-01
5.613897026771352133e-02,9.841049521004217038e-01,6.156313872242286100e-01
2.749517268365744144e-02,1.230307574072327714e+00,8.969307358793815466e-01
1.444830279390967587e-01,2.404451213685081967e+00,1.978789768657457149e+00
8.508054954234944844e-02,4.951364822761918916e-01,5.756258200734359898e-01
-1.605028640782378904e-02,9.693652962978470677e-01,8.692924404799348137e-01
1.184554306820294334e-01,4.829348245845387771e-02,1.744790882699001622e-02
-4.152933078907954795e-02,-1.393328762006388999e+00,-1.205190795715140872e+00
1.896670972866712490e-02,-7.717220540851065236e-01,-4.574693514498809899e-01
-4.686330947613946002e-02,-8.671342630280868269e-01,-5.954916519819709597e-01
-5.209166657675202289e-02,-5.727831264613767459e-01,-4.767856851401956475e-01
-2.051265806064694885e-02,-6.487576726526324278e-02,-2.062332449476446394e-01
1.055333866087433854e-02,1.134978717231184042e+00,7.764456843587559387e-01
-1.518827728820880104e-03,2.882566024683617112e+00,2.203566225564605130e+00
-1.831804122417521330e-02,-1.396937902993998337e+00,-1.106454909401049624e+00
-1.517129794737490378e-01,-2.488895465516319572e+00,-1.927992063087820451e+00
1.711881909262769064e-01,3.227168899749355724e+00,2.584939571440680872e+00
1.035713517962883329e-01,3.089245715410312343e+00,2.343073824410228045e+00
-1.026684573503159892e-01,-7.559476137417278085e-01,-7.335950519823558613e-01
-3.448161800912913615e-03,1.410430831133871798e+00,1.215790980067843696e+00
1.129418650284188218e-02,2.548653285580779304e+00,1.965118661089847452e+00
1.795574554211284146e-01,3.253690343509109795e+00,2.563586434228594335e+00
2.733880540191101216e-02,-1.733366540094943842e-01,-3.976910429147554465e-02
1.213589189875520502e-01,2.681481784700673998e+00,2.020149495530518369e+00
-1.562845923062797793e-01,2.128749919693232184e-01,1.964112606133043559e-01
1.087428328084964896e-01,3.009895087140681991e+00,2.352816772154204816e+00
2.210335927007542084e-04,-4.372409748531748686e-01,-1.658536276392724995e-01
-7.287735454377032573e-02,-1.731824072648666113e-01,4.261016979862401743e-02
-1.036616770247547337e-01,-2.274619511714796261e+00,-1.999284354847974621e+00
1.653156542829341269e-02,2.344685218968167284e+00,1.858004642835120901e+00
-1.766597332653214447e-01,-2.929497610999950208e+00,-2.088029143851115155e+00
-7.124823235958116507e-02,9.091057071815972224e-01,8.350420734337214990e-01
-2.342544652057097082e-02,-2.926126512804503754e+00,-2.365627444935769486e+00
2.607372055238019182e-01,2.728880911638942752e+00,2.169998499501054390e+00
3.730942910017159136e-02,-1.456008427768923918e-01,-5.937586373883541740e-02
9.487179961774930628e-03,2.678639737635949647e+00,2.170216461553501563e+00
-4.092592495581481860e-02,-1.450324267616954099e+00,-9.826386712066331741e-01
1.094828349662066019e-01,1.903821332759755292e+00,1.607269513222302049e+00
-4.055648688581051098e-02,-2.769842810990639226e-01,-2.926873310230737046e-01
1.574855403750048399e-01,3.206529227335630505e+00,2.560199455411796610e+00
5.623560338926314461e-02,-1.786808749357133186e+00,-1.488679074534503766e+00
1.441425568803210433e-01,2.035310917964872512e+00,1.608852687425711192e+00
1.701631631062088534e-01,1.173775343430253360e+00,1.015553224462257820e+00
-5.100534145020044902e-02,1.054539382601429320e+00,7.542657498877008981e-01
1.304467498544974458e-01,2.917952876469210644e+00,2.258788569407618407e+00
6.764037046173196344e-02,2.396505477796971206e+00,1.810341942648737712e+00
-1.545174573255199933e-02,1.024747318927742290e+00,8.803314181440005104e-01
-8.217324777008612469e-02,-1.682261999408440012e+00,-1.435428758444995845e+00
8.740736395442030848e-02,2.333653737257661120e+00,1.813413919172863764e+00
1.409293362692790874e-01,4.747203368514604088e-02,2.417142006361055473e-01
1.833615957110704478e-02,-2.676220382741110182e-01,-1.523567447391447061e-01
-2.900403202194919844e-02,-1.605878080406129005e+00,-1.074765493254825399e+00
-1.040125150427435446e-01,-2.079696724121561591e+00,-1.433837697823367119e+00
-6.084966452037834928e-02,-2.672292769705225002e+00,-1.923380520667644644e+00
-8.648164350713170856e-02,-2.541887959182645318e+00,-1.809890597629579823e+00
4.455347946556871552e-02,-2.714240508380813210e+00,-2.168876185462521811e+00
-5.185180667805990712e-02,-8.862967053637027526e-01,-7.062152390152716119e-01
-5.142942550339159313e-02,-1.400185262717042134e+00,-8.892791582179639942e-01
9.622024948960636315e-02,2.227426183260956094e+00,1.692221944607398276e+00
1.850455417972623751e-01,2.980249149764600869e+00,2.217956143226650134e+00
-6.970487033940662817e-03,-4.702378743585787779e-01,-3.335306292169853970e-01
4.117360380578487244e-02,3.114989770126981750e+00,2.373997173999764065e+00
-1.277272528285685604e-01,-1.670155308697143903e+00,-1.417505860511789173e+00
-6.866275234231310372e-03,-6.612735357481783760e-01,-5.096148651324600154e-01
5.833694631661372025e-03,-2.601068373975031101e+00,-2.051831506875075650e+00
1.482988616973619778e-02,-2.912776195938047152e+00,-2.053409511650813535e+00
6.096036133271798968e-03,-7.114463205220075137e-01,-5.111419255554972008e-01
1.010444021476723658e-01,-1.608424853148086253e+00,-1.314341702715148719e+00
4.543114381697207355e-02,2.221558464031224478e+00,1.894285373200830458e+00
-1.391975440933430619e-01,-3.319541724166203078e+00,-2.553553009107737637e+00
-2.789782067330412452e-02,-2.928581316931823331e+00,-2.256556377077784781e+00
-5.324420058974532743e-02,-2.725781806592280088e+00,-1.988851861170109592e+00
-2.089243000533460293e-01,-1.480114461921318014e+00,-1.374889917689180230e+00
1.562043747380534864e-01,1.701169630278436040e+00,1.199412324336741609e+00
-2.486097444513660909e-02,2.981641991722419949e+00,2.251270196074918850e+00
1.263040207359229228e-01,2.666061685164013539e+00,2.061204337067847892e+00
-8.174705566117330957e-02,-3.550630261153265299e-01,-1.919070161602592639e-01
4.374120880418299467e-02,-1.726104229762961850e+00,-1.471099017746192894e+00
1.306161281189324903e-02,2.221032362431559992e+00,1.748312195536369851e+00
-1.345275737145005535e-01,-1.907460118768949719e+00,-1.494955317777555637e+00
2.141572353524529015e-01,3.241601945852415234e+00,2.464892488400895143e+00
-6.517349278889686404e-02,-3.055409994271010898e+00,-2.549787637718711863e+00
5.687372720707114387e-02,5.491993300808141187e-01,4.278741816741175041e-01
5.122276779422270908e-03,2.468488968034440179e-01,3.758628516442660272e-01
2.981062279435531259e-02,-3.502849936130154607e-01,-2.717468569729381000e-01
-1.579007628097508775e-01,-1.651530897136950449e+00,-1.381984013616100126e+00
-1.006484749713067312e-01,-8.407701225721792015e-01,-5.245170999717951865e-01
4.413258357513078628e-02,1.073965352207039148e+00,7.661747854274201242e-01
1.150153341374846178e-01,-5.722829340100561435e-01,-4.504065251078353538e-01
7.489808606295185467e-02,-2.300078825948080885e-01,-3.157482564563592886e-01
1.184204135227466259e-01,1.260011539327479335e+00,8.844736866378583029e-01
2.645617395350938466e-03,-1.247875777994539304e+00,-8.926755606399990883e-01
4.695323280172576663e-02,5.975778487830628594e-01,4.338842770876675803e-01
-1.712881758823250888e-01,-9.030836224429159564e-01,-5.048028583120908186e-01
-6.625368430908412654e-02,7.221435316716208197e-01,3.224848444762103417e-01
-1.808314588542509482e-01,-2.400224794898097258e+00,-2.056542840921474102e+00
-1.480977952472959380e-01,-1.330725385897945090e+00,-1.118295509986593439e+00
-2.187203925291508755e-01,-2.860958798997842667e+00,-2.294635377185426428e+00
-3.350177775319084644e-02,2.640375585202514586e-01,3.162903914674851658e-01
1.964569341544393152e-02,1.079122914350117535e+00,7.589340470251226822e-01
-3.566723718857219005e-02,-1.547156171450810414e+00,-1.185574211604047301e+00
-1.763318365685168435e-02,-4.877357740811673059e-01,-3.829842402046586547e-01
-1.042492043522680184e-01,-3.012188466622451433e+00,-2.435913245243378711e+00
5.718449747032128445e-03,9.332136652271556532e-01,5.642665464346173776e-01
1.170806182798637268e-01,2.251311142977665991e+00,1.628384068801889573e+00
-6.438644660449546753e-02,-4.723854636466012780e-01,-2.426752262582421160e-01
5.164296501735365919e-02,-2.572346619661263212e+00,-1.944513791180236373e+00
-2.405126792714289141e-02,3.847873437886457637e-01,1.233771018836087446e-01
1.947320716849385014e-01,3.230732118103363693e+00,2.558736028341867197e+00
8.467515618383237089e-03,2.054798994538610257e-01,-2.625998466844440757e-02
-7.534555815736029838e-02,-1.095214478486118859e+00,-9.540854322648947283e-01
1.942053295372200014e-03,-2.845696003330674628e+00,-2.098395485475352817e+00
-1.945905697773297680e-02,1.840126373503430779e+00,1.300664576131688621e+00
9.711131329007700874e-02,1.544963334718936210e-01,2.148278884593293747e-01
-8.495897839361674087e-02,-1.304644993978590684e+00,-9.093413372125963567e-01
1.081018651804080688e-01,1.550023252951182373e+00,1.147809857451982163e+00
-1.581473592820297272e-02,1.388440314441996115e+00,1.041431475914008198e+00
-1.229649296512622253e-01,-2.001676117086657047e+00,-1.496052993682535304e+00
-8.874221605676878288e-02,-3.750449027366074550e-01,-2.711295898475023503e-01
-1.244102585520383275e-02,-2.053454006996258130e-01,-3.665516489878792999e-02
-6.392943569093561228e-03,-3.255022036462566604e+00,-2.520180879432780685e+00
-4.922236883452096173e-02,-1.376897466167924522e+00,-9.239987052021065850e-01
6.250180652604564457e-02,3.197765486887726105e+00,2.484385104270025124e+00
-3.341192361683804207e-03,-2.963658355192130944e+00,-2.430279508798141919e+00
6.684813606149405361e-03,-2.730855455312047875e-01,-3.249468781879966822e-02
9.373394611092983331e-02,2.210416211648695395e+00,1.703330391564755075e+00
3.664100526495960020e-02,-1.641212504908962311e+00,-1.106911959420525449e+00
1.134979797444963245e-01,5.406494413726384840e-01,3.435849182853061845e-01
-4.314401716970713702e-02,3.839045798466856341e-01,2.594992258067377322e-01
-1.475644079693111677e-01,-2.238696411310788115e+00,-1.569339684095451881e+00
7.490010181129867252e-03,1.299666019562814911e+00,9.188501403622647556e-01
-1.109806919488962734e-01,1.204638481396189231e+00,1.011436818656195280e+00
1.826940476792114632e-02,1.372168865823847117e+00,1.179227995171172161e+00
1.665883548657494939e-01,1.044486417988345295e+00,7.554384545205966583e-01
-3.249022576638082443e-02,-1.250277167622676766e-01,-2.274865584969315846e-01
-8.371551320635706867e-03,3.201644344131854503e+00,2.408499511004582150e+00
-3.081889793735035493e-02,-1.264648237535350939e+00,-7.055288565741499873e-01
-5.971959983636212360e-02,-4.727703407694163751e-01,-1.742063602344826045e-01
2.824962796442068418e-03,-1.876243099397294570e-02,6.865758215361239536e-02
1.217639120885095211e-01,1.247793738252727103e+00,8.725859532977674471e-01
7.396939067367017118e-02,2.371837621026882559e+00,1.791082009965298871e+00
-9.745225136547797096e-02,-1.663715434424434703e+00,-1.244220069828863684e+00
-5.686530088469116118e-02,-1.751001234936049089e+00,-1.505286828558348056e+00
-1.485203632809481422e-01,-1.104357054239643698e+00,-6.868343574051457567e-01
1.861594012009247512e-01,2.280440314818660497e+00,1.862902559902436250e+00
1.904174735297682608e-02,-1.939544447924308745e-01,1.322552411425677032e-01
-3.842627035372315342e-02,-3.125014761984184375e+00,-2.347457750499806206e+00
-4.960238226095573660e-02,-3.120945045005520502e+00,-2.319624013151703412e+00
-7.680297317281367664e-02,-1.374212975341058796e+00,-9.754278289899992460e-01
-4.403283181898868387e-02,-1.443714994036574328e+00,-1.330044361467458858e+00
1.156693243927461694e-02,5.782016201222992535e-01,4.414950213328525108e-01
6.425413779589560226e-02,1.415943382894545577e-01,1.072328699191979484e-01
-1.425922305474686125e-02,-9.456256286731148375e-01,-6.324657399565792870e-01
5.461058741163115487e-02,3.018566717463215809e+00,2.288744018948325465e+00
3.015940311054915099e-02,3.906617889728561388e-01,4.284067411455506624e-01
-1.031304963461675134e-01,-1.874602156513819118e+00,-1.390464410652098026e+00
1.205375997826529794e-01,2.895970383374379953e+00,2.143989480588443186e+00
5.415338990251566259e-02,-2.243642656601471774e+00,-1.781085595215047945e+00
-2.056164917742385814e-02,-1.038771433098750308e+00,-7.917908038172137841e-01
9.739478974643830944e-02,3.302671500238582691e+00,2.522857671617118491e+00
7.337272789795243333e-02,1.330675533163477642e+00,1.082725351756500753e+00
-4.347876981070236679e-02,-2.190814810571076521e+00,-1.598573859868340996e+00
3.502113614500301092e-02,2.360166591634319744e+00,1.839210495054743655e+00
5.235123647815518449e-02,1.266596377940101270e+00,9.771824532859727519e-01
-8.760737886917323303e-02,-2.588355282195975882e+00,-2.058730853529545879e+00
-7.052984561489546167e-02,-2.054598688253702843e+00,-1.637171137731175063e+00
-1.263395123584649393e-01,1.070408022178780172e+00,8.314420037779053363e-01
1.350824957274439631e-01,1.366826605448691945e+00,1.334966214285103314e+00
7.385640345402863516e-02,2.038667817534228988e+00,1.569514176778682879e+00
-6.216166999320605485e-02,6.290179590891692429e-01,6.727435241359365214e-01
-1.193461413884900069e-01,5.096625932952852239e-02,5.365798750332485996e-03
9.774951460595687758e-02,5.343527549667791421e-01,3.823948782914597389e-01
2.454850839464171319e-01,3.256760905718297128e+00,2.212123180686706991e+00
-1.017843068120775768e-01,2.359516812110036721e+00,1.728854875595474905e+00
-4.031470170669355924e-02,-1.168791756587479913e+00,-9.357323945388894559e-01
-3.799173918075533091e-02,-2.138978226957215512e+00,-1.687407427077802335e+00
-4.537544904292001302e-02,4.772249873781775897e-01,2.753595768207772743e-01
1.328531192506858249e-01,8.487493397359190395e-01,6.596260833998454087e-01
-2.253511791035190115e-01,-1.661457212568832054e+00,-1.310935731119373671e+00
8.952423985135708751e-02,2.318944877038194852e-01,1.959517793397719809e-01
-8.534483765289145249e-03,5.724523672007468811e-01,5.761334784745167914e-01
-5.325226095561075290e-02,-7.688782669007695469e-01,-5.725518243222931236e-01
1.284158488423719213e-01,1.693255193932856395e+00,1.264831265635409707e+00
1.159608767872947754e-01,2.703612536126011268e+00,2.134824076609473043e+00
-4.351979534999197985e-02,-2.862455875963977547e+00,-2.225926756496836134e+00
5.770119883576175362e-02,-2.337059491182104320e+00,-1.787410896962843943e+00
-1.540554716079297823e-03,1.731435466317088334e+00,1.441650794705553018e+00
-4.539737815410850585e-02,1.300038299814046283e+00,9.928153548843386966e-01
7.622186989829102255e-02,-3.206581063348010741e+00,-2.506635011590941708e+00
-7.669440597990093145e-02,-1.116738745527137144e+00,-6.012586369262081787e-01
-1.088378276541272505e-01,-3.050363872477823257e+00,-2.251175512374027132e+00
6.144961364005086663e-02,8.570965184175305396e-02,2.881054002187401486e-01
2.278360568638593819e-01,2.817296777093432070e+00,2.034156399805319815e+00
1.400908925750754264e-01,8.895121593235734148e-01,6.755162075324340210e-01
-8.988057806258920035e-02,5.510465448027807023e-01,5.117206890294710986e-01
1.223584689934608810e-01,-7.008680923556680487e-01,-5.148043908850170602e-01
-4.261730414584823969e-03,1.773827653534464144e+00,1.377857703147836510e+00
-6.322093298742437195e-02,-2.138311995234200680e+00,-1.547949689625713887e+00
-1.751497850055826477e-01,-1.558163252265969856e+00,-1.215199094699198179e+00
6.775180019308513213e-02,-2.036441306042063637e+00,-1.532905199288352449e+00
2.284876084250483594e-02,6.395542785201349667e-02,-4.937584533673942261e-02
-3.217431317185467932e-02,-1.680071182725731527e+00,-1.265886323463079499e+00
-1.428467156020039319e-01,-1.297037489116948716e+00,-1.031425446573107418e+00
-9.351359056130510716e-02,-1.052635358533231813e-01,-3.353355100436558600e-02
8.099501664826658232e-02,1.760944003630752874e+00,1.362066736903342568e+00
7.761627792798250769e-02,2.826414729592578112e+00,2.241240646531446945e+00
3.740858721306919432e-02,6.852864641723193095e-01,4.412632548364447405e-01
-1.035275556542313707e-01,-1.326970004035054496e+00,-9.376957166780865993e-01
3.200385474106871159e-02,1.608601352850982380e+00,1.216738464550844112e+00
1.098250810182857945e-01,2.769917074807023205e+00,2.205924360501341219e+00
1.311579814134953559e-01,-7.781472681870185149e-01,-6.499187957777676772e-01
-4.313912524604639198e-02,-1.685595772384272939e+00,-1.367512265572877972e+00
-2.787767724283836054e-02,8.931538014248019408e-01,4.226521353328965280e-01
6.087914329925767087e-02,-2.183650202110679339e-01,-1.398477073554012517e-01
-2.183837492726408980e-01,-1.393518598499568828e+00,-1.275061524942847413e+00
-1.611666231057652943e-01,-6.358286651782292520e-02,3.673944339817363652e-02
2.993507014151903720e-02,3.780109555306566671e-01,2.247972794703523292e-01
4.022905922192920175e-02,-2.052985145991507998e-02,7.974058733931964696e-03
-7.512886467027757309e-02,-2.003476129822841845e+00,-1.570124313440669273e+00
-1.031104628125930900e-01,6.198194585501739517e-01,3.438259822565492563e-01
-1.231568082037944878e-01,-1.643977017035946453e+00,-1.281773164206042814e+00
1.307769212337485040e-02,9.032278995610067973e-01,6.149271490238457094e-01
9.824633733169418903e-02,1.991613820597596840e+00,1.695526324456831491e+00
-1.939367464280834048e-03,-1.761386302208747257e+00,-1.377143757832336224e+00
-7.731899676096030960e-02,-2.065436048759461407e+00,-1.493904703449816074e+00
1.672188534751259670e-01,1.818658685511000961e+00,1.421253212942667821e+00
3.266407681844357008e-02,-2.374192146884249954e+00,-1.826982601921473881e+00
-8.312200719188449216e-02,1.755648289164035702e+00,1.448001127130011501e+00
-2.950334444071989540e-02,-1.440530998567523202e+00,-1.203213401524872994e+00
-1.315871093350370891e-01,-2.834669969105450438e+00,-2.186161052593876608e+00
-9.987379609555787144e-03,-2.976821393156747320e+00,-2.285812352938298986e+00
-3.685704119249226529e-02,-5.130966343090801463e-01,-5.123194017940542189e-01
-3.494848250747471102e-02,6.736907981955000402e-01,5.112550928037482567e-01
-8.779851864292520514e-02,-1.478712228698454201e+00,-1.219839715446734418e+00
-1.381833769648707078e-01,-3.152789995824773150e+00,-2.486798701519695953e+00
4.088626831630425701e-03,-2.479751241637372150e+00,-2.080068437649410296e+00
-9.182399063961420305e-02,-1.633329257208366442e-02,-3.446574983618052451e-02
-1.220570560509594499e-03,-1.503758975871261949e+00,-1.100604382022667860e+00
-1.767028557492731633e-01,-1.673963004644739572e+00,-1.195952003081246495e+00
-1.148690565765613479e-02,1.430999223438919499e+00,1.259971457759318403e+00
8.360610674863937219e-02,2.090396342830910470e+00,1.536900235668228420e+00
4.597157047169938421e-02,3.084004373979290836e+00,2.423926059543437095e+00
6.093960264840353469e-03,-4.955351796771282347e-01,-3.616983151141024977e-01
-5.041291649687128229e-02,-1.239203208746006535e+00,-9.512808809444432967e-01
-1.478937043349288771e-01,-7.545660314490886256e-01,-6.788156403339145051e-01
1.186392682616759647e-01,2.734903110676920601e+00,2.037766738811005229e+00
-3.281916307018752088e-02,-1.415873893009066131e-01,-1.728304799813939752e-01
7.342998659549589135e-02,-2.640161200201033065e+00,-1.919807525507940982e+00
-1.643871102708123824e-02,4.409152570004336025e-01,4.413777587069536712e-01
-1.554036993950295709e-01,-1.160811808517527188e+00,-8.396479363285573871e-01
9.038693420848409321e-02,-8.946071741673513600e-01,-7.003180433662861137e-01
-7.955712274941598161e-02,-2.767118779428067388e+00,-2.260296363747042125e+00
1.524156598545484964e-01,3.218930604609524515e+00,2.504573291231694476e+00
-5.443573220060506784e-02,8.229844977073450529e-01,7.851317829220448852e-01
2.137750435164973983e-01,3.007420250403462170e+00,2.369565450522580718e+00
4.878472506400030606e-02,-1.035771230018387223e+00,-9.839460579551364550e-01
1.021151590349205496e-01,-2.663801078410174217e+00,-2.077565338468476686e+00
-3.188478749811218815e-02,3.637619917624400623e-01,3.448454578855577046e-01
1.766727831436872842e-01,7.909698277264933797e-01,5.387315784641002470e-01
6.831498946732658673e-02,2.136886890135637707e+00,1.543539661900682702e+00
5.256751685521905693e-02,5.924003965849565512e-02,-1.659242946524022988e-01
2.641133002761712409e-02,2.143217085881279349e+00,1.709224891828043047e+00
-2.193444101273355623e-02,5.897640888333115505e-01,3.518048457382665362e-01
2.319178738452659996e-02,-2.960234226077546715e+00,-2.209257869485447667e+00
9.212982559226332024e-02,7.453982619851329261e-01,4.351044495306927162e-01
-1.254119763701850576e-01,-3.153347110057621805e+00,-2.669203654712359874e+00
3.969916323354256114e-03,1.599983174161111688e+00,1.229671736875898924e+00
-8.343272680679547637e-02,-1.928235323151614278e+00,-1.412531250637842906e+00
-1.111737373233590148e-01,-1.789263388234795693e+00,-1.423919978486496873e+00
2.104458306507371243e-02,5.206007894165831651e-02,2.848780101822675007e-02
4.536993375018334718e-02,6.907754939531876026e-01,5.370259413100545443e-01
-6.134939448738502797e-03,2.940482478895025231e+00,2.387066198074864420e+00
-6.561087110829029456e-02,-1.704297154657302693e-01,-1.845234132390563275e-01
-6.675838233813644051e-02,-3.168688007465759515e+00,-2.337191908983469624e+00
-9.019946075592084889e-02,6.909948871177815088e-02,1.555272178164458508e-01
-1.279283749157057171e-01,-5.546124737970881124e-01,-4.578281805085620548e-01
2.131989111794940495e-01,2.410542850125053871e+00,1.988334472951558185e+00
-5.658477580277683494e-02,3.072810043016347969e-01,1.468544115360309321e-01
-4.926531824237479623e-02,-1.537396088940254257e+00,-1.201438517761974856e+00
1.485349293914314250e-01,2.921658219749477592e+00,2.109008688725403147e+00
-2.250455975358248845e-02,-2.917088176296637858e+00,-2.343233436631082522e+00
2.427739079392252433e-02,-3.049179963729656162e+00,-2.236930800139463216e+00
2.516429185024291956e-02,2.682184920303576359e+00,1.994160637568316075e+00
5.917702084555811343e-02,1.707694860524043179e+00,1.280462402321026705e+00
-7.412768369817916703e-02,6.880433038767926890e-01,4.443722495979711140e-01
-2.583846612411248855e-02,-2.306033166813582724e+00,-1.767276774229530334e+00
5.364502643111013908e-02,1.467992883975474783e+00,1.038924254246671897e+00
-2.831555127168566399e-03,-3.167648338096505256e+00,-2.465653352938640186e+00
9.844680875635776485e-02,2.984646467715968754e+00,2.232753730559862149e+00
-2.610882993339455269e-02,3.534252534465521789e-01,1.332169561220028220e-01
6.095124163252246818e-02,-2.671268542838930449e-01,-3.123201145550885682e-01
3.590172562569567301e-03,-1.416381162770373736e+00,-1.150184494973771399e+00
-2.734257847872904601e-01,-2.903755468803467021e+00,-2.206896962597729051e+00
4.437102328451554556e-02,2.049654860239763288e+00,1.585130461324702589e+00
1.764563371212227519e-02,-3.069467524529598368e+00,-2.354355003726040785e+00
-9.924416086941469095e-02,-1.960751050579610189e+00,-1.576678385127914028e+00
-1.780397682062785647e-01,-1.606815791105563163e+00,-1.249379071697234389e+00
7.061901991458068018e-02,1.803877403146698200e+00,1.397786462692389042e+00
-1.030120331313307824e-01,-2.505423470837113253e+00,-1.935972695852928194e+00
-6.292063191800778554e-02,-2.899654290517466482e+00,-2.120875650208594809e+00
1.002464222650212636e-02,-1.656248830647178982e+00,-1.196041865072488664e+00
9.307780975348919905e-02,5.950495830995119473e-01,2.936759444750181580e-01
1.607244375237745215e-01,1.895413500900177572e+00,1.517576999807055627e+00
-4.082146345659479897e-02,-2.477687992272540107e+00,-2.030435766546220044e+00
-2.164699346556775775e-02,-2.779135330916547630e+00,-2.048931851744705934e+00
-1.146107354323833150e-01,-1.403180534397536983e+00,-1.006980156250688374e+00
1.991023267078253015e-02,9.022598505786806333e-01,6.270243414052851794e-01
1.189751884431235057e-01,2.128438987935118654e+00,1.624833246836921763e+00
8.582752956959774360e-02,3.258821587815224685e+00,2.627177038863226066e+00
-1.328148541577469643e-01,-5.495016795111523633e-01,-2.775949177448479577e-01
1.125323703999204089e-01,2.394375184699323089e+00,2.017110557795120052e+00
7.294365253241121005e-02,1.584419756941230162e+00,1.261176956786848269e+00
5.724687916260452758e-02,-1.295103136525722176e+00,-1.087142568170875512e+00
-4.059593503705447720e-02,9.614252410647428082e-01,7.916456886180329722e-01
-4.505251679216747823e-02,2.396068760809161979e+00,2.008756890507220394e+00
8.401065086802422810e-02,-7.545031951921101765e-01,-4.312076785072374019e-01
-1.297260265348911812e-01,-3.230273499840689233e+00,-2.412973255409956774e+00
2.448419191117776894e-01,3.332666370435150682e+00,2.624284084693394803e+00
1.242167157400288074e-01,1.718843564995800710e+00,1.317072308530174318e+00
3.257711421319390427e-02,2.047929127533658189e+00,1.608577636946867173e+00
5.740251222552790467e-02,1.393852179474937669e+00,9.950737446537555320e-01
-1.371564235510267238e-01,-2.736957059834752126e+00,-2.025144233409878591e+00
-1.970669088440344385e-01,-2.079962846955888178e+00,-1.503744625771717525e+00
1.577794802270626462e-01,2.473321257032857989e+00,2.158588870082988720e+00
-4.582872786182923958e-02,-1.020819029197099631e-01,-1.597045437593973549e-01
3.952694706144569553e-02,-2.512084908710650488e+00,-2.020364680219842057e+00
