-9.087509849400350614e-02,8.331780809877506466e-02,-4.620938091938796566e-01
-1.219418654473512914e-01,2.990530437204594327e-01,-1.168799897142208444e+00
-1.117844357200529076e-01,1.707004719161907824e-01,-6.438492842165485230e-01
-6.752591055547678411e-02,1.176535263057358754e-01,-4.027270294972427611e-01
7.650453202296182698e-02,-2.302463696120460312e-01,8.693229423989249360e-01
-2.014280799530682453e-01,3.285203257410254651e-01,-1.234589426138854140e+00
4.872241183450556207e-02,-1.065216691770488056e-01,5.299448032443571099e-01
1.517123207509440616e-02,-1.644812327405919539e-01,6.499001369651592475e-01
-5.894501666436768178e-02,8.063600911670498750e-02,-5.256523394900284307e-01
-1.817089059355705624e-02,-1.844764760039153406e-01,5.581082922484872366e-01
2.268450940027112121e-03,1.868053718276075845e-02,-4.543752931697851716e-02
-1.642500523265650603e-01,3.384684947544709388e-01,-1.037411635510242514e+00
-1.549546175461957997e-01,2.670336345648297027e-01,-9.603092233455203797e-01
-6.399751922837333684e-02,1.635078825554339421e-01,-7.898637517290165722e-01
1.038306847813215417e-01,-1.805017779069972017e-01,7.779964598593325231e-01
1.381460581769304308e-01,-2.617431572509907878e-01,1.220640113098251822e+00
-3.126554006890327336e-02,6.877093423921144810e-02,-2.687451442914412514e-01
-1.448689140654011165e-01,3.624955598343638785e-01,-1.215897866123359261e+00
-7.547111391639881040e-02,2.601834850028482693e-01,-9.993236874741036058e-01
-2.607956418508826715e-02,7.683728941014145164e-02,-2.954200011260145198e-01
4.983037581708633229e-02,-1.082778860023820150e-01,5.007293606456365564e-01
1.324566868327518021e-01,-2.774999788699861747e-01,1.010820343229797080e+00
5.071707779725949383e-02,-1.209629469030144323e-02,1.479777136288649153e-01
5.283674473552735229e-02,-1.150514226570516774e-01,3.927237450546148256e-01
-1.286572497649696167e-01,2.388328427211913740e-01,-8.657261997029456202e-01
-4.207837574481975741e-03,6.698729347128704048e-02,-3.440719540463020865e-01
1.248601490243246154e-01,-2.887089194933673553e-01,1.180990476268328537e+00
2.593421567443393930e-02,-1.398725052417598702e-01,5.538551001759565162e-01
2.588056728076340920e-02,-4.962096787937177178e-02,1.550805406680403065e-01
7.467783506112182779e-02,-1.408342135340526213e-01,4.930087642924637636e-01
1.157685676342210396e-01,-3.053916926375175867e-01,1.162750409025257836e+00
9.335254336523049479e-02,-2.541738074239432987e-01,8.245790727744871651e-01
-9.254876603982480077e-02,7.941407150630659662e-02,-5.479186575108085933e-01
9.281984701379619729e-02,-2.673192895950753933e-01,9.666646188042514742e-01
1.325739216549118738e-03,3.974778589517188182e-02,-1.903060070651197699e-01
-3.558587349090770041e-02,8.763574304208528176e-02,-1.359745868218907860e-01
-4.640661186954928019e-02,1.132970172503742351e-01,-3.616065410500324262e-01
-4.496785905238687847e-02,3.562708115072003856e-02,-2.795210137637968995e-01
3.517657696010528107e-02,-4.657880890985698075e-02,2.857197440655894760e-01
1.330466537754684264e-01,-3.259394758336659481e-01,1.211479542233741880e+00
1.230271916484649147e-01,-2.731142939889746324e-01,1.028076110261445963e+00
9.406399549675030503e-02,-2.434508026306707318e-01,8.305043115300196899e-01
-5.444275642093742568e-02,1.137882637087324761e-01,-4.230133884686503865e-01
-7.224197581059538936e-03,2.919803987421133035e-02,-1.911394541148781212e-01
8.725701770528024315e-02,-1.649763667452036342e-01,5.160865858670031781e-01
-1.300744518568927033e-01,3.115179875460526993e-01,-1.219962770508006056e+00
8.329065175543913513e-02,-1.108787348343731327e-01,4.252339999267723547e-01
-5.402912185331987943e-02,8.980167728438093189e-02,-3.179697655035569892e-01
-1.285789882603291523e-01,2.466351921392865021e-01,-9.945321517317533555e-01
-1.283713799879165340e-01,3.252206267377669158e-01,-1.116963407131425612e+00
-5.771950091174372216e-02,2.344671697704878155e-01,-7.165821039387315627e-01
1.412374607298462759e-01,-2.828546291968379589e-01,1.221578306361475574e+00
2.113053848243085994e-02,-3.209893491294050355e-02,8.023639106488947292e-02
1.994056699471420321e-02,-3.323998645437804822e-02,2.045028517196973150e-01
-9.312293100221460951e-02,2.414477662812884451e-01,-8.883862322453787153e-01
-1.160920604396005196e-01,2.546796524785491234e-01,-9.299567817593240582e-01
-1.764309385144424702e-01,3.366674892795569196e-01,-1.241646373990897612e+00
-3.692926338428439287e-02,5.956522753662028824e-02,-6.921431728956403129e-01
-5.962421055290058640e-04,3.926635223310090406e-03,7.349331592825296411e-03
1.360298687157625828e-02,9.469955048645966114e-03,-1.717905432754932571e-01
-7.908868417668545037e-02,2.639167063692112736e-01,-1.081363823981708938e+00
2.157183179365525921e-03,8.234702315025248243e-02,-3.339521597784655405e-01
-6.052578588989144387e-02,1.147437846778022047e-01,-4.303524589630663422e-01
-6.643404498026747595e-02,1.449093060973984659e-01,-7.470510011680779883e-01
-3.356607170285046821e-02,-7.759387336220086029e-03,-4.208441052772274316e-02
-1.029164056482540224e-01,2.857000219514001516e-01,-1.079657240973011856e+00
-3.301366665588813254e-02,1.382378934831748063e-01,-3.870537496624763540e-01
-6.490749024826102109e-02,2.056529998260501757e-01,-5.819064388798161902e-01
4.137569188097631190e-02,-1.086973166369172017e-01,2.236382750062092251e-01
4.512662249655700203e-02,-5.882874982823158017e-02,3.107410932637655332e-01
-3.819138645375138447e-03,-1.533883708094111765e-02,2.093581501920406263e-01
8.390185383520348816e-03,-4.834485173966607957e-02,2.402911279849798409e-01
-1.166887014857589805e-01,2.223053310751910983e-01,-8.039555811668842589e-01
-1.228958145482725167e-01,2.481569056789901806e-01,-1.033204142345726106e+00
8.660964361232791064e-02,-2.944179052247082318e-01,1.021184870349898466e+00
4.631991381270127162e-02,-1.231175538458358504e-01,2.533255186337560749e-01
-1.337132177103292074e-01,1.962827948358958352e-01,-1.003197645872592192e+00
-9.367115232291027549e-02,1.634520113641063366e-01,-6.909349788374448131e-01
-9.484132354894250772e-02,2.195655356741804398e-01,-8.811635813345408685e-01
1.254521234424094411e-01,-2.337070911597188549e-01,8.546915997655516462e-01
-1.088301930608776419e-01,1.914666188332194985e-01,-8.256448456704421623e-01
1.401655013711124720e-01,-3.295433786521281827e-01,1.228692455520176363e+00
-1.059431482820487602e-01,2.723782914420754819e-01,-9.588343890721758855e-01
2.015112328795330005e-02,-4.826771633736696293e-02,2.405896787240707768e-02
-8.906637239614424717e-02,9.745958599340520667e-02,-4.438438821447915905e-01
-1.040982883168947992e-01,1.147969290558479433e-01,-7.078556374731765910e-01
6.684791157222520763e-02,-1.063997223502082257e-01,5.013555495169582654e-01
9.709430128718909980e-02,-1.345409104595870764e-01,4.334703936593543028e-01
1.158766729550944202e-01,-2.373591484131274965e-01,9.886535111323373481e-01
7.785878673896064195e-02,-2.708367337150345278e-01,1.100931684991720116e+00
1.308200448112407932e-02,3.008557346234724122e-02,-2.566715482976166321e-02
-6.895889192565428372e-02,1.617162354563661808e-01,-7.868361070174437755e-01
-6.081302422505645983e-02,1.062768824165642861e-01,-4.979643891243304976e-01
1.010087356452489676e-01,-1.642429858688381761e-01,8.265920025181570097e-01
2.872744382993564286e-02,-6.598763918447622667e-02,1.709292756530241264e-01
-1.306667645721787396e-01,3.490960423462540207e-01,-1.180586484333199238e+00
1.358432792462001271e-01,-3.245661417071082910e-01,1.114137163502554317e+00
-9.718906568389476530e-02,2.118920735279277989e-01,-9.724057525866295348e-01
-9.590306014278478230e-02,1.972609821411066278e-01,-9.624233330050644408e-01
-6.033499478138389799e-02,1.430557858716388075e-01,-4.212645606973876578e-01
-1.084247849484820669e-01,1.214726144868715219e-01,-5.345731136786820992e-01
-5.917699731222429010e-02,8.306513705471886555e-02,-1.103067015956853691e-01
-4.847357877169776452e-02,-3.803377840886587504e-03,-1.504839881026120429e-01
5.479584535926115135e-02,-9.949259230638711482e-02,4.436876673460735665e-01
3.248508925867144015e-02,-3.759030918111390396e-02,1.958752778299409081e-01
2.847427851068224519e-02,-3.968921767137355977e-02,3.441168983617903243e-01
-3.542244704041597886e-02,1.291621119768565085e-01,-6.004446126024048924e-01
1.066121142164251773e-01,-3.142312050644404664e-01,1.065908308476990030e+00
5.031123100287560740e-02,-8.960322022754130256e-02,3.203914273410947700e-01
1.230013106709937076e-01,-1.725030543396375016e-01,7.853513745064769624e-01
-6.777059508321908732e-02,8.062056496428314512e-02,-4.570801577755743694e-01
6.997498449186312364e-02,-1.880679053264839029e-01,6.212775248201715117e-01
9.996405901489208157e-02,-2.595181699883195026e-01,9.204144773719897810e-01
-1.188584525357439942e-01,1.735975093268399272e-01,-7.140123793943855546e-01
-1.424363164531559367e-01,2.349461930390443487e-01,-1.103796994412044263e+00
2.809073724489943857e-02,-1.498582364450069815e-01,4.870330129764225968e-01
-8.160582392837738286e-02,2.344299753221992522e-01,-1.011220119527467709e+00
7.797046257680374792e-02,-1.805765598562237562e-01,5.672879681817231123e-01
6.737140763314798664e-02,-2.523645402920617897e-01,1.054013699980355545e+00
-6.446513905178628823e-02,2.118567136926683969e-01,-7.150202451001688164e-01
9.588778836702320507e-02,-1.560568407838779925e-01,6.410735847587043512e-01
-5.756232143865905315e-02,4.340412538651462065e-02,-3.944054583357862742e-01
-1.251365325675427020e-01,2.858793503163236660e-01,-1.174779571359082286e+00
-9.688404385253757134e-02,1.783320346534957301e-01,-6.237057552866538401e-01
4.010517541845395190e-02,-1.657943988210656971e-01,6.686849307604273429e-01
8.349833429140969543e-02,-1.821965992485043706e-01,7.157931890273673270e-01
-1.339157902218358898e-01,2.648668596203544445e-01,-9.682627133153384191e-01
5.413598272583639709e-02,-1.343414742377037896e-01,6.189484817358728019e-01
-8.254733967335173284e-02,1.195884247885902751e-01,-4.735620023386217792e-01
-1.032849095795564109e-01,1.922318075761441369e-01,-8.078538724884323230e-01
6.224599359373422791e-02,-9.896306475322003138e-02,3.223459257527918065e-01
-1.011135374083463878e-01,3.323657040560016873e-01,-1.103600006595601757e+00
-3.778775931084074613e-02,-1.658923618938953556e-02,-1.099927063529756166e-01
1.076922482463378572e-01,-2.590855153048268189e-01,1.058205286421172842e+00
-1.644268892545331928e-01,2.987305769166700986e-01,-1.200295609470652280e+00
9.453288698019428338e-02,-1.644454457221070642e-01,6.793393350295281463e-01
1.315937529348156776e-01,-2.389728583467724266e-01,1.026231079148528513e+00
9.850514240088670270e-02,-2.036579631644654942e-01,7.178797013449367270e-01
8.174274915749681070e-02,-1.739269988728763539e-01,6.563901915755345762e-01
-2.455403296759488610e-02,-2.091485174148925014e-03,-3.070582998720639348e-02
9.604804892513583645e-03,4.630710057922797496e-02,-3.101054512090841153e-01
-5.970968729689373269e-03,-1.092578545039274290e-01,3.855522236792554569e-01
3.478033308339841673e-02,-9.448108355214612786e-02,2.944701807970586671e-01
3.191925753710937036e-02,-7.108377855758445107e-02,2.471326906393107314e-01
-8.286264877155223585e-02,1.451751550705657756e-01,-4.017100868400874658e-01
1.149931437675714291e-01,-1.579095821105865605e-01,8.051374333676815098e-01
2.349201987077938203e-02,-6.658903016957551380e-02,3.254164579786117950e-01
-2.774537206466334491e-02,9.937640455806465156e-02,-5.121365586555077787e-01
3.416735350235967222e-02,-9.958656121523942750e-02,4.848327084016288979e-01
5.828477461340556692e-02,-1.469992486038068369e-01,6.110197600022305719e-01
1.265047348388911030e-01,-2.697292732912048852e-01,9.362112352415948857e-01
-2.965191097814648055e-02,-1.115272183997477679e-03,6.791494142528049782e-02
1.162965122251803825e-02,4.504765499221802250e-02,-7.600818327503174043e-02
-4.488566067554638356e-03,-1.789612124094821025e-02,1.293869953697312503e-01
-1.344171336404824668e-01,3.404231109215692941e-01,-1.176415618068956448e+00
1.103777791029605243e-02,-6.265295145400819055e-02,1.630849778370771497e-01
3.093994309570424414e-02,-4.478195093158682943e-02,2.056381585912889221e-01
-1.070942972062448595e-01,2.208654528155184482e-01,-8.436044661672958966e-01
1.483219007715872728e-01,-2.653808145124571527e-01,1.011020284684210901e+00
-1.470801539429704152e-01,3.246564077611633348e-01,-1.178982223115145445e+00
-1.234490545002481093e-01,2.974855488242719170e-01,-1.001196138733606134e+00
7.850109483574593816e-02,-2.142376921995813033e-01,8.630890193690617940e-01
4.223255672171261077e-02,-7.644479171466127265e-02,3.863325708220117227e-01
-1.155926441510952002e-01,3.370376968379247273e-01,-1.147866423719451134e+00
-7.022389710228944815e-02,4.201746256049963130e-02,-3.507489313796408603e-01
9.821817934909130021e-02,-2.769458479572022291e-01,1.045735671966599778e+00
5.974758999703558976e-02,-9.023122579317020830e-02,4.104258398942464137e-01
-1.705995647556469638e-02,-7.403236997385526270e-03,-1.402171805249453618e-01
2.085341269960563071e-01,-2.893988867531007703e-01,1.252840472461596022e+00
-6.750253501789081623e-02,2.033979365609265844e-01,-7.198901713131561353e-01
1.123666314220972406e-01,-2.142220809220335143e-01,1.017771237936641038e+00
9.617536354875269589e-02,-1.604709376235433915e-01,4.998885756343246500e-01
-1.088795184543037420e-01,2.697167596566402148e-01,-1.137971175054549589e+00
-1.201290341007067580e-01,2.740738867624023523e-01,-1.143220720995837159e+00
2.842581099930745897e-02,-4.137588440359041969e-02,3.194971788386979372e-01
1.797239730430335303e-01,-3.046166766420138061e-01,1.285114401907946569e+00
-3.767571779403390553e-02,4.463089933332702736e-02,-2.244718503969193868e-01
5.302775744466058788e-02,-2.046760605475687056e-01,7.047523495192632437e-01
9.808056388259558944e-02,-3.196543786940900800e-01,1.126119263181899921e+00
-5.341747113914462747e-02,1.815345769537801690e-01,-8.384652435059193332e-01
-1.273772845419842703e-01,2.456748011874341497e-01,-1.133019412844340046e+00
2.181370178104060156e-02,-1.022313428850735312e-01,2.861092593728407629e-01
-1.017977480773820109e-01,2.932244949270234602e-01,-1.131490400676382180e+00
8.744565004686745413e-02,-2.288424094395337671e-01,8.121597089094073629e-01
1.108836795537532505e-01,-1.771830531421333399e-01,6.393424330085152318e-01
9.884484340933484547e-02,-1.380070225646700677e-01,5.865852505101581960e-01
-6.120656523143343936e-02,1.381844577544003860e-01,-5.471343976346515481e-01
-1.001779412780580136e-01,2.999684660651750767e-01,-1.214081535059312600e+00
1.150026486000885473e-01,-2.928618917900753238e-01,1.230722749292114226e+00
-4.734548383499437990e-02,3.368466707903114421e-02,-7.745551185594529153e-02
-5.859822593833725890e-02,2.297834905778043946e-01,-7.163093537012008571e-01
-9.029165766327192089e-02,2.046952261753350599e-01,-8.254320059877419125e-01
9.336876813264545494e-02,-2.455496912777383467e-01,9.848553395600889715e-01
1.388638647332183507e-01,-2.976816088099512037e-01,1.162123633738995077e+00
-4.921301655217879406e-02,1.297201523663910339e-01,-5.087361363592458607e-01
-1.801076042595486926e-01,3.039449272169268967e-01,-1.121195360717116785e+00
-4.815125344255375556e-02,1.501613724643604819e-01,-5.020271885468591266e-01
2.801114390302383243e-03,1.263777874083958121e-02,-7.302841164024145848e-02
-9.601218980202122499e-03,-1.054885361563335892e-02,-2.103231206936821349e-02
1.018782533137674862e-01,-1.617969464731157381e-01,6.325238546251960026e-01
2.565116736540051789e-02,4.703851927242568703e-02,-5.311955566917196669e-02
-1.545406590445545514e-01,2.683302293353117540e-01,-1.047413594665165482e+00
1.389917647530137523e-01,-2.787006132763741872e-01,8.915204140403789612e-01
-1.346405724307018492e-01,2.099432544545555557e-01,-7.737833889142869959e-01
5.806023173186226211e-03,-2.735079428686776684e-02,-2.970755547335065237e-04
9.091645579752968831e-02,-1.802744132370227015e-01,6.745431725186269434e-01
2.551065126450863252e-02,-6.096790525554260376e-02,1.830567280235212979e-01
1.010911164054635082e-02,1.476648689594053411e-02,-8.734591141319920926e-02
-1.101278667900732477e-01,2.684838452242411799e-01,-1.020386943112326694e+00
1.127067535030605722e-01,-2.792392369181389000e-01,1.167078094544181655e+00
-1.154006968190567500e-01,1.724659302275082517e-01,-6.900947835538673303e-01
1.212996406789239173e-01,-2.187486020044359103e-01,7.943402024742315382e-01
-1.010586032512406085e-01,1.776226261549867236e-01,-8.008829788668979655e-01
-7.442293354656216720e-02,1.553266364581622205e-01,-6.454031903178215623e-01
3.688460031283645468e-02,-9.922375248696470307e-02,2.568609052956329908e-01
-7.634370418463558294e-02,1.315882620319071827e-01,-3.811844223533994991e-01
-7.822509554940085263e-02,1.591746102668886442e-01,-6.731952358320428820e-01
9.342764197597899778e-02,-2.133752253957529599e-01,1.041049091660789516e+00
-1.132399667916460378e-01,2.868234178331659501e-01,-1.188198343859747208e+00
9.828784205123239359e-02,-1.815422991032149269e-01,6.681978197989915103e-01
5.715232264722442529e-02,-9.311095420200439510e-02,4.291178211406154186e-01
-6.487384982030165725e-02,1.014102386019357094e-01,-3.631472942348772937e-01
1.297279004811465776e-02,4.947708550136959739e-03,1.358203933045400713e-01
-9.803283155423972439e-02,2.744077666508042412e-01,-1.186861413454061820e+00
-6.456432293864022842e-02,1.468483228998131440e-01,-4.320499233306731024e-01
-2.474085895030380886e-02,9.959566002791685191e-02,-4.212741539046219730e-01
1.472312128464490499e-01,-2.656752015845686432e-01,1.072010735085320521e+00
-9.920152933969540732e-02,2.102172109648819398e-01,-8.162866922116448487e-01
-1.125463048628286278e-01,2.943974052832691868e-01,-1.047344201395656205e+00
-5.223007232746967182e-02,6.127796485897866324e-02,-1.144865738542475975e-01
4.682819720537654239e-03,-9.458310034494094021e-02,2.340830264445710740e-01
-6.353039945213992401e-02,1.750756491973796125e-01,-4.738210780468665728e-01
-3.961378442553416951e-02,5.857506236269553052e-02,-3.278034998608525541e-01
-7.757262899379124832e-02,1.988529820306806639e-01,-1.003845007993592775e+00
-3.268654125922068610e-02,9.054025641490479059e-02,-2.754223331259015306e-01
1.208517210787451029e-01,-2.752937365308900652e-01,9.924115816159965187e-01
1.108349173649375297e-01,-3.835108620221790998e-01,1.258076239382111883e+00
2.982723526094136629e-03,5.864085470946455575e-02,-1.957918820276255134e-01
1.070595946394496123e-01,-1.752146685246674940e-01,8.103263140061041092e-01
7.793405332392461422e-03,-6.793199970600569126e-02,1.490729354025391307e-01
7.747419672993266504e-02,-2.083192618170256749e-01,8.162701277029261737e-01
-4.796674224952462984e-02,2.011642675964600835e-01,-6.800877014953418120e-01
2.467320458194658533e-02,-7.729989792528127457e-02,3.807102737675319704e-01
-3.749671857948162768e-02,1.703738658564918351e-01,-5.207181349837444184e-01
-7.572903646847903292e-02,3.223225360376608672e-01,-1.188217942025838747e+00
4.638499414589774411e-02,-1.041112145474940437e-01,4.140730786243665973e-01
7.775622006896670824e-02,-1.163166290868147823e-01,3.693144373781745982e-01
-1.069929176878281624e-01,1.144493641452657695e-01,-5.346528334548638073e-01
-4.524054538127278424e-02,2.283695375077363920e-01,-1.060205602711317807e+00
-1.547593586344966909e-01,3.493658610480138704e-01,-1.228075820216682157e+00
-1.079937138662242502e-01,1.864408181936889619e-01,-7.017718806725711245e-01
1.294156069709574974e-01,-2.783221567668964225e-01,1.066303442166711246e+00
9.022150969609724069e-02,-1.191561323333367034e-01,5.190934212010983595e-01
4.751356179078989467e-03,8.902609203145990524e-02,-3.030769857383975308e-01
9.205957233328596057e-02,-2.317862077930802345e-01,8.046206778456762576e-01
-2.311552498226690858e-02,3.245767358098179678e-02,-4.737287064294744970e-02
8.181634091938579101e-02,-1.932714905619419554e-01,7.401897230066392108e-01
1.277537133014976234e-01,-2.851166117230042873e-01,1.233214125589631394e+00
-9.331544684640753762e-02,1.472900307589672664e-01,-4.275205526667150147e-01
4.965568419485415219e-03,3.808444697595455425e-02,-2.088194874462711015e-01
6.069394929675967637e-02,-1.251242784534707941e-01,3.509140955341333856e-01
2.853190349399832570e-02,6.108029699714655203e-02,-1.829774671547333975e-01
1.626637056709096807e-01,-2.905693216615850005e-01,1.209460131368850444e+00
-7.961053687504110118e-03,1.941250618162881610e-03,-1.358441950812800669e-01
6.063473288853250126e-03,-6.671431480367873146e-02,2.380431781588876194e-01
-1.941245395723302514e-02,5.755896318505018122e-02,-1.622353988064658692e-01
-2.661384212775808836e-03,4.173793812328904784e-02,-7.053289924594460802e-02
8.599028272996257771e-02,-1.404085133305191524e-01,6.222659389543556685e-01
-1.038553645352280064e-01,2.664046887067464398e-01,-1.078880199549717256e+00
1.486193253834962591e-01,-3.312281153886146301e-01,1.239078601785741363e+00
-4.894048840509276910e-02,1.837007679289080486e-01,-7.189918049120882504e-01
-2.328995254773153639e-02,1.862684026799479309e-01,-5.572359682922414237e-01
7.229538928308665291e-02,-1.450705287034682878e-01,5.333635759218651184e-01
5.544282363241502531e-02,-3.713895880663172638e-02,2.712356011279810075e-01
-5.985453941300911303e-03,4.695866945560998179e-02,-8.695051619625773776e-02
-7.367824587216247056e-02,1.349015435297888088e-01,-5.456622334757755821e-01
2.305365965861689431e-02,-6.720742030417584112e-02,2.852024817264416368e-01
1.163804943909957923e-01,-3.477858427902645877e-01,1.193938403611138233e+00
6.772393819958627548e-02,-1.884956361601670405e-01,6.255437282120875908e-01
-5.334451158420346756e-02,1.971348873472788255e-01,-7.028914632281425545e-01
6.782899286671767447e-02,-2.692697583538485318e-01,9.056904757329039546e-01
4.531628193455684850e-02,-2.389198360823304237e-02,5.717774848542575561e-02
1.485392476725601596e-01,-2.433284435962806691e-01,1.038679889370112130e+00
-1.716532232415999837e-01,3.117067446728306601e-01,-1.243369795033020253e+00
-3.693633182138213872e-02,1.002747194713241724e-01,-3.527435178961214057e-01
9.594258172705485152e-04,3.607053292726934701e-02,-2.945491680959093639e-01
1.374457483824862158e-01,-2.821140549044318102e-01,1.116182295775615785e+00
3.034063832092852644e-02,-8.837458243861553639e-03,6.297228866267810289e-03
1.529286806075940142e-01,-3.261028301223732884e-01,1.108339423979525229e+00
-8.683868815413750553e-02,2.137300663673852019e-01,-5.776972848919365022e-01
6.339247379052282728e-03,-6.273771339232862843e-02,8.327162847957182701e-02
-4.496032610163560456e-02,7.941668950464128574e-02,-8.715725263880136353e-02
1.378234138586183037e-02,4.269950294509274741e-02,-1.056892874638007823e-01
-1.227553379179519288e-01,2.637922452180630484e-01,-1.124249309202322689e+00
1.527833673565300865e-01,-3.189903770510805203e-01,1.199510274395757525e+00
7.963656377185839019e-02,-6.700882422396682581e-02,3.485273243554955491e-01
8.593575692863823778e-02,-2.436332998276561079e-01,8.586258359000020768e-01
-4.338867109789174697e-02,1.069756605051168097e-01,-3.208023882377664115e-01
-4.635781934651356240e-02,9.006245626861855702e-02,-3.728022696977097983e-01
1.184378432612581862e-02,3.143032587733234507e-03,4.424533280945141395e-02
-5.756267806832331135e-02,1.169693103163117198e-01,-5.545805245980306442e-01
-1.552373437038185866e-01,3.071237931227857043e-01,-1.238113215326996697e+00
-5.635697381228460534e-02,1.584055911714272458e-01,-4.883448185338528647e-01
7.437503139694043308e-02,-1.679571726982166946e-01,5.256045245780837094e-01
-3.796932230252117457e-02,2.535032910307217779e-01,-8.360910454434491434e-01
-9.365511290039697789e-02,1.018899992107843294e-01,-4.687111173886766569e-01
6.873886479052399153e-04,-6.597446955033810234e-02,2.083538456581343346e-01
3.246195752984513266e-02,-4.754194740760486759e-02,2.651786114467457600e-01
5.049016012008255422e-02,-2.411187921496792397e-01,9.226852333686217378e-01
-6.456438195081384834e-02,2.322488149026690207e-01,-8.491064086102937392e-01
-1.162594489423879503e-02,2.771878672009305683e-02,6.066879243402241439e-02
1.217077550484352844e-01,-3.426084563131233107e-01,1.266297859582001140e+00
-7.143873887890687946e-02,2.228552483814189022e-01,-9.907958132689427266e-01
-5.296500243961358920e-03,4.393021674500068030e-02,-1.968431523014385620e-01
-8.080897633188051377e-02,1.749503302316362530e-01,-7.256139323581276557e-01
-3.313466440594562551e-02,1.285559251186126628e-01,-5.717584581188370763e-01
-2.314310511328662376e-02,9.613319042974276252e-02,-3.408403242453532656e-01
-2.950106667947092337e-02,1.104904955072543160e-01,-5.584374437516432810e-01
5.519380431402921838e-02,-7.111726694615191913e-02,3.144168755868831933e-01
-9.956512419563257055e-02,2.823595144781490540e-01,-1.024051635411023842e+00
7.799437524540150934e-02,-1.511262435097857626e-01,5.975677185785839285e-01
1.101478081092958639e-01,-2.928582033346993629e-01,1.228077173763136187e+00
-1.141849652861201270e-01,3.231513556333712178e-01,-1.271647424024288098e+00
-1.008277430864965851e-01,2.952480147187968584e-01,-1.137400939077022111e+00
-1.210100216852478122e-01,2.443613730561193520e-01,-9.529816805978318373e-01
-1.419756057934750404e-01,2.624822899898598405e-01,-1.016643932016356722e+00
-3.210846869118672703e-02,-5.748595030341578649e-02,7.627155107085578645e-02
-1.095574772790133822e-01,1.912534603950795387e-01,-8.743110879840927385e-01
6.620250319797855998e-02,-2.493421426575035960e-01,8.760758123981858825e-01
7.744184222749042612e-02,-2.386310836360261700e-01,7.026743482931693263e-01
4.766648820110240548e-02,-1.469136321523795315e-02,2.807472629836786915e-01
6.572457088785504942e-02,-1.507460271869551505e-01,8.002428067461709871e-01
8.345138990760021802e-02,-1.693698480977499088e-01,7.215056439164546642e-01
1.553649623785466338e-01,-2.648309938553924381e-01,1.136331146145172610e+00
2.819886109568217614e-02,-1.378379165421555475e-01,4.124634736506685440e-01
7.449554373784132710e-02,-1.311550545257385014e-01,3.747621171658093164e-01
-1.521015515501490667e-02,6.309712367095840491e-02,-2.086791767914428775e-01
-1.086637569162460099e-01,2.928092887398028310e-01,-1.088746098633298853e+00
8.360325188096338900e-02,-2.800549830427165321e-01,1.075079287807921835e+00
1.420255504061443130e-01,-2.872823687998937170e-01,1.243853243941240416e+00
-5.217148168050694118e-02,1.731656507304277781e-01,-7.001202545342147809e-01
-6.674199102894222413e-02,8.849655450484410213e-02,-4.694043677873649401e-01
-1.367338694566571089e-01,2.133673793191871171e-01,-7.266115647235457109e-01
9.126870586175436784e-02,-1.939052888946218578e-01,8.619071512757013886e-01
5.186212284950880713e-02,-1.926603229297104425e-01,7.252547671092224313e-01
7.680498584079685498e-02,-1.816375255882367590e-01,6.441890782920434155e-01
5.952808999229316361e-02,-2.021744588150274635e-01,9.342108928126311440e-01
-9.610521523246426390e-02,2.208748147884205537e-01,-8.421489294174994145e-01
1.037412288291842261e-01,-2.486487344992878157e-01,1.056939141924562842e+00
-1.151557036681584018e-01,1.005838576755755526e-01,-6.098740042922511373e-01
1.456269644674734187e-01,-2.053205209312759794e-01,8.282179938212297365e-01
-1.115036616592503388e-01,2.108339085256374368e-01,-7.330194828697913501e-01
2.678732482217652602e-02,-1.481454173516835171e-01,4.807777666588806120e-01
3.672338165188768905e-02,-1.295102665150513199e-01,4.391868435805114101e-01
-4.016523114883872869e-02,1.694505007638355265e-01,-5.863458876336302694e-01
-4.957136831851860492e-02,8.297463878587890695e-02,-4.412376559776682861e-01
-9.321471282775994904e-02,1.845322368887918063e-01,-6.843946145152480787e-01
8.498085544784106382e-02,-2.501505447721102948e-01,9.407860847975241247e-01
-1.147177464943092973e-01,2.184989280006006951e-01,-9.017476460527149573e-01
-2.566024307672386262e-02,1.374860389945854189e-01,-4.448860807570171327e-01
6.596476152092163592e-02,-2.470804667735736204e-01,9.242595480153757981e-01
-1.173318969974730119e-01,3.025344943558073707e-01,-1.176203414305414752e+00
6.185327779503912993e-02,-2.377718263594471304e-01,6.805094018677811940e-01
1.413839052956003539e-01,-3.505563121640983826e-01,1.173124018397466051e+00
-6.015738723754866096e-02,7.804859006006972799e-02,-4.049579739189669847e-01
8.258087474733748212e-02,-2.990169096506540836e-01,1.189130009132149501e+00
-4.068533528857681651e-03,2.825519082254367847e-02,-1.484353901018873045e-01
2.936188395410785704e-02,-7.857569650294031482e-02,4.737345299587087943e-01
1.148617768365460118e-01,-2.655864773649603272e-01,1.131007728510782018e+00
-3.399433105486850126e-02,1.041490172711558027e-01,-3.789015609313488020e-01
-9.464706201714430389e-02,6.750493640426906417e-02,-3.028828972533479380e-01
1.144650167863327933e-01,-2.829903771055331529e-01,1.085161322464283318e+00
8.359411763559783382e-02,-2.818101761210226597e-01,1.027002420909242986e+00
-1.017531824741015889e-01,2.505261947625144203e-01,-1.087390486728163630e+00
2.656532377283777474e-02,-6.388776830015105435e-02,2.115520221799831457e-01
-1.092393913975804598e-01,2.497965202006978136e-01,-1.105187440124162812e+00
8.121065586728407060e-02,-1.730812932460058517e-01,8.470115685307196829e-01
-1.465898035181341652e-01,2.867528130428309563e-01,-1.151289601688177289e+00
1.683794768513974527e-01,-3.150974357821585414e-01,1.175003893304092495e+00
-1.025148580840272439e-01,2.843100960366205521e-01,-9.599861914491848447e-01
-5.513469263605542264e-02,1.341852702500079784e-02,-6.710249659756387097e-02
-2.736702448451003647e-02,-2.919716896415451915e-02,9.166055462207364779e-02
6.145776237558378541e-02,-1.827986418718761386e-01,6.349115019499094181e-01
-3.941393194618400542e-02,1.106172978384376976e-01,-3.259875241327343520e-01
3.925863305859091448e-03,-2.313329047693152285e-02,5.310043394336746297e-02
-7.748842111892269291e-02,1.832833413691876967e-01,-6.898527540035596095e-01
-1.735136821798810222e-02,5.791237999015368815e-02,-2.162084617253683949e-01
1.416253108122677296e-01,-2.844806731322668258e-01,1.272631909185340415e+00
1.289229606864140121e-01,-2.723195924617493047e-01,1.176656321918651438e+00
-1.953792962455595111e-02,5.063052945167026420e-03,-1.121357398862260074e-01
3.664802869163331228e-02,-8.354246932032292905e-02,3.918304052153807615e-01
-5.720058721335353515e-03,-4.040357695262884047e-02,2.169151836545939460e-01
-8.325857218066035070e-02,3.027908784390899166e-01,-1.171833794955234875e+00
-3.333651415868932322e-02,1.735135396518654727e-01,-6.558579073887641497e-01
2.609139957463640566e-02,-6.495593740855122589e-02,3.346765761914311660e-02
-3.994008378939738202e-02,1.531996779081395144e-01,-5.744614245508015138e-01
-1.211806625535774562e-02,-1.253866828790011767e-01,3.498599590407828197e-01
-7.360538316993738006e-02,1.750136253040035506e-01,-5.197664291044917784e-01
-2.196708784396421074e-02,4.035149027385476900e-02,-2.682415507202713933e-01
-4.885067896382960101e-02,-1.669658043399357972e-02,7.488369495272814702e-02
-1.143676699156897930e-01,2.308010624688291712e-01,-8.908315187966783233e-01
6.000659500078354969e-02,-1.272937715255864355e-01,3.140277006018334371e-01
7.167968104908627180e-02,-1.804739174152427683e-01,7.952625622876160483e-01
3.613233524365775176e-03,8.321172098948111107e-02,-2.891572076191583074e-01
-1.550202474833230204e-01,2.627072208743426729e-01,-8.777605370827206155e-01
6.973757637499738982e-02,-1.635241523790213480e-01,5.236967873915564509e-01
1.217352065561496353e-02,-4.525254797190338824e-02,1.649593717893566847e-01
-1.798631666890130329e-03,-4.786855801359816975e-02,1.178977082883547883e-01
1.221187841624043063e-01,-2.941567167697052287e-01,1.088717748193184454e+00
-1.741813481803588734e-02,-1.397826050071969591e-02,1.783137865946005443e-02
-1.283833143744169958e-01,2.595308579290843132e-01,-1.019888710619331729e+00
2.286289856047981142e-02,-9.065887191767295350e-02,2.952029998087866147e-01
-3.079884031836261499e-02,2.286132478008034707e-01,-8.213110641365674036e-01
-1.471008799638527376e-01,2.015291649574103006e-01,-8.442580652498654636e-01
-1.574677308340964935e-02,7.835237932222322010e-03,2.347002174912070360e-02
3.166635762316063335e-02,-4.916726667962294933e-02,7.115514487454455139e-02
1.123895661651264782e-01,-1.475939854078604230e-01,8.557135773293914616e-01
7.423281417222685197e-02,8.905782887361461545e-04,1.100562488314017900e-01
-1.514288975252070235e-01,2.517473582028695867e-01,-1.061812288133371585e+00
1.197500307104431977e-01,-3.231266446015907401e-01,1.229313429979748573e+00
-1.535815609117098801e-01,3.566201691831723530e-01,-1.226680756782501991e+00
-1.477977299958905533e-01,2.882226744714952438e-01,-1.080120890017649327e+00
-3.885356221425589202e-02,1.202199563195563980e-01,-4.990234920213875158e-01
1.793080744433922719e-04,-4.326612137615274507e-04,-3.318811518783990749e-02
-7.153983137740488329e-02,1.416647875892937392e-01,-6.287038173544017283e-01
9.505402208001162423e-02,-1.308358139008859444e-01,6.486050234920485158e-01
4.371966704780617247e-02,-1.061339759364379326e-01,4.012385475556970449e-01
-1.053491429433601051e-01,2.308451865784385826e-01,-9.985106920261158647e-01
1.607233396067793418e-01,-3.073208790098314602e-01,1.222583775971131992e+00
-2.921203053759008003e-02,-1.945376042270834105e-02,1.671038210540762847e-01
9.579771510797456535e-02,-2.483316249839851719e-01,9.057966572356814794e-01
-4.871109031026231440e-02,1.598190835008810318e-01,-5.805771030976456526e-01
-7.522260867169688892e-02,2.308247920763129568e-01,-7.384021050651016216e-01
-6.563038255206835037e-02,1.286339253110496406e-01,-6.042261312449889177e-01
-8.136432888770908645e-02,1.732822055433400066e-01,-8.657717449942015087e-01
3.031618605292782723e-03,6.360303092605928965e-02,-2.535094101691829915e-01
5.260814143336568771e-02,-6.705661110420384208e-02,1.202716340429266784e-01
-4.542532224504573085e-02,1.159541822183101228e-01,-5.504517395165713367e-01
1.650591545443263336e-02,-7.177551210511478805e-03,1.321736036825295890e-01
-1.661202976957620037e-01,2.721174952252598533e-01,-1.126106246991875226e+00
1.045162875209562497e-01,-3.437215437012997588e-01,1.285826512711113256e+00
-1.983133221720040362e-01,3.334826546213377485e-01,-1.211784439337467489e+00
1.058296232469115444e-01,-2.553169624673202742e-01,9.949816251276967227e-01
2.023983682168872811e-02,-3.298189586646664562e-02,2.406574683706062534e-01
7.695513631663912502e-02,-2.365282669267387561e-01,9.365277716108153516e-01
7.733317926860192038e-02,-2.072582337466196967e-01,7.983787559796017286e-01
6.467329484255987526e-02,-9.445283771237283910e-02,3.583632563650258618e-01
1.009373814543792491e-01,-2.049724327815095060e-01,7.075436586079064671e-01
-5.276246958670192944e-02,1.226662749852787948e-01,-4.512718939000550100e-01
-1.264026297161646439e-01,3.746168303194332139e-01,-1.169324719263075796e+00
-1.364508158882825062e-01,3.003392659670492959e-01,-1.128393980795455054e+00
9.239189043874215801e-02,-2.028684220163002039e-01,7.025378201675119838e-01
-3.439979273908467389e-02,2.122376892675542914e-01,-6.592000712622092529e-01
-1.619061617168329748e-01,2.883874005516029460e-01,-9.684356488486992598e-01
1.149846822126315560e-01,-2.806992015279796138e-01,9.553551363510869310e-01
-6.440002800578107506e-03,1.535782872177141878e-01,-4.488993072972921050e-01
-7.128846340758820954e-02,1.665496713557528818e-01,-5.858281064553857442e-01
3.144193377223354624e-02,-1.058556282830466211e-01,3.968055272529948940e-01
-9.777519244597579484e-02,2.139093098947114913e-01,-7.656132818052718836e-01
-6.053854880859451532e-02,2.175169310637417031e-01,-8.663620796787716571e-01
-4.043926577217728940e-02,1.472915384166192942e-01,-5.773268348625522073e-01
-8.674374701403672616e-02,1.689797499566937922e-01,-6.368507066480478818e-01
-1.060075430349713410e-01,2.334573513750272944e-01,-8.740690057054796291e-01
-1.006372241865591960e-01,2.756601055893409535e-01,-9.319257670630618495e-01
3.338192162218407005e-02,-8.892539694046326356e-04,1.767307389121648828e-03
1.805045113225867484e-02,-3.601121262981349380e-02,8.475244625286235123e-02
-4.268334196514576850e-02,2.775228564587074453e-01,-8.975593290431874705e-01
-7.730531496559858023e-03,9.003623341066149810e-03,1.073254161548467117e-01
-8.790932356402512970e-02,2.389523867001886182e-01,-9.932612592550142949e-01
1.156008833332032859e-01,-2.522643940824296771e-01,9.782104435348250027e-01
1.019118155434027423e-01,-2.845201335168164869e-01,1.120331914597610057e+00
6.032207236352562021e-03,-1.578314823998564279e-02,-5.278388751846886662e-02
5.770202676094079997e-02,-5.856849941348838545e-02,2.934845043480378002e-01
1.115529890406856406e-01,-1.653408112811321218e-01,7.096592509737323917e-01
1.359834731694919974e-01,-2.352019186091987013e-01,8.906748020980088665e-01
-6.062364214848423027e-02,5.917406288617064331e-02,-4.682217239791295893e-01
-6.464949456866293798e-02,1.201191534997940041e-01,-6.617157298982310198e-01
2.840703273975718479e-02,7.530658945898569510e-03,5.806211991073528811e-02
-6.947037980169443183e-02,1.924453980021588462e-01,-8.555581631648491170e-01
-1.431036086749840897e-01,3.402822879051743410e-01,-1.245973062959630839e+00
-8.712169429316608815e-02,2.267140003879186683e-01,-8.663178612578915638e-01
-1.475120629889737633e-01,2.835463117924215126e-01,-1.126983878498444058e+00
3.976477380148642563e-03,-3.257133206680375148e-02,4.397827116316951890e-02
-5.517945225419536304e-02,1.364968733372280418e-01,-3.639251917055467689e-01
-8.098683122972535897e-02,1.782200765022990963e-01,-7.123700283062206484e-01
1.648293345545244482e-01,-3.378990214668098901e-01,1.187487662383690523e+00
-4.149848985829507342e-02,5.223214912595806891e-02,-3.216880624102979036e-01
1.762269601370673733e-01,-3.356657387769945156e-01,1.195857028904853125e+00
5.443123494650164290e-02,-2.269503272653811410e-01,7.064234577074233190e-01
8.679012872969614489e-02,-2.713135761835513970e-01,9.886950908278504535e-01
8.858617611967088690e-02,-2.290522565557955859e-01,9.308745193625796999e-01
1.791904515145506804e-01,-3.555439538178372660e-01,1.225938637479264681e+00
2.007283516057026540e-01,-3.371353394299154149e-01,1.208630487028338196e+00
-3.688019610108891899e-02,1.227642949224162922e-01,-4.281706116644935500e-01
1.930783366059548797e-02,-1.080960055278182702e-01,4.750416177117596228e-01
-6.498557923480201282e-02,5.860214491629598885e-03,1.484875808539747877e-01
-6.570932801373903509e-02,2.206738662247660909e-01,-1.046749930586910793e+00
-1.339784517501017846e-01,2.153384229027361929e-01,-8.562537235788244550e-01
-1.028457750245075596e-02,-2.511853566962091514e-02,2.182926284906644976e-01
1.150461297663802340e-01,-2.590133480993350168e-01,1.060578154848139887e+00
