-5.355072827466010876e-01,-2.723434470318897849e-01,-5.975169059751392897e-01
-1.461434340410240340e+00,-4.662678803706887254e-01,-1.504075672446329115e+00
-8.263720356000642253e-01,-3.284648776239509904e-01,-8.006974512483406858e-01
-5.330325496699579446e-01,-1.962291586342593819e-01,-4.941961102512755222e-01
1.095184630178678509e+00,3.193472938497835534e-01,1.120494746159739874e+00
-1.582920459724398210e+00,-6.076890023720816769e-01,-1.541286016410920334e+00
6.159866973853538319e-01,2.144109551242709966e-01,7.065356555883256506e-01
7.955328204155301952e-01,1.722579360275745264e-01,8.653782188723758706e-01
-5.752721907675477642e-01,-2.424198612013845067e-01,-7.133889565938349442e-01
7.413929605151335922e-01,7.507611830931840147e-02,7.282042386982009452e-01
-6.579485194016729266e-02,-3.035891728780376955e-03,-5.704236319526598958e-02
-1.425057071692334754e+00,-4.722916553177067822e-01,-1.252436738842203523e+00
-1.248527450841382613e+00,-4.642820663682556970e-01,-1.191427244645250738e+00
-9.230792511618385321e-01,-3.029006367933908539e-01,-1.054167006210343649e+00
9.503055528715051992e-01,3.571142396891505144e-01,1.002702289231382604e+00
1.451152559974983491e+00,5.292654719460380131e-01,1.601824181972379302e+00
-3.369218389883921194e-01,-1.125936642204677374e-01,-3.441286092944802477e-01
-1.604514760298974219e+00,-4.904438434038921879e-01,-1.517868262815946556e+00
-1.248637329786198125e+00,-3.484364579354874980e-01,-1.297894899609195685e+00
-3.700254564522464373e-01,-1.093343908847134449e-01,-3.817539750707860668e-01
5.948294781315365265e-01,2.052603317371267944e-01,6.600451786362578899e-01
1.300348958013477718e+00,4.392539457734122577e-01,1.272847671472332465e+00
1.548558397952989607e-01,1.303074591105292945e-01,1.905436193539407075e-01
5.167516399225954293e-01,1.694775365412970469e-01,4.885462548564933893e-01
-1.119627223563752105e+00,-4.010424898299486673e-01,-1.081277084504773223e+00
-3.891314808887961774e-01,-9.446445088060442807e-02,-4.747582557588346797e-01
1.456350929643864145e+00,4.803469470717097733e-01,1.528672648786641775e+00
6.810344523758188329e-01,1.686577334994384669e-01,7.308530834363673456e-01
2.118834994086261636e-01,7.328646600780419629e-02,1.872334958889043943e-01
6.454271258410663181e-01,2.284210606931444953e-01,6.115118017720508892e-01
1.464533176137797321e+00,4.508135016373069348e-01,1.493484585794977004e+00
1.099667800742117008e+00,3.204265028018433714e-01,1.025885179042613560e+00
-6.009359512954273175e-01,-3.068499748256578452e-01,-7.305805238059648321e-01
1.237344407908030686e+00,3.626188790734400369e-01,1.233677196930960340e+00
-2.183975508761586137e-01,-4.485372371605767655e-02,-2.625551985822232037e-01
-2.573711125814704404e-01,-6.458689282236909635e-02,-1.253239757368989349e-01
-4.865564045781539670e-01,-1.487670824424766336e-01,-4.456730189814796517e-01
-2.984185552156821686e-01,-1.551370701013724263e-01,-3.774381422595555757e-01
3.177844630291824513e-01,1.356845757843014866e-01,3.841148983835444009e-01
1.541242615923718917e+00,4.867301770191133081e-01,1.543897226434583159e+00
1.305294652836373581e+00,4.316168626743661640e-01,1.307363369969312794e+00
1.088217308848112186e+00,3.288250569628656250e-01,1.042349150176303807e+00
-5.402956046822959824e-01,-1.832958093146176415e-01,-5.348892543895416019e-01
-2.051318985206078416e-01,-6.448541506206238727e-02,-2.669835183523210365e-01
7.051862985552924679e-01,2.458485217619704177e-01,6.226043795874928177e-01
-1.525200706972072107e+00,-4.916446600391944366e-01,-1.568896318495692777e+00
5.454808340918614329e-01,2.336276420321386493e-01,5.251900550998118700e-01
-4.162766975890467847e-01,-1.576087659044358436e-01,-3.920562840728655241e-01
-1.238197616901885789e+00,-4.419434890589745146e-01,-1.272423220560666479e+00
-1.460676168693417321e+00,-4.464113443133668202e-01,-1.402495334504270774e+00
-9.702409899382787861e-01,-2.328572150290912635e-01,-8.939949690324725529e-01
1.485343076186402378e+00,5.246117980565958572e-01,1.586296570464164057e+00
1.216431734927634900e-01,4.775331681055227512e-02,8.812576757372027336e-02
2.258780733966299081e-01,8.841991970311713356e-02,2.777606057421766472e-01
-1.132752953797961704e+00,-3.483388226106363672e-01,-1.132723400814776626e+00
-1.193798483077340267e+00,-3.947823644411760924e-01,-1.174513617675446486e+00
-1.594537703031104980e+00,-5.644955225874527249e-01,-1.559324904302274328e+00
-6.745061338863684863e-01,-2.736662695329113437e-01,-9.946350491581056330e-01
-1.410737376101455930e-04,3.445744556139764166e-03,1.439308608040291114e-02
-1.530273431120500738e-01,-3.246376455923999371e-02,-2.627290249638452591e-01
-1.323246935371946487e+00,-3.812041634707867832e-01,-1.418606149573789610e+00
-4.027304479478664989e-01,-7.294161571494385543e-02,-4.514989342960571417e-01
-5.494937685485994372e-01,-1.955440153381831359e-01,-5.422008070267235746e-01
-8.596278357050851637e-01,-3.010184873509244019e-01,-1.000986293764440038e+00
-3.196061193428823693e-02,-7.439729384457412220e-02,-5.223424279880942850e-02
-1.361920026986989551e+00,-4.099280689024658031e-01,-1.387621112064687523e+00
-5.424517396345932552e-01,-1.232735265584789380e-01,-4.734939411215918215e-01
-8.163258281491339030e-01,-2.118785948384527273e-01,-7.053938400297515843e-01
3.639601384589005173e-01,9.461248727135393444e-02,2.408970375049473700e-01
3.600876775526788420e-01,1.551107880489156488e-01,4.081985434673330859e-01
1.958182821072662338e-01,5.903940449734162987e-02,3.107006528134601542e-01
2.756517647908577895e-01,7.432243124803819545e-02,3.275510534571022259e-01
-1.039775127725292014e+00,-3.675251625008375544e-01,-1.005223535119922795e+00
-1.270992371268445220e+00,-4.451687045651214203e-01,-1.333390949610693932e+00
1.322570785564323614e+00,3.581878764236985924e-01,1.300559006178182875e+00
4.121118449879686563e-01,1.062609526779619423e-01,2.731708080223181900e-01
-1.169068329909476622e+00,-4.777148111918853024e-01,-1.319521828326791768e+00
-8.492176255390898598e-01,-3.180755724088683012e-01,-8.874388382522675478e-01
-1.093481209202880722e+00,-3.592079984080195909e-01,-1.136675230926217584e+00
1.101719306757966477e+00,3.943174459177978819e-01,1.069831709921098772e+00
-1.007998770971483271e+00,-3.767590392003822286e-01,-1.064894719586009009e+00
1.562976580167098506e+00,5.028681956196686675e-01,1.563823372548516666e+00
-1.242238320426822140e+00,-3.793762257168286078e-01,-1.211124650392742641e+00
9.985319848374385465e-02,1.882124712262524605e-02,-8.919797128878510437e-03
-5.417393326075927718e-01,-2.561860491110143356e-01,-5.603206160846646577e-01
-7.909742325791684348e-01,-3.647381287542239003e-01,-9.431262108173114056e-01
5.970729632333248160e-01,2.347913814135095534e-01,6.533965269567445500e-01
5.925547334568295188e-01,2.481702967331350096e-01,5.133132525646344479e-01
1.215570822795443817e+00,4.231487595742155494e-01,1.276873942532046557e+00
1.349777453674069205e+00,3.826295425293173014e-01,1.444121880885381959e+00
-6.409991041326930372e-02,2.736925077053471017e-02,-2.425687582302767792e-02
-9.191581471616062649e-01,-3.109918253779074271e-01,-1.048228008289959545e+00
-5.924385366303951406e-01,-2.235960632035309537e-01,-6.514859392867465848e-01
9.646518643249466507e-01,3.771072302930241205e-01,1.090234256339224439e+00
2.510209868815591605e-01,7.568740946114996260e-02,1.980586835710050897e-01
-1.550770257659316087e+00,-4.608935072845146697e-01,-1.481140937329739282e+00
1.459358363074060749e+00,4.582176905208455997e-01,1.394714992114141738e+00
-1.157757815083235053e+00,-3.985340560677661514e-01,-1.280397012405080304e+00
-1.126575178131862254e+00,-3.999447601233862004e-01,-1.276450457440621689e+00
-5.856088713076871288e-01,-1.784662476928646768e-01,-5.078575422733504485e-01
-6.591047211975870068e-01,-3.085127179395580899e-01,-6.712819569927310770e-01
-2.354947972305564963e-01,-9.724485888646584864e-02,-7.699768762200859262e-02
-1.317867593943493343e-01,-1.350706861326990693e-01,-2.071014010920700921e-01
5.354361320351851417e-01,1.979397400529628037e-01,5.766680813280239404e-01
2.288616724911739231e-01,1.042742014240191223e-01,2.548096961868952515e-01
3.536412331451810331e-01,1.481062322332480363e-01,4.818614428445879283e-01
-7.056268727321991507e-01,-2.058402530808659536e-01,-8.048030252665501205e-01
1.395573462474712478e+00,3.976132022998911109e-01,1.343949814838185874e+00
4.169636641285230927e-01,1.523388851456214943e-01,3.978594104857998137e-01
9.492563597159341393e-01,3.955192162960067259e-01,1.009642862651695783e+00
-5.209208370400124632e-01,-2.333225778800563088e-01,-6.039939413686836733e-01
8.231383497131729010e-01,2.424733950468623556e-01,7.756390167646491918e-01
1.188988706735129464e+00,3.622146921662280916e-01,1.164922825655748451e+00
-8.908053941262804587e-01,-3.632757967879808314e-01,-9.020501845506253558e-01
-1.314314333495126164e+00,-5.086795556820370434e-01,-1.440527375507491659e+00
6.417505260582762050e-01,1.442306116979092112e-01,6.203835599758014130e-01
-1.220408123884471951e+00,-3.751851410062014280e-01,-1.331537834201830917e+00
7.690895845828901178e-01,2.406509970473359461e-01,6.943878588756647874e-01
1.279613793364778651e+00,3.576827368639390325e-01,1.391389634730536118e+00
-9.358942535264545004e-01,-2.544372820218701037e-01,-9.044737436984935375e-01
7.971621810210840486e-01,3.079942273040613965e-01,8.154700229881872708e-01
-4.088765571872062798e-01,-2.123677994226678689e-01,-5.406561479694348415e-01
-1.446922180446142736e+00,-4.800083448901860117e-01,-1.521093738044910770e+00
-8.174356838797767200e-01,-2.929195443561085632e-01,-7.722362674465056420e-01
8.198726750009107667e-01,2.197855016879215750e-01,8.799796621875655145e-01
8.959398565612757270e-01,3.007297465707857165e-01,9.171626322077068849e-01
-1.246047597731685608e+00,-4.329631216225504620e-01,-1.216239637921368022e+00
7.340097845898746476e-01,2.410278932710321620e-01,8.194461239233097327e-01
-5.986963592594995998e-01,-2.450042136103448565e-01,-5.930852254474517915e-01
-9.929555400079452809e-01,-3.609484429462951893e-01,-1.040083232619914977e+00
4.362650385340207659e-01,1.684476803412417734e-01,3.877576385040504281e-01
-1.453240583094573379e+00,-3.928257683042685744e-01,-1.391258220125992873e+00
-7.565946452587356263e-02,-1.092953707494007803e-01,-1.601620196510632477e-01
1.304406178597794064e+00,4.232280655820255255e-01,1.371660680543236532e+00
-1.498533769723345843e+00,-5.483020320826038629e-01,-1.530032426146529234e+00
8.413922699441146458e-01,3.150058161562513392e-01,8.685490609300932086e-01
1.253416351080578695e+00,4.616775239625084404e-01,1.324823814922072573e+00
9.348574385433829903e-01,3.162002593544459561e-01,8.968550646475554888e-01
8.335628365359223357e-01,2.811195725748455998e-01,8.333461480715929071e-01
-2.884483933708636635e-02,-5.267310239503464331e-02,-3.548542520981751158e-02
-3.253714185826495631e-01,-6.952926514193454033e-02,-4.451674972024992627e-01
4.859024724823165498e-01,7.158648405601097942e-02,5.127930276680057187e-01
3.988275861659602572e-01,1.150550302862462654e-01,3.629039611155304712e-01
3.227895299445827093e-01,1.050604759377997827e-01,3.090880595385975260e-01
-5.788233317045361481e-01,-2.082604972605619775e-01,-4.645725762715255391e-01
9.409309760249695564e-01,3.960380968290067583e-01,1.054687919438499488e+00
3.783237491799681940e-01,1.203655383593912193e-01,4.363844580306149301e-01
-5.845309238451973366e-01,-1.766305088991066141e-01,-6.955758974433817743e-01
5.640132550453492710e-01,1.777589859223126234e-01,6.503276607028199985e-01
7.481086949828698041e-01,2.391177384759927416e-01,7.959548355074059778e-01
1.225022593899400158e+00,4.071117695180771490e-01,1.167650910833829991e+00
4.984642730523084625e-02,-2.642955797793943018e-02,1.185689232007062360e-01
-1.292245116387847059e-01,1.463050308358280691e-02,-8.952942475742649286e-02
1.334272883544662669e-01,2.889129843395037492e-02,1.870279850904051910e-01
-1.534956763151325676e+00,-4.698709157924315094e-01,-1.479091062026160586e+00
2.345805095174050281e-01,4.502885834627579076e-02,1.978204637880087435e-01
2.476146123602236404e-01,1.016340798369156639e-01,2.653157013525019869e-01
-1.067745704944556895e+00,-3.659827230487710525e-01,-1.071895819568144059e+00
1.286125136748963671e+00,4.716323003340245346e-01,1.273592385096396162e+00
-1.516192666315308246e+00,-4.994780222230724709e-01,-1.487787862709744502e+00
-1.320777496384595739e+00,-4.112694554865437557e-01,-1.248378884092652186e+00
1.065869128840924551e+00,3.282032218907838250e-01,1.121544927809335457e+00
4.490144720014250801e-01,1.680965968597480931e-01,5.124085315968094356e-01
-1.501001881346218703e+00,-4.301440328139926605e-01,-1.447857853807175355e+00
-3.740627403283028896e-01,-2.189954340742845951e-01,-4.682976764522985280e-01
1.319074976805306276e+00,3.944965070356384329e-01,1.344634309085737334e+00
4.949760283765247681e-01,1.990920199004775626e-01,5.299713858601463601e-01
-1.092045230574807263e-01,-8.078486099976482648e-02,-2.105882966290175962e-01
1.539585506061379894e+00,6.446898997138675869e-01,1.593832674085394085e+00
-9.276963499156452020e-01,-2.652645386990222787e-01,-9.164553369776576863e-01
1.203004433796897255e+00,4.385254914154417816e-01,1.340008304739791489e+00
6.872579601764945423e-01,2.572708528624614299e-01,5.964308486942734300e-01
-1.387117656424588841e+00,-4.478341824612264710e-01,-1.485169110492445821e+00
-1.401239559284683356e+00,-4.663475511232831883e-01,-1.484095255837401872e+00
3.358642559454061982e-01,1.386560376837348563e-01,4.430516596023346687e-01
1.581936990797365938e+00,6.005008119218853135e-01,1.647269282380234623e+00
-2.647914572818892420e-01,-1.194997271525175681e-01,-2.906466498602199300e-01
9.132133189718008026e-01,2.352219264691759182e-01,9.000307980672132002e-01
1.451432001261841576e+00,4.016969496520571559e-01,1.436489605255180990e+00
-9.882244268729742931e-01,-2.934741578106652704e-01,-1.120898327596311805e+00
-1.350950797752158872e+00,-4.885438235134504370e-01,-1.485314824805072265e+00
4.003467451514108322e-01,8.677737730002244021e-02,3.513371381921243097e-01
-1.416104402410085061e+00,-4.224658902213520029e-01,-1.461929506904004139e+00
1.048703475647563277e+00,3.184152694304683284e-01,1.028422024337218632e+00
8.324015599861415149e-01,3.222802899220537087e-01,7.895795275010799585e-01
7.250404548034383723e-01,3.026584826709278198e-01,7.437801784308152309e-01
-6.824532709276333042e-01,-2.260201362727356500e-01,-7.032215274550023265e-01
-1.494392403303370420e+00,-4.452349996639090035e-01,-1.584056429598639681e+00
1.501220999847132864e+00,4.791842105931324869e-01,1.606825918768580497e+00
-1.289117402628837672e-01,-8.979128186855742100e-02,-6.890919538851983384e-02
-9.630272901786507411e-01,-2.364792745378050953e-01,-8.965165287258918259e-01
-1.023197460740516318e+00,-3.393801019637229244e-01,-1.064733597892272510e+00
1.218951556328464303e+00,3.803164837789029251e-01,1.276986479039207811e+00
1.458392895144134060e+00,4.928573128094356215e-01,1.485953749758532449e+00
-6.343701600204834090e-01,-1.967132975450550936e-01,-6.570304232749177853e-01
-1.445405132976114171e+00,-5.444773020557897025e-01,-1.397143144873974840e+00
-6.600721481324203221e-01,-1.827892381277943790e-01,-6.324963186706461515e-01
-7.915044432870350921e-02,-1.464127479011940840e-02,-1.038608141710870847e-01
-3.730555289786626101e-03,-2.840856441493002163e-02,-3.473048781715065009e-02
8.005739262905100517e-01,3.122658320938809795e-01,7.950831080739872991e-01
-1.095526288608163618e-01,4.695333121618660427e-02,-6.050782858961863825e-02
-1.322471396709890890e+00,-4.932500758076353020e-01,-1.323769262400239510e+00
1.205287910925555650e+00,4.081129014761820106e-01,1.086282235482140868e+00
-1.000618519600334766e+00,-3.929450111848654670e-01,-9.586467207579885130e-01
4.353331648015777017e-02,-3.548086052936681289e-03,-2.337653524141243902e-02
8.608659114936988432e-01,2.996971814009775081e-01,8.516329823989430281e-01
2.524339469365805000e-01,7.694428018727450524e-02,2.219260959316361748e-01
-9.229344330582293920e-02,-6.395366233817466675e-03,-1.280388428465324968e-01
-1.288284648847295877e+00,-4.096322534478515909e-01,-1.305778358303884001e+00
1.426928696616701853e+00,4.597687266390271810e-01,1.520701896165512768e+00
-8.683344905376426670e-01,-3.497315702545800153e-01,-8.681565494946983375e-01
1.027585729530434033e+00,3.735889262682522416e-01,9.906872813253202459e-01
-9.640424822515767378e-01,-3.618257295214074021e-01,-1.041216931428277981e+00
-7.937853726883137284e-01,-2.740141074570018875e-01,-8.339276494616548741e-01
3.756054029320058940e-01,1.032150732727902531e-01,3.008966819632133971e-01
-5.391084046542083952e-01,-1.967677298103013006e-01,-4.465193195705998708e-01
-8.237462625091704904e-01,-2.881754513387937422e-01,-8.715858949898300789e-01
1.215808536878183688e+00,4.154057793950308719e-01,1.386165761087907455e+00
-1.456247193011395380e+00,-4.643583199227765412e-01,-1.547177562858242039e+00
8.595758411914214969e-01,3.091888750353972148e-01,8.371335729162056039e-01
5.141769465336141209e-01,1.998741603539745670e-01,5.578028346906621637e-01
-4.745072517668900147e-01,-1.858440833887053112e-01,-4.469258540851432371e-01
1.082457401721480111e-01,7.125316759062433336e-02,2.042424444364910885e-01
-1.431852592072917485e+00,-4.444687941198127157e-01,-1.562166669476686254e+00
-6.015317531876543944e-01,-1.874549890923518369e-01,-5.193505583807500603e-01
-5.088883684784812900e-01,-1.399206503958725367e-01,-5.581937929565565781e-01
1.336736487488770830e+00,4.908733712808422966e-01,1.367125830149152010e+00
-1.026573127571942523e+00,-3.484234437254096761e-01,-1.042056546697092356e+00
-1.351225725919012133e+00,-4.105939037435330508e-01,-1.326866241082386155e+00
-2.034480394601938802e-01,-9.756552745147281658e-02,-1.028667222973365242e-01
3.408535167544943789e-01,4.376385971479034021e-02,2.864422195782232450e-01
-6.793595324085870413e-01,-1.866914829056351144e-01,-5.632082619140322821e-01
-3.723130996275182403e-01,-1.519606058011393479e-01,-4.373538281216276524e-01
-1.158316923009768740e+00,-3.829772565027474429e-01,-1.348233534730590932e+00
-3.764210754935986558e-01,-1.068303842483369209e-01,-3.377708587004399909e-01
1.278563484077213541e+00,4.145391376508998915e-01,1.252444115688307713e+00
1.662585727148859549e+00,4.381918571518203520e-01,1.584978457521461381e+00
-2.516370492544260928e-01,-3.491913744472093656e-02,-2.580885871511477414e-01
9.697693089400012401e-01,3.762841859615692064e-01,1.054228927878324118e+00
2.302532518848015575e-01,3.220518014799974432e-02,1.742911295460203847e-01
1.017727899403298553e+00,3.130550917651050424e-01,1.054861100247108663e+00
-8.860162275672017751e-01,-2.198846557407262980e-01,-8.675694844748058632e-01
4.409122720551191255e-01,1.364154996637641504e-01,5.124533818913535876e-01
-7.038266701028036421e-01,-1.617900015204140063e-01,-6.519865346314046572e-01
-1.500846497072823249e+00,-3.846875826593980641e-01,-1.541197837485006161e+00
5.157792126267032318e-01,1.713835000052461588e-01,5.325060754479714609e-01
5.061091195272364729e-01,2.023351505492896885e-01,4.387321136720525039e-01
-6.479449346612765614e-01,-3.095235522068038314e-01,-6.772588180487819631e-01
-1.241699547906399470e+00,-3.344134998330590136e-01,-1.429938517406462051e+00
-1.597017073555960565e+00,-5.174967699311786573e-01,-1.540794159027680799e+00
-8.975447456640270882e-01,-3.347120889540201039e-01,-8.797502310732120412e-01
1.346688907079398145e+00,4.530706273512916660e-01,1.358612458981335980e+00
6.377795038656056681e-01,2.738531288676510078e-01,6.589107501236121101e-01
-3.867902656401255301e-01,-5.466846369603495931e-02,-4.008491387900232628e-01
1.048262680038606343e+00,3.220832961892228230e-01,1.012335350160253666e+00
-9.555013498985027998e-02,-3.946992965379469975e-02,-3.661491686886163277e-02
9.327528538520851731e-01,3.010832248958975610e-01,9.472758596504758932e-01
1.494795463111019185e+00,5.050590232976244209e-01,1.609536100277027204e+00
-6.062777498787628172e-01,-2.336688354731373263e-01,-4.969569937521252645e-01
-2.301571645253871756e-01,-4.601217413254279909e-02,-2.939637541946407695e-01
4.998421136958829392e-01,1.632215924859189982e-01,4.132192577370070175e-01
-2.378591385993983620e-01,1.336255494561424881e-02,-2.502068821339541449e-01
1.493043321015309566e+00,5.524647160703064497e-01,1.550888793149222566e+00
-1.175333119327711257e-01,-5.958508528271116295e-02,-2.019173975306671476e-01
3.015037035525197084e-01,6.083256142854254894e-02,3.120030600118782194e-01
-2.282930915777378611e-01,-6.116213985229543293e-02,-1.958080100992298234e-01
-1.234710355703439177e-01,-8.915060427676932756e-03,-7.603646425568391654e-02
7.547698024152803553e-01,2.924483664720316511e-01,8.033190477431537690e-01
-1.331760078263243274e+00,-4.204941571341381246e-01,-1.399951768839540200e+00
1.576464669386758777e+00,5.197835351097528367e-01,1.574010694588318771e+00
-8.915178447264501260e-01,-2.434240932669777258e-01,-9.391706060615970797e-01
-7.547006166758994938e-01,-1.431319265986387701e-01,-7.037180865190956203e-01
6.846993016312682423e-01,2.364379794878460617e-01,6.713392414008461095e-01
2.967432747361077316e-01,1.690185922541581620e-01,3.581620374952149133e-01
-1.460108402041863374e-01,-1.766447198648879793e-02,-9.557356702774538748e-02
-6.795583771410895757e-01,-2.479070600548134995e-01,-6.967833924858861661e-01
3.458923997753406421e-01,1.053561974195108553e-01,3.747333230426544981e-01
1.555912433025975039e+00,4.423134230381030041e-01,1.510019229506750493e+00
8.267159019479718429e-01,2.399929097819853696e-01,7.830321083681579530e-01
-9.001241295103487028e-01,-2.387262572188500742e-01,-9.024975837502769993e-01
1.183124292545864931e+00,2.987614129223256088e-01,1.152284863456789044e+00
9.647606853462935284e-02,8.405785817037544905e-02,4.611287893256940662e-02
1.275038882702995924e+00,4.922040354297252951e-01,1.331746969686120829e+00
-1.556151479256034253e+00,-5.691081904259772672e-01,-1.582602733172289833e+00
-4.565585423709032087e-01,-1.361303185988901043e-01,-4.465817597259756355e-01
-2.990567628983739623e-01,-8.347195154668650419e-02,-4.242802214095499069e-01
1.395982944268824522e+00,4.819961244093471375e-01,1.427824070266173972e+00
2.708844053743328373e-02,4.859851629509045340e-02,-1.278915154732533470e-02
1.461575225296802838e+00,4.839884142329183847e-01,1.375737101206046420e+00
-8.312650171209193806e-01,-2.431500567073609509e-01,-6.815390189435518442e-01
1.674103581566426802e-01,9.396621932568854571e-03,7.830802103260842140e-02
-2.068528042476150131e-01,-6.721441289411062003e-02,-5.177586642050088783e-02
-1.495697615765435862e-01,6.777847119532476837e-03,-1.377117752193828537e-01
-1.370394936740502168e+00,-4.690756300347418417e-01,-1.461195968231556064e+00
1.525981125477696265e+00,5.188579799830836947e-01,1.520256496423385340e+00
4.133433445426437647e-01,2.219330224567616361e-01,4.417936743935175214e-01
1.109553674425996395e+00,3.249435964404022714e-01,1.089460653508863786e+00
-4.422281320002630078e-01,-1.325794402745588407e-01,-3.895196427900418645e-01
-4.599542549658631740e-01,-1.637386747364279749e-01,-4.796752742216550125e-01
3.496946925653943855e-02,3.666519122718853857e-02,6.363179016550304934e-02
-6.548884872791971290e-01,-2.327160453322707212e-01,-7.319239710456127979e-01
-1.540271682056156388e+00,-5.420754887046332904e-01,-1.586552806808515514e+00
-6.637036382113195021e-01,-1.877720302026869015e-01,-6.012824058644785641e-01
7.141593189765758076e-01,2.262188265505128137e-01,6.417693344042845194e-01
-1.093109417296699304e+00,-2.322871758793730312e-01,-1.073148541671831602e+00
-5.703931103474585429e-01,-2.703640120129374158e-01,-5.926732112829002919e-01
2.743414678769031667e-01,4.189091728633787676e-02,2.700187858105471683e-01
3.015406900369337340e-01,1.235486557420477916e-01,3.534664411693504427e-01
1.149035924340869430e+00,2.892445451196562489e-01,1.207829242442085560e+00
-1.078306546620211304e+00,-2.914227483098377758e-01,-1.094449779797887601e+00
4.259288517738802314e-03,1.499666600374719751e-02,1.189383741741457112e-01
1.609229477016110632e+00,4.788502519188742590e-01,1.621511665605156027e+00
-1.182890617670643962e+00,-3.566704017032721885e-01,-1.314100926207360631e+00
-2.320578780944437258e-01,-5.617329986735845881e-02,-2.660140559240551927e-01
-8.921524304920512849e-01,-3.031347788881163519e-01,-9.388451474448643586e-01
-6.803397844634867520e-01,-1.923391530341317934e-01,-7.626264859922325945e-01
-4.365740779599703858e-01,-1.109534526328593285e-01,-4.386752438073774352e-01
-6.404584293942454654e-01,-1.903195332392583206e-01,-7.573110971570647942e-01
3.848244355984611897e-01,1.672932174744036771e-01,3.995837699057559478e-01
-1.309856290106345522e+00,-3.866062958128664850e-01,-1.306867166419199977e+00
7.487033938408925726e-01,2.653643280719300002e-01,7.620195848466241317e-01
1.497707798611818353e+00,4.701609763547626164e-01,1.605345846317159264e+00
-1.581589121549460630e+00,-4.774968839400217657e-01,-1.647778963242721106e+00
-1.423852514282220483e+00,-4.219292426179510613e-01,-1.470000505513347600e+00
-1.198260766668351573e+00,-4.159540898985996660e-01,-1.214588986571723650e+00
-1.284580652987173943e+00,-4.643844042130635397e-01,-1.287633193343953319e+00
1.430705542839566247e-01,-5.470360133520221768e-02,9.169236032819899629e-02
-1.048125891986802394e+00,-3.949945316383408622e-01,-1.139011437536100679e+00
1.127436253255856391e+00,2.953227087505122528e-01,1.122372887689115473e+00
9.705191325606161712e-01,2.589489116291425197e-01,8.593300179384187887e-01
2.678628025533181245e-01,1.701253824099222267e-01,3.930929651509879608e-01
9.124431382045939953e-01,3.155225053855198469e-01,1.078380241725503952e+00
8.808612636399063556e-01,3.087987112204910733e-01,9.352290366001781985e-01
1.390851832718162484e+00,5.272194485354294580e-01,1.461711371980520369e+00
5.615462810578435437e-01,1.242609524313372377e-01,5.151393838494944255e-01
5.326250977368099937e-01,1.916575539830859543e-01,4.379969394219737078e-01
-2.741165613374726417e-01,-6.763226096292242195e-02,-2.649510348642890034e-01
-1.381969565236271569e+00,-4.192681842569017658e-01,-1.393313704811504739e+00
1.344175685426411970e+00,3.788044056294649908e-01,1.394906226398765270e+00
1.510815701502029373e+00,5.315445553195946582e-01,1.616694128706068545e+00
-8.605290102034997002e-01,-2.473181904873744397e-01,-9.162892448876274187e-01
-5.429888691563103942e-01,-2.321065546920001443e-01,-6.176435427635587061e-01
-9.674483963793716335e-01,-3.783956761219324227e-01,-8.829944948612350464e-01
1.036987808856307147e+00,3.588749412785008364e-01,1.127775916291620106e+00
9.113169446294694387e-01,2.461753873171071416e-01,9.406918076897836656e-01
8.340252862897634678e-01,2.649303379715315931e-01,8.117100219099929737e-01
1.100935631676017046e+00,3.270476022328993038e-01,1.248954998938481831e+00
-1.063570488538160497e+00,-3.471256808255832049e-01,-1.075457331657782456e+00
1.286181625939493367e+00,4.212049329251908447e-01,1.379388223772546773e+00
-6.909940956508103804e-01,-3.559626188051937534e-01,-7.979379427779492717e-01
1.041500825961972243e+00,4.324318620729352691e-01,1.039370683393495254e+00
-9.619854451457094946e-01,-3.397179491726172729e-01,-9.079211830589373200e-01
6.335790057931537378e-01,1.407026516142241557e-01,6.127585503584320747e-01
5.731194205406977549e-01,1.517834809523967154e-01,5.575182519035496442e-01
-7.574165224874449542e-01,-1.895042622424207845e-01,-7.515072187794806791e-01
-5.065031515184859057e-01,-1.963000907420458518e-01,-5.876745175441402402e-01
-8.762095010720434285e-01,-3.049137734064399363e-01,-8.623791748372918731e-01
1.187316044520045022e+00,3.487818918615642749e-01,1.210743541288897163e+00
-1.114263485253230712e+00,-4.000605727321605021e-01,-1.158419171205194331e+00
-5.871347526432199038e-01,-1.314634591268740715e-01,-5.662634835674276168e-01
1.163741227467618655e+00,3.127633401686140124e-01,1.197748792652003180e+00
-1.471678119858988332e+00,-4.594729411135592967e-01,-1.515287121263865444e+00
9.466224856130871501e-01,2.256305197193522183e-01,8.343096861848438017e-01
1.549761914009719632e+00,4.754902366891122778e-01,1.463031849296586140e+00
-4.717666271629755159e-01,-2.037272678292452177e-01,-5.302496187179400744e-01
1.467502500532450016e+00,4.076389455208478396e-01,1.555904788791962368e+00
-1.674934487427344743e-01,-4.482373979973523076e-02,-2.040943589228797761e-01
5.211075869915852143e-01,1.759705260501283897e-01,6.511646657232900148e-01
1.376609619842548815e+00,4.573848522262620175e-01,1.474377855622996947e+00
-4.833760439722862290e-01,-1.384514191685297935e-01,-4.852792520602957071e-01
-3.804283170751407983e-01,-2.308867406476766415e-01,-3.637930588840129209e-01
1.365429884272191030e+00,4.324238348487782213e-01,1.391910467307237109e+00
1.307110552472230180e+00,3.612320538759002386e-01,1.320191513856517451e+00
-1.313728800224723159e+00,-4.275704457251155444e-01,-1.425591749588185575e+00
2.807980780331535975e-01,8.720893513662944518e-02,2.627807551550602194e-01
-1.329359099980565562e+00,-4.466064813922080989e-01,-1.449363603522329402e+00
9.898020714290131084e-01,3.469072410538319717e-01,1.125444497089638007e+00
-1.434666759462294605e+00,-5.072391845968481361e-01,-1.473267750175428992e+00
1.503939126901262524e+00,5.382463638142449547e-01,1.477426280554871907e+00
-1.260670210215860676e+00,-3.683215370385405363e-01,-1.206026035154285081e+00
-9.119340061600339498e-02,-1.089312526573670975e-01,-6.370561183726777821e-02
1.134401281857619209e-01,-2.784897962324560036e-02,1.332462265945539293e-01
8.239724839400222045e-01,2.355246844652256477e-01,8.047827189039591378e-01
-4.510565364294099044e-01,-1.259968613153138184e-01,-3.968910377946959778e-01
8.068728649455678137e-02,1.390255778877461275e-02,6.225022092014621117e-02
-8.745250199941302371e-01,-2.811558093978601680e-01,-8.799129461427191989e-01
-2.729268498424560208e-01,-7.631515006891557984e-02,-2.790898928724436789e-01
1.530190732863088598e+00,5.422270959089979803e-01,1.662903593746109854e+00
1.428581023032613695e+00,4.934958293428685638e-01,1.531812425776460485e+00
-1.058830003699548078e-01,-6.917109719105343779e-02,-1.573302775088544214e-01
4.629967836260582281e-01,1.572750212614059950e-01,5.185962380266596616e-01
2.402275879859988583e-01,4.645300835149682173e-02,3.050446550148972480e-01
-1.459201732984269917e+00,-4.009444798743608818e-01,-1.526384233016425229e+00
-8.193332101710687487e-01,-2.003178044291974158e-01,-8.583460925194736912e-01
1.349998345617954010e-01,2.399334453460151215e-02,-9.796689965005024592e-03
-7.224494612460232723e-01,-1.928028920705370797e-01,-7.452721407388558372e-01
4.795929018671659660e-01,4.116773334851625554e-02,4.497943983487016073e-01
-7.200086819906462710e-01,-2.195146556487411749e-01,-6.281318721338562394e-01
-2.901284314560531596e-01,-1.105460371831254174e-01,-3.688987774961883237e-01
7.443677017966147946e-02,-6.354421064473771141e-02,1.280182091881284512e-01
-1.124120080608359329e+00,-3.897717112767277170e-01,-1.132993587533964286e+00
4.724891242264748215e-01,1.482083077796936543e-01,3.556563168812053033e-01
9.558106821766449990e-01,3.094533632352980401e-01,1.046044575094047246e+00
-3.666131082440733935e-01,-5.452232015052835279e-02,-3.832071552191115837e-01
-1.173582550467090257e+00,-4.377716935853527835e-01,-1.068428636833708811e+00
7.044811871007531368e-01,2.199426855456592111e-01,6.445185047281494217e-01
2.095912179951009979e-01,5.593501733525507030e-02,2.127217537971503869e-01
1.709005474549705750e-01,1.499052361353458811e-02,1.462920845296675765e-01
1.387680719036360477e+00,4.410745625114453339e-01,1.385200308236210986e+00
3.158659716141750534e-02,-2.959540629037782020e-02,2.626929726769139037e-02
-1.279018007360520182e+00,-4.442375474386955903e-01,-1.301897383641240191e+00
3.902984032439127948e-01,9.724938321924704587e-02,3.730803733560907887e-01
-1.040530006139050556e+00,-2.271336732683430226e-01,-1.072424641109201771e+00
-1.049320205289062224e+00,-4.422901475007027794e-01,-1.065850891018492064e+00
3.047441455472045188e-03,-1.436651967225676708e-02,4.984362365471406431e-02
1.433293360227436142e-01,5.398714043772821075e-02,5.630447337258833590e-02
9.661452529729231964e-01,4.142293774410570339e-01,1.140814420726225853e+00
1.098363444990757692e-01,1.626223889440099601e-01,1.296498534084856435e-01
-1.307950087880992207e+00,-5.010263116238448111e-01,-1.359448333781940077e+00
1.548042781224571396e+00,4.720822906541301545e-01,1.580192057145187734e+00
-1.606736266442594152e+00,-5.115607690000313346e-01,-1.534015549752001828e+00
-1.378389640375534020e+00,-4.838078942675990701e-01,-1.362842413196736047e+00
-6.088624062398010350e-01,-1.806048048163548247e-01,-6.545520720467760123e-01
-2.673807324138157207e-02,-1.144636382491950703e-02,-5.110870847520004867e-02
-7.581078444002179451e-01,-2.699576834933361535e-01,-8.198577860412152862e-01
7.642504636372426940e-01,3.213356018782205781e-01,8.457308369753749888e-01
5.075589771202941858e-01,1.615000893781546598e-01,5.128351525994290228e-01
-1.210813942964633627e+00,-4.121286827937713504e-01,-1.302211469164180180e+00
1.529219756754317538e+00,5.457409842669793676e-01,1.559794619905595203e+00
1.603143299490919493e-01,-2.101218268696076856e-05,2.565457743533210433e-01
1.158503808981530714e+00,3.555504959325708758e-01,1.152911591471596831e+00
-7.401051244643771510e-01,-2.063927474032339338e-01,-7.451848485417252865e-01
-9.874265232365382339e-01,-2.714144443979524812e-01,-9.207484327990714812e-01
-7.161472009256365512e-01,-2.578414655034925729e-01,-7.950421652773823622e-01
-1.005672902708057981e+00,-3.535892923554874168e-01,-1.153876678201232853e+00
-3.070262565919125719e-01,-5.251947296056465320e-02,-3.426832252552954872e-01
2.172526793341775231e-01,9.743210337153331013e-02,1.073084865441214786e-01
-6.466091302150005493e-01,-2.115046943008082325e-01,-7.327508885765443569e-01
1.248978889222368965e-01,7.005955888196460646e-02,1.880036840568834466e-01
-1.396558425563488415e+00,-5.381209203911120342e-01,-1.435131001229917436e+00
1.622431035434392488e+00,4.564031847393024144e-01,1.659597249772362115e+00
-1.570865893442898953e+00,-5.921769782465254872e-01,-1.504485787414027387e+00
1.245784502721105413e+00,3.999488255613667942e-01,1.278795219680800122e+00
2.554695227511832867e-01,1.016127325828730943e-01,3.330220918553008502e-01
1.160594073173078389e+00,3.404458928098340609e-01,1.218361041244775400e+00
1.001252073421931232e+00,3.071093714244337303e-01,1.028374113444025184e+00
4.597601296920850733e-01,1.871880990759099694e-01,4.447757780689018392e-01
9.289961048521898634e-01,3.160361874231923385e-01,8.788286374546285806e-01
-5.769140887264014861e-01,-1.860500389860634540e-01,-5.724967541227419243e-01
-1.579673609075454177e+00,-4.376002244907874483e-01,-1.447650662289324819e+00
-1.433935650796326788e+00,-4.758258945564320386e-01,-1.433768248222732966e+00
9.192869604261516558e-01,3.010396792902276797e-01,8.772133682080409667e-01
-8.821373172521521644e-01,-1.846535325317612553e-01,-8.347692353727043102e-01
-1.290086929757463086e+00,-4.684555991147748566e-01,-1.184670302137371234e+00
1.254655600401668458e+00,3.892647158017659703e-01,1.195001367213438082e+00
-6.100627146191057726e-01,-9.304003246071053390e-02,-5.708380073333673144e-01
-7.609680597806763869e-01,-2.426786378300259395e-01,-7.364191504501873542e-01
5.001266425522356007e-01,1.395946908406568709e-01,5.127362282410785621e-01
-9.899636082667675474e-01,-3.266519448520631141e-01,-9.627155437483311262e-01
-1.068756319546885214e+00,-2.977770210463662193e-01,-1.133630877635833922e+00
-7.158393271771037458e-01,-1.974704572408037262e-01,-7.536769919405784668e-01
-8.111243026036701886e-01,-2.850523632239985172e-01,-8.044535173228052338e-01
-1.112080795737005134e+00,-3.687108146739462300e-01,-1.109863466572712287e+00
-1.223600775910601568e+00,-3.595866087556494062e-01,-1.170430768372182850e+00
1.190351089763882347e-02,5.591913726542436375e-02,-1.554011995871618437e-02
1.305787479899178927e-01,4.230176936820177064e-02,9.380696216889111705e-02
-1.182300516802089474e+00,-2.499889459786312773e-01,-1.147122921008389529e+00
7.279068734244777128e-02,2.873045834765795836e-02,1.745692412099810742e-01
-1.214242479155974719e+00,-3.772931938409286867e-01,-1.297496335467565931e+00
1.229855473270705435e+00,4.118979636457767435e-01,1.250241454719180689e+00
1.393474071655537827e+00,4.229582516848063856e-01,1.451144319846169983e+00
-1.767277961164861674e-02,-1.586099623115951041e-02,-9.527688152921465203e-02
3.488274340288164410e-01,1.702314525120808275e-01,3.753974726515403870e-01
8.724796386628900224e-01,3.535319341970428186e-01,9.052466504525009672e-01
1.136653591353934623e+00,4.236913365095493766e-01,1.118165449547747325e+00
-4.951043383266994780e-01,-2.355658945147862393e-01,-6.403560698388339745e-01
-7.503000256200548224e-01,-2.802802998030295978e-01,-8.895670031745682715e-01
4.412921354378532973e-02,7.122895998518655181e-02,7.919567347362520271e-02
-1.023560803164514477e+00,-3.209761651825498996e-01,-1.130626002280898712e+00
-1.594639841580923978e+00,-5.086225681735297988e-01,-1.580874858506166269e+00
-1.090132901755667794e+00,-3.377249628413172000e-01,-1.112873437273156574e+00
-1.409863219233095766e+00,-5.018692611927156877e-01,-1.437979517089760462e+00
8.771754527030463378e-02,6.282114706763784751e-03,4.143396174368410567e-02
-5.266547851051097684e-01,-1.530754516771553886e-01,-4.277432111808117665e-01
-8.862900718237055608e-01,-2.972568114411285878e-01,-9.161447445090735719e-01
1.548483934520384686e+00,5.257064571532472641e-01,1.481809410019784501e+00
-3.579792754698294388e-01,-1.560279766904041909e-01,-4.316245309588166990e-01
1.555058051323772839e+00,5.487174462733789282e-01,1.490209568681552632e+00
9.493457065002000039e-01,2.274464670508933029e-01,8.856680191102296318e-01
1.260093684988447649e+00,3.582923712978240416e-01,1.267609448220942348e+00
1.147542194238085456e+00,3.614899622173541882e-01,1.209023806976656790e+00
1.611419386015051858e+00,5.545743696322403826e-01,1.520166075658115457e+00
1.574548974018138869e+00,5.933578637143325230e-01,1.495742137688555129e+00
-5.536401316995229749e-01,-1.514559415517429675e-01,-5.455056347366910030e-01
5.650064595433361703e-01,1.454592331557025275e-01,6.370223590306230976e-01
9.613623277788256594e-02,-5.405803722375993048e-02,2.653446969286159529e-01
-1.224255401025152290e+00,-3.676053785740089341e-01,-1.404183405642730031e+00
-1.076985610030568585e+00,-4.179189079397481743e-01,-1.081063871256310538e+00
2.165424710631668470e-01,4.665355890700006308e-02,3.206549278110329970e-01
1.308255700319383097e+00,4.363651371580154481e-01,1.371462101911744336e+00
