1.485543615412278307e+00,2.892585288434213364e+00,-1.412230474412576653e+00
9.090312361396343244e-01,1.652404078971824175e+00,-6.867185841571473714e-01
7.688781443814765026e-01,1.430089998357461312e+00,-6.460679768825248193e-01
8.936373932206500559e-01,1.609932387125082798e+00,-7.363052206996112403e-01
-7.707362238508514984e-01,-1.337480262300305034e+00,6.283177098771294267e-01
3.547728128402194980e-01,4.800821392275831934e-01,-2.854582158225540955e-01
-8.211959455553260456e-01,-1.743767083476680302e+00,8.027254479822786282e-01
4.566238065633901333e-01,3.191426114200928699e-01,-1.868259510764981590e-01
-2.436415893388862997e-02,-2.755686936219862715e-01,4.583362803845390798e-02
1.321862885214389660e+00,2.392177496406057813e+00,-1.149786850969151342e+00
-1.572886036474874683e+00,-2.884389764533457967e+00,1.229939059095890519e+00
-9.004094162407325630e-01,-1.457438190410462076e+00,6.326237149810934879e-01
1.491390975025022048e+00,3.483566792771583209e+00,-1.353677270981726632e+00
1.551381141578773937e+00,2.917338665239022077e+00,-1.273765578937124276e+00
-4.975342749485519023e-01,-8.421226733020682476e-01,3.511557887237631292e-01
5.084926476146189867e-01,8.969819294287559863e-01,-5.425164074304906769e-01
4.196704772150401386e-01,8.539801895510245044e-01,-4.118488140792804231e-01
1.413283098450409225e+00,2.375566489773962786e+00,-1.274222296875479055e+00
-1.204961775233452936e+00,-2.273496367239827620e+00,1.083699816645115721e+00
-8.115190296594780861e-01,-1.398252285223066105e+00,6.039534778482944510e-01
-6.895269692340473267e-01,-1.186588942246136646e+00,5.334867052965797107e-01
-6.080053130559898156e-01,-1.167069834718132748e+00,3.326016574648889002e-01
-7.974467547151158353e-01,-1.388628318637998849e+00,6.790211352005041112e-01
-1.024319989132847164e+00,-1.920181091135213514e+00,8.645223107381990735e-01
6.291197423853899240e-01,1.322240084697973606e+00,-6.479145144677063151e-01
1.066630565037983702e+00,1.695569884980954400e+00,-9.872311222371233930e-01
-1.545347171048874424e+00,-3.183546530617498149e+00,1.472753677034445152e+00
1.711093750727707530e+00,3.154441217281856336e+00,-1.500581591863393349e+00
-1.018135263174096750e+00,-1.892666337296633694e+00,1.022827431439037538e+00
2.983250797337725913e-01,4.102055242536950530e-01,-1.119607490234893338e-01
1.197188956402743365e+00,1.969801418967887185e+00,-1.087039518383206671e+00
7.140913813157691026e-01,1.084964335167858396e+00,-4.930765677528701207e-01
1.605255792909076495e+00,2.613138488157002559e+00,-1.262147266296783421e+00
5.231745858503361601e-01,9.800504270443720634e-01,-4.567537251515788599e-01
1.067820072955512289e+00,1.948788290089111586e+00,-8.224736147576923173e-01
5.988711913862888592e-01,9.919251158504547305e-01,-4.685184269953800995e-01
1.467768967498824129e+00,2.595826435942684807e+00,-1.174422161107979701e+00
-9.232216032337765554e-01,-2.022634567268082773e+00,8.280867732791395985e-01
-1.738355803589505255e+00,-3.318020387599052157e+00,1.465372974798095251e+00
8.398860234485041598e-01,1.724952354527688358e+00,-6.748674386511083201e-01
3.773256860678570468e-01,5.758245131778121362e-01,-2.792066352146519992e-01
1.461914218379727626e-01,6.254923604257464076e-01,-3.855535714574351291e-01
-1.998362430575829352e-01,-2.668077352582261530e-01,-9.466191242679786177e-02
8.600331185781421306e-01,1.204627034741694969e+00,-4.299194810406156697e-01
1.409128956929849075e+00,2.319212669743455191e+00,-1.001732302146226106e+00
-9.764511980771232169e-01,-1.993232342533992840e+00,9.236469090304852969e-01
-2.382161612592668676e-01,-5.965054354525307634e-01,2.105782888514427520e-01
9.962423656319171483e-01,1.695605618219634847e+00,-7.700774751927423889e-01
1.746234466757204951e+00,3.100977481393716317e+00,-1.362359091230555430e+00
-1.682908704412339196e+00,-2.823754158997942465e+00,1.380220619827163153e+00
-2.277281158639068159e-01,-3.730729358934866680e-01,2.753263469665722663e-01
-1.852113834260847025e-01,-4.027674014789606738e-01,-5.021202086511181856e-02
-1.441942902360696221e+00,-2.671579053155560768e+00,1.151102039300060387e+00
-1.546871782210473834e+00,-2.876402106848725992e+00,1.196533129946466767e+00
1.135945566755656388e+00,2.093812445805614875e+00,-1.041653881524976510e+00
9.496340198033310642e-01,1.673934857325065861e+00,-8.096432963911532887e-01
2.344144433092459345e-01,7.051314472148905166e-01,-3.759137299914406261e-01
-1.181452415380351839e+00,-2.139774662060636157e+00,8.186206894467124018e-01
1.323168601369948183e+00,2.398634702495658466e+00,-1.038962746291775874e+00
1.231038669280843517e-01,1.993688365235959936e-01,-1.425249932741640413e-01
-1.035360633552617898e-01,-3.733532016441930557e-01,1.189547199249487153e-01
7.288603911887544529e-01,1.566196800912285747e+00,-7.085601282326725592e-01
-9.803796627658553087e-01,-1.918534984115331632e+00,9.131482847334587705e-01
-1.612209356704312313e+00,-3.230385175217685756e+00,1.369384062116429046e+00
-1.156937104262290905e+00,-2.074818153815821020e+00,9.567581886589050510e-01
-1.662523054297582181e+00,-3.223846729301589331e+00,1.295985937909389873e+00
1.263534552239901076e+00,2.065321632034653465e+00,-9.596415213994731186e-01
7.698095064178757385e-02,5.475388177616220819e-02,1.581992935878636253e-03
7.727758939237933111e-01,1.396654108026608609e+00,-6.446603339909056096e-01
5.168168310079706007e-01,9.039654988876867359e-01,-2.929311658507947613e-01
1.007991524100631642e+00,1.735620641771151940e+00,-6.873923819917852063e-01
-4.163386259991974647e-01,-9.358527734999037007e-01,4.393777479233601513e-01
1.334219188771189391e+00,2.507446413216799286e+00,-1.278329128635582013e+00
-2.256391302967086787e-02,-5.861125927060267977e-03,1.128112815800929730e-01
1.552280997756070979e+00,2.851412912303949110e+00,-1.484526285862840744e+00
1.904184538434129825e+00,3.216846737896105868e+00,-1.444957096392905482e+00
8.254786672940227499e-01,1.427980567843460946e+00,-6.857955190514806176e-01
-1.414346123410020972e+00,-2.573540052286990232e+00,1.249491977303367918e+00
9.849209771201056229e-01,1.648170276896843589e+00,-7.494177729069388949e-01
1.040361525602732096e+00,2.007429649270425109e+00,-8.751378658402877431e-01
-9.376809065090869755e-01,-1.878395003968297061e+00,1.075087676325441777e+00
2.181554233978066915e-01,4.753986445074380729e-01,-1.854197619276259368e-01
-1.104396619889873588e+00,-2.333608158587026526e+00,1.232690660083600953e+00
1.480509049163870328e-01,-4.689627881241086038e-02,7.556527047341199399e-02
-8.067013565596641289e-01,-1.668300117721819964e+00,7.899586313393489601e-01
1.582796925044450020e+00,3.103099182287087032e+00,-1.420751976744679457e+00
1.878463471002072005e-01,4.854939577044977694e-01,-1.623826842997325992e-01
-1.722437880846710012e+00,-3.361328142667187269e+00,1.498794651411220258e+00
1.733585063990123576e+00,3.444750851724406537e+00,-1.436651292333723351e+00
-1.302436304518737042e+00,-2.319397971294902661e+00,1.070451999458975179e+00
-6.647244895415915789e-01,-9.756418832349414982e-01,4.477570713259106938e-01
-1.046708720450479024e+00,-1.902791068314725331e+00,9.747307651641639037e-01
-1.936502357811934957e-02,-1.571581966909076922e-01,-1.314701293839015857e-02
8.046576116237030840e-01,1.646011321031812358e+00,-6.797255882993629150e-01
-1.349518129878677808e+00,-2.802637641696643644e+00,1.268002584660946397e+00
1.234013059884329522e+00,2.542578367149870289e+00,-9.642774483208522707e-01
-1.373301856126678766e+00,-2.538118719457530759e+00,1.007072269830570965e+00
1.899917796222681809e-02,-1.287376193094900458e-02,7.869650577556390469e-02
8.359498902403792453e-01,1.595362782988774653e+00,-7.512417686569511366e-01
-1.105345014876846665e+00,-2.360344559110439278e+00,1.061308978048244533e+00
-1.418709435582767187e+00,-2.880399762969655164e+00,1.260683459589561295e+00
-9.782383652946642361e-01,-1.917333946460222593e+00,6.905803575860191001e-01
-1.949938213007985921e-01,-5.939018484196267877e-01,1.067101602517752518e-01
-1.058621232221077291e+00,-2.085762635125406383e+00,9.195701308382689954e-01
1.353068592857533003e+00,2.437259665566741340e+00,-1.123740832197509754e+00
-1.036791139954946095e+00,-1.950601622484216868e+00,9.471318725024724383e-01
1.154909528948609543e+00,1.976628683267087405e+00,-7.730414922822165247e-01
1.044687651829364627e+00,2.176066721685495420e+00,-8.609931978826033117e-01
-6.300287075958730387e-01,-1.217521876965835803e+00,5.633253319755693322e-01
-1.036713571552653756e-01,-6.492348136660404390e-02,-1.792075709927479776e-01
-1.681104452750147527e+00,-3.115723104956655387e+00,1.470707685704522927e+00
-9.179341399677273250e-01,-1.991662545336819523e+00,8.648318771730281185e-01
-7.798428039279763357e-01,-1.644032722623222531e+00,6.998638362720837058e-01
-5.359205312901967888e-01,-1.172985227803465813e+00,6.503298655999359967e-01
1.444233417167571698e+00,2.754284154258139772e+00,-1.196074967507438469e+00
-1.538466733678519160e+00,-3.190937829082408417e+00,1.419347930845775707e+00
9.364229737739945825e-02,4.463221097287300432e-01,-2.663562500203290329e-01
9.654629634326239440e-01,1.837653344890151308e+00,-8.411311708844844137e-01
-2.230053550034283988e-02,-5.854615106672709374e-02,1.775864727240319269e-02
-1.273329911139201354e+00,-2.253533962492913378e+00,1.076765110633524536e+00
1.712318251752962706e+00,3.082186921069131280e+00,-1.387891203684218810e+00
1.483783550943468477e+00,2.589535912804667106e+00,-1.256699188704062609e+00
1.255279179533616007e+00,2.465877282510959834e+00,-1.227052837377906158e+00
-2.686445019821437352e-01,-8.612810674322499693e-01,2.734570997933925551e-01
-1.018622417190253593e+00,-1.748266922253709943e+00,8.476815224376762492e-01
-1.312996146098105221e+00,-2.319178603124414817e+00,1.020029403162861392e+00
-4.855301101484218451e-01,-9.718242799347450722e-01,4.935401354261130802e-01
1.074111975003446684e+00,1.859626837136107547e+00,-9.101519560985733559e-01
1.094385416702229330e+00,2.171030491264138274e+00,-9.015640918486542699e-01
-1.118740319387614424e+00,-2.148958930757800090e+00,9.608418028383508558e-01
1.038109887326066572e+00,1.937385532748344019e+00,-9.285834488128748010e-01
-3.522855269739346151e-01,-5.599619890521876364e-01,3.618056590325196553e-01
-2.270824766967041164e-01,-5.441794808037407893e-01,4.113287958753106266e-02
-1.720548976421793608e+00,-3.229808249518705932e+00,1.613045286860238736e+00
-1.654163299501682172e+00,-3.357659742842428852e+00,1.608434793441587018e+00
1.373105881622932900e+00,2.541432043648448769e+00,-1.096515069038922041e+00
1.095445826761153763e+00,2.112064933660704913e+00,-8.824769064541663210e-01
-6.102869694693010549e-01,-8.218911289288542976e-01,4.195906312512745484e-01
7.487076534679543149e-01,1.284542991817320567e+00,-6.994026248361997489e-01
-2.305064489991036358e-01,-6.773428401141798894e-01,2.917321665754728510e-01
-1.507335732711660714e-01,-4.912714435335683860e-01,2.209639509434711546e-01
-7.232610856419265932e-01,-1.367247416282487249e+00,7.890985349296437690e-01
-1.978730247943542020e-01,-4.541443806953596729e-01,2.505203913250549363e-01
1.513827606883522359e+00,3.136926479498445275e+00,-1.475803767219228346e+00
1.472888652854391411e+00,2.716634919145683114e+00,-1.290495111238287418e+00
1.689901014691718828e+00,3.190098475072748574e+00,-1.451366601061114592e+00
-6.663018627844736752e-01,-1.457461376545786669e+00,6.750581954722897349e-01
3.586643670762157954e-01,5.151088621961267267e-01,-1.759707307942908749e-01
-1.633826249519155116e+00,-3.117044361376009487e+00,1.464537018573588201e+00
1.735295576113815130e+00,3.224950119183733754e+00,-1.625435523442417152e+00
2.701346340651378797e-01,4.428379286630051426e-01,-1.615037120207192811e-01
-1.531594916287110530e+00,-2.733563876787476588e+00,1.214606180319379058e+00
-1.486012323843701965e+00,-2.618702388825707494e+00,1.276515952176418445e+00
-4.678130371934816623e-01,-8.199860829386388383e-01,3.544126159440909030e-01
-1.441064294486643194e+00,-2.704475125609383745e+00,1.225470433991677766e+00
-1.290806833062009273e+00,-2.357421973745504662e+00,1.066760133081216200e+00
8.469525138170742873e-02,7.119635292331777388e-02,-2.056394470415027348e-02
-2.889095030370790740e-01,-8.360658812664056860e-01,2.186819686280639941e-01
-6.581335692172082252e-01,-1.374196842043112987e+00,5.218212660641300404e-01
-9.950444979921825583e-02,-1.202988956015621363e-01,-2.818866388001331144e-02
7.487606164069914305e-01,1.482384991830048238e+00,-7.986332486459892799e-01
-1.322112230247023845e+00,-2.419632790997813476e+00,1.159079106490546129e+00
1.260834749252957465e+00,2.440293205955250233e+00,-1.175917071573844730e+00
2.678382524809099774e-01,1.339945387558964529e-01,-7.835148280576208213e-02
-1.059526390127301765e+00,-1.857991193547603004e+00,9.169933931056447607e-01
7.717052040446464867e-01,1.711323442392241212e+00,-7.597995743947877356e-01
1.394890597145659106e+00,2.537577046101003653e+00,-1.378134354944126727e+00
1.583768608938389999e+00,3.045942767264794515e+00,-1.520455992907623344e+00
1.437061466898231110e+00,2.650852727789100527e+00,-1.194941780232438688e+00
-1.040167568581372937e+00,-2.158633083238920669e+00,9.159837401050211492e-01
5.110545483787460874e-01,1.008180615090152443e+00,-2.389052446964891607e-01
4.794259221564439177e-01,8.770745131767299085e-01,-2.709969416170870393e-01
-3.454157600107063408e-01,-2.341095879512281042e-01,2.110789200765496865e-01
-1.751556518149277819e+00,-3.154714296461834877e+00,1.438087228777663373e+00
1.742474128659478871e-01,3.738980353226986630e-01,-1.456325574320598559e-01
4.301908983786326135e-01,9.767069185825334454e-01,-3.577782467157162860e-01
6.414055933674092103e-01,1.219608702929846134e+00,-5.258643329347525430e-01
1.306678096867141869e+00,2.415249891162108309e+00,-1.255223797620718562e+00
3.182372423411630735e-01,5.184468870822928066e-01,-4.213711218403707326e-01
6.244975189310328911e-01,9.625461434139406247e-01,-5.236053705635346223e-01
-7.672687734933077153e-02,7.101597251928370991e-02,-6.860381388609293474e-02
-8.225354499234545091e-01,-1.394273289631779988e+00,7.515705719141752006e-01
-3.728578869232723192e-01,-7.514927758136064062e-01,2.271447051958667418e-01
-4.103036369613260459e-01,-8.631376205691235759e-01,3.560238378678776683e-01
-3.003776790570514277e-01,-5.793058145115059787e-01,3.126570702397937773e-01
-1.063757184192860999e-01,-7.740083256831963021e-02,1.641226326894459076e-01
5.752568940495137451e-01,1.119119354721090476e+00,-4.367640332631917421e-01
1.610757515471004320e+00,2.849809408677524303e+00,-1.278342101492966343e+00
-7.868824894445128892e-01,-1.387210593458757302e+00,6.602357860935514910e-01
-1.284639863604619903e+00,-2.493581069997941491e+00,1.204847362082107187e+00
1.732566808999037145e+00,3.232892880160563642e+00,-1.616331336920221018e+00
1.633500940767195431e+00,3.074733779583721738e+00,-1.410942180272509283e+00
-4.272647307130563732e-01,-7.775561478560542028e-01,5.135011356511699487e-01
8.660244989443507402e-01,1.401779874009018378e+00,-7.334070246337200949e-01
1.423507437776100559e+00,2.523262307430443663e+00,-1.150303811381600427e+00
1.717885779416029601e+00,3.258438699226618329e+00,-1.599444089053871698e+00
-6.718107247824667283e-02,-1.604096473008494728e-01,-1.124090363500613449e-02
1.385680015691448164e+00,2.674575165253947784e+00,-1.230493647137181012e+00
2.600734230122034862e-01,1.802437357588166089e-01,-3.857690162903885250e-02
1.623899801902514373e+00,3.001400450974154310e+00,-1.434415732690375478e+00
-1.515973385233992388e-01,-4.225645418779971907e-01,6.008286864310521252e-02
5.685741253058756994e-02,-1.761473119369209028e-01,-2.368408642913363837e-02
-1.332156835359142644e+00,-2.285379314237725890e+00,1.271185545602717903e+00
1.332380658021676600e+00,2.325482599731521827e+00,-1.101351867725409051e+00
-1.413742962899605882e+00,-2.924167185014947545e+00,1.273067501322133976e+00
6.406786984985641809e-01,8.922813821026227554e-01,-4.770624621651641251e-01
-1.686402710213047440e+00,-2.905439848256886837e+00,1.413194620569263815e+00
1.365312447283352215e+00,2.756688395116009715e+00,-1.415532030624102600e+00
-8.199043748071303817e-02,-1.332862563897896924e-01,3.610432077390016928e-03
1.555725644976423183e+00,2.657510163101492573e+00,-1.291056601019699324e+00
-7.082993883390792389e-01,-1.435158284518648353e+00,5.650488146955596758e-01
1.060765743962481800e+00,1.913693441187805044e+00,-1.023446275765244939e+00
-1.674029518268407291e-01,-2.868844074872335947e-01,2.086926656422840587e-01
1.726862005549971713e+00,3.209147518157598356e+00,-1.592803104115171786e+00
-1.109450293146976296e+00,-1.762197962365903647e+00,8.607204636384733210e-01
1.052507645527549052e+00,2.045134570411592190e+00,-1.021500152524757121e+00
5.869761461274813907e-01,1.202418253111653179e+00,-7.048471945557196472e-01
6.003030139671953203e-01,1.029177850686117779e+00,-3.997547861993708818e-01
1.542452590904489274e+00,2.913592613930739095e+00,-1.386225078310116432e+00
1.273145142703041133e+00,2.382209937971201619e+00,-1.082015766726390549e+00
6.377185339134668896e-01,1.015623422349840599e+00,-5.236247654511780869e-01
-9.571257106327214492e-01,-1.688862602129734158e+00,9.087223273616769070e-01
1.250682982501182705e+00,2.327082957840028943e+00,-1.105204655416418991e+00
2.900879527771179495e-02,8.779845546128883793e-02,-2.588545215978114711e-01
-1.350690355149402611e-01,-2.578232993668849726e-01,6.755525803392482820e-02
-7.897655904966285334e-01,-1.584962236914656319e+00,6.064838215095148533e-01
-9.937370387052452125e-01,-2.068710524378596816e+00,8.539184213346329155e-01
-1.378625061810625274e+00,-2.647856649246539629e+00,1.123092509756993707e+00
-1.278091839969102361e+00,-2.523401059389246637e+00,1.067811669565016608e+00
-1.602296035191818069e+00,-2.679937345011456529e+00,1.255580865357893039e+00
-4.699899445820618360e-01,-8.886512079128966457e-01,4.435188262928171365e-01
-6.417572231468832156e-01,-1.384573040512560471e+00,5.046198272887972847e-01
1.162432833270126586e+00,2.221559833360690739e+00,-1.030948184804541645e+00
1.485678792488314359e+00,2.981328678744394889e+00,-1.372447210366526171e+00
-2.428163865524448073e-01,-4.648846254897044949e-01,1.917396688795234005e-01
1.703041054255596709e+00,3.087989362272647309e+00,-1.398301748485398566e+00
-9.098386966441291968e-01,-1.685771448555050345e+00,9.205530973933103711e-01
-3.661137564932131494e-01,-6.554812580004998335e-01,3.003368641029702801e-01
-1.491901890231379646e+00,-2.574250551439019929e+00,1.201574357678041771e+00
-1.542676685793090918e+00,-2.866949200532504793e+00,1.147021088917772991e+00
-3.840247279486269094e-01,-7.002970495481024571e-01,2.864781822983731852e-01
-1.024104754174705478e+00,-1.574406649794841684e+00,7.276866909775742132e-01
1.312751366879458370e+00,2.217210983210128106e+00,-1.165634021017253774e+00
-1.753089859036038201e+00,-3.311758078099213076e+00,1.559340651689936852e+00
-1.623172107930646701e+00,-2.902390521566570403e+00,1.328476098816324447e+00
-1.427997051985249399e+00,-2.700595179229293041e+00,1.162342019977737451e+00
-7.965222415974740899e-01,-1.520506590331641705e+00,9.607508823071392312e-01
7.716620112309089397e-01,1.708357344601393990e+00,-7.572093567612611098e-01
1.668963575506698493e+00,2.941347885076794899e+00,-1.287682898917250407e+00
1.402285234368649380e+00,2.663393709158391687e+00,-1.268261743975469757e+00
-9.031313050319929314e-02,-3.633123985335386386e-01,1.375967004464267729e-01
-1.081619703469702598e+00,-1.706411230221296149e+00,8.632987491739591013e-01
1.257707787034390678e+00,2.201632546248189826e+00,-1.032592256886099458e+00
-9.797654595809975886e-01,-1.915811208137967903e+00,9.468364089069027933e-01
1.634723990051929254e+00,3.248452157646806171e+00,-1.541287616889987611e+00
-1.772810305585470703e+00,-3.046783867812635105e+00,1.560457504535658790e+00
2.664505901277837707e-01,5.551913009537122745e-01,-2.801772248288604827e-01
2.368709859028134967e-01,2.559169617890979520e-01,-2.609900740234599170e-01
-2.211770068500668596e-01,-3.404338547740651810e-01,1.428313951458408115e-01
-8.640370096931152544e-01,-1.672341779360978276e+00,9.113307588009248450e-01
-3.253846742769831990e-01,-8.452136473032503261e-01,3.323811608009145657e-01
5.348595969780083337e-01,1.067803459642676867e+00,-4.563526845433851786e-01
-4.169412804473461853e-01,-5.429067404579682732e-01,2.033980388452174271e-01
-2.642609506134038777e-01,-2.200662503702655315e-01,1.736536694659396030e-01
5.672646358248039089e-01,1.265671277386147153e+00,-5.591866369473066367e-01
-6.651340062466843950e-01,-1.229753775300242102e+00,5.036650671775334542e-01
2.841959926901996836e-01,5.991968817096001709e-01,-2.717838919593210112e-01
-2.676514951652579355e-01,-9.174863233212868785e-01,3.438671139190507264e-01
3.288308897840277467e-01,6.871384436582524957e-01,-1.029801596919786288e-01
-1.320381481131178925e+00,-2.423224377612859914e+00,1.336931808911810515e+00
-6.824407778572293415e-01,-1.352064839903609039e+00,7.491254261459210362e-01
-1.485073471213794072e+00,-2.879993765545590279e+00,1.470732321952729960e+00
2.367461545579975513e-01,2.607672496008385243e-01,-1.904043226863137150e-01
5.508006105861855684e-01,1.067216543918731775e+00,-4.368033874737069500e-01
-8.374789382282534778e-01,-1.537250814308527502e+00,7.076875796168221600e-01
-2.640833055096651893e-01,-4.864611637904943664e-01,2.338152135222062999e-01
-1.673497349647091514e+00,-3.007433138210344303e+00,1.497702664163481190e+00
4.344863710278283886e-01,9.152888648692716345e-01,-2.986263180579544763e-01
1.114192137445731312e+00,2.244737139204073806e+00,-9.873350227592242456e-01
-1.480197388962157801e-01,-4.734959207538175230e-01,1.495478515911027872e-01
-1.464816062399632246e+00,-2.531498434453819169e+00,1.096763077487639793e+00
1.397022789983588253e-01,3.656577519722504777e-01,-2.231321682374529103e-02
1.700149211489809797e+00,3.239595448366333397e+00,-1.607374589497028605e+00
7.138301533195675654e-03,1.943391401137718744e-01,5.004361311065981532e-02
-6.167513794364428703e-01,-1.105138260020238183e+00,6.187177529107787954e-01
-1.548111667331054209e+00,-2.808828188759960653e+00,1.200574554651724357e+00
9.843876886032205675e-01,1.809296175933809980e+00,-7.220179175130778670e-01
6.330666974298443384e-02,1.783287675638833836e-01,-1.967857177163360172e-01
-6.133554131429024281e-01,-1.302379537171694412e+00,5.539433303280831833e-01
7.602269781028023754e-01,1.552695235981557786e+00,-7.155136555487390249e-01
7.767004729679721775e-01,1.368406344495705529e+00,-5.919000044101666580e-01
-1.002395293781008556e+00,-2.002496557505297314e+00,9.261635877451459553e-01
-1.311917014981496543e-01,-3.881968585137821615e-01,2.009840195780061012e-01
-3.864407748768538403e-02,-1.986579159732456412e-01,2.080247735261924608e-03
-1.830080304716586337e+00,-3.221541216436880184e+00,1.473150107355839289e+00
-6.594061290395329955e-01,-1.364121386924120438e+00,5.348591035096301738e-01
1.758461780576972222e+00,3.176941080911185544e+00,-1.483753254173607594e+00
-1.742924470232973810e+00,-2.940487666556903079e+00,1.447806830462315508e+00
-6.067557715677326935e-02,-2.584720499487151435e-01,-2.243521242658001735e-02
1.168162839333578562e+00,2.205619703800244302e+00,-1.041247246756545675e+00
-8.638461140696963581e-01,-1.606679462932034674e+00,5.915274107052475028e-01
1.744204469638930555e-01,5.539126532443500173e-01,-2.445369612515502777e-01
2.295191948324644682e-01,3.687417374029204886e-01,-1.205403184978513509e-01
-1.056020756005986660e+00,-2.235692170101037490e+00,9.585985465781536874e-01
6.787100487422884632e-01,1.282274331371443088e+00,-5.213451914816729094e-01
8.096135208081799428e-01,1.173451794532453629e+00,-5.478346160198650505e-01
8.235871260365720259e-01,1.367998249587416115e+00,-7.221013479660430834e-01
4.287838640832918879e-01,1.064548954751280530e+00,-5.174104344860884774e-01
-1.169456172144442418e-01,-1.379158844232253323e-01,1.774963967322258640e-01
1.772836540608113243e+00,3.161637636857392852e+00,-1.385327344647140801e+00
-5.381255263230793062e-01,-1.241697129328358074e+00,3.698857136789119315e-01
-1.140345161991263706e-01,-4.689506874237197587e-01,9.260261483534773519e-02
3.300873521927224358e-02,-1.318376514134062504e-02,-5.913087365335168571e-02
5.564153105669022992e-01,1.254132467736342127e+00,-5.535083393437252308e-01
1.254181921725907589e+00,2.359099580703402310e+00,-1.074096506439152554e+00
-8.372991778281123620e-01,-1.663462847139664857e+00,7.678814930077214607e-01
-1.024903516831568995e+00,-1.752615673536955798e+00,9.395983192080352708e-01
-4.134188257732634986e-01,-1.113430966215570139e+00,4.435281426528613902e-01
1.193110931421710097e+00,2.299999551918214813e+00,-1.205475899624212754e+00
3.121881751256047610e-02,-1.716758150345024658e-01,-1.469420066877124564e-01
-1.691961920672536035e+00,-3.095363707271203690e+00,1.374115347601307269e+00
-1.667304631016763627e+00,-3.092215311045450665e+00,1.358572260311670332e+00
-6.657083205374560997e-01,-1.370229423884166131e+00,5.907572460551349103e-01
-8.962443382474468700e-01,-1.449586049499392404e+00,8.438671773473223059e-01
3.134970780250395661e-01,5.740459963920696573e-01,-2.622911738830668860e-01
2.807688855483639334e-02,1.531717504888379933e-01,-9.601307777781652175e-02
-4.670415286414235645e-01,-9.327048923453135076e-01,3.553102268706441191e-01
1.632298222574081192e+00,2.994752527939016140e+00,-1.353446634289885209e+00
2.659197476470049892e-01,3.999567448418682170e-01,-2.924365551225980853e-01
-9.423559062067116132e-01,-1.872282064759349218e+00,8.525711492829015636e-01
1.483996646919608198e+00,2.884166914417490624e+00,-1.293350676518352227e+00
-1.331616775274114817e+00,-2.211042625544130225e+00,1.019387670872221818e+00
-5.626271979355825792e-01,-1.031180986895080531e+00,4.700084849317116564e-01
1.766679021414186534e+00,3.285444698430703081e+00,-1.515601199063914661e+00
7.214975040850750698e-01,1.334581665642505355e+00,-6.813456894408973508e-01
-1.147230356334731693e+00,-2.170715593043996527e+00,9.346264587981133465e-01
1.309648059079413951e+00,2.342830449888757105e+00,-1.093658649563150620e+00
6.710737585355818213e-01,1.263634475142947133e+00,-5.968448629280663775e-01
-1.420614202339194554e+00,-2.581877246470752674e+00,1.258557055987180151e+00
-1.128528294783139430e+00,-2.049831879160162185e+00,1.001915727639124398e+00
7.041073830954744928e-01,1.033107965625274405e+00,-4.186485427238358370e-01
8.169236719030180671e-01,1.395982114665367702e+00,-9.085238165175189007e-01
1.086473694829656056e+00,2.031566278795911895e+00,-9.525152433257448870e-01
5.056817092162994021e-01,6.202045037642497372e-01,-3.987559679577906691e-01
1.036313864905405308e-01,2.388342764737103746e-02,6.720035321561586283e-02
2.072853925383331686e-01,5.469597558231307222e-01,-2.680827506960919426e-01
1.473036976373032658e+00,3.254647533126141745e+00,-1.354490429749020342e+00
1.356168330088209029e+00,2.307686689206299935e+00,-9.337110991612557198e-01
-6.442537540147691422e-01,-1.166373514107738485e+00,5.735555314997590193e-01
-1.193326308863744689e+00,-2.125739801635586623e+00,1.010812516393580385e+00
2.528308953394237113e-01,4.573534734413601810e-01,-1.166814064412254326e-01
3.755999696337215532e-01,8.671724063563321927e-01,-4.554810243490720612e-01
-7.733402011512912066e-01,-1.691509452796433388e+00,8.889131028428950421e-01
6.950637438839243898e-02,2.487936912446269133e-01,-1.650960388346049135e-01
4.026198050508045245e-01,5.722395508190600832e-01,-3.596027221167298893e-01
-3.791522378176235275e-01,-7.703111810887909305e-01,3.572635748998984617e-01
8.284061909731296192e-01,1.698931587056184744e+00,-7.957994342908696339e-01
1.456101957991463358e+00,2.700982155344830549e+00,-1.315149410767051608e+00
-1.584956171412307269e+00,-2.841374315857825295e+00,1.323225405642331376e+00
-1.350724634143467329e+00,-2.298924627884314731e+00,1.007239018902185368e+00
1.033015339197226323e+00,1.718438122526518397e+00,-8.613406877103735315e-01
7.609984714297990394e-01,1.276001956102152279e+00,-5.520962188021621975e-01
-1.880805213657902986e+00,-3.157990103129836079e+00,1.426626283637326020e+00
-4.243743173472032115e-01,-1.105404993920084733e+00,3.355048871482206874e-01
-1.573421073323136854e+00,-3.033788804495500813e+00,1.347061151566755877e+00
1.221903942881597954e-01,1.102311799179207102e-01,-2.474266697513618496e-01
1.328489895807491106e+00,2.825605148568219427e+00,-1.275694187407418800e+00
3.842717794519094898e-01,9.080860830206777257e-01,-4.652612461763038221e-01
4.280561398433020970e-01,5.315558283974363141e-01,-2.688968910070726470e-01
-4.758384447766452197e-01,-6.665781599737502505e-01,2.296343822683729607e-01
1.005851649104172463e+00,1.754245980751309331e+00,-8.022607101322241085e-01
-1.096643471418906612e+00,-2.122263625856360747e+00,9.134335348809126121e-01
-7.458283708589236172e-01,-1.578074967158751729e+00,8.031957710606797418e-01
-1.177153889952753385e+00,-1.998196476944720912e+00,8.488943923328938768e-01
-3.633031321225037996e-02,6.227380590692085244e-02,3.763069976877829459e-02
-9.027121901564680861e-01,-1.666722842757792256e+00,7.478985271026630244e-01
-6.340984639467061035e-01,-1.314150892342953236e+00,6.828275055490080625e-01
4.046282489319247277e-02,-1.206259172701708293e-01,5.886649081106960779e-02
9.284701983522376523e-01,1.758718152588415018e+00,-8.369103414412456532e-01
1.561673153109844003e+00,2.815230564156192106e+00,-1.359330739511687591e+00
3.078061731214384866e-01,6.805125937145405368e-01,-2.582359773270931913e-01
-6.174628651137233915e-01,-1.328927223254485313e+00,5.826413114914367197e-01
8.659599884202773268e-01,1.596338708174819265e+00,-7.204541209815589209e-01
1.509181435594891596e+00,2.766454215520695037e+00,-1.357550804981161097e+00
-5.677651738077591492e-01,-7.455602568490332649e-01,3.197034499879874980e-01
-9.508238664175695520e-01,-1.680059092230727025e+00,8.335575440232843025e-01
3.773715603904738702e-01,8.623630011611901347e-01,-1.748744813886858318e-01
-1.548014534482594073e-01,-2.018114353662125993e-01,4.318158675162468707e-02
-7.222264749087696778e-01,-1.434893821461724839e+00,9.005994202117234559e-01
1.379852777982991663e-01,-9.112863085844219446e-02,4.562400989573679733e-02
1.522434884394241739e-01,3.762194830920325139e-01,-1.325757791916793993e-01
-3.000576479561481436e-02,-1.065134251206241965e-02,-3.097511701402589496e-02
-1.080973747438966903e+00,-1.998619043809783280e+00,9.594365725293328984e-01
3.554450799768125169e-01,5.841184722189256551e-01,-1.172063699295955302e-01
-8.350891634606675273e-01,-1.652274255214390974e+00,8.145527909064483874e-01
4.524839298271006727e-01,8.913986346562020602e-01,-3.476906013614185498e-01
1.130249086366781786e+00,1.999403520700129055e+00,-1.073265694419347049e+00
-9.988813692303476488e-01,-1.743728627513718932e+00,8.070104178574487586e-01
-1.045802535936116495e+00,-2.053206542625769959e+00,8.898736263384960932e-01
9.013184454576227411e-01,1.834404552940166910e+00,-9.200958930174391037e-01
-1.357967053421216486e+00,-2.341439199673299498e+00,1.045847583972202566e+00
1.103871085883501690e+00,1.724880588739186482e+00,-8.192766310833845544e-01
-8.373735598921511203e-01,-1.436273614322675529e+00,7.359084900000686380e-01
-1.490119227755432707e+00,-2.830965093404178567e+00,1.342748662204993115e+00
-1.659969436926684638e+00,-2.945960650044058493e+00,1.334353989330119061e+00
-3.236967624431681956e-01,-5.218342498528316664e-01,3.426147459284980545e-01
4.015429072193456572e-01,6.586967990329344325e-01,-2.774924964795710269e-01
-8.060223976788276623e-01,-1.485303164684394162e+00,7.736989490707207873e-01
-1.694208481246946452e+00,-3.150175433818540593e+00,1.533062398951498873e+00
-1.489404979308080579e+00,-2.461633794332449110e+00,1.244806498508403969e+00
5.084710148556415010e-02,-3.632239324678002840e-02,7.327821886011778862e-02
-8.117631628932772125e-01,-1.484263333300072318e+00,6.290494906911441308e-01
-7.499283625686115062e-01,-1.686677052387770326e+00,7.697559675648646405e-01
8.994881464416274452e-01,1.422102527051357646e+00,-7.608984995733150125e-01
1.067973442333473910e+00,2.080559290496593050e+00,-9.232805279207028093e-01
1.722508578098806975e+00,3.062585284634526062e+00,-1.445593665639812064e+00
-2.720574455594515495e-01,-4.877164772219912403e-01,2.030729589904628207e-01
-6.545676503593100826e-01,-1.235864489968915514e+00,5.797213545297669191e-01
-3.614156477508556620e-01,-7.824037839213586754e-01,4.941106651177736842e-01
1.404858070635129019e+00,2.725496367690571020e+00,-1.234307211955903094e+00
-8.886834663212270224e-02,-1.504754677556008058e-01,1.315216365114377228e-01
-1.477633355243983093e+00,-2.589650292876084503e+00,1.054499725552428213e+00
3.165429730921749951e-01,4.385833743807112661e-01,-2.698707538621372692e-01
-4.999198579708168944e-01,-1.176990408230843332e+00,5.593678029113918759e-01
-5.795241885451417607e-01,-8.668763774960116519e-01,3.622463187384059036e-01
-1.562492104149549643e+00,-2.760714041915805161e+00,1.385212408261575767e+00
1.701916386169066264e+00,3.216611406213286450e+00,-1.543883175436940647e+00
5.881633706369325809e-01,8.115092274565042230e-01,-4.603933024891750381e-01
1.550345172265979787e+00,3.021653289133797049e+00,-1.503679329252693098e+00
-7.224492121429907376e-01,-1.025148930344534248e+00,5.865361468295491321e-01
-1.590263045917692075e+00,-2.615172544636687579e+00,1.160832055368597571e+00
2.649076773707749743e-01,3.569529871541046728e-01,-1.976207242582622425e-01
2.666971053119707724e-01,8.146411833097534361e-01,-3.920402269549605467e-01
1.090021114987073991e+00,2.121711902909297010e+00,-9.128562181541463039e-01
-1.244789093832724541e-01,5.721784547401485149e-02,1.137655337279841472e-01
1.215011429744132343e+00,2.128617837835758753e+00,-1.021332788338394471e+00
2.919945536863778890e-01,5.728995060515807980e-01,-1.714006699243298681e-01
-1.641577685623514471e+00,-2.919045898698537478e+00,1.258683357505152811e+00
2.697283379498481293e-01,7.482095727139066454e-01,-2.724367020907819681e-01
-1.804746572387208481e+00,-3.158589819698900847e+00,1.671179044461715391e+00
8.938998795739451220e-01,1.583171262361572129e+00,-7.173178662126129534e-01
-9.773387998073792549e-01,-1.920164342131311042e+00,8.509071375578974861e-01
-9.427345955676851297e-01,-1.795250491790497671e+00,8.973892382526290623e-01
6.324733756911801383e-03,5.515487985672776899e-02,-2.524365516754551592e-02
3.550418123828238959e-01,6.928587907445119543e-01,-3.376527065437726072e-01
1.723381893367299522e+00,2.914151455782988176e+00,-1.412248057675183910e+00
-7.353400272255258829e-02,-1.851475210368546676e-01,1.534330319133891396e-01
-1.670075178081549927e+00,-3.141861690291917419e+00,1.373788071280278800e+00
1.659308052696704117e-01,5.567267193892386223e-02,-6.458188701129496945e-02
-2.279194446649975836e-01,-5.766614644197550765e-01,3.406741298721956968e-01
1.258837875080359714e+00,2.435702664023362107e+00,-1.298152872451946438e+00
1.675107592592854910e-01,2.870955450678371879e-01,-3.645902263492702827e-02
-8.342000047936326546e-01,-1.531745237081892475e+00,7.290853463303150761e-01
1.446291735732962103e+00,2.912180678709162862e+00,-1.276150239101559114e+00
-1.673552336349695357e+00,-2.895420782135721627e+00,1.396390709900500848e+00
-1.669893107100608232e+00,-3.004442066379218623e+00,1.265534668657283257e+00
1.446966835337265334e+00,2.653935428385582274e+00,-1.158850656331256168e+00
8.933415066810472815e-01,1.699218031696677400e+00,-7.692392318828351616e-01
3.974386427174195213e-01,6.603320455277950085e-01,-2.012678754659681102e-01
-1.269805643055822442e+00,-2.285654068454929355e+00,1.040500219910900803e+00
7.317376469410405981e-01,1.457713420612227972e+00,-6.136135119846185537e-01
-1.790841313749142572e+00,-3.135124882115511546e+00,1.442241633040494797e+00
1.562400077349494376e+00,2.968506175749476839e+00,-1.337688226438328520e+00
1.424245174281044690e-01,3.361747846372393767e-01,-3.418134105100931880e-02
-2.565289326383117796e-01,-2.578051275050673441e-01,1.722260832411106612e-01
-8.308289602659528761e-01,-1.403588799527757613e+00,6.802181425863645936e-01
-1.399707898243060411e+00,-2.926626529006674637e+00,1.422926884211930254e+00
1.119724915996777925e+00,2.036775093337095832e+00,-9.475328147663758527e-01
-1.732133876783146675e+00,-3.031743206656003942e+00,1.359039614739243618e+00
-1.059782535832456407e+00,-1.963601090880403133e+00,9.843962125205130143e-01
-7.690680375762430909e-01,-1.626601238137674432e+00,8.239199241697472420e-01
9.621836745015714953e-01,1.799199206870607748e+00,-8.527789347524203922e-01
-1.329530035219699480e+00,-2.499627691793596895e+00,1.182726805214468602e+00
-1.516997755626145361e+00,-2.874451509667425242e+00,1.243906672859442786e+00
-8.941000578910790475e-01,-1.631503083812729793e+00,6.739752377779736348e-01
1.704437250656463121e-01,5.982205581233425162e-01,-1.851641394566557186e-01
9.700046243201601026e-01,1.911129205531528541e+00,-9.806419519291947884e-01
-1.426543505763612885e+00,-2.466069359638060288e+00,1.229451248063559765e+00
-1.493212210727317135e+00,-2.747955186494896118e+00,1.184640725047020338e+00
-6.573894073093806689e-01,-1.407197637573279314e+00,6.310837408906398993e-01
4.536492782051260719e-01,8.925884296005014429e-01,-3.610765901881298201e-01
1.093860859815757536e+00,2.128849282347743621e+00,-1.005638305042591440e+00
1.827171904185457718e+00,3.247654714516105212e+00,-1.599570629126073396e+00
-1.241398852502964556e-01,-5.624471717323853426e-01,2.008591168682301586e-01
1.351470847476649695e+00,2.401362714512326413e+00,-1.270431047125919921e+00
8.549728481266027913e-01,1.584486582709280444e+00,-7.813824647736884454e-01
-8.215598318097937502e-01,-1.274339160117585079e+00,6.216021244987268712e-01
5.999166982477560639e-01,9.455145941922102892e-01,-4.502164605007786258e-01
1.470787727301871239e+00,2.370035881593384630e+00,-1.180173979575852128e+00
-4.070817793762029901e-01,-7.203205922081286072e-01,1.746945006584858795e-01
-1.670846229223799106e+00,-3.217373388417609448e+00,1.457228743007659144e+00
1.710923266250285346e+00,3.349985921488318752e+00,-1.669274499645113652e+00
8.639846344333762529e-01,1.725251756714055285e+00,-8.309053476194551147e-01
1.141655125735929088e+00,2.034068593662446300e+00,-9.602121946434392097e-01
6.944522740066301214e-01,1.385920370569862170e+00,-5.928938181841552080e-01
-1.383656477648394167e+00,-2.730521323599651495e+00,1.233732416577625113e+00
-9.592307246209081928e-01,-2.092151692367770099e+00,9.586448116636833161e-01
1.404711204627819621e+00,2.493414032871082764e+00,-1.393867950810436351e+00
-6.599984810693564075e-02,-1.150776436628007382e-01,1.344403400743074684e-01
-1.488789180144006075e+00,-2.481439395951551941e+00,1.173320862356040051e+00
