4.653658210922981264e-01,-3.142172598428480401e-01,7.758667937324901231e-01
2.815487540190820259e-01,-2.002318250985122006e-01,4.178971109451358190e-01
2.391040776178693927e-01,-1.642559616439311088e-01,3.724499703693868735e-01
2.767753523514058234e-01,-1.829654519776471866e-01,4.206327079467039320e-01
-2.376452372862439821e-01,1.486878195509308553e-01,-3.523330098999949977e-01
1.066254266395649242e-01,-4.171101581781188478e-02,1.372776194560565155e-01
-2.602863856125213760e-01,1.990159088959906619e-01,-4.591387110789589832e-01
1.303353803925104415e-01,-2.558669717831713042e-02,8.692583845051679581e-02
-1.235980295028702054e-02,4.721225210308552245e-02,-5.794001086510451592e-02
4.099079009332666224e-01,-2.619741312940006561e-01,6.363941109210252689e-01
-4.878682438373559416e-01,3.441035132478192926e-01,-7.360253084213094210e-01
-2.750229459212891747e-01,1.705995338992151167e-01,-3.723720850250459846e-01
4.786358703522622382e-01,-4.440764413145160128e-01,8.691571075066822916e-01
4.829493881591712112e-01,-3.431862739769152015e-01,7.511292758501956213e-01
-1.527206674174916012e-01,1.014202896842310714e-01,-2.126339050961587041e-01
1.576835614000816621e-01,-7.815743888490485347e-02,2.609574229898718456e-01
1.322735709447257491e-01,-9.390429940240375972e-02,2.283503620186475846e-01
4.347808971252623556e-01,-2.352604026370182233e-01,6.570796052498046880e-01
-3.757056517472749935e-01,2.512140784942977212e-01,-6.038590949148269216e-01
-2.497465059495588002e-01,1.648363833747199803e-01,-3.575327068311023870e-01
-2.122690269179088318e-01,1.361258770042423349e-01,-3.076387910633807676e-01
-1.889708238679513319e-01,1.690877259708719327e-01,-2.648749633159586114e-01
-2.461142567536768466e-01,1.496372074403360675e-01,-3.712539606469437148e-01
-3.188621334074018265e-01,2.211716807682609087e-01,-4.996269016520699102e-01
1.992840900818198258e-01,-1.438133209902123233e-01,3.559833587876744532e-01
3.262861609581273470e-01,-1.533153435317337887e-01,4.837530996947098649e-01
-4.876521532489155319e-01,3.614860492078493248e-01,-8.389218585358555469e-01
5.318376131210751367e-01,-3.486246373922859410e-01,8.365667392677037517e-01
-3.173835288196192872e-01,1.873761223789867369e-01,-5.268794492251951400e-01
8.918973888578131393e-02,-5.929339464656325359e-02,9.066604100300257318e-02
3.674763334006747595e-01,-1.893227852066614869e-01,5.505842627314225801e-01
2.166369962938119453e-01,-1.225133418833665166e-01,2.809447742419721727e-01
4.912443272194809696e-01,-2.831231021853417018e-01,6.936928353114129031e-01
1.629173554484779629e-01,-1.101076128782442348e-01,2.581398424633939426e-01
3.309606221839580531e-01,-2.339481060918757460e-01,4.954725461068203995e-01
1.836022165120227978e-01,-1.094898646766558903e-01,2.613548852250858756e-01
4.534487612314516691e-01,-2.969714904803605893e-01,6.751777708596300442e-01
-2.935349653590851871e-01,2.496178753139058071e-01,-5.122071454344840902e-01
-5.423284198239838316e-01,3.876568449750191214e-01,-8.581079986187014619e-01
2.643381194912495791e-01,-2.178509008836531924e-01,4.295878556154802963e-01
1.146099572814675699e-01,-6.190961199905305190e-02,1.526802447349796532e-01
5.385980126813121049e-02,-5.572375117272861805e-02,1.869667113573587613e-01
-5.878522321571424264e-02,6.844573381451439509e-02,-2.496735371276772447e-02
2.580733751733496062e-01,-1.562328028890838383e-01,2.869984826310501558e-01
4.312388739763318712e-01,-2.726467192104136128e-01,5.919507005355981732e-01
-3.077263551278224263e-01,2.259433918064272517e-01,-5.254156042987092601e-01
-7.723669074670472257e-02,8.004245273984193776e-02,-1.448245006953503000e-01
3.063063414224837522e-01,-1.930046679789921560e-01,4.409897157941166657e-01
5.395697810945838668e-01,-3.621104979356152831e-01,7.984688579744377845e-01
-5.169816791400166922e-01,3.036442406234157176e-01,-7.537883093515362898e-01
-7.019058502036186475e-02,2.342676489137012277e-02,-1.183205784906076335e-01
-5.780895284054264616e-02,8.815620263189034855e-02,-5.842538916293150281e-02
-4.479171696093810495e-01,3.167659811569604189e-01,-6.843840840121002689e-01
-4.805423482744349828e-01,3.487768448171830737e-01,-7.282804009374294063e-01
3.532787290469413533e-01,-2.232456641985852142e-01,5.645170103596697242e-01
2.934994582523721141e-01,-1.821118883987067061e-01,4.459292964914175483e-01
7.919057977942103865e-02,-7.248000755097601389e-02,1.977041225382175360e-01
-3.654180232135474937e-01,2.718700333749645148e-01,-5.267802875941574037e-01
4.098691353746395372e-01,-2.830814390309390749e-01,6.150863764880287743e-01
3.786683949383232856e-02,-1.332627631298685146e-02,6.227333881880307148e-02
-3.600944885881889046e-02,5.294617459378299362e-02,-8.881635075096523668e-02
2.313760315477610685e-01,-1.810765078917908610e-01,4.100165540628476490e-01
-3.072221030193134084e-01,2.126742396880859087e-01,-5.099215076453156303e-01
-5.061241242459123546e-01,3.886311111115811068e-01,-8.252047646433663397e-01
-3.581487982963255656e-01,2.343339357680599699e-01,-5.435926336122317570e-01
-5.191985382697477114e-01,3.998269906604753343e-01,-8.083298155470052260e-01
3.866821995137630918e-01,-2.306112429081821347e-01,5.406808343280952167e-01
2.183655321305956465e-02,-1.042089595475943070e-02,8.127358309449862761e-03
2.394700709430424290e-01,-1.577019747904018498e-01,3.661447080323570469e-01
1.588932383698881401e-01,-1.240999818440435831e-01,2.115334300533501244e-01
3.098926045914229266e-01,-2.157372257673061677e-01,4.311777795847200334e-01
-1.331639585706731188e-01,1.055712217734175590e-01,-2.485597996372467533e-01
4.161754780477099902e-01,-2.621387486973058012e-01,6.827346975374448679e-01
-6.726945464220950542e-03,-1.926096881095934812e-02,-2.349965681347478477e-02
4.828477258840227493e-01,-2.921606299351819924e-01,7.820408659008258878e-01
5.848493372562454384e-01,-3.688538432104018217e-01,8.331508310442028442e-01
2.544936483972207730e-01,-1.560417665918712171e-01,3.791588093033260720e-01
-4.389609033100164703e-01,2.796876651793169799e-01,-6.873105964342041130e-01
3.021989227773668740e-01,-1.872473935077405005e-01,4.285515782821590069e-01
3.250001145507472322e-01,-2.367157849203361253e-01,5.170417804783162818e-01
-2.956697527193067332e-01,1.761177864705417984e-01,-5.362795314217145837e-01
6.926192363966206245e-02,-6.030350392684259014e-02,1.185040038156746911e-01
-3.505366120496903326e-01,2.379366143150356272e-01,-6.464282724148803227e-01
3.857243822059970573e-02,-2.245130034827468295e-03,-2.615503949467476094e-02
-2.547935975649280871e-01,1.862193092354219870e-01,-4.433602254643982943e-01
4.958652397857503114e-01,-3.540714216113655666e-01,8.134343870367549689e-01
6.119425451329167653e-02,-6.682976109684392318e-02,1.161511387212841306e-01
-5.390753062994927403e-01,3.906266523961960946e-01,-8.728557328118609071e-01
5.434752750546740785e-01,-4.184674532158293436e-01,8.749426249957723556e-01
-4.028280090183394835e-01,2.616841909554378787e-01,-6.077014721728336566e-01
-2.009124379862695098e-01,1.091156386333159839e-01,-2.531374679259738580e-01
-3.250586942389626088e-01,1.976783562576222841e-01,-5.184619969947625862e-01
-8.337436417379157430e-03,3.388456236340876143e-02,-2.499768616668629137e-02
2.532731729613875160e-01,-2.014507485323919767e-01,4.171097070294672582e-01
-4.262268626875601596e-01,3.234696296059445531e-01,-7.329533441424069817e-01
3.884192787515737821e-01,-3.266100020063649745e-01,6.271097188704906067e-01
-4.260478912732930667e-01,3.163735287797700413e-01,-6.326213285993925739e-01
4.486554131080309170e-03,-1.124096662335969353e-02,-1.854571752010113553e-02
2.610122735745368794e-01,-1.780461601911500213e-01,4.220383898022828650e-01
-3.505275319727284566e-01,2.739764663044037540e-01,-6.164784929038576999e-01
-4.464043150280282979e-01,3.396613520038105904e-01,-7.441484604446850781e-01
-3.055741792592266415e-01,2.522574716257603433e-01,-4.646865943018516076e-01
-6.505341054271517043e-02,9.861216760279885307e-02,-1.240651097104533973e-01
-3.317140314058936168e-01,2.443837444891306110e-01,-5.396773625780793004e-01
4.191038513591879289e-01,-2.753676104890995791e-01,6.386213766211653597e-01
-3.232259811730455734e-01,2.123977211331364023e-01,-5.215568552496477883e-01
3.547497190048586324e-01,-2.473633789738838018e-01,4.889490866617993703e-01
3.295146144694083290e-01,-2.732806956765678197e-01,5.441362360746609950e-01
-1.970099719200461286e-01,1.377613722321037459e-01,-3.201951094248586815e-01
-2.839619342675098537e-02,4.391762110307886186e-02,2.647242609862721432e-02
-5.228351939704474205e-01,3.465026154376886214e-01,-8.241316188842277013e-01
-2.916562621487317486e-01,2.368502989238107648e-01,-5.142198782045040995e-01
-2.466439067684482456e-01,1.977493445871165434e-01,-4.212542334982808390e-01
-1.711689048625761322e-01,1.143371513754978391e-01,-3.314703407296589743e-01
4.504208601136274748e-01,-3.254139007851424847e-01,7.081780202200594898e-01
-4.856974180616492887e-01,3.726133525080313480e-01,-8.295429677979608840e-01
3.551584177658921593e-02,-4.145667858354404323e-02,1.318186240269503262e-01
3.012272633874930050e-01,-2.093835165456469638e-01,4.811911165125296597e-01
-7.276076366393641366e-03,8.389346248017527305e-03,-1.364362945773217248e-02
-3.936837591961264704e-01,2.475932661328793805e-01,-5.977430221725862358e-01
5.301738761138430345e-01,-3.541561591299213219e-01,8.008654891054621805e-01
4.580218840587018114e-01,-2.807935382900331178e-01,6.904428609362959213e-01
3.938296934763474422e-01,-2.638588874679839158e-01,6.662876827147939940e-01
-9.109144602637529731e-02,1.219517236233139956e-01,-2.041904927766866606e-01
-3.137661159134477185e-01,1.895018076205117474e-01,-4.656992867301112948e-01
-4.054307163610299525e-01,2.705289986131902968e-01,-5.972759705562746824e-01
-1.527841557809765938e-01,1.023212409700898357e-01,-2.647592609425597487e-01
3.312617617665109537e-01,-2.001704346955198444e-01,4.972378745970684188e-01
3.429895999968641251e-01,-2.644074480187472709e-01,5.506114376911469543e-01
-3.493813770846257438e-01,2.490516249836463025e-01,-5.582689934174988045e-01
3.232262518382104100e-01,-2.130272082723186078e-01,5.154259949715435107e-01
-1.079325509092032287e-01,4.423508662449048001e-02,-1.670008479545357916e-01
-7.238096562087464880e-02,9.990056314819210914e-02,-1.013916613054729604e-01
-5.364399345468519043e-01,3.436338619436687947e-01,-8.725956446935391186e-01
-5.211268197050673567e-01,3.711036385758638145e-01,-8.955539858733896352e-01
4.264829060201222877e-01,-3.010512599186701554e-01,6.513217393980801351e-01
3.419910879432467299e-01,-2.558887417254004371e-01,5.362287407496729719e-01
-1.830028715252028648e-01,8.373122707011906862e-02,-2.209766382441145094e-01
2.309738944589978249e-01,-1.255417263551466267e-01,3.576693557950300084e-01
-7.717914833044374479e-02,8.196365909598239685e-02,-1.757796791693564953e-01
-5.159042690462513348e-02,5.797020869921624964e-02,-1.296675592498046092e-01
-2.262168953348741574e-01,1.265270459751714482e-01,-3.909865173379796222e-01
-6.367451424345718647e-02,4.461075025289284318e-02,-1.282414793901707206e-01
4.782323550036846060e-01,-3.518976864930436488e-01,8.317706765251812184e-01
4.578206999881607731e-01,-3.005730588425769567e-01,7.201030197117853637e-01
5.266200812443904145e-01,-3.648889981978588049e-01,8.333121470065182335e-01
-2.121657582949834087e-01,1.658435482361628743e-01,-3.849294594470366038e-01
1.078681290137262216e-01,-6.832302806401084616e-02,1.212844110220339805e-01
-5.100984730273606660e-01,3.484441730579990182e-01,-8.239179715959478179e-01
5.403718291033600130e-01,-3.402580915836471709e-01,8.739892024244322322e-01
8.249059561762576986e-02,-5.737069988552001565e-02,1.069840639771639235e-01
-4.736192869400056571e-01,3.168566132115390177e-01,-7.067608796058594267e-01
-4.593061876671443722e-01,2.831185582370263076e-01,-6.996109105617983603e-01
-1.442821413111328444e-01,9.672224869412343606e-02,-2.098541908779204823e-01
-4.486966192290418598e-01,3.101273647128289235e-01,-7.053124896790150533e-01
-4.004484119365080974e-01,2.701708956295356123e-01,-6.139223074052175821e-01
2.435162027526271283e-02,-9.691161609073069977e-03,1.540816822330683643e-02
-9.578148620589871376e-02,1.264050651762657906e-01,-1.882682778689857561e-01
-2.075583341251908687e-01,1.765135731860694168e-01,-3.392181220815835285e-01
-2.910577908897313965e-02,2.815579291171969173e-02,-1.403214324361459590e-02
2.354622166767918190e-01,-1.477875945621380804e-01,4.129890165286415060e-01
-4.105748807513113774e-01,2.658591843123994103e-01,-6.431603249579664894e-01
3.945673702975364683e-01,-2.677645238295385255e-01,6.512855220308950699e-01
7.522527217543194256e-02,-9.839271214251654740e-03,3.519002099241179404e-02
-3.273321590450598562e-01,1.987925737795686043e-01,-4.985784833600491184e-01
2.460969229590327101e-01,-2.007317137179296940e-01,4.455087789071240367e-01
4.335971493388514619e-01,-2.496490532186376177e-01,7.072782883553826450e-01
4.954382008838510432e-01,-3.246769470984933736e-01,8.234237913151913890e-01
4.463887285731373278e-01,-3.047958538259153416e-01,6.896507728920214797e-01
-3.282026454089516654e-01,2.599777638218259135e-01,-5.522405750745966735e-01
1.591979498424236639e-01,-1.548963491127518521e-01,2.192526085000871816e-01
1.481740882009739135e-01,-1.230382624843429501e-01,2.029371210049827068e-01
-9.877302511062159562e-02,5.404586286088852547e-03,-7.857525139869210584e-02
-5.424479173412529720e-01,3.593665204241499600e-01,-8.232789305085518317e-01
5.519217762488463214e-02,-4.743165311176832794e-02,9.311719557302601535e-02
1.373388014455226291e-01,-1.282538672337118490e-01,2.390814668973109680e-01
1.999404279523422923e-01,-1.447446538999659638e-01,3.127904508722408328e-01
4.067811062462809435e-01,-2.479668231212685814e-01,6.621048623978181835e-01
9.820085615386260625e-02,-2.560294691986339174e-02,1.722426975346273426e-01
1.901687297397176568e-01,-9.339099090357728949e-02,2.668412130605640198e-01
-1.890539023103902580e-02,-3.013759191125962248e-03,2.783373067041491900e-02
-2.533275089708796335e-01,1.375017732262870662e-01,-3.865216668867063610e-01
-1.167198760145327086e-01,1.067824573478879657e-01,-1.734996023347745997e-01
-1.296735138377690388e-01,1.058512468715323007e-01,-2.188383182032154206e-01
-9.411173465980997299e-02,5.756100538903096558e-02,-1.613744835745828388e-01
-3.099218138363753552e-02,-1.498805914021691943e-02,-4.520851519640533417e-02
1.796686589083685837e-01,-1.411641294502815058e-01,2.779771117946459591e-01
4.975962158241168387e-01,-3.280005817927346135e-01,7.390249864224912590e-01
-2.431516828901652272e-01,1.528374709527038355e-01,-3.673773501282924792e-01
-4.021947448179668538e-01,2.730750630828848724e-01,-6.662288981395873000e-01
5.397548926174325912e-01,-3.435246079994294099e-01,8.736067746648076282e-01
5.089017608078217902e-01,-3.494795322352695077e-01,8.055388500137270480e-01
-1.332492256887713722e-01,6.018673769345356944e-02,-2.351908769604917349e-01
2.651079704394625480e-01,-1.417419177333865132e-01,3.834452422562214524e-01
4.399436062679320525e-01,-2.871510973657920851e-01,6.581220499329297757e-01
5.362385415551984558e-01,-3.518854985967939664e-01,8.749858173487166102e-01
-2.129159001364283252e-02,3.362342020841409956e-02,-2.515321564220604489e-02
4.331967712241113211e-01,-3.038541503900755725e-01,7.019422467713187785e-01
7.388351283164566741e-02,-2.639431362537136838e-02,3.550551044769616887e-02
5.049407030272085040e-01,-3.305745242265204498e-01,7.973940976518015811e-01
-4.967471639190795818e-02,7.284072507896410809e-02,-8.484828171119566942e-02
1.185813102248778339e-02,4.052784822594152070e-02,-2.753634593268692796e-02
-4.110883645362560235e-01,2.185531324844293688e-01,-6.417773625713858454e-01
4.111621497564301175e-01,-2.570268589013218752e-01,6.145336270797495670e-01
-4.460113535806076168e-01,3.463538043248614029e-01,-7.545337621155148167e-01
1.928850171599218455e-01,-8.731536863472233456e-02,2.446321754380177960e-01
-5.197324472545644669e-01,3.142172413200020054e-01,-7.749512392120938564e-01
4.302442714423039827e-01,-2.876092480747002300e-01,7.543695541456754139e-01
-2.480097858896550614e-02,2.530616087123946367e-02,-2.307890827196674988e-02
4.789380332946507335e-01,-2.875208456888074249e-01,7.082854901350773558e-01
-2.225086830060114540e-01,1.805001688834143303e-01,-3.579761966285564534e-01
3.292949363556231801e-01,-1.910009194536840260e-01,5.300276739970598561e-01
-5.188273103024689664e-02,1.864909116939296105e-02,-9.050358460397825433e-02
5.376266637412305816e-01,-3.430010730932345764e-01,8.647116037876486638e-01
-3.385742540846089499e-01,1.888891048955600449e-01,-4.692823646520813963e-01
3.297238186004914917e-01,-2.180177762963352028e-01,5.531807325838009604e-01
1.857734076993493855e-01,-1.099210768160034657e-01,3.468842559274059045e-01
1.844190166576875900e-01,-1.292992070625728351e-01,2.540439733698888758e-01
4.809975379965795717e-01,-3.224266144792221622e-01,7.733799212527595612e-01
3.962650466705693875e-01,-2.726667273920377332e-01,6.217239382212661480e-01
1.948050140407185382e-01,-1.039567158894972171e-01,2.760734398266638245e-01
-2.962857339569883175e-01,1.673212959749152962e-01,-4.685186808463055463e-01
3.892072866806172704e-01,-2.576481349950406896e-01,6.169814702879178325e-01
1.080944813653602135e-02,2.889206220967934988e-02,6.754750447395299617e-02
-4.192106877742948767e-02,3.840383725052211317e-02,-5.730339087849817270e-02
-2.476809329488972311e-01,2.023876142945922885e-01,-3.916627902752691237e-01
-3.135831868681112633e-01,2.534605586362801422e-01,-5.244482594001723674e-01
-4.302501642445806240e-01,3.177442972547874223e-01,-6.755609992054154578e-01
-4.003904953494470953e-01,3.036869302410786786e-01,-6.439082380884251222e-01
-4.917692519927439054e-01,2.978355851713954672e-01,-7.043092650084540329e-01
-1.466784269811438335e-01,9.464152112180074239e-02,-2.400842533873220053e-01
-2.032766052054198191e-01,1.818847839886916506e-01,-3.378608241720963967e-01
3.629503134711269952e-01,-2.506626312566470061e-01,5.846508410724023941e-01
4.670126291946649633e-01,-3.392680833541838470e-01,7.836142399945111858e-01
-7.572115526594787316e-02,5.675023462507938071e-02,-1.174936385721057214e-01
5.278415431071388220e-01,-3.535794580816186139e-01,8.041633705605141236e-01
-2.835419341818836703e-01,1.651519878673201325e-01,-4.711636748767971117e-01
-1.133028549503366234e-01,7.436803969125692360e-02,-1.713330947130767556e-01
-4.596396873001610817e-01,2.874633063260013111e-01,-6.764237754909699918e-01
-4.789880448667220847e-01,3.557705968798685059e-01,-7.166446646891385663e-01
-1.189697737039007441e-01,8.568887926307088010e-02,-1.762051993944429296e-01
-3.111568273853233535e-01,1.757497827622553077e-01,-4.103530724297517196e-01
4.039842514268747742e-01,-2.238831595576893652e-01,6.085981586639150898e-01
-5.466121881041385855e-01,3.694095114850052264e-01,-8.757664761152418320e-01
-5.022409499318244430e-01,3.295141370585266682e-01,-7.583278460404037080e-01
-4.448014267389646115e-01,3.207896892935527822e-01,-6.920628355855685809e-01
-2.498615584235615306e-01,1.259262356963845308e-01,-4.517888716124311976e-01
2.460130270396780894e-01,-2.005958666214523456e-01,4.444569314850792541e-01
5.151721765136009212e-01,-3.441305263568942285e-01,7.562320453240876095e-01
4.376205706982018162e-01,-2.946396226593980261e-01,7.073158409729832785e-01
-3.233213350068309122e-02,4.774266029065983574e-02,-9.102602459901350251e-02
-3.299601948772444837e-01,1.774876311524820616e-01,-4.603408089289175442e-01
3.882168765636610508e-01,-2.451898570846545722e-01,5.798222879202173941e-01
-3.071599457725617266e-01,2.061068893087923404e-01,-5.162667680076182819e-01
5.133629652238297369e-01,-3.612709662955575496e-01,8.628417004002737478e-01
-5.465620665889866503e-01,3.154105386852478210e-01,-8.284717245435340160e-01
8.433220729313078978e-02,-5.890447118962843787e-02,1.510790967759819969e-01
7.021278300487213131e-02,-2.198436988928989706e-03,9.440021367104459160e-02
-6.714173995449225496e-02,4.060139903213768470e-02,-8.579639617268106089e-02
-2.708897788110330440e-01,1.646397128068373406e-01,-4.676803766888825709e-01
-1.063261992163127695e-01,1.074816482678488533e-01,-2.122975031263317769e-01
1.678403018543087044e-01,-1.277763230227998148e-01,2.734880703835511073e-01
-1.242571637019270897e-01,6.833351469091963892e-02,-1.308007232324602809e-01
-7.645336882362671616e-02,1.023857737929972575e-02,-6.987160844007203608e-02
1.810601786176593841e-01,-1.489923034975186023e-01,3.289941798484642965e-01
-2.064327917390838540e-01,1.504784815106679496e-01,-3.097013745749587210e-01
8.996382474237360483e-02,-6.908620988510817684e-02,1.569161409055629675e-01
-9.229359653176885669e-02,1.207339826807109912e-01,-2.284704271929150765e-01
1.029736227961651901e-01,-1.165092408480933872e-01,1.376482929853785619e-01
-4.110179683083340918e-01,2.348020236742399680e-01,-6.798342169539089985e-01
-2.147263425730740471e-01,1.310992064916704780e-01,-3.808814675328809352e-01
-4.652593028949154053e-01,3.012162826388866677e-01,-7.854757107198874211e-01
6.994540733680269795e-02,-1.580268431066399887e-02,8.097649633889643372e-02
1.720302024331194779e-01,-1.309610024429126718e-01,2.691561066546404590e-01
-2.600422004735106207e-01,1.740695851642611314e-01,-4.028465999626691385e-01
-8.208437109074528948e-02,5.333073415294351666e-02,-1.294939348908942522e-01
-5.187197416585800358e-01,3.198777862671667860e-01,-8.104408652140797642e-01
1.369735408069643612e-01,-1.263648234254263758e-01,2.160964470717060548e-01
3.502209340163727203e-01,-2.637292872289025980e-01,5.807656834356079711e-01
-5.016350306093218109e-02,6.718069945920744634e-02,-1.120903256072509624e-01
-4.509851495409133437e-01,2.978912800556406948e-01,-6.480505941047036700e-01
4.514045675387396567e-02,-6.823549322649467841e-02,6.726937714284227099e-02
5.311167951222443007e-01,-3.468726537883454197e-01,8.735358759884196411e-01
5.623716166258571972e-03,-4.814581934876251135e-02,2.435643808024218204e-02
-1.914178832683333942e-01,1.052994501706700919e-01,-3.116201884278498868e-01
-4.795265979576848192e-01,3.343799885219382317e-01,-7.170438957027926996e-01
3.051900461755874816e-01,-2.247230363219258620e-01,4.517072686338772236e-01
2.158940941740587760e-02,-9.249993851520429608e-05,7.052335659363749565e-02
-1.941936754288517142e-01,1.567933316126638998e-01,-3.336896088351912204e-01
2.395839005175900982e-01,-1.767250487836520556e-01,4.084889288727530654e-01
2.397068432311112440e-01,-1.613793893723266815e-01,3.503669197482499609e-01
-3.149139246141386406e-01,2.270526385825002158e-01,-5.271357242224234962e-01
-4.414502055000857350e-02,4.094391830745047062e-02,-1.075978541653650755e-01
-1.444248657721421310e-02,3.931735787366008594e-02,-3.514434178787732149e-02
-5.651169347239054508e-01,3.656562627097630913e-01,-8.409486508463893673e-01
-2.077583423559597464e-01,1.721301235985515932e-01,-3.400417443869860890e-01
5.449728564095576155e-01,-3.556098610972932561e-01,8.363649875254633992e-01
-5.358293713793302881e-01,3.144295855272814522e-01,-7.872428735715184533e-01
-2.147294730330236504e-02,5.552581940569020075e-02,-4.046024069487251518e-02
3.642192701210807959e-01,-2.455296317114636084e-01,5.838001767671773257e-01
-2.680041812957677516e-01,2.085572603265707092e-01,-3.912484664150170377e-01
5.935020946372126377e-02,-6.613083451755723263e-02,1.451940532502476733e-01
6.985725909607597151e-02,-5.020885472057298737e-02,8.618363621281169284e-02
-3.342340110598382985e-01,2.677422898615856584e-01,-5.743221023775564316e-01
2.112364928879144343e-01,-1.577692492081426145e-01,3.224037373660231243e-01
2.444159211303542634e-01,-1.294542330289960297e-01,3.061712571627200896e-01
2.529399664590655239e-01,-1.374476744476935963e-01,3.758589302998579518e-01
1.394898936544846646e-01,-1.174811599531228740e-01,2.870647269893102371e-01
-3.512784839866495146e-02,-5.274926414344190129e-03,-5.851364375858080641e-02
5.480718063865293033e-01,-3.699436137021228088e-01,8.134707888798329289e-01
-1.718355460164925075e-01,1.783494430605865877e-01,-2.868954452743610051e-01
-4.064962570127521324e-02,7.685550271068404549e-02,-1.003280101877373209e-01
8.902034297635591162e-03,1.363753520464828888e-02,9.064101260606775498e-03
1.778774669013255816e-01,-1.478063300469442121e-01,3.259734432806742355e-01
3.906519197534811250e-01,-2.696404515802117707e-01,6.163261967338530267e-01
-2.628333514296916640e-01,1.888198439819814278e-01,-4.375115154713973831e-01
-3.159783500658869815e-01,1.738681999757366592e-01,-4.849752950193316758e-01
-1.359939105510504509e-01,1.407594117268829159e-01,-2.810728588902473568e-01
3.736232018691160173e-01,-2.349381875465843816e-01,6.334321147761159398e-01
5.622641479166658011e-03,6.135561305819544481e-02,-1.353395834842099172e-03
-5.248929703569658045e-01,3.595289714967154771e-01,-8.007677774573929153e-01
-5.181146124300548550e-01,3.619698297050786273e-01,-7.974778884576922966e-01
-2.098424808076453096e-01,1.632928219803168879e-01,-3.523389747105756808e-01
-2.747355993638200267e-01,1.312875577617687861e-01,-4.138089836023154389e-01
9.730203420126816438e-02,-6.534589832404481824e-02,1.500195236752473460e-01
1.111667270599200896e-02,-1.345325650578059473e-02,4.623898443749933918e-02
-1.463616993501971886e-01,1.193556865268155520e-01,-2.301221172953520078e-01
5.066873428485263453e-01,-3.436083899213782100e-01,7.796764546328514012e-01
8.110257636571863160e-02,-2.534000478180891552e-02,1.259254684633917543e-01
-2.957585596967691188e-01,2.146166226236838892e-01,-4.900649260408493912e-01
4.642194828759213521e-01,-3.337926574398070168e-01,7.503274609992711675e-01
-4.082528773421021939e-01,2.485605806388227479e-01,-5.775738348469909855e-01
-1.746419830484713942e-01,1.175962267635450170e-01,-2.692607818756604932e-01
5.495337419175573279e-01,-3.717480716491275428e-01,8.619957873650460067e-01
2.245734112540933580e-01,-1.392140209574483367e-01,3.633854096330656480e-01
-3.573725977800057962e-01,2.577932373575080316e-01,-5.563541031111216562e-01
4.053542875310403582e-01,-2.621837857334393673e-01,6.164503143001128782e-01
2.091571997164614061e-01,-1.405926411029808087e-01,3.344979441783680896e-01
-4.408607290959438152e-01,2.796761740221379577e-01,-6.905243592894604321e-01
-3.502031333211673703e-01,2.215512286271062448e-01,-5.487657253850427574e-01
2.125473610070126307e-01,-1.254612448240697009e-01,2.568116847988302087e-01
2.525888001145447093e-01,-1.098482046436488196e-01,4.186950220520384569e-01
3.382733336000939284e-01,-2.272009304827749543e-01,5.362240338047123966e-01
1.506440771247151977e-01,-4.795204916469492096e-02,1.826127536565243792e-01
2.808097139504887874e-02,-1.559298826180037165e-02,-1.110517475727570633e-02
6.817234907050631620e-02,-6.011793653685136574e-02,1.481662473317942041e-01
4.690592081367872535e-01,-3.978796778731570338e-01,8.288660788606477814e-01
4.164204494235452803e-01,-2.831202733390796866e-01,5.770241851292069457e-01
-1.998536072450908807e-01,1.254211995183601158e-01,-3.129167700954005871e-01
-3.692359588795227077e-01,2.345214419181087251e-01,-5.629878023389843777e-01
7.791300227892597463e-02,-6.852905771743632302e-02,1.007879597005132966e-01
1.208755415538757261e-01,-8.930080076566342118e-02,2.402786533143125569e-01
-2.467432530702192706e-01,1.736184291702364269e-01,-4.680907006364064538e-01
2.453754123927006855e-02,-1.992800806460311158e-02,7.655157832272174723e-02
1.217284927134818645e-01,-4.650282914768270187e-02,1.678892898696026648e-01
-1.194084464096205195e-01,8.724215239589064308e-02,-2.030859011534571490e-01
2.612877482751265745e-01,-1.911044409115865705e-01,4.496301635931149177e-01
4.530980867393404332e-01,-2.932030658038549675e-01,7.225907800962857452e-01
-4.906868336753600346e-01,3.185810257188060879e-01,-7.470458871893399522e-01
-4.151225378406106503e-01,2.682664434240669138e-01,-5.904411654896072337e-01
3.171029289732069101e-01,-1.808559019588906192e-01,4.629088983888667297e-01
2.334185988877947870e-01,-1.500085117215818054e-01,3.261191875799658857e-01
-5.772737072090500243e-01,3.605170824654667650e-01,-8.193543397909827108e-01
-1.382741412787396318e-01,1.583217291396808168e-01,-2.575896080671810084e-01
-4.915893424919597909e-01,3.533520520361804751e-01,-7.863320057170546384e-01
3.630869073965883875e-02,2.343947708229834198e-02,6.765160919352926350e-02
4.210642627674456850e-01,-3.269907596366019020e-01,7.389564860384763012e-01
1.240860232647448963e-01,-9.571730324326062356e-02,2.493977782857812187e-01
1.273291236307953211e-01,-5.419216479288130328e-02,1.418509665505441886e-01
-1.427496011422696442e-01,8.792906305052179683e-02,-1.571387534694422272e-01
3.102337621225301212e-01,-1.989869033848259139e-01,4.577850987934358740e-01
-3.426658547153487167e-01,2.524000683741354223e-01,-5.442916152206045410e-01
-2.366320918001237894e-01,1.663496054372350652e-01,-4.310029292690229497e-01
-3.615349030065898583e-01,2.378901556484974422e-01,-5.077692633982346937e-01
-8.701252788283016584e-03,-1.975584898137824202e-02,4.086713760520136948e-03
-2.804244945262702182e-01,1.922621500505216907e-01,-4.329394206787986477e-01
-2.006254795378894229e-01,1.358748364914457440e-01,-3.615264321259949454e-01
8.178548513750501237e-03,1.434501296566463927e-02,-3.408326672765512461e-02
2.896445013705983285e-01,-1.946293802186284116e-01,4.669058989683390060e-01
4.840557873474782280e-01,-3.071211776596777243e-01,7.500935365161808255e-01
9.790660983824076014e-02,-8.766062325912966913e-02,1.682546551584683248e-01
-1.959727323798009790e-01,1.569781454799019371e-01,-3.441574386339711911e-01
2.689705014421524543e-01,-1.833864896276476419e-01,4.154714716524292029e-01
4.689207119541366486e-01,-2.982139674653799255e-01,7.419355450057052437e-01
-1.695336464914516672e-01,8.667759192222630749e-02,-1.878818263414177570e-01
-2.940564722119170527e-01,1.790590468289122439e-01,-4.518410375175014870e-01
1.199354912068204965e-01,-1.384859961074655366e-01,1.825854229654780281e-01
-4.598685503610920600e-02,3.120200218988277568e-02,-4.206042433820925130e-02
-2.278328510388820949e-01,1.202745156775572033e-01,-4.256231660900106628e-01
3.510613666701772884e-02,1.192845765944697614e-02,-2.780023843444017623e-02
4.925099492603884216e-02,-5.050151331617595829e-02,9.125980787539363093e-02
-8.152156530787865729e-03,7.329664520939980013e-03,4.881782267140579064e-03
-3.361571147999593556e-01,2.193698176382011811e-01,-5.318510053789168301e-01
1.081224185035412205e-01,-9.281968785840172265e-02,1.217318267925794895e-01
-2.622309688086364998e-01,1.782390331135552952e-01,-4.450047094767146660e-01
1.415680813478825684e-01,-1.125445547174889066e-01,2.214701055584101796e-01
3.499807844515787081e-01,-1.985780356840540772e-01,5.542005197951113127e-01
-3.081656148035437637e-01,1.960957911126564035e-01,-4.569916797462663105e-01
-3.274621887865018510e-01,2.432681832240742859e-01,-5.280848553686178226e-01
2.842554352821425878e-01,-1.953808917165848202e-01,4.976841672101023906e-01
-4.181160297259178260e-01,2.698686550440946297e-01,-6.057056662357324095e-01
3.361206858625434557e-01,-1.888243599991247246e-01,4.543412572146589001e-01
-2.581012374949823718e-01,1.486131056586890709e-01,-3.905793168744137178e-01
-4.650233361419334188e-01,3.141311874096280321e-01,-7.507498237603190683e-01
-5.130625379873325898e-01,3.368257292139131276e-01,-7.666539626120340012e-01
-9.936957262414883307e-02,4.030512609205128688e-02,-1.568098507547471820e-01
1.228034379393486142e-01,-7.867518967050432521e-02,1.666813437933261921e-01
-2.508276006204592790e-01,1.521446663513928432e-01,-4.074916616859914908e-01
-5.273559058258022736e-01,3.421580087302549256e-01,-8.426684006907737556e-01
-4.568894038984617767e-01,2.569985826314385435e-01,-6.651630973829155691e-01
1.261537105349099311e-02,-5.147560038999077214e-03,-2.216367863715227801e-02
-2.516724730949159716e-01,1.777317120664808070e-01,-3.779260716957622002e-01
-2.397789072165136814e-01,1.942323638231252536e-01,-4.435039211943498372e-01
2.746624016843186022e-01,-1.405296070740821301e-01,3.920633531081109679e-01
3.341451209913320897e-01,-2.425554975618903208e-01,5.393435826198731409e-01
5.327930215776752743e-01,-3.397523694619389856e-01,8.088837560174011454e-01
-8.411305084245966623e-02,5.898557262466400802e-02,-1.233589582767790627e-01
-2.040682267142803485e-01,1.382407315649108182e-01,-3.263654835703790891e-01
-1.155196575155171407e-01,6.542940476438530162e-02,-2.332433045321835874e-01
4.394117676603097600e-01,-3.132336204396690693e-01,7.114577846901078972e-01
-2.760334805299902508e-02,5.824267558813825234e-03,-5.191827381599539715e-02
-4.554166030100593177e-01,3.170487456840143103e-01,-6.496335061720347470e-01
9.541427704791526077e-02,-3.657171408068823210e-02,1.273789896691073786e-01
-1.611253570244815247e-01,1.318476239747523593e-01,-3.143783505581427273e-01
-1.753583373532486278e-01,1.034504120291380447e-01,-2.178994575019791435e-01
-4.832938623129420241e-01,2.914632610884570485e-01,-7.456108393416102098e-01
5.308286118715174196e-01,-3.535590769168879266e-01,8.565595470055341609e-01
1.770254699295077949e-01,-7.460343786163979585e-02,2.277625008882897262e-01
4.858646480676963586e-01,-3.231708814349408820e-01,8.162677175077505121e-01
-2.181161991969375047e-01,9.360882260490632767e-02,-2.890714960606743378e-01
-4.867706771250557840e-01,3.018327782215506905e-01,-6.737983069151060045e-01
7.951296299615782937e-02,-3.361478138050464498e-02,9.908963620714568432e-02
9.017995937953193764e-02,-9.134227608094989959e-02,2.199240491974443767e-01
3.408682217439166218e-01,-2.524717672260385348e-01,5.441885851208395630e-01
-3.290472369652649304e-02,-3.341313491203987823e-02,-1.073453650328042193e-02
3.751846576739190642e-01,-2.329600241807750771e-01,5.652630216262363172e-01
9.105957445364183667e-02,-8.162712223141324608e-02,1.317791948216123776e-01
-5.072076141241642633e-01,3.451390092961560407e-01,-7.468532773579737993e-01
8.908829264256319658e-02,-9.926517979233508149e-02,1.838296155734386317e-01
-5.579495763967874389e-01,3.178254231098880389e-01,-8.702565144787973717e-01
2.762146953921419401e-01,-1.809482357800907271e-01,4.120187461129080631e-01
-3.061432972774354999e-01,2.241704355986765262e-01,-4.976628659482554284e-01
-2.945110686631080554e-01,1.910266434821177028e-01,-4.854137055981395110e-01
2.939482889157658298e-03,-6.558314378334248462e-03,1.482541135431495252e-02
1.112532116142048166e-01,-7.538423593494458785e-02,1.857310840708578936e-01
5.298648529311569266e-01,-3.157008086287596549e-01,7.756850528950451906e-01
-2.427836656264739310e-02,9.099729103363469671e-03,-6.278809617087448280e-02
-5.199380282390182462e-01,3.692508041701091925e-01,-8.093524329511747606e-01
4.612514734663066690e-02,2.299311983440261147e-03,2.017974378324930915e-02
-7.467320759003413799e-02,5.289156026942291866e-02,-1.678019110411658188e-01
3.945114552234434413e-01,-2.450022181411382061e-01,6.752475900078673821e-01
5.110595540735396458e-02,-4.948971073646249441e-02,5.567189739145052968e-02
-2.591481409449952755e-01,1.691699067379511812e-01,-4.062534834251878557e-01
4.545501280360264018e-01,-3.429865000695067612e-01,7.524723169617640872e-01
-5.159892039725642032e-01,3.153521423764388265e-01,-7.699827120898063981e-01
-5.165963604429490985e-01,3.608335635560893651e-01,-7.629684778027288061e-01
4.489494438245383856e-01,-3.117532471620027557e-01,6.827256907815596465e-01
2.786590574903828887e-01,-1.951276097880093041e-01,4.432051055680149565e-01
1.213725521469282281e-01,-9.268597881888997192e-02,1.516108970119773025e-01
-3.932145217629203771e-01,2.606134684279408087e-01,-5.961811121628248777e-01
2.295070956844883214e-01,-1.760918473652343941e-01,3.714276917228556685e-01
-5.526520923516856643e-01,3.541893916525281072e-01,-8.199664788002009042e-01
4.872544211530853708e-01,-3.419652245621062070e-01,7.729954358489932176e-01
4.533233331840578334e-02,-6.012073065659544191e-02,6.437553907421322830e-02
-7.512843172132979697e-02,1.821566987928240761e-02,-7.643408392541961582e-02
-2.554144651385995557e-01,1.520440287561984627e-01,-3.735954197328662518e-01
-4.429856553271531161e-01,3.202222220796835384e-01,-7.855472488926505958e-01
3.473116744757884788e-01,-2.287431839855161020e-01,5.355801347754208797e-01
-5.343537967706079028e-01,3.488795999057889285e-01,-7.857061772218959517e-01
-3.298573280592572710e-01,2.080840012891162771e-01,-5.310265491142004413e-01
-2.439721179580528199e-01,1.721719221060379335e-01,-4.434466507212463937e-01
2.996198695206849782e-01,-1.995672414024150243e-01,4.767566537421791817e-01
-4.143044175044413024e-01,2.777107745818247486e-01,-6.620676963140118554e-01
-4.726790400625311417e-01,3.402719241943556461e-01,-7.380291398119349644e-01
-2.770437255844844793e-01,1.984660985877815809e-01,-4.118479652428563287e-01
5.889728257095493830e-02,-8.575232263950954836e-02,1.411321908365700262e-01
3.045950164759714252e-01,-1.992331855013040887e-01,5.224418978744208575e-01
-4.399751859464483550e-01,2.614002824928960966e-01,-6.639084733457154552e-01
-4.634314019307745891e-01,3.255877131656498835e-01,-7.039071131228148426e-01
-2.085402403328921184e-01,1.636546562006664651e-01,-3.672269567902340381e-01
1.419690295276785086e-01,-1.103772656559070947e-01,2.243721577525432664e-01
3.424834271495931781e-01,-2.372765978073844706e-01,5.641776930006090485e-01
5.654570979434417888e-01,-3.483630643802868021e-01,8.712411410120008970e-01
-4.577449188368098304e-02,7.627384689535994522e-02,-1.387227176885010571e-01
4.186363441838040211e-01,-2.418993047414874364e-01,6.619522116282555713e-01
2.660576029947443466e-01,-1.702280848519808487e-01,4.258813074844334245e-01
-2.500241349765955357e-01,1.365117186664340232e-01,-3.388689351489470036e-01
1.828576883870501046e-01,-1.033687598578792860e-01,2.493672240722733247e-01
4.497154870747256394e-01,-2.502658691198941243e-01,6.360819311139727095e-01
-1.250600409051981776e-01,1.094473243649896066e-01,-1.567509408600169241e-01
-5.220676755423945270e-01,3.695841273262885363e-01,-8.396785936506744319e-01
5.365459287951656053e-01,-3.579874199332718221e-01,9.055432157363449974e-01
2.715690982134653653e-01,-1.897172745564904006e-01,4.608220137091449953e-01
3.532234276277399498e-01,-2.256638682091393622e-01,5.372937979609543335e-01
2.179125834742693113e-01,-1.657353032213946531e-01,3.550792352118876116e-01
-4.338001625896939495e-01,3.146082100068907650e-01,-7.125951489486913593e-01
-3.052562357365168899e-01,2.398882231613581328e-01,-5.504078870729089967e-01
4.354218165837901444e-01,-2.377899437741451405e-01,7.024325876915437084e-01
-2.074041882730673705e-02,-1.576662025193544241e-03,-4.659253151906275064e-02
-4.567884757413970265e-01,2.737927005143111492e-01,-6.542287824203351088e-01
