-2.658107903883916823e+00,2.094670489688629456e+00,2.402366734006692095e+00
-1.420088282488930487e+00,1.313200662850129374e+00,1.334027104660721719e+00
-1.275320174084962010e+00,1.093994835768096197e+00,1.166965258545984208e+00
-1.458533387245976698e+00,1.253645901708519306e+00,1.300235512143657068e+00
1.242735544888837973e+00,-1.060029568542296685e+00,-1.067089746286832952e+00
-5.465690881283998825e-01,4.246261603678950225e-01,3.478355196907643165e-01
1.515671455065299211e+00,-1.216579115791273313e+00,-1.482298439324439610e+00
-4.649970398343462041e-01,4.924330028172771434e-01,1.202504658993520104e-01
1.037515506979706376e-01,-1.327863927239049391e-01,-2.817221307528536278e-01
-2.223351508194602477e+00,1.829495887096442175e+00,1.938730465308288853e+00
2.505318969031898657e+00,-2.263672940902921038e+00,-2.337699122711819122e+00
1.327839516529459196e+00,-1.238140877297005282e+00,-1.128935411744599993e+00
-2.692587404260703643e+00,2.413343668214508853e+00,3.019339818781324514e+00
-2.546722813311753431e+00,2.237455996965934002e+00,2.386200458999983898e+00
7.412324724242654872e-01,-7.010529744816353936e-01,-6.627547354421634562e-01
-9.576620933791122336e-01,6.429085390546402934e-01,7.279611266547734161e-01
-7.704012577257715044e-01,6.030594623950434885e-01,7.183998865441727499e-01
-2.395799862579186534e+00,1.846231816221385325e+00,1.883645830152542056e+00
2.079122126880646793e+00,-1.694702555689253654e+00,-1.867692295356556675e+00
1.245933801871998758e+00,-1.139876400933208300e+00,-1.109145900062139534e+00
1.079914544976727786e+00,-9.577408998578093025e-01,-9.422200192589091916e-01
8.255228007206623086e-01,-9.708959546186011202e-01,-9.490874027320752582e-01
1.317181552468908556e+00,-1.084728958485023709e+00,-1.111068316009396595e+00
1.705425557555294347e+00,-1.462758706361013017e+00,-1.570726587592754075e+00
-1.193861646690947520e+00,9.091207802056993081e-01,1.123372385759126901e+00
-1.819772924823004789e+00,1.333932424553623708e+00,1.320609382530655518e+00
2.796663158873587296e+00,-2.261073600698683350e+00,-2.683536649548159847e+00
-2.900151715485502102e+00,2.389959509437862284e+00,2.571507901879417801e+00
1.865677785094066676e+00,-1.365196924744765505e+00,-1.555372730293862915e+00
-3.250798110469195201e-01,4.236946478755353462e-01,2.907971249678523717e-01
-2.030829609566687122e+00,1.539697571005375076e+00,1.551244285491213404e+00
-1.032692515341436579e+00,9.521401372876506786e-01,8.199198980942586923e-01
-2.511771493070206418e+00,2.147897878506359604e+00,2.037285852994176416e+00
-8.870258871319197658e-01,7.392434322566189264e-01,8.025434791889967112e-01
-1.686097698602241790e+00,1.538478791281032487e+00,1.576284395035408625e+00
-9.372789870746326413e-01,8.106730583604557783e-01,7.778823701643970967e-01
-2.350940464570969723e+00,2.053106953460816175e+00,2.082132225880696019e+00
1.635129823318787201e+00,-1.434512745511792531e+00,-1.727165227018804927e+00
2.901752624091996413e+00,-2.511826889351558734e+00,-2.728143406167971463e+00
-1.386234371332155657e+00,1.288593185964114873e+00,1.444509546947517320e+00
-5.658303620642147758e-01,4.950725438181393101e-01,4.371639043842848182e-01
-5.765828746424319640e-01,2.477390395335950790e-01,6.126804684693554215e-01
3.692815626706395099e-02,-3.641009966674868537e-01,-1.750317403915375436e-01
-1.054067188394858690e+00,1.178935943998755453e+00,8.687792597155258312e-01
-2.096495631328192388e+00,1.950313579867195779e+00,1.808022152835629059e+00
1.756867292110622092e+00,-1.423315196762147128e+00,-1.675810516523948079e+00
4.304634251311554305e-01,-4.075447137278402909e-01,-5.242058670566178691e-01
-1.556545326608803625e+00,1.375078609937895768e+00,1.341443871899388629e+00
-2.762058814092209325e+00,2.466005056753620472e+00,2.488196935455541769e+00
2.706971342300807937e+00,-2.264013825753180775e+00,-2.228537660297233991e+00
4.585988608452907789e-01,-2.581130753036799397e-01,-2.979496426883386784e-01
9.858476114110606425e-02,-3.936010405343800533e-01,-3.288577160293990054e-01
2.326011443979802085e+00,-2.076674625441929933e+00,-2.173493755291047158e+00
2.456352215552142670e+00,-2.251805028017390242e+00,-2.340086802679826938e+00
-1.973390103586383670e+00,1.563926665543049710e+00,1.709841787849581074e+00
-1.572869920202330851e+00,1.300986087835919403e+00,1.344601564141635786e+00
-6.208670062713599336e-01,3.741997315359588128e-01,6.518326563741341229e-01
1.766213487498170531e+00,-1.739619370100054629e+00,-1.720608840971304954e+00
-2.107699641712634797e+00,1.888781119242893158e+00,1.937480014029897557e+00
-2.408636253146870521e-01,1.415493447723490117e-01,1.582091495202026521e-01
2.342102715113983102e-01,-2.183818344906242048e-01,-3.501042987723561595e-01
-1.344046506747273995e+00,1.090617086639280364e+00,1.334894561277009117e+00
1.735779453110154691e+00,-1.396323033809274028e+00,-1.594288877147734595e+00
2.726409486178846375e+00,-2.398044945862703337e+00,-2.692515776815485040e+00
1.890487467515511444e+00,-1.616729167726656424e+00,-1.673581633562150506e+00
2.671563949382299796e+00,-2.478852495534344058e+00,-2.655459504266015625e+00
-1.942615987178322179e+00,1.711497613895347714e+00,1.610262579230162583e+00
-4.353336067686205263e-02,9.987520794305677907e-02,1.906391371191816855e-02
-1.270379936709644442e+00,1.082302827983039339e+00,1.129621389871936277e+00
-6.985608063971505688e-01,7.778790401946922284e-01,7.144650224387268933e-01
-1.480950320635662232e+00,1.446417347650325480e+00,1.372257631808584177e+00
8.109342369773312464e-01,-6.256214466120629814e-01,-8.083350160106326232e-01
-2.383533821085797033e+00,1.832860273691514275e+00,2.062801139139850637e+00
1.310341667013320555e-01,3.178515501848869912e-02,-2.409101362641544262e-03
-2.759766632250487461e+00,2.102117412219107973e+00,2.330254171580303790e+00
-2.942795874616483509e+00,2.630062816695429184e+00,2.536773915797785772e+00
-1.343890811338738001e+00,1.126786611277754480e+00,1.138994805948340572e+00
2.401510919593844218e+00,-1.954674017902913175e+00,-2.090433725259045694e+00
-1.521788147796768298e+00,1.351815323247384404e+00,1.295671655780402221e+00
-1.738102727735570285e+00,1.514603962134456694e+00,1.655484337959693963e+00
1.880550448151842247e+00,-1.256374132702785529e+00,-1.584172960779772099e+00
-3.751200721479477918e-01,3.428332498577661425e-01,4.047525207480859866e-01
2.198621003575957467e+00,-1.554670296834083087e+00,-1.991569041763427306e+00
1.715855601599531460e-02,1.548680836033844710e-01,-1.288435545662016679e-01
1.483318972723204343e+00,-1.172926757192533032e+00,-1.409056914609965405e+00
-2.746643865161652709e+00,2.283581076542408717e+00,2.576349939284809487e+00
-3.379559794381821747e-01,3.304580944897157480e-01,4.290764923122866170e-01
2.936437193060951856e+00,-2.501029908778908961e+00,-2.784080040705458892e+00
-2.889178263173902028e+00,2.582483311826535122e+00,2.862389462804261431e+00
2.118629848875396959e+00,-1.815477927583549533e+00,-1.866348749567106502e+00
9.439727409160970639e-01,-8.753875764107933444e-01,-7.262625098873247698e-01
1.829936239092965211e+00,-1.420920420849068888e+00,-1.548506292375573024e+00
2.018560694880094930e-02,-1.003774979496962760e-01,-1.552955815976793386e-01
-1.362146759373374483e+00,1.214933114394054270e+00,1.379183213857661405e+00
2.426654873752394526e+00,-1.994355389897620290e+00,-2.366029229863654049e+00
-2.009164493936025142e+00,1.910735101107034151e+00,2.129163963484202338e+00
2.119845831481947940e+00,-2.019039069161814304e+00,-2.057427145318872608e+00
7.631672207068922187e-02,5.078807416388046031e-02,-2.838522258620996760e-02
-1.444659013589852714e+00,1.184705675035485850e+00,1.314801117483257453e+00
2.021920593558621526e+00,-1.653391500601039565e+00,-2.007854246906711548e+00
2.464066863745685509e+00,-2.100772987727960395e+00,-2.412904928506516722e+00
1.499009607828027280e+00,-1.504070856735626016e+00,-1.579211398618002526e+00
2.996082034817178497e-01,-4.169341028529268689e-01,-5.361992206888439583e-01
1.806210465469761495e+00,-1.547493469040120750e+00,-1.731979533250065817e+00
-2.217738290597194961e+00,1.893580680477473743e+00,1.968917918578039883e+00
1.803598321025931428e+00,-1.448214155634717670e+00,-1.602104419831724469e+00
-1.679517586555941744e+00,1.658694707917389488e+00,1.558667090475642558e+00
-1.751915763696668904e+00,1.606778749846103471e+00,1.830376067367414983e+00
1.088165769928044480e+00,-9.015759592013902202e-01,-1.006721936951963325e+00
-1.301865523035965755e-01,-2.180608040362425060e-01,-4.527505673470777654e-03
2.848165890088740770e+00,-2.357809218102963289e+00,-2.543688178356491747e+00
1.666602048129521840e+00,-1.396406573121272032e+00,-1.699582479202565999e+00
1.371372216432183100e+00,-1.180540627077222071e+00,-1.390892778342870173e+00
1.128535072902081104e+00,-7.480702766165822082e-01,-1.012749598402523210e+00
-2.387806812808990209e+00,2.096302758293175028e+00,2.262653079411748536e+00
2.738045844362122061e+00,-2.284601704764672281e+00,-2.691219612194370114e+00
-3.970899999672259928e-01,1.710276629979120555e-01,4.419499853805253786e-01
-1.639658541487456045e+00,1.379044892950700207e+00,1.511581244110777211e+00
3.865769158794261917e-02,-4.042143643992138907e-02,-5.179742654971995069e-02
2.101059992274781241e+00,-1.753170247724304742e+00,-1.811851584516512625e+00
-2.770009442698905033e+00,2.412252619538056031e+00,2.487087827739085988e+00
-2.444623596246970010e+00,2.024427890429099097e+00,2.072958705443658900e+00
-2.285216167843294954e+00,1.763678983935502709e+00,2.055102788543440084e+00
5.534221376537205028e-01,-5.324236096641716820e-01,-7.926322091945646742e-01
1.657647636418833503e+00,-1.383074672792505178e+00,-1.390991663819845625e+00
2.070239175898330064e+00,-1.850353934929268807e+00,-1.857446566069034466e+00
9.067933931890543864e-01,-6.814657453391194109e-01,-8.152092219643862769e-01
-1.767748028924366555e+00,1.458090878540409419e+00,1.484874517674019012e+00
-1.817639600766247865e+00,1.631220351561316173e+00,1.802836180263125643e+00
1.888436661469158784e+00,-1.614241472636488872e+00,-1.771281647224139277e+00
-1.782497752520605161e+00,1.452303398068207629e+00,1.586251771681045586e+00
6.388559178952825102e-01,-4.228242280271982678e-01,-4.385081161563771923e-01
2.375469823969534044e-01,-4.558757441294198909e-01,-4.632270925602146039e-01
3.035615155744643801e+00,-2.379370481125555159e+00,-2.653839740594002183e+00
3.019500263093993109e+00,-2.380368686333452555e+00,-2.821798205149819605e+00
-2.214943287966477214e+00,1.976100904384587631e+00,2.067004379869574304e+00
-1.788594447900982098e+00,1.613338397906884270e+00,1.738785324412406519e+00
8.639591158312099894e-01,-7.639784372294887715e-01,-5.893993043681794441e-01
-1.299126998921478648e+00,9.785129908503529261e-01,1.027017803923409689e+00
5.255109919149832942e-01,-3.988834857170493464e-01,-6.188311267075794486e-01
3.832629425383670130e-01,-2.691093699128430661e-01,-4.577147909903979128e-01
1.395094887736159306e+00,-9.497480554713233492e-01,-1.133084939394553237e+00
4.310285065693735818e-01,-2.811659368209520893e-01,-3.968478596823527549e-01
-2.777545043953055792e+00,2.207354186158985598e+00,2.650345493788889506e+00
-2.495369575113512095e+00,2.058476229949108838e+00,2.214847556258350281e+00
-2.843658899757502745e+00,2.411469730599252959e+00,2.616489354377615761e+00
1.261667723835776522e+00,-9.958179131949023155e-01,-1.249266312233059173e+00
-4.380874788952814902e-01,4.994278453024295072e-01,3.755341021484885911e-01
2.819410122157101295e+00,-2.316813123288465448e+00,-2.568393080160682906e+00
-3.054956266058228120e+00,2.384831373091805595e+00,2.642140799785090977e+00
-3.693113094350116699e-01,3.881716746841109567e-01,3.427012846499572496e-01
2.445590032918977030e+00,-2.159733956427265511e+00,-2.198185063800199401e+00
2.471278221215649662e+00,-2.030731340886087199e+00,-2.103952889450823260e+00
7.270673896773990341e-01,-6.607014206454182581e-01,-6.545190826126803252e-01
2.409519582329151088e+00,-2.054787031614691006e+00,-2.213632108142687738e+00
2.115231266588589065e+00,-1.824595444333234839e+00,-1.912074230280184750e+00
-7.323923406070530218e-02,1.040920805354337564e-01,3.403028689444244359e-02
5.010679340905331847e-01,-5.666148401770169096e-01,-7.521843166400403735e-01
1.082409181701238454e+00,-1.024042103975032481e+00,-1.155225659898189594e+00
3.645049305689827129e-02,-1.658684726918654151e-01,-7.517034584153843568e-02
-1.435536779274862340e+00,1.024477241409647688e+00,1.242463485151514835e+00
2.237656602782246651e+00,-1.838323647432487773e+00,-1.968207775463815645e+00
-2.229675502529865572e+00,1.781984072144334963e+00,2.021889669292054048e+00
-2.312592766521875398e-01,2.787510451777750475e-01,1.228669305506621158e-02
1.767808576891375827e+00,-1.440125222160232088e+00,-1.490924137795871740e+00
-1.441612409325022437e+00,1.175482311116574197e+00,1.470014299739389685e+00
-2.522732095936802921e+00,1.855213034388018434e+00,2.070837372153284228e+00
-2.843570649654491245e+00,2.207588241759253389e+00,2.522197396222071397e+00
-2.366809271737096765e+00,2.040360365320803560e+00,2.156996783711919718e+00
1.805208867341396184e+00,-1.566860454099452626e+00,-1.817919149058200734e+00
-6.551652980951591099e-01,8.493197620180195084e-01,8.237498518664827518e-01
-6.533407985603665313e-01,7.404816279039320159e-01,7.033745538488158644e-01
4.244175323949965772e-01,-3.344068940115664801e-01,-8.791508687833435309e-02
2.853251878044017698e+00,-2.459323818417014085e+00,-2.547313783190122027e+00
-2.960857823170321423e-01,2.722582576726334525e-01,3.169824972966440169e-01
-7.376191790755177724e-01,6.988133682943602487e-01,8.390518428127842210e-01
-1.054246762122237779e+00,9.319066317535240618e-01,1.000710936438012899e+00
-2.331396591035213461e+00,1.773958521714581460e+00,1.977755369491722037e+00
-6.791623095132330867e-01,3.411483382454782998e-01,4.157538803089074753e-01
-1.003085594454149687e+00,7.934607580199380950e-01,7.376961246894184754e-01
-4.745820919070885963e-02,-7.240048437676351034e-02,1.180496489788904063e-01
1.406766820886084624e+00,-1.075188339978749186e+00,-1.109289890445760873e+00
5.364538602309562032e-01,-6.011143475347172638e-01,-6.213543977590688661e-01
7.083235717712114132e-01,-6.262857684714908668e-01,-7.290329497629217670e-01
5.652727335152607502e-01,-4.074247207573774565e-01,-4.816860115817601651e-01
2.364513261563554458e-01,-5.639231243867195986e-02,-3.930133153674407465e-02
-9.126267931859782800e-01,8.652437939586764548e-01,9.218703339343869985e-01
-2.569037448935953982e+00,2.258848937307046167e+00,2.285431190027944037e+00
1.292061718987485230e+00,-1.083375081194402956e+00,-1.113616397382881429e+00
2.280037586724393162e+00,-1.815760906657379214e+00,-2.068128744853691359e+00
-3.045284667994348382e+00,2.390584303305952840e+00,2.651285327075712406e+00
-2.755824904669888831e+00,2.322737108814240337e+00,2.520310360761327306e+00
8.694784932325155813e-01,-5.230978426420550553e-01,-6.407162699616524293e-01
-1.409368825224193822e+00,1.128911573351705000e+00,1.094177350990473307e+00
-2.292908905673956887e+00,1.988340411460478574e+00,2.026131942413203824e+00
-3.024494305515924353e+00,2.397360647181964843e+00,2.684487951971100905e+00
4.540785390824199352e-02,-1.461947081236172064e-01,-1.348624294854370298e-01
-2.383815936634847699e+00,1.985568925417868558e+00,2.210196792402616683e+00
-1.928087686379016397e-01,3.133658031149810230e-01,6.234226269203173992e-02
-2.764489042952739339e+00,2.266768135603070444e+00,2.449289204761810446e+00
2.025073067290097117e-01,-3.166598803937744622e-01,-3.739975168009646023e-01
-2.412545661369910541e-02,-4.267997416800504984e-02,-2.128815667604354589e-01
2.339794504267549868e+00,-1.727693539680208890e+00,-1.828950689852462563e+00
-2.166507457928177338e+00,1.831388471982890787e+00,1.859812681457218897e+00
2.481754930796101100e+00,-2.110979553792476704e+00,-2.462424758641224454e+00
-9.503656070311879978e-01,7.980524876968219106e-01,6.522948880825870654e-01
2.756476668693687238e+00,-2.290238576499610268e+00,-2.315214621301477926e+00
-2.583009579181112070e+00,1.914049939882922713e+00,2.319467369863658313e+00
6.385426499974734826e-02,-1.397906629183811866e-01,-9.979401979030930181e-02
-2.525899373622810806e+00,2.108076941340203181e+00,2.110909445829141085e+00
1.161628228199118373e+00,-1.079337439048561054e+00,-1.197293798627848016e+00
-1.889894604422028168e+00,1.415296263206681227e+00,1.556218927650944606e+00
3.457874981292671790e-01,-1.926912291004826139e-01,-2.327849273720274115e-01
-3.013911740106607340e+00,2.385441418775469113e+00,2.627509485087218266e+00
1.716755351803413099e+00,-1.469164273882537675e+00,-1.360993944324281557e+00
-1.904751079305976091e+00,1.471645504586637676e+00,1.698977889249186024e+00
-1.215127726277694054e+00,7.834519016937326885e-01,1.021845783932977536e+00
-8.710847023532988231e-01,8.640288788688123001e-01,8.118882814265320214e-01
-2.660918157627285119e+00,2.171457682245800047e+00,2.394247018228996549e+00
-2.126926070558825099e+00,1.812253454002701325e+00,1.948122040493370788e+00
-1.017793013718410133e+00,8.314655536395820778e-01,7.870903138027205426e-01
1.683655181592942807e+00,-1.266120847125974613e+00,-1.363225605774436744e+00
-2.132072071957892057e+00,1.753021193102631825e+00,1.902753240041212601e+00
-3.016508275105516668e-01,-5.870985584427219212e-02,9.543247941080301722e-02
1.764598158673214567e-01,-2.181317750998766070e-01,-2.088946176767188523e-01
1.267885071164620570e+00,-1.207820011365444035e+00,-1.317315966858752629e+00
1.703233942566477310e+00,-1.510512664536451943e+00,-1.742146467815586464e+00
2.262560926545008844e+00,-2.019304678407378262e+00,-2.178351076425649513e+00
2.136620201051704804e+00,-1.891849638139228018e+00,-2.093727264547860845e+00
2.514005570828900638e+00,-2.180469368294227994e+00,-2.108842777470059549e+00
8.332935327844163131e-01,-6.515911157612737092e-01,-7.318666179008113115e-01
1.058077282162458888e+00,-1.022078875821062605e+00,-1.173245326596665805e+00
-1.994877258430624023e+00,1.655686922040814801e+00,1.830681695962407485e+00
-2.630132665117881352e+00,2.157186337498799844e+00,2.493313351912928244e+00
3.918444134077960217e-01,-3.579564992414906444e-01,-3.817026869412085688e-01
-2.777545421863357955e+00,2.401111130271106564e+00,2.498563955367807843e+00
1.673248337144619846e+00,-1.214070027171982202e+00,-1.384481156145652481e+00
5.955005710916702055e-01,-5.122929337215734735e-01,-5.282861512197475351e-01
2.387709479392658540e+00,-2.052084392106832134e+00,-2.049063916341749891e+00
2.400460203833143957e+00,-2.267843131978960702e+00,-2.328902474603352868e+00
5.964355127287347402e-01,-5.576400480237374557e-01,-5.656783749448166532e-01
1.505689197877211782e+00,-1.364166935142121506e+00,-1.196694337985729106e+00
-2.208066354866086822e+00,1.728910618776505537e+00,1.759672593075640723e+00
3.007205849294996902e+00,-2.476154712292203630e+00,-2.720424007954223899e+00
2.636324291874896364e+00,-2.271006058725222765e+00,-2.338057675124640689e+00
2.335889558297400193e+00,-2.071868768396883276e+00,-2.211871639903694842e+00
1.635826567104641693e+00,-1.007573892358920364e+00,-1.269579634880535712e+00
-1.438380298250584222e+00,1.175299758525654825e+00,1.466731826549109829e+00
-2.621053144561950266e+00,2.353245501279523477e+00,2.353475022945149764e+00
-2.429896317243337656e+00,1.977164408501559834e+00,2.192587664409074488e+00
2.460746736436960624e-01,-1.918127446757565135e-01,-3.473870934055285908e-01
1.697435342448045725e+00,-1.414758967042318627e+00,-1.316244131089201463e+00
-2.038668072565217759e+00,1.735352365861717816e+00,1.761950666351647099e+00
1.770711388096690708e+00,-1.377730391701417645e+00,-1.593974808531276821e+00
-2.921897624639596902e+00,2.342783200243070851e+00,2.711785523908676776e+00
2.975744323285017146e+00,-2.366855447134987855e+00,-2.430904474967284123e+00
-5.109750954117565636e-01,3.798648754950304518e-01,4.710830236758705714e-01
-4.291934687364886702e-01,2.175406126755962954e-01,1.687368419602464364e-01
3.100854492222778758e-01,-3.019203091405195938e-01,-2.579233966225996100e-01
1.639625164741219887e+00,-1.168891134534710385e+00,-1.392670456886560659e+00
6.401639295430682219e-01,-5.491194230534267584e-01,-7.511417970269229638e-01
-9.060559425309876458e-01,7.926751536271735565e-01,8.892829904778958294e-01
4.991757882437354299e-01,-5.542807057449051777e-01,-3.774691936868941333e-01
3.440718404877821102e-01,-2.694977232509866427e-01,-1.113097688626071280e-01
-1.061635096656443844e+00,8.674467604584010783e-01,1.088763526500140078e+00
1.043618909412376228e+00,-9.702200785448406029e-01,-9.980289566696395331e-01
-5.174875087844865718e-01,4.219562487323300637e-01,5.080685833905562721e-01
6.363812413882616870e-01,-5.235963656526751997e-01,-8.571677436879929779e-01
-3.739471635144443473e-01,5.901193444550847378e-01,5.672119045992339847e-01
2.425641939202336506e+00,-1.750234789717343808e+00,-1.984761219859546344e+00
1.331011332933610625e+00,-9.236814561648258870e-01,-1.134867959850487606e+00
2.717806619205268337e+00,-2.059167429368492286e+00,-2.393223682487132464e+00
-3.551958919982634577e-01,2.547508588645439609e-01,1.691989072589027143e-01
-8.928364109022688400e-01,8.171541247952731624e-01,8.793573521414453920e-01
1.390075938318826587e+00,-1.179807832214751162e+00,-1.249779914657294322e+00
4.498882894652039277e-01,-3.675713646772278409e-01,-3.966208906875470785e-01
2.855962265741126327e+00,-2.285173774596622742e+00,-2.435002756597810958e+00
-6.673162930574386698e-01,7.026745115655955720e-01,7.681096256824618829e-01
-1.929500475290804040e+00,1.642852349368395304e+00,1.876436206416619790e+00
3.035715799543308169e-01,-2.934066062313232526e-01,-4.355372704476627166e-01
2.257149089147720389e+00,-2.057893314762968995e+00,-2.010517727752742623e+00
-1.478676082369746458e-01,2.967840326411850804e-01,3.173711466940368209e-01
-3.021484726109213703e+00,2.367603920290893615e+00,2.674027629501538605e+00
1.877353038540489905e-02,1.249880789500294187e-01,1.982102841028462181e-01
1.122678182531730906e+00,-8.075331178328037929e-01,-8.984596057209466302e-01
2.450506769797240469e+00,-2.218487065891327159e+00,-2.268405873449045540e+00
-1.518075573992096361e+00,1.442357572069500549e+00,1.464186692842641024e+00
-2.665827971734260893e-01,4.800724772393539369e-02,1.696330951258741560e-01
1.083775076400980586e+00,-9.312622110356008065e-01,-1.104033985672460805e+00
-1.364149828575905499e+00,1.110328551319365475e+00,1.305368839338040710e+00
-1.211923698272846073e+00,1.098591076978913339e+00,1.094306303844023276e+00
1.773310267225621573e+00,-1.451045408729791264e+00,-1.672739830500551861e+00
3.365050642874076181e-01,-2.109898301619031191e-01,-3.573816796090490966e-01
5.202832606931949433e-02,-1.310027847570182091e-01,-1.904461013295677962e-01
2.938215563455615076e+00,-2.548293000815663234e+00,-2.580798103275049549e+00
1.095215063981761272e+00,-1.013937061063004963e+00,-1.144823668358302404e+00
-2.908384121983188297e+00,2.453895471194549760e+00,2.570364758230877733e+00
2.825485743000959449e+00,-2.343355480305013394e+00,-2.326163712626533542e+00
4.601690530776102184e-02,-1.927390250722786080e-01,-2.408899042463379103e-01
-2.005969964907770464e+00,1.648333810457941473e+00,1.811669348391214740e+00
1.290650137811988785e+00,-1.295702160448849671e+00,-1.302068294262820114e+00
-4.293814399764674383e-01,3.099272111408965524e-01,5.135280494709070220e-01
-2.949384235945480826e-01,3.344669190828706284e-01,2.821277883557952726e-01
1.870049170339755928e+00,-1.597763816936604409e+00,-1.894155636061562342e+00
-1.077098465437136499e+00,9.995366244668530964e-01,1.047838396704817265e+00
-1.150000754488694987e+00,1.057825822455952913e+00,8.690562596713645727e-01
-1.371911087556844988e+00,1.078161560682745712e+00,1.079056279754380343e+00
-9.198283329210868997e-01,6.605677647592970159e-01,9.431566851231217852e-01
2.652138304891843434e-01,-8.884569860274528497e-02,-9.876994116706165616e-02
-2.808606532788135990e+00,2.508925996459421714e+00,2.540415841861928481e+00
8.436540141385486802e-01,-9.222323309156086335e-01,-1.065418882732682482e+00
2.264544018479951737e-01,-2.873297232094768061e-01,-4.439841009015626505e-01
-7.615683734559655638e-02,-4.453041380603098114e-03,-2.652490667621261108e-02
-1.048648053473808961e+00,8.544592147710206032e-01,1.081647650133582550e+00
-2.105882834972659712e+00,1.787144112862348200e+00,1.932713038716763254e+00
1.473705156917211045e+00,-1.210470324511687457e+00,-1.387121300161203941e+00
1.758601141921162458e+00,-1.345530271204663508e+00,-1.398577297583231127e+00
8.420895207459010434e-01,-7.061746212426412983e-01,-9.975240100812661215e-01
-2.206586192725257245e+00,1.635865072970447809e+00,1.909758434285121265e+00
-1.431231236106134397e-01,-1.258770756776763089e-01,-1.870540291748470085e-01
2.747858500174010565e+00,-2.406175207162388308e+00,-2.510289843094597462e+00
2.719208552824938341e+00,-2.389060065541722455e+00,-2.518299389859583570e+00
1.158335705217993450e+00,-9.951164491080872754e-01,-1.151847036334746166e+00
1.548196177682419350e+00,-1.125694170973178254e+00,-1.136863663018952142e+00
-5.173576553406117329e-01,4.422688886258047680e-01,4.661827533671393242e-01
-1.392214383897505681e-01,5.257443437381385809e-02,1.540162720760032411e-01
7.455184552120881492e-01,-7.137168131026406792e-01,-7.739489208907854856e-01
-2.681723673660822982e+00,2.311655455039180573e+00,2.432642981667771487e+00
-4.990920021415437557e-01,2.986556879240181428e-01,3.083081511219272763e-01
1.646290853355922623e+00,-1.368178316024096342e+00,-1.560493831822451938e+00
-2.530218400943921253e+00,2.148101725771229820e+00,2.386306730260906672e+00
2.061255040301129604e+00,-1.816287134978924689e+00,-1.733915152659581294e+00
9.278801892196568701e-01,-7.945462036420483098e-01,-8.376055947803898727e-01
-2.963189819877524389e+00,2.498036011651596500e+00,2.682904650498694643e+00
-1.275035771212701174e+00,9.858008253294729961e-01,1.092282912600715861e+00
1.877658261955972518e+00,-1.664629405464966405e+00,-1.778198699585083586e+00
-2.150327893427431913e+00,1.822054311023213691e+00,1.889016669222364664e+00
-1.150428313960565330e+00,9.459243378769327526e-01,1.037043395602045059e+00
2.415401131425415571e+00,-1.960112695445339615e+00,-2.096695300858412825e+00
1.920840688557632348e+00,-1.555473823416331669e+00,-1.664481490595002722e+00
-9.409613809095390691e-01,9.546740027184892341e-01,7.652141731618532505e-01
-1.570492360438531909e+00,9.928876837652167442e-01,1.124405695672488381e+00
-1.845704922643694790e+00,1.531432415028942673e+00,1.662999042181699805e+00
-7.603016461176312912e-01,5.784668595148294568e-01,4.275994725099352967e-01
1.816362772538757803e-02,1.427597073824528884e-01,-3.128268445799214231e-02
-4.687948534484416840e-01,3.259768562345372600e-01,4.912726764237144161e-01
-2.648452635744137584e+00,2.285537772347076224e+00,2.786963225292491408e+00
-1.997545130209607223e+00,1.928435267128164599e+00,1.817880937433712374e+00
1.097635739279193112e+00,-8.853607007973772758e-01,-9.462776253156962580e-01
1.973036824277926815e+00,-1.648807300787983543e+00,-1.712688814946792926e+00
-3.159618638657055723e-01,4.010162498286150012e-01,3.637085299335536814e-01
-7.977600699978679710e-01,5.461101881148519022e-01,7.573564435299253716e-01
1.575899816839253065e+00,-1.103487650094658434e+00,-1.456913249786170317e+00
-2.471540972502195010e-01,1.034555157341782022e-01,2.387837410757800982e-01
-6.623548703227392087e-01,4.773984295598045491e-01,4.260642959169609334e-01
6.801398926467741024e-01,-5.515981630794838386e-01,-6.467618757911705041e-01
-1.504655507022050198e+00,1.205273950735026522e+00,1.430890321926215902e+00
-2.511016732190011425e+00,2.022859550276276508e+00,2.208396796535997630e+00
2.602961244827263876e+00,-2.208151322135805561e+00,-2.292475299413702317e+00
2.071394254856012029e+00,-1.882621934665080099e+00,-1.816280605975180817e+00
-1.674205822875412197e+00,1.375567426259052484e+00,1.353196736991042703e+00
-1.147697893730392327e+00,1.059059646183529102e+00,1.001983888903719588e+00
2.902971492384462948e+00,-2.588756046701138569e+00,-2.485151794718591489e+00
7.316852700757819905e-01,-7.662300360128555532e-01,-9.763308555581132753e-01
2.653214902651723328e+00,-2.277933263992970137e+00,-2.502964421036286247e+00
-3.373276502766852647e-01,4.582249959809720635e-02,7.159165050055815716e-02
-2.428457953672883196e+00,1.981706168073694707e+00,2.401338814487842033e+00
-8.187115095746166915e-01,5.691276601710337779e-01,7.968465042636196927e-01
-5.719739674678305796e-01,5.268559182453430578e-01,3.642905851999124200e-01
5.744948944363934551e-01,-6.564016812248444355e-01,-4.802147307429123213e-01
-1.604462578160388064e+00,1.396396946583211340e+00,1.400673499964311119e+00
1.823543497698347782e+00,-1.604025213617669143e+00,-1.751020034134967096e+00
1.454142190512976773e+00,-1.065446452400409028e+00,-1.345247469588807254e+00
1.773773460653017331e+00,-1.652482481148803473e+00,-1.575344457704887180e+00
4.719613872288404288e-02,1.425354989552620431e-02,8.144741343474685979e-02
1.484111638020821244e+00,-1.283778159200825053e+00,-1.356403679566493325e+00
1.231893420189787980e+00,-8.926282466197400511e-01,-1.114670278952279103e+00
6.222389506337264869e-02,9.443313103446999285e-03,-1.515689914474540045e-01
-1.605125553295874363e+00,1.308221201691996516e+00,1.446539226928015065e+00
-2.625982508325691800e+00,2.155672870121592144e+00,2.278976015842286706e+00
-5.272413532497307598e-01,4.900839649647664165e-01,5.811501375931698021e-01
1.120305838199961324e+00,-9.336792218055447456e-01,-1.131915110527685675e+00
-1.426468662761374739e+00,1.228807062626514623e+00,1.298714134231985229e+00
-2.591458943185651176e+00,2.083487175240773315e+00,2.253708970565247771e+00
7.259631398420545167e-01,-7.366117866319336072e-01,-5.234829957534187228e-01
1.599715848069228619e+00,-1.293198348865164382e+00,-1.352068351948918057e+00
-5.008475678694543909e-01,6.845976083905137566e-01,7.326253899745596154e-01
1.511478535590277394e-01,-2.219409631494635715e-01,-1.382389705974476080e-01
1.523337909900254639e+00,-9.260089499261340285e-01,-1.212466228898698484e+00
-2.743341006532585072e-03,1.092436811038115102e-01,-1.684809753512722941e-01
-2.721934079851768828e-01,2.590481859373037765e-01,3.296007382415466758e-01
-1.685716538935336586e-02,-4.884170816781563396e-02,5.884257327437168901e-03
1.845198080571281096e+00,-1.506962449111879154e+00,-1.631443482589330030e+00
-3.853031006380874257e-01,5.586966159677307919e-01,4.460641400409607327e-01
1.520279335976083113e+00,-1.179862670913172762e+00,-1.379540996669326836e+00
-7.239986405216530807e-01,6.838757168047041590e-01,7.371422767483143401e-01
-1.989179798363077678e+00,1.497481577203039427e+00,1.615158840820945185e+00
1.604514997084579342e+00,-1.382397004120999418e+00,-1.393386815196904660e+00
1.763536861353288465e+00,-1.534448491593869424e+00,-1.702060393161419771e+00
-1.692281383424354191e+00,1.277698320448271696e+00,1.545618577367131596e+00
2.122432779629200628e+00,-1.890764765603617281e+00,-1.860105637193387729e+00
-1.664329043081550497e+00,1.466497916198846285e+00,1.321630763231053329e+00
1.403888662366389317e+00,-1.117171355295181412e+00,-1.145131463901004176e+00
2.576972874414398706e+00,-2.103820824459059935e+00,-2.330379769265353396e+00
2.666912616535836555e+00,-2.323821637827004682e+00,-2.365978241502064261e+00
5.989350072951651338e-01,-3.869850076797820004e-01,-4.113232456045553542e-01
-5.886437255486950404e-01,5.586552087546333700e-01,5.123753155276382643e-01
1.436780757135387443e+00,-1.092370497139112162e+00,-1.215143988205019454e+00
2.925840543085544532e+00,-2.355843567776017444e+00,-2.577649763238505809e+00
2.414430107411762005e+00,-1.974148958558362699e+00,-1.934332962751769358e+00
5.918659617648835969e-02,6.693364057700218472e-02,-6.875496771122072137e-02
1.286244655516111113e+00,-1.169014475184443125e+00,-1.201492441803476696e+00
1.437909980247127795e+00,-1.138112125429729504e+00,-1.455591130032853009e+00
-1.457565867604023291e+00,1.156683636528934800e+00,1.100676708157370953e+00
-1.813750490134367066e+00,1.551992709417530314e+00,1.722042487630725649e+00
-2.832809477015938437e+00,2.383852806982998729e+00,2.465142519504573748e+00
4.213338662818537639e-01,-3.909546117707878854e-01,-3.918888859866315744e-01
1.120070742814003317e+00,-9.254609843962662286e-01,-1.014867385378060094e+00
8.184778342151737274e-01,-4.727969340125127706e-01,-6.775777954136791292e-01
-2.405024008799000690e+00,2.026287049195274026e+00,2.254579747211892915e+00
2.052223920711221117e-01,-9.113742399009726325e-02,-1.230413182394363980e-01
2.227717727774209955e+00,-2.118919908841335964e+00,-2.062643429692034847e+00
-5.053528471675053924e-01,3.762662933489795969e-01,3.221708945742316477e-01
1.015813838690407866e+00,-7.610644345749171258e-01,-1.028958431559725550e+00
7.957997699143911641e-01,-7.849573399272554708e-01,-6.484854483113562384e-01
2.645122528267231488e+00,-2.117405963311433936e+00,-2.222749863642921486e+00
-2.951481463124725479e+00,2.389703857469831050e+00,2.644633662622395409e+00
-8.950005726064799161e-01,7.178445375352618951e-01,5.922701386720546912e-01
-2.806104339403522108e+00,2.172634721702681571e+00,2.512207146193357055e+00
1.126093620202842205e+00,-8.849468959148325542e-01,-7.588368462638191980e-01
2.397748744075996807e+00,-2.184935696237735314e+00,-2.040180471358601810e+00
-3.914431953017742383e-01,3.240346486709552720e-01,2.570816957564761585e-01
-6.706121946475130935e-01,4.493670126004242760e-01,7.523078557841226255e-01
-1.819702607926286797e+00,1.597786285049656474e+00,1.753721957290604205e+00
1.704056822804641547e-01,-3.375371333561168891e-02,1.152495078026246067e-01
-1.994917485516523925e+00,1.665473276974649197e+00,1.705549336588433551e+00
-4.107751584465663131e-01,4.664555742257595061e-01,4.696836519482251449e-01
2.573830225814128347e+00,-2.331014699066743745e+00,-2.341735838707964756e+00
-5.349334157583173210e-01,4.795947750840587331e-01,6.726651580847241574e-01
3.125807445450321964e+00,-2.395898912976000439e+00,-2.540303310107710821e+00
-1.434320014251395214e+00,1.250442520406559455e+00,1.270585768835512885e+00
1.668719457709886056e+00,-1.425091113485126737e+00,-1.593372248208653641e+00
1.681695180026953063e+00,-1.309282412912941007e+00,-1.481988724975761729e+00
-3.846142264025148583e-02,1.997854532798493815e-02,5.673446790401855122e-02
-6.356661692750064097e-01,5.012950238100679634e-01,5.757918598905353846e-01
-2.774402912853761283e+00,2.329851346730884565e+00,2.305791917146522874e+00
2.266326749990250355e-01,-8.244726399303065056e-02,-1.687997886574980899e-01
2.744496945355008322e+00,-2.408002534672280870e+00,-2.570332028697499105e+00
-1.559141824776835994e-01,1.515945333355294411e-01,-2.017410970566681921e-02
5.601239666761650415e-01,-3.237699056510473516e-01,-5.171258622817056505e-01
-2.357373300939250793e+00,1.717284982880380895e+00,2.026220473285499590e+00
-1.635819725567793093e-01,2.782881982985275782e-01,2.214356469922346138e-01
1.410294496435045675e+00,-1.163452511086680907e+00,-1.247044632243210938e+00
-2.498562570989010911e+00,2.134456010939377535e+00,2.433646243011594379e+00
2.731005769032463615e+00,-2.281606202906103498e+00,-2.309962991304772562e+00
2.608053886585032455e+00,-2.395437877237311941e+00,-2.418127834433908774e+00
-2.333799723475472376e+00,2.069099638294103372e+00,2.152866975615263190e+00
-1.507402700983005772e+00,1.279961692549413943e+00,1.396833752359363912e+00
-5.062801117641495541e-01,5.933539325860811564e-01,5.110633482676759654e-01
2.066096700858688351e+00,-1.783260799422512477e+00,-1.845099811308429594e+00
-1.227725602753212408e+00,1.088257944605104388e+00,1.212589423540946232e+00
2.873184962422782984e+00,-2.484981201291799557e+00,-2.507201578491263128e+00
-2.627717076700494925e+00,2.240777831375330376e+00,2.438957198699399864e+00
-1.570470757974770926e-01,2.792990868356913237e-01,2.856775186164056679e-01
3.448739532039398203e-01,-2.810396835050643638e-01,-1.549300690496968613e-01
1.336660219210196177e+00,-1.122882980660731889e+00,-1.110189953808329522e+00
2.634094392815095276e+00,-2.024594563940342873e+00,-2.482084960783549565e+00
-1.857035446393688227e+00,1.567838263826812017e+00,1.651479582235197308e+00
2.740880197048879641e+00,-2.421037510564139072e+00,-2.421968547092575808e+00
1.856008805827260577e+00,-1.457721080077635456e+00,-1.606781876823541122e+00
1.494795914183027374e+00,-1.100468252185471174e+00,-1.386195289984812895e+00
-1.644334938325341833e+00,1.351683230673768943e+00,1.473414572197973893e+00
2.278884971242059354e+00,-1.872068589646077807e+00,-2.050507443799358676e+00
2.492006963375184014e+00,-2.199140391995616284e+00,-2.356185848795164350e+00
1.396202762456537627e+00,-1.295356633371750776e+00,-1.318604465770735201e+00
-3.716781745489759481e-01,3.569062994010044343e-01,5.583230565321719574e-01
-1.801116980025468273e+00,1.349492067788192085e+00,1.596191070019652214e+00
2.369052629044275715e+00,-1.924473381871544708e+00,-1.969530273030236422e+00
2.397942923083125955e+00,-2.145227434171930181e+00,-2.230631553402244727e+00
1.202929218176491233e+00,-9.850314351119793255e-01,-1.197740621857289467e+00
-7.389077914509967204e-01,6.789124998535568389e-01,7.387086329877110558e-01
-1.920855493632175559e+00,1.558845766866472138e+00,1.765534055290010729e+00
-3.074776808801279238e+00,2.495418491596408828e+00,2.618276426909569299e+00
3.606472115387518440e-01,-2.881569431441921014e-01,-5.448452826010133920e-01
-2.366545357691263174e+00,1.802083764336623650e+00,1.941637697200094603e+00
-1.483862279967149478e+00,1.182514999319705717e+00,1.295790975183549243e+00
1.249735890626213264e+00,-1.081046073484450920e+00,-9.744888691964939120e-01
-9.110479367457738897e-01,7.984235548252837100e-01,7.271442334866298207e-01
-2.322670354654431613e+00,1.944559643294401230e+00,1.842664219675577364e+00
4.922397942784321190e-01,-6.444839779949852465e-01,-5.677697687554952299e-01
2.845144900751432004e+00,-2.403663791519776272e+00,-2.655233145816650708e+00
-3.109609420257787082e+00,2.400168666103775550e+00,2.789286006879874158e+00
-1.562865759131523591e+00,1.234153139202747163e+00,1.443168549744606954e+00
-1.880432372943561692e+00,1.580980655374897959e+00,1.638466641330984519e+00
-1.176723661207129901e+00,1.028771401925271611e+00,1.154129911003885400e+00
2.395151678253891969e+00,-2.008946537492425577e+00,-2.270483872650088220e+00
1.801417073153975812e+00,-1.437240804918244352e+00,-1.791208122496300126e+00
-2.537044076471548504e+00,1.835464016065988080e+00,2.020344653940005841e+00
1.918491261093334954e-01,-5.105585209130698854e-02,-9.734636846605972116e-02
2.341617708111909835e+00,-2.018531057064451684e+00,-1.950767595867675563e+00
