-2.113340152667301908e+00,3.932709610234082498e-01,6.727935679703732630e-01
-1.218847039684856082e+00,1.506976034477369164e-01,3.433012889936826739e-01
-1.052045037489916179e+00,1.584401904634923364e-01,3.175195087920539283e-01
-1.192147295167507615e+00,1.685183205564318720e-01,3.713360535062215084e-01
9.985535053986893672e-01,-1.329172376581659876e-01,-3.263496764032466357e-01
-3.814408734074268281e-01,3.351957996575125054e-02,1.735526849957626516e-01
1.252416487364241826e+00,-2.537690719127241312e-01,-3.561785201262659961e-01
-3.121861983541258656e-01,-8.305722081289267089e-02,1.871232008204345432e-01
1.668597430278856431e-01,-5.918964272311581787e-02,1.991161244543539210e-02
-1.771883559307537270e+00,2.743194375070740487e-01,5.781328962999026100e-01
2.125054035193858937e+00,-2.814335123539799532e-01,-6.105357116313890886e-01
1.102276695209460033e+00,-9.654967695823284124e-02,-3.492215827664090777e-01
-2.452992031184524802e+00,4.827300675479185843e-01,5.348836690965644847e-01
-2.139940280981181164e+00,3.145564814712274448e-01,6.195669502340392931e-01
6.303239110520285626e-01,-6.107382056078804883e-02,-1.869248108534532216e-01
-6.719640737905024919e-01,1.389709091452561163e-01,2.777195028470789695e-01
-6.187040538026320480e-01,1.231064236290569658e-01,1.897690559423506063e-01
-1.791277812724334506e+00,2.750593770835330076e-01,6.748752679853374792e-01
1.669988316276592277e+00,-2.815134304886806049e-01,-5.278226870792274150e-01
1.043484480396289271e+00,-1.162025419707899965e-01,-3.161644863253315618e-01
8.865335810104209013e-01,-1.061442891711805309e-01,-2.792521261174276681e-01
8.461172963158729576e-01,-6.479321451329132786e-02,-1.536199738053375674e-01
1.037000090851434075e+00,-1.494047695938100218e-01,-3.514868807140831830e-01
1.410328325923242865e+00,-2.154209331490491985e-01,-4.221593237164603107e-01
-9.528404132721967068e-01,2.042418485915399595e-01,2.921777555842181573e-01
-1.296831152057247749e+00,1.984310844793575057e-01,5.404652110375686158e-01
2.299037312863254634e+00,-4.442712734023026577e-01,-6.692476000350344734e-01
-2.327404185112873058e+00,3.709275551251389746e-01,7.438153884463672982e-01
1.398745498170979040e+00,-2.729516237149468560e-01,-5.057861356177176804e-01
-3.197203593000034205e-01,-1.904619139782487772e-02,7.955305014173212619e-02
-1.493181181038208738e+00,2.276650021546003932e-01,5.834985391347466965e-01
-8.330458660624877609e-01,5.957779553140020445e-02,2.857633694937614099e-01
-1.978682066463557154e+00,2.258441788399279671e-01,6.881772481365895366e-01
-7.205002428472024878e-01,1.156472843104226628e-01,2.234800376265163313e-01
-1.436802276635918751e+00,1.845021261261097778e-01,4.098665748301326128e-01
-7.479111374460852835e-01,8.666488001005515085e-02,2.523679773098945756e-01
-1.928871244612286429e+00,2.541845596244569627e-01,6.011496422413139529e-01
1.441069388703773324e+00,-2.691833841568286312e-01,-3.509997040056819229e-01
2.427529451108195069e+00,-3.763889921814814188e-01,-7.044812832684678172e-01
-1.241785353640693312e+00,1.928951368047391868e-01,3.008212917011028886e-01
-4.423339833568218360e-01,3.903741284545993867e-02,1.600240845625378050e-01
-4.134190148530402231e-01,1.980301891953288040e-01,1.282102493031086476e-01
2.032489328270497275e-01,7.853728055711668710e-02,3.155857314921831080e-02
-9.384099328459785117e-01,-1.006954534037449341e-02,2.797583304312613039e-01
-1.747560757186618519e+00,1.629440583696434852e-01,5.453329511354657599e-01
1.441863093873130941e+00,-2.745440374387144167e-01,-4.227607542516396699e-01
4.146798005503137818e-01,-8.272796791449597842e-02,-7.510048841513651541e-02
-1.270028910102071640e+00,1.494495335558341520e-01,4.066066732799360484e-01
-2.300811678414070194e+00,2.916568335084315788e-01,6.950941475583843898e-01
2.125011616330519715e+00,-2.746559866010082063e-01,-7.347999367283956085e-01
2.856552657223567770e-01,-6.894683043877161688e-02,-1.461769061842931872e-01
2.793009311424128338e-01,2.848778187035804974e-02,3.911065121860183430e-02
1.964749354154755157e+00,-2.722097338498714603e-01,-5.666081922130711268e-01
2.112289150723525299e+00,-2.795203683378539306e-01,-5.863939857610297457e-01
-1.546602132426390552e+00,2.633965406442088653e-01,5.169921702188016166e-01
-1.246629494876328348e+00,1.822382436708259723e-01,4.153130846497847806e-01
-4.823814233251446648e-01,1.681464724969277125e-01,1.377427160351064606e-01
1.576851773991589267e+00,-1.663661541820969925e-01,-4.100379615356498642e-01
-1.771814996949488741e+00,2.329932242579282053e-01,5.209699231283134724e-01
-1.528554418212092758e-01,3.443600580793913790e-02,7.623809241447490614e-02
2.469496277007484364e-01,-6.842549722091004205e-02,-2.535251506076306727e-02
-1.122100427436466985e+00,2.273368027352126453e-01,3.106967486769022790e-01
1.399506512574739681e+00,-2.542563364829769079e-01,-4.326321317371146224e-01
2.339935539013936694e+00,-3.826354209360149916e-01,-6.301066196690326970e-01
1.538082321473305702e+00,-2.176675365700987408e-01,-4.842935950904339593e-01
2.346816018821934691e+00,-3.298279732771373651e-01,-6.106668718234236071e-01
-1.561076022360960991e+00,1.665981851379903234e-01,5.228935119753720384e-01
-5.194404027974292015e-02,-2.634240685361260645e-02,1.453735577807999634e-02
-1.033777287393857991e+00,1.495954190391614314e-01,3.243228608116957568e-01
-6.688895032678332520e-01,4.189625671454446504e-02,1.521772854524509888e-01
-1.293110063820904987e+00,1.203423416657533745e-01,3.609778600366806423e-01
6.659859948470705504e-01,-1.509492158121028549e-01,-1.874254128620000126e-01
-1.846335583463457164e+00,3.394653512868928691e-01,6.261760900585143785e-01
1.358459259701599170e-02,-3.319442825828244903e-02,-6.379907088117098279e-02
-2.110081922438966195e+00,3.811683964022544724e-01,7.393895473160325693e-01
-2.412622477304949609e+00,2.707913395016309233e-01,7.679479219541783808e-01
-1.067367657055130703e+00,1.463531524766283343e-01,3.569054958835847224e-01
1.904629092034437088e+00,-3.035134615973310024e-01,-6.257764244570456214e-01
-1.238934128274154389e+00,1.377906601237585127e-01,4.011714713407118493e-01
-1.465227985327330895e+00,2.287547698466181334e-01,4.166352687869488425e-01
1.371077316195294271e+00,-3.279569878299630203e-01,-5.083456688341492224e-01
-3.386733976073271202e-01,5.923184526362267749e-02,7.819604760676085453e-02
1.683407948443931712e+00,-3.970337875543037964e-01,-5.590805704159603762e-01
-9.559430963728339156e-03,-1.075796363912240178e-01,1.939786290794726781e-02
1.204631771012420582e+00,-2.411708579760953597e-01,-3.589270895850090737e-01
-2.260738258261746125e+00,3.913320929200050369e-01,6.701914672535134176e-01
-3.355648663711547353e-01,6.677210377971212751e-02,5.453828861368735514e-02
2.449478192442776425e+00,-4.049400457066421044e-01,-7.081423855547199775e-01
-2.498159120314139336e+00,3.922963057132697884e-01,6.646831531512740199e-01
1.721851306793298786e+00,-2.393660671224278613e-01,-5.448711498154601429e-01
7.552775063162202596e-01,-4.456432816765278776e-02,-2.666828871406893287e-01
1.410381478510793096e+00,-2.432121684111803739e-01,-4.889057161508892357e-01
9.515051040430805296e-02,-1.629951937303055279e-02,2.953203791562878169e-02
-1.187142692852237724e+00,1.960856624763419320e-01,3.063068590454215423e-01
2.019987647351844995e+00,-3.854695439256328182e-01,-5.710253514473273562e-01
-1.828195603075218001e+00,2.746664497913872127e-01,4.265822852384614228e-01
1.864273882557926143e+00,-2.242500518996168035e-01,-4.953989945134046335e-01
5.294393908248889828e-03,-4.125666803274336686e-02,-3.134483364433627434e-02
-1.168970973736650265e+00,1.985867911484917869e-01,3.625117092059662594e-01
1.692662013052138370e+00,-3.368734476544739120e-01,-4.672074217201162560e-01
2.082893587851806227e+00,-3.650857452755749688e-01,-5.757743996933000208e-01
1.389943369894500957e+00,-1.707672315969820664e-01,-3.188900646478209921e-01
3.978094618174537467e-01,-6.330257341330365606e-02,-8.392040865816484396e-03
1.516845574279646058e+00,-2.521192788592042655e-01,-4.307152745869862187e-01
-1.805170319221990338e+00,2.584523009214647615e-01,5.668364834273380559e-01
1.434242794508142183e+00,-2.466988181114264933e-01,-4.626681659729454110e-01
-1.474153753389042087e+00,1.300615971898552437e-01,4.084205043224538034e-01
-1.562950455219496382e+00,2.539979964929334200e-01,3.794687024289984945e-01
8.896313342623679565e-01,-1.515170752369529861e-01,-2.689364515914637321e-01
5.827340653916313062e-02,1.042257807034477346e-01,6.888787923762214327e-02
2.296019460074457896e+00,-3.662801428615010124e-01,-7.258749463382939693e-01
1.423200246877481812e+00,-2.795968939086367899e-01,-3.737112942842535923e-01
1.180154059180776205e+00,-2.150419923033365932e-01,-3.086903804831415687e-01
8.422009017918715701e-01,-2.202648183449300856e-01,-2.902822596125096966e-01
-2.014656837849872151e+00,3.041639930511975676e-01,5.748512691407670072e-01
2.299470901652053367e+00,-4.287298482084299089e-01,-6.384126376187442276e-01
-2.918308891403918470e-01,1.430282287973294875e-01,8.348805685054451475e-02
-1.346281707391338900e+00,2.183763072132756944e-01,4.060990489897362554e-01
4.030442362911638293e-02,-7.527992065723789102e-03,-5.532273334689094026e-03
1.676420936196481692e+00,-2.427485091347071355e-01,-5.506928480402528692e-01
-2.281923192057579541e+00,3.136979107475535988e-01,7.003337194281915590e-01
-1.932578016785492681e+00,2.765580611886954143e-01,6.495012792115431033e-01
-1.799490409698353055e+00,3.492716718425923905e-01,5.816361678615409314e-01
5.775738500223444039e-01,-1.434192946315050177e-01,-6.788418666620942010e-02
1.309198353879265087e+00,-1.784592865415517982e-01,-4.437139985108342066e-01
1.722653019256069395e+00,-2.152477388170245531e-01,-5.227573691591236305e-01
7.071227365604993986e-01,-1.457542727299901697e-01,-2.312422328790031678e-01
-1.390408195548792580e+00,1.974703075363517246e-01,4.731736645665385876e-01
-1.574783230509628762e+00,2.449224398235998745e-01,4.175388492703547283e-01
1.570764019749000706e+00,-2.515962008284068907e-01,-4.598928536211895346e-01
-1.426292016524648654e+00,2.364954839624375804e-01,4.561283084609816241e-01
4.296210525675067116e-01,-7.906136812197109287e-02,-1.967019852762349474e-01
3.752691146059699556e-01,-1.370140186264647182e-02,5.072407040154991442e-03
2.377509730504112628e+00,-4.236321386120944776e-01,-7.901450916663853574e-01
2.433295127052404361e+00,-4.779726879682387186e-01,-7.419662931088635283e-01
-1.869465845238309720e+00,2.588482514179714644e-01,5.402305930935215050e-01
-1.540401602002293258e+00,2.257819456934866409e-01,4.191587534815295335e-01
6.512188986423235182e-01,-2.983960912907646784e-02,-2.629222459664748990e-01
-9.648649167839464802e-01,1.599839797269073938e-01,3.650718305689579224e-01
4.622014872783494766e-01,-1.327403064858356241e-01,-9.878469338719157722e-02
3.312048982314925172e-01,-1.075904416098838745e-01,-7.095954962277849221e-02
1.009062366222271079e+00,-2.219651111761430928e-01,-3.868707387380577734e-01
3.234687827644205926e-01,-8.934097975833238392e-02,-1.085522391288779309e-01
-2.263923800481401738e+00,4.512823100919974850e-01,6.690246299743076719e-01
-2.004122882720994259e+00,3.190979126376308761e-01,6.394153451277599931e-01
-2.340462354073802764e+00,3.692004897311229050e-01,7.051009644995778203e-01
1.041602000939281236e+00,-2.231388180242290797e-01,-2.931440115432578097e-01
-3.985599947183649516e-01,-2.991468617776378829e-03,1.126074141629598430e-01
2.283974395868772600e+00,-3.865188390096332416e-01,-7.068041269402229876e-01
-2.379097129892151052e+00,4.204213122111257195e-01,8.022469112008314696e-01
-3.328592920236010388e-01,1.933598622659103011e-02,8.933411732025313412e-02
2.026655085606773099e+00,-2.659276984480597461e-01,-6.171222289807896111e-01
1.950703775940887175e+00,-2.886541917335699314e-01,-6.548931140447139532e-01
6.097937581420047604e-01,-7.205311787371490584e-02,-1.828442521050596681e-01
1.986230869146564215e+00,-3.071487515327184781e-01,-5.980336025149451951e-01
1.740514042357734992e+00,-2.508181695238846931e-01,-5.320534235333240769e-01
-6.428944902918826143e-02,-1.841686544989411256e-02,2.530376637999141518e-02
5.664023936801853010e-01,-1.082332682039631178e-01,-5.143012665451999338e-02
9.857705889263740362e-01,-1.528607282935705580e-01,-2.279641908077333357e-01
9.468276321516599925e-02,3.436235801961624869e-02,3.735374833068190892e-03
-1.082495654563344623e+00,2.358228784656635213e-01,3.787408403016441771e-01
1.788104950010212413e+00,-2.830340778856188511e-01,-5.778312339536230136e-01
-1.784329701499834275e+00,3.223362425741367332e-01,5.622227943912587733e-01
-1.513181888683018672e-01,-7.084141902206057828e-02,1.037735037132309773e-01
1.385841944246646307e+00,-2.066296014128531366e-01,-4.721207347505017582e-01
-1.218970439402023986e+00,2.546007714858567472e-01,3.239583328078817215e-01
-1.883545465035389554e+00,3.544431070134344552e-01,6.914797367063719724e-01
-2.231805756306910027e+00,4.175597620382557329e-01,7.318928163942054477e-01
-1.953152209451966881e+00,2.871008261495435199e-01,5.911566550106570617e-01
1.553761257501809379e+00,-2.735776814121395617e-01,-4.091980384605004573e-01
-7.253474646390855041e-01,4.433309753693287503e-02,1.033668398274887046e-01
-6.426420916129773619e-01,4.603832848392772764e-02,1.336190007691674675e-01
2.345492578718560983e-01,3.783393979561436998e-02,-1.784058122655383660e-01
2.335993112745598843e+00,-3.282173139048285559e-01,-7.253875399148878023e-01
-2.670671516041238647e-01,4.524991028316779906e-02,6.228511449685829315e-02
-6.901502121758678054e-01,1.214226174719377216e-01,1.428904657169507153e-01
-8.924617374800030145e-01,1.323668663006101476e-01,2.532598672315210520e-01
-1.785062261014986884e+00,3.258737386352784648e-01,6.224510210824066858e-01
-3.988823780543706565e-01,1.096518267043604250e-01,2.234477057388526422e-01
-7.398662690809278963e-01,8.973733437698959425e-02,2.943720908646401124e-01
-2.304042208977843606e-02,7.594156143537411641e-02,-3.769798497748491715e-03
1.049629986234814183e+00,-1.661217217643482791e-01,-3.956762751459994010e-01
5.403514594001206373e-01,-5.543700807993902357e-02,-9.933623726355904349e-02
6.194029572748150914e-01,-1.081646796314685854e-01,-1.565492786262426272e-01
4.251186090674117790e-01,-8.870196304792588027e-02,-1.508694002890768604e-01
7.898366287842344124e-02,-2.690250423000778782e-02,-1.043918551792720473e-01
-8.136824709761558694e-01,1.104094652957059997e-01,2.046888191628127018e-01
-2.117022071578579467e+00,2.751878434104234050e-01,6.541696818618158993e-01
1.032673048807066785e+00,-1.470051641679094578e-01,-3.386870819493836837e-01
1.822423383119041285e+00,-3.323659182155929703e-01,-5.749182087449041800e-01
-2.382605055640318881e+00,4.197999164352438917e-01,7.952297685490107293e-01
-2.257526753915677364e+00,3.581911011081511109e-01,6.873032911657939170e-01
5.805116942573367300e-01,-1.432159579585130238e-01,-2.582469674523238390e-01
-1.064842443332290056e+00,1.401672209770089828e-01,3.994634278616181478e-01
-1.874416736601601352e+00,2.519028361082774059e-01,5.877059919898500739e-01
-2.392779096614375600e+00,4.252814020491641478e-01,7.770088338808558426e-01
1.098124791187157362e-01,4.922629666884765706e-03,1.330438227093901603e-02
-1.954470360410695218e+00,3.294092736618650652e-01,5.877837606993095987e-01
-1.743989420860674044e-01,-7.328315510912687680e-02,7.234521114290604071e-02
-2.213623989930192160e+00,3.574168896882695678e-01,7.097191350238427621e-01
2.858729366964571916e-01,-3.297200893366704355e-02,-2.175404499607611931e-03
8.541657808217990866e-02,-5.196886583509966601e-02,6.371729780805260313e-02
1.717656766216555164e+00,-2.947516279978981690e-01,-6.632109085289983330e-01
-1.734472346870543191e+00,2.381066993389246156e-01,5.693958666016336601e-01
2.107235279027895203e+00,-3.805906113463788931e-01,-5.722779429814043306e-01
-7.019765692822078629e-01,5.087638978590756228e-02,2.891415132320667158e-01
2.174204680531014677e+00,-3.013018117917808381e-01,-7.375263727886414156e-01
-2.003234762577839945e+00,4.249763326328778734e-01,6.598934720715187163e-01
9.868828421696021480e-02,1.154087696613531611e-02,-4.216920019424013483e-03
-1.992134479649352974e+00,2.687605018253556022e-01,6.781930608994324317e-01
1.035827690462596928e+00,-1.573443768032312395e-01,-2.552511674904726635e-01
-1.422215152102980218e+00,2.571307223138811215e-01,5.163281769579031177e-01
2.174973007353638021e-01,-5.551445282686709448e-02,-1.083070040562028463e-01
-2.366537673451828638e+00,4.089888407119288138e-01,7.857865964079283616e-01
1.341865610675562648e+00,-1.432141251654731051e-01,-4.778872784946433527e-01
-1.495628316161062621e+00,2.857337657724989821e-01,4.881208043288471354e-01
-8.747620893673053732e-01,2.225003380889621907e-01,3.294806465879148716e-01
-7.671767454429172517e-01,6.716454006815184008e-02,2.109147732731833091e-01
-2.139603280095761839e+00,3.606252575422759232e-01,6.745283122575128631e-01
-1.750657849820638878e+00,2.697298580032597703e-01,5.293409138893233612e-01
-7.739449968058867979e-01,9.377673688634359517e-02,2.888838691993318997e-01
1.260913217495509775e+00,-2.191036957970287080e-01,-4.654356964478107428e-01
-1.713806544284796507e+00,2.784433134101694240e-01,5.439547489624905197e-01
-6.792506729564846968e-02,1.013055851172446342e-01,1.249937355800340433e-01
1.868990694831029475e-01,-1.171707176775928574e-02,-3.117310457474329818e-02
1.145298137161748109e+00,-1.635690428803997232e-01,-2.754655047600046980e-01
1.487319555073962629e+00,-2.545927767131737074e-01,-3.789577597111336571e-01
1.933203387058820111e+00,-2.869045853976839311e-01,-5.357669898887367221e-01
1.832740094861262214e+00,-2.893452642081549842e-01,-4.974610611186512932e-01
2.016111902523833432e+00,-2.376846874170342738e-01,-6.714144646989157472e-01
6.532331799822491680e-01,-1.180529853557009401e-01,-2.161217589212568735e-01
9.867474684565682441e-01,-1.560874001174842596e-01,-2.118458856382473277e-01
-1.626803752111747325e+00,2.715654140028438412e-01,4.965422334652523917e-01
-2.162989613128409427e+00,3.953215262947111786e-01,6.360683126422594924e-01
3.394149169666155208e-01,-4.794755682819934473e-02,-9.155133315118446635e-02
-2.283184831706617679e+00,3.231422130862586783e-01,7.014728956315439135e-01
1.246996666201547033e+00,-2.453081083253537131e-01,-4.563438127734041339e-01
4.860053467332798860e-01,-6.774872498763075124e-02,-1.522227984712072046e-01
1.923880076478627910e+00,-2.488958607273801804e-01,-6.269903906550498007e-01
2.103883553001370199e+00,-2.609251369250326635e-01,-5.615680237371892813e-01
5.160570278437369707e-01,-6.272056168113929187e-02,-1.427670128867451760e-01
1.206073851415975229e+00,-9.678746095751900036e-02,-4.168493733150988589e-01
-1.669307293217443311e+00,2.507548002425458722e-01,6.157569053634560641e-01
2.431347931402021878e+00,-4.037987235541661835e-01,-7.583517183121355476e-01
2.152469939785741193e+00,-2.984860375044239844e-01,-6.740075107139734678e-01
1.978166288493160341e+00,-2.886652404055983778e-01,-5.622976537981327905e-01
1.123197059415459886e+00,-2.820342372929940389e-01,-4.699816283994005528e-01
-1.217154486110178402e+00,2.530663581807181539e-01,3.231783085782216070e-01
-2.185559723641450347e+00,2.689642028922893391e-01,6.611863660213906924e-01
-1.953857859887656812e+00,3.337055322506241595e-01,6.145934499306505705e-01
2.383464071376204252e-01,-7.978248747119587314e-02,-3.232168305237878569e-02
1.302437666015327400e+00,-1.465307493041103637e-01,-4.803551129840661904e-01
-1.640733607070391065e+00,2.233530752279125897e-01,5.326977012720055527e-01
1.399031423057777168e+00,-2.667739073262156424e-01,-4.500780495519335345e-01
-2.362739227853289492e+00,4.405888513791906824e-01,7.216858681868044689e-01
2.284065862267666169e+00,-3.436242458280119871e-01,-8.148067800856650944e-01
-4.009978468910334604e-01,8.775350011928498284e-02,1.275769936343411903e-01
-2.200953276520090374e-01,3.652633795881193163e-02,1.637321585519525557e-01
2.601772884872908809e-01,-1.555742891248053719e-02,-8.266066213405068308e-02
1.226737093781350652e+00,-2.608392113003366597e-01,-4.389569362000224073e-01
5.856128103625907189e-01,-1.358327484514749162e-01,-1.196840979058655247e-01
-7.741206380255519770e-01,1.269643637218488552e-01,2.108108621399932270e-01
4.310900076569056383e-01,1.473818194848162434e-02,-1.407210474087349505e-01
2.034806701919737448e-01,1.641002745895738316e-02,-1.350533783925423059e-01
-9.005060651384544368e-01,1.888996493484127459e-01,2.370416078016619743e-01
9.037866853449367799e-01,-1.147237527249262840e-01,-2.479463765031333922e-01
-4.307428410007906328e-01,8.471593901743171284e-02,1.209982432935422375e-01
6.122984541392918478e-01,-1.814252743858166261e-01,-9.291667890543858777e-02
-4.869546120326952443e-01,1.675466136613458848e-02,3.353228905104140012e-02
1.796346681129856737e+00,-3.518839750700148428e-01,-6.670898800531727124e-01
9.879714620209082421e-01,-2.231626031308764080e-01,-3.558151341957714320e-01
2.108147221338833255e+00,-4.132053940865395014e-01,-7.047515303588363089e-01
-2.202219392528214637e-01,1.079926759876331278e-02,1.268694246359348687e-01
-7.772936811698122339e-01,1.119236184468902356e-01,2.062608657349712937e-01
1.134292840362556953e+00,-1.701267097133764838e-01,-3.516779117464298721e-01
3.590647585356605553e-01,-5.801450857495192570e-02,-1.159991380428423702e-01
2.232650801961119313e+00,-3.591317388726303350e-01,-7.572539677085917686e-01
-6.537225074095964761e-01,8.511110143639652459e-02,1.256530881313318582e-01
-1.625690497436965032e+00,2.823125983163924935e-01,4.540291039859052358e-01
3.175841892301813907e-01,-7.839182909151490297e-02,-3.702882654435078746e-02
1.888149671296863508e+00,-2.137245602730864502e-01,-5.726319760425057082e-01
-2.485337871184078729e-01,1.327261039926933180e-02,-1.039283561058446971e-02
-2.377507379922434438e+00,4.330099044923879092e-01,7.786691859919639969e-01
-1.119303844346071081e-01,1.529859092033109338e-02,-5.928738311359896263e-02
8.234566150776595483e-01,-1.570048278405080933e-01,-3.136469300958983353e-01
2.073861385033360261e+00,-2.673857714556028276e-01,-6.014456744460292548e-01
-1.330544745606261570e+00,1.588554859668279140e-01,3.570465251461992229e-01
-1.268591701056071275e-01,7.913673853445835071e-02,8.792919731375829773e-02
9.337065043162694478e-01,-1.722609006068881732e-01,-2.428284233885504573e-01
-1.122929032485462608e+00,2.125485367931775338e-01,3.271554317470777851e-01
-1.016588428042563219e+00,1.222992943418096529e-01,3.040377673938317038e-01
1.454192141178150433e+00,-2.650422620891594860e-01,-4.309232554686963090e-01
2.659124221972685720e-01,-8.930032483473444860e-02,-7.350439418398349578e-02
1.247416713736279742e-01,-2.099602525487071630e-02,2.311582741575502614e-02
2.396665952242370334e+00,-3.173576716157510136e-01,-7.568354725244046399e-01
9.807940704700389700e-01,-1.552461159399342039e-01,-2.368970543260749129e-01
-2.352331192126271286e+00,3.465494366979653962e-01,7.467767450631175308e-01
2.210710275665509705e+00,-2.945072648315801289e-01,-7.673637076178672078e-01
1.641277531912122001e-01,-1.289084988171126413e-02,3.942042952704330472e-02
-1.619533907652885629e+00,2.696744243027174859e-01,5.066523702046737965e-01
1.176949663034167370e+00,-1.271376489448604596e-01,-2.883871543092176304e-01
-3.744528493691202664e-01,1.174579975792468256e-01,7.914783384623845508e-02
-2.778641339158759993e-01,8.658679101380042237e-03,6.881365611838005658e-02
1.603937439768788442e+00,-2.971435797823012148e-01,-4.217920719379750771e-01
-9.382980575888130170e-01,1.251744081142066867e-01,2.516664050784859774e-01
-9.114466940204534184e-01,5.234294317092777482e-02,3.288389259030614631e-01
-1.033681612015252105e+00,1.493820388220117867e-01,3.859225666290362899e-01
-7.463088820748989827e-01,1.995284094707370504e-01,2.072954604455636285e-01
1.171379332647792398e-01,-3.868925035035646054e-02,-1.034344953157404490e-01
-2.343671824225779243e+00,2.995357543706214098e-01,7.043107475717511612e-01
8.718900923359799160e-01,-1.263432507012205441e-01,-1.355119281933686859e-01
3.038031532409397606e-01,-7.199562421879836249e-02,2.376519292299542757e-03
-3.394662627193032866e-03,4.253129747043432780e-03,4.349512233033088482e-02
-8.907644980413164104e-01,1.896381318843578800e-01,2.327016417169510409e-01
-1.732011686103483106e+00,2.712105608494477238e-01,5.233236841441633036e-01
1.209161819181217457e+00,-2.174311101230897159e-01,-3.587447671005138394e-01
1.316801641242537402e+00,-2.111368720100698648e-01,-4.917604902149921298e-01
7.676117255978864851e-01,-1.882705236788826397e-01,-1.554995071730923273e-01
-1.686638701590514655e+00,3.383441233612846655e-01,5.809222622929784974e-01
8.506396208793397251e-02,7.667454206742547324e-03,1.170995761507186289e-01
2.283581750168947710e+00,-3.206425179766911882e-01,-6.841166326372331019e-01
2.274630505349307441e+00,-3.257885825451609096e-01,-6.686135427819075439e-01
9.880724098720526927e-01,-1.746170716285632418e-01,-2.662945636586817599e-01
1.104527252885312283e+00,-1.769760015420397126e-01,-4.567948534842677932e-01
-4.237010246435429228e-01,6.242116236594816986e-02,1.305722672976745158e-01
-9.924424279569982188e-02,5.274480986910169700e-02,2.964745894070552543e-02
6.745242698302588158e-01,-9.457470732620175402e-02,-1.620541816025116433e-01
-2.209009871153026161e+00,3.215092831672554108e-01,6.725416248064431946e-01
-3.119315904050509736e-01,6.259891761982222524e-02,1.625474347959970089e-01
1.360500957342119621e+00,-2.403187484741168833e-01,-3.978058085873267258e-01
-2.103647116094871095e+00,3.473621749099774503e-01,6.133551834787838164e-01
1.665318531647603351e+00,-1.852837916214868375e-01,-5.487457502969628198e-01
7.609291779537774580e-01,-1.119374840809650440e-01,-2.337917179830939773e-01
-2.418180066067787237e+00,3.757299588180480487e-01,7.455030116051633016e-01
-9.857653881067489632e-01,1.756781616400455714e-01,3.375379519022383978e-01
1.589891545873977963e+00,-2.324321616188383122e-01,-4.519530950738137598e-01
-1.738127376758764164e+00,2.492834192072699018e-01,5.547088869912155662e-01
-9.283504578541159624e-01,1.537567906316983091e-01,2.910227724330256560e-01
1.911434956949609631e+00,-3.056003002433964055e-01,-6.309161433830912102e-01
1.517823390879596390e+00,-2.433399102519335222e-01,-5.025006070338060571e-01
-7.977556233550718856e-01,2.607435904889639569e-02,2.542347419540798570e-01
-1.054975745908310669e+00,2.285265234837287329e-01,4.733631403566489482e-01
-1.494277351330304482e+00,2.409540064176342866e-01,4.668124609128428970e-01
-5.064885772741379855e-01,3.229584805335220660e-02,2.551758132781380972e-01
-3.881035767781230300e-02,-6.974291618610095611e-02,-4.262818922911265455e-03
-3.800695669513683983e-01,1.095119977977285081e-01,1.033271858601475940e-01
-2.316331152235523660e+00,4.473936182582174959e-01,5.718385321038744751e-01
-1.724299819552715940e+00,1.599611325937030648e-01,4.952963103996105843e-01
8.643460279321361073e-01,-1.387748411452002506e-01,-2.883864146420308527e-01
1.579097992201489609e+00,-2.308108037766977427e-01,-5.143890420335954783e-01
-3.349425929976516669e-01,1.334399627372214944e-02,5.808221889646544150e-02
-6.162050832770085140e-01,1.629846333245540402e-01,1.948943195260565420e-01
1.212812737237618954e+00,-2.988780683822089834e-01,-3.938909564271884656e-01
-1.678991110107381224e-01,7.785076417896710788e-02,6.073823764279132759e-02
-4.499967149855685355e-01,5.684172657086628000e-02,2.099932847056946161e-01
5.577147178730940125e-01,-1.053729113601202250e-01,-1.641319460943752861e-01
-1.228260228363297735e+00,2.390647143058111934e-01,3.633956181689941833e-01
-1.991564688666247029e+00,3.333274145025235669e-01,6.493067085188999332e-01
2.106976466148776428e+00,-3.027290446331319385e-01,-6.700199705123358607e-01
1.720549410552276948e+00,-1.886738102133518613e-01,-5.325372653022226732e-01
-1.296361174399921490e+00,1.710626107484550795e-01,4.609943092728908676e-01
-9.577216591638851861e-01,9.675612581308509763e-02,2.957819529367428091e-01
2.371830988128313944e+00,-2.634958995095246226e-01,-7.618244235333404557e-01
7.618751535622715343e-01,-1.406459310196412071e-01,-1.056602342882398127e-01
2.215587451278119069e+00,-3.544423282639178052e-01,-6.424900689229209316e-01
-1.052009348088344814e-01,5.733134149473897989e-02,1.459145535181075315e-01
-2.027905632876106257e+00,4.027543060913063577e-01,5.636859724493971102e-01
-6.424341774564796825e-01,1.705128828414793629e-01,1.951288923130130581e-01
-4.299539285742178252e-01,2.616459540626744559e-03,1.798518398298752097e-01
5.189435046254748940e-01,8.671619211874148636e-03,-1.505805284869138339e-01
-1.307549852426426185e+00,1.684484546925562598e-01,4.152510743184243958e-01
1.547747177403422381e+00,-2.389112235298586906e-01,-4.334093536507813704e-01
1.136983116673550676e+00,-2.574560545470252482e-01,-3.622700184784343747e-01
1.495318484923927604e+00,-1.524540280211694465e-01,-4.503820670429664053e-01
-2.478930535566416932e-02,1.495694149020059677e-02,-4.279826136465703090e-02
1.227692884993215161e+00,-1.796158501473395508e-01,-3.696702938184352472e-01
9.508093422416397100e-01,-2.135443298655301803e-01,-3.131016026567922661e-01
6.088804023809056554e-02,-6.473755961489613409e-02,5.932456797300994338e-03
-1.290834448905650689e+00,2.189634500117998428e-01,4.063782896167603131e-01
-2.087076838803322509e+00,3.223302799359366588e-01,6.855367568398679223e-01
-4.833383130330425326e-01,8.417975199038106593e-02,1.067941974462279509e-01
9.511553872554600053e-01,-1.863258125535751930e-01,-2.538504728209883821e-01
-1.176366954176998325e+00,1.729517553574564381e-01,3.566194464823998489e-01
-2.044963149435081728e+00,3.369958404282785702e-01,6.762999288397472109e-01
5.922320369023946762e-01,2.679693704960559898e-03,-2.122016843518813867e-01
1.251364279985215600e+00,-1.919162132999334691e-01,-4.267362891246689327e-01
-6.034401777421535273e-01,5.497561526305927426e-02,5.358895445136315633e-02
1.589875709471138265e-01,1.766800403759906379e-02,-3.574742663540255577e-02
1.051896326176101404e+00,-2.777628581302789001e-01,-4.306682143509943939e-01
1.746960998123192610e-02,-1.000531004345326241e-01,3.953147033944217487e-02
-2.620639003590241045e-01,5.114344511205210636e-02,4.790885598019287844e-02
1.295883340744796719e-02,2.383122316051030851e-02,7.790884168623717944e-03
1.474101924753036252e+00,-2.397937880424330925e-01,-4.746453401391608207e-01
-4.352466836795255145e-01,-1.036345268893362065e-02,6.878551723244322180e-02
1.203872594721150602e+00,-2.339792335929989642e-01,-3.838441973134126273e-01
-6.465841476193725512e-01,9.056708900592372324e-02,1.610395120574164840e-01
-1.491906449454819983e+00,2.597809387596474728e-01,5.487693866074224713e-01
1.299817202451075460e+00,-1.715016106760994807e-01,-4.173141498721709697e-01
1.493582743976052729e+00,-2.406257769804136526e-01,-4.174140257820683209e-01
-1.330294587266869222e+00,2.779262650795703005e-01,4.256055698111417818e-01
1.748395404006870990e+00,-2.081015529788600438e-01,-5.466690230520279137e-01
-1.317348750150901360e+00,1.229336876690625968e-01,4.618967130848961600e-01
1.077175925127569434e+00,-1.613164584117653400e-01,-3.848076845103562960e-01
2.076485256231976884e+00,-3.528770231603425289e-01,-6.504303336272240221e-01
2.187564210773453421e+00,-2.917733860222075370e-01,-6.810924417875962034e-01
3.993472769261878774e-01,-7.791179698950959076e-02,-1.845523562252785466e-01
-4.964285946962339047e-01,4.299638022491885508e-02,1.517532618389572652e-01
1.098477044539023728e+00,-1.999148704910916619e-01,-3.845062877561353232e-01
2.321668205794679363e+00,-3.903708546118379585e-01,-7.555361040320287547e-01
1.859985038074655428e+00,-2.446451676649051277e-01,-6.691328939210612337e-01
1.012243395602812138e-02,-5.877875496498122243e-02,-1.365530716152792146e-02
1.094009738457224046e+00,-1.422370598181744716e-01,-3.129985054221194885e-01
1.199358224097014425e+00,-2.638804149605171179e-01,-3.263898745106611488e-01
-1.086470550357017117e+00,1.387118547358207055e-01,4.207698491288421883e-01
-1.516475567324397034e+00,2.481019209969070050e-01,4.366749645398281254e-01
-2.275499704032761361e+00,3.269401943814602141e-01,7.367270198962373451e-01
3.607618971148872644e-01,-4.285355085381518936e-02,-1.027674058187305756e-01
9.073315772953797209e-01,-1.496907624988736696e-01,-2.820047837163899285e-01
5.650642490414571339e-01,-1.678990042745980016e-01,-2.256314762982618294e-01
-1.989033698895464219e+00,3.316556603601227837e-01,5.866040202241504797e-01
1.151863447135467039e-01,-3.696834131765845688e-02,-6.838623431541111797e-02
1.923465705643205181e+00,-2.029279012743205601e-01,-5.445489226779840486e-01
-3.467960556168512842e-01,3.763323609367863476e-02,1.606659875021193562e-01
8.315381393732660387e-01,-2.035957946891258363e-01,-2.313062767782914364e-01
6.667992270356147833e-01,-3.135802212404939504e-02,-2.151591562467414231e-01
2.056870077207106462e+00,-3.211907898066874711e-01,-7.091307768300727510e-01
-2.362375178135827536e+00,4.036881383388525313e-01,7.512275430105516127e-01
-6.408783835276240515e-01,5.372280068033836314e-02,2.782787259052388329e-01
-2.208303965266862345e+00,4.222851242326283727e-01,7.167907620135381963e-01
8.043140838422775385e-01,-7.943968347805351049e-02,-3.472327477123079431e-01
1.972086123605642394e+00,-1.949562781811475243e-01,-6.312695430862802493e-01
-2.833645634278887937e-01,1.885434239420127195e-02,1.219722398735532815e-01
-5.546244079635854751e-01,1.802084732840101011e-01,1.362654683545388434e-01
-1.545646468484360714e+00,2.417121587243039327e-01,4.310213255171664315e-01
4.408656099501143816e-03,2.676605583210274475e-02,-1.098422374380729483e-01
-1.586915634993672386e+00,2.251138090526834390e-01,5.264005504758295650e-01
-4.139310579400060086e-01,3.793775146691861361e-02,7.740189262811562887e-02
2.164352324888920265e+00,-2.665962693194714461e-01,-6.414974785655813694e-01
-5.127187627539625536e-01,1.206355069057054863e-01,8.878107063258711129e-02
2.361067343369427363e+00,-3.921093043763958508e-01,-8.609223949890849603e-01
-1.176100105313703681e+00,1.560257067057529978e-01,3.667448247563722119e-01
1.397314168219813357e+00,-2.324418334554681775e-01,-3.996480158513893155e-01
1.317919521179746090e+00,-2.421987596543847265e-01,-4.350825358265061893e-01
-3.438151971559605391e-02,1.724743578239720798e-02,4.672556794393995482e-03
-5.059737831157232746e-01,9.433862377063371996e-02,1.605774995301516295e-01
-2.189021612419665530e+00,2.851723573160618863e-01,7.476904317656765109e-01
1.318886258700444625e-01,-5.921443299830967538e-02,-6.799201909550679768e-02
2.304520853942527037e+00,-3.398509921492995911e-01,-6.680300488151790228e-01
-7.860106610602320132e-02,-4.310571133897819068e-02,7.754379710156990291e-02
4.053677281445557945e-01,-1.330041458578513913e-01,-1.415801465187445929e-01
-1.785714894329181845e+00,3.686706831002579121e-01,6.246157823066234016e-01
-2.112230426935428340e-01,-9.705777081545864313e-03,2.066108297164468213e-02
1.131048777769951830e+00,-1.787105076156030314e-01,-3.625037886624600802e-01
-2.109106306193529345e+00,3.640719670442498224e-01,5.868770028619131329e-01
2.164390903043974301e+00,-2.990667920923551493e-01,-7.265781862564167914e-01
2.221309751549596534e+00,-2.723520647608382861e-01,-6.384748413669759648e-01
-1.956215711284744474e+00,2.693567099484058813e-01,5.755035034244747605e-01
-1.244706754386959213e+00,1.984091762453355501e-01,3.713695356463755370e-01
-4.934351848406480223e-01,1.639068148109816547e-02,1.112996661079156541e-01
1.692625188497556055e+00,-2.368989086581711756e-01,-5.250884817140952787e-01
-1.056860610847004667e+00,1.690325784011220411e-01,2.835391409293271936e-01
2.335318176582557914e+00,-3.074528559198749789e-01,-7.441824735758436615e-01
-2.174717309927097553e+00,3.434605161765432735e-01,6.462214657784175476e-01
-2.327246098071763525e-01,1.077429637570281179e-02,2.039880796459075333e-03
2.231003880231357539e-01,5.995746937624275678e-03,-1.247339445908296623e-01
1.054538242794039071e+00,-1.369944902825555588e-01,-3.603847098484407319e-01
2.110508037710884466e+00,-4.444313357329949810e-01,-6.434208122865728852e-01
-1.505935260839343037e+00,2.243784327861862715e-01,4.743383714686098540e-01
2.257072873767373533e+00,-2.836559032274117431e-01,-7.016201047237823341e-01
1.449233288978808210e+00,-2.524699267899306876e-01,-4.868371082479984735e-01
1.171878622693794059e+00,-2.637240637469739912e-01,-3.714888086311670112e-01
-1.323702447008486605e+00,2.168913503699998191e-01,4.180992381059459584e-01
1.837020297434182714e+00,-3.039692020411348117e-01,-5.774285163218767503e-01
2.104986831136416825e+00,-3.111821773797968094e-01,-6.009527535390229991e-01
1.202365552423117379e+00,-1.488760125239600440e-01,-3.357555027819843496e-01
-3.966924009641669135e-01,1.054320236957587420e-01,3.936506862636053594e-02
-1.395000250875106484e+00,2.832748808491997172e-01,4.649139433277804101e-01
1.845245527484110415e+00,-2.693658473880370940e-01,-6.396386460611831470e-01
2.023614179236881583e+00,-2.754877191412337112e-01,-5.864604317466588501e-01
1.008649751601572664e+00,-2.009679606324772660e-01,-2.771708140977006130e-01
-6.480785046915632508e-01,9.531537363714484568e-02,1.680161144154191377e-01
-1.554238310883735430e+00,2.764096380753645055e-01,4.781788871445861178e-01
-2.415643827530376875e+00,3.716498104314537865e-01,8.153376740100939379e-01
3.643634373348297317e-01,-1.263094641568774934e-01,-3.865188351113162807e-02
-1.789547969404377437e+00,3.077975446196202225e-01,6.476356789545675285e-01
-1.168892826638844751e+00,1.989129125333576054e-01,3.861853902857762533e-01
9.754657655444655129e-01,-9.416021935092992734e-02,-3.515517352948412944e-01
-7.207838853509220822e-01,7.025883307549928014e-02,2.520444608841564404e-01
-1.799881054542310066e+00,2.112338146665312388e-01,6.471254606203937776e-01
5.295497151026280491e-01,-1.338845076821788480e-02,-8.980549762980741257e-02
2.351317178663722363e+00,-3.856946873585346269e-01,-6.966832125759061523e-01
-2.446243749714727134e+00,4.727267292485535233e-01,7.931844774289574795e-01
-1.254188186418693451e+00,2.406547883710349611e-01,3.881614194457555511e-01
-1.510683118507597289e+00,2.183022793278479035e-01,4.885698384661918969e-01
-1.004832461612261474e+00,1.648935548895028025e-01,2.739957041299903584e-01
1.986266103790958359e+00,-3.424195740492737006e-01,-5.783420324833459247e-01
1.495544703229921391e+00,-3.150708044086211745e-01,-4.164356254698491355e-01
-1.861315980062191677e+00,3.472158673286708241e-01,7.109681139282815199e-01
8.883068604078395158e-02,-4.201774861094841745e-02,-6.887660082224836278e-02
1.868558593634526810e+00,-2.217038724035853559e-01,-6.288643372158484457e-01
