-1.452412631891642159e+00,-3.054628711200945812e+00,-9.995684930307863203e-01
-7.015345522389513366e-01,-1.771008537282777073e+00,-5.986873176678461084e-01
-6.591706327934683252e-01,-1.528130503246460492e+00,-5.027225044598956361e-01
-7.388148838991231981e-01,-1.744690713907342206e+00,-5.499938426618629084e-01
6.170618825971003751e-01,1.475481907132569104e+00,4.374626646558533172e-01
-2.427896964468982677e-01,-6.041211927546992211e-01,-9.710714560933363104e-02
8.626139769133351898e-01,1.772141927935013017e+00,6.558645577231414503e-01
-7.179761638264234302e-02,-5.794602455818128606e-01,2.813365876155113007e-02
1.074409251699760259e-01,1.794922722796698233e-01,1.845671474311519900e-01
-1.148595701119125456e+00,-2.598154731140774665e+00,-7.949865984708253119e-01
1.257200597039649370e+00,3.086120761200353169e+00,1.037076353586495303e+00
6.032855950487525654e-01,1.646867508082903164e+00,4.740765109884196304e-01
-1.564765244214633810e+00,-3.372298300835029128e+00,-1.484921514270524767e+00
-1.313011601569439524e+00,-3.095127188522476480e+00,-1.052480808048812166e+00
3.450446610394600766e-01,9.304779012167874175e-01,2.900012744366468054e-01
-5.224572456159997103e-01,-1.005732995757562698e+00,-2.430722484091098479e-01
-4.318307492638249756e-01,-8.855756748674111778e-01,-3.054151733965820292e-01
-1.216079351053225954e+00,-2.686540910273010230e+00,-6.877286246404490377e-01
1.103983115384761682e+00,2.426065226225857518e+00,7.814175756132277773e-01
5.968260859401223195e-01,1.537138639640924564e+00,4.784264692481586256e-01
5.243641948128590080e-01,1.309118248123247286e+00,3.963168037214536699e-01
3.763925977647938348e-01,1.194410500034366551e+00,5.051387575397807694e-01
6.649402105790034323e-01,1.534736429708743133e+00,4.435018514783854449e-01
8.856757048325875070e-01,2.044752425111827421e+00,6.797469753553838645e-01
-6.856641090874814326e-01,-1.356401836177213882e+00,-4.771263706122246817e-01
-9.127495670260333815e-01,-1.979070423689331060e+00,-4.316329487856970237e-01
1.562963931548045249e+00,3.273988353400607565e+00,1.174540800357581904e+00
-1.513654576550809372e+00,-3.397252757124678890e+00,-1.068854657525134311e+00
1.018032607178362303e+00,2.054711629152977448e+00,5.904545568163509506e-01
-9.463478213375198234e-02,-4.872610626936323408e-01,-1.437209935315224285e-01
-1.024871348278405758e+00,-2.253890567087054375e+00,-5.459332986721946446e-01
-4.510776232537723196e-01,-1.265575231095844799e+00,-3.244266746617467390e-01
-1.196448571634208369e+00,-2.969654949524193288e+00,-7.970109251841935860e-01
-4.653801526384201970e-01,-1.046870437491423944e+00,-3.398848830761445061e-01
-8.399831846905371213e-01,-2.087611560115698595e+00,-7.022876198309189189e-01
-4.490900863467185977e-01,-1.116786229459092228e+00,-3.117036522527194542e-01
-1.169539069364503137e+00,-2.832407539974993504e+00,-8.810419635295917429e-01
9.225615319918323287e-01,2.012317150234448349e+00,8.190540524146432411e-01
1.518123026183833435e+00,3.502297963301229444e+00,1.200732664478272316e+00
-7.388174633194940499e-01,-1.752662855244276452e+00,-6.900861019144672870e-01
-2.552849771806879331e-01,-6.736591346266087577e-01,-1.651000750586781585e-01
-4.527835430103793191e-01,-5.342939630156324782e-01,-2.550008257782810928e-01
-8.633982546091725774e-02,2.898256703119289068e-01,1.655199136210388777e-01
-3.721536702229876203e-01,-1.437142083533542447e+00,-3.838961948280160685e-01
-9.650334368391936257e-01,-2.600567454607186857e+00,-7.666851443399534949e-01
9.764155440448204493e-01,2.057346764640126668e+00,7.309057051354393986e-01
2.562612069813798854e-01,5.595576972001535809e-01,2.710141139503896013e-01
-7.517231462072837544e-01,-1.880994846024280243e+00,-5.582326610387365884e-01
-1.364654592888302709e+00,-3.370101317158636700e+00,-1.073608742790925996e+00
1.327486461354159264e+00,3.170304874588022681e+00,8.759996728834944513e-01
2.540923576880274037e-01,4.408543019239138938e-01,7.208417920164260362e-02
-3.841101313523278930e-03,3.609948816892565859e-01,2.582107663930501285e-01
1.180669494609621895e+00,2.848649138501195832e+00,9.616045591045226937e-01
1.236177116639546547e+00,3.054378222448858704e+00,1.056771181124092074e+00
-1.044301973246896553e+00,-2.263784932938431638e+00,-6.890996300618414949e-01
-7.984258355922949635e-01,-1.838956157518214729e+00,-5.435400003881455389e-01
-4.319302397834088314e-01,-6.474279343754202332e-01,-2.839601782456730450e-01
8.453366380248437117e-01,2.283433335884711646e+00,8.048619451582681439e-01
-1.053542047120710423e+00,-2.581717453595525402e+00,-8.487788294136245915e-01
-1.312249475945122534e-01,-2.358531707785036513e-01,-3.997276901416901146e-02
1.671899809120558078e-01,3.109687911870316346e-01,1.947407450200061285e-01
-7.674076751720960710e-01,-1.582284204936942995e+00,-5.983123785587091126e-01
9.448130458367156592e-01,2.017569579041384120e+00,6.755351502133338792e-01
1.459857073335043776e+00,3.334085733402200713e+00,1.228661469436060250e+00
9.568981775603513373e-01,2.254221011960225063e+00,7.030883678537490633e-01
1.374377711005922986e+00,3.357229634981836242e+00,1.234784949055449443e+00
-9.147165483867608637e-01,-2.335704066893047326e+00,-6.490032762322031079e-01
1.638718261898207407e-02,-9.193288415813534453e-02,-1.071540600784181077e-02
-6.470430799436779346e-01,-1.512679049415118548e+00,-4.755624808544980375e-01
-3.041482786785280612e-01,-9.689207717622039251e-01,-3.560186279139497811e-01
-6.864165534077736330e-01,-1.896738542932858929e+00,-6.212826928873966814e-01
4.800138981827480888e-01,9.330015964396821682e-01,3.585621702807734734e-01
-1.287768058117726433e+00,-2.695742147492549812e+00,-8.226126917427601937e-01
9.082121007616535124e-02,4.285845180385862430e-02,-5.521273543175902326e-02
-1.477418121987962962e+00,-3.099704870858905448e+00,-9.068218816817237293e-01
-1.406649415595077501e+00,-3.576954896424703101e+00,-1.060159515322008250e+00
-6.708021188006128011e-01,-1.580253466019718278e+00,-4.593039873559784936e-01
1.249622352619117249e+00,2.791262636526965935e+00,8.529746919232082947e-01
-7.249367909699215851e-01,-1.841914319190869787e+00,-5.351773829590167342e-01
-9.130225453068537833e-01,-2.107572170616683671e+00,-7.363711980027140003e-01
1.091188842709849727e+00,1.991788069765035418e+00,5.903057158892974776e-01
-2.083703484356540792e-01,-4.721641574432974275e-01,-1.961138646869337587e-01
1.290002002768930289e+00,2.406035202131864725e+00,8.049209446405611867e-01
1.372042151053779746e-01,-7.958593157312227051e-02,6.605779763163301121e-02
8.360875697978163990e-01,1.716624292643785354e+00,6.087449396040488514e-01
-1.480452447583607389e+00,-3.250270514337127103e+00,-1.118869680055106119e+00
-2.031205316774004621e-01,-4.488343559834493401e-01,-2.271543855649346966e-01
1.565587569000663981e+00,3.519524733154150375e+00,1.226481812404520699e+00
-1.530537422265887626e+00,-3.562482591980554947e+00,-1.314568526565002449e+00
1.066894039767462887e+00,2.527491229777690585e+00,7.816808461127838781e-01
4.005151268428641109e-01,1.157134376012159294e+00,2.801802813584891028e-01
9.677893647854205472e-01,2.074225858749603635e+00,6.075982619423599962e-01
2.496299389236630861e-02,9.932967702605798033e-02,1.204080845575134506e-01
-7.348151939153625412e-01,-1.681829943229537161e+00,-6.412380244195318157e-01
1.355456019893810149e+00,2.868009860004700151e+00,1.051356294487653109e+00
-1.064089200973760807e+00,-2.574424611741644942e+00,-1.032438179898429897e+00
1.045127611865643624e+00,2.692662731890274497e+00,9.506157360566799275e-01
7.951418862282659539e-02,6.641330116995896454e-03,-1.686169760284337432e-02
-7.704630014717164244e-01,-1.692918245648751929e+00,-5.565236235987098823e-01
1.148123109469627812e+00,2.388935849621891983e+00,9.016518071192278772e-01
1.343598045940185948e+00,2.965175230024448272e+00,1.085918945514509293e+00
7.518255760416473477e-01,1.972939691446174981e+00,7.745223173483333223e-01
1.822724990862509831e-01,5.034883750276233361e-01,3.335886667567090624e-01
9.663965869187000068e-01,2.173713750176059278e+00,7.700403593049418571e-01
-1.126278241438569472e+00,-2.643149544948772522e+00,-8.285157700544792947e-01
9.610997961474985196e-01,2.087189633528861776e+00,6.614576641026700399e-01
-7.704710050612008088e-01,-2.163874213319378015e+00,-7.089564293644308179e-01
-9.462633413990413356e-01,-2.200853618863587879e+00,-8.725952375853656129e-01
5.824292311750910445e-01,1.283661446488821634e+00,4.325437241375312269e-01
-1.784847743379124330e-01,8.536685786098628659e-02,8.631951628210039751e-02
1.488659880742150055e+00,3.346117616299601583e+00,1.064657666234372302e+00
9.479147458009027361e-01,1.998034970762522455e+00,7.807566689374615398e-01
7.615522717287361854e-01,1.664513770283489347e+00,6.412974401808143599e-01
6.826957833808372511e-01,1.199702500298289509e+00,3.991016388292436545e-01
-1.242034549457202264e+00,-2.904385759573659520e+00,-1.005248144012993006e+00
1.521317645802687135e+00,3.262345270604545266e+00,1.207004257911627798e+00
-3.196802980808843841e-01,-3.709601835902015532e-01,-1.903961474083664118e-01
-8.654253541197234334e-01,-1.947496722018954962e+00,-6.507229501064754063e-01
2.304820903331583973e-02,5.349483296560780116e-02,2.835371858011167395e-02
1.065406480902305830e+00,2.469052371018841896e+00,7.397975740572189096e-01
-1.394959503309742832e+00,-3.337235224925410471e+00,-1.062006439608750741e+00
-1.232992443783903269e+00,-2.857515115434125175e+00,-8.327059694160833248e-01
-1.262667595688138578e+00,-2.599423892617811926e+00,-8.465490243615796384e-01
3.731062347887120212e-01,7.412672833004867456e-01,4.369829307965322207e-01
8.251195339629763259e-01,1.942685044158418695e+00,5.553306089517409116e-01
1.018832981746325306e+00,2.526334877697380854e+00,7.994453420279337141e-01
5.098988206287440317e-01,1.018920274875656728e+00,3.331181496113622131e-01
-8.887494716688160157e-01,-2.060445996612957131e+00,-5.909325163244117940e-01
-9.605296095958714142e-01,-2.245953537289984148e+00,-8.294532466019243211e-01
9.962785721658925508e-01,2.264782721779879715e+00,7.754669309518897879e-01
-9.407518278449641391e-01,-2.077488181687613178e+00,-6.588208198495832946e-01
3.325232456087380828e-01,6.604021372695378922e-01,1.266195148184329766e-01
9.868000373310713280e-02,4.897092940741528122e-01,3.102478571202980095e-01
1.628813930356514783e+00,3.467564553769384439e+00,1.073689335704943293e+00
1.686796830013668647e+00,3.483147888644849921e+00,1.203906157688076739e+00
-1.123892537193270424e+00,-2.711296420191301682e+00,-9.134976859658323622e-01
-9.269984475675184799e-01,-2.210854945087191492e+00,-7.914173644490081205e-01
3.544177331669020603e-01,1.023489642813198319e+00,1.957453707956794686e-01
-6.727162407636105845e-01,-1.442143921946162255e+00,-3.738520140875262743e-01
3.525006455506561331e-01,6.130555844180581859e-01,3.013598201310008218e-01
2.703005967267330667e-01,4.331289987629195481e-01,2.214078469035535013e-01
7.838980243831071837e-01,1.483953306769050240e+00,4.094076289903679222e-01
2.670096111828395569e-01,4.564744943357876283e-01,1.591791980262258488e-01
-1.564982187230569366e+00,-3.223532260164605034e+00,-1.150173768519800355e+00
-1.302275955849483635e+00,-2.924817938225451552e+00,-9.216247747120103195e-01
-1.489213181347726511e+00,-3.390338301762945150e+00,-1.127634012002638464e+00
7.324845728976583370e-01,1.465747704599638990e+00,5.548834786100056427e-01
-1.558822737119343882e-01,-6.056929695118595802e-01,-1.715281442068020967e-01
1.502305648961110407e+00,3.307464704734150995e+00,1.088563022453549856e+00
-1.632410604339613158e+00,-3.479169155537590985e+00,-1.058103050034212789e+00
-1.579627540252607210e-01,-4.917761583565424255e-01,-1.591812996916028011e-01
1.217896597445737417e+00,2.967139325087775781e+00,9.436208337305718175e-01
1.257512887595321205e+00,2.879070278422180884e+00,8.457319329686598941e-01
3.533926411711157956e-01,8.949394868152664717e-01,2.839080800493994916e-01
1.254885805547249156e+00,2.880091540188002508e+00,9.545992958676370321e-01
1.078921920605045326e+00,2.538242555536618372e+00,8.179862813116481890e-01
-4.430809848335654291e-03,-1.113860003887192363e-01,-1.042727516617016070e-02
3.104322097799429025e-01,7.334216353154300316e-01,4.330201935678773539e-01
5.791580706724980265e-01,1.384407103748385381e+00,5.614686292765966869e-01
-3.003630630965256620e-02,1.410255926313865316e-01,6.417997251546497806e-02
-8.143893054314689239e-01,-1.569503657335946656e+00,-4.842786481686715550e-01
1.164267427093886420e+00,2.615174548824239942e+00,8.122001949084280970e-01
-1.208853651917232597e+00,-2.580179749429739822e+00,-8.469412406024686701e-01
-5.545607992734690546e-05,-3.047888174293524322e-01,4.417970065410746494e-02
8.999896495033502530e-01,2.049060693473394146e+00,5.928203926076672792e-01
-8.357187799398195782e-01,-1.706210761949019217e+00,-6.706792498843461292e-01
-1.359056648709341619e+00,-2.780235347059866413e+00,-7.759266792072724295e-01
-1.550737332186628237e+00,-3.238637478934583314e+00,-1.029438462509191687e+00
-1.214900853224952115e+00,-2.841659653061687774e+00,-9.279841199724675471e-01
9.909689136392303421e-01,2.198077946907335711e+00,8.364332005455284991e-01
-2.886470575856515119e-01,-1.011155660859153871e+00,-4.639402202220424543e-01
-2.922877221295321348e-01,-9.197963822363416364e-01,-3.606823264890677838e-01
1.129063629761599546e-01,4.475674162231577102e-01,-5.802337338633850594e-02
1.443446824718381594e+00,3.418240384853946878e+00,1.079643745500305840e+00
-1.626565164228243598e-01,-3.734736849493999200e-01,-1.531943013173656110e-01
-4.150569830061047738e-01,-9.511110082795610765e-01,-4.208895846311216937e-01
-5.459606202940628927e-01,-1.286889898303776425e+00,-4.459962024648550516e-01
-1.252710637010705730e+00,-2.618545854188319755e+00,-7.725741751273152991e-01
-3.861017549702418505e-01,-6.214277602892529506e-01,-8.217599358058937098e-02
-4.786472513673696305e-01,-1.131840588461699992e+00,-2.533303815680735815e-01
-1.097884623098762252e-01,1.004331717493982083e-02,-5.763709806690230086e-02
7.197027389519291551e-01,1.571875426417106425e+00,4.049566677043036078e-01
2.609983478547664437e-01,7.564932594094183615e-01,3.274304339449297108e-01
3.895563300903648885e-01,8.724325826002112816e-01,3.413934725638823608e-01
3.156793541542356474e-01,6.197336474046040156e-01,1.856983494836104975e-01
1.224275852746398857e-01,1.595543116942073347e-01,-5.781968654356874071e-02
-4.664272406025434248e-01,-1.161421804136938851e+00,-4.352733514533879133e-01
-1.274661913236264432e+00,-3.106949985302587258e+00,-9.723990546947114400e-01
6.523766468613572123e-01,1.521856636115263894e+00,4.552486282819036001e-01
1.239547911589525375e+00,2.634127396588477055e+00,8.655756396050455770e-01
-1.627796660960252773e+00,-3.479591431295737891e+00,-1.069521443874678512e+00
-1.443986573124453665e+00,-3.273829663439745019e+00,-1.079482763285334768e+00
4.958005777390281366e-01,8.690990604512266460e-01,1.972420301999937842e-01
-6.888684346623871191e-01,-1.607688531173535162e+00,-4.003881467187752063e-01
-1.145693268778108731e+00,-2.752272096894534670e+00,-8.539132903226073212e-01
-1.626060172886236943e+00,-3.478530159248722775e+00,-1.103245794322865736e+00
8.678704551260409475e-03,1.401152492721237097e-01,1.017440494710062232e-01
-1.272712638630711268e+00,-2.819892704401798511e+00,-9.525795182008314210e-01
1.850553737246118935e-02,-3.163253062184774866e-01,-1.295977526545419485e-02
-1.447635086500872470e+00,-3.230314472225671363e+00,-1.015824787584839628e+00
1.108457089854996414e-01,3.656190641655680529e-01,2.389237926639244114e-01
5.117410820478369982e-02,4.614570658509833945e-02,1.723840616292419137e-01
1.220158872181618115e+00,2.570952162514363870e+00,6.531451241665093832e-01
-1.083656169483278475e+00,-2.560890621904428954e+00,-7.599406998267600466e-01
1.368583947387124633e+00,2.987511389212759383e+00,1.116723947887193757e+00
-4.121196547445035718e-01,-1.097554775929532767e+00,-2.122421711641240827e-01
1.377659850797106733e+00,3.224177813163238593e+00,9.236723014584656832e-01
-1.464614787206641733e+00,-2.883577269548563304e+00,-9.430957744970411838e-01
8.152665776839755629e-03,1.400287970443765129e-01,6.763806435873956358e-02
-1.253540449982108340e+00,-2.959446130428853738e+00,-8.399085815544869993e-01
6.140386051440260839e-01,1.466578429157830765e+00,5.685161801878927390e-01
-1.007653529373201629e+00,-2.100809398544325468e+00,-5.884607640834580433e-01
1.958012484719138524e-01,3.321978808687930940e-01,6.006200286171495262e-02
-1.602938758431080801e+00,-3.457495433482221880e+00,-1.063862524301885992e+00
8.045475799888505142e-01,2.026198070552518882e+00,5.217474984077170586e-01
-1.046040596685732238e+00,-2.165840568641880015e+00,-6.955505484692110496e-01
-7.182079160311920507e-01,-1.267447362212075213e+00,-3.761115291196391874e-01
-3.991804083641676271e-01,-1.125319790778602558e+00,-3.707943801004930928e-01
-1.413251990134365421e+00,-3.107201335894715033e+00,-1.003324810570295877e+00
-1.106092551567939841e+00,-2.540457361960984262e+00,-8.380879612541174417e-01
-4.883210376861047419e-01,-1.171632618054975872e+00,-2.891678255947394138e-01
8.857910422855395094e-01,1.871999837212064755e+00,5.079377203034832755e-01
-1.119664753218030384e+00,-2.496478158376251866e+00,-7.942584199173707837e-01
-2.382013602364095595e-01,-1.207132989620688240e-01,5.890099250966322753e-02
7.770652497756060095e-02,2.633467429723769238e-01,1.139071029799989809e-01
6.599091559875591706e-01,1.622419526095280951e+00,6.324573176504189043e-01
9.301251452649295093e-01,2.099469521964242524e+00,8.135455453900768408e-01
1.174637029061053051e+00,2.779157201111190911e+00,9.824848054357602223e-01
1.131348058655611943e+00,2.619179396146681604e+00,9.526279378693718325e-01
1.210620458489692464e+00,3.002645172344662328e+00,8.533889085761808824e-01
4.492376266651301742e-01,9.512616645775097135e-01,2.969955508562119872e-01
5.735670885419626996e-01,1.373598125854337937e+00,5.842009389295549360e-01
-1.060339917006848154e+00,-2.353206511432554215e+00,-7.824078392639970403e-01
-1.442634075023102369e+00,-3.095848810926388861e+00,-1.086553581307862615e+00
2.011962224526374909e-01,4.875273037615798222e-01,1.745877270141558968e-01
-1.409293425566081392e+00,-3.334895668848592898e+00,-1.065858710573055923e+00
9.138541725323421350e-01,1.834336789110344812e+00,5.203906444690559185e-01
3.003913372992915165e-01,7.122876083525455648e-01,2.227170008290944303e-01
1.177585258908032673e+00,2.845232073885408219e+00,8.418291871775543944e-01
1.192138298341671954e+00,3.036407889179157049e+00,1.073197124486927612e+00
2.938363121386103338e-01,7.487056857328228121e-01,2.562762049037000667e-01
6.699306284097120701e-01,1.829007727410936646e+00,4.705241814365185848e-01
-1.116948557835749423e+00,-2.497858579686850433e+00,-6.550966181662789545e-01
1.592252746453813428e+00,3.528604948083241766e+00,1.147763044063653481e+00
1.328083084579950945e+00,3.155329455278108153e+00,9.858975729836217949e-01
1.204068493155676878e+00,2.855423106791308729e+00,9.852146324004491529e-01
9.471793813338814649e-01,1.659772189841511425e+00,4.216118852478220047e-01
-8.326529871570070851e-01,-1.704057841908031223e+00,-6.695322383660533561e-01
-1.285478231803231397e+00,-3.205953951168873495e+00,-1.014991804921082208e+00
-1.295867953447334076e+00,-2.834348406565425194e+00,-9.199710287402026454e-01
1.857973246557847180e-01,2.983154206823166454e-01,1.842309740681460084e-01
8.021331826756409322e-01,1.973607124367351640e+00,4.888569922554642511e-01
-1.018622826658778235e+00,-2.419584903753404959e+00,-7.255437750904933925e-01
9.735797945142877774e-01,2.021973312789396182e+00,6.586813991186564188e-01
-1.605490581549127382e+00,-3.394812334311445579e+00,-1.156718941534598866e+00
1.511216361989954349e+00,3.399458180907264815e+00,9.318193668191130374e-01
-2.940628407360826313e-01,-5.729294284253257930e-01,-1.957483759389082589e-01
-2.052028970723663581e-01,-3.812809919900452260e-01,1.697627093613659696e-02
1.323434956170664867e-01,3.925169746936653103e-01,1.083121397304278033e-01
9.201322933512420255e-01,1.788209423939672194e+00,5.334986088630767620e-01
3.974613421124065793e-01,7.894927018377135841e-01,3.740581907589834998e-01
-4.850083912377767259e-01,-1.104355399934948689e+00,-4.036589738088497414e-01
1.645377821196770673e-01,6.732354859908579181e-01,1.562375693137730559e-01
1.084322075145706388e-01,3.671815266415718870e-01,-1.779736678439413494e-02
-6.170659703342372682e-01,-1.258557400071616428e+00,-4.987294997146473063e-01
5.201479011230983884e-01,1.307414959214337813e+00,4.536974798189364333e-01
-2.920975582809499649e-01,-6.098067003512342987e-01,-2.263135919446021549e-01
4.504563689868704701e-01,7.846472672378378421e-01,4.500011691015047277e-01
-1.523822688790499591e-01,-6.620614342256266882e-01,-3.511247232789851958e-01
1.320576878668358711e+00,2.649499750835947687e+00,7.366219667677568195e-01
7.609870895344441610e-01,1.435054139638491932e+00,4.327052738971692292e-01
1.499930603697305687e+00,3.058447377760735719e+00,9.639038310917075192e-01
-1.452453489552155697e-01,-3.704433215075255137e-01,-1.826845796807958708e-02
-4.615632544451307995e-01,-1.113205526274024804e+00,-4.051106991555689096e-01
7.157151737408753434e-01,1.654022858712931754e+00,5.298398870166459718e-01
2.354354881913129083e-01,5.245301248824989493e-01,1.636754940117792489e-01
1.484790592533439257e+00,3.285714149144134399e+00,9.712690209963898980e-01
-3.447319459262248031e-01,-9.096780893007533342e-01,-3.973837011040040057e-01
-1.047936500378219948e+00,-2.318654107379167773e+00,-8.404583909699493427e-01
2.043033281791930000e-01,4.076349546826922854e-01,2.404443505150729299e-01
1.085166933375879550e+00,2.780009007187336234e+00,8.665813969556434015e-01
-6.675713620871569220e-02,-3.176341228508031134e-01,-2.163234628765361711e-01
-1.634668794619373644e+00,-3.455369621114320111e+00,-1.092544598423933921e+00
-8.122765994923911159e-03,-1.028341883298329873e-01,-1.710808472815070480e-01
6.043367547388507344e-01,1.221820595216841943e+00,3.257370803509757606e-01
1.220271032747956452e+00,3.019093935846855370e+00,1.001643055008464067e+00
-7.464655052447741745e-01,-1.924634455947862310e+00,-6.734978321349178731e-01
-1.960796558547215906e-01,-1.862911174201293263e-01,-2.485049004865643590e-02
6.046192544589370499e-01,1.314937477532249099e+00,5.101237325052020433e-01
-7.573036377318700385e-01,-1.601548346709769532e+00,-5.713151003076429868e-01
-5.917135966586030138e-01,-1.490347954309793277e+00,-4.752903722750048687e-01
9.709699346078003446e-01,2.083870157229322118e+00,7.259799854998302271e-01
2.317590154992383578e-01,3.570253269500227034e-01,1.580732843433941270e-01
4.222620890442974756e-02,1.405551848721949271e-01,1.378541746691267222e-01
1.461691776894658679e+00,3.524994938190868510e+00,1.082833963286633283e+00
5.871684994054280349e-01,1.382385171167612281e+00,5.472537293330975716e-01
-1.486652066278718376e+00,-3.444675305678291277e+00,-1.073756509723016617e+00
1.395284803413062491e+00,3.295640985481628871e+00,9.115977070059484433e-01
2.898361384119898382e-02,1.865047358731675153e-01,1.861197633755116987e-01
-1.062568912466140825e+00,-2.351051106885568398e+00,-7.629310056720409738e-01
6.237829359332622836e-01,1.691354995131364225e+00,6.245425262632389174e-01
-2.990043123720081963e-01,-4.910931268845050712e-01,-2.497846014843660145e-01
-1.176055344309415024e-01,-4.105500930271114846e-01,-1.367970921281175811e-01
1.043354830711286096e+00,2.261231320210251194e+00,8.709399987855405145e-01
-5.448795630876664964e-01,-1.350540429013434407e+00,-4.810920052091566812e-01
-4.858113662094044050e-01,-1.401681624866626619e+00,-3.285439393265369712e-01
-6.863073350096614567e-01,-1.552724799771236119e+00,-3.970875901101723060e-01
-5.790009909350416484e-01,-1.028437393142295875e+00,-4.191127436076379498e-01
1.468402734767497442e-01,2.038168464757090514e-01,-2.098266835339179445e-02
-1.391128189089370748e+00,-3.429220204461167931e+00,-1.099465448022435066e+00
4.572645339161760525e-01,1.185936510123147825e+00,5.766159883709756073e-01
1.669224191406474544e-01,3.668710589819493273e-01,2.766945359525951331e-01
-3.469928804395770033e-02,-3.066812509651176480e-02,5.066025639625514054e-02
-6.131743439767154413e-01,-1.242385051893076575e+00,-4.968580566535669707e-01
-1.100209973819857634e+00,-2.510957626712405411e+00,-8.316257668096285194e-01
8.034753558121727757e-01,1.734508440184217015e+00,6.017601451779676092e-01
9.037716687788479586e-01,1.967590260902777999e+00,5.151635449988595239e-01
5.345216617801559211e-01,1.028802438403060293e+00,4.967186807854284680e-01
-1.221949572949239782e+00,-2.454132777554737910e+00,-7.529978045974414780e-01
-6.734453089968035766e-02,4.101981232072744732e-02,2.128087853711204958e-01
1.394700400492129955e+00,3.325395759551706298e+00,1.087097590684067860e+00
1.390027155258104496e+00,3.300793518768134760e+00,1.102049460271156578e+00
6.349914218959804568e-01,1.401436177166371255e+00,5.244760534823399434e-01
7.863780055593782015e-01,1.679287662910466494e+00,3.757379209391901176e-01
-2.652463635849842127e-01,-6.178926112590115149e-01,-1.984093248095689377e-01
-1.153125695585370536e-01,-1.249013218489064825e-01,-6.502199088943973193e-02
3.860552288803749676e-01,9.562942609084810197e-01,3.719158521588710742e-01
-1.372068853902155050e+00,-3.218089043237172486e+00,-1.043075441090739020e+00
-2.614413203423706089e-01,-4.897062891722948619e-01,-6.922004597997449826e-02
8.941825521181941960e-01,1.949982920453117829e+00,6.825299441372219000e-01
-1.347312894038101394e+00,-3.026200422772082455e+00,-1.046535144596480782e+00
9.806393989614297091e-01,2.481965765933347612e+00,7.073058532452878300e-01
4.756728167079483649e-01,1.109305111480302974e+00,3.571455355053159697e-01
-1.541497284360204834e+00,-3.516856714728738176e+00,-1.140874830257797345e+00
-6.817643220099781631e-01,-1.444166008511058585e+00,-4.325695048083476602e-01
9.683499912624194961e-01,2.294760585190173341e+00,7.920009899241876594e-01
-1.090790570465966614e+00,-2.550572420873682855e+00,-7.865967859556942665e-01
-6.083059808403559199e-01,-1.348477488757303222e+00,-4.361901728275581203e-01
1.257367672418895355e+00,2.802620014415452054e+00,8.527880832558942803e-01
1.000357853123681195e+00,2.226132890261408814e+00,6.755692685912481066e-01
-3.757805361642526099e-01,-1.214946633166309686e+00,-3.212674051907882800e-01
-8.588454100436045957e-01,-1.598065435630768638e+00,-3.388570846410885462e-01
-9.688739184028181128e-01,-2.172756525547475892e+00,-7.011772771263374837e-01
-3.210447322976886508e-01,-8.244100268355160077e-01,-9.194954347758454993e-02
9.258993735354216492e-02,-8.408849386159245043e-02,-4.438999524064192112e-03
-3.045690394997843109e-01,-5.183080181313445278e-01,-2.198851460848086636e-01
-1.508577098034447062e+00,-3.232095581076448898e+00,-1.313495784114934617e+00
-9.235490804863064618e-01,-2.538539331748077998e+00,-8.104863497271098671e-01
5.713854961850207692e-01,1.269051977697544187e+00,3.819691639444844911e-01
1.003810287284154557e+00,2.321808843109070430e+00,7.033394124363748778e-01
-1.298841232439155446e-01,-4.772453650610163356e-01,-1.978306458708928572e-01
-4.908348969188743860e-01,-8.654762678510344864e-01,-3.150750390700301495e-01
9.417715077065544893e-01,1.721171587389872748e+00,5.970616214057337112e-01
-1.858257322078547269e-01,-2.239253735045838301e-01,-9.137030174200970467e-02
-3.142024488031524010e-01,-7.073922305033027991e-01,-1.157644049287059884e-01
3.769108856399205898e-01,7.965937555050079943e-01,2.815693376678867210e-01
-8.411892887070920866e-01,-1.752069205737151858e+00,-6.208415989559277204e-01
-1.325943156774646026e+00,-2.907348459343528813e+00,-9.055723047188157793e-01
1.321491931847601276e+00,3.089992576222054588e+00,9.568249941542872339e-01
9.871640890501699461e-01,2.543290405820220368e+00,7.732467615401580341e-01
-8.229633233374843426e-01,-1.940552321447106543e+00,-5.198182682161126555e-01
-5.374129377053554757e-01,-1.419435861446600278e+00,-4.274778270575166350e-01
1.383442129249039976e+00,3.522309436098646440e+00,1.032276997731975454e+00
4.340409622498472286e-01,1.012753208840280639e+00,5.338395148614744068e-01
1.400666771704814684e+00,3.190702604370750262e+00,1.101484958185546592e+00
-1.978123013771569960e-01,-2.061466715965537544e-01,7.595835671877175510e-02
-1.376867982035997917e+00,-2.865070315668562184e+00,-1.074833725713483901e+00
-5.073804968865355258e-01,-8.967747542238962977e-01,-3.390022522353269840e-01
-2.139187501403653768e-01,-6.884244073657459495e-01,-1.134974677984800090e-01
1.987722125897000702e-01,7.936242090810592398e-01,2.161284824376723257e-01
-7.923418866608483713e-01,-1.927022957294014738e+00,-5.856459670842981691e-01
9.562963613237118743e-01,2.223290321712897644e+00,7.851050531337890881e-01
8.463193793089694994e-01,1.620470325334481876e+00,5.582695433608398927e-01
8.336876742131339446e-01,2.208072689532530219e+00,6.825946663285281657e-01
9.454415404875505385e-04,2.353971773416894606e-03,-8.086857483953448222e-02
7.612257131512470965e-01,1.785364788095476607e+00,5.853490406967551962e-01
7.117875051081145044e-01,1.362615713053100475e+00,4.531540889525728644e-01
1.009235045489637328e-01,4.461718117512025739e-02,8.529552051624199327e-02
-8.542273002045506214e-01,-1.873518122065398694e+00,-6.066695515548462536e-01
-1.354736638505490198e+00,-3.063693994949844512e+00,-9.302462997197901151e-01
-2.937911058200187719e-01,-6.709036353552737530e-01,-2.858293075578790532e-01
6.353864642036193278e-01,1.338260407806962426e+00,5.163525615865589558e-01
-7.321383587016719874e-01,-1.711861877565505452e+00,-5.582065343735178597e-01
-1.360220336383656026e+00,-2.994190902793055553e+00,-9.152715577122210178e-01
2.629591495419702496e-01,9.283145876954774778e-01,1.986400662333529521e-01
8.204628915204980055e-01,1.847814492092493044e+00,5.371801740588706409e-01
-2.448364356825400157e-01,-8.110147688772664232e-01,-4.353964910935094190e-01
3.304512966842990812e-02,2.439536063136587551e-01,7.258180296091965022e-02
9.001932092526286899e-01,1.541371861242453845e+00,4.131035676786900535e-01
1.195970927606396367e-01,-5.288001858548189299e-02,1.096557784921682738e-01
-1.606310442820610973e-01,-3.544868626427688518e-01,-1.701846092107425212e-01
-3.577535852523269777e-02,2.420993911530297873e-02,9.328540234034739254e-03
9.678294761338434027e-01,2.151559333896130966e+00,6.746946565050347955e-01
-1.253961638842421566e-01,-6.297791124993998846e-01,-2.529654679841088494e-01
8.417871335599059757e-01,1.735445062662704485e+00,5.731955212103357900e-01
-3.735985929150029139e-01,-9.204341633940787970e-01,-3.492264485791372608e-01
-1.047581912559994333e+00,-2.213413182147439873e+00,-6.036903438926353171e-01
7.962728982813251921e-01,1.916524549288602275e+00,5.782821451466358953e-01
9.365125955767373833e-01,2.139866982594056388e+00,7.632694094403433827e-01
-9.584553408199056879e-01,-1.908865684349627001e+00,-6.403634921983126782e-01
1.029784413535915100e+00,2.579782904787877307e+00,7.862085541086011320e-01
-7.602625805975290474e-01,-1.993361353870924946e+00,-5.134000524597238657e-01
7.120026598176812938e-01,1.603924185077090447e+00,4.384263534396274919e-01
1.372939961000100517e+00,3.011350840018670816e+00,9.803808588903651922e-01
1.330891319706681175e+00,3.210072641170933938e+00,1.001662684659879510e+00
3.164292967907056386e-01,6.127500258999102334e-01,1.175350369972974346e-01
-2.674632631279760808e-01,-7.383460739830890462e-01,-2.203091587621836822e-01
7.709530942118746344e-01,1.612645721738998672e+00,4.732733759155950959e-01
1.547354870634744861e+00,3.387432903746975033e+00,1.058260169224065184e+00
1.184605245003372165e+00,2.789667328215800435e+00,7.356605724375954170e-01
9.392936199764619076e-02,-7.266072284634054329e-03,1.743016807090186707e-02
6.426436035932397983e-01,1.589261903765599726e+00,5.343671985756420773e-01
8.460558694878478336e-01,1.676987629525632295e+00,6.562622792636152447e-01
-7.052686122677694902e-01,-1.651092281676894036e+00,-3.897916381761681870e-01
-9.644773357251416046e-01,-2.179122428384298704e+00,-7.603422888060782370e-01
-1.435615557920343122e+00,-3.345673171827582504e+00,-1.016681201082932029e+00
2.059166375885834455e-01,5.258279561090184462e-01,1.749379044599991273e-01
5.921473007426286683e-01,1.316661476997954106e+00,4.291355748404282466e-01
5.062631665884542720e-01,8.148633939052529751e-01,2.376902031650289793e-01
-1.282732297189907333e+00,-2.864036549016152566e+00,-9.825081907481393317e-01
1.214594173030548729e-01,1.792885387136348985e-01,2.123760161997410856e-02
1.059661920808127045e+00,2.814232570460570848e+00,9.253663745909495031e-01
-2.326852739597382591e-01,-5.475134091028702743e-01,-8.788997191301291256e-02
6.189314726712370485e-01,1.155542381791434758e+00,4.580242721827570418e-01
3.292952815828449897e-01,1.012413506898733218e+00,2.695043910353340233e-01
1.361641916620049297e+00,3.039374430527075788e+00,8.757843519059558268e-01
-1.572335182157551747e+00,-3.432144745913456862e+00,-1.102077991694491166e+00
-3.957047359408710219e-01,-1.007662313761981121e+00,-1.788996986455549942e-01
-1.542525200466384083e+00,-3.195124617796521793e+00,-1.032151459145093320e+00
5.122767139742288034e-01,1.257267914211259940e+00,2.325511804362999924e-01
1.114848534001019464e+00,2.939425925045713761e+00,8.500554212624039652e-01
-1.673622725371589071e-01,-4.473128886070663612e-01,-7.822854281874067062e-02
-4.639012601060915619e-01,-7.366249374973249386e-01,-3.486133157856513010e-01
-9.582508701087947278e-01,-2.217526589904335932e+00,-7.877501066694292398e-01
3.379755992726583835e-02,9.081018781871369461e-02,-1.483155749655399036e-01
-1.005212904696647147e+00,-2.342907703740170877e+00,-6.916761315390047571e-01
-1.943848833090346673e-01,-5.826374114774993673e-01,-2.471022966928489162e-01
1.264816208021219746e+00,3.166090179360922185e+00,1.022125068029630324e+00
-3.401149543068189285e-01,-6.799482121155311365e-01,-3.486212268664453107e-01
1.626205909607270961e+00,3.507587434925858005e+00,9.563316385182690782e-01
-7.147071427606054295e-01,-1.726625133329985351e+00,-5.374178388682169238e-01
8.923574535957735643e-01,2.004192973725437810e+00,7.057922101272139370e-01
9.114167171099168963e-01,1.916555659830845526e+00,6.022378698097892169e-01
-3.490417204600739648e-02,-4.014554013206720479e-02,-2.917529654646503282e-02
-3.476694189371795085e-01,-7.309178011266599384e-01,-2.400367817453256947e-01
-1.364697795060513696e+00,-3.258658539163971746e+00,-9.151574965047866161e-01
1.562678282929278739e-01,1.900671115286741708e-01,4.511094428250403410e-02
1.416071458394390525e+00,3.333143176343177139e+00,1.132894630568640704e+00
-6.321492769774720265e-03,-1.768756716102890258e-01,5.586971550959680954e-02
3.678638193727633565e-01,5.650463035181664262e-01,2.020157498348296443e-01
-1.314623807091110930e+00,-2.599247863874170505e+00,-7.898251366211896940e-01
-4.608207475177768936e-02,-2.997127619902044127e-01,-1.368028636056665415e-01
7.340682765772497120e-01,1.652415244375426751e+00,5.174145145317216032e-01
-1.355073082571044862e+00,-3.007827004719697328e+00,-1.092129248503852290e+00
1.365310584445907471e+00,3.205110200080484084e+00,9.287897595721665844e-01
1.283532367827460829e+00,3.237098504751009909e+00,1.073751066410933985e+00
-1.180482343431666470e+00,-2.844505009668532924e+00,-9.422318280700966442e-01
-7.925768568615472187e-01,-1.799660725707135533e+00,-6.052363501150679337e-01
-2.032716865872105927e-01,-7.214594389752970738e-01,-2.572443861404258847e-01
1.044266565095304911e+00,2.476934323610020083e+00,7.825298618249271199e-01
-6.533374501145953195e-01,-1.507104114743015311e+00,-5.545573827572843895e-01
1.426081901528500451e+00,3.440033924477070570e+00,1.045763639129880573e+00
-1.378574539031687918e+00,-3.144220606533929097e+00,-1.059334736725972004e+00
-6.774209092809474475e-02,-3.059198448682057259e-01,-1.868467044251561904e-01
1.208120834081003875e-01,3.813558379329262671e-01,1.561869342145173582e-02
6.570105091335964875e-01,1.570143693501652393e+00,4.404476556316238023e-01
1.505090668081303651e+00,3.005959605906106447e+00,1.057952725649919712e+00
-9.528916875077914073e-01,-2.201537952270001153e+00,-6.933079319393444795e-01
1.347932218155849071e+00,3.320112692767186680e+00,1.026988772093262448e+00
9.880735541879273054e-01,2.119969795487760766e+00,6.452495000294212746e-01
8.687684016435386347e-01,1.669792634897224737e+00,5.770746286214936127e-01
-8.660716756993683818e-01,-1.925971466428419765e+00,-6.168891712608652877e-01
1.204312053904227797e+00,2.669521223751464056e+00,8.610301604612359272e-01
1.288594439063867281e+00,3.038157920494240827e+00,1.046890144567022229e+00
6.904872767618944751e-01,1.745063078461175810e+00,5.943810549802298615e-01
-2.613676984668555359e-01,-5.009068382593091506e-01,-3.125131273927703734e-01
-1.005506247500444594e+00,-2.017934021802314959e+00,-6.441392509015891887e-01
1.197282599983409357e+00,2.738385883145550537e+00,7.727196833830668465e-01
1.211010101197196986e+00,2.938325818200425488e+00,9.845376777635169718e-01
6.836867925010730040e-01,1.422638082102754664e+00,5.389645903835779128e-01
-3.851099130442012797e-01,-9.245688193983879755e-01,-3.437049918008215910e-01
-1.039399044910816139e+00,-2.242152238451263990e+00,-7.504164973466400657e-01
-1.580061115299475905e+00,-3.560956805634813094e+00,-1.048236443079166857e+00
2.832467547832006050e-01,4.468508170841684057e-01,2.972904666712699040e-01
-1.244380662400071502e+00,-2.650014915097309132e+00,-7.358878093186760339e-01
-7.861195176452313582e-01,-1.708047549928502606e+00,-5.265175664906520669e-01
5.734965176565977041e-01,1.480656146860806377e+00,3.694745274407860158e-01
-4.197647296994728716e-01,-1.088709009379211334e+00,-2.831353166399228627e-01
-1.110094399078649152e+00,-2.712129379412751451e+00,-7.007649059923720669e-01
1.931731778472342842e-01,7.571028209678831722e-01,3.118358719227946607e-01
1.509463302639100446e+00,3.391008232112044052e+00,1.154450973824802107e+00
-1.715161006346300310e+00,-3.536355391583661856e+00,-1.146679545379607923e+00
-8.650556798089582555e-01,-1.801915752007465121e+00,-6.106437815534920821e-01
-9.545102499596163081e-01,-2.220182440385303213e+00,-6.762160201622585687e-01
-6.299119059897231310e-01,-1.433674054551243637e+00,-5.235493047895924956e-01
1.291999414703993265e+00,2.849549477499720318e+00,9.957165730463686248e-01
1.041343498016707780e+00,2.104313963462521198e+00,7.999631507152979992e-01
-1.356490899203057321e+00,-2.766941387929944707e+00,-7.302372830414276539e-01
1.230965101985945775e-01,1.419521375807419050e-01,2.015061642735346565e-03
1.128248645135266681e+00,2.786462661532216334e+00,7.832007576423274386e-01
