-1.348031359145542840e-01,-1.512383760540425004e-01,-1.700164599668152199e-01
-3.919411183674598731e-01,-3.250223658689496142e-01,-4.363707979874215659e-01
-2.164034195114377945e-01,-2.009893613871508444e-01,-2.286499696936937498e-01
-1.410221171311747956e-01,-1.240578755935230759e-01,-1.412474681173095659e-01
2.962918161384689442e-01,2.343426190334553794e-01,3.262092163171096404e-01
-4.162989030021437276e-01,-3.789176556431416154e-01,-4.412088717535685989e-01
1.633171695541782431e-01,1.453519193621558847e-01,2.056293496962423029e-01
2.200051364676036403e-01,1.546073569035548989e-01,2.553580885033050474e-01
-1.486830906962194332e-01,-1.505367228947548375e-01,-2.068439658661988811e-01
2.126561411422467351e-01,1.153805330840708548e-01,2.173283484116226849e-01
-1.921756507287985735e-02,-8.843064886438923439e-03,-1.709286467611105878e-02
-3.817960745149303614e-01,-3.132193019875610385e-01,-3.585271603197310863e-01
-3.297503514056998042e-01,-2.933830103059460459e-01,-3.411258391595513029e-01
-2.463155492271841551e-01,-2.121466340890562075e-01,-3.074860410269666944e-01
2.501787948011084950e-01,2.284251989867611687e-01,2.891363544580475287e-01
3.830265886862255220e-01,3.469897376001999656e-01,4.640446294880118949e-01
-8.994143736568915859e-02,-7.633900527675170633e-02,-9.957787459472723646e-02
-4.328140467319304130e-01,-3.448710978510189928e-01,-4.387105404080678950e-01
-3.390251112993038496e-01,-2.633719651584510713e-01,-3.788779630376943874e-01
-9.996905583980915388e-02,-7.973712388822125352e-02,-1.111376685057443997e-01
1.579728659501394572e-01,1.388984724752900524e-01,1.917678710049451063e-01
3.470159203784002888e-01,2.937148966554274931e-01,3.670168726617044630e-01
3.453447842824008962e-02,5.981812499811812317e-02,5.250921331046653345e-02
1.384202446608625292e-01,1.144865154129381807e-01,1.407188207113803657e-01
-2.969336375857936083e-01,-2.590764403193060450e-01,-3.105206148735780713e-01
-1.064878072066314935e-01,-8.081484750301383413e-02,-1.403984317718081631e-01
3.890978180169551437e-01,3.298117146845861436e-01,4.434244021054739582e-01
1.866010610431505512e-01,1.382444817473967025e-01,2.146378570858366031e-01
5.650291409880574961e-02,4.752509063068448281e-02,5.349391723063435383e-02
1.714665983799234794e-01,1.480317058427013110e-01,1.754679295345175916e-01
3.942324228824504173e-01,3.202420377325764234e-01,4.337189379446583781e-01
2.980336806067014344e-01,2.310850842131648430e-01,2.968747905705019230e-01
-1.508608204454848778e-01,-1.725952276845843236e-01,-2.093127171655977115e-01
3.347638807769969804e-01,2.639531802340386313e-01,3.584987048410618327e-01
-6.047547459288011434e-02,-4.276430029412357087e-02,-7.793159276191168050e-02
-7.122229659178402894e-02,-4.618650567606136237e-02,-3.441675992513341248e-02
-1.313187931791305330e-01,-1.039814735025687414e-01,-1.285155753519227617e-01
-7.460759825572725601e-02,-8.714219709731807484e-02,-1.083552945290526259e-01
8.203523855250281771e-02,8.326746587562737500e-02,1.111060168017863198e-01
4.139848096611431494e-01,3.395138039857773515e-01,4.473218511090582550e-01
3.489697577825726649e-01,2.933033638831741841e-01,3.779781231684724019e-01
2.937992620041706138e-01,2.333064024994635777e-01,3.016905148226537436e-01
-1.440879613307214091e-01,-1.225242633252868890e-01,-1.543249588666142091e-01
-5.480837155166642244e-02,-4.767176319735295237e-02,-7.856877824387530074e-02
1.878908612659515864e-01,1.587260620270982969e-01,1.777889227293194818e-01
-4.086215026842415221e-01,-3.406677522486370457e-01,-4.549519007357337719e-01
1.414426499858094100e-01,1.375340552630269775e-01,1.491956939698869944e-01
-1.097325675044884680e-01,-9.843765358316830527e-02,-1.120163196347103846e-01
-3.281182793307542700e-01,-2.892512483462359452e-01,-3.671728392654944884e-01
-3.939131564362042814e-01,-3.148007748785801030e-01,-4.057860596740825998e-01
-2.672263056739725418e-01,-1.885847205489487033e-01,-2.605625009359159305e-01
3.937717008537170993e-01,3.478414932157323225e-01,4.592164559108212196e-01
3.205816996498976612e-02,2.816439815700245639e-02,2.448514443403944710e-02
5.896347191888125228e-02,5.699617116964984798e-02,8.077180896097485574e-02
-3.050661395709949875e-01,-2.466525851656432844e-01,-3.285425082364671900e-01
-3.192673062609386325e-01,-2.673740987101468902e-01,-3.391408969965627462e-01
-4.233462617485789226e-01,-3.677992248813266030e-01,-4.485121877214968689e-01
-1.744111768812506846e-01,-1.799748015777057342e-01,-2.918884522233108347e-01
-4.075035292570490801e-04,1.615480104565387466e-03,4.308867196186711920e-03
-4.188189429506122136e-02,-3.356660016668538971e-02,-7.892129752509238760e-02
-3.580514890215932278e-01,-2.844697013263231544e-01,-4.143673423281994950e-01
-1.125116120096451566e-01,-7.458513168962967177e-02,-1.340138479350287126e-01
-1.457788995118459718e-01,-1.272513285898656532e-01,-1.560170655406654394e-01
-2.276847061843925157e-01,-2.040062285535386433e-01,-2.915243962030885094e-01
-3.047255724336950244e-03,-2.702175323992505110e-02,-1.285112784912222951e-02
-3.674023907844097825e-01,-2.949858378305880713e-01,-4.033396288515941341e-01
-1.501230376015845192e-01,-1.022768919892804856e-01,-1.378226632067331148e-01
-2.237262933709489587e-01,-1.614613892078428370e-01,-2.040947217056414964e-01
1.001145811165807947e-01,6.895274619192240384e-02,6.822577979615274124e-02
9.297944059650568860e-02,9.362649934038157207e-02,1.174737561023018878e-01
5.224576082029346730e-02,4.709346656244332158e-02,9.237617973824485684e-02
7.485270399372738470e-02,5.908499662254601548e-02,9.643829780419063691e-02
-2.761660930618091703e-01,-2.391809491554467981e-01,-2.889077875224684844e-01
-3.373852281953830801e-01,-2.955292653561734650e-01,-3.856838382094048834e-01
3.603997788271393610e-01,2.726260169126386024e-01,3.788208489261407075e-01
1.134310127249708866e-01,7.783350747573913875e-02,7.741290171826542554e-02
-3.040846367846651854e-01,-2.960307686733854027e-01,-3.806936995412195102e-01
-2.236992473221880162e-01,-2.034541450740419699e-01,-2.557631256435343170e-01
-2.923287171754487268e-01,-2.467373657648820606e-01,-3.295643245663628096e-01
2.921805081963047002e-01,2.550848627478241593e-01,3.073759306130671720e-01
-2.655324319747671136e-01,-2.417422920814839560e-01,-3.071823442337467402e-01
4.190484609868750376e-01,3.469841751161005794e-01,4.526728466973292675e-01
-3.349341005699868479e-01,-2.684096646011829290e-01,-3.507943504332660112e-01
2.845504838628874072e-02,1.365646077771271241e-02,-4.184006292803800833e-03
-1.382318875105849054e-01,-1.454005382173009508e-01,-1.591453413642808234e-01
-2.019716991800996619e-01,-2.147528053299438966e-01,-2.714167794594470329e-01
1.561857142104610963e-01,1.475976305119520993e-01,1.884672759913515738e-01
1.544175781442359563e-01,1.453384621996618720e-01,1.446143920715852182e-01
3.228856188037031449e-01,2.819345074594124534e-01,3.694774596791508547e-01
3.657706824598149220e-01,2.882005460296739874e-01,4.220290098085776598e-01
-2.144600974805757274e-02,1.719265158577873475e-03,-8.230218978672178970e-03
-2.444843254282145772e-01,-2.139750281017349653e-01,-3.053374476983051755e-01
-1.557491708321772639e-01,-1.437950128260490901e-01,-1.883724029425775659e-01
2.523497923997464198e-01,2.392467999728502548e-01,3.152832657437147912e-01
6.800275923468025729e-02,5.199596730941747486e-02,5.649050356280976848e-02
-4.193529053784009197e-01,-3.300047204765832465e-01,-4.289275298507160827e-01
3.925595945432989176e-01,3.178774590090167051e-01,4.028965275657071521e-01
-3.075782681146221886e-01,-2.698769550044180510e-01,-3.719635982503473604e-01
-2.981109283784119102e-01,-2.674995308384010007e-01,-3.708845759257744512e-01
-1.582487341245675805e-01,-1.237813921492874475e-01,-1.458746913823124880e-01
-1.685010702303883223e-01,-1.755199003171490080e-01,-1.905300420703299191e-01
-6.213860325322378281e-02,-5.203700120115794386e-02,-1.825089321068429013e-02
-2.711610578452297929e-02,-5.998082842781076590e-02,-5.757999061881610009e-02
1.411759218144852945e-01,1.282192511422416692e-01,1.666675715551578507e-01
5.863811795904391722e-02,6.100600779068796053e-02,7.299413174716200270e-02
9.125605483051352218e-02,9.407893416704685152e-02,1.405892222841863270e-01
-1.904676624315831124e-01,-1.544781586357280301e-01,-2.358024196273882656e-01
3.787781213248485601e-01,2.923353050308841738e-01,3.901297469581679889e-01
1.103544377016480171e-01,9.717014669843657138e-02,1.140261656610721680e-01
2.465827362655673982e-01,2.400555071378451810e-01,2.896901842603820110e-01
-1.336847675380319067e-01,-1.386661730955241201e-01,-1.737384966176616641e-01
2.228268482124856620e-01,1.740789164712460146e-01,2.245020603939300863e-01
3.206234861434729133e-01,2.568754509220832483e-01,3.375619394190682021e-01
-2.322993001625160148e-01,-2.210264478056440385e-01,-2.581324571027389103e-01
-3.444836336258866871e-01,-3.225667704514479928e-01,-4.158954273653172606e-01
1.774304254717706253e-01,1.230389822209964484e-01,1.817417266457214686e-01
-3.281109082614415140e-01,-2.703561425526561091e-01,-3.883503109552693400e-01
2.071600982536880020e-01,1.655759109768888404e-01,1.997959476992961503e-01
3.470698668448811142e-01,2.726487164422911058e-01,4.072097741068659293e-01
-2.550299407351409031e-01,-1.925455735321449091e-01,-2.631252376179792907e-01
2.092815396300791442e-01,1.930499357913014191e-01,2.342590006418611703e-01
-1.021186409715084398e-01,-1.203235273734661326e-01,-1.557419737337252252e-01
-3.863326288361777494e-01,-3.285980703916452916e-01,-4.411550812089127249e-01
-2.168683973489337058e-01,-1.884670233278211982e-01,-2.213853320261193469e-01
2.232266719416283185e-01,1.714159049769811705e-01,2.577382274839787879e-01
2.390493004009928146e-01,2.034794491029389141e-01,2.653783232315811702e-01
-3.315242311823168309e-01,-2.848915692048090142e-01,-3.501200641837071692e-01
1.959463777684517516e-01,1.679576044028668336e-01,2.386833988839019705e-01
-1.561203757557437510e-01,-1.482512391051400702e-01,-1.693785338538263130e-01
-2.624763603122723943e-01,-2.347297933982563367e-01,-3.002638021485699582e-01
1.148440154466607022e-01,1.031705445394193038e-01,1.101070235537236208e-01
-3.962648955688347074e-01,-2.977571005890107814e-01,-4.045901453749031762e-01
-1.267257464603274708e-02,-4.560956363572746947e-02,-4.449669934927509563e-02
3.490812830212225992e-01,2.934213059838207127e-01,3.982189632529050671e-01
-3.960219840695921034e-01,-3.536513969066145124e-01,-4.407438017794215179e-01
2.217046766347470221e-01,2.010900208168090730e-01,2.500990461339425153e-01
3.307537871695050424e-01,2.986000355244683435e-01,3.824595622018866492e-01
2.495386876038425961e-01,2.105188634758751731e-01,2.582033213498678426e-01
2.223966643913758423e-01,1.888728538881574437e-01,2.406731304468154864e-01
-4.032895822042549365e-03,-1.959351793320523658e-02,-8.595860797421549238e-03
-8.959097575022488547e-02,-6.677491912617361525e-02,-1.326947345359137664e-01
1.372991109665021303e-01,8.376616781583573479e-02,1.524929271519601115e-01
1.082357515740940551e-01,8.308227357648191591e-02,1.048844964255800927e-01
8.651216991982271787e-02,7.143875646506046839e-02,8.914511949372011523e-02
-1.539149435687279799e-01,-1.302643842771988580e-01,-1.312903215694589398e-01
2.438061769348633390e-01,2.413912054721104872e-01,3.036535110210619171e-01
1.012493337088123668e-01,8.600520636898464910e-02,1.275209587113994847e-01
-1.571154156711697947e-01,-1.309955801414901533e-01,-2.040152715781034520e-01
1.510883007555620938e-01,1.277069370164034823e-01,1.901057816037896864e-01
2.004643259984241477e-01,1.675967407300523182e-01,2.314070383944713261e-01
3.276416249739498299e-01,2.733917086125265405e-01,3.363043397560385728e-01
1.659971630455633895e-02,1.301890739557639729e-03,3.745130915926921100e-02
-3.960003568142466540e-02,-1.029883877818288038e-02,-2.746870508569246652e-02
3.668416923525467249e-02,2.768279310727842293e-02,5.578330713959762238e-02
-4.138538995229115169e-01,-3.312556542787269409e-01,-4.280212438772946215e-01
6.565527056114517368e-02,4.147485716116558474e-02,5.779929685557622793e-02
6.444129659869855808e-02,6.224273291844856226e-02,7.623289862627863345e-02
-2.843572299630466316e-01,-2.438715884845359116e-01,-3.094126330537390612e-01
3.400027969722517751e-01,3.021805700912193471e-01,3.659900850915139281e-01
-4.056700156613388675e-01,-3.388460110846759354e-01,-4.295984460410627870e-01
-3.556437982187048985e-01,-2.860882210099489620e-01,-3.604834679179226842e-01
2.867306441779645665e-01,2.345473480807406530e-01,3.263535052488977795e-01
1.180635701511186936e-01,1.093558758326340363e-01,1.485915524671695964e-01
-4.071699670573514784e-01,-3.152611891713182346e-01,-4.202341475088407496e-01
-9.147106687419571946e-02,-1.163306705406598335e-01,-1.333106879078408413e-01
3.560549906261596953e-01,2.849791595445197445e-01,3.909626670155597061e-01
1.291627943536260981e-01,1.231937493325281907e-01,1.524372214693569816e-01
-2.490074326312058731e-02,-4.206607357103697709e-02,-6.106435624895956843e-02
3.998829386965124799e-01,3.884682656054612715e-01,4.561977863992483506e-01
-2.515905295679509157e-01,-1.955767018036547178e-01,-2.664326158618801066e-01
3.174864817273374551e-01,2.880902258890268852e-01,3.884438634957160241e-01
1.816738430837402107e-01,1.595170518144401473e-01,1.693334753202000997e-01
-3.712684190365320158e-01,-3.124729346575041422e-01,-4.317685328450760474e-01
-3.739523189016175642e-01,-3.191292823686076585e-01,-4.305746564902921403e-01
8.691314738270174145e-02,8.814292070278802183e-02,1.290939771241423617e-01
4.160662372418434951e-01,3.811284022939646077e-01,4.742928782379776664e-01
-6.796206591958253718e-02,-7.006860213818720540e-02,-8.321280464115582420e-02
2.498622565131859430e-01,1.847271082186507929e-01,2.626971061192345802e-01
3.947395065420379323e-01,3.021361643095029637e-01,4.182213822306342088e-01
-2.663411979973671628e-01,-2.176315469945156733e-01,-3.280986919211506536e-01
-3.569618900247191196e-01,-3.215405521641158115e-01,-4.303504686521291145e-01
1.111410292182082316e-01,7.431183464731473676e-02,1.024750697518482800e-01
-3.822401166048543519e-01,-3.063986064770593543e-01,-4.254513523283529053e-01
2.828790263957867146e-01,2.262907404649285859e-01,2.980705339584173164e-01
2.187946311091701346e-01,1.991928901958129328e-01,2.254302786462882013e-01
1.884327482002749188e-01,1.823757802998988153e-01,2.127724154879233331e-01
-1.823222497934302300e-01,-1.542784748771485748e-01,-2.036938926195796251e-01
-4.032092161851634771e-01,-3.248906624384096942e-01,-4.617713571639542325e-01
4.022751079032316213e-01,3.365220485520077909e-01,4.673556923546473008e-01
-3.078849736465669520e-02,-4.048388103857845227e-02,-1.674440052381713159e-02
-2.647400268485944341e-01,-1.891591264065110023e-01,-2.612378540716809860e-01
-2.732579868804226875e-01,-2.318952408356709238e-01,-3.085916243331090492e-01
3.275200180703161101e-01,2.694785298316991207e-01,3.712744124654840938e-01
3.888736965734361228e-01,3.319201717962354525e-01,4.296782313350454019e-01
-1.705900535149926234e-01,-1.395666113085786975e-01,-1.909374320522199964e-01
-3.810662093698622410e-01,-3.424704024338396380e-01,-4.001446231883075133e-01
-1.796145150987908667e-01,-1.365664522051152074e-01,-1.837643656573585416e-01
-2.200886201454525098e-02,-1.538217601526658748e-02,-3.100366031641103512e-02
1.458156737405778532e-03,-1.022136618470596836e-02,-9.534268299692278195e-03
2.100503651306102892e-01,1.937563733644482866e-01,2.277539524839196361e-01
-3.657024494380099744e-02,2.194179807559534529e-03,-1.996549804561673427e-02
-3.488380464077829868e-01,-3.137803070475698175e-01,-3.803748864398011631e-01
3.220461114602394814e-01,2.686204985942821089e-01,3.112238581431892581e-01
-2.624933848701384576e-01,-2.414920489771943679e-01,-2.736954524698800850e-01
1.349894480459986994e-02,1.641104382017990375e-03,-7.361737126963031376e-03
2.289357631097399814e-01,1.974707280807337650e-01,2.453797439487837295e-01
6.819841895673779686e-02,5.348752907452600236e-02,6.381075224488554076e-02
-2.653003704667752580e-02,-1.504902981917635371e-02,-3.874039216410976594e-02
-3.457251441242499279e-01,-2.852590459461655792e-01,-3.785127920189105266e-01
3.820380867661848368e-01,3.208710949143995239e-01,4.420052622097642159e-01
-2.268668436782505238e-01,-2.136815326767407264e-01,-2.483583297860819383e-01
2.720662600033038614e-01,2.393485000084757952e-01,2.842378022337990195e-01
-2.537098545682456296e-01,-2.325976971377154146e-01,-3.007636278170957023e-01
-2.110434609446404097e-01,-1.834250749226072896e-01,-2.414044283379509492e-01
1.025780345466082571e-01,7.500522591207767209e-02,8.634927817725880639e-02
-1.430470044660731022e-01,-1.227368954182381511e-01,-1.264406136519204138e-01
-2.186546959611753160e-01,-1.917433263887479977e-01,-2.522690513862691497e-01
3.230497198231162548e-01,2.842216232615784599e-01,4.035999904280904160e-01
-3.903225865973154463e-01,-3.258190342364269410e-01,-4.498141249501087513e-01
2.278206451141648048e-01,1.995799276757094232e-01,2.405083723919706207e-01
1.347223589287517009e-01,1.262113370623689224e-01,1.608889639067039301e-01
-1.245593790847845939e-01,-1.140501913611405155e-01,-1.274362811210678625e-01
2.545071493733908063e-02,3.888327461102866756e-02,5.950485437513119286e-02
-3.845971697376969756e-01,-3.184680567130455664e-01,-4.554349902795278848e-01
-1.622139609423450257e-01,-1.282810362670044890e-01,-1.489525840112353450e-01
-1.381974716094128697e-01,-1.079402726028941550e-01,-1.635407769486282303e-01
3.531018500269164084e-01,3.160905955962141078e-01,3.937914760201553510e-01
-2.736245342957810966e-01,-2.339228228183676261e-01,-3.011797868347914631e-01
-3.644453511909010457e-01,-2.917401443457175447e-01,-3.845904381863990973e-01
-5.235055063002511805e-02,-5.050932142090707594e-02,-2.644413225599931763e-02
9.723512009154842983e-02,5.377568977716799120e-02,8.457807526600588655e-02
-1.854354554927476473e-01,-1.364577261764233773e-01,-1.620486583821107718e-01
-9.676878297861560285e-02,-9.494046646200818285e-02,-1.265435140928027058e-01
-3.087122027909613431e-01,-2.681320603321146190e-01,-3.935882710996795320e-01
-1.023281268391611071e-01,-7.769221374046909878e-02,-9.759784930175344209e-02
3.426639760854944816e-01,2.836679231575757187e-01,3.618757589786424922e-01
4.543311033986662251e-01,3.370306758359004617e-01,4.612693957581396331e-01
-7.132426079438698718e-02,-4.242691692340062187e-02,-7.675039276119965947e-02
2.541418196646667016e-01,2.379278966389200833e-01,3.041490053534049443e-01
6.555969353923993270e-02,3.630937946837589636e-02,5.108406025878645118e-02
2.738898924147302738e-01,2.231868127238741395e-01,3.066697872960756355e-01
-2.431540289899035423e-01,-1.765095839649339637e-01,-2.534710012989690453e-01
1.183061574930961285e-01,9.924615698935254637e-02,1.499769156867316044e-01
-1.944342526732918131e-01,-1.348260379987936408e-01,-1.903857606539025304e-01
-4.104846813199050648e-01,-3.056251279927876818e-01,-4.509963268980620721e-01
1.377411544791597997e-01,1.168102616914432068e-01,1.542415041729316427e-01
1.327023735043702246e-01,1.212824466073393892e-01,1.240123139067807606e-01
-1.650321319556537214e-01,-1.751286838909849319e-01,-1.924081454171572003e-01
-3.374471705738716909e-01,-2.641362018672762102e-01,-4.203447711993484326e-01
-4.281577185418188325e-01,-3.532475305716645808e-01,-4.447224936222224922e-01
-2.368522394334668657e-01,-2.121626045932067939e-01,-2.523818863572573346e-01
3.593299603903318817e-01,3.053252462453474037e-01,3.926689391776648774e-01
1.650864532862329481e-01,1.628883623051007590e-01,1.882843795434281653e-01
-1.095269151135651597e-01,-6.568340531268766769e-02,-1.192124010875675738e-01
2.825193114265783234e-01,2.266722291711407156e-01,2.929453425809203648e-01
-2.518348036274181342e-02,-2.134240613138475157e-02,-9.066562186971067333e-03
2.499246807785078517e-01,2.079515640036581903e-01,2.744404848807560082e-01
3.981443199155834112e-01,3.437928613903898922e-01,4.671575433753344386e-01
-1.598498825353659447e-01,-1.414973680247050836e-01,-1.400715544068980578e-01
-6.374921786910170418e-02,-4.541535841956672453e-02,-8.752178613772858273e-02
1.342556826949041493e-01,1.080469118952972485e-01,1.177909905976184252e-01
-7.130511726399590966e-02,-2.656655666939355259e-02,-7.641208145468156299e-02
3.939135388720480524e-01,3.552990101784324617e-01,4.470561260031695183e-01
-2.923893184200507950e-02,-3.609780498713639763e-02,-5.921205427138626770e-02
8.383935307613842036e-02,5.660255213578981731e-02,9.202539373788694299e-02
-6.241339427589095296e-02,-4.566091009862018046e-02,-5.654536457172101849e-02
-3.595123755696885692e-02,-1.625553306302437995e-02,-2.235196756092231243e-02
1.979213485531579053e-01,1.843371860317024047e-01,2.314207415159636738e-01
-3.573850448353270148e-01,-2.961000110426926790e-01,-4.069069236269466372e-01
4.216191065555374151e-01,3.535824865532837258e-01,4.550324329439292548e-01
-2.424499426769973764e-01,-1.869736307607861026e-01,-2.745999648454057751e-01
-2.110294323323449184e-01,-1.357317829433689060e-01,-2.068354607210420582e-01
1.822805695520038072e-01,1.562347125003133719e-01,1.933850881961314827e-01
7.303035800528129284e-02,9.032541985172276577e-02,1.018262434428011953e-01
-4.188332136782031700e-02,-2.157894759763253137e-02,-2.788518226478339801e-02
-1.796361777545339433e-01,-1.602779589377123781e-01,-2.008097743661081958e-01
9.309082243135236023e-02,7.622255334827664208e-02,1.092870442625518412e-01
4.223194119062267937e-01,3.261175590172020189e-01,4.385997417890621919e-01
2.240732863121511487e-01,1.739519780765350909e-01,2.268689073796871236e-01
-2.456209929574247053e-01,-1.847682338786640344e-01,-2.633981654668182681e-01
3.242882714821427315e-01,2.369693718642836011e-01,3.363336473508020119e-01
2.164522918378867025e-02,3.508632788010562081e-02,1.014114300171611860e-02
3.346349633665743895e-01,3.097988774929588129e-01,3.831904839990989409e-01
-4.113042449205049356e-01,-3.669052617269253358e-01,-4.557659953993404844e-01
-1.233694504727117641e-01,-9.772687932065657335e-02,-1.295156239716230007e-01
-8.061426766861490290e-02,-6.782912265862067747e-02,-1.258231165690762154e-01
3.713398969115828674e-01,3.209886950200849243e-01,4.125532446624829985e-01
4.097563233391058463e-03,1.621362101957528681e-02,-6.153435041705707098e-03
3.911455408875230133e-01,3.249396901038267282e-01,3.959395471166723413e-01
-2.256947501246201193e-01,-1.710304553757061585e-01,-1.953185930846552121e-01
4.909986939224963293e-02,2.020280421082737421e-02,2.275219339783050160e-02
-5.620063134913831637e-02,-3.962790434466570422e-02,-1.188502443782157338e-02
-4.480137692810182148e-02,-1.636826049909408803e-02,-4.191271676698197363e-02
-3.645726020930765143e-01,-3.163797035005651570e-01,-4.235769295111793120e-01
4.068064067888427227e-01,3.467973883345175645e-01,4.387702773699125314e-01
1.031603777833300511e-01,1.194120020421679668e-01,1.247388989883804061e-01
3.002953934575847139e-01,2.359228505194001513e-01,3.162856687713652137e-01
-1.196573219421924322e-01,-9.307389856898901082e-02,-1.121074960594114489e-01
-1.218867228460357860e-01,-1.076133870323589398e-01,-1.385790898686914130e-01
7.080983155456187748e-03,1.652410182991312371e-02,1.792826734380897555e-02
-1.733274875995861330e-01,-1.551447800770744401e-01,-2.124691376566527623e-01
-4.087973036533114612e-01,-3.576856400908585698e-01,-4.582155267009065391e-01
-1.804448994847869803e-01,-1.370502270122435362e-01,-1.738797317952195109e-01
1.921468976116972038e-01,1.544436542945813173e-01,1.844761157919683203e-01
-3.032681160018296240e-01,-2.062797542545430907e-01,-3.152052491678856150e-01
-1.454762762989018632e-01,-1.533914879179746338e-01,-1.683767468487485375e-01
7.749509634349358023e-02,4.691707353817564652e-02,8.000393438228918519e-02
7.833796658387325029e-02,7.700300519491831697e-02,1.022368972575619650e-01
3.145656194651421655e-01,2.335830908675152473e-01,3.541276501651071662e-01
-2.937144405717839191e-01,-2.235187710009393369e-01,-3.194254907410483679e-01
-5.987129498046774500e-04,9.796932968690216098e-03,3.613311265413509527e-02
4.346776012378775200e-01,3.461540050485114040e-01,4.712177483885701124e-01
-3.184933373854249572e-01,-2.609503164637878569e-01,-3.839695591655088447e-01
-6.360527655005093761e-02,-4.743053674884617488e-02,-7.844215548527008752e-02
-2.375967806271973848e-01,-2.047823272462236943e-01,-2.720084192183831462e-01
-1.842280371827847985e-01,-1.465619218151114900e-01,-2.234828650626202173e-01
-1.195334239496049500e-01,-8.821712913582611948e-02,-1.282472468592924242e-01
-1.724441734948546079e-01,-1.423721805324136003e-01,-2.221792368602680257e-01
9.942614109239347742e-02,9.897948729655155209e-02,1.141431179879271174e-01
-3.541461353359853792e-01,-2.802733891988460901e-01,-3.796699406923620956e-01
1.985995620288918406e-01,1.740380493884315927e-01,2.198146740250591924e-01
4.019896711488720742e-01,3.334784512404452284e-01,4.672963033954791734e-01
-4.263528024270488159e-01,-3.445167705032691763e-01,-4.795755750097421277e-01
-3.845718093318378772e-01,-3.072305112042861275e-01,-4.279201136459104826e-01
-3.186130282866354579e-01,-2.757272412941428885e-01,-3.506249177269860628e-01
-3.400790682959042299e-01,-3.004806325345222295e-01,-3.706443811545356848e-01
4.713491702725521731e-02,-3.669153473086064006e-04,2.971766033550150149e-02
-2.756663772905688647e-01,-2.536559745793169895e-01,-3.290877936409992155e-01
3.080017953601978387e-01,2.299943115469216537e-01,3.275834721448614983e-01
2.652832743346998923e-01,1.949226949934326214e-01,2.487529405621415057e-01
6.408058404496150273e-02,8.967796403989689025e-02,1.127690487323064900e-01
2.419291155068595267e-01,2.160175900903878177e-01,3.145173213286052705e-01
2.337444821663169081e-01,2.053634595793035478e-01,2.707266783682654721e-01
3.658028720498172071e-01,3.354305196376417553e-01,4.211833643899232094e-01
1.555623137853452131e-01,1.059243698201549067e-01,1.505389069659433532e-01
1.415747756504903421e-01,1.203124894243997739e-01,1.240593020092303905e-01
-7.527845119831894083e-02,-5.434625165377047346e-02,-7.736596671112147550e-02
-3.726075320697136983e-01,-2.996957718612500154e-01,-4.045824336968635859e-01
3.646638163450072190e-01,2.845309279565680360e-01,4.070029723542708533e-01
4.006826117310554602e-01,3.533261152658765947e-01,4.681653924326330540e-01
-2.329282798816171562e-01,-1.845596130701759319e-01,-2.675601465593905881e-01
-1.403474343816318026e-01,-1.407379955022709239e-01,-1.778689032007564619e-01
-2.541459925446365453e-01,-2.311983182560880812e-01,-2.511168929762115920e-01
2.754298845963206177e-01,2.414973746386351316e-01,3.271887386183179314e-01
2.481580256809675922e-01,1.895272479955840694e-01,2.748286671588388019e-01
2.240147500603713593e-01,1.831893402095806922e-01,2.346528209894210293e-01
2.967088753957467517e-01,2.424924738051224549e-01,3.655815325763231982e-01
-2.846779394572301336e-01,-2.380566271518852195e-01,-3.113263045095589487e-01
3.437371991307427432e-01,2.916041200203368100e-01,4.008102554598415579e-01
-1.734215364116994673e-01,-1.976293626787853086e-01,-2.275209493031401520e-01
2.710245483042221237e-01,2.600698227480787716e-01,2.967544577241375547e-01
-2.556448611772321744e-01,-2.202700205970864744e-01,-2.604721062680385724e-01
1.753126884210897685e-01,1.209804425339123524e-01,1.795829014465558648e-01
1.564959272796684064e-01,1.168639677158503087e-01,1.624251742534257303e-01
-2.076814172837133377e-01,-1.517593593344663261e-01,-2.196668520094090804e-01
-1.325653783031703892e-01,-1.257494163645398177e-01,-1.703257725460584071e-01
-2.330495291214583209e-01,-2.007677185868539937e-01,-2.483874828730777418e-01
3.210205661183488379e-01,2.546534041531489656e-01,3.523034794517612145e-01
-2.950087527365601314e-01,-2.615580075185531261e-01,-3.344543338191580117e-01
-1.623787333607872863e-01,-1.123659456653307714e-01,-1.658861330019863467e-01
3.170481212101223800e-01,2.414014943407340463e-01,3.499360178538474808e-01
-3.955352835537037093e-01,-3.243339374842244549e-01,-4.400554436702437400e-01
2.610477721413722030e-01,1.819441555654692511e-01,2.425558398534015947e-01
4.179096067034829276e-01,3.335058831327705198e-01,4.227253405832398503e-01
-1.217967298738429349e-01,-1.226256199036155209e-01,-1.524793200937454851e-01
3.984519772129536119e-01,3.102555408516936564e-01,4.548031937950562376e-01
-4.548493365231527641e-02,-3.601334825615323115e-02,-6.017917857117641156e-02
1.383446752154729731e-01,1.235880278502760193e-01,1.907147554794162148e-01
3.673598458976211067e-01,3.139766837824456980e-01,4.281007717652866029e-01
-1.310314430075384395e-01,-1.022998347996755264e-01,-1.412149749409771227e-01
-9.291571051744591803e-02,-1.160356343029963488e-01,-1.004535472276788521e-01
3.665339733931132771e-01,3.021558175921260081e-01,4.037067895485931257e-01
3.553968434506606933e-01,2.730480369126541684e-01,3.848652880913337460e-01
-3.512380945296589840e-01,-2.977561519419337777e-01,-4.146579314616251066e-01
7.564277000230000547e-02,6.064510992261222533e-02,7.583650194980950943e-02
-3.542033393527341256e-01,-3.057345504896500366e-01,-4.211168343284752424e-01
2.622767835435532713e-01,2.338555145430557536e-01,3.272692243356857267e-01
-3.805954229954171542e-01,-3.336665921527927070e-01,-4.253081701695002881e-01
3.987659599404260735e-01,3.489150051102052896e-01,4.248579378892538005e-01
-3.414320291323833523e-01,-2.664626027052588997e-01,-3.495594575104406521e-01
-1.786594671810026388e-02,-4.277808235970250589e-02,-1.458020831944385060e-02
3.575013406897969287e-02,6.861389619560064566e-03,4.164127641069104852e-02
2.235148579463812624e-01,1.733004817334492798e-01,2.337996124407628884e-01
-1.228280438988254147e-01,-9.216857831358347963e-02,-1.146047445782940460e-01
2.274682084228025342e-02,1.355168060849532702e-02,1.815530288546752039e-02
-2.344608742865636475e-01,-1.942889831885838414e-01,-2.548105818221033658e-01
-7.411467152310176332e-02,-5.742105475505809159e-02,-8.138482808133436219e-02
4.053634789046777764e-01,3.600732413954865208e-01,4.818876080266619732e-01
3.796275126037312320e-01,3.315118076557809212e-01,4.440262370575184803e-01
-2.515784905155210582e-02,-3.610211376317819243e-02,-4.509783364141830425e-02
1.231469890908232223e-01,1.075746496648118111e-01,1.508661481479885713e-01
6.668055640933739925e-02,4.686006261574846704e-02,9.086581656836764664e-02
-3.966754848893260799e-01,-3.063280031978135587e-01,-4.460052606531974551e-01
-2.248207588211259544e-01,-1.646723187413285383e-01,-2.518616852633726588e-01
3.858186542111494838e-02,1.812565962076887957e-02,-4.896394117333625548e-03
-1.969293285044815267e-01,-1.495285794290630299e-01,-2.178257222910963964e-01
1.382975491664336365e-01,7.154657621679616497e-02,1.343162248933386649e-01
-1.945408328080418248e-01,-1.523719760659293099e-01,-1.804999830947551509e-01
-7.592871129182569845e-02,-7.281582757606933076e-02,-1.076246230220336692e-01
2.707515636848825333e-02,-7.271794149953616192e-03,4.176154139794754916e-02
-2.989700836214922441e-01,-2.582648020885871532e-01,-3.269559438080191782e-01
1.276022245942450006e-01,9.886274601142795715e-02,1.007890070395672105e-01
2.556373186370155537e-01,2.165197617324320090e-01,3.044907809257869080e-01
-1.035679531258664882e-01,-6.319885460447147163e-02,-1.138918219203327725e-01
-3.101062544641541852e-01,-2.740233621519996832e-01,-3.046705803445376448e-01
1.897554298628670588e-01,1.518740424929736488e-01,1.856499323200854756e-01
5.714943635596334004e-02,4.323420735781821622e-02,6.211425365176671126e-02
4.932644000418237584e-02,2.500553467385050604e-02,4.352279082767483015e-02
3.725224488697412295e-01,3.063276623941856291e-01,4.011282637377036608e-01
1.185557644730026762e-02,-5.042033275465746152e-03,9.154193252034750414e-03
-3.400369355550935668e-01,-2.946123806380144816e-01,-3.759307885029965490e-01
1.071255366388059460e-01,7.748933787460926537e-02,1.088281937364478646e-01
-2.879105037571740855e-01,-2.002776180774305526e-01,-3.155337582103726612e-01
-2.724046971982252430e-01,-2.647710526413100118e-01,-3.044834039735156983e-01
1.873400223798966013e-03,-1.933214212785035841e-03,1.599430375059780404e-02
3.821025506211036399e-02,3.051906288252509772e-02,1.424457695579890888e-02
2.494017772390528520e-01,2.525352426942737427e-01,3.293709647730013179e-01
1.859128249805249919e-02,6.308735865195622128e-02,3.261945512350688386e-02
-3.436348903793537413e-01,-3.163609107546999089e-01,-3.911790676601961669e-01
4.170790616996913891e-01,3.372469430653061151e-01,4.591134193018860388e-01
-4.316141401917915066e-01,-3.520179772968343168e-01,-4.428108030071696288e-01
-3.662350309065486864e-01,-3.173248700318099802e-01,-3.924933939459629428e-01
-1.643004669141881757e-01,-1.325162443983452509e-01,-1.910056723661658351e-01
-6.803280193823982129e-03,-7.800860669365039697e-03,-1.515833412001432907e-02
-2.007396742376329202e-01,-1.786179066682585803e-01,-2.374510549642524226e-01
1.981108188882246268e-01,1.955076432104227713e-01,2.432737955712109268e-01
1.362077074735807969e-01,1.123525217542540033e-01,1.486221429533926275e-01
-3.222574652074873813e-01,-2.793133743393640955e-01,-3.778033235178306359e-01
4.053046622750287598e-01,3.567243365415591616e-01,4.498581388495782041e-01
4.684787460766307726e-02,2.425624221513564965e-02,7.831505767086498204e-02
3.120895331882704293e-01,2.518166785293639021e-01,3.343205060590010436e-01
-2.010858625834785751e-01,-1.550593366060413758e-01,-2.171193206826330657e-01
-2.689939598066219406e-01,-2.026282348067450223e-01,-2.671205476434242998e-01
-1.892844679160592125e-01,-1.704324871701130284e-01,-2.305502865379311372e-01
-2.663342441901540014e-01,-2.383728318281196634e-01,-3.356824346673993320e-01
-8.604333039902563318e-02,-5.587812238116157681e-02,-1.018248456810183777e-01
5.648642477352947000e-02,5.182065929309258301e-02,2.773475059343385313e-02
-1.726281497261381026e-01,-1.481684113736151664e-01,-2.136614745922508496e-01
3.063793618012012471e-02,3.925450468481306299e-02,5.442529874171484622e-02
-3.667327627926973976e-01,-3.380445414977086283e-01,-4.124719546876846055e-01
4.403448887480462259e-01,3.421815060451435797e-01,4.838468536411134058e-01
-4.141771111234899272e-01,-3.717448441599430775e-01,-4.305508390227431592e-01
3.339134208633786627e-01,2.776613796992736249e-01,3.708438031255716916e-01
6.645509983162267709e-02,6.573129030542988749e-02,9.712344148270574129e-02
3.136575395109974518e-01,2.502357539790698859e-01,3.551782404134705140e-01
2.695784545730779969e-01,2.189189042999166168e-01,2.988314031624484945e-01
1.200262790902223292e-01,1.131153978660250636e-01,1.268100681337341606e-01
2.478842182264903993e-01,2.092213097055232451e-01,2.526726255589339942e-01
-1.546635329564482186e-01,-1.280078297409976973e-01,-1.656061996067170472e-01
-4.301768846657170742e-01,-3.241120935873270104e-01,-4.193541561503527082e-01
-3.832331256441167122e-01,-3.226047963258587004e-01,-4.144048213588110152e-01
2.462427210630311614e-01,2.038715219095460496e-01,2.528599982541729352e-01
-2.451341946960304830e-01,-1.643261673556561664e-01,-2.448188106183329105e-01
-3.419184152578826907e-01,-2.978504321379089048e-01,-3.385952724785947221e-01
3.379119922456109149e-01,2.717260733352442337e-01,3.453161699444903809e-01
-1.724903714800084253e-01,-1.030585813777987469e-01,-1.687538937487369217e-01
-2.043327831557921193e-01,-1.672517420864193805e-01,-2.127630365394356793e-01
1.358262500888281210e-01,1.052023918806917063e-01,1.495516014389944026e-01
-2.648730398501246142e-01,-2.210353077062304217e-01,-2.777832495937264667e-01
-2.901069404606650415e-01,-2.262423144284872456e-01,-3.313400603142003242e-01
-1.945058080346101781e-01,-1.507111280546202803e-01,-2.202732293029441846e-01
-2.154714467715825033e-01,-1.869406634832523340e-01,-2.317176196554427137e-01
-2.972515133292927270e-01,-2.500138059528786982e-01,-3.207567774736425625e-01
-3.312159981045633139e-01,-2.592453942732275141e-01,-3.391525357318642131e-01
-1.068999258160431565e-03,1.699526094895799019e-02,-7.211590317531515332e-03
3.517420385478776945e-02,2.753400340872990543e-02,2.641185746235645559e-02
-3.281885231286353899e-01,-2.221701930155383087e-01,-3.367737231135691234e-01
1.854430392834559294e-02,2.199544333830580692e-02,5.232631021944025157e-02
-3.262553131816723906e-01,-2.690391997229483745e-01,-3.777738282489538912e-01
3.282647850321318561e-01,2.786783454774471869e-01,3.616174174989459922e-01
3.754549444557097604e-01,3.041837784675015532e-01,4.222405977314722114e-01
-3.479743650873697806e-03,-1.019672649455630881e-02,-2.869296387903874299e-02
8.848731457744814233e-02,9.580369968492613575e-02,1.067716927301585461e-01
2.276004871258637263e-01,2.167136639369129647e-01,2.596445863646100194e-01
2.999456357294594255e-01,2.687963925579348601e-01,3.208767357257325537e-01
-1.255521349926046748e-01,-1.386754193639701815e-01,-1.850569248458243110e-01
-1.971634700878531765e-01,-1.839462916535044013e-01,-2.586308419881083176e-01
6.832333937147224735e-03,2.823376296380779998e-02,2.124349553691989162e-02
-2.745836760890734141e-01,-2.292052543821800348e-01,-3.297348580718931221e-01
-4.279874179393672318e-01,-3.520824806125129047e-01,-4.575034425967048346e-01
-2.932603591628705209e-01,-2.390662693660003668e-01,-3.231191757292233846e-01
-3.737786027283165335e-01,-3.284989611720606772e-01,-4.147772678297302340e-01
2.560985261833799778e-02,1.100675953829055760e-02,1.198949923432119508e-02
-1.430939067647947760e-01,-1.078983740743123948e-01,-1.225332549339423760e-01
-2.364488381937332739e-01,-2.015888498784980387e-01,-2.652701415730682188e-01
4.131859514068734751e-01,3.491267672693076363e-01,4.264496516392448644e-01
-9.214812406297784309e-02,-9.470127399279669456e-02,-1.246942494908798021e-01
4.131734918170791859e-01,3.568806617892243405e-01,4.280470520424721759e-01
2.614485805719374278e-01,1.848625160572817949e-01,2.583467306729247404e-01
3.417898299503553949e-01,2.660052240133567447e-01,3.690272617993602400e-01
3.080060510982634558e-01,2.550058035738872464e-01,3.514978441234987705e-01
4.294576850588928130e-01,3.646340333092532027e-01,4.367059613754117331e-01
4.152287898428023705e-01,3.720414353735617685e-01,4.277737776346140497e-01
-1.507330323240554937e-01,-1.146197972427097089e-01,-1.588487072719143856e-01
1.541843583452448263e-01,1.176224896712958629e-01,1.873295711128812324e-01
3.208726011430420438e-02,3.126560403471514895e-03,8.369916286416276274e-02
-3.295339684923506707e-01,-2.714637589539219409e-01,-4.111089700548255510e-01
-2.826975785639666561e-01,-2.604902001127399336e-01,-3.100257338741064794e-01
5.946751351960066073e-02,4.557337147167819097e-02,9.583753224898841627e-02
3.491287737946919822e-01,2.976472798736954917e-01,3.975856896815162522e-01
