-7.486783179666914312e-02,-3.722979949214427986e+00,2.178842694904793986e-01
-9.955189271143075058e-02,-2.109419475792644327e+00,-3.838148191181293446e-03
-5.781316439971680848e-02,-1.837175441371351470e+00,4.545782655741186645e-02
-4.543730630026088235e-02,-2.085739196597410139e+00,3.479048321412924610e-02
1.255529886746277815e-02,1.753438532980802433e+00,-1.740217580580179571e-02
7.498301690141939702e-02,-6.919655720692031720e-01,-1.605220474986990969e-02
1.148083608324253074e-01,2.188129187280990262e+00,-1.581859418659622707e-01
1.520295010703956173e-01,-5.687641525532043385e-01,-1.887171395948288033e-01
1.255150990503664521e-01,2.612909940424250066e-01,-5.497851541535200143e-02
-3.073418791360922608e-02,-3.118212853622057246e+00,9.366374724396074603e-02
1.581438874344526235e-01,3.687563202234725779e+00,-2.522469702934512781e-02
2.208123856009615998e-02,1.920283017988785756e+00,6.407230394996495104e-02
-4.774464292959210154e-01,-4.198257633163869684e+00,2.680895192539962668e-01
-1.574274693268937209e-01,-3.721799861910637386e+00,7.687270152229577769e-02
3.371591719140753368e-02,1.092558378763945459e+00,2.849255853877019282e-02
7.371243424522583298e-02,-1.219628338634630271e+00,9.924064262018554572e-02
-3.464739850135947763e-02,-1.087714570807003511e+00,7.601123094872773434e-02
1.111117832857140830e-01,-3.198975678960489955e+00,1.011828759952375090e-01
5.987509959107201879e-02,2.934385019690382013e+00,-1.239102179150045197e-01
4.801450677321812688e-02,1.815070712548984222e+00,2.172760042219372412e-02
2.544661948384922823e-02,1.549017152839149203e+00,5.127716919939997488e-03
1.947205443551671689e-01,1.412680309498155262e+00,7.732294336291495318e-02
-4.619517333430181970e-03,1.829658365554133415e+00,-3.808035266144764452e-02
8.352745504787358055e-02,2.461598385793459798e+00,-6.548702432212519242e-02
-5.612903706490054989e-02,-1.677892553784666285e+00,1.410081901398378135e-01
1.619121920013518179e-01,-2.342830733442951008e+00,7.795149003225837481e-02
1.826779180959365867e-01,4.020626896301620512e+00,-2.568519599563133249e-01
-6.670669492727082650e-02,-4.089746457266641322e+00,1.386110424022514165e-01
-4.300656955712869184e-02,2.498004731202552176e+00,-1.717286510721716120e-01
-3.198965618926489368e-02,-5.367137125139003206e-01,-9.796758297066529564e-02
1.257377938648008009e-01,-2.677203879780798434e+00,8.405535413084978813e-02
1.997690261423007083e-02,-1.460073231524178450e+00,-6.785365200944150355e-02
4.697923307270174265e-02,-3.488979039323473419e+00,-2.221533815442682316e-02
-3.143719169074810776e-02,-1.262697037946178824e+00,4.348327020072818155e-02
-1.104772576543691098e-01,-2.490627034437081555e+00,7.270246862046754466e-03
5.366571434838744541e-03,-1.314992013787068537e+00,-7.146636558628911839e-03
-6.965181225170785639e-02,-3.371343146257870238e+00,2.612024043516895933e-02
2.202272328302826154e-01,2.482764432118012898e+00,-1.380827704983369486e-01
1.795324797889703283e-01,4.226559202957433925e+00,-1.193701401222197062e-01
-1.852813963350447846e-01,-2.131136111544541301e+00,5.493116236218893722e-02
2.226578383884489712e-02,-7.809989040546968520e-01,-2.299095464149557635e-02
-4.187247145879229027e-02,-7.495829494453866149e-01,2.402434079320004134e-01
1.371135023833731648e-01,2.857964103448302207e-01,1.801561577287073002e-01
-2.963579846788517644e-02,-1.608111920825853414e+00,-2.073879877942303718e-01
-4.984877900717028104e-02,-3.041981685137230773e+00,-8.637611580146084544e-02
1.090696226036455829e-01,2.522376933268103638e+00,-1.547502343516928558e-01
1.049408362955835117e-01,7.019561855009452955e-01,-4.542808443155853249e-02
-2.570220119553931828e-02,-2.222004275277627894e+00,-1.087507311653158372e-02
-1.154525250401632341e-01,-4.007797471014202806e+00,9.808025929454414205e-03
-3.795373828655547455e-02,3.750889483255440471e+00,-2.816277643516334681e-02
-7.364006925642856138e-02,5.349844635456797448e-01,-6.149529032425792019e-02
1.961030091472716619e-01,4.100736027370888159e-01,1.172017656119095363e-01
1.450466970767001484e-01,3.412783284539762096e+00,-4.319317371257820615e-02
1.892582715932585036e-01,3.654712774471279069e+00,-2.240085857891902649e-02
-1.176857155767574784e-02,-2.732752063376850504e+00,1.223170724939300485e-01
-6.254207850256341371e-03,-2.196262681999960886e+00,4.926595474435305211e-02
-5.607258856486480036e-02,-8.564733069443198898e-01,1.761071933941726342e-01
1.770928779379739304e-01,2.705813876587364941e+00,5.556507234342825813e-02
-1.128637393615730677e-01,-3.080484109043173824e+00,1.966351898612961682e-02
3.674178719540001359e-02,-2.847731741325757460e-01,2.866433388815711747e-02
9.633229866695115773e-02,4.115921507755779807e-01,-5.619658902583905824e-02
-1.160615863288221028e-01,-1.956062227196810666e+00,1.407326263861614357e-01
6.870382922558519734e-02,2.457554912991227525e+00,-1.327323379938193937e-01
2.534008817363136434e-01,4.052342345487304875e+00,-1.419638376740142982e-01
5.050719583967817894e-02,2.693731184393437950e+00,-4.587958351619907810e-02
2.777849615678512074e-01,4.042908009779767831e+00,-5.179646807644160134e-02
7.730617364709114862e-03,-2.739983833245913658e+00,-3.872220495224681924e-02
1.533566721679725624e-03,-8.361215810155640804e-02,-5.374715784645663075e-02
-3.639464612173261976e-02,-1.810525850564937755e+00,3.609355836316100602e-02
-1.040557231931991677e-01,-1.131003096301202770e+00,-7.290953561423323126e-02
-1.035520154527849179e-01,-2.228730997496538357e+00,-6.908378256250802263e-02
6.704255163318310895e-02,1.165579299176767281e+00,-1.100633940447169334e-01
-4.475272357048806944e-03,-3.271805795357399127e+00,1.879492724584841123e-01
-8.723377107341875880e-02,6.072704637893976132e-02,-5.824807678863784532e-02
3.337726620457100168e-02,-3.750256424011105594e+00,2.063761698972897407e-01
-5.345873178689825034e-02,-4.216230675894824032e+00,-4.260150096008247927e-02
-1.545940316046903480e-03,-1.879287172572166931e+00,2.650252839958554957e-02
2.780757000268941487e-02,3.355722039546837898e+00,-1.153005403840203780e-01
-1.653942721353425169e-02,-2.168431667116781369e+00,-2.317959640220679934e-02
-1.221034025471044726e-01,-2.546933263801565595e+00,7.365137842009611413e-02
-5.093881220234338508e-02,2.466631264908150545e+00,-2.685147161650411896e-01
-5.776184100411062283e-02,-5.804851946761098169e-01,2.537742181206849301e-02
3.846543872244310297e-02,2.993587941070470659e+00,-3.131383676279635431e-01
4.507311678401924177e-02,-4.535581411211395998e-03,-1.759808925549285474e-01
8.428192559015923457e-02,2.112592645637739075e+00,-1.492247740962851510e-01
-1.524416412205916727e-01,-3.951274100512588205e+00,1.794777748204731127e-01
-9.466377706802224512e-02,-5.647551945553133113e-01,3.577606343823484109e-02
1.899484487639353791e-01,4.268151413550447693e+00,-1.612629709787377630e-01
-2.801972058692280276e-01,-4.319090449899216644e+00,1.241491696087136942e-01
5.150657912138727895e-02,3.016169114036369336e+00,-4.462296459413019750e-02
-3.173239891995464218e-02,1.325924265774076849e+00,7.611694916743398653e-02
-1.608352447490472154e-02,2.501714936117047650e+00,-1.184405488850013705e-01
9.692251990802758232e-02,1.362149329264226438e-01,-7.647112748808340818e-04
-1.498814201077601771e-01,-2.049327878053610608e+00,7.372024974598281877e-02
1.862662384218900513e-01,3.522843465925983963e+00,-2.157853180521365488e-01
-2.966457869403856251e-01,-3.127269065999780828e+00,6.379535937856666006e-02
1.977000163563102098e-01,3.209793363600170313e+00,1.943397776807955293e-02
-3.904018434760432588e-02,3.243152719964906283e-02,-6.973685696722213556e-02
-5.309831067184227898e-02,-2.050702711843706894e+00,8.845434695957560267e-02
1.762880546012947081e-01,2.948754499714575150e+00,-2.022194022088296406e-01
2.066499175106934483e-01,3.619601126296717375e+00,-1.680787412884204857e-01
2.271738689132601907e-01,2.367532585114120014e+00,1.433575130207423616e-02
1.975793494314837528e-01,6.372083766206882993e-01,-1.014444745066675133e-02
1.301082295074205697e-01,2.639260282244975553e+00,-1.012049871978703552e-01
-6.225547495464008041e-02,-3.161256926438579917e+00,5.855495341060898418e-02
3.764237403574025725e-02,2.525957419871990961e+00,-1.155267472761784819e-01
-1.216168174689582770e-01,-2.537798585538849405e+00,-9.076230066576067290e-02
-2.339023041994998664e-01,-2.684890376998892325e+00,8.756933847337276811e-02
5.137531582474465230e-02,1.557118988417369287e+00,-6.716317777791291910e-02
1.183736187928885325e-01,3.523820921502349157e-02,1.919989759469103163e-01
7.827474331915014460e-02,4.030546816292244650e+00,-1.364297060693153985e-01
1.775446936904850059e-01,2.468683580861946947e+00,-1.619064290283827312e-01
1.460692304900992888e-01,2.043271241517659931e+00,-1.066409082673307196e-01
6.568880942454443511e-03,1.507300904478654502e+00,-1.932221196207181968e-01
-1.628999723943476696e-01,-3.501038551000497101e+00,8.453907487383466313e-02
2.284364017807529457e-01,4.002294631929617985e+00,-2.278612429729216238e-01
-4.114307251590129666e-02,-5.260928743220640857e-01,1.740928224037546768e-01
-7.715848921004229977e-02,-2.353855168766527228e+00,8.369183861518333933e-02
1.287776459438990870e-02,6.720860009014625880e-02,-3.377850127007209387e-03
2.022943479560893737e-02,2.948948342471470419e+00,-6.157983667928815241e-02
-1.017578844089335882e-01,-3.985244743822898172e+00,5.091553812093122661e-02
2.643319471112071974e-04,-3.406554972660946312e+00,6.727530705945454492e-02
-5.261953078256321331e-02,-3.177385568799120374e+00,2.100672324243383349e-01
2.088338670400820551e-01,9.639527300074288707e-01,-1.052334039696714435e-01
-7.616645320287695684e-03,2.307966660164979977e+00,-3.145615131258181624e-02
8.222400105667776460e-02,3.001318184534507605e+00,-2.504275458793290502e-03
1.800584590816554226e-02,1.251592845659026176e+00,-9.675716418798815943e-02
9.689419622412379779e-03,-2.453649740822557934e+00,4.661009998498503309e-02
-1.784943566079351951e-01,-2.721444482709034940e+00,7.421703124704066845e-02
1.112743345482077040e-01,2.738489189313090932e+00,-9.085708920945968770e-02
-4.206961348158028829e-02,-2.508203573422027155e+00,9.999097927325258095e-02
-7.891263033450088282e-02,7.878709732024820056e-01,-4.960048167582330192e-02
1.984341112653262851e-01,5.855829011975610676e-01,6.713207938993212553e-02
2.868856987624872693e-02,4.202085947005482325e+00,-2.181324710389293819e-01
1.420047978503497788e-01,4.274406324445405581e+00,-2.883272354729636278e-01
-1.362571714441547510e-01,-3.247817720588884960e+00,4.096054219784440315e-02
-1.552698915387844547e-01,-2.664990821700174095e+00,5.125404149240304214e-02
-8.062881901505625226e-02,1.158778172117934435e+00,7.594842884140910744e-02
6.014757251586127368e-02,-1.726175179405576410e+00,7.401055767458969425e-02
1.006506532065270243e-01,7.979634546659400973e-01,-1.186069042448858329e-01
7.410844429895188656e-02,5.742693580337878689e-01,-1.054024057444849921e-01
-6.098349878206762303e-02,1.818291980066875091e+00,-1.673348558953330623e-01
7.987236942300099049e-03,5.782909168779210018e-01,-8.163526846118496216e-02
-1.667035244252262072e-01,-3.967050136460300802e+00,2.766146308559432332e-01
-5.908295243234543137e-02,-3.521050199787097323e+00,1.187336117187022810e-01
-1.336422231300174734e-01,-4.089643387348806058e+00,1.283267580846249312e-01
1.024977624788552255e-01,1.820507034958186665e+00,-1.509729869669100555e-01
-2.255844881461877352e-02,-6.800064001167325234e-01,-8.668026019145599892e-02
1.058024271201824101e-01,4.005676107529299479e+00,-1.702270294130332762e-01
-9.927317434002600957e-03,-4.210251195714830530e+00,2.138705739363306879e-01
-3.017273184432922931e-02,-5.696151184037192561e-01,-3.722157137541330651e-02
9.571691705907672820e-02,3.534486384203820553e+00,-2.394091905843852633e-02
2.548208976154360192e-03,3.439949824803282930e+00,-8.336439282650762173e-02
3.181369020898567462e-02,1.060486681369184003e+00,6.133567960336922323e-03
1.128477017848899672e-01,3.469314434210157394e+00,-9.877183337864270385e-02
8.302504868941153193e-02,3.040800793218739084e+00,-5.747872375545120399e-02
1.079829572774043678e-02,-1.099903341618731628e-01,-4.250107147319191758e-02
2.226777081151724569e-01,9.312565780665605919e-01,-4.849461673481457458e-02
1.640285551578924139e-01,1.686074908540897699e+00,-4.194961023739507411e-02
4.708056962029751741e-02,1.392686727734596119e-01,7.905240640386243522e-02
8.941731628992951111e-03,-1.931292287282045939e+00,1.716684182335213860e-01
4.090908052614883328e-02,3.145028581056274142e+00,-1.040333761507351434e-01
-7.059648415329029814e-02,-3.138494320205133192e+00,1.674309289773406872e-01
9.971802912976003574e-02,-2.766662130322991020e-01,-1.400041707662997847e-01
-8.670409003154909075e-03,2.447719527992753275e+00,-6.255009493562763145e-02
-1.487253136437850509e-01,-2.119322862681142894e+00,1.638421440344099422e-01
7.657460888864844883e-02,-3.366715968560334726e+00,2.109804780902270749e-01
-4.593752411007686470e-02,-3.943234238249113233e+00,2.361774300123180570e-01
-1.034353849039799239e-01,-3.410298515006215059e+00,7.305827485552852940e-02
1.862210059355323410e-01,2.689752566776022036e+00,-1.251139424114775800e-01
-2.093174635884153811e-01,-1.194163692004277966e+00,-8.781230387051527919e-02
-1.207550320624531243e-01,-1.081171925537340428e+00,-6.200686866397309149e-02
-1.690807837584436812e-01,4.516813677998025578e-01,9.735114143977458001e-02
9.218510613314689905e-02,4.085427042043759727e+00,-6.466251553147629727e-02
-4.430993874845571417e-02,-4.577985269492017006e-01,1.769728740949433679e-02
-1.436439272560280644e-01,-1.174485709335885808e+00,5.103548886397164808e-02
-7.391331135122607143e-02,-1.549730340691031882e+00,3.341259006885932692e-02
2.283737383016574279e-02,-3.171661214872355750e+00,1.798316370337844361e-01
1.307211818692811667e-01,-7.596477687754189523e-01,1.099208605137096256e-01
7.470569605559296278e-02,-1.324886918545266301e+00,4.519880308652160679e-03
-3.118092847225091904e-02,-4.844922691659780262e-02,1.182836740483079879e-01
-6.456120951700548838e-02,1.875551554737737492e+00,-6.740187050416983350e-02
1.249646902357946926e-01,9.054894597043443571e-01,2.625484725233448793e-02
8.438668184067921185e-02,1.068669136049689827e+00,-4.766927612161024619e-02
-7.558356047837429779e-03,7.588230145538095162e-01,-6.126375348921452718e-02
-1.192583094940484617e-01,1.827154265061715077e-01,-3.703296002156630795e-02
-1.066386054144102813e-01,-1.397331382802952104e+00,1.071019890039168199e-02
-8.457124526596954128e-02,-3.696552800985714260e+00,2.183600235795095379e-02
1.284956155121090744e-02,1.815786515243438037e+00,-3.373950866700162199e-02
7.158680266027402095e-02,3.206457836740844503e+00,-1.762309184159633335e-01
-2.257557265184005624e-02,-4.211954493517404252e+00,2.112318049372335638e-01
-1.180102858421615969e-01,-3.948860802156556993e+00,1.279800607376053445e-01
-8.822756636714300382e-02,1.067587220573626094e+00,-1.256664200229580253e-01
6.756983993311647951e-02,-1.896321431661186718e+00,2.178473721433010768e-02
-6.303873254026010065e-02,-3.278933679646025556e+00,3.378301654675070625e-02
-5.723456946491114333e-02,-4.219390303836918044e+00,2.157283104598620715e-01
7.498629357519392968e-02,1.635022221104988904e-01,3.558156047640938929e-02
-1.170320748001962008e-01,-3.418653801307403484e+00,1.415433479342242118e-01
3.931547547694753258e-02,-2.958601552961462877e-01,-1.530115484003249648e-01
-6.072682255211732383e-02,-3.891870290179037628e+00,1.396491800964066443e-01
1.457664769544563532e-01,4.535194521624172359e-01,1.361320367835100638e-02
1.520972682749775484e-01,1.100207684364776922e-01,-5.754050464882607546e-02
-1.261450726554323443e-01,3.081765641665246136e+00,-1.495192417949963160e-01
-1.914613720375274095e-02,-3.048390497396263665e+00,4.233676230059846279e-02
2.271298860750415038e-01,3.658718381870704306e+00,-1.872657267588204444e-01
9.251039680885841943e-02,-1.255638949572053464e+00,-5.062838403935360915e-02
-1.276758952012333956e-02,3.834147803627896867e+00,-6.037635144519114261e-02
-4.566559693348207910e-02,-3.550478983627817886e+00,2.943729236175282038e-01
4.074286076623651748e-02,1.540031038833089283e-01,4.179039590029082207e-02
1.682682377900596854e-02,-3.512944457222165084e+00,4.364168145404636462e-02
1.471297229405708062e-01,1.779247100085532551e+00,-4.049036446565186520e-02
5.063871088819139193e-02,-2.537105281542824553e+00,1.414848656113521230e-01
-5.083255683007750769e-02,4.063533250841772637e-01,-5.142055562922616396e-02
-2.737918580576483712e-02,-4.179907583408333238e+00,1.962991643816024145e-01
-5.120670950583236514e-02,2.370023250600987730e+00,3.006410110797346630e-02
-3.554055030900876710e-02,-2.642430306837789011e+00,1.676693691877763626e-01
3.817905348962143813e-02,-1.578942600799148277e+00,1.935775839903340623e-01
-6.576068405083972113e-02,-1.319766799338488950e+00,-4.827204454684515256e-02
-7.940419622554413526e-02,-3.758652531098648719e+00,1.584753441906248672e-01
-9.577864796620667864e-02,-3.058818563681234615e+00,8.569035097052882244e-02
4.829690718519021042e-02,-1.375979651181166830e+00,2.427013953316434474e-03
-5.852051513317390458e-02,2.251660619577994904e+00,-1.118088053095338263e-01
-5.597666268109490612e-02,-3.010576951930920675e+00,1.103213240901650821e-01
1.436542994272269336e-01,-1.903456571046448498e-01,1.636324911827972128e-01
4.687066128792933412e-02,3.101166298659958631e-01,2.163429375542854499e-02
1.714008990794371745e-01,1.961784945902525612e+00,-2.699562236901168616e-02
1.969211323878195530e-01,2.566714106467336443e+00,-1.064136804845410011e-01
1.802590965112487731e-01,3.350298901589239264e+00,-7.122180922889118082e-02
1.904350106179331648e-01,3.174049331663712170e+00,-9.471014168833546965e-02
1.974656807911030917e-04,3.540917591415130961e+00,1.361829845070948279e-02
9.710399278623878944e-03,1.154353224205552753e+00,-6.253386125493437531e-02
1.903753450133324199e-01,1.679823602701532970e+00,-4.517668734933444341e-02
-8.549118000308936205e-02,-2.848818641596263301e+00,1.143552964565865415e-01
-1.576987375618447151e-01,-3.781732856838901924e+00,2.053264780009357027e-01
3.515200873803824705e-02,5.864460030919277367e-01,-8.256590373915604492e-03
-1.023107808272950003e-01,-3.989604373258091030e+00,6.618710040545724982e-02
-4.649945254628137792e-02,2.230199357193315635e+00,-1.569292834293743444e-01
1.703532150235466044e-02,8.505537466479488051e-01,-1.272194449097215248e-02
2.567602411233074408e-02,3.375998317808379223e+00,-2.156935573120610100e-02
2.206141191505770482e-01,3.625133287099407742e+00,8.810155689034810181e-03
4.600891251100533430e-02,8.915708463032434583e-01,3.689786783797098860e-03
-3.191817449287135539e-02,2.117507799041693506e+00,8.066565347146791021e-02
8.391026161656799098e-02,-2.973238945885353868e+00,8.369265823701274587e-02
1.019289284839706433e-01,4.265776737543671260e+00,-1.693555813213179218e-01
7.543481834606070857e-02,3.766631114364588750e+00,-5.376360449592469670e-02
1.615018850952801566e-01,3.434609454698222208e+00,-6.643263029661738983e-02
-1.232672514923089241e-01,2.051097711144741709e+00,-2.478656579238591728e-01
-1.487613060862456038e-01,-2.115790913372393778e+00,1.616758077543092309e-01
-1.067801028593981932e-01,-3.805974791742432473e+00,-3.796961364551462541e-03
-7.546312389585602132e-02,-3.432470950639737062e+00,1.517358777109415469e-01
8.314712669882055873e-02,4.039562309366072079e-01,-7.759145413690830828e-02
-7.422963911330751619e-02,2.310411085023134969e+00,1.501593371799277848e-02
-2.706194137392079271e-02,-2.880198449115327186e+00,3.629808794924678506e-02
4.337253620047876873e-02,2.468277448984341316e+00,-1.552791277142155368e-01
-1.317006192491613770e-01,-4.146629457544190878e+00,2.416414195679003341e-01
-7.125768362378546994e-02,4.053871408015337074e+00,-1.122455940347877323e-01
-1.670952138475725185e-02,-7.088772436008635713e-01,6.280508306683602049e-02
1.398720630858868441e-01,-4.356431563773159876e-01,2.600627092666653317e-02
3.541472166437482656e-03,4.520003952862520213e-01,2.692185580147182442e-02
-2.657851807308153971e-02,2.192490126972729936e+00,-1.851665238793940294e-01
1.302656037614256246e-01,1.002016652895117543e+00,-9.676305899431020263e-02
-8.021154475597989941e-02,-1.341932466919899092e+00,4.784776942802047850e-02
-7.351129452415203040e-03,7.431678541286025341e-01,1.104292399574474531e-01
-1.127947963899356837e-01,3.847104971383865646e-01,5.984364780925136712e-02
-1.135928826105900707e-01,-1.564603410573063069e+00,1.221128769857325741e-01
8.472960504067966747e-02,1.561278747232853981e+00,-1.280829746907151401e-03
-4.137797250866435961e-02,-7.512922584817905980e-01,5.004522031110041069e-02
1.938481683383737886e-01,1.038406146552618647e+00,-1.619665773167029976e-01
-1.944049211381103093e-01,-7.805463057656740755e-01,-8.426407326978940793e-02
-8.247809382313317506e-02,3.217457817804998843e+00,-2.247180857769027484e-01
-2.263681197988988772e-02,1.769441933090304619e+00,-1.707914858947236769e-01
2.575814546046138048e-02,3.735305980014510752e+00,-2.553128022218779658e-01
8.665669319471894227e-02,-4.117552709806784894e-01,-2.024563419246023718e-02
-8.621706829092824764e-02,-1.341652475342834272e+00,2.198970621927824262e-02
4.756863976902480501e-02,1.985529778538525303e+00,-4.891928854196973819e-02
8.480778177502829723e-03,6.317520494088374461e-01,-2.281490862780079579e-02
-3.967611591760126372e-03,3.946631536163554888e+00,-1.433017007294196954e-01
-1.458596305262662429e-01,-1.101754687216383255e+00,-1.644510488192673422e-03
-1.535383656266220975e-01,-2.826998094109482107e+00,1.273987194205524476e-01
1.152116173378277542e-01,5.297938357750886507e-01,-5.706380962741820773e-02
8.665444153889843848e-02,3.285250063530726905e+00,3.359671475070336033e-02
-1.432068971048677530e-01,-3.849588381902366852e-01,-3.838852895435140161e-02
-4.837715619637937559e-02,-4.197893959652771123e+00,2.321726343647474988e-01
-1.518056199335551804e-01,-1.467213146577711624e-01,-8.204496791884346649e-03
-5.089303649059476881e-02,1.478169610108607923e+00,-9.686457726866844198e-02
1.442115334771681412e-01,3.600270281639954550e+00,-1.336662128753505867e-02
-1.354321398083166983e-01,-2.292433686658789327e+00,-1.542926739065000365e-02
6.001771979960821013e-02,-2.588003506377332119e-01,1.092346337731043698e-01
1.181442623614181869e-01,1.616258143478751741e+00,-8.768890015976965602e-02
-8.799576739696371441e-02,-1.963107303758122590e+00,1.182117398510877243e-01
-5.465722273949268073e-02,-1.767947216136422250e+00,-6.749988400773375592e-03
1.007296483703518930e-01,2.544056660522865165e+00,-1.372115170860729039e-01
3.410151023029864281e-02,4.702220348632101254e-01,-9.126201058827229651e-02
1.025352571734659823e-01,1.866263733116803325e-01,-2.152241833038486332e-03
7.130665728468088549e-02,4.194410393647401314e+00,-3.606821104551222873e-02
1.479594825717380768e-01,1.683412822190068159e+00,-4.803678723690452818e-02
-7.014471845275999096e-02,-4.125546321228736879e+00,9.317534430027303582e-02
-4.249316743347086173e-02,3.905353172683920793e+00,-4.397643850844888680e-02
1.463682650886606318e-01,2.380592613387002288e-01,2.227567041344024473e-02
-6.565419773809855197e-02,-2.842376510556627878e+00,1.141266366880761274e-01
1.604109627721300446e-01,2.010968642923758765e+00,3.861938359616188393e-02
-8.471902583161551592e-02,-6.478992788884292420e-01,1.122072751902714327e-01
-3.286797144102646118e-02,-4.710800894320951726e-01,-4.395595949293577137e-02
1.958701779692303135e-01,2.779095092153609503e+00,-1.531710144420782849e-01
-9.807510442190385536e-02,-1.619060222220158218e+00,1.060648975300399616e-02
4.955129620862110118e-02,-1.603463962115325492e+00,-9.341288179003524872e-02
6.028267000911066709e-02,-1.842400129617296933e+00,4.271224113239507902e-02
-8.490694389020095323e-02,-1.310515316440304945e+00,1.726928723905676311e-01
-9.651193814315461861e-02,2.440013605188640911e-01,-4.715229636024487192e-02
-1.238969251817182982e-01,-4.080978915717221156e+00,1.356918144990502777e-02
2.471519488174655499e-01,1.455190427530834052e+00,-1.516511295541850789e-02
1.689405577889337429e-01,4.865591748350757140e-01,-4.542983143603606527e-02
6.573265237024397689e-02,-2.874738682426076358e-02,1.105320782105056326e-02
-1.156512407471045473e-01,-1.547283017613246825e+00,1.251404429521563721e-01
-9.614012413681305436e-02,-3.026870602343620043e+00,9.185337749375173388e-02
8.254620610203737552e-02,2.115047804143880050e+00,-1.093138421746556177e-01
-7.323969863489064591e-02,2.351061756901482891e+00,-8.850112183725022952e-02
1.747625367602613777e-01,1.314654644870516753e+00,-1.433955391277445257e-01
4.773135220149748656e-03,-2.998826409102564483e+00,2.188724738639956646e-01
2.248465798611001820e-01,7.033113316715224050e-02,4.590468660569079623e-02
1.292731149788981793e-01,3.980713549994677081e+00,-6.004900972570748063e-02
1.500283331859302571e-01,3.959654823465059703e+00,-6.883742415063366649e-02
1.090107432731350773e-01,1.713760475325424970e+00,-8.129881556537468801e-02
-1.309329818523865263e-01,1.995099856122577453e+00,-7.902595757245309271e-02
-1.880777867891210778e-02,-7.410427840625833928e-01,1.634017279937657538e-02
-1.276526996222582776e-02,-1.803455405592705174e-01,6.605734621502483417e-02
1.009131987069599029e-01,1.154965462897406203e+00,-1.300184903809837103e-02
-1.102205572417622736e-01,-3.858482553810609783e+00,7.783962427877258450e-02
8.729312156543087009e-02,-5.833020609343453344e-01,4.673238286850787265e-02
1.012524547088953786e-01,2.375904780803776539e+00,-1.152636694568278386e-01
-1.549152882546659948e-01,-3.668175258408666650e+00,1.384162434753479221e-01
7.333374297871745641e-03,2.919670149438570839e+00,2.996728300290963862e-02
3.485173968382671017e-02,1.330448483138053639e+00,-2.899572011685238107e-02
-1.104057460248625278e-01,-4.233196689873520491e+00,1.251338630737993951e-01
3.665735894084924413e-03,-1.747446296126211607e+00,9.161284717099293928e-02
1.298427718741727022e-01,2.760557109037481638e+00,-5.409267999864844634e-02
-4.602727589777624168e-02,-3.048576934776921821e+00,5.808930435673027165e-02
-3.654557383867568926e-02,-1.629463803601977956e+00,6.413641726704381874e-02
2.353512013694005617e-02,3.369415338482316447e+00,-1.176787273603387002e-01
1.644889424144207329e-02,2.676480995835855303e+00,-9.471143118818836637e-02
-5.725480905544043202e-03,-1.382212839718355513e+00,-1.178230893806920532e-01
1.724191875865418166e-01,-1.936211258325425177e+00,1.769302166705918611e-01
-6.018189083390525218e-02,-2.620706160189497425e+00,9.236865398314841880e-02
1.405456776589095180e-01,-9.293589669349024973e-01,-3.849514590021274607e-02
-1.352122000876521991e-02,-4.506896740543370194e-02,-1.237166389584172105e-01
-4.818243186737768829e-02,-6.677376183130998566e-01,1.006094155485714875e-01
-3.446475672307863780e-01,-3.997504779085825799e+00,2.468753633322084418e-01
-1.161157083519742672e-01,-2.979069352168097318e+00,-9.138034423419628960e-02
5.906232988061606466e-03,1.525359308147905990e+00,-5.451565913291840648e-02
2.624023198538165749e-02,2.775904392336934645e+00,-6.103957356280961810e-02
-7.913757986603883743e-02,-5.554580961595471100e-01,-5.103626317215925051e-02
-3.256704018540852036e-02,-1.094074040935329561e+00,1.423856710464541930e-01
4.398660353107228943e-02,2.154544099153853587e+00,-2.455833485946162797e-01
-2.946698992082684865e-03,-3.084456183664586182e-01,9.433725649139086677e-02
9.356236600585056407e-02,-8.223562627841635164e-01,9.937658813122163606e-03
4.108731475006330291e-02,9.758189221550898074e-01,-5.858350704473155868e-02
-8.873187193111008175e-02,-2.151390377255231634e+00,1.406833686787815896e-01
-3.985350494787455455e-02,-3.509310360856858324e+00,1.460923126755703516e-01
5.966289240159947105e-02,3.694369732720470090e+00,-7.103661495570397222e-02
6.103147361120576236e-02,2.998067451718670728e+00,3.934500638194057126e-02
4.248107656791433318e-02,-2.295520769020143792e+00,2.435343916221195323e-02
-3.349430286753778824e-02,-1.666924609602041807e+00,-3.549072741970453471e-02
4.130605497456120434e-02,4.147998521972662722e+00,4.555029907948408147e-02
2.414301838341619544e-01,1.270694050203782233e+00,-6.126631436426149824e-02
1.665906945819174145e-01,3.859373638372597615e+00,-1.267404939261338181e-01
1.657329603079396863e-01,-2.510341418186159967e-01,8.525281009208893201e-02
-2.048657781064640582e-01,-3.534669687778091873e+00,2.413428056203576755e-01
-4.670034582788995525e-02,-1.136560269330931572e+00,1.485034334645701504e-01
6.614199554789658431e-02,-7.650672265239258918e-01,-7.737193641200691696e-02
2.229855642952451728e-02,8.865519553703796740e-01,1.202253049970580107e-01
-3.437897852915808988e-02,-2.288672778211477521e+00,1.226943385315495960e-02
1.389775813062069931e-01,2.686370864958743443e+00,-7.258677020888402998e-02
4.809283322813117517e-02,2.011865741543746644e+00,-1.922664353164892093e-01
7.047014397994917634e-02,2.596931316012317748e+00,5.443538452860195026e-02
-8.223198507064619078e-02,-1.925388034410931148e-02,1.375399162248069906e-02
6.786299052768041129e-02,2.142454290988379029e+00,-4.432145317054300704e-02
2.398354449145077144e-02,1.687385265398578582e+00,-1.590590197058978916e-01
5.150792474142668054e-02,1.042526485163219191e-01,-9.074803476195825169e-02
-4.904857636092280898e-02,-2.267585732226447437e+00,9.782794694176373540e-02
-2.890558630365598625e-02,-3.675124193767500991e+00,1.095531661724957612e-01
-8.990305118701369391e-02,-8.258729124969895752e-01,3.509857204726594265e-02
1.121451644568632472e-01,1.651902168645062563e+00,-1.077923344125290006e-01
-6.140920911853779696e-02,-2.054297254416962204e+00,4.412129766274636156e-02
-2.494190561178712823e-02,-3.607388714678947839e+00,1.424748724390388910e-01
-3.652644759343154357e-02,1.034136187576444321e+00,1.208548331076817195e-01
-7.536438955650598924e-03,2.211439802519797659e+00,-6.525566715353445235e-02
-2.282212988341893456e-01,-9.800402218087757023e-01,-4.712303996733550882e-02
2.040321670395478515e-02,2.633473964371796927e-01,6.254877879139660035e-02
-9.811482986387194682e-02,1.918554750334689585e+00,-2.533522122841699309e-01
8.882407315118377722e-02,2.573095415540985892e-02,-1.549968334374340895e-01
-6.541123053079329897e-02,-4.436295583737401849e-01,2.689898875723809382e-02
1.440096175554465320e-02,1.163058490609165246e-02,4.291647794529099280e-02
3.758234245333336859e-02,2.593078351270601711e+00,-9.613758323695678620e-02
-1.083198571307456837e-01,-7.130429572606947763e-01,-1.123717770313014952e-01
4.353063857285004168e-02,2.123008900456754500e+00,-1.404550578977588615e-01
-8.778229208608338829e-02,-1.110073278724108325e+00,1.295828601298087100e-02
6.611457524408585751e-02,-2.663250920130153965e+00,1.329543277060389883e-01
2.782193497413893227e-02,2.278260913654312603e+00,-1.932733356196419602e-02
1.372333063023117583e-01,2.593846596101174296e+00,-8.642734269483477727e-02
-4.932617250960029398e-02,-2.350396690995095295e+00,1.870501657742695278e-01
5.633437368782646254e-02,3.052575942427374400e+00,1.258709209905739708e-02
4.208121183621861550e-02,-2.319580060756234019e+00,-5.921502907219819423e-02
-3.458732942292262746e-02,1.911965424622118492e+00,-5.178933974249076005e-02
8.416914824818794161e-02,3.646137006109588352e+00,-1.580525421000407715e-01
8.069367647127438647e-02,3.823806473072261625e+00,-3.526701331503465792e-02
-7.523598790656690904e-02,7.340851148789341307e-01,-5.352790913249269589e-02
-1.851933088538803424e-02,-8.618630984160674524e-01,-3.027411956778792990e-02
-1.646633570774031288e-02,1.952397072494679309e+00,-1.098172239469946826e-01
4.896899163298256558e-02,4.090597559249092185e+00,-1.730836736710596457e-01
-7.318383394354921467e-02,3.297415891628967533e+00,-3.451763520538905783e-02
-5.716312452898084789e-03,3.409349195374325459e-02,-9.524800787216421150e-02
8.299711265011672223e-02,1.897224426070592829e+00,-8.506294899887341041e-03
1.367645015872947789e-01,2.091749786858666749e+00,-1.839386380610182892e-01
9.040689774615548457e-02,-1.940886008664856055e+00,1.667996350831564556e-02
-1.198516691600050310e-01,-2.641020291862761660e+00,9.539589830253440705e-02
-4.386727797074216340e-02,-3.996685234199417902e+00,7.819362252950133596e-02
2.733847900672252071e-02,6.246269324846790427e-01,3.868626094019167894e-03
3.942106583247633605e-02,1.591195307042909235e+00,-6.145425283222005070e-02
-4.036249016659849975e-02,1.031202724134663962e+00,-1.660101522415521613e-01
-1.366036767265402796e-01,-3.472404128162143611e+00,1.368896158018642617e-01
-4.284363426335404540e-02,2.223847653739923491e-01,-4.084969671565100852e-02
1.464310059381672413e-01,3.323688220794443815e+00,6.278849137904482514e-02
7.138908593527677759e-02,-6.319768756995453041e-01,-2.565841392628955952e-03
9.069070328268437342e-02,1.456789796960433536e+00,-1.618455559080373418e-01
2.345579991807354107e-03,1.158518742498472864e+00,8.254416958286069084e-02
-2.342985449757349278e-02,3.640050303004200405e+00,-1.175110133903268655e-01
-7.852569663562292135e-02,-4.154414008725691332e+00,1.847225878741354799e-01
1.055718102533973329e-01,-1.155181501870259364e+00,-3.271472653999803887e-02
-5.869826949936179927e-02,-3.899597755537488553e+00,2.477725985576155754e-01
-1.271673724714291742e-01,1.451014040665940641e+00,2.163631472236035580e-02
3.336671761100289818e-02,3.443184128343362627e+00,7.757186533613982804e-02
4.588827613805238764e-02,-5.092748817130460237e-01,-2.259593738865251292e-02
-9.676181435744034276e-02,-9.707371465902371321e-01,1.785367429730824740e-01
-1.421759685230395420e-01,-2.682382831993974648e+00,7.739530450678563933e-02
-1.748664890014981210e-01,5.896018799816039879e-02,3.242599125395707882e-02
-1.029245381123380758e-02,-2.793271777192561256e+00,5.122543068023503732e-02
-9.286095700138284614e-02,-6.934592977775471123e-01,-2.737067619632454346e-02
1.266004883063830411e-01,3.762180890891818841e+00,4.860971249048098505e-03
-1.394570666080697796e-01,-8.692852320499170338e-01,8.571084589879530979e-02
-9.622838214117600264e-02,4.207267864999662876e+00,-1.784675295243866033e-01
-4.233904600153349379e-02,-2.055929253463224526e+00,1.765062067653097241e-02
1.153828286228048838e-01,2.432811976897364836e+00,-9.386483327660416487e-02
2.180825814788214800e-02,2.329216958092104495e+00,-1.326348739292897427e-01
-1.301539812149287052e-02,-5.936850783760906636e-02,2.057713466281646530e-02
-1.874494866266270682e-02,-8.911254570673036168e-01,5.240675250254425710e-02
2.419768606333834796e-02,-3.859490121287839415e+00,3.163669812591172331e-02
-2.983681270921358097e-02,2.524786432249613299e-01,-7.321993638816164107e-02
1.684597149849245412e-01,4.008672550537351498e+00,-8.467889576024253961e-02
9.000551863141550979e-02,-1.548163123001270458e-01,-8.037250468919555912e-02
5.120556936255469919e-03,7.315995730826759802e-01,-1.373364531467973770e-01
1.816906549292161138e-02,-3.181953428794909833e+00,2.498975424339542062e-01
-7.166755437779483151e-02,-3.385247878700057278e-01,-6.361394268811100539e-02
3.051957512768043584e-02,1.987736533383475557e+00,-6.494409984651017265e-02
-2.021894923374675801e-01,-3.666092798252406748e+00,1.614587477797898851e-01
-9.209291706837196721e-04,3.812708934593082244e+00,-5.781408630772535973e-02
1.609152479690610649e-01,3.850586428564646724e+00,9.293153172085580338e-03
-1.263075745090613822e-01,-3.403553487689323642e+00,4.155414801212079651e-02
-7.711918166780704076e-02,-2.173466827048952332e+00,7.120828875696019744e-02
-7.564341914628668062e-02,-8.310699644333428004e-01,-7.762784976926369318e-02
6.743883187575695770e-02,2.959794136623699501e+00,-4.528709766196842984e-02
-1.154229037030931881e-01,-1.829018999251798450e+00,5.780463119124970572e-02
5.862247303643175478e-02,4.090204244115828836e+00,-3.298988949271697974e-02
-1.382794104442645888e-01,-3.795446719194327301e+00,1.188938807811494580e-01
-1.153401714312551757e-01,-3.662842563108029137e-01,-3.732398528229584345e-02
-8.490190916853666836e-02,4.119384277853521681e-01,4.863001721634328117e-02
-1.202856597315456189e-02,1.859296090316810313e+00,-1.463399638714013226e-02
1.287541674660614699e-01,3.713010157274368783e+00,-2.988955761081422136e-01
-5.122525934510149120e-02,-2.639660612658876193e+00,6.335102102186201956e-02
8.186091471823991883e-02,3.941416033971559152e+00,-7.830527002970721212e-03
8.297656399907940572e-03,2.563029537121773505e+00,-1.241341330607507731e-01
5.225246204551127482e-02,2.072312688246834345e+00,-1.952819998257058209e-01
-4.676145122403651405e-02,-2.324583500826291171e+00,8.796949043203997065e-02
6.983049593216558715e-02,3.225137609292246577e+00,-1.266225290266938808e-01
1.684942397394972868e-01,3.656922800709473176e+00,-7.754306158586790620e-02
1.027977671357822864e-01,2.079425248765949252e+00,3.760148338921099134e-03
-1.560678964709131256e-01,-6.596073111913102194e-01,8.278638855617162506e-02
-2.107234761348011215e-02,-2.472850355655873855e+00,1.848878740511231411e-01
-2.985152641792456624e-02,3.263767991311258498e+00,-7.510697104014173175e-02
1.440004286521140431e-01,3.515600623243896106e+00,-3.683635648473455870e-02
1.070283290783219932e-01,1.756549426248951606e+00,-1.207327580505531822e-01
-7.844962640737770943e-02,-1.116940648153162741e+00,2.115442504049435193e-02
-7.880715030261052634e-02,-2.726942391146167655e+00,1.374083976562347487e-01
1.105935316805728950e-03,-4.264812834502535566e+00,1.269370587307771803e-01
1.447636221463993733e-01,6.127603760739431804e-01,-1.245063954554340713e-01
6.334803324870211250e-02,-3.188329464940965696e+00,1.520515309070424592e-01
-1.599682498849091736e-02,-2.062965591861713133e+00,9.167513501662624686e-02
-4.553467089010427432e-02,1.723150058644109528e+00,3.765413848339185104e-02
2.141508301988585480e-02,-1.269367890616429406e+00,-2.757744169467983217e-02
7.482570475944801125e-02,-3.185806711019405935e+00,-8.345329163590693364e-03
1.268972663927749323e-01,8.756676420756600576e-01,9.352153721782638374e-02
1.552611050069408194e-01,4.105340790895349201e+00,-1.517738071563344837e-01
-6.723144135369892027e-02,-4.320274631469797733e+00,2.824544516786410830e-01
-6.317500320543306680e-02,-2.205045391716339065e+00,1.399288179100067753e-01
-3.019004910661132052e-02,-2.653320902970134565e+00,5.389494375131079901e-02
-1.035739819691130215e-01,-1.742072512576277710e+00,6.229508217510282275e-02
1.501179214813920804e-01,3.465833717935876024e+00,-1.542141331074966260e-01
1.532067338198377371e-01,2.610570567702522382e+00,-2.075757317399143653e-01
1.195761440552267907e-01,-3.340794805077596852e+00,2.066303366378113016e-01
-5.590360024560071805e-02,1.824726999258869664e-01,-5.540918402597885817e-02
-9.892670320507378559e-03,3.285467123329172789e+00,9.565750475758081836e-03
