-5.987537211857770769e-01,2.877865265050698063e-01,-5.631234397838144057e-01
-3.253841722033483097e-01,1.437995581684988755e-01,-3.413778198949519171e-01
-2.898540096455509696e-01,1.318891000143204706e-01,-2.878680783224502049e-01
-3.317978689409949999e-01,1.442703191482425373e-01,-3.262063024464383343e-01
2.827330100873676755e-01,-1.162364520628732523e-01,2.723419245791580123e-01
-1.239060693466006724e-01,3.291280502534030261e-02,-9.992443995193953099e-02
3.413331567262797850e-01,-1.825707550224626441e-01,3.364989920249906730e-01
-1.105260172520015211e-01,-1.729828335081218249e-02,-9.121191417179511096e-02
2.365579174517849076e-02,-4.072554067950612949e-02,5.026848725506727344e-02
-5.036205816114218692e-01,2.200421493299179188e-01,-4.780094230526696353e-01
5.725515670758002384e-01,-2.560500975478651187e-01,5.909790257460280083e-01
3.053424948028096719e-01,-1.116709530002903822e-01,3.091136457833988938e-01
-6.113923592008458918e-01,3.703100062299625739e-01,-6.827695573853356237e-01
-5.800349151648440671e-01,2.684036164500554489e-01,-5.901312991813465469e-01
1.705307341108057706e-01,-6.734139144845954772e-02,1.776470221015809814e-01
-2.132724788640606717e-01,8.947510351361960546e-02,-1.685986966451858693e-01
-1.732686934042880766e-01,8.787630226455769855e-02,-1.647066008081580490e-01
-5.402844426196803385e-01,2.117485677596410432e-01,-4.715003590216831908e-01
4.701023116033281601e-01,-2.174260633445138091e-01,4.495861539519704353e-01
2.855183319696016908e-01,-1.161164442684141374e-01,2.910845714903931847e-01
2.466909436867576189e-01,-1.001255456582934023e-01,2.448462843494907670e-01
1.942376740390372447e-01,-9.493272100290806037e-02,2.538428352210492234e-01
2.986359169675932845e-01,-1.233797925403072038e-01,2.795621478718915975e-01
3.875346348727664592e-01,-1.782626934059113044e-01,3.859476827853993153e-01
-2.676765260090825937e-01,1.405542860558136042e-01,-2.516206379018460226e-01
-4.090578891602068001e-01,1.473706900686345411e-01,-3.345323938835885191e-01
6.306481196095304886e-01,-3.257825385395748397e-01,6.186630457825021967e-01
-6.567490591099214292e-01,2.945060822693635338e-01,-6.284698052310019323e-01
4.179659922854254139e-01,-1.883572848102622876e-01,3.628759362399091026e-01
-7.828340919859501368e-02,1.803492070586799889e-02,-9.913461474475758484e-02
-4.575206454002944678e-01,1.736425567411722104e-01,-3.904701949282859408e-01
-2.375336734059556587e-01,7.724214773467727446e-02,-2.325715920161533501e-01
-5.724062061423343950e-01,2.124335425579768066e-01,-5.393705380907992675e-01
-2.010118549172143776e-01,9.220473839246703940e-02,-1.953473671961401537e-01
-3.857627814105412667e-01,1.713861827970324381e-01,-4.007747972332875164e-01
-2.137545089224232031e-01,8.160734344060113776e-02,-2.047259456090204099e-01
-5.358746478215077325e-01,2.268185792796544586e-01,-5.303327425955420837e-01
3.710544882953470958e-01,-2.083977614119493227e-01,3.982196149375376582e-01
6.597048424391860344e-01,-3.112510018461840389e-01,6.664862738333074965e-01
-3.168829787167765089e-01,1.658636606900849575e-01,-3.488280673580019808e-01
-1.294286738354310518e-01,4.274007630859926604e-02,-1.213519350764104693e-01
-1.230566686631913847e-01,9.974356234369972929e-02,-9.369020200315923697e-02
1.745022742223201542e-02,3.172857925610330417e-03,8.325728746833621630e-02
-2.484653460838835981e-01,6.417239235242575002e-02,-2.783948273798648176e-01
-4.817912788443515226e-01,1.814675499513741241e-01,-4.898025052473594099e-01
3.963277196373614086e-01,-2.025323370008643153e-01,3.881664546294215645e-01
9.812055989332665873e-02,-6.467749643743601895e-02,1.173090639123434697e-01
-3.555194542908379218e-01,1.417915064540487824e-01,-3.502520425081789290e-01
-6.309260076510962989e-01,2.688557027050793025e-01,-6.371391365755103564e-01
6.151436207411146162e-01,-2.400322884623200814e-01,5.753405516782647000e-01
1.009709149293653019e-01,-3.846899786567901935e-02,6.654323289771629790e-02
3.011274930918477616e-02,-2.342886879972980174e-02,1.027413151903557309e-01
5.308016734186306040e-01,-2.407723395910353337e-01,5.444363757248168456e-01
5.620149730999695059e-01,-2.566740954230105620e-01,5.901906015531462879e-01
-4.452725961343557137e-01,1.992324652223679271e-01,-4.122375137055695471e-01
-3.566589446653503082e-01,1.500480229914115671e-01,-3.366715948169621275e-01
-1.357910196653144552e-01,9.530037928377275980e-02,-1.196924871655610095e-01
4.074811897415907547e-01,-1.795986758553925200e-01,4.501923492781917391e-01
-4.814061477577976644e-01,2.115929898999152903e-01,-4.913850649793581327e-01
-5.320008015930256795e-02,1.992767821485938451e-02,-3.621536441996788674e-02
5.285400745626047531e-02,-4.745198480104935446e-02,6.976541351523248002e-02
-3.029015991232921201e-01,1.644860824468402927e-01,-3.026124663891979760e-01
3.916807623571167962e-01,-1.897951725395964351e-01,3.754991488198443639e-01
6.201248591291024237e-01,-3.124313823443888305e-01,6.461944328458619768e-01
4.298935574723563580e-01,-1.856532792934128817e-01,4.201354588584741423e-01
6.114169363388457512e-01,-2.964975593205325111e-01,6.584713864033120423e-01
-4.439842196168330979e-01,1.656735589897588845e-01,-4.298262204759116245e-01
-1.191260571929098240e-02,-5.515551205274889582e-03,-1.914008927341161181e-02
-2.887252056267695099e-01,1.260832690096889974e-01,-2.820786147318891102e-01
-1.636399980139196242e-01,6.836678204514122503e-02,-1.978775036780987540e-01
-3.417688191844440726e-01,1.388528401712233740e-01,-3.681352341925333005e-01
1.817626752001059165e-01,-1.029930634441629106e-01,1.769637887263117715e-01
-5.361456045387469338e-01,2.457600279976114022e-01,-4.874337849126119115e-01
2.622650970533670425e-02,-6.247283728629584795e-03,-8.597321296897310339e-03
-6.205578828764346522e-01,2.758502112836607179e-01,-5.548425602654726285e-01
-6.730513148441517046e-01,2.651807119379931965e-01,-6.677876804607977279e-01
-3.052589261245696739e-01,1.248847841981623602e-01,-2.894368184121468013e-01
5.433563275056836339e-01,-2.391272076645126476e-01,5.120353817807706820e-01
-3.479097227210922738e-01,1.349797077670613910e-01,-3.421918864732480525e-01
-3.953129723821824371e-01,1.893655006515208017e-01,-4.032080481678677053e-01
4.175893415339207437e-01,-2.047414161741527294e-01,3.455806194817337973e-01
-8.548119664284688224e-02,4.801317518798520201e-02,-9.472364776984766588e-02
4.898721713951090795e-01,-2.565007648410178587e-01,4.337677109720803892e-01
-1.951684541057014700e-03,-3.938631887529074616e-02,-1.564962743721498573e-02
3.337920324056511956e-01,-1.727793153208181942e-01,3.218889081252686024e-01
-6.216549955776961012e-01,3.028341702496182841e-01,-6.131084482080489950e-01
-7.723338936417013800e-02,5.295900425467935102e-02,-9.578365960552417957e-02
6.662077542931141849e-01,-3.233065727653832711e-01,6.693590315537240043e-01
-6.583272115709354333e-01,3.286700547871391764e-01,-6.932260027514457468e-01
4.819434332616859273e-01,-2.060054587952669380e-01,4.705730459111993058e-01
2.174329581884218987e-01,-6.583782802176355031e-02,2.111678851529098233e-01
4.122684869930245966e-01,-1.808469162149730358e-01,3.731804473387587140e-01
6.176049025785754036e-03,-1.900540867233828715e-02,3.352846146365445756e-02
-3.101024255744310731e-01,1.606695715564008531e-01,-3.293495478831524603e-01
5.479368709782662661e-01,-2.863651696923469880e-01,5.465192809775489824e-01
-4.603397026333986841e-01,2.426586161073989723e-01,-5.170314128061992420e-01
4.870469276788662039e-01,-2.209751640430632491e-01,5.269836389592393866e-01
1.412493740649541953e-02,-1.179846982589697474e-02,-8.172650397460852478e-03
-3.267481739520746720e-01,1.535016744876144534e-01,-3.154185836760611261e-01
4.560553963616474915e-01,-2.461293865376981971e-01,4.575267111780098594e-01
5.585907667655233277e-01,-2.851897111321566314e-01,5.698033549904223394e-01
3.458754652349226300e-01,-1.715471661774795875e-01,3.991325070217602300e-01
7.116202850883117381e-02,-6.330174687930364974e-02,1.232696069048950099e-01
4.099304252268120008e-01,-2.015460797463793363e-01,4.153530044240239527e-01
-5.041818565985752842e-01,2.191245329908713957e-01,-4.928818913845947058e-01
4.072661058392786915e-01,-1.874606892357956467e-01,3.841838289626048342e-01
-3.881289526728888828e-01,1.560962177984862864e-01,-4.210858472077052550e-01
-3.997893901987470411e-01,2.126574521522153483e-01,-4.373661060563764358e-01
2.462860374296569343e-01,-1.177181891815556741e-01,2.409183857955047026e-01
-2.049537149879729347e-02,2.342221452455199235e-02,4.326983669440650354e-02
6.451766866094827968e-01,-2.915266929894817505e-01,6.210003109363578799e-01
3.766245411251611386e-01,-2.077423056877961416e-01,3.877507451045559828e-01
3.109053133613386422e-01,-1.664185973741345581e-01,3.240417934780605025e-01
2.500093762512246576e-01,-1.348621362910579491e-01,2.125783942613838629e-01
-5.436259499998816747e-01,2.564678778247439506e-01,-5.555865112993807475e-01
6.191375556930647228e-01,-3.236754206022473546e-01,6.250923028530045444e-01
-8.462799733894661725e-02,7.232875803367755374e-02,-6.661832427888708663e-02
-3.717594374564052728e-01,1.743576303554227880e-01,-3.662257051172263522e-01
8.895246585240858261e-03,-6.297346774971667241e-03,1.170904408143869958e-02
4.767851389238004778e-01,-2.018086057124052757e-01,4.541082889395936517e-01
-6.309673284145692618e-01,2.741417874663991117e-01,-6.270338642682485863e-01
-5.545187175239947308e-01,2.298723837025877792e-01,-5.219994067750705069e-01
-5.137090416498153456e-01,2.492126339200415597e-01,-4.763134653973136179e-01
1.256137053691346595e-01,-1.041317298865627045e-01,1.643464768999666481e-01
3.764160319715942338e-01,-1.521543490834660062e-01,3.543680302560380802e-01
4.730070399952528981e-01,-1.999315385318424787e-01,4.771612332710820081e-01
2.032933710363454549e-01,-1.006613946693730305e-01,1.856241899698503894e-01
-4.009009360952621170e-01,1.642051847749917970e-01,-3.749815580137699222e-01
-4.143494551088415800e-01,2.065024747218138224e-01,-4.375206231993291062e-01
4.287437210249956387e-01,-2.038186099867905499e-01,4.295936176212261093e-01
-4.031146615472900319e-01,1.837138295856665382e-01,-3.838190294279308912e-01
1.424048916356097094e-01,-5.162850116632056174e-02,1.066092929576541448e-01
5.993617542673941589e-02,-4.476995226881314016e-02,1.244479061526239383e-01
6.840011065598267104e-01,-3.134339067202383533e-01,6.317072111118665623e-01
6.795698926989984789e-01,-3.438845053660953277e-01,6.492216326225606071e-01
-5.054311679470666618e-01,2.289182030059589701e-01,-5.179086862292625604e-01
-4.082086523006455692e-01,1.959126656687565915e-01,-4.284643744591286607e-01
1.983843880084094902e-01,-5.010308663363027826e-02,1.788756096321746092e-01
-2.922531176212523896e-01,1.180933633010962103e-01,-2.521122694454219770e-01
1.169598887880839988e-01,-8.485573941598023584e-02,1.230772579266993377e-01
8.460249969181735108e-02,-6.522306960027376976e-02,8.642895642161252390e-02
3.106029091825218136e-01,-1.423866747062698113e-01,2.553458183010229310e-01
9.528411604848532890e-02,-5.380578482926094697e-02,8.137517023285827100e-02
-6.252850995623652208e-01,3.246195913171290859e-01,-6.059526258306471291e-01
-5.651326652068371370e-01,2.536078645338592508e-01,-5.413613085306998585e-01
-6.453708917153186952e-01,2.994986286844888990e-01,-6.382474795416127611e-01
2.835210350481526254e-01,-1.564752883816870888e-01,2.785791448129659731e-01
-1.034541132659654444e-01,2.839225276853092964e-02,-1.188880860720076954e-01
6.378110027663288495e-01,-2.995502675677895188e-01,6.166809028094168976e-01
-6.882576374261838437e-01,3.111335270561100264e-01,-6.310737387497664663e-01
-8.605123485760272917e-02,3.199383183440507317e-02,-9.686667757661479583e-02
5.579556643890353218e-01,-2.394981986773837834e-01,5.593116001745386257e-01
5.600348692074300638e-01,-2.354848539086740744e-01,5.256606116141908647e-01
1.664319046957710990e-01,-6.954103362778032982e-02,1.697807575276703840e-01
5.472102287352247352e-01,-2.520118317936337338e-01,5.425573440352929877e-01
4.812082554425087810e-01,-2.134384686135469000e-01,4.769324686139898573e-01
-1.810587810089523547e-02,-2.580833613817040424e-03,-2.073144617604328818e-02
1.160436900420481199e-01,-9.224638321387026996e-02,1.677165773759863310e-01
2.477867029311077995e-01,-1.327599004010372730e-01,2.783937866447968590e-01
1.205395054536817154e-02,1.887435505176996179e-03,3.701189392284302132e-02
-3.205174223776565690e-01,1.559040574453141037e-01,-2.790878093069382726e-01
5.066593724549990352e-01,-2.248754529776704758e-01,4.822646565094403925e-01
-5.029518425107221136e-01,2.401676791542639022e-01,-4.775890554696898826e-01
-5.630205023892560084e-02,-2.069386487684748283e-02,-4.674151417771400807e-02
4.003330687033632151e-01,-1.670996186629224167e-01,3.723125733649028657e-01
-3.248068464844551806e-01,1.828872778424749102e-01,-3.294776788749878560e-01
-5.656572354018213344e-01,2.478398615041420838e-01,-4.890943442993354040e-01
-6.398485630014448811e-01,3.023758025191973231e-01,-5.915245528155105292e-01
-5.382876111308277922e-01,2.421659672718153022e-01,-5.351974193084354514e-01
4.097337032513629351e-01,-2.154040778405441892e-01,4.275874688887738584e-01
-1.560544161653693307e-01,8.049536402204736374e-02,-2.229552172607130456e-01
-1.532030123684734457e-01,6.911993221327725201e-02,-1.909826339553451213e-01
9.756614334454874471e-02,8.397574572094765322e-03,6.005185147079308838e-02
6.492608121612369887e-01,-2.822320785596290071e-01,6.397728793956617421e-01
-6.753749297887129410e-02,3.727480888733043785e-02,-7.481693311558341997e-02
-1.685416503496700580e-01,9.989902013481637144e-02,-1.951224632808178094e-01
-2.401975826653375556e-01,1.129194086091756394e-01,-2.466332664491627802e-01
-5.241177365079436878e-01,2.349098119597154699e-01,-4.693081899379438759e-01
-1.484663885701252850e-01,5.635902678346922656e-02,-8.847231243721639937e-02
-2.271632748107801636e-01,7.725879956560331718e-02,-1.960006148867300124e-01
-6.889047512155094949e-03,2.983980983559736053e-02,2.393711265429482836e-03
3.169557495706410433e-01,-1.258126903537857000e-01,2.755629658587494535e-01
1.252955690294710600e-01,-6.549212822881972373e-02,1.599814576627073270e-01
1.610111897779847034e-01,-8.627135478175054772e-02,1.714589403932977041e-01
1.263814489064390145e-01,-5.960265083984969681e-02,1.098660792590695351e-01
5.051387274498195246e-02,-6.421884691045885545e-03,8.772350019740877275e-03
-2.093214799234055790e-01,1.021674205804969787e-01,-2.297941954521506847e-01
-5.859797232191387151e-01,2.482101231191872481e-01,-5.833429187732255272e-01
2.933642349663602156e-01,-1.234737885833112336e-01,2.801552163353700498e-01
5.141136685956519958e-01,-2.463389714792322827e-01,4.872527958242798274e-01
-6.863623502343638716e-01,3.120483905705954131e-01,-6.332712499311863308e-01
-6.251105539733478045e-01,2.888363929743267833e-01,-6.143824834261414347e-01
1.919456778989810652e-01,-8.352921545579357343e-02,1.399727049694832470e-01
-3.192117389887882406e-01,1.177611456461553768e-01,-2.837801975832363599e-01
-5.222539127978377271e-01,2.217698850493018126e-01,-5.142063506481886481e-01
-6.820300546686558496e-01,3.170592627753120452e-01,-6.383425894700138770e-01
1.292487147559113515e-02,-1.121760013559099448e-02,3.924092861580597696e-02
-5.398164588096324712e-01,2.577220941653713404e-01,-5.301758814151401600e-01
-4.902918971217552768e-02,-1.570238609417510395e-02,-5.900420851226733515e-02
-6.256979873415711157e-01,2.815047147435275066e-01,-5.967973305951544960e-01
4.906994993450081860e-02,-4.145911844873369223e-02,9.084735206175270639e-02
-5.139145092792989783e-03,-3.441432097383894523e-02,2.984220611394283740e-02
5.254586893610754261e-01,-2.123117226940753333e-01,4.456463980887687693e-01
-4.924030910460306387e-01,2.041960236316074373e-01,-4.717055931375810363e-01
5.622399994423815661e-01,-2.936392447927554383e-01,5.762553442744460241e-01
-2.169260562712399532e-01,6.003673336610639011e-02,-1.894390197727092995e-01
6.256317554353840737e-01,-2.543686523517707521e-01,5.877289722757420565e-01
-5.782855517443833415e-01,2.889330815429219657e-01,-5.235359289460106424e-01
1.679423706323048687e-02,-5.779368879853231077e-03,3.410352924921860457e-02
-5.736519342168968638e-01,2.302016864356749293e-01,-5.392097514766385213e-01
2.656130496729145474e-01,-1.366154298917867105e-01,2.908935560138165011e-01
-4.244934542116815535e-01,1.840363805695417743e-01,-3.715416642103597789e-01
7.602093437717008517e-02,-3.069135553953974624e-02,5.064299831614003933e-02
-6.798537592700666377e-01,3.075522739600348721e-01,-6.306601231105504191e-01
3.914729017220616725e-01,-1.393018357611462976e-01,3.656775020098197992e-01
-4.283227485362666731e-01,2.049942046863547918e-01,-3.958936543241377559e-01
-2.689865763534046161e-01,1.347799580078354043e-01,-2.179440988445370264e-01
-2.013931861372739718e-01,8.122865812016981379e-02,-2.194317724425141891e-01
-6.016999919530735541e-01,2.787381451454825632e-01,-5.762506275811359879e-01
-4.830249933045659416e-01,2.215255309032807818e-01,-4.780485934269417814e-01
-2.310305522284197832e-01,8.286898337946613236e-02,-2.075817332900193879e-01
3.784820713762094280e-01,-1.591714509310095949e-01,3.296192312329775942e-01
-4.826135566925936482e-01,2.191618172792310359e-01,-4.625396384007101624e-01
-6.021291379253888854e-02,2.947184927251954994e-02,8.077025894042648771e-03
4.179796481863774782e-02,-2.034878459606098353e-02,5.680216164528884004e-02
2.907341621853081759e-01,-1.480930159944939262e-01,3.239920964110184487e-01
3.873763654132760803e-01,-2.049961956101709060e-01,4.120205825272668654e-01
5.158740760284787896e-01,-2.460681002173896459e-01,5.359301026734928364e-01
4.864628757333845366e-01,-2.405973667206547373e-01,5.070498756814395547e-01
5.733737542808066134e-01,-2.224039968542622925e-01,5.524873146851313477e-01
1.876928621673007169e-01,-8.681397804016166564e-02,1.734631387952742521e-01
2.425574161624549085e-01,-1.357744086666309857e-01,2.804195058842351429e-01
-4.516886886100544007e-01,2.127845377517236236e-01,-4.406843854476373279e-01
-5.942223825921594260e-01,2.977410337841454591e-01,-5.843631724682687434e-01
8.956056340119952774e-02,-4.261525082192785946e-02,9.476801889290277503e-02
-6.321202458169458138e-01,2.775086013820277087e-01,-6.259846118453284980e-01
3.746155193413737705e-01,-1.680284284662681149e-01,3.225085230385018042e-01
1.354993969743478743e-01,-5.838467226985628866e-02,1.330062900093818001e-01
5.436956994083067540e-01,-2.215855170551455644e-01,5.259541713683959507e-01
5.509702659961137616e-01,-2.518963342789522497e-01,5.932848550510252394e-01
1.368085229013223381e-01,-6.078174434854952124e-02,1.450349955784337452e-01
3.455973754972843093e-01,-1.152341602159423911e-01,3.348258674743464502e-01
-4.986133884133281402e-01,1.967883358681548622e-01,-4.419301223592391192e-01
6.805720415285878566e-01,-3.155037388753748617e-01,6.567505452183218795e-01
5.999620042591000679e-01,-2.580416826974902822e-01,5.893136854681271242e-01
5.324524521989157932e-01,-2.485038272811848359e-01,5.472051177637902164e-01
3.614023603061626289e-01,-1.666202022627170376e-01,2.740938198434309525e-01
-3.241522958315159464e-01,1.822365120930787563e-01,-3.291879373858487279e-01
-5.991626947068623421e-01,2.524134724889772197e-01,-6.062318267269699579e-01
-5.492455147059941423e-01,2.562512832952231201e-01,-5.257950672864369901e-01
5.453578721240581739e-02,-4.982676053799109384e-02,6.436741551945993067e-02
3.861241737961320086e-01,-1.360779673073576335e-01,3.516795546881235079e-01
-4.636305457052427581e-01,1.931384076539015282e-01,-4.472661572921524109e-01
3.983744681165503065e-01,-1.922880226801262360e-01,3.712641088396457789e-01
-6.589118496282603266e-01,3.254107212879782662e-01,-6.335199357659092589e-01
6.726793177568620719e-01,-2.724800707623736273e-01,6.083033976193267245e-01
-1.143528269803221614e-01,5.928631522376702490e-02,-1.050262276667140310e-01
-9.450612739183773814e-02,1.814267413522418701e-02,-4.677550818552617812e-02
7.172782200685606790e-02,-2.376074958792137246e-02,7.394181526494202072e-02
3.662235180525278966e-01,-1.733320561713758423e-01,3.158712306161448602e-01
1.443961981431393649e-01,-9.660571912129015115e-02,1.611913058088065287e-01
-2.059920422921865668e-01,1.032382373954112975e-01,-2.134139785021297586e-01
1.177705616350013806e-01,-2.454685479201197673e-02,1.276756613772737636e-01
7.878176313732694613e-02,-7.112461722077376668e-04,5.243350009547516344e-02
-2.392076137943513203e-01,1.356462625470667704e-01,-2.435895741430647299e-01
2.391615068332261784e-01,-1.084128088493871989e-01,2.536005551616459242e-01
-1.167244518517484425e-01,6.204433821032178525e-02,-1.162903483940750105e-01
1.421388706665568658e-01,-1.185502524345440345e-01,1.673267769980363306e-01
-9.159385910843566292e-02,5.333860085632808473e-02,-1.562790615388879312e-01
5.429199757255562808e-01,-2.404579914760316961e-01,4.634996555736309864e-01
2.965056385569810327e-01,-1.440010728901105486e-01,2.522561024022386689e-01
6.101383652762542020e-01,-2.908343223922419396e-01,5.543364647190895944e-01
-8.026255130172586794e-02,1.304026834268683446e-02,-5.532928920001375234e-02
-2.040501625866121549e-01,9.871909683730746565e-02,-2.171854948933213680e-01
3.157034357989035311e-01,-1.409291425571432832e-01,3.092262708984527819e-01
1.017984929074833012e-01,-4.557976433893332763e-02,9.668202178611853825e-02
6.453331726916082811e-01,-2.789059120557628169e-01,5.965911056666521883e-01
-1.545367423852643252e-01,8.505136157612108727e-02,-1.902954153778179391e-01
-4.374286220223695398e-01,2.211442295027331584e-01,-4.444789666867240419e-01
6.893926219390933419e-02,-5.712371741549491372e-02,9.047260390105522909e-02
5.170266063565724934e-01,-2.112800007262783109e-01,5.261516512986658123e-01
-3.750727499203486415e-02,3.191357519803524057e-02,-8.277075405443208578e-02
-6.805801060827348925e-01,3.180254617685107088e-01,-6.319262228849970020e-01
1.455750286533548420e-03,2.366568821608131673e-02,-4.325638698750280259e-02
2.513413451427518042e-01,-1.078384634076747645e-01,2.120255619759246757e-01
5.602762037986800392e-01,-2.466817249842659654e-01,5.770088813926335103e-01
-3.487417030363194614e-01,1.569064096639398165e-01,-3.758148419514586447e-01
-5.564978091809918287e-02,3.182222883737215874e-02,-1.970237659096830615e-02
2.456205673317659322e-01,-1.325751155064271436e-01,2.562628062998164591e-01
-3.078633378409482702e-01,1.575112400389318268e-01,-3.027618440544436740e-01
-2.773161554256807215e-01,1.167928208954479019e-01,-2.828415886929162570e-01
4.005949860321907918e-01,-1.995516426923447662e-01,3.925351341108517245e-01
7.381633159504139008e-02,-5.159395237766599418e-02,6.677775855258326343e-02
1.347280765990882014e-02,-2.307573931364201303e-02,4.192722142327660190e-02
6.693491767886103894e-01,-2.812875580599984993e-01,6.574175146675306225e-01
2.502100521174535630e-01,-1.321088073886889647e-01,2.752024091010099593e-01
-6.603879817036003574e-01,2.881240606604185128e-01,-6.398304825567043830e-01
6.414801783054556727e-01,-2.525127871367000565e-01,5.969261051839986898e-01
1.374617636412550116e-02,-2.610662594222567731e-02,5.842559651928631859e-02
-4.538964182814470560e-01,2.102430857783794405e-01,-4.371655676870067064e-01
2.982033835546147316e-01,-1.370384095085658838e-01,3.379612043323235726e-01
-9.503158855340641809e-02,7.237041965442105040e-02,-9.844269361236722415e-02
-6.940161123538875210e-02,2.467689477221762795e-02,-8.267627352551819297e-02
4.236149423359629740e-01,-2.276678426478218886e-01,4.394196838284783468e-01
-2.466612351464207986e-01,1.153407853976253089e-01,-2.632025905592715320e-01
-2.647343184282925921e-01,7.817261542113318473e-02,-2.540965374347717853e-01
-3.100112169621676017e-01,1.192542922811331008e-01,-2.738616618570888228e-01
-2.045201962691333974e-01,1.265177741130406319e-01,-1.944267957340029274e-01
5.706462531709297764e-02,-1.471901175294578965e-02,2.003151178000029536e-02
-6.415313180746431421e-01,2.751424929880982861e-01,-6.491637776540225557e-01
1.957646068985053611e-01,-1.215095912102399783e-01,2.562876465685089977e-01
5.269344835661975146e-02,-5.771744553283279094e-02,9.200588211607661770e-02
-1.584999869729070837e-02,-2.892542613265500565e-03,5.257808372010814614e-03
-2.361686986427062873e-01,1.353627564142846906e-01,-2.408024547321043207e-01
-4.780044998902537312e-01,2.207561173634121909e-01,-4.723990639487458676e-01
3.330712536487675512e-01,-1.648301712799495611e-01,3.267481872325914694e-01
3.961912190382340104e-01,-1.593151137570954223e-01,3.459403739017956614e-01
1.893942753639138998e-01,-1.304166017731326621e-01,2.100422903970591559e-01
-4.945107487057521789e-01,2.335731758561852278e-01,-4.401392013604745745e-01
-2.716567647912738331e-02,-1.900879138051500203e-02,4.517745921281244442e-02
6.260325778325029900e-01,-2.785610077046792865e-01,6.287814667366031784e-01
6.195179225431167724e-01,-2.811500690378594403e-01,6.271317398263653864e-01
2.626991658177812439e-01,-1.365438834455485473e-01,2.710125532144334604e-01
3.476471863458743816e-01,-1.287382149431152145e-01,2.842818224173565000e-01
-1.175866891179718904e-01,5.232803934665751500e-02,-1.157709269515280331e-01
-2.945496295563651556e-02,2.591970670381387593e-02,-2.191415836681802690e-02
1.710621213446797961e-01,-8.661355786734917239e-02,1.910854933499046837e-01
-6.099790693231010863e-01,2.723186505083355358e-01,-6.052280892017324332e-01
-1.105262025439092549e-01,3.717376560257989321e-02,-7.404781527260634322e-02
3.724842329164441690e-01,-1.845608493422031537e-01,3.690274546850960125e-01
-5.739215648127571345e-01,2.769474884720198316e-01,-5.742195011583154374e-01
4.709388851713223745e-01,-1.804181605200304572e-01,4.586804740573375838e-01
2.109217551663551682e-01,-9.399477895088495516e-02,2.080312844874807332e-01
-6.723431280444472913e-01,3.055459810839810109e-01,-6.579765317831176574e-01
-2.870379536541848853e-01,1.288807465111552197e-01,-2.605908066612522833e-01
4.279756773315813723e-01,-1.998764982550700342e-01,4.397369573958269662e-01
-4.885699765224966185e-01,2.101623726096231437e-01,-4.733263515297962409e-01
-2.603416809684218070e-01,1.201562515394307001e-01,-2.506279468868600202e-01
5.463613938892449839e-01,-2.400203453993425828e-01,5.133377616581131786e-01
4.344124047627900831e-01,-1.906678237047342295e-01,4.073344071609732997e-01
-2.189331540089006212e-01,6.507694296315950921e-02,-2.296388965491882872e-01
-3.483644384622482382e-01,1.400658817295732106e-01,-2.582719449481836183e-01
-4.181036666457652595e-01,1.912573617211397459e-01,-4.045409871425211801e-01
-1.723656279841329630e-01,3.665195184103285653e-02,-1.310918443775314912e-01
-7.305385879326039460e-04,-2.027160396320373467e-02,-2.331387942257187942e-02
-1.038430225363199816e-01,6.748612071885548569e-02,-9.820987785020458827e-02
-5.999328065022374590e-01,3.393690655343151730e-01,-6.370089356148379567e-01
-4.605290659287767374e-01,1.834452880634737937e-01,-4.891014762866268129e-01
2.481658298915837002e-01,-1.084060142179404246e-01,2.316367604420840332e-01
4.477327038487082800e-01,-1.913336680942789303e-01,4.280222911921712226e-01
-7.522429198175677179e-02,3.350194686157615537e-02,-1.025694817474628318e-01
-1.769760814311471253e-01,1.012375931496716508e-01,-1.576129726128402131e-01
3.506026074284860350e-01,-1.903355440825393596e-01,3.119013707049030359e-01
-5.282475994941911862e-02,3.864370573813153548e-02,-3.725341833247959589e-02
-1.490062382171860877e-01,4.440631733785960905e-02,-1.147663953991861496e-01
1.534621539211609986e-01,-7.798123742029874905e-02,1.501770866547006422e-01
-3.390483477492730602e-01,1.740181122751360554e-01,-3.295010610100505555e-01
-5.673523719056960957e-01,2.562698675745361254e-01,-5.338475565568528980e-01
5.914498717935938732e-01,-2.552180835165527295e-01,5.740156526912070234e-01
4.744906990634711330e-01,-1.891883446957847714e-01,4.788663100356276847e-01
-3.798784136881134810e-01,1.462860380295359641e-01,-3.487978397931615349e-01
-2.634099332146294659e-01,1.024397983177618571e-01,-2.677964982730489107e-01
6.638861152772582708e-01,-2.589797392102985985e-01,6.559618503512303356e-01
1.684247771122331927e-01,-1.183312695443034385e-01,2.214231504188187705e-01
6.025801943710720199e-01,-2.880118003384961045e-01,6.068360914005147544e-01
-7.091996782223077000e-02,1.544831351267611855e-02,-7.763212473137563220e-03
-5.476960866052744681e-01,2.941466889842473398e-01,-5.477343213113173848e-01
-1.817545663691926550e-01,1.066393641441835127e-01,-1.653143109022670032e-01
-1.321439507405138825e-01,2.631716351656222461e-02,-1.196514140737083703e-01
1.357921716614609586e-01,-3.483549853758662052e-02,1.549371699270432334e-01
-3.657128479266206766e-01,1.515364800052023120e-01,-3.590106922974771186e-01
4.151015395036787292e-01,-1.997927490079645096e-01,4.271892837875861937e-01
3.249280824928880151e-01,-1.711139447536429992e-01,2.965100705905057699e-01
4.073956666330864063e-01,-1.616864490102426499e-01,4.194490991316454087e-01
9.909064047332155969e-03,1.260376342085070198e-02,-1.191963749317508439e-02
3.376398169625295931e-01,-1.521263633681266547e-01,3.367825479971133795e-01
2.751325547748391664e-01,-1.413597240676385813e-01,2.468499834429547513e-01
1.162424710290276171e-02,-3.005913169130309398e-02,1.213655096447876364e-02
-3.628941745784995399e-01,1.687231059812027978e-01,-3.475358411582658014e-01
-5.947400098907015265e-01,2.584053348727652355e-01,-5.625421710607034775e-01
-1.203118932621717319e-01,6.892230808880174531e-02,-1.358749270576568580e-01
2.530904994124069107e-01,-1.382005880238539597e-01,2.586713361786002752e-01
-3.244055152401967290e-01,1.458038853965165915e-01,-3.222640641134564277e-01
-5.855713873120110824e-01,2.602178766544155919e-01,-5.476195301659978476e-01
1.693562403734026056e-01,-3.790455715837794809e-02,1.704282027279511724e-01
3.619474549893875737e-01,-1.527363090566578319e-01,3.353814794978795533e-01
-1.196756854069856713e-01,7.694965797853017819e-02,-1.872765145038127466e-01
3.712819750978153116e-02,-6.469959898492996103e-03,5.095064883699558511e-02
3.359804278125090859e-01,-1.619295858943089472e-01,2.560532065041468130e-01
-4.974172257260236346e-03,-4.174671953529107693e-02,-2.860155554881065650e-03
-6.209714454308714465e-02,4.042027603346082243e-02,-7.423474744998960484e-02
-1.991204103008765471e-03,6.265175702107779465e-03,8.709710589265097502e-03
4.174723825246582365e-01,-1.878721664992609175e-01,3.969013499540786083e-01
-9.381128606197781938e-02,3.441313604327259773e-02,-1.380495189900269593e-01
3.418685021111943501e-01,-1.674141667361542241e-01,3.193168457215428968e-01
-1.659426394841749530e-01,8.237006138927753518e-02,-1.824230976449465469e-01
-4.471813052022651225e-01,1.887339096296773711e-01,-3.901862598654950998e-01
3.653511805160192805e-01,-1.515859732193750864e-01,3.557190304876010067e-01
4.008794076918903437e-01,-1.964752243184630653e-01,4.109418281953410856e-01
-3.794084603307665282e-01,1.917277002931859486e-01,-3.499475232977046213e-01
4.850381622193745690e-01,-1.974708986347967765e-01,4.835928902753888203e-01
-3.807724033680116027e-01,1.312684704665803281e-01,-3.624329780424546676e-01
3.173825515660317342e-01,-1.281810106365426083e-01,2.869096959716065931e-01
5.826664130445369238e-01,-2.720031088130211994e-01,5.594074212167026161e-01
6.077137074572762643e-01,-2.585575968732107821e-01,6.010608721435172219e-01
1.332216455041580483e-01,-4.937583279107162632e-02,9.825079731137947858e-02
-1.355760081424585151e-01,5.072460896769261790e-02,-1.400191553714418002e-01
3.229987555958232504e-01,-1.441761980436529478e-01,2.886898075988237888e-01
6.610145116255509157e-01,-2.995375387306945525e-01,6.222683604617058606e-01
5.476610363077775157e-01,-2.087620110353269887e-01,4.995283179151900899e-01
9.815487329036691466e-03,-2.047345492781681500e-02,-6.645410665852050612e-03
2.941479236411070342e-01,-1.310200489873918628e-01,3.047904007902370593e-01
3.230104876168865546e-01,-1.838657495968176459e-01,3.212879560245252009e-01
-3.300077374836968835e-01,1.171785417559613601e-01,-2.883859926845525612e-01
-4.116968192033585994e-01,1.994259720946719716e-01,-4.149957619472343651e-01
-6.432943857554362932e-01,2.741947257173293906e-01,-6.181785265262212947e-01
9.660613641653444106e-02,-4.181349076128090814e-02,1.011337910242244703e-01
2.535725246965956914e-01,-1.174936539336951663e-01,2.453590939165139762e-01
1.796021070401987441e-01,-9.425959226579366801e-02,1.356989127564420528e-01
-5.451479502301220803e-01,2.622736923847482360e-01,-5.415953254223416780e-01
4.452000866812274443e-02,-1.773888529273267775e-02,2.429230359163740000e-02
5.124062628426919730e-01,-2.142162045555538186e-01,5.432337562333765524e-01
-1.140673562886694303e-01,3.215466446525937910e-02,-8.946471210254365591e-02
2.268952303716394170e-01,-1.342711329519514774e-01,2.192016061299606466e-01
1.844749179329512045e-01,-5.750494726113478811e-02,1.902511414797244949e-01
5.979358524893507720e-01,-2.522505773366972570e-01,5.494380580869714370e-01
-6.669096839143989763e-01,3.090135169387026592e-01,-6.346154858712014235e-01
-2.034212276777521977e-01,5.583306516095790789e-02,-1.700266491087994991e-01
-6.310871603670179519e-01,3.032459217342048929e-01,-5.850068259456044917e-01
2.553060944349916372e-01,-7.456596583159216807e-02,2.119755066018409184e-01
5.498333933596220024e-01,-2.069849549944136058e-01,5.490671617618848588e-01
-8.928553492728613650e-02,2.306099712968114057e-02,-7.600454993671355852e-02
-1.477089340966164233e-01,1.073260028799663257e-01,-1.423996100254538433e-01
-4.140987370233261133e-01,2.008301954165870873e-01,-4.264127226383985780e-01
3.715147473493599778e-02,2.108220523047748748e-02,-9.430942236885639027e-03
-4.528229930422951743e-01,1.888120132269154039e-01,-4.298349693548361161e-01
-9.616776038171911956e-02,4.841561240282564460e-02,-1.230110396474645568e-01
5.887703432002943105e-01,-2.515032045583321385e-01,6.020855527555741826e-01
-1.209848528427767550e-01,8.694119190125328134e-02,-1.430224170566471997e-01
7.039736201738268084e-01,-2.927501127413107418e-01,6.211671240188111343e-01
-3.268727226708406652e-01,1.386470909222615455e-01,-3.231899029056363171e-01
3.786325031525213380e-01,-1.854167483099231073e-01,3.822122177209383853e-01
3.785837615951565538e-01,-1.766850189187989251e-01,3.495321068475586990e-01
-8.206976846669293210e-03,9.227646254312193638e-03,-8.481635109359689229e-03
-1.431899800863911942e-01,6.902128622983307038e-02,-1.348639563134988173e-01
-6.306064250924305892e-01,2.490722689279838975e-01,-5.935902317917278737e-01
4.839862386966333613e-02,-2.744574623300000127e-02,2.682985361467260868e-02
6.249907153392465498e-01,-2.893493570567287065e-01,6.352552303112195542e-01
-3.705508773703319186e-02,-1.558055967310432999e-02,-2.200857109624747635e-02
1.225616915115083499e-01,-7.430680252775859196e-02,9.829838675551015592e-02
-5.274833402119274428e-01,2.499637405017887670e-01,-4.632570017787623895e-01
-4.085050611884458172e-02,1.642957766211165793e-02,-6.934461992586427037e-02
3.194265062765258012e-01,-1.424571683503276787e-01,3.054964284621304316e-01
-5.666259121531153076e-01,2.863617696517580247e-01,-5.772436752621626921e-01
6.201201795799955452e-01,-2.537433017244382638e-01,5.862144796821855408e-01
5.973035003209771210e-01,-2.598524789705640714e-01,6.207606000973782123e-01
-5.323275731773587927e-01,2.378891926112866873e-01,-5.407907367425524026e-01
-3.420907855582159263e-01,1.604086112862380675e-01,-3.396278208087199491e-01
-1.195321926934108242e-01,4.537567246059283355e-02,-1.481296269803424603e-01
4.702117731138390488e-01,-2.042295229449724303e-01,4.637674907492322918e-01
-2.794992276240876872e-01,1.398812352757198285e-01,-2.925320943148590480e-01
6.544363708898602860e-01,-2.727181975578425455e-01,6.399423342253852676e-01
-5.965958545593410545e-01,2.794126016114674149e-01,-5.941848918671331914e-01
-3.909750113525005399e-02,2.800664233553076810e-02,-7.616706137891507411e-02
7.900540362091272584e-02,-7.601960230946265204e-03,5.892531514212253491e-02
3.038321639119878625e-01,-1.198301722696845789e-01,2.859838939387060464e-01
5.911323006197164442e-01,-3.089022005552602423e-01,5.589420354057491602e-01
-4.216267896430638817e-01,1.857599091074864928e-01,-4.097583789768582396e-01
6.256180434605392859e-01,-2.607101322444268510e-01,6.227378891890704704e-01
4.183995504272181032e-01,-1.884392756265672042e-01,3.851748622691992807e-01
3.341473822263393845e-01,-1.759925380680473495e-01,3.060920104065348868e-01
-3.721610067940920863e-01,1.701487462878694124e-01,-3.572706137465709308e-01
5.156847133722093357e-01,-2.374939937435647241e-01,4.957754555057267698e-01
5.677250783021766667e-01,-2.655766866101925694e-01,5.813784828908939994e-01
3.199922742394575859e-01,-1.422498069522477870e-01,3.371186456869081360e-01
-8.416925992737731010e-02,7.477921409558334342e-02,-1.128772191672608310e-01
-4.038217937395660040e-01,1.961106391657803094e-01,-3.656294183259638508e-01
5.365145140071563290e-01,-2.192383210397908233e-01,4.950701314016224264e-01
5.474138585313120808e-01,-2.459362291858255833e-01,5.610460243992001494e-01
2.713470011784367975e-01,-1.468832953319803014e-01,2.727712934438599190e-01
-1.688776249781118732e-01,8.345194475989166361e-02,-1.813296198421602834e-01
-4.338452367845784807e-01,2.089103598102015347e-01,-4.181524107892393149e-01
-6.958556823421213622e-01,2.961843304159865742e-01,-6.483843916977434230e-01
7.990188852798896235e-02,-7.889399738577521082e-02,9.922688385231291652e-02
-5.324992200824775201e-01,2.261936812888838966e-01,-4.699782536210301842e-01
-3.349459332484548968e-01,1.510180264176693987e-01,-3.121897907136520489e-01
2.854334751497705769e-01,-9.727178389309325268e-02,2.666649297625566239e-01
-2.082787055443679203e-01,7.296340024763123266e-02,-1.979763708261466082e-01
-5.283343040898539344e-01,1.929859743634039504e-01,-4.870023431376807044e-01
1.177784796613591811e-01,-5.044673606064974808e-02,1.635111851609131195e-01
6.451871047121023883e-01,-3.074248789707487162e-01,6.407004287021357269e-01
-6.990850070919836234e-01,3.377694021006140135e-01,-6.474612894575020317e-01
-3.519176355059097094e-01,1.745908338847173280e-01,-3.346600290072447859e-01
-4.269648879173709166e-01,1.825385617810304228e-01,-4.102998581951452506e-01
-2.675127200102281888e-01,1.339993440675063818e-01,-2.769577935384778256e-01
5.424716513734288981e-01,-2.667165802269790276e-01,5.402658745279468322e-01
4.052265254844721332e-01,-2.232674138019988541e-01,4.013253487701267108e-01
-5.683696647558236226e-01,2.408054701543119458e-01,-4.800603136373805535e-01
4.070969361610787818e-02,-1.671824607018618930e-02,1.469411064924797637e-02
5.337729607911257945e-01,-2.059088332007010524e-01,5.109760390520055040e-01
