-4.205106245084124228e-01,3.838065150813358972e-01,1.161919647792318155e+00
-7.802478818695726126e-01,7.736858373098045583e-01,3.091144776884410028e+00
-5.497125820557974274e-01,4.066453112969033445e-01,1.694531018202050987e+00
-3.381342398482016787e-01,2.287618071232946915e-01,1.074787961540504044e+00
5.428127679604026756e-01,-5.585558312353415822e-01,-2.314248634285266171e+00
-1.019545536080271653e+00,7.784471821049483431e-01,3.255447263402446278e+00
3.342907599914048400e-01,-4.207415162887609972e-01,-1.366481876840039078e+00
2.927248643091012181e-01,-4.408230250943523387e-01,-1.735289614135976821e+00
-3.584028761325472323e-01,4.755804804599940150e-01,1.319411602870331102e+00
1.706018337535015195e-01,-2.794870965935876694e-01,-1.556985600796831015e+00
-1.201295102808145297e-02,1.413861943321695173e-02,1.317546311870435305e-01
-8.473484619707132293e-01,5.062475697413294506e-01,2.817643470371358205e+00
-7.891689997299635717e-01,5.783601002195412066e-01,2.547622911726166173e+00
-4.754587686759725318e-01,6.168589079611027648e-01,2.045875932422768440e+00
5.788688646152339023e-01,-5.564161822496835885e-01,-2.025593684630234037e+00
8.404936875089725756e-01,-9.270071182961889811e-01,-3.159294274095314492e+00
-1.880506222359461521e-01,1.774862581912317605e-01,7.096129498396304136e-01
-8.632832497434226315e-01,6.804460170166739541e-01,3.275415794277155346e+00
-5.902758733665541824e-01,6.542753444106812477e-01,2.659000233921216871e+00
-1.845890406185545785e-01,1.931494342678147513e-01,7.846059980935076172e-01
3.265210699272018124e-01,-3.789431511252884244e-01,-1.299611962701246348e+00
7.483375259607775165e-01,-6.209815327298711107e-01,-2.687971001798028947e+00
1.916246341103298723e-01,-1.550018980524194567e-01,-3.455874370353367309e-01
2.948966347618456885e-01,-2.238826645829068152e-01,-1.053153903531615532e+00
-6.817538705996961657e-01,5.272431143452825930e-01,2.298200085634660272e+00
-1.434258126869066563e-01,2.816380490127392000e-01,8.942065743689089352e-01
7.919227871486710368e-01,-8.135834404198328818e-01,-3.105468096818106538e+00
2.842863720895397184e-01,-3.748281892003018090e-01,-1.473805871814166224e+00
1.301605675524976358e-01,-7.783997105031979780e-02,-4.194732185008373526e-01
3.923342022431991483e-01,-2.886039347383304587e-01,-1.314471989543593011e+00
7.618737109169814170e-01,-7.515877147304800276e-01,-3.087277174321888307e+00
5.728826738303899324e-01,-4.421989104284200778e-01,-2.233757344704510928e+00
-4.566204235960293345e-01,5.030165281027372259e-01,1.358214819585854105e+00
6.250860949746050998e-01,-5.933082456646247005e-01,-2.585148635413200502e+00
-6.971700431789930319e-02,1.497972740297575378e-01,4.993622866159044826e-01
-1.515323913766089547e-01,-3.827156157287504856e-02,4.199844604765484712e-01
-2.659977186015592410e-01,1.889016559187427502e-01,9.799851316007558433e-01
-2.266109951948598877e-01,2.685071157451783264e-01,6.874077531231571614e-01
2.033930771318081809e-01,-2.515867913109593457e-01,-7.195868403991039219e-01
8.275966716327538553e-01,-7.631573387367118766e-01,-3.222193671213179567e+00
7.292003490627342321e-01,-6.546897078163286254e-01,-2.726293204757095801e+00
5.762935328463141271e-01,-4.752238964323919901e-01,-2.233641374787375344e+00
-3.103682151173020043e-01,2.655600996413960413e-01,1.122215763149515988e+00
-9.224747047357706453e-02,1.749339252264319466e-01,4.846886586902752203e-01
4.361737922481880303e-01,-2.592742875525279600e-01,-1.395345020053817997e+00
-8.218489139147895362e-01,8.087054754509178656e-01,3.224651873584633233e+00
3.882891321090113923e-01,-2.718611071159885983e-01,-1.113385475903410970e+00
-2.686848965048244664e-01,1.878830801411154328e-01,8.443563795272236439e-01
-7.298952411576486998e-01,6.739683623781898003e-01,2.611309120668841466e+00
-7.799170013601594009e-01,6.441523011302073831e-01,3.000573599904146072e+00
-4.360256262507558045e-01,3.547870456662333138e-01,1.967045333520068606e+00
8.504946167347769981e-01,-8.776196495652464069e-01,-3.187569864806258479e+00
8.849696781911059462e-02,-2.405685275383299612e-02,-2.225338104735410938e-01
1.315414244413608269e-01,-1.809367556333691951e-01,-5.167862716738307327e-01
-5.951424047222790836e-01,5.543723833126704692e-01,2.367576840313009523e+00
-6.729780199154864473e-01,5.734749985746406820e-01,2.474201155787317141e+00
-9.557270930785950469e-01,7.711282781851597212e-01,3.291469934026473698e+00
-3.598962889316769664e-01,7.419817947253373180e-01,1.691857583989208047e+00
8.776319202419019137e-04,-1.884251339736656844e-02,-1.244959274047919250e-02
-2.798269815956960782e-02,1.995401607202308414e-01,4.212176969047467523e-01
-6.306834069064563009e-01,7.502286313198331946e-01,2.855526227805342376e+00
-1.236116940246970719e-01,2.328810689589990157e-01,8.924426599624770695e-01
-3.294530539320527085e-01,2.719725806716469241e-01,1.138538114577527294e+00
-4.648763844624590469e-01,6.058730632167588226e-01,1.920341977619558049e+00
-1.050536055985387685e-01,6.842108072713966316e-02,7.702767250816158762e-02
-6.952991833273225453e-01,6.933554730805358002e-01,2.871033473691647853e+00
-2.411886361491804853e-01,1.638358824188977658e-01,1.076742597460171202e+00
-4.033873333233027880e-01,2.496575284111660076e-01,1.610541007429452387e+00
2.009731796778806978e-01,-2.341596747819621113e-02,-6.512683024059857662e-01
2.401390303096639922e-01,-2.533560926097713217e-01,-7.906651811097686888e-01
6.852945105153444849e-02,-2.326071606357830723e-01,-5.136594600778342512e-01
1.148713282593391144e-01,-1.923160912299322622e-01,-6.245542089480217163e-01
-6.256721775346885117e-01,4.887375576246867359e-01,2.135878285034850332e+00
-7.291331033540263684e-01,7.206535706179456602e-01,2.706281423640120476e+00
6.304590901778795997e-01,-5.995505822695847975e-01,-2.750515800758933427e+00
2.261822956546666041e-01,-2.661164365661430192e-02,-7.379064127459953326e-01
-7.436003175834516865e-01,8.042470861283826933e-01,2.565051404906062427e+00
-5.182055034122615700e-01,4.864837052829598663e-01,1.802452003149805471e+00
-5.956427813174091090e-01,5.969510227308354455e-01,2.321804967355039384e+00
6.687356805677060478e-01,-5.256626909213517607e-01,-2.266787229727250441e+00
-6.106734025255806664e-01,5.908714653204645284e-01,2.150021221207819355e+00
8.532960417519046548e-01,-7.758148410004354067e-01,-3.264784578786718239e+00
-6.576639550542598966e-01,5.696484246888019465e-01,2.568548194795236217e+00
6.605571343338226264e-02,8.637071873861831839e-02,-1.115279276374642053e-01
-4.098040723817802933e-01,3.269667097148291623e-01,1.137832181050173697e+00
-5.492670726850858998e-01,6.226808485683658079e-01,1.775909068598818141e+00
3.722225718582346521e-01,-3.821677138535731766e-01,-1.292585978574955385e+00
4.298651718046423431e-01,-2.244823469220802170e-01,-1.158286065634170692e+00
6.930793644313901769e-01,-6.900185777259276731e-01,-2.590078733958879997e+00
6.351060730760689221e-01,-7.590236177225161418e-01,-2.910909527575617606e+00
2.356039822546752982e-02,-3.705904071996152238e-02,1.037856803850561727e-01
-4.875096217482816074e-01,6.166392582186532856e-01,2.034673686279896199e+00
-3.547871990021229105e-01,3.788343955145846431e-01,1.286606334676059449e+00
5.883039667933058769e-01,-6.577864463052911503e-01,-2.120004557655295052e+00
1.447368709932004005e-01,-5.890103035968159012e-02,-4.768086869531280581e-01
-8.112488759449528741e-01,6.687191553357902940e-01,3.180168334727066615e+00
7.988423068287356932e-01,-6.411840856901516172e-01,-2.990411638610945388e+00
-6.353260010080150622e-01,7.319984829513890290e-01,2.525752318567727084e+00
-6.272230352425870459e-01,7.541484379571135044e-01,2.483894463114422191e+00
-3.274040749682681217e-01,1.929865276735273361e-01,1.153666569549419263e+00
-4.969260744406674424e-01,3.839350371368377424e-01,1.375277967756001862e+00
-2.049032368822546468e-01,-6.317180836087218920e-02,3.452822846733648587e-01
-1.855130331833045043e-01,1.963094072421963932e-01,3.318207777211282794e-01
3.180655709107680362e-01,-3.260518290225357663e-01,-1.152329078793975503e+00
1.622265330262057104e-01,-1.580092302517600578e-01,-4.976046255239944260e-01
2.066814954119079173e-01,-3.437133135672149065e-01,-8.505038308438719330e-01
-3.263160921497235134e-01,4.589455131182082481e-01,1.566239259638899428e+00
7.019452317841994304e-01,-6.073998617500107056e-01,-2.874089181518707292e+00
2.596111181140389190e-01,-1.919096352169240571e-01,-8.511270304916176421e-01
6.324406588600087753e-01,-5.825751391872615592e-01,-2.025750787739297287e+00
-3.565751191010815280e-01,3.865681718944852796e-01,1.154909608198526172e+00
4.304461566074309076e-01,-3.413976701280557746e-01,-1.678723070544161144e+00
6.265399289408116745e-01,-5.516608167667385043e-01,-2.463742870821139519e+00
-5.949141390686971675e-01,4.889321050074014741e-01,1.860802654252676769e+00
-8.068470152526329153e-01,8.403092488089024537e-01,2.848376119137779661e+00
2.658911584098344050e-01,-2.650729902708671704e-01,-1.328677463524521318e+00
-6.094582080459776119e-01,7.300641912032026504e-01,2.651648195048158296e+00
4.313259021976414975e-01,-2.889802349416714655e-01,-1.539203473755295537e+00
5.883832330492194673e-01,-7.440238783605103157e-01,-2.780498740404986791e+00
-4.520496551678150898e-01,4.057569378622730705e-01,1.931857492966744916e+00
5.051430797506890613e-01,-4.398295039037943277e-01,-1.674833674078310297e+00
-3.035304809026489470e-01,3.959052166424345542e-01,9.632024357913744339e-01
-7.901725344190095868e-01,8.123116653220450178e-01,3.087115071642938080e+00
-5.028068334255776373e-01,3.644366125017947100e-01,1.662287781890751770e+00
3.665869318060158699e-01,-4.588040426857201703e-01,-1.772263374226358268e+00
5.014022974976029001e-01,-4.750144824954992684e-01,-1.888697522225660341e+00
-7.356185810177819917e-01,5.962500970337614170e-01,2.571064875930697102e+00
3.836599980174993374e-01,-4.681173567145079928e-01,-1.609751444313732183e+00
-4.048144205021484421e-01,3.132436114515484982e-01,1.238561646802080585e+00
-5.892585833497250292e-01,5.668898843398417764e-01,2.111131537494312038e+00
2.929185126883069312e-01,-1.707171696883410805e-01,-8.635073608147100233e-01
-7.023919055517298116e-01,6.132868891859508675e-01,2.988071964505464972e+00
-1.410148598013933330e-01,1.760533562610864522e-01,2.239198832641333958e-01
6.983980026912384176e-01,-7.285652651720443407e-01,-2.784600965776157899e+00
-9.057454218320558637e-01,8.097567060803613215e-01,3.149645474096559816e+00
5.162714558398148190e-01,-4.691380881809287806e-01,-1.776141937105907509e+00
7.492490220971884662e-01,-7.325068931475356981e-01,-2.674946553842480590e+00
5.437744426713083667e-01,-4.248351133311674688e-01,-1.915866732655068461e+00
4.740971354706522978e-01,-4.186748852428033851e-01,-1.738925008097519598e+00
-7.705129173965072353e-02,4.142196007845216910e-02,6.077363112748276203e-02
-9.246188454806267276e-02,2.889091188782237918e-01,7.926128218885879484e-01
1.343079276742998873e-01,-2.355348855855802781e-01,-1.049841435137022660e+00
2.086913454549778613e-01,-1.489135928171723411e-01,-8.019716780122202460e-01
1.819242217612899448e-01,-1.441741197695036447e-01,-6.615091822528115229e-01
-3.806309086571182387e-01,1.601445703648277930e-01,1.102338171034268788e+00
6.173885368415178432e-01,-6.436411496774904206e-01,-2.056379269310067315e+00
1.881337186031793174e-01,-2.563285783166605603e-01,-8.429118253632237323e-01
-2.710135881040319217e-01,4.174109269871866257e-01,1.322884841166658054e+00
2.780901096747960821e-01,-3.811040294128743566e-01,-1.256623169447364630e+00
3.926513796153460745e-01,-4.273347069500826878e-01,-1.605907199293828747e+00
7.041742123433444300e-01,-5.444483147804191070e-01,-2.504565310739177431e+00
-5.413975929977377782e-02,-8.805746520168751534e-02,-1.718143052942938676e-01
-7.833780486195284514e-07,-8.230663941450762008e-03,2.409607742240044981e-01
3.719699400047636606e-02,-1.239903817112788242e-01,-3.290441698241594604e-01
-8.191840559547067802e-01,6.835472861847180504e-01,3.157852166832992857e+00
9.421517108402209517e-02,-5.889568491333599387e-02,-4.603834186716387888e-01
1.621802350428047657e-01,-1.536148715746985249e-01,-5.303822667658395495e-01
-6.146022756675931786e-01,5.441916206671406631e-01,2.230734763272092191e+00
7.901287931744864768e-01,-6.481588151575934376e-01,-2.667172549848126017e+00
-8.530388024094294197e-01,7.228231314179174305e-01,3.139071266374029001e+00
-7.219280841679192040e-01,5.621744366104433066e-01,2.694271514390790045e+00
5.448069091472955705e-01,-5.883978115737865666e-01,-2.278263510318281782e+00
2.616074157237808784e-01,-3.087938471025004628e-01,-9.922156747299443191e-01
-7.579280468042374208e-01,6.572318374380096140e-01,3.093055295322586051e+00
-3.211453809432656681e-01,3.416636256993766385e-01,8.541830115658041178e-01
6.695440791571616312e-01,-6.712186785832072733e-01,-2.781638401912841729e+00
3.183753538359220814e-01,-3.048074936220253051e-01,-1.060384613106128526e+00
-9.730712521594006570e-02,1.954769776739075093e-01,3.142595243159498342e-01
1.042822773234258982e+00,-8.940723957212932671e-01,-3.245492203945716803e+00
-4.614468197755138834e-01,4.317619808559449712e-01,1.931341812951374415e+00
6.929895675763543261e-01,-7.828407494139332234e-01,-2.630057349940272626e+00
4.537573218382104367e-01,-2.481348222102915113e-01,-1.348250059381993049e+00
-7.318976541889784526e-01,8.054837978773532470e-01,2.985523571572751944e+00
-7.642684291885580850e-01,8.005021023061485996e-01,2.999461839290920917e+00
1.975162198029676852e-01,-3.081164237295080932e-01,-7.947699247615711560e-01
9.786148264034162381e-01,-9.027495065964127319e-01,-3.351305715050875378e+00
-1.872116196515619668e-01,1.773303316078641834e-01,5.720901395213419116e-01
4.171282430654483231e-01,-4.110385309780325014e-01,-1.902545587097490110e+00
7.018059881822467094e-01,-6.727844069531068172e-01,-3.025775285126664382e+00
-4.663373383069246980e-01,6.376122928195935291e-01,2.187203176833867335e+00
-7.780541254866755185e-01,8.540957998655140937e-01,2.936317863665517169e+00
1.713505544257578617e-01,-1.213086912183399396e-01,-7.969107651260519676e-01
-7.120439454091588294e-01,7.421000901342629241e-01,3.003064755456696933e+00
5.508003306440832914e-01,-4.872313252891476432e-01,-2.174044926134798494e+00
5.460461629700565922e-01,-3.855501066018326983e-01,-1.692593683347431543e+00
4.916539829360661029e-01,-4.124942898430403182e-01,-1.522351166995058458e+00
-3.761767893988043343e-01,3.659779643037041064e-01,1.443215799370357821e+00
-7.388203901193870493e-01,8.322283653271848047e-01,3.206634030894483178e+00
7.842565313170629659e-01,-8.687033802342386535e-01,-3.231340236448704939e+00
-1.577980962599248305e-01,1.356368493155643389e-02,2.086635854407385415e-01
-4.379744281334263523e-01,3.654728201554474643e-01,1.960061111370504872e+00
-5.617874010390789818e-01,5.613600281607775688e-01,2.173172719637584738e+00
6.319004265405792076e-01,-6.683684863469592230e-01,-2.599729069404370208e+00
8.230138578142255357e-01,-7.663464361890629517e-01,-3.067624868138942862e+00
-3.292331172662272265e-01,3.382848111269806668e-01,1.346268846256288843e+00
-9.187117838041433115e-01,6.939704569225025876e-01,2.964655869826811951e+00
-3.252234947274239008e-01,2.811788720352693671e-01,1.357174773945456714e+00
-2.044220773650244627e-02,6.397998942153278190e-02,1.890795594180122163e-01
-3.284976518372353244e-02,5.092603713731721354e-02,3.247316157974765999e-02
5.183886734531097940e-01,-4.144841186881445538e-01,-1.659966300554421625e+00
4.593622902581908501e-02,-4.064943578601573626e-02,1.946848261720481588e-01
-8.204987912258119298e-01,6.870925586280741681e-01,2.754367950869831549e+00
7.216096844151272949e-01,-4.642611838989980644e-01,-2.406506971171083364e+00
-6.617563022916672644e-01,4.772700590494657336e-01,2.042565701293105551e+00
1.721971231398964144e-02,6.614093361118328351e-02,-3.243004658616620989e-02
5.058288511399050558e-01,-4.257652866780546885e-01,-1.786524465332993250e+00
1.402977788138803361e-01,-8.678994167065301468e-02,-5.000292236910715005e-01
-6.320091234378425425e-03,7.816651788510986520e-02,2.281156400528935035e-01
-6.914857214086040926e-01,6.573896213749579331e-01,2.706853116088950628e+00
7.535808165660519142e-01,-8.197198587340605025e-01,-3.064891521812001862e+00
-5.766930703222261645e-01,4.613501454117177603e-01,1.804311596523723527e+00
6.342226314685189825e-01,-4.843058159008451491e-01,-2.107030600993886615e+00
-5.797565489810926342e-01,5.929650134491400992e-01,2.076723069633738650e+00
-4.491984847190696462e-01,4.497035093704597197e-01,1.691751121776897904e+00
2.006667999181133977e-01,-8.912084677859243020e-02,-7.188416900886116512e-01
-3.546601669817953661e-01,1.669115176864484906e-01,1.038889670241024188e+00
-4.699577176263169398e-01,4.757538041023312014e-01,1.760730757245500655e+00
6.508425854446882042e-01,-8.170016915338331742e-01,-2.690501009399531629e+00
-7.633466862140311227e-01,8.287148554821199831e-01,3.124151830725942602e+00
5.233025032400762111e-01,-4.137207612774549959e-01,-1.770593443120100030e+00
3.185525135136499375e-01,-3.222537889117474408e-01,-1.108994835385226363e+00
-3.152730626884300835e-01,2.169336523859410615e-01,9.617103652083683896e-01
8.488362753030576080e-02,-1.844856869271582211e-01,-3.085365737643057105e-01
-7.213034732531689031e-01,8.583623925524134224e-01,3.110460714682555139e+00
-3.429870306258740453e-01,1.972953881567108825e-01,1.182411003440700492e+00
-2.292280308296071600e-01,3.006616509988462860e-01,1.110471166370546658e+00
8.098806036231608330e-01,-7.258489111190613574e-01,-2.811431921216357654e+00
-5.826188438642021517e-01,5.354181776199502529e-01,2.155580037932002924e+00
-7.096601641819246797e-01,6.300460543730426188e-01,2.802764494152717667e+00
-1.864303984315485441e-01,-5.146116589163409957e-03,3.295560192002073285e-01
1.056346177464791841e-01,-7.480558374582377268e-02,-6.707880022403994724e-01
-3.575651942940608063e-01,1.838713750633521049e-01,1.317386578648333195e+00
-2.316911717517307068e-01,2.765160078034661351e-01,8.324511300276777881e-01
-5.936041900815218764e-01,8.057157325614806576e-01,2.589946252601740273e+00
-1.957508980953713562e-01,1.340987319433623870e-01,7.528342366333533597e-01
7.102661552646194476e-01,-6.040044020999348895e-01,-2.645968878506280930e+00
7.891356792538861686e-01,-6.886691668461164539e-01,-3.413860278498857426e+00
-6.854198665592191320e-02,1.120932771964998076e-01,5.371787150871610850e-01
5.991848909596325656e-01,-6.100883931653472425e-01,-2.093696166077529508e+00
8.066128870072393486e-02,-2.874880113434267678e-02,-4.353719324824503190e-01
5.242808844160324888e-01,-5.425248176572965431e-01,-2.160863132346317883e+00
-3.941799643552374999e-01,3.883528204461207389e-01,1.841806298692448829e+00
2.125321621193664301e-01,-3.016573744758225262e-01,-9.863642745700328396e-01
-3.049342219219623451e-01,2.583623084944062787e-01,1.430972267663897401e+00
-6.651646903862730165e-01,7.488068320252381227e-01,3.183295550307295496e+00
2.848320489192718297e-01,-2.780770824055174284e-01,-1.091606239522034505e+00
3.530439643383229686e-01,-1.878386259962651628e-01,-9.908021259335088038e-01
-4.926637388700010334e-01,4.009162893726929133e-01,1.366937433158495585e+00
-5.298359161830338282e-01,8.117093592252098144e-01,2.772090841548119133e+00
-8.934514100229576927e-01,7.261151586310111705e-01,3.283632296390214034e+00
-5.620939738920376350e-01,4.439811440524622510e-01,1.852418580442615870e+00
7.608527120952687239e-01,-6.905840050983901302e-01,-2.820649738373294912e+00
4.422583419197453902e-01,-3.717721073927981457e-01,-1.342383217264498718e+00
-1.056268524967270972e-01,1.776879133451720327e-01,8.293273515460494183e-01
5.605520010169701139e-01,-4.700001550039735743e-01,-2.158448148475423878e+00
-8.163108264608036346e-02,-1.920368911541602344e-02,1.449689934478286257e-01
5.066770780328321289e-01,-4.801761992161193704e-01,-1.960950524512152127e+00
8.188399081449445616e-01,-8.887909228553669827e-01,-3.222675470018796062e+00
-4.183589733194046922e-01,1.869750230621947118e-01,1.162048257603340629e+00
-6.673452095597690037e-02,1.779471035737175966e-01,5.420783590104557570e-01
3.010702798115412193e-01,-1.453290329512659240e-01,-9.649464311365530955e-01
4.507057278813756881e-03,9.292045425267271563e-02,5.193012694347179936e-01
9.038961222180832422e-01,-8.411419265546945523e-01,-3.161332170025158650e+00
-7.191296413211852034e-02,1.687316730544364263e-01,3.192506416725695573e-01
1.089953829880071778e-01,-1.460146134676694463e-01,-6.437408685542213016e-01
-1.160051025671643005e-01,6.891582199640988726e-02,4.488350654310973020e-01
-3.603855569641881140e-02,-9.101879745793232945e-03,2.187118244112858101e-01
4.706253427324683658e-01,-4.541109337529892764e-01,-1.613981222575894270e+00
-6.962735439758747091e-01,7.381448091300787384e-01,2.844034241214441483e+00
8.799115194962218167e-01,-7.841173703819079854e-01,-3.288367019936014213e+00
-4.101058669906661458e-01,4.796968571377063784e-01,1.910509245535010781e+00
-2.814697917937010740e-01,2.691187907043943728e-01,1.542422367469956201e+00
4.012161713952328013e-01,-3.305940302440261158e-01,-1.415717836565574705e+00
2.516944972095307986e-01,-2.530195621922157190e-01,-6.661172858711310596e-01
-5.138107096341177488e-02,-8.545400762624363487e-04,2.628689088259664741e-01
-4.088291057212212198e-01,3.703983582051843526e-01,1.431069590594258090e+00
1.720621186743617193e-01,-2.033101796020927443e-01,-7.492540456438064878e-01
7.778497260982956130e-01,-6.906863685667995467e-01,-3.215000320798326872e+00
4.260279248095348859e-01,-3.461250518215861494e-01,-1.690115085768037151e+00
-4.167960990482894035e-01,4.265514375451401330e-01,1.888347879583210265e+00
5.356123155310000827e-01,-5.134358259880457132e-01,-2.453138128186762135e+00
1.441939758698855545e-01,-1.108317075711703556e-02,-1.490773888376233924e-01
7.995536518545646176e-01,-7.360814774824702145e-01,-2.703784718327007397e+00
-9.419472266751578449e-01,8.332903410268553968e-01,3.265104411552083086e+00
-2.364889032207123376e-01,2.096452922198016600e-01,9.457564883815454682e-01
-1.091804619082418076e-01,2.922590137287329193e-01,7.397484878894505789e-01
8.011393462384124309e-01,-7.445996390063256420e-01,-2.940009257661581721e+00
8.419683404261879556e-02,1.659113047465032506e-02,-1.534704711214017470e-02
8.425611463654359978e-01,-6.280345207193283041e-01,-2.972643336738308939e+00
-4.611029364462792546e-01,2.224054387992157045e-01,1.603196623169355295e+00
5.198666281914914727e-02,4.315245554703341785e-02,-2.743968743405980071e-01
-1.579804457077949587e-01,-8.248710838433473413e-02,2.912039447725421337e-01
-5.106144002423301971e-03,3.569893882899865395e-02,3.085377095137588621e-01
-7.635901401864170213e-01,8.003010343508936142e-01,2.940655915608359816e+00
8.755752719056782984e-01,-7.619557842492556965e-01,-3.178035957180905591e+00
3.471594504090900202e-01,-2.782320553536389851e-01,-8.777594226270665212e-01
5.649750745736944468e-01,-5.118511544114207057e-01,-2.302941948948756146e+00
-2.423455917690799655e-01,1.519443361390827307e-01,8.769284214716326353e-01
-2.685173823079516908e-01,2.585430585753184518e-01,9.764366471263682401e-01
4.796084926162399314e-02,-6.282504859102734651e-02,-9.581661590342763213e-02
-3.678033254598074286e-01,4.264367452050769614e-01,1.434729788160968855e+00
-8.957182342711196288e-01,8.394215438918032346e-01,3.252705298558045577e+00
-3.426599158476342222e-01,2.430244458192027945e-01,1.332663388036044783e+00
4.053912129950751342e-01,-2.659457327938863913e-01,-1.426178100231307866e+00
-4.287408314306448975e-01,4.652261859523667553e-01,2.279771216242730603e+00
-4.316219849372074369e-01,3.477839734125159343e-01,1.200399254591421494e+00
8.351655136239209687e-02,-1.103255806263471472e-01,-5.748605824417823973e-01
1.885530593330373150e-01,-2.232650587229054462e-01,-6.734700841493632684e-01
4.936459917866657388e-01,-6.042926556069482258e-01,-2.463083989672205210e+00
-5.034451311984448063e-01,5.292878565633395427e-01,2.273530315295564375e+00
-1.041057824526016480e-02,-1.451815362512803853e-01,-1.112112249023680804e-01
8.186633287349841526e-01,-7.952087378206220691e-01,-3.376670731329359576e+00
-5.738821826280207095e-01,7.326134519576854576e-01,2.592331851199283221e+00
-9.015801089628033838e-02,1.474398220301358642e-01,5.177587069832033650e-01
-4.973748769908724610e-01,5.051765657056493941e-01,1.903436795151641103e+00
-3.094922786193842756e-01,4.238543303142772167e-01,1.498787455155994319e+00
-1.948459188793896513e-01,2.058825015636443490e-01,9.173509343156538431e-01
-2.936369514616746224e-01,4.501722729633800824e-01,1.445493533078154424e+00
2.692725589095955607e-01,-2.276302205449012572e-01,-8.115321452235209065e-01
-6.654495652248963999e-01,6.303551489086856030e-01,2.737109627024605807e+00
4.407255592841787251e-01,-3.978862411798966825e-01,-1.572527028193250187e+00
7.702672423019991665e-01,-8.659013942755393600e-01,-3.226846345966249530e+00
-7.992334514065471129e-01,8.492618418464482621e-01,3.366901271930385686e+00
-7.117720581459928697e-01,7.449872861198760798e-01,3.019921516438222042e+00
-6.940362121883726365e-01,6.269725602843411183e-01,2.513332717187981569e+00
-7.750274859598957899e-01,6.630329345586712941e-01,2.678940446109941309e+00
-5.395774638969372261e-02,3.501773087819924635e-02,-2.649088246667988811e-01
-6.306849164526516782e-01,6.537365886803339077e-01,2.263982758270617790e+00
5.189610257954853090e-01,-5.230350953731509600e-01,-2.358396382280713244e+00
4.839670617913823802e-01,-3.246644810726841412e-01,-1.932635981365821820e+00
2.329372327682931454e-01,-3.195574310445261079e-01,-6.623813528359171476e-01
4.831124762352759228e-01,-6.603265868090471002e-01,-2.053251125028804580e+00
5.025657751537360163e-01,-5.128619934150278059e-01,-1.885644190520572305e+00
8.555081336535762526e-01,-8.094108712269646455e-01,-2.958763437945332253e+00
2.377019296008532900e-01,-1.979706024842478596e-01,-1.137729307841972126e+00
3.472951875226805707e-01,-1.599235881770281198e-01,-1.023882984936067553e+00
-1.223578294174642450e-01,1.158409738698804037e-01,5.667322905079679174e-01
-7.145341374959780500e-01,6.874151496509113279e-01,2.899513120798522525e+00
6.414913791080233407e-01,-7.032323662421726684e-01,-2.859899341702135001e+00
8.611673225548494015e-01,-8.955740912112809538e-01,-3.245392950717726599e+00
-4.110682103214919336e-01,4.801541629616681295e-01,1.851395902567498641e+00
-3.589084840704289681e-01,3.837703189564572459e-01,1.194409462231351471e+00
-6.500647975864873862e-01,4.083450803730440115e-01,1.935244938028897410e+00
5.772531254695495440e-01,-6.337120543095893233e-01,-2.244749659734357472e+00
4.208410241395977858e-01,-4.660689354554813368e-01,-1.935731897958681724e+00
4.568370747086622496e-01,-3.852713872309412313e-01,-1.721908857429782280e+00
5.196122121512412040e-01,-7.106346275030009929e-01,-2.436843821835553481e+00
-5.846219320393932772e-01,5.436233260835903192e-01,2.231249713987297323e+00
6.866652321235836576e-01,-7.522425906211093194e-01,-2.769600705159786180e+00
-5.415728534937909178e-01,5.294367223208500395e-01,1.523144448133888496e+00
7.111088750086939081e-01,-5.567923528640894570e-01,-2.160756210051977710e+00
-5.846875610137286516e-01,4.256282697121375747e-01,1.956076616730863860e+00
2.599645754219904181e-01,-2.612778167903168081e-01,-1.312222107657057046e+00
2.699252775092785273e-01,-2.510447975471096771e-01,-1.186835438637229512e+00
-3.364005799301357791e-01,3.444473580205873464e-01,1.583230827336822744e+00
-3.020866503837872363e-01,3.628290047787889328e-01,1.127171436250217207e+00
-5.159216727952344872e-01,4.280012292874001423e-01,1.814360701855569857e+00
5.933580650602350293e-01,-6.018859084846289731e-01,-2.504968040364716764e+00
-6.564693542871307130e-01,6.235099638269446798e-01,2.361756224247070879e+00
-2.429212779502679109e-01,2.407156543167890406e-01,1.214463488738479535e+00
5.360749854003787895e-01,-5.902701253725262109e-01,-2.468930919900473420e+00
-7.708735531217998371e-01,7.754584079973556587e-01,3.114691431334518423e+00
4.339156468607017758e-01,-3.001425641641420339e-01,-1.884954187203097487e+00
8.372835107639299279e-01,-6.543811941223456330e-01,-3.160661017704287978e+00
-3.166513823226865809e-01,3.267219641181932643e-01,1.031693454603082261e+00
6.823470407143660266e-01,-8.045919975701426585e-01,-3.152995325378117997e+00
-6.786979786150484917e-02,1.227610438537958121e-01,3.841341173488846961e-01
2.597297464967731062e-01,-4.174216531856281831e-01,-1.205186514365989225e+00
7.450697607829438462e-01,-8.056542832082828065e-01,-2.961686699093644570e+00
-2.385749526008159316e-01,2.343474208261720759e-01,1.013335975652762677e+00
-3.704510491402865369e-01,2.166785098058712222e-01,7.656470232969827538e-01
7.281070676365450911e-01,-7.054746920692883672e-01,-2.876367857925866023e+00
6.237228451147041053e-01,-6.373689649642030330e-01,-2.749052552910416836e+00
-6.927720843326382605e-01,7.870889239447581565e-01,2.844369823617394211e+00
1.538973233452402556e-01,-1.162808054367195781e-01,-5.704506823795459924e-01
-7.193912659314607438e-01,8.107602675029009776e-01,2.882625635471844028e+00
5.434224347995872950e-01,-6.653442773385641607e-01,-2.186496653162301573e+00
-8.389783390607008506e-01,7.775128697230543340e-01,3.025308059308866149e+00
9.080025031795214696e-01,-7.378954358274072423e-01,-3.109795940165043238e+00
-6.496817635295519811e-01,5.431555448634902694e-01,2.587840966203461601e+00
-1.735046336142260504e-01,4.755118955434593786e-02,1.554374951952794959e-01
-3.737530885748947124e-02,-5.145098255947211374e-02,-2.630083816983698197e-01
4.123503461557715410e-01,-3.724507070302744971e-01,-1.707061073511022542e+00
-2.338594615310189140e-01,1.504129700053152274e-01,8.952351081330667260e-01
3.174323198493494980e-02,-1.263410126488104419e-02,-1.533004689341297411e-01
-4.757364938707194235e-01,4.398669880211353300e-01,1.831214739510764078e+00
-1.305544147008317890e-01,1.375779258150092166e-01,5.770075914716077392e-01
8.706029362088733015e-01,-9.392138562120789791e-01,-3.309636677961722562e+00
8.001334654281349046e-01,-8.465200654184494855e-01,-3.072724124502878240e+00
-9.432420738992142173e-02,1.294920401281093314e-01,2.633531519480746264e-01
2.491490755360291076e-01,-2.996361694162684719e-01,-1.016281711244916286e+00
6.787086723102243868e-02,-1.829090495085750057e-01,-5.643795512280725957e-01
-6.779829838020885457e-01,7.733396179944602711e-01,3.116918345860924866e+00
-3.441898713111031238e-01,4.247971219583623892e-01,1.754440079153475551e+00
8.654812723204556579e-02,1.147100616379226612e-01,-1.530204158274383608e-01
-3.303280555722034051e-01,3.678821222170817196e-01,1.534434151256563128e+00
1.056287486392570169e-01,-1.521091567527000921e-01,-9.888258724803749011e-01
-4.016188041585295188e-01,2.417614764984420406e-01,1.421800570742884462e+00
-1.611077431210446720e-01,2.455619288484245377e-01,6.751718346861043107e-01
-1.019742548423260842e-01,-6.224385916269434965e-02,-2.151259333052898681e-01
-6.522752955654388396e-01,5.802811152701250474e-01,2.352033649846196894e+00
2.856683193016138489e-01,-9.292059875560872151e-02,-8.812028186688672937e-01
4.991463574579420026e-01,-5.825039843887819258e-01,-2.077669543214835990e+00
-1.031280514687910738e-01,1.735211269290705405e-01,7.886880697436344789e-01
-7.584015372467363125e-01,4.827223765480276318e-01,2.347820641235880412e+00
3.919708547831445289e-01,-2.746007484845565672e-01,-1.417641301755398819e+00
9.682459916492766605e-02,-1.025558961536753577e-01,-4.419908377718607118e-01
4.208141833348481853e-02,-3.762674828191954479e-02,-3.396306094880512383e-01
7.506577599027006720e-01,-6.825553356378880610e-01,-2.896372142084834067e+00
-3.913326279083473996e-02,8.276209921286276083e-03,-6.616815437211746864e-02
-7.396267364826039081e-01,6.758519497421675570e-01,2.687633131994978886e+00
1.767880361579273751e-01,-1.603793758280759318e-01,-8.030351730451981140e-01
-4.024250774652640139e-01,5.063316852212772501e-01,2.215524697558618694e+00
-7.207694910425525014e-01,5.862155180092162299e-01,2.193086566687229233e+00
-3.397713587169592236e-02,-5.064741036644448274e-02,-5.075999228127293927e-02
1.144577160513111230e-01,2.946453525321000855e-02,-2.193723860498135447e-01
6.285301487620541527e-01,-7.333889944170565167e-01,-2.163021455712648589e+00
2.396956306964667383e-01,-1.344081074125675068e-01,-2.312507191986090949e-01
-8.164341241517820702e-01,7.453892917198581269e-01,2.768011218631211356e+00
7.984161074129291213e-01,-7.943309435085156300e-01,-3.265282509408245382e+00
-8.902487419450493267e-01,7.072103611751345831e-01,3.290108304791061311e+00
-8.158744574142070549e-01,6.825517980075670454e-01,2.859331466686703571e+00
-2.972552025875078718e-01,3.496669064301351493e-01,1.314892487741322835e+00
-1.181915855291940098e-02,4.363572260391690438e-02,7.758801739977665146e-02
-4.343847437339757311e-01,4.611211482668975958e-01,1.635908774943664268e+00
5.040697225168340179e-01,-5.095888829461662217e-01,-1.660388011294647637e+00
2.730554640656197574e-01,-2.571174520783746087e-01,-1.064966859444144820e+00
-6.681141625916832139e-01,7.194280975823299507e-01,2.608647529570935042e+00
9.046599229044348656e-01,-8.183665090183882551e-01,-3.214462661784044162e+00
-1.492749013301031616e-02,-1.716544525495633244e-01,-4.286201866215453293e-01
6.092221862984976699e-01,-5.600155105726086768e-01,-2.416442377686048193e+00
-3.565273559888066934e-01,3.589284209813584647e-01,1.554207761627190987e+00
-4.907858522824429803e-01,3.893444825833105027e-01,2.007437184818196663e+00
-4.086149995919566846e-01,4.614211276203876722e-01,1.563660313451614270e+00
-5.508155819833174816e-01,6.889197768278323419e-01,2.230836917754150495e+00
-9.017209787231662832e-02,1.743548320710012201e-01,6.793736842368541806e-01
1.899672185509417577e-01,1.151466843425261698e-02,-3.504691165846633982e-01
-3.336872263359906277e-01,4.250134370440032394e-01,1.428047180518827952e+00
9.378155064267104657e-02,-1.505381284494852756e-01,-3.143009349507348560e-01
-8.809971976919832581e-01,7.776644202085650770e-01,2.940242463732361422e+00
7.799326428359675267e-01,-8.196864964031119749e-01,-3.430191904279043857e+00
-1.003052227732371016e+00,7.377555483432266525e-01,3.209294862952706939e+00
6.696790808505658221e-01,-6.566291071078952379e-01,-2.631671346903520003e+00
1.457559464598847110e-01,-2.279060886644428963e-01,-6.014071600280198604e-01
5.693907581918848937e-01,-6.297915114848327001e-01,-2.480284268889585864e+00
5.171885237363790244e-01,-5.221086175192192202e-01,-2.117455281438755055e+00
3.125071212121429132e-01,-2.273693010526241232e-01,-9.415717002382356648e-01
5.465365687562876440e-01,-4.081531865597138875e-01,-1.892372040108600162e+00
-3.169394773683615329e-01,2.809029457873985502e-01,1.200726453455614351e+00
-7.972985433399630839e-01,5.940732978947566023e-01,3.188045485311243432e+00
-8.041929259814926123e-01,7.170348508008888011e-01,2.992553103348771337e+00
5.216467921657069740e-01,-4.077627224026331154e-01,-1.880940812260034622e+00
-3.507936030923774484e-01,3.368415482437837616e-01,1.811765994255479129e+00
-8.121972142846445308e-01,5.371555161208382279e-01,2.591742388129599117e+00
6.811344558741532218e-01,-5.443030593350024482e-01,-2.567841427183091163e+00
-1.939646029126338156e-01,2.098968670800333003e-01,1.251487042692770002e+00
-4.194006351656774934e-01,3.469402846278024644e-01,1.567156026039007166e+00
2.384981065547040757e-01,-2.535680137017832236e-01,-1.058566983671889172e+00
-5.602148070472444674e-01,4.617860256396076335e-01,2.041623954602178159e+00
-4.981129900461278570e-01,5.869573333552472461e-01,2.296604249222779170e+00
-3.323462184970090161e-01,3.855529577042382527e-01,1.533392605174475509e+00
-4.799160349120185631e-01,4.047699660247286446e-01,1.684799958962450717e+00
-6.238241471149426065e-01,5.534592182514909142e-01,2.319003658888453057e+00
-6.336670329732926321e-01,5.279523559388090703e-01,2.511361326069729838e+00
9.014601268765287667e-02,3.862402174517162029e-03,6.627630268499011892e-03
8.217669454998483003e-02,-2.091557227035347258e-02,-2.392949838152283459e-01
-4.657613156885699324e-01,4.863943573053098324e-01,2.453617584998148526e+00
1.857074817541616574e-02,-1.600607413858664563e-01,-2.436756997891236787e-01
-6.199684011326468402e-01,6.955045641279058444e-01,2.612965002838924189e+00
6.894290176789146241e-01,-6.411955723104486582e-01,-2.584793100085731155e+00
7.076397233836064782e-01,-7.484742304177984806e-01,-2.965568089851863931e+00
-2.421284158902588680e-03,1.059991302886042902e-01,1.060241879649952146e-01
2.674023648766298833e-01,-2.303201605708407318e-01,-7.452368443338267534e-01
5.731895125230439536e-01,-5.038659002754241056e-01,-1.842544588046518106e+00
7.104125699903652835e-01,-5.670116846963172419e-01,-2.349604298378443534e+00
-3.401744088858409398e-01,4.527403604065191045e-01,1.156071913249404615e+00
-4.267887561409545172e-01,5.555609734618488504e-01,1.688305576211733383e+00
9.718200041817691426e-02,-8.899906821488330622e-02,-1.167561709460771951e-01
-5.164012484132188829e-01,6.316598118714082943e-01,2.235723832193974747e+00
-8.682833037183622649e-01,7.720894156381389317e-01,3.318212529378244291e+00
-5.699111472721304361e-01,5.618257167444665745e-01,2.298837663156713340e+00
-8.322126896384441919e-01,7.538418940336624186e-01,2.963667836147828361e+00
2.910308756214847331e-02,2.152799115126610360e-02,-1.439688582826951502e-01
-2.918678329818322759e-01,1.356344100458919122e-01,1.012166058116439116e+00
-4.931442038861775234e-01,4.803834101073864438e-01,1.876423218156558548e+00
9.046086820240344384e-01,-7.001008989462650378e-01,-3.169783472284101844e+00
-2.340570909878103567e-01,2.835307671854233047e-01,8.092258035944512873e-01
9.381072918216477596e-01,-7.147816747014582583e-01,-3.182526037029183019e+00
4.229548571416466007e-01,-3.600284658290496820e-01,-1.934645386899008557e+00
6.173746114621262437e-01,-6.128000542495807279e-01,-2.644275229144206207e+00
5.979657156255091532e-01,-6.389225365046340421e-01,-2.453204705621211623e+00
9.585107141454023427e-01,-7.057382759504016168e-01,-3.277824947205043138e+00
1.008587794629404177e+00,-7.247292141433273605e-01,-3.205713019729220292e+00
-2.658155425394849725e-01,2.529377539443630751e-01,1.152178869660094529e+00
2.351962256925533568e-01,-3.500857430800488057e-01,-1.249851186449382423e+00
-1.193247666634036919e-01,-2.122859623983993083e-01,-3.650247792643447897e-01
-5.791751830896654241e-01,8.102884280052785604e-01,2.723213540310150282e+00
-6.909660095672025548e-01,5.703366549815394038e-01,2.243772434135027805e+00
5.516173669610949237e-02,-2.215851860475257784e-01,-5.495777233896330660e-01
7.189761266131549089e-01,-7.308972201356930265e-01,-2.787462516117639399e+00
