7.811914892424200174e-02,-4.209086533536953167e-01,-2.444605437635390677e-01
4.051140850839162616e-02,-2.473437177138549659e-01,-1.227787076373979547e-01
3.597794675650099749e-02,-2.118408438809185890e-01,-1.134805542505291365e-01
3.740013860352946196e-02,-2.409422108757214021e-01,-1.288076834113631719e-01
-2.780087246227339742e-02,2.025645609324730478e-01,1.091117310229874904e-01
7.030604958374501263e-04,-7.915854850305439894e-02,-4.689931780452315235e-02
-5.576694661228012023e-02,2.475064577099857777e-01,1.411649702583006316e-01
-2.258081941793604192e-02,-7.282688807858274382e-02,-2.936874313655453081e-02
-2.133206707155368628e-02,3.041373409130485386e-02,1.185032644706882424e-02
5.517399586328967237e-02,-3.568264215442918941e-01,-1.990852846026159306e-01
-7.159538685833113925e-02,4.301282609598029438e-01,2.186960569804364818e-01
-2.491562765793088954e-02,2.268619252327377378e-01,1.113635753362308689e-01
1.316063777083879838e-01,-4.836955948063924038e-01,-2.486259080766213547e-01
7.599616837895510624e-02,-4.310934087498856648e-01,-2.255354573217918379e-01
-1.703941577394779000e-02,1.291715148308834049e-01,6.251638610574583588e-02
1.729716731021663234e-02,-1.336910676491978589e-01,-8.986794014813853648e-02
2.513510840040889677e-02,-1.225961438752138921e-01,-7.159412412826872407e-02
4.183031338929187742e-02,-3.620186517124509007e-01,-2.152513581308660440e-01
-5.797300101280154078e-02,3.345385970713093959e-01,1.882926061548791663e-01
-2.943377020438259911e-02,2.129028477824755905e-01,1.067648385290888291e-01
-2.450363816205684483e-02,1.805114767996615632e-01,9.347636524446541195e-02
-3.497525236653229591e-02,1.733369427828505838e-01,6.599784450303092243e-02
-2.866292014010581729e-02,2.097521368136190112e-01,1.169659942973013539e-01
-4.920442149602290843e-02,2.837368309150479773e-01,1.520159314942967632e-01
4.089171862386856149e-02,-1.878130582805303816e-01,-1.123888565750551793e-01
2.236944949266990793e-02,-2.627885424688353733e-01,-1.639475480818922415e-01
-9.685391660807925185e-02,4.559953858775055435e-01,2.584219981321875248e-01
7.638773081193794834e-02,-4.677859573817391148e-01,-2.605865642044143948e-01
-4.447302311212694703e-02,2.784864673432502213e-01,1.732293892613062380e-01
3.529497061402122032e-03,-6.871300715699626971e-02,-2.197968488917624238e-02
3.147747706557921937e-02,-3.021451317831153061e-01,-1.825081910586541789e-01
1.355834289338600854e-02,-1.726306154886914634e-01,-8.566378669317885330e-02
4.327962370082011345e-02,-4.044513529150659537e-01,-2.172937096324233097e-01
2.479024947837315043e-02,-1.446732291744997623e-01,-7.971565727814618196e-02
4.799223899954357941e-02,-2.911749272324920534e-01,-1.465562146387016929e-01
1.771867257922552993e-02,-1.526912486347723474e-01,-8.109597301281785964e-02
5.772523468116818463e-02,-3.910939470025573406e-01,-2.057602823794984770e-01
-6.964498105577147935e-02,2.855943927566550467e-01,1.497774582052855685e-01
-8.885858925143971798e-02,4.877260044502937375e-01,2.589663441036523239e-01
5.447346728169582403e-02,-2.487220998050824194e-01,-1.230940860431690431e-01
7.048086942785570380e-03,-9.126717319714056087e-02,-4.788090774837067826e-02
3.373477817625256808e-02,-7.410413043113329989e-02,-6.498825339598929274e-02
-4.767608900721553335e-03,4.714607786955940516e-02,-8.745750082642209100e-03
1.018440130004604968e-02,-1.991584228019724623e-01,-7.853950759525905878e-02
4.221779551987849682e-02,-3.588968608795003457e-01,-1.766819044834034846e-01
-5.968062978881375630e-02,2.862962613607564766e-01,1.619553101227783343e-01
-2.472118424788651361e-02,8.150103173183972927e-02,3.976808746374469600e-02
3.372958837331605647e-02,-2.588556565063005466e-01,-1.345687650078341568e-01
7.045470974125675467e-02,-4.670131906247580456e-01,-2.402694370836911120e-01
-5.188020856039709389e-02,4.321358295064457455e-01,2.373816874009928302e-01
-4.582113177650177192e-03,5.651749972494436031e-02,4.409882761827812331e-02
-1.767913087570707753e-02,5.946634565955495610e-02,2.698928430913998455e-04
-6.765279277412683534e-02,3.968956847504757635e-01,2.042910625774096711e-01
-7.421486747877827084e-02,4.273029271893284409e-01,2.141075738421388541e-01
4.984636219732555690e-02,-3.099930266043451899e-01,-1.792334282650409338e-01
3.593498800679640476e-02,-2.518848764043520316e-01,-1.398509463686303245e-01
3.182573191322175116e-02,-9.057348079277832698e-02,-6.475289777545158165e-02
-5.330810807482415370e-02,3.215016295337584928e-01,1.492611723015827840e-01
5.765385561628284111e-02,-3.588914717251132092e-01,-1.839883767727443220e-01
2.386173687915945675e-03,-3.038420721987085404e-02,-2.292430783011634859e-02
-2.047681739584381738e-02,4.699631873163630236e-02,2.341628126065192772e-02
5.122807340237090640e-02,-2.216492609756824383e-01,-1.251390491726919740e-01
-5.276071268351330973e-02,2.789923083355856925e-01,1.589405185513949048e-01
-9.596009022667294219e-02,4.681719359646701051e-01,2.447685607912526706e-01
-4.750622814013545636e-02,3.109067627239056608e-01,1.670453249538351170e-01
-9.145794445018395891e-02,4.729304456304172510e-01,2.342312205086516108e-01
3.544709330604572939e-02,-3.196230847574618728e-01,-1.665662798935146072e-01
-3.113516839300902415e-03,-1.275666406675292526e-02,-4.273532441572753431e-04
3.259610747880602871e-02,-2.087291045646079424e-01,-1.125696059765802087e-01
2.164053675535256016e-02,-1.380459872288272716e-01,-5.567755564860002448e-02
3.761022707343299881e-02,-2.650483589415854602e-01,-1.239657963375999511e-01
-3.232330952890201392e-02,1.305066532928274015e-01,7.709301197367293690e-02
6.186013121368929418e-02,-3.684898958725340568e-01,-2.190511430857104147e-01
3.908850952483012772e-03,1.376474924544498178e-03,1.547320545388087415e-02
6.611299854095667450e-02,-4.218853873574011648e-01,-2.531130587782252639e-01
6.280465504035484536e-02,-4.925686975083944930e-01,-2.530105296147051597e-01
2.913587869951166781e-02,-2.163358814849886680e-01,-1.185335058577634132e-01
-5.993582630256117511e-02,3.830286354570100471e-01,2.159497699570164797e-01
3.103810315027064060e-02,-2.531158506692876009e-01,-1.308201986716548137e-01
5.515866670969719193e-02,-2.941717767886842250e-01,-1.551797703876891532e-01
-5.065051916500525747e-02,2.690486536820043129e-01,1.806239223769821045e-01
1.641706955505490770e-02,-6.733789998042245817e-02,-3.393070713471487559e-02
-7.115040321868582041e-02,3.299030860035486179e-01,2.106429025001811950e-01
-1.831020089025819225e-02,-9.507606592419380956e-03,1.229317068043633832e-02
-5.074741915482430116e-02,2.384651935673268719e-01,1.379399145367870283e-01
8.667342356249345403e-02,-4.516315642775197703e-01,-2.493740467008505879e-01
2.091775342441843169e-02,-6.588532865235019464e-02,-3.116846297423891271e-02
-9.379541771103364067e-02,4.904004904002259857e-01,2.645556582998971340e-01
1.012559823350541177e-01,-5.008253279913348344e-01,-2.576774715026374230e-01
-5.213529800474656778e-02,3.483791861490695418e-01,1.868037555761147550e-01
-9.748639688825938912e-03,1.572495030437931762e-01,7.748782878786049377e-02
-4.327565634646610843e-02,2.827044308290029284e-01,1.666509695343018627e-01
-1.231556419387800673e-02,1.829609489719992432e-02,1.327289306832356340e-03
5.098780697583827487e-02,-2.372221119790052513e-01,-1.223498850877776517e-01
-8.693361769974908282e-02,4.007651282663375336e-01,2.236517811841124415e-01
8.127033689486352908e-02,-3.666027626535844908e-01,-1.772797426088273398e-01
-6.550871816038086881e-02,3.783722588226314798e-01,1.821791309929900182e-01
-1.696477467778353650e-03,-1.298264636475799511e-03,1.119710921264978690e-02
4.185468054776460278e-02,-2.339820441082640923e-01,-1.309245158535286002e-01
-7.660025610957998943e-02,3.347441390404151118e-01,1.876504892799839841e-01
-8.680494562111680523e-02,4.152734644124844166e-01,2.238174056365567488e-01
-5.696821681182648311e-02,2.812279251596800922e-01,1.283581429570684052e-01
-3.091955922391358483e-02,7.847387242079202629e-02,2.572223482253116478e-02
-5.945929178924657527e-02,3.034919621881504992e-01,1.627897017004778513e-01
5.643224177322415935e-02,-3.646741604527381497e-01,-1.962432345560349012e-01
-4.911028180192065357e-02,2.870971897309825827e-01,1.639138379393595968e-01
4.228588962980035781e-02,-3.026003482883249940e-01,-1.397890734202386076e-01
7.009608758513680149e-02,-3.123014411253103306e-01,-1.567035676778704145e-01
-3.295620726506643533e-02,1.779560681333531014e-01,9.859443476155946295e-02
1.728844519192096430e-03,1.829502249606835759e-02,-2.392977143722224351e-02
-7.660109410405524510e-02,4.613547780273738463e-01,2.558717818058902083e-01
-6.674400241473539552e-02,2.814619874483518247e-01,1.542165322747442724e-01
-5.303667345205977102e-02,2.345175008970397379e-01,1.252329102227346391e-01
-3.720834478925516553e-02,1.637181004338601475e-01,1.102210986355378619e-01
7.400672385139621390e-02,-4.052062535667492749e-01,-2.121674662870093597e-01
-9.921870974781912822e-02,4.567503605356600382e-01,2.512833119669120596e-01
2.534933057775309168e-02,-5.200270813696528105e-02,-4.523770056209833884e-02
4.838867772684778135e-02,-2.700288156085562941e-01,-1.474675520697737441e-01
-2.592839739330293596e-03,7.933950557655000679e-03,3.510441264484806447e-03
-4.915556782526208507e-02,3.387844315660232808e-01,1.864914040484811630e-01
7.184841058197485864e-02,-4.616632978765778383e-01,-2.436029129663062065e-01
5.397272094031508455e-02,-3.909565751464735839e-01,-2.168293063004332610e-01
6.733320396505720895e-02,-3.575352230917258067e-01,-2.116490256874045961e-01
-4.413703644492050077e-02,1.111483877820263755e-01,5.369745528568037329e-02
-3.468605358022613244e-02,2.654962919898872786e-01,1.461769104372900585e-01
-5.193751764937293292e-02,3.499002483497966609e-01,1.798061507227286249e-01
-2.731502998219588821e-02,1.399542585002482020e-01,8.483760289574002189e-02
3.772263098057843100e-02,-2.814520935233834065e-01,-1.567119140155517065e-01
6.369821361119712422e-02,-3.158511689230454333e-01,-1.618556401095253838e-01
-5.807988515100129256e-02,3.150955737523338240e-01,1.693855039919512917e-01
4.812749918160907914e-02,-2.860536047713527763e-01,-1.610838632728477382e-01
-6.726728067367197285e-03,8.637785098217878876e-02,5.905707336027100213e-02
-2.430622320416388552e-02,7.697771519864581025e-02,1.548033234161980826e-02
-8.009299065482676505e-02,4.752112904244116809e-01,2.775356149386602467e-01
-9.859499793432655035e-02,4.825212104118081213e-01,2.799738739584371472e-01
6.418237513368876823e-02,-3.776722687803469869e-01,-1.945345661414386862e-01
5.864773103824717088e-02,-3.100230827978984749e-01,-1.580053710486938878e-01
-2.168110577419611260e-03,1.365786863580482624e-01,7.077965702879294996e-02
2.404969761216512597e-02,-1.942194517107162233e-01,-1.179190025119696006e-01
-3.128887501620627315e-02,8.828777263763364080e-02,5.263911021954637004e-02
-2.424267282526995637e-02,6.242377761747404386e-02,3.957084427793708392e-02
-3.248382217750889894e-02,1.994821447530424063e-01,1.321148787948088765e-01
-1.543577581465580516e-02,6.252242400027267777e-02,4.256136424838654481e-02
9.591324010021903823e-02,-4.482228547979020261e-01,-2.580755436399522762e-01
6.589481063736683797e-02,-4.028167117436299294e-01,-2.241742296628351783e-01
8.270911323154576944e-02,-4.701305028035694944e-01,-2.547002543974006827e-01
-4.863415203222027500e-02,2.049883643152602963e-01,1.186824152092287726e-01
5.451027352610569865e-03,-8.442143318258370221e-02,-3.256151324532469832e-02
-8.178014558633600606e-02,4.572438885822654453e-01,2.553524272046009402e-01
7.788631533251851036e-02,-4.759100422906835659e-01,-2.790429931127644814e-01
8.496364416101759992e-03,-6.896871092274427240e-02,-2.964025976425794032e-02
-6.266576375554665235e-02,4.108158934002738016e-01,2.137276044132673525e-01
-5.599205115346921058e-02,3.939717289017092283e-01,2.201414157073538214e-01
-1.810341870915926216e-02,1.241120808283093235e-01,6.269418587107250529e-02
-6.932913329725200191e-02,3.993889888389575704e-01,2.151932356112525591e-01
-5.683154947495575038e-02,3.513211915663315699e-01,1.871585201648755803e-01
-2.852589600897918222e-03,-1.492039568482411531e-02,-3.760839686533247548e-03
-4.076111744658904301e-02,1.110015672942140236e-01,4.552232742580691882e-02
-4.483515366820371717e-02,1.973260080425385532e-01,9.596107555510605125e-02
-8.994441060648942837e-04,2.194984211540753835e-02,-2.012464505571490321e-03
3.997047114582805843e-02,-2.136996391760568048e-01,-1.356479371887551189e-01
-5.744038131738690711e-02,3.596033093203024333e-01,2.009289260256312826e-01
6.539645053911287420e-02,-3.559642770191723815e-01,-2.040597459188000506e-01
-1.744424051273983645e-02,-3.753255790491050181e-02,-1.183410449507541796e-02
-3.897632478525368815e-02,2.798705085927972736e-01,1.577105515460698604e-01
5.882375865486053068e-02,-2.400972966467988245e-01,-1.349115204207530228e-01
5.638033233216479395e-02,-3.760262200758163198e-01,-2.329982599365280904e-01
7.961094413821219462e-02,-4.446194575462182885e-01,-2.618785525751869403e-01
6.549815839545375384e-02,-3.937864864742682824e-01,-2.099143387101302105e-01
-6.799408963995075272e-02,3.094402769566320099e-01,1.639244026150361577e-01
3.258674668173126843e-02,-1.489992682259844714e-01,-5.045277356052602080e-02
2.354356955738701532e-02,-1.320797706062631360e-01,-5.234549800338651748e-02
1.901923277308135984e-02,5.352768299837971921e-02,3.164580364639175969e-02
-7.332706146103756817e-02,4.722289845673529052e-01,2.517507456562044776e-01
1.263624279028956882e-02,-5.320701410557023697e-02,-2.664197745694250191e-02
3.603921402239849969e-02,-1.369664681099374004e-01,-6.664316006622177102e-02
3.264158711897936771e-02,-1.796432064039606979e-01,-9.341977299747833419e-02
5.689482666330437227e-02,-3.566322050731374760e-01,-2.141424077250184965e-01
5.469811526503917491e-03,-7.825709404927791435e-02,-6.659523011087363498e-02
1.138871920736749324e-02,-1.513385173253802840e-01,-8.789070717629690610e-02
1.313900089272354924e-02,3.980606612592841394e-04,-1.138287256841198809e-02
-2.521057396400833150e-02,2.117992025498889874e-01,1.268884352102196689e-01
-2.423350868241549994e-02,1.097615689698294428e-01,4.439817510661371591e-02
-2.796299987812473839e-02,1.233357731489960890e-01,6.417555783641244738e-02
-1.479720870300950397e-02,8.421557698784282175e-02,5.303731930826782737e-02
7.203386080447979865e-03,1.589877207117930055e-02,2.347013237853430231e-02
3.218516795953876158e-02,-1.641521423070619601e-01,-7.952005643160670045e-02
6.364032435984766367e-02,-4.294290609264394543e-01,-2.243870209755561840e-01
-2.998645071442214774e-02,2.088550028185607310e-01,1.144235564220226348e-01
-6.715472698020515108e-02,3.633594598907027851e-01,2.089861564943222560e-01
7.905182182321826567e-02,-4.765929405579649170e-01,-2.779744147692647660e-01
7.900325625593412893e-02,-4.534209982077458401e-01,-2.471162247424281699e-01
-1.561515693273580682e-02,1.141590279340781583e-01,8.392487203215356906e-02
2.166735005458876942e-02,-2.167632671004401934e-01,-1.242723572160278067e-01
5.628955404125389472e-02,-3.797659681221394745e-01,-2.012255871105004812e-01
8.319039546821557773e-02,-4.781074854386359596e-01,-2.762775784063052908e-01
-7.568886645521895849e-03,2.298158081213780637e-02,1.352204527702972111e-03
7.234945907214287986e-02,-3.911556928653240894e-01,-2.156161050666136614e-01
-1.175114745383065012e-02,-4.209915272019072729e-02,-7.378514568788371517e-03
7.299695575245780665e-02,-4.446328808682945000e-01,-2.488820838831241333e-01
-2.094520287242299453e-02,5.719131310304356730e-02,1.604369374506794607e-02
-2.218869247007571738e-02,1.343193730210489809e-02,7.584448973591082898e-04
-4.228341725392755629e-02,3.452441699649675400e-01,2.134817860186067340e-01
4.897990743480379328e-02,-3.513940714631830775e-01,-1.909835756064644785e-01
-9.102379096888925381e-02,4.192380326781158795e-01,2.264569034794066404e-01
4.246957691159312064e-03,-1.460298769214574965e-01,-7.993888012482529282e-02
-5.823730965258387682e-02,4.405879481150964949e-01,2.435811817189558748e-01
7.844652018945177940e-02,-3.957257155783164837e-01,-2.428633052778564061e-01
-3.312768525036335378e-03,2.133776254015661358e-02,2.735891273378064387e-03
5.191195647142492903e-02,-4.042176412139234509e-01,-2.224991568944233722e-01
-4.426077047989160351e-02,2.077649309024170998e-01,1.028425597963792126e-01
4.188744239432216215e-02,-2.845651940205279895e-01,-1.734788024485846014e-01
-4.386423211461857978e-03,4.279057974720963664e-02,3.354430133297820610e-02
7.795082033618251638e-02,-4.738677179068682688e-01,-2.742869571215421076e-01
-2.619224865260469381e-02,2.750963730355054926e-01,1.476785729659389201e-01
5.458020152695442634e-02,-2.975292133244428205e-01,-1.759875197317647411e-01
3.350460418660212297e-02,-1.708233874925071671e-01,-1.179943700567923776e-01
2.217515959498280592e-02,-1.574936059350812712e-01,-7.241362213780508372e-02
7.452712706928080189e-02,-4.285956376150393821e-01,-2.409616794888880531e-01
6.062317362453634867e-02,-3.521152577097314551e-01,-1.898799765508805693e-01
1.476703187888820171e-02,-1.580768391746509849e-01,-8.890901020898606122e-02
-3.466913833759883296e-02,2.529867879690889110e-01,1.537217120974070372e-01
5.760132369924671203e-02,-3.440524975199595881e-01,-1.920658131657191625e-01
8.363752464246011710e-05,-8.825708203963103168e-03,-3.718991309070388690e-02
-7.756771013751767932e-03,3.842941335672959979e-02,1.376178593083952212e-02
-4.841507485899188001e-02,2.303414891811561560e-01,1.111194812927153719e-01
-6.592550627716599332e-02,2.965412438896172787e-01,1.538315834168781093e-01
-7.266471879515613852e-02,3.889606731933002437e-01,2.003551595628972615e-01
-7.303430533812731162e-02,3.674424377603847658e-01,1.908229776426252633e-01
-4.970321123793867979e-02,4.112167941414292538e-01,2.177946893964714803e-01
-2.239832343979687723e-02,1.304423954641246997e-01,7.634238815040776671e-02
-4.779588064712159828e-02,1.971086018884028734e-01,9.391755416242753007e-02
5.873306250897195741e-02,-3.258471828982935081e-01,-1.802413298633081251e-01
8.679833584054245932e-02,-4.306249977642621074e-01,-2.408339766434892670e-01
-1.277711661134079378e-02,6.842283042811628246e-02,3.442400734484056535e-02
7.314838431964791610e-02,-4.613007515358657495e-01,-2.452121290629614425e-01
-3.912233207111052991e-02,2.482085580081843101e-01,1.555835992706365301e-01
-1.497965604634976175e-02,9.830034640142709668e-02,5.250512428437566909e-02
-5.276513066433786980e-02,3.907387118442534613e-01,2.088891862168198998e-01
-7.471584004184421424e-02,4.265033542750891749e-01,2.071376104356265624e-01
-1.738110740503318735e-02,1.047657098249848706e-01,5.141616226245324106e-02
-2.071939975915752449e-02,2.492592098340846163e-01,1.260575620588376966e-01
4.013813570721638802e-02,-3.375804718213132882e-01,-1.976946410412361854e-01
-8.502770302771572863e-02,4.873403027013663014e-01,2.716498858926554294e-01
-6.613730630547857980e-02,4.354663932996528652e-01,2.322837332951168399e-01
-7.150876510807688269e-02,3.985159354151118771e-01,2.065249064399531931e-01
-3.541305531812403290e-02,2.201734390930550345e-01,1.584017820673090937e-01
5.860977329563608201e-02,-2.398140345952625152e-01,-1.344945544610017252e-01
6.559089565101174080e-02,-4.441779003676218918e-01,-2.271963428370175897e-01
6.891448347017456455e-02,-3.910738745297583363e-01,-2.204664458658381065e-01
-2.061690155619695999e-02,4.452787226845415086e-02,2.585297099790476519e-02
-2.405180590581952951e-02,2.667111271732986455e-01,1.470539037501386315e-01
4.694562017186371811e-02,-3.324564071276537858e-01,-1.794479867407111628e-01
-5.196135611098671309e-02,2.782654371335506749e-01,1.635152673292958325e-01
9.206528057962462541e-02,-4.701370274659333326e-01,-2.686116853863869669e-01
-5.917022672926863791e-02,4.615189082677670362e-01,2.661874980065686569e-01
1.678074771950385097e-02,-7.897625667454338805e-02,-4.829224107491748852e-02
-6.622264613822870238e-03,-4.530984428910106443e-02,-3.964398045405639198e-02
-4.774729221410932249e-03,5.403981615689159440e-02,2.526520644818631631e-02
-4.287952881740456079e-02,2.427305735446041168e-01,1.543300411885150658e-01
-3.567518043022979701e-02,1.139812740578353828e-01,6.109707013769221512e-02
3.144811761604588557e-02,-1.548892553138790651e-01,-8.140447190901713148e-02
-1.342925366538057740e-03,9.232724573077039087e-02,3.653396621566528529e-02
1.109940577205211810e-02,4.507975237860791656e-02,2.673064673347923942e-02
4.391972630712231290e-02,-1.772865017767044638e-01,-9.942301311505809258e-02
-3.147697846543285466e-02,1.831231800288315725e-01,9.042977772992831509e-02
1.902636884343853960e-02,-8.527929494577499159e-02,-4.793824526351613685e-02
-4.798940592447581421e-02,1.161055188999672722e-01,6.453961745574401943e-02
2.534889862393641807e-02,-1.004595999718836258e-01,-2.629011640548311463e-02
-5.467446539712148001e-02,3.577766243569672766e-01,2.254435538557132412e-01
-3.612776322678560442e-02,1.946298183527782610e-01,1.265694885820108639e-01
-7.596326455624900775e-02,4.188817175300859619e-01,2.522382368322625412e-01
-4.876541823001211313e-03,-4.661458122065282456e-02,-3.004987307253968384e-02
3.008678067437350889e-02,-1.565090463770353046e-01,-7.860565236401943767e-02
-3.728149240395546571e-02,2.285667437470952079e-01,1.237282531031997646e-01
-1.171421511534073874e-02,7.213081786409067386e-02,4.051508989617318146e-02
-6.718510802621970035e-02,4.490659173346757127e-01,2.573843354602294853e-01
3.116664687776466575e-02,-1.316385752876210180e-01,-5.721834250691471696e-02
6.666200905198818583e-02,-3.243558164701743074e-01,-1.750379965962670925e-01
-2.424458190619334375e-02,6.114390912038956266e-02,2.941034788537441255e-02
-5.369023570864653316e-02,3.850131822476679511e-01,1.937792193531441554e-01
1.777848013076703537e-02,-5.060869561860516230e-02,-9.752367994232923054e-03
8.320991794975712841e-02,-4.744324810430755601e-01,-2.770893123471942499e-01
1.760903445104439538e-02,-2.147707464207842740e-02,2.892494578250481146e-03
-2.324426229824218260e-02,1.643964347309340990e-01,1.039588178902541848e-01
-6.794811863725948309e-02,4.203285950760065615e-01,2.132546573950279689e-01
4.605375479689147872e-02,-2.701711332961557743e-01,-1.303986015620111905e-01
5.758090570852284276e-03,-2.210539828650544963e-02,-3.032192097360974017e-02
-4.248673606585074564e-02,1.853826748120805668e-01,9.917011947925435944e-02
4.660677043628094762e-02,-2.230282523520089322e-01,-1.256148083398772042e-01
3.062089393493388698e-02,-2.067502514885761755e-01,-1.047123686814368931e-01
-5.775082315849835307e-02,2.896029939454951019e-01,1.623278557944295708e-01
-1.740691998044553018e-02,5.012752256160649816e-02,3.481510519764080547e-02
-1.374169293406089093e-02,2.420683620078011022e-02,4.156050731205818659e-03
-7.046169804380811308e-02,4.859637138834095316e-01,2.574518418658275909e-01
-4.355836870028450408e-02,1.962426594966446836e-01,9.753504243820407260e-02
7.375927055552364275e-02,-4.746513752306319445e-01,-2.584398653305175486e-01
-5.483125482521517685e-02,4.490063233467319059e-01,2.487019150728444206e-01
-1.725352166813216501e-02,3.273388786779400650e-02,1.887860112889441604e-03
5.651402675658283997e-02,-3.245914356308514104e-01,-1.812892272107712588e-01
-4.288685424612284636e-02,2.395443673093885506e-01,1.090437054144173801e-01
2.695097890904607149e-02,-7.084430817005922532e-02,-4.395595361430345432e-02
6.851351311216656061e-03,-5.800768704741882109e-02,-2.273684491736151919e-02
-7.246564140767283724e-02,3.184287326276739050e-01,1.712736126839001227e-01
3.444355667964315443e-02,-1.896330777343964435e-01,-9.386009935404675264e-02
1.049565903871061377e-02,-1.899491589127309255e-01,-9.441078207958804314e-02
2.328483409691834219e-02,-2.094959123723708072e-01,-1.222895354259466716e-01
4.113328862250795886e-02,-1.441575209766970955e-01,-9.039870695080176599e-02
3.125828416262126531e-03,2.301650960209036118e-02,2.649372451732763881e-02
7.269135274641454203e-02,-4.755005808972351256e-01,-2.445118809641336211e-01
-4.829751072078922181e-02,1.743004828217424584e-01,7.311000632769555641e-02
-2.843967480036235090e-02,5.821940101634369424e-02,2.171064144908194452e-02
-5.723734484861062177e-03,-9.628312688153972806e-04,-7.638783723909098149e-03
4.412409146753127481e-02,-1.751581621276767364e-01,-9.847301538690843292e-02
6.067955332713629440e-02,-3.480656009723423483e-01,-1.884340359331435899e-01
-4.751755326861036716e-02,2.410102109190954134e-01,1.346125451799844441e-01
-3.272938648503165293e-02,2.654675367809500308e-01,1.588524029801512971e-01
-4.848482681009760875e-02,1.486958415238825992e-01,8.136112204428917749e-02
5.935244274874095644e-02,-3.348187947248174035e-01,-2.056438845820125205e-01
-2.137045117832331656e-02,1.672413726811966539e-02,-1.642760999537647842e-02
-7.541389377668707150e-02,4.613347463952844896e-01,2.421132718222662739e-01
-7.799721127348493988e-02,4.589324668807343022e-01,2.400699986163785105e-01
-4.241942539215888541e-02,1.968128561026697143e-01,1.052994629304450785e-01
-2.076392224643072715e-02,2.232368763823140423e-01,1.402430105006992056e-01
1.387833161537658719e-02,-8.544462063225659321e-02,-4.592677623111963287e-02
9.039751972061259994e-03,-1.742283833517730210e-02,-1.618308315001867545e-02
-2.828076198643341213e-02,1.357765657615404020e-01,6.515793875522264689e-02
7.301007238175040437e-02,-4.456374713760219430e-01,-2.375692766094691655e-01
2.683324836407697828e-03,-6.261153261046403795e-02,-4.676303206750258290e-02
-5.370314203448423029e-02,2.713946125936028686e-01,1.499034568968901360e-01
7.971095037582487386e-02,-4.212555700960617933e-01,-2.279670638170220032e-01
-4.029895161011257804e-02,3.403410894075542537e-01,1.773589206889275016e-01
-2.500579995637089784e-02,1.534532588485172377e-01,8.234466373728797917e-02
8.204894270180312921e-02,-4.863423764511949354e-01,-2.650103045812791103e-01
3.171828514267507199e-02,-1.971548952350031247e-01,-1.166487253483955433e-01
-5.753264412437129188e-02,3.202666339017201103e-01,1.660541688195161514e-01
5.305645507403602273e-02,-3.512131784212875196e-01,-1.904309695116590539e-01
3.218241481007024646e-02,-1.861259560860623885e-01,-1.038928297925763994e-01
-5.986132843679255189e-02,3.843659143101980091e-01,2.173277777723190973e-01
-4.740701762072286468e-02,3.051890299944472473e-01,1.729110557457285147e-01
1.131862124427676641e-02,-1.671699050188148739e-01,-7.442968565910139389e-02
2.306600854871790687e-02,-2.096618044462250918e-01,-1.485180753554623534e-01
5.107679587684078176e-02,-3.000109674904738455e-01,-1.660147292762828020e-01
-4.598553823097036725e-03,-1.062453131500243203e-01,-6.440454895775121757e-02
-7.465664413223436699e-03,-1.272849736661684113e-02,9.394971818597346383e-03
2.245544087438202871e-02,-7.285198548580312794e-02,-4.683691994343034543e-02
1.129733492948198775e-01,-4.581560440311241988e-01,-2.441111519986999545e-01
4.797571501307006797e-02,-3.536385433769750897e-01,-1.674369493640236461e-01
-2.669065894174393536e-02,1.738085451059300235e-01,9.884929630940880729e-02
-4.727361306892557957e-02,3.189165234463176013e-01,1.752935756523783806e-01
1.243323454575918918e-02,-6.941514654421350461e-02,-2.389450644581866956e-02
3.012810796421981629e-02,-1.194432365670531487e-01,-7.814106680532510729e-02
-5.450162834019189190e-02,2.366990708585846592e-01,1.522251290950346059e-01
1.201398359588569387e-02,-3.037823564421068476e-02,-2.738973559504625718e-02
2.601901901945683718e-03,-9.228112332015388219e-02,-5.868858299303521958e-02
-2.287144699211677082e-02,1.108029738885024928e-01,6.262069367038486378e-02
5.111716225049008772e-02,-2.435729017521932049e-01,-1.392387585337363787e-01
6.579377698236028860e-02,-3.993688497667363668e-01,-2.273431464096324905e-01
-6.475828516572186555e-02,4.256773322206625076e-01,2.305414346039041384e-01
-4.640762380082701782e-02,3.513836539388309199e-01,1.773895643204538020e-01
3.025269646683719990e-02,-2.635462165984265859e-01,-1.473434385152254666e-01
2.470507270781788223e-02,-1.961443434040940625e-01,-9.743035110686858180e-02
-6.030735817234518514e-02,4.845104059036777766e-01,2.494219292666303711e-01
-4.860404345249230013e-02,1.501012011104465860e-01,6.628742978265173003e-02
-8.279054490209515615e-02,4.443992431699935186e-01,2.378756851600296041e-01
-7.443941803326417465e-03,-1.980772838496383179e-02,-3.549208505455644230e-02
9.105321850929365413e-02,-4.011488081467892153e-01,-2.253179724044143684e-01
3.271170066754634786e-02,-1.243863756013959265e-01,-8.027699790874318064e-02
-2.042496844137327728e-03,-9.140764553228372669e-02,-4.522472813201929703e-02
-5.793573140132807046e-03,1.102934124327463739e-01,4.232540016005323369e-02
3.739371367684289627e-02,-2.654742436414910811e-01,-1.401432261277006930e-01
-5.886839862007762353e-02,3.108396388008356492e-01,1.624611576115460032e-01
-4.877871683168152894e-02,2.233502178295962426e-01,1.382759984424074551e-01
-4.049903749055600716e-02,3.060087616293516999e-01,1.505132888511462042e-01
1.008043544760125164e-02,-3.601926967671415306e-03,3.647308949296475342e-03
-4.133269805952079212e-02,2.475557005171609704e-01,1.315190580999932579e-01
-3.900323189981985683e-02,1.870240246665683392e-01,1.169850864550688180e-01
-1.397440146707010916e-02,8.196292715743258919e-03,1.084255331492408984e-02
4.525504732940211633e-02,-2.584725217316702350e-01,-1.454876440534861870e-01
6.418527107859343939e-02,-4.204112669981627803e-01,-2.351071871952415127e-01
2.410052306534715347e-02,-9.606506685831388281e-02,-4.761198679184602822e-02
-4.391127543973634417e-02,1.881945823144923202e-01,1.036359039700065904e-01
3.936798655676661263e-02,-2.371791480951268571e-01,-1.265248930237764524e-01
6.533439352210547446e-02,-4.105534656075346400e-01,-2.341860730849690264e-01
-1.605204625548293119e-03,1.258874343837812770e-01,5.574851431678778252e-02
-3.592036356473547049e-02,2.523570504296491768e-01,1.432550435282383960e-01
3.466928908297545880e-02,-1.223269792511222781e-01,-3.948705427776460358e-02
-1.114673328338043222e-03,3.467573724266947294e-02,9.127768482320957125e-03
-3.661171867384255263e-02,2.051556740973542459e-01,1.488384597200949899e-01
-2.177585147868562124e-02,-3.635081989970586486e-03,9.032998431768140754e-03
1.538696906250004368e-02,-5.158855113015133748e-02,-2.503666620128322529e-02
1.614717585219084669e-03,4.207038243287986728e-03,-4.224869233346308442e-03
-4.856905013851336994e-02,2.959958859095839223e-01,1.663177442207553758e-01
1.305961269503583266e-02,-9.199306517406519168e-02,-2.594023092379518433e-02
-4.588706247289209977e-02,2.391063867298681422e-01,1.408053776469568863e-01
2.623810649673536874e-02,-1.302299648578686131e-01,-6.334809840696556393e-02
4.139099217835534583e-02,-2.992720982391635642e-01,-1.816555926874096616e-01
-3.709214393552600492e-02,2.636869623668925411e-01,1.406220619471572619e-01
-5.842555800410077077e-02,2.992695703646711669e-01,1.581177015298916577e-01
5.335761458627266696e-02,-2.629229258585648599e-01,-1.586547175248474995e-01
-4.875449960616416722e-02,3.560318935714578137e-01,1.835275176711275436e-01
2.418974738893037157e-02,-2.711742009546141419e-01,-1.412482807462284162e-01
-2.771410885977721242e-02,2.177111651634335010e-01,1.255129816224260231e-01
-7.338901445583087546e-02,4.157039398745295822e-01,2.336108801776530242e-01
-6.608797884646168408e-02,4.433007649558318164e-01,2.337597232683846504e-01
-6.650138285887000587e-03,8.001344015761477357e-02,5.581298828354800540e-02
1.198085122447896562e-02,-1.021346785630131565e-01,-4.920848303698287934e-02
-3.469888785397718528e-02,2.195216672596418672e-01,1.319191397730149762e-01
-7.717478453665219118e-02,4.654257162303316875e-01,2.650670686195150116e-01
-4.212775868858338602e-02,3.782793798092308757e-01,2.125098472263929616e-01
-7.232375134436113372e-03,-1.702382939508256896e-03,1.114139270705136880e-02
-3.666381253391812894e-02,2.215992385867709968e-01,1.119925435235338967e-01
-5.870814959062691657e-02,2.354252086289031487e-01,1.359069914247453825e-01
1.948379458961983779e-02,-2.216224311910374167e-01,-1.282566322645055101e-01
5.794565133049155159e-02,-3.037615955406952617e-01,-1.631320225320909423e-01
6.796278737212385623e-02,-4.598890549338336964e-01,-2.510577181453744755e-01
-1.155754447797237988e-02,7.334325938849486914e-02,3.626771417088316130e-02
-3.173281759692056503e-02,1.819209733740752288e-01,1.010704436096581949e-01
-2.329681192271324669e-02,1.088707521785602927e-01,8.178093425160960772e-02
7.484125447308015433e-02,-3.981700205355270250e-01,-2.170729802699125910e-01
-1.784054515814135090e-03,2.228807795337423361e-02,2.061770246910080498e-02
-5.834331669838235812e-02,3.927290459440607173e-01,1.890974341499631062e-01
1.266604420622983876e-03,-7.152065868898989376e-02,-4.414169121393079348e-02
-4.300676224893418276e-02,1.618911227621166460e-01,9.803895645250053359e-02
-1.047721761081250001e-02,1.391142394550092531e-01,6.403090854049749148e-02
-5.873261217818127877e-02,4.145082005520097646e-01,2.375273965236552598e-01
8.212996714150570809e-02,-4.729282581218739456e-01,-2.678808860544691917e-01
2.801582764848568538e-03,-1.330069771902444575e-01,-7.630982880655429179e-02
8.123743151017873143e-02,-4.392275551664996946e-01,-2.592835756867979402e-01
-5.599214222550481443e-03,1.660879801109040044e-01,9.720848403689434647e-02
-4.689328154839314533e-02,4.044572299848709362e-01,2.035149735667110271e-01
6.738213209457940417e-04,-5.912713058830862400e-02,-3.285487236261845634e-02
3.797651212990131586e-02,-1.047485642333944866e-01,-6.903160607665151383e-02
5.952245812707326889e-02,-3.101837474206873835e-01,-1.624125682637386214e-01
2.024997410799080425e-02,4.103872719235462582e-03,1.364874861424644412e-02
4.506936812016620886e-02,-3.210767793329156738e-01,-1.766602444562188068e-01
1.769617421050572251e-02,-8.440460036326588589e-02,-3.355546250612711362e-02
-6.698862428828417093e-02,4.396850888213560404e-01,2.229252381482993428e-01
3.389762612899385741e-02,-9.947709833175569227e-02,-5.120754170895054636e-02
-6.382444123040424688e-02,4.748150980915090136e-01,2.835092173414887617e-01
3.532069055871764340e-02,-2.383957746893898555e-01,-1.256434850109264811e-01
-5.436919197226069284e-02,2.795991643959266360e-01,1.504444131037576127e-01
-4.592841859629619855e-02,2.628877559798879493e-01,1.544609898561737915e-01
3.822657949283118830e-03,-6.035024258083054871e-03,-4.569946937778807811e-03
1.880577220807590905e-02,-1.007549152574123141e-01,-5.847561494579916336e-02
5.516689807954278796e-02,-4.448850673296891878e-01,-2.433963586715980898e-01
-6.096604591771278073e-03,2.424824844386068781e-02,2.444335997913842790e-02
-8.188187907536428889e-02,4.641839670712992194e-01,2.431710372358320826e-01
-1.355479943363963741e-02,-2.021910163397941732e-02,-8.968397654606708597e-03
-2.162681392296447389e-02,7.699829167691187026e-02,5.729192776573555773e-02
6.294662116574087363e-02,-3.538995133529553860e-01,-2.207671982328412996e-01
7.560051312243235531e-03,-4.480069236070270688e-02,-9.890607351069708938e-03
-3.673730317023928688e-02,2.274477198460439220e-01,1.265741607034061855e-01
8.648586976634135837e-02,-4.209273596004310392e-01,-2.264248547159996294e-01
-5.899191988284859661e-02,4.385629332698006144e-01,2.411472332477861968e-01
-7.156155631831544184e-02,4.510916206895875802e-01,2.254555491051117855e-01
6.540168331696154247e-02,-3.954272193975600369e-01,-2.049578364743821768e-01
4.483640705636503937e-02,-2.498404500575869547e-01,-1.351832736562385562e-01
1.395817219312067009e-02,-1.028056066353147113e-01,-3.879854764229667685e-02
-5.307276414976064977e-02,3.422258923183900681e-01,1.821981511442762325e-01
4.293918237562130424e-02,-2.116987324873225718e-01,-1.098314282461811398e-01
-6.738246769998715302e-02,4.737291983935044137e-01,2.516654998134039145e-01
7.825890008124529451e-02,-4.366975583486321644e-01,-2.353057191904492640e-01
1.463026663542029739e-02,-4.764896851235819741e-02,-1.075431588528608789e-02
6.878177673583630788e-03,4.832212030120622975e-02,2.736571575143629739e-02
-2.649013314212378747e-02,2.143471389918659153e-01,1.172279707503816187e-01
-8.995835299732274359e-02,4.164907482116950166e-01,2.471813081586081706e-01
4.815638598136259829e-02,-3.036488571418664018e-01,-1.652266985149031808e-01
-6.577949203838198700e-02,4.585488570457864621e-01,2.384686685695893149e-01
-4.718584032673253659e-02,2.901242609957933039e-01,1.691553793406528894e-01
-5.031979463110487771e-02,2.302918380231224194e-01,1.419801812435378674e-01
4.506760858603280073e-02,-2.655885123697248607e-01,-1.482915380218040591e-01
-6.340664225102563001e-02,3.683448561134163857e-01,2.057873916290401117e-01
-7.629499711042203591e-02,4.238261900005364513e-01,2.207643133039927097e-01
-4.043278374151708376e-02,2.439480614700323124e-01,1.206902691255280907e-01
3.243377190437848889e-02,-7.577981435743175176e-02,-3.674409206909752534e-02
5.194123155370351796e-02,-2.764975140780251417e-01,-1.681237730408069175e-01
-4.938565165878917168e-02,3.731747726404922028e-01,2.108926230538118174e-01
-6.852404554043622920e-02,4.091529186156527831e-01,2.101540929071513131e-01
-4.586540557126277118e-02,1.994417167720008155e-01,1.116574860590129614e-01
2.597685672452951580e-02,-1.303066596165473323e-01,-6.520398601677125650e-02
5.805553837698763237e-02,-3.102125806425303223e-01,-1.752802299510991813e-01
7.078508764251392749e-02,-4.869669617444244980e-01,-2.753760849044407655e-01
-3.378081260758891008e-02,6.764154202197196486e-02,3.845331546433886777e-02
5.068232599503968289e-02,-3.591028577981865144e-01,-2.156584422903040366e-01
3.833431128548475675e-02,-2.342405310639536775e-01,-1.347181247705888374e-01
-1.694124373645259155e-02,2.007057589898657290e-01,1.065575997635539035e-01
1.378175158202456750e-02,-1.481610146511609660e-01,-7.761379584140266907e-02
3.704573630366415210e-02,-3.677763436548034948e-01,-2.018527068599735019e-01
-1.881976671283481020e-02,1.102426412127490013e-01,3.633013507868945724e-02
-8.704230563504299079e-02,4.711643253603384762e-01,2.561918499014624317e-01
9.084893003733136851e-02,-4.862085138179756960e-01,-2.878104055106421866e-01
4.911044861061851508e-02,-2.491627596121823163e-01,-1.443797371840402910e-01
4.538576350805335891e-02,-3.052247978057496258e-01,-1.667726624528705903e-01
4.078024061823590229e-02,-2.010494200819009925e-01,-1.057351448652384257e-01
-7.752114359284668910e-02,3.967631983098642845e-01,2.172330600556819924e-01
-6.971424390182189013e-02,2.946283581107391747e-01,1.689216983070121192e-01
5.110121631046487395e-02,-3.721409585786934482e-01,-2.341818124757147068e-01
-9.474223399563375591e-04,1.647679045596298422e-02,2.043067745900249352e-02
-4.528318515280344708e-02,3.811079381131189381e-01,2.031051355581963702e-01
