-4.143141283203009451e+00,-4.743810684335627442e-02,1.031620373334970919e+00
-2.371992863671709806e+00,-1.130757590947045893e-01,4.523058299275292127e-01
-2.054640170794852949e+00,-6.978908580894177538e-02,4.510725168311949806e-01
-2.328625181180592474e+00,-1.079079782279859928e-01,5.202758916810188428e-01
1.951830884037832892e+00,1.180279407840773565e-01,-4.536939682900931192e-01
-7.511297962765458580e-01,-1.183161774047623016e-01,2.386199413582790751e-01
2.451274531651631783e+00,-4.506407677640196507e-02,-5.596789310251780725e-01
-6.070527750813846657e-01,-3.215221458569698099e-01,1.701813949700103634e-01
3.191632518245858252e-01,-1.095768752915095706e-01,1.397960373126270334e-02
-3.468483125383176269e+00,-1.446463626814206704e-01,8.381775915547884370e-01
4.140023576471217659e+00,1.770153642994586052e-01,-8.252975165531429846e-01
2.145999746532699870e+00,2.036096502178217083e-01,-4.373068415065151648e-01
-4.772915425647002330e+00,2.128149334537015602e-01,8.140731841419381887e-01
-4.174011339985122859e+00,-1.308254920820383360e-01,8.670515780679455276e-01
1.225899883729174800e+00,9.504707166229328652e-02,-2.342271884225868295e-01
-1.329535731523299402e+00,-5.009130183687746096e-02,4.461223073564359876e-01
-1.212870671838586656e+00,5.919976061275194525e-03,2.973020432622717202e-01
-3.520715248693373933e+00,-2.323974778224732751e-01,9.948870068120185817e-01
3.269383044483590961e+00,8.260849115412537136e-02,-7.824721975655970496e-01
2.032572251231929084e+00,1.383834728262034186e-01,-4.124877675341973582e-01
1.729572860908709986e+00,1.149396374336983523e-01,-3.747457273820921086e-01
1.627578024750674812e+00,6.746650064769617317e-02,-1.379395336571755948e-01
2.030547606964456353e+00,1.151380718008963855e-01,-5.022195038779735388e-01
2.754212348932764343e+00,8.534910490554974138e-02,-6.016357002930499132e-01
-1.869863939728911406e+00,3.353252174933946811e-02,4.709531075860340921e-01
-2.557158437956152497e+00,-2.167001588587048333e-01,8.054539401374054552e-01
4.499321812574147650e+00,-3.283265657448346253e-02,-1.033437546918715144e+00
-4.554847441442441358e+00,-1.581817970751123459e-01,1.084766080165715518e+00
2.753664607784976681e+00,6.549347328889167097e-02,-7.942831978998706743e-01
-6.125786683691526457e-01,-1.174253825006514040e-01,4.842385390989835392e-02
-2.937967967075055586e+00,-2.154945506960416479e-01,8.624909091660220017e-01
-1.623546227713259738e+00,-1.960323164415659625e-01,3.545429077026016618e-01
-3.869251541182716192e+00,-3.340778965647149823e-01,9.338015911250803214e-01
-1.409072543468645744e+00,-4.142501198719503869e-02,3.253277910607877965e-01
-2.797917767171830050e+00,-1.266201617817460934e-01,5.479368273694731339e-01
-1.461443469779775794e+00,-1.170514204119014467e-01,3.413097718287009252e-01
-3.765221716024067078e+00,-2.055973468024609452e-01,8.256812112873184173e-01
2.807939516733819474e+00,-6.756853800801124188e-02,-5.260760985810848389e-01
4.737877370817492384e+00,1.174109115294066641e-01,-1.003952930504564245e+00
-2.414076351388566799e+00,-5.191307101024586305e-03,4.153681391240593990e-01
-8.644158216631330216e-01,-9.934384927465508830e-02,2.086475286479177738e-01
-8.263520208945528411e-01,1.950450521233628165e-01,3.054414422078716718e-01
3.671833586916816161e-01,1.101732354854235707e-01,1.650278116144967278e-01
-1.811643279913756066e+00,-3.106619867514421318e-01,2.600169084605732928e-01
-3.402285303952918394e+00,-2.988096816028834590e-01,6.884442093453990719e-01
2.821728388014757449e+00,-1.103662441531096799e-02,-6.494666397102993871e-01
8.045464984193025915e-01,-5.180629420920963152e-02,-1.132843145288394970e-01
-2.478451977428399289e+00,-1.749733448125118385e-01,5.453433058580525739e-01
-4.486156402078158578e+00,-2.443923842778460975e-01,9.381293192878422671e-01
4.159056031816691146e+00,3.015361149403157914e-01,-1.024767003299408952e+00
5.710615237011212875e-01,3.052130522569907953e-02,-2.450691408016052453e-01
5.160239150980625578e-01,2.328073515864828927e-02,1.480621529009333581e-01
3.829688098543410746e+00,1.456517693293606641e-01,-7.773952252373379501e-01
4.111824594605058003e+00,1.576606548385769691e-01,-7.862676028978363707e-01
-3.032730233301437650e+00,-9.772060980633037741e-02,7.736786737996407259e-01
-2.440214035055056740e+00,-1.274539701502373223e-01,5.941616435156340525e-01
-9.537616324738457108e-01,1.338381038958628977e-01,2.800121337880972505e-01
3.059334029288331980e+00,1.627243120066872439e-01,-5.029464274192930739e-01
-3.453541277873358517e+00,-1.612125483278166738e-01,7.063365918447751524e-01
-3.049252301581085733e-01,-1.860970784132784731e-02,1.256413835944523438e-01
4.785955848928726830e-01,-8.034402948146096568e-02,-5.270340783610742014e-02
-2.194854206285925091e+00,4.800506732610672345e-02,4.874879770725720762e-01
2.740773780716575736e+00,2.991412589761518331e-02,-6.562357087066229555e-01
4.561712820008062330e+00,3.560754709287206055e-02,-9.046294448694264245e-01
3.005213748571154309e+00,1.435500771854509028e-01,-6.800822653067087886e-01
4.564387950653681969e+00,1.059228599301954288e-01,-8.234019168492840990e-01
-3.047836336052382133e+00,-2.645461830853372831e-01,6.931144193871358050e-01
-9.663443844253669091e-02,-5.917792573840648801e-02,-1.044116248833689385e-02
-2.020123203108418863e+00,-8.992889968445332005e-02,4.581181273981079216e-01
-1.290356305967880424e+00,-9.684356648730195471e-02,1.514781962106170887e-01
-2.510637433829119747e+00,-1.827091717345442345e-01,4.388300201008803469e-01
1.305341280802257087e+00,-5.235918003647160868e-02,-3.087865268031219634e-01
-3.625316076886786032e+00,-8.327460495410575481e-02,9.610685223286365986e-01
4.037338840505799720e-02,3.555476703865312511e-03,-1.326921525915939759e-01
-4.146098238352430521e+00,-1.281121252161541157e-01,1.131545812324625144e+00
-4.705718641994885765e+00,-3.501064839991549493e-01,1.016747174507366624e+00
-2.088218462817616139e+00,-1.264078824014311375e-01,5.021616218126669917e-01
3.730203034459206091e+00,1.450694062185644284e-01,-9.159352040063502010e-01
-2.417415601225245680e+00,-1.881020966635902070e-01,5.322508735429740678e-01
-2.858556146379672036e+00,-6.043623053916646198e-02,5.931950194452684233e-01
2.709403375893225885e+00,-2.472218982532743692e-02,-8.538593288000793091e-01
-6.586706362702480222e-01,1.309652358617735199e-02,1.128952211147116053e-01
3.315352843543684536e+00,-8.030037478103629889e-02,-9.356451344507460410e-01
-6.562550632447212116e-03,-1.968378608704083044e-01,-6.694960343278542891e-02
2.359987158086866987e+00,-2.360800138627277764e-02,-5.627230118530175407e-01
-4.420149052068178541e+00,-5.440522402528925189e-02,9.951390400723248986e-01
-6.500223422250406280e-01,4.731773849265997339e-02,8.120223315649914564e-02
4.783685504734521032e+00,7.421650444012793668e-02,-1.031239880153505872e+00
-4.866679522842628280e+00,-5.763550244894209001e-02,9.378859653878921510e-01
3.364128483591445562e+00,1.703342926315119799e-01,-7.619414968971313096e-01
1.471925450890998910e+00,2.003613211222215196e-01,-3.254844341438594135e-01
2.768836377204041188e+00,1.000076374134660773e-01,-7.371218177464802235e-01
1.767060114737411258e-01,-5.005247790735082442e-02,5.379122016803417061e-02
-2.312449056967810890e+00,-2.621865908954610063e-03,4.386017100729168172e-01
3.949809169911136397e+00,-3.622930973767814894e-02,-8.754921234669356123e-01
-3.550190019760185223e+00,-8.275993157773138889e-03,5.761492176031729473e-01
3.622422416339216245e+00,1.562712021004014074e-01,-6.370585047486326813e-01
2.061590209084129474e-02,-3.976567994006087459e-02,-8.798736746112396923e-02
-2.287613193803395450e+00,-4.893958306599083957e-02,5.375918300588117260e-01
3.309827837336185130e+00,-6.368791843877288916e-02,-7.274633876649750919e-01
4.066324620796448741e+00,4.580798762140029547e-03,-8.519712082178180212e-01
2.693112763416189548e+00,6.457776806075093967e-02,-3.947105264033277106e-01
7.593792500897091902e-01,-8.102935714420238245e-02,1.111914712734365061e-02
2.961235584044703995e+00,3.658767423263053348e-02,-6.269142230565042384e-01
-3.527223133015828349e+00,-1.620974770157868894e-01,7.983014774017905824e-01
2.810032799583324081e+00,7.129005545873744187e-02,-6.919361281142920594e-01
-2.860677789840473384e+00,-2.173139838910077282e-01,4.887134812531030992e-01
-3.040088548529580770e+00,1.132941356577892543e-02,5.343124607223915801e-01
1.739892640292991066e+00,3.027175444569302903e-02,-3.979795637788375862e-01
8.456028804294958567e-02,1.128185407230866272e-01,2.200345524426087218e-01
4.492198906432289363e+00,1.482499452321605626e-01,-1.057371818887240300e+00
2.779346696891695778e+00,-6.491337731333009231e-02,-5.767335233219808011e-01
2.302235056627140342e+00,-2.699471384790078435e-02,-4.610914615981909215e-01
1.663290301606719090e+00,-6.647649376989901715e-02,-5.051136574097816467e-01
-3.929368564306502609e+00,-1.021389181366587767e-01,8.095615122012780329e-01
4.493062913682882353e+00,-3.509457860551186414e-02,-9.683136322605795376e-01
-5.826267765995142289e-01,1.494583491479829218e-01,2.069275190354870064e-01
-2.631363626146114854e+00,-6.314219443323423886e-02,5.909540757132696331e-01
7.784287276859046256e-02,-5.793946072998746276e-03,-7.624675602622406866e-03
3.279936814139151391e+00,1.681346299726295956e-01,-7.840026284674809220e-01
-4.454402000709777099e+00,-2.117592963222664770e-01,9.705837407681954243e-01
-3.783029922841849579e+00,-2.126440573622865593e-01,9.250935203104855287e-01
-3.531211295118524607e+00,-2.443984454570889697e-02,9.059023313292443591e-01
1.118488428856185379e+00,-1.524719041395790342e-01,-1.224807132066877136e-01
2.562156394612139731e+00,1.622159380906633974e-01,-6.248208972908534387e-01
3.358806999172150309e+00,1.902884760377572537e-01,-7.034306644537356989e-01
1.389199831717270905e+00,-2.082941763540282695e-03,-3.680955965265543250e-01
-2.722475327526136191e+00,-1.608472745498569223e-01,6.739466226213396416e-01
-3.067288024944202718e+00,-3.894116836941440007e-02,5.866623158616792733e-01
3.067447306741461599e+00,6.628836902595357239e-02,-6.635817574185077783e-01
-2.792617561994190645e+00,-8.195383742177152209e-02,6.735519389910941124e-01
8.517995801357381991e-01,6.574003352478646756e-02,-3.080626020129984544e-01
7.080246989945911951e-01,-1.181657865930798787e-02,7.349520897181448242e-02
4.663851360896171805e+00,1.149111777744446367e-01,-1.198622537913408337e+00
4.768543326093214851e+00,-1.698186708985193610e-02,-1.156432899217024968e+00
-3.644117299874049198e+00,-1.398578979896821228e-01,7.413709779499531027e-01
-3.000183118564338614e+00,-7.079581091765829726e-02,5.791694430044364017e-01
1.273283869778652821e+00,2.170827323479304904e-01,-3.274578569290274022e-01
-1.898271886056183799e+00,-1.069473698475424395e-01,5.491298710636657310e-01
9.046675620360448145e-01,-1.113507699281132968e-01,-1.877815153711007712e-01
6.499850067082536542e-01,-1.003578018313630998e-01,-1.460982931372984406e-01
1.993447772472883406e+00,2.565849898509442797e-02,-6.319935677739249025e-01
6.389980362191720609e-01,-3.609058412332834254e-02,-1.934204060271409731e-01
-4.434083736137089282e+00,4.614307361583379341e-02,1.046643027153763672e+00
-3.921953528863713512e+00,-1.357335222394907281e-01,9.320218959381658674e-01
-4.572973853741109096e+00,-1.263072737325538764e-01,1.016465172412271523e+00
2.039801557288004830e+00,-6.036857287240814107e-02,-4.712790868142200940e-01
-7.686112176632563520e-01,-1.241471079731008842e-01,1.013183186341512915e-01
4.469174303847537111e+00,9.673811682196320483e-02,-1.046569523596672546e+00
-4.668357694203569608e+00,-1.313425591380536772e-01,1.215418377451690679e+00
-6.441079166764669406e-01,-6.310740135350430269e-02,9.652436847837962686e-02
3.953606552373997385e+00,2.047004798102955436e-01,-8.425156333866771208e-01
3.819685623032100796e+00,1.982109875477544858e-01,-9.411859118231687971e-01
1.188051808209820814e+00,7.223196357992091310e-02,-2.416209495775500926e-01
3.879956783783922170e+00,1.171290986059925626e-01,-8.564741185410043034e-01
3.398773319497543355e+00,1.403965705750861992e-01,-7.472170416217742694e-01
-1.227016374935173265e-01,-5.633373254453589996e-02,1.197282057725879319e-02
1.090023136660465353e+00,-1.094652899901813886e-01,-6.581844560265005806e-02
1.914591254730791947e+00,-5.315283175277672224e-03,-3.115637676060143968e-01
1.731199366529095895e-01,5.762336992859927454e-02,5.672930599648252220e-02
-2.132358832822610850e+00,1.730915251884272308e-03,6.158887864078441687e-01
3.500175262995052439e+00,1.305638194375755567e-01,-8.421930339957638401e-01
-3.495871151667418797e+00,-5.087393718989288716e-02,8.526121865409520550e-01
-2.922058361104976631e-01,-2.185785203690130407e-01,7.652200861230951112e-02
2.714943836897471652e+00,1.444784330701843755e-01,-6.814115712418484794e-01
-2.383183033385699368e+00,7.720117025229245034e-02,5.140302501867540785e-01
-3.707972936818319631e+00,-1.194518303274775678e-01,1.074936279740457579e+00
-4.379140673232018166e+00,-6.586066115702507440e-02,1.126851599811861782e+00
-3.813814037472943230e+00,-1.428012079814796609e-01,8.338367898068784756e-01
3.030221204364380139e+00,-1.714879585247571642e-02,-6.030583376838545284e-01
-1.389182195077394821e+00,-5.064912818014462997e-02,6.127304271538525082e-02
-1.238477293912306543e+00,-7.195663236349056358e-02,1.299319044619236807e-01
4.655102431967809706e-01,2.352089370393382339e-01,-2.125903873719846016e-01
4.562272160747460781e+00,2.127121638138790016e-01,-1.013970425811974829e+00
-5.193095897391553084e-01,7.336963822799356591e-03,8.873897352741412503e-02
-1.339686676021035305e+00,4.288449042052488308e-02,2.034808760455349419e-01
-1.740103752594431619e+00,-4.792197368990466777e-02,3.541819369862925782e-01
-3.507438837448404900e+00,-9.992119861750148324e-02,9.552910755409375065e-01
-8.023448942605140299e-01,-3.801074613825971421e-02,3.862557810496861643e-01
-1.453474371002634546e+00,-1.498968011739117145e-01,4.152319936461872918e-01
-5.308692734826119669e-02,1.286689885258991972e-01,5.752786037754282350e-02
2.063729273496487160e+00,1.281606926154699733e-01,-5.878002440857773570e-01
1.041514498786471510e+00,2.084711462365306314e-02,-1.028123089085757474e-01
1.206808433932368141e+00,-1.134099294794044081e-02,-2.287191331124889260e-01
8.372353376995360641e-01,7.759689945994606604e-03,-2.418676266905508410e-01
1.692725237889728118e-01,5.372287337675699798e-02,-1.806693347080371159e-01
-1.580884126524678912e+00,-3.686833579520526483e-02,2.702791812352647316e-01
-4.131079195759504330e+00,-2.268303820005497240e-01,8.935058574467580339e-01
2.020007390799843705e+00,1.072794620371859131e-01,-4.797723211133308463e-01
3.571042656703117046e+00,4.736013347414727570e-02,-8.748007530560932832e-01
-4.673751138501334168e+00,-1.261249179547993260e-01,1.202524790147449396e+00
-4.412367489780678831e+00,-1.249376275550356519e-01,9.942083764655864631e-01
1.154680751702733099e+00,2.149393935338436701e-02,-4.366166010020264276e-01
-2.089483136646299588e+00,-1.753714137002012063e-01,5.675069739980405092e-01
-3.660156316005351407e+00,-1.948757170535862782e-01,8.126229713072923300e-01
-4.690723952732157365e+00,-1.008313076601865671e-01,1.175226696675303772e+00
2.040691921083025995e-01,6.107188279888362426e-04,4.912005405038841199e-02
-3.821485149438783591e+00,-6.947935832986763816e-02,8.661588502372767895e-01
-3.302918991219563893e-01,-1.949484178918113597e-01,1.756109977908727054e-02
-4.333165508458885817e+00,-1.448330374852342672e-01,1.039656148451020945e+00
5.433861144962491840e-01,-4.094175970524911029e-02,2.566341652544375240e-02
1.576894844199707713e-01,-1.408849637930373599e-01,7.615232692463413944e-02
3.382804749322437576e+00,1.859888518932476531e-01,-1.008555540190326782e+00
-3.391688429598743060e+00,-1.953037510020404210e-01,7.987722071676328639e-01
4.113719840238115211e+00,-2.335970208066005804e-02,-8.551517860548590866e-01
-1.375984697402571122e+00,-2.081307092702532613e-01,3.793368402120227967e-01
4.255782200102052215e+00,2.617862980327000377e-01,-1.043164639074158240e+00
-3.937924512980420566e+00,2.157268315319175664e-02,1.061615183937768769e+00
1.850395689689137146e-01,2.711613143897686692e-02,2.380893364753330563e-02
-3.898799585506334431e+00,-2.542236792268966483e-01,9.532299067632381551e-01
2.013901922968962310e+00,1.418249030108666153e-02,-3.504181564240452795e-01
-2.797436199271614576e+00,-1.023649944404457224e-01,7.926036787999688471e-01
4.347316650833721319e-01,1.549630151297354957e-02,-1.843692035743101643e-01
-4.640494344441620456e+00,-1.348154953932586830e-01,1.180464659721736753e+00
2.624433567269163436e+00,2.532843913022569393e-01,-6.428108294963438274e-01
-2.935070524957054339e+00,-3.217348088993954303e-02,7.565923511397479873e-01
-1.731255120883908649e+00,3.311252735580316742e-02,5.652568446178262151e-01
-1.488415156920295468e+00,-1.124714190126993862e-01,2.511601007403923003e-01
-4.188476714046545091e+00,-1.043552828313645681e-01,9.996131950925168930e-01
-3.420008397485545082e+00,-1.069203955679891849e-01,7.576992954946912828e-01
-1.517339356700396547e+00,-1.395967194382489451e-01,4.027624363562030130e-01
2.480197306546457536e+00,1.124730601733198720e-01,-7.073961814009622762e-01
-3.354118627635301664e+00,-1.042320129329097206e-01,7.973447669546911420e-01
-1.618389168834942216e-01,5.159124584185136031e-02,2.841672369098864337e-01
3.587196745472446824e-01,1.669925445653623261e-02,-2.356189573841378088e-02
2.224239836236340473e+00,2.680659664982829385e-02,-3.668782403966164840e-01
2.897602336345913798e+00,-1.592213636790063350e-02,-5.496162100107820914e-01
3.767276554765456531e+00,9.181453479564251341e-02,-7.461440861762914656e-01
3.572165269106823082e+00,4.867578452941263845e-02,-7.057135003934945638e-01
3.938669256381336137e+00,3.006778940101308417e-01,-9.090270370320848725e-01
1.281484918579064880e+00,2.792925213901028061e-02,-3.292111062356545270e-01
1.914270598352877162e+00,-2.532739956074450335e-02,-2.876082301501728944e-01
-3.181635884249873758e+00,-6.883600891585804626e-02,7.306621373141934939e-01
-4.231036052624453703e+00,-1.261801305652269362e-02,9.624652390015994152e-01
6.606917259735564096e-01,1.785758780056534087e-02,-1.246548109815591443e-01
-4.458241895507426555e+00,-1.971567198181115865e-01,9.807293054982404445e-01
2.456063628303584156e+00,6.006585676733793705e-02,-7.188715724923802064e-01
9.493222262693344904e-01,4.633725347732341876e-02,-2.126321596738024733e-01
3.759267523728647031e+00,2.377307760540328385e-01,-8.646891648599442926e-01
4.089468070827306789e+00,1.655831974260554285e-01,-7.301539196864830217e-01
1.003732563617597329e+00,4.732104216405576963e-02,-1.862486878361460374e-01
2.352481172049289082e+00,2.691614511496775441e-01,-5.279744383953415277e-01
-3.278107573132948982e+00,-2.138382611087285001e-01,9.003334388278886324e-01
4.757467872819415078e+00,1.211238526414400579e-01,-1.117016271625429491e+00
4.204214912042873564e+00,2.076689357684083082e-01,-9.400285447379590487e-01
3.856499239254524092e+00,1.149362511501306472e-01,-7.823419554286883404e-01
2.230005592019037142e+00,6.331916746349323423e-03,-8.001262654614111902e-01
-2.379428278447971667e+00,7.543780942413667867e-02,5.117302134118032475e-01
-4.260488265947561359e+00,-2.464116496049098826e-01,8.853502879673965653e-01
-3.825234773587694814e+00,-8.675068627082668793e-02,9.145142077034509320e-01
4.650494925295519111e-01,-9.322049789763886540e-02,-7.625596205555427998e-02
2.551000600389387252e+00,2.483863206844307281e-01,-6.580250542692116511e-01
-3.207175696359449102e+00,-1.824805825441415674e-01,7.440991908155126788e-01
2.744386637348167568e+00,2.499551198681339292e-02,-6.964897191575628588e-01
-4.627286515708145309e+00,-2.372475730939202845e-02,1.103716096330568774e+00
4.480945004967722411e+00,2.664571744327558500e-01,-1.186521380469707676e+00
-7.879100997884764812e-01,1.289515340862651058e-02,2.074573693677356223e-01
-4.459880490307230327e-01,-9.767316995252807443e-02,2.583926416638560597e-01
5.055914580926628155e-01,6.028724796830917110e-02,-9.707847881829412273e-02
2.417197054910123377e+00,1.757038067396418657e-02,-7.083032376992990375e-01
1.140955423404882429e+00,-9.231901253801648444e-02,-1.996709988918310974e-01
-1.509581327403964890e+00,-1.329780040641654303e-02,3.035110074478612474e-01
8.328363652567909448e-01,1.706403307729926766e-01,-1.305140293486702074e-01
4.028929117184706921e-01,1.588067359686752555e-01,-1.666143059272008065e-01
-1.760302980791730310e+00,6.046467339801638724e-02,3.766991953306997876e-01
1.758192738187953630e+00,7.286587147404932630e-02,-3.271347552362214306e-01
-8.424760780575416552e-01,1.260952783863853767e-02,1.876928987406054627e-01
1.193091344933743470e+00,-1.913680585632774322e-01,-1.910170222596485334e-01
-9.250704141008190273e-01,-2.293113977945378593e-02,-2.992986612920050041e-02
3.539417103826614230e+00,9.785535069335905833e-02,-1.050278280977858580e+00
1.948869956552165217e+00,-5.512217945129796286e-03,-5.860511039597922078e-01
4.141209979631351068e+00,4.322637934223706041e-02,-1.103548307775756854e+00
-4.367993507370406259e-01,-1.068295968711542587e-01,1.741697678664642090e-01
-1.512788185742357738e+00,-3.427502264028021300e-02,2.817577605705018917e-01
2.216679726667184269e+00,8.491700360622329857e-02,-5.011485549554584029e-01
7.030155100420140135e-01,2.422812944420479203e-02,-1.701268579124344260e-01
4.376905555417056171e+00,1.860987509666885142e-01,-1.115914785665596431e+00
-1.263361276969917624e+00,-2.302119947587356929e-04,1.497208301244923045e-01
-3.174141666889034319e+00,-1.218305598090336540e-02,6.702575176827326731e-01
6.148994516758534701e-01,-8.333098354037773992e-02,-6.643151019622529907e-02
3.678426613700287451e+00,2.451458163706217441e-01,-7.504029506129500371e-01
-4.683466597066247017e-01,2.121292077095419948e-02,-5.652215434663289406e-02
-4.663267492600807529e+00,-8.886869744232590851e-02,1.188099287680440597e+00
-2.033864189364123221e-01,7.481339649544867243e-02,-1.073838026291920461e-01
1.623173567366269054e+00,5.915803818681859144e-02,-4.905579778950647230e-01
4.040211179110873907e+00,1.899483420563934377e-01,-8.081520659085688063e-01
-2.585745927157173440e+00,-1.166836869099995427e-01,4.593483199606225309e-01
-2.638897730856903379e-01,4.609079265489923055e-02,1.906814889156932813e-01
1.821529531063175167e+00,-2.616448434758178107e-02,-3.644062515185356732e-01
-2.197064926636342008e+00,8.396326457395561493e-03,5.012021103297294999e-01
-1.980772757174927179e+00,-1.160836487363741121e-01,4.034790761213902233e-01
2.844984173289994089e+00,1.270347807363654026e-02,-6.518519024621299840e-01
5.249100694650433718e-01,-7.035597020788197931e-02,-1.472837473374677963e-01
2.341245972289133226e-01,-5.078039057437389731e-02,4.504748074781498440e-02
4.680174470415236598e+00,2.619383539299571795e-01,-1.043673127871550976e+00
1.906978829662455688e+00,-1.343664173141731477e-03,-3.295213942194133439e-01
-4.598983416623743992e+00,-2.024235886406403340e-01,1.062523638364169409e+00
4.328445836917155454e+00,3.017867496226105395e-01,-1.078859518904457415e+00
3.045996084668796122e-01,-5.053861842647391911e-02,8.746447552559154237e-02
-3.169313412376756123e+00,-8.089137216255720686e-02,7.471822953575529835e-01
2.281017118180291181e+00,1.004342279421085449e-01,-3.488499944452873591e-01
-7.341183903411976353e-01,1.074963351678056706e-01,1.596202441114397685e-01
-5.357458902246710064e-01,-5.986379978262516138e-02,6.429507043691082280e-02
3.129972865443902741e+00,-4.274620049478752154e-02,-6.347984866992972819e-01
-1.825225631786312031e+00,-6.032326495397392213e-02,3.355942650464358579e-01
-1.777212422183307883e+00,-2.505690384012770888e-01,4.030927344756005670e-01
-2.029843486193681379e+00,-1.464245108073122248e-01,5.598525445522524180e-01
-1.466449027392858317e+00,1.116374073211042900e-01,3.689095949016518716e-01
2.425954723951396774e-01,3.484811413686740578e-02,-1.818443592693483601e-01
-4.569455541145228672e+00,-2.414794537271556518e-01,9.516382067652692234e-01
1.681551766387778146e+00,-5.024383303503109077e-02,-1.581977440418616265e-01
5.817183941975998529e-01,-1.091905501141094692e-01,1.684921273108107558e-03
-1.398262863138557618e-02,-3.271721999820886156e-02,7.509272193415471308e-02
-1.741350877593446977e+00,6.605171857633491961e-02,3.721966467342785467e-01
-3.384110712236177321e+00,-9.820174734422405793e-02,7.529298261037743467e-01
2.365276133259879288e+00,1.586125094051090909e-02,-5.400663399042985313e-01
2.588652114970316109e+00,1.520243279866745900e-01,-7.322212154969722775e-01
1.496708170936191129e+00,-1.392559268334570277e-01,-2.686659074247821910e-01
-3.317009510328805089e+00,-3.726367211905643601e-02,9.181573669778940738e-01
1.403414683617726089e-01,-9.045944949178669203e-02,2.182009708861989139e-01
4.455853330422046454e+00,1.855074841069915825e-01,-9.496786880148174737e-01
4.437187823991874502e+00,1.624547041933707414e-01,-9.305222072307959280e-01
1.928053648730677416e+00,-6.435245518676203577e-03,-3.941306153362162390e-01
2.178474981262892296e+00,1.681092931450617611e-01,-6.873727409631953389e-01
-8.277327040658817303e-01,-3.287085216767979268e-02,1.848691259077248628e-01
-1.988948928568602392e-01,5.650321583466555442e-02,7.615093444808458678e-02
1.309700267070477153e+00,1.854593329249516406e-02,-2.141855696574491430e-01
-4.313615651877069190e+00,-1.704224282161878878e-01,9.467054457626327135e-01
-6.223435328317000748e-01,-5.708077204247611475e-02,2.609998718116288696e-01
2.659787610199037200e+00,1.971251139359108187e-02,-5.940971755041341007e-01
-4.109079883541367550e+00,-6.914563837877392427e-02,8.938670548770708546e-01
3.250921963437632733e+00,2.613861218223672567e-01,-7.312240007331038960e-01
1.486398025133615297e+00,5.866583098885260611e-02,-3.306939110454766850e-01
-4.726786781126202541e+00,-1.555072306843940377e-01,1.073152387602505531e+00
-1.935335022049203824e+00,-5.664058442657961268e-02,5.134254297189230209e-01
3.099606543745323961e+00,9.168962945243383511e-02,-6.292068456326559422e-01
-3.397720963269949213e+00,-1.634970682794232577e-01,7.838049055117168873e-01
-1.816700894323537430e+00,-4.828752226131489966e-02,4.285460941689869796e-01
3.744136094792645864e+00,1.465688250445193463e-01,-9.249160652910395353e-01
2.973459693162884498e+00,1.166452945955807063e-01,-7.375486602862432184e-01
-1.547440503041480397e+00,-2.215023938780868173e-01,2.794390683589494939e-01
-2.094776865936232024e+00,-9.549451628813418469e-02,7.715242928290000357e-01
-2.923024366962734266e+00,-8.710475349754420726e-02,6.812159529020607174e-01
-9.997040358797065762e-01,-1.999344688034655759e-01,3.467352478271752969e-01
-6.298143732731403821e-02,-1.136144345346799672e-01,-7.799142472014951311e-02
-7.475210803260391446e-01,7.202141950406656945e-02,1.912922736955416647e-01
-4.516623775980429301e+00,1.260866772937579983e-01,8.715365859306481999e-01
-3.349993340341137937e+00,-2.571950938092758543e-01,6.077765999899611415e-01
1.693665544958080860e+00,6.812334906884719155e-02,-4.238790558670219588e-01
3.089116675867422224e+00,1.508430501420229830e-01,-7.332626494701678377e-01
-6.421834276981046585e-01,-4.466599502990351717e-02,3.898642151789859928e-02
-1.214391159854769420e+00,6.761636280642525920e-02,3.422781985039683450e-01
2.388853100535884177e+00,-8.729055988532169463e-02,-6.709446473770558361e-01
-3.366495485246200348e-01,6.703395497581594864e-02,1.360661276850053669e-01
-8.893185942088398521e-01,-1.156215049759771879e-01,3.057965334854895190e-01
1.091435283142978774e+00,-2.350877415892641421e-03,-2.514787312624529036e-01
-2.404936841135785208e+00,1.505487841149605148e-02,5.633375843067249811e-01
-3.901816658504008384e+00,-1.205832119554521159e-01,9.638170017052635208e-01
4.118439759893098184e+00,1.950960615054114777e-01,-9.466513044733255722e-01
3.352820428313395329e+00,2.432719382051596602e-01,-6.960670925892764593e-01
-2.539755304511383649e+00,-1.897240947218200580e-01,6.493845820974041283e-01
-1.865079944120777933e+00,-1.485600133840219716e-01,3.789257714121934684e-01
4.626894366972543970e+00,3.549549220781845760e-01,-1.008454779765788345e+00
1.471415401844363258e+00,-1.057840062042028767e-01,-1.444279701688962747e-01
4.325624750956248654e+00,8.858134360899352910e-02,-9.253468420799380034e-01
-2.294797353079781888e-01,-4.209429948307438080e-02,2.714055873703068444e-01
-3.965884706304076524e+00,7.131161297751963113e-02,8.773114654862759210e-01
-1.264862974744325852e+00,7.882345235252194438e-02,3.440444272138097337e-01
-8.393546746927709190e-01,-1.774213764650394431e-01,2.111431570828304627e-01
1.000758595190113898e+00,1.731921150851075120e-01,-1.341633025463099815e-01
-2.553106531752863173e+00,-1.528396260168492227e-01,5.690411037401862382e-01
3.018097479279855833e+00,6.227293596607391679e-02,-6.130748181173210076e-01
2.235285833739376393e+00,-5.042901535184867584e-02,-5.969117942479343908e-01
2.910348354530513326e+00,2.192295205345579645e-01,-5.739676604676828831e-01
-4.182910034019780149e-02,6.283306632111802792e-02,-6.242496775982162016e-02
2.396825963744121157e+00,8.942453227543480099e-02,-5.201956171689028352e-01
1.870670486591593296e+00,-3.000336118661422330e-02,-5.143811000769806796e-01
1.225233451571871163e-01,-1.104521950549191417e-01,-3.602809788351698378e-02
-2.527028614027851727e+00,-6.012000064092653390e-02,6.033916931374372350e-01
-4.086106516646873743e+00,-1.758423641951855076e-01,9.941150952775842375e-01
-9.392008053622125097e-01,2.248211073005450603e-02,1.528535086619137173e-01
1.858084293186582858e+00,-3.876543771019590884e-02,-3.917290831900737680e-01
-2.297124272243908027e+00,-8.647277813225290322e-02,5.031872525765407334e-01
-4.007264473744682753e+00,-1.413065328091099304e-01,1.000760104915594528e+00
1.149574743107009356e+00,2.224416199233096303e-01,-2.263835480569331982e-01
2.452286510686811916e+00,1.219806255878127937e-01,-6.208144217040516555e-01
-1.152933506577789924e+00,1.746434359354377339e-02,1.369088805628942453e-02
3.028925444953127211e-01,6.853824133970813637e-02,-1.037754351841740745e-02
2.088763277824871700e+00,-2.536168180678303324e-02,-7.459528097721777051e-01
4.009365920906282632e-02,-2.015603566052333873e-01,-2.127105042093232340e-02
-5.083647806356602628e-01,3.044089404651517325e-02,7.130611107307971430e-02
1.992950127703874835e-02,3.303623088535118796e-02,3.706633883306472560e-02
2.886120412267076052e+00,9.533463211980716667e-02,-6.972921798926572379e-01
-8.296644537080528625e-01,-9.797791638185783525e-02,1.459698685196743166e-02
2.361599132572378856e+00,1.102122336686374958e-02,-5.976123682876498533e-01
-1.256356159821288232e+00,-2.312089768200149831e-02,2.146585938553473571e-01
-2.934319057715209400e+00,-1.304219584672635657e-01,8.342776235069723212e-01
2.539284808180792830e+00,1.493257955261778069e-01,-5.768051859165669315e-01
2.913708622242983104e+00,4.259715856432818443e-02,-5.993411058124064050e-01
-2.612456252844826743e+00,1.869395759746091817e-02,6.802555755784569502e-01
3.410190529968153861e+00,2.250255982292553303e-01,-7.312269761209060359e-01
-2.572920227441095609e+00,-2.713915722035032951e-01,6.031192382507269967e-01
2.113221393140537252e+00,1.273824077131286703e-01,-5.597978792846584062e-01
4.064631786036203565e+00,9.264672591708521254e-02,-9.657850833370560384e-01
4.270563260194996325e+00,2.267370693497018919e-01,-9.384483179927929353e-01
7.926512987157603440e-01,5.532009057414318670e-02,-2.931750493560886239e-01
-9.655301911861329245e-01,-8.747188745985821912e-02,1.873701657642183049e-01
2.158531820196762485e+00,6.385419490379758145e-02,-5.897287120278285055e-01
4.548564431316918899e+00,1.363184040595733504e-01,-1.122883576671964478e+00
3.645110047969434053e+00,2.805530906419593240e-01,-9.437618580022852921e-01
2.923393197639369626e-02,-8.480420605245282684e-02,-7.353597569182544758e-02
2.130775569959660665e+00,9.433408834108993057e-02,-4.203107363507781469e-01
2.347883755867997913e+00,-9.121848370250779103e-02,-5.304742220964768773e-01
-2.133466579664245799e+00,-1.981070371204638469e-01,5.969773514457107355e-01
-2.960954944564298863e+00,-4.867976484578582369e-02,6.332252046668412904e-01
-4.449960764041219541e+00,-2.226591757317153697e-01,1.044065081198743972e+00
7.020261265425742359e-01,3.743089066142776811e-02,-1.342072237393538148e-01
1.775098031808287624e+00,4.595215663190409250e-02,-4.142974203930616106e-01
1.123665017420758305e+00,-4.988937872797267331e-02,-4.081191385864547105e-01
-3.886714713904534158e+00,-6.610573659013962988e-02,8.590991683642357213e-01
2.330361265770020951e-01,5.681974486155182309e-03,-1.227125467952459026e-01
3.738970665907751290e+00,2.389555535377654583e-01,-6.869120276716206286e-01
-6.843409065454040263e-01,-9.829733089915738964e-02,2.281642386316562743e-01
1.631437604034241984e+00,-9.297434643904538276e-02,-3.947079641203068423e-01
1.295142970961883133e+00,1.716725906644173683e-01,-2.465950169466655517e-01
4.032847474862140125e+00,1.979869791861405826e-01,-1.038355149727212323e+00
-4.626363679199566370e+00,-1.119518963719731419e-01,1.119368581071918500e+00
-1.259513695697005442e+00,-1.909644662705313745e-01,3.765466998510902386e-01
-4.333070395834339728e+00,-4.326861863798717872e-02,1.110982624713320543e+00
1.582016236831329969e+00,2.178624290750456605e-01,-4.800865514777069576e-01
3.843467683678189140e+00,3.332609131108487110e-01,-8.131486181145248793e-01
-5.560583765726790917e-01,-9.160168495913206810e-02,1.603016396354083606e-01
-1.091259316441347993e+00,1.522294047940099537e-01,2.735385622335677058e-01
-3.014134366194317405e+00,-5.535498219208716264e-02,6.120850703694719064e-01
2.238548916711908740e-02,1.447747358005216367e-01,-1.566564426572985558e-01
-3.105009086812806629e+00,-1.715818450429235642e-01,7.463797622697374567e-01
-7.974392013194894213e-01,-2.468643761766074404e-02,7.683284494340476833e-02
4.217040211111518389e+00,2.315208171471179743e-01,-8.550193344238954385e-01
-9.965869743887133536e-01,9.825800384727979842e-02,1.498819389898873589e-01
4.640013253728077380e+00,2.311190357181117649e-01,-1.290664380947592393e+00
-2.295960731314065750e+00,-1.238158422829022109e-01,5.047211642388226283e-01
2.728371534505116269e+00,3.600811607620146848e-02,-5.824383416611708109e-01
2.585829970900692665e+00,4.879727995556898401e-02,-6.662520772787204892e-01
-6.786255122498464909e-02,2.297376442624133458e-02,1.619472977962425550e-02
-9.918904749531728404e-01,-1.059741701429007914e-02,2.463232223883780880e-01
-4.283149815209168487e+00,-2.984669281604988011e-01,1.042367572701593970e+00
2.674524059756757666e-01,-3.094966456057875875e-02,-1.386847730638249565e-01
4.495310547724927552e+00,1.397963669767403327e-01,-9.360749306785705048e-01
-1.547400856959939008e-01,-1.455663255469329120e-01,7.316528599629627816e-02
8.045299744931301289e-01,-7.514190580767794725e-02,-2.705501401455069899e-01
-3.514814958020239910e+00,-3.080730600631015337e-02,9.973524746002764285e-01
-3.999481011186055701e-01,-4.372505871526256860e-02,-1.817920255255662393e-02
2.213475984126304752e+00,8.038624441592939762e-02,-5.274729577586018126e-01
-4.117360255704920036e+00,-1.747265069467228427e-02,8.640129874814032052e-01
4.235226041341753955e+00,2.551141524862045595e-01,-1.025061783260895920e+00
4.324637350631283184e+00,2.215653979639707061e-01,-8.434545605457739459e-01
-3.814658553566582455e+00,-1.581460080897178766e-01,7.912985011162594340e-01
-2.431698966514464377e+00,-6.045123306458346363e-02,5.364514601749549305e-01
-9.497656970600716342e-01,-9.468592703576050873e-02,9.705805750234901275e-02
3.305545046709390089e+00,1.551900832540193953e-01,-7.330211605706737910e-01
-2.059669987689968007e+00,-2.141658050214177017e-02,4.034204846307760661e-01
4.561217292150115732e+00,2.643182915693514379e-01,-1.026467695434934990e+00
-4.247741450496898885e+00,-1.085342598120721813e-01,9.300479425075315332e-01
-4.402286677052391073e-01,6.385860413428666449e-03,-3.494486323228310209e-02
4.396027637629214557e-01,1.329103050975243561e-01,-1.548889345594692546e-01
2.063341574867008976e+00,1.445975175067102658e-01,-5.021216588116618196e-01
4.140001690576333715e+00,-6.446244753534452476e-02,-1.029773336285874752e+00
-2.943954872827176494e+00,-1.219910437428978478e-01,6.763040648161899870e-01
4.403722978759700091e+00,2.618201332161107509e-01,-9.507353537779227315e-01
2.842951728388859678e+00,8.435130218122245671e-02,-7.340326051334935542e-01
2.303362157411657840e+00,-5.099369383579384352e-02,-6.106149383436988431e-01
-2.590558730652082531e+00,-7.561021103844665914e-02,6.141276873778408474e-01
3.595100208926961027e+00,9.743966562205577664e-02,-8.503186416073857945e-01
4.104703387128927794e+00,1.180159688584050820e-01,-8.404280810709690019e-01
2.339479558635020329e+00,1.085410389537521392e-01,-4.415811532937723438e-01
-7.679746288981682545e-01,1.228502651922894762e-01,7.836412594855507452e-02
-2.741418940682689431e+00,-1.093134685841593012e-02,7.367540720419967215e-01
3.615936243782152726e+00,2.119814734046395754e-01,-9.203158284533323741e-01
3.944230273231798201e+00,1.607420831472308187e-01,-8.010439790986219055e-01
1.972143118896115377e+00,-3.945439413266209339e-02,-4.316518426328101454e-01
-1.260939269172920651e+00,-2.165169086625125250e-02,2.301761124996811181e-01
-3.042622812871125682e+00,-4.103780207602435864e-02,7.196332365831590305e-01
-4.732712768634169898e+00,-2.258325651408927826e-01,1.185525159276229035e+00
7.097819341479830735e-01,-1.595332023384467557e-01,-1.026952000143688676e-01
-3.517500491544866659e+00,-1.530984192604976646e-01,9.797194217608997668e-01
-2.291326178101456446e+00,-6.997179930312207030e-02,5.770666625561966523e-01
1.907146887331393037e+00,2.044412522925291020e-01,-4.651831356819067231e-01
-1.408062573348042079e+00,-1.428920653188035794e-01,3.315715394180500097e-01
-3.523803833796322671e+00,-3.135184671108219301e-01,8.896147096458791870e-01
1.013932054911003799e+00,8.158253359412753758e-02,-5.133535677242707929e-02
4.594301309311791037e+00,9.167761854290892853e-02,-1.015180954878712294e+00
-4.800483158815953111e+00,-3.895529728126494867e-02,1.233759180767323604e+00
-2.457991155051094889e+00,-5.951747970499399881e-03,6.003912021801403043e-01
-2.954370456082970442e+00,-1.452558553243056272e-01,6.933853392929919535e-01
-1.959552793759056666e+00,-1.743669694658552677e-02,3.946378698409565011e-01
3.881627118743694371e+00,4.057451271004547388e-02,-8.557143682677709196e-01
2.927332113271966296e+00,-8.191563968134595031e-02,-6.644878029507325090e-01
-3.668256141483599464e+00,-1.483011993699275277e-01,1.105244586959762687e+00
1.841466065471317193e-01,-3.355254676036405030e-03,-1.335203219695402510e-01
3.651663315269750409e+00,2.823268165593286749e-01,-8.546744385941352773e-01
