5.632230078283315677e-01,-8.006352636911473475e-02,3.705987673181676545e-01
1.414702645588988172e+00,-3.961086501365215229e-01,8.972644287437863131e-01
7.661789875984424958e-01,-1.837041286089522441e-01,5.464244370632086456e-01
4.754083962512669626e-01,-1.287677771601919152e-01,3.483690243715975576e-01
-1.052457366914078873e+00,3.160070704685314369e-01,-6.589068839956200296e-01
1.471774096687976652e+00,-3.653842275265862805e-01,1.035122857692135412e+00
-6.548016065652529916e-01,1.544494852067540835e-01,-3.755364433272271318e-01
-8.000016091257610151e-01,2.665621990828070942e-01,-4.417637685222576271e-01
6.570923931668940510e-01,-1.166382448564966257e-01,3.627604016940632614e-01
-6.769774115970454975e-01,3.038561308176073172e-01,-3.825920428266516016e-01
5.382015796822409159e-02,-2.938714503662460259e-02,3.338082375549274866e-02
1.212614826430423953e+00,-3.785385207732869794e-01,9.167857710431944751e-01
1.140552771690038325e+00,-2.981172402703027302e-01,8.129652881467771541e-01
9.761065006657819731e-01,-2.431872152693572153e-01,5.545805647606808497e-01
-9.437605810605285139e-01,2.229945614936459097e-01,-6.056645203050803339e-01
-1.495359266182980429e+00,3.495589948255212187e-01,-9.061150084376570213e-01
3.245076956643229704e-01,-8.812979435068894751e-02,2.097292622029879039e-01
1.446550652578332263e+00,-4.506590825307887904e-01,9.955066332924726868e-01
1.214661735846965573e+00,-3.698786488633241665e-01,7.404903230117847457e-01
3.582049479685143201e-01,-1.058052090506788057e-01,2.228223687559122423e-01
-6.146993451134499242e-01,1.506363042854041989e-01,-3.652336098698991673e-01
-1.209354640468409237e+00,3.380528857849240398e-01,-8.203291038679092484e-01
-1.810848147141630726e-01,-9.811510641869818430e-03,-1.293131424932427720e-01
-4.665943125713704620e-01,1.378395573960523313e-01,-3.262289073095679948e-01
1.031637212684205496e+00,-2.768331457564356390e-01,7.196371003138835043e-01
4.326027036171696261e-01,-1.230867746943948154e-01,2.130082863791473435e-01
-1.434520479656876901e+00,3.842962561014982570e-01,-8.970871432117109023e-01
-6.787732298533911690e-01,2.149252243790742423e-01,-3.899739665691563939e-01
-1.813482894595204731e-01,5.432404070713698491e-02,-1.376339608891040123e-01
-5.851960276014172013e-01,1.615293574198241877e-01,-4.153475027499032857e-01
-1.405514087649041288e+00,4.075939893344489584e-01,-8.933669710524340113e-01
-9.787926384919692913e-01,3.190495826167535354e-01,-6.769325370314457357e-01
6.793372218441500188e-01,-8.809383689123151395e-02,4.071264572024513861e-01
-1.163867417127746107e+00,3.563950612228442005e-01,-7.503359840073619003e-01
2.390560902781268815e-01,-7.431944917261272543e-02,1.162119892899707158e-01
1.380211929685964123e-01,-8.312481856066587793e-02,1.712676640531792249e-01
4.271784552851244920e-01,-1.368672694875708862e-01,3.041743254344288494e-01
3.490842972823949841e-01,-4.176117870118224024e-02,2.012291849699553159e-01
-3.552967677105189903e-01,6.347099075346446240e-02,-2.027978098083662584e-01
-1.458291858005165365e+00,4.215938930691357500e-01,-9.504334327154141393e-01
-1.236505014007251768e+00,3.447584393569146366e-01,-8.143334670991779767e-01
-9.909036409447775640e-01,3.078500178300331847e-01,-6.713289078328500414e-01
5.072835581766074187e-01,-1.398658096004748164e-01,3.402896975484003272e-01
2.423959682359584089e-01,-5.530506351225735612e-02,1.167836606459932564e-01
-6.032936493868892303e-01,1.795804995731447029e-01,-4.590912989023189228e-01
1.476212248007029881e+00,-4.102152704421787588e-01,9.389714240780075993e-01
-5.045099764912319706e-01,1.106598287509734796e-01,-3.693327169079766992e-01
3.764360671012398907e-01,-9.769882463096837832e-02,2.732186601777522594e-01
1.200985353581278448e+00,-3.059059289059677389e-01,7.831617274296017728e-01
1.333133252066943442e+00,-4.099663502082160904e-01,9.030099626000497315e-01
8.507118267532062239e-01,-3.132806835752256491e-01,5.749060993370688211e-01
-1.487315052953458006e+00,3.695104343943772518e-01,-9.274807973968778319e-01
-8.936344255659148250e-02,2.790102870441920832e-02,-8.477426505328793105e-02
-2.555998009130389104e-01,5.012361847780746893e-02,-1.395330533659212835e-01
1.069455005766801525e+00,-3.158381843144785761e-01,6.943032388346465078e-01
1.114245517585988665e+00,-3.156309907984166663e-01,7.480865053067595749e-01
1.483923959071071774e+00,-3.981624558153890048e-01,1.018648187924054094e+00
8.938791010495121814e-01,-1.409001366611831729e-01,3.956090718226015768e-01
-1.157693523473948133e-02,-2.486014376239002992e-03,6.626834877353597608e-04
2.294830386911729803e-01,-5.014408585871853175e-02,6.966992390942036706e-02
1.322144915259062303e+00,-3.837088110171575361e-01,7.837924001497460491e-01
4.143523451635771626e-01,-1.437677400531298388e-01,2.146603197379159389e-01
5.152637926240902777e-01,-1.364902845737610282e-01,3.507724152788568861e-01
9.257277692428558247e-01,-2.141543958873207143e-01,5.226090742681114287e-01
5.144375205201128648e-02,3.234400913811770473e-02,4.763190572629488750e-02
1.305307441912623823e+00,-3.849497328799776352e-01,8.264700213598433765e-01
4.543615967796902910e-01,-1.799606798377801076e-01,3.221810183562544005e-01
6.803139363765350334e-01,-2.542227730185730450e-01,4.986979728911252185e-01
-2.454889538650392444e-01,1.144434718477496810e-01,-2.338713126471937132e-01
-3.814493359718952870e-01,7.149311481571185567e-02,-2.346630089675392494e-01
-2.750638103075079277e-01,5.348708092996189156e-02,-1.015740307596283837e-01
-3.001762916198085773e-01,8.263912006097977325e-02,-1.558313610654380454e-01
9.584900837943136631e-01,-2.601874656138980502e-01,6.657721883288181264e-01
1.253521234813380181e+00,-3.189422532493342288e-01,7.955635104566223248e-01
-1.227384729120988727e+00,3.998758557233103583e-01,-7.906249356559723607e-01
-2.782120875955604866e-01,1.301283898723992749e-01,-2.643298553608059431e-01
1.231769266440618127e+00,-2.486026073715176532e-01,7.502558342056756535e-01
8.365221769813712127e-01,-2.000789856479299467e-01,5.420684637393127225e-01
1.068240846905162744e+00,-2.896448455355031815e-01,6.745919049204917028e-01
-1.019707584885481522e+00,2.725075735674302724e-01,-7.070664472294202474e-01
1.001924130590668982e+00,-2.378016038145747690e-01,6.412457916811835634e-01
-1.478172453811546383e+00,4.216902666412843947e-01,-9.686043040733602894e-01
1.148179491309249345e+00,-3.485356717150495109e-01,7.649767451597832002e-01
-7.813209531433114308e-03,3.713412512858625669e-02,-7.238960497601625022e-02
5.334847708702907809e-01,-9.395980211435640828e-02,3.724449252104674035e-01
8.764021318441221897e-01,-1.410664566659683705e-01,5.198372310985270861e-01
-6.122131218208292092e-01,1.331244958996112837e-01,-3.819277527598941013e-01
-5.026330524937402400e-01,1.246962883803853644e-01,-4.073928586225511461e-01
-1.199923299285243994e+00,3.066618517125780374e-01,-7.593597449404957400e-01
-1.345839523305216945e+00,3.953904069699416546e-01,-7.969584538492037185e-01
2.531743103703097339e-02,-4.835954271208896954e-02,2.274183294124975177e-02
9.715869945008568376e-01,-2.362335961617209323e-01,5.569832609547138436e-01
6.091706695797491911e-01,-1.379811418335840645e-01,3.739426195359983329e-01
-1.016106687160373445e+00,2.159346524796954270e-01,-6.105958086965923570e-01
-1.952539343661841564e-01,7.180124561964390528e-02,-1.613739013542329348e-01
1.408105060887584692e+00,-4.436534134722359135e-01,9.536241733029418022e-01
-1.327819647810531745e+00,4.019630352908653004e-01,-9.091082900039952897e-01
1.192976087344643554e+00,-2.938834645986346250e-01,7.110751717366405877e-01
1.185848031149027815e+00,-2.777761878539314888e-01,6.930382207099209380e-01
4.916621023191080075e-01,-1.655640325644894828e-01,3.702569076602389431e-01
6.406032852944553158e-01,-1.164968801252238423e-01,4.532226684356388535e-01
9.983594680067829630e-02,-5.248836136488956028e-02,1.810052686723291338e-01
1.914253457627795030e-01,2.440046583697997803e-02,1.147350838237551213e-01
-5.406803079160001912e-01,1.275271886316766412e-01,-3.378500491606868383e-01
-2.392703634463223539e-01,4.190718992575253460e-02,-1.526151160477431101e-01
-4.379024224016773159e-01,7.158336964915731904e-02,-2.158172885088733284e-01
7.432278174664301851e-01,-2.022090321871025387e-01,4.116769755809854270e-01
-1.274441798736887899e+00,4.099493375456892408e-01,-8.481813774988319343e-01
-3.806522454418928558e-01,1.012818744941412497e-01,-2.701951559207878550e-01
-9.522494306485065341e-01,1.980250218394364048e-01,-6.224898613250724466e-01
5.631500842504549853e-01,-9.754626607229156809e-02,3.416937049400005644e-01
-7.389502674485377565e-01,2.370314880407957403e-01,-5.067713265848422521e-01
-1.103377918471249997e+00,3.340729655034120893e-01,-7.308615538734162254e-01
8.572658897498391939e-01,-1.915667627763939784e-01,5.874174959548419395e-01
1.348720125132988557e+00,-2.981768437445526110e-01,8.364345251518535695e-01
-5.847215840698682943e-01,2.129493489339192580e-01,-3.710092122506383761e-01
1.239560107416352697e+00,-3.385496892875554109e-01,7.306766412577359038e-01
-6.677664403955094752e-01,2.130213232393764478e-01,-4.850270030589471371e-01
-1.293015206130104566e+00,3.776815829552169212e-01,-7.496115802648943838e-01
8.561664908914975447e-01,-2.826054535467692475e-01,5.624075215116233206e-01
-7.722152395555164084e-01,1.821302454243928226e-01,-5.161248437682541823e-01
4.967565934183692522e-01,-5.696054634433778824e-02,2.719608794983692790e-01
1.427283764432305091e+00,-3.800141507925853257e-01,8.922574090437546124e-01
7.396875759877644674e-01,-2.023170380610989083e-01,5.281392835909410888e-01
-8.186381631414392235e-01,2.481248780219868222e-01,-4.775453792354941163e-01
-8.646552441733429406e-01,2.334830579379559568e-01,-5.580285253776714471e-01
1.157133933672645831e+00,-3.163527417986616852e-01,7.924338045141177123e-01
-7.614144789344168274e-01,1.935735514325513107e-01,-4.439964906457523064e-01
5.658767936915477526e-01,-1.284218105772980401e-01,3.972553897176519522e-01
9.791204079041966324e-01,-2.408546135719093761e-01,6.281416163234556649e-01
-3.766095586576271859e-01,1.006906672314391016e-01,-2.915171805101782754e-01
1.318885977252512332e+00,-4.404708690442594721e-01,8.742581092029200196e-01
1.449499224075894988e-01,3.480116304135962707e-02,7.478866384045243509e-02
-1.286222170280953758e+00,3.486005294871761251e-01,-7.997224163999975266e-01
1.446809982396211502e+00,-3.618665673893482482e-01,9.558619476449026209e-01
-8.203840647446761780e-01,1.984965116425060350e-01,-5.386735909183556492e-01
-1.245817739904636179e+00,3.000057823571334881e-01,-7.939765145089241472e-01
-8.551459022418819167e-01,2.430718218782413065e-01,-5.927923143667462869e-01
-7.888788078119378655e-01,2.167091332058690145e-01,-5.229255888454444889e-01
3.607220228293003816e-02,1.982955710149501491e-02,3.781047965904918429e-02
3.988160893461633050e-01,-1.081335358476294695e-01,1.660355027653052651e-01
-4.734597543706828282e-01,1.843827825655173502e-01,-2.560314158757627800e-01
-3.476912292608887456e-01,1.165946870541287872e-01,-2.463770532702898863e-01
-2.944705069853341128e-01,8.654782952942359497e-02,-2.027812358406242688e-01
4.592070452151522097e-01,-1.440544618374232366e-01,3.871823070457819926e-01
-9.865851005236526694e-01,1.928888259147690243e-01,-6.105682891271008161e-01
-4.031509487811623105e-01,1.019949375747583736e-01,-2.247945779260622778e-01
6.388869542929291878e-01,-1.631634119482884004e-01,3.394857762401266021e-01
-6.006954028679577506e-01,1.531279857915456566e-01,-3.343526430991122234e-01
-7.446691331329315933e-01,2.020715633058879357e-01,-4.554707921874052157e-01
-1.114020093070724249e+00,3.232241472585077879e-01,-7.744702594447450128e-01
-9.761702788169078493e-02,3.925549935211210956e-02,3.195006394506106403e-04
8.631816950556121804e-02,-7.113498315693859986e-02,5.911429639231454564e-02
-1.670933534814919019e-01,4.403047732768854833e-02,-6.757392709172582723e-02
1.405134956706940885e+00,-4.302488644645454108e-01,9.484766613754188613e-01
-1.903485351690815397e-01,8.318375900761418307e-02,-1.364049052175309029e-01
-2.498000802124476227e-01,5.259812337036225138e-02,-1.613309287880689558e-01
1.014473925020417777e+00,-2.737900884238633203e-01,6.719916377991279610e-01
-1.210725859823821748e+00,3.105490913490066007e-01,-8.270388005568575229e-01
1.411923088309985586e+00,-4.021486692391381679e-01,9.497948398785133195e-01
1.190527235353991964e+00,-3.661951057734968984e-01,8.232815490835421190e-01
-1.050119422518128287e+00,2.960145123808241019e-01,-6.448471445393515467e-01
-4.762323341455095838e-01,1.051433024541825051e-01,-2.798517697931165449e-01
1.372795354023816250e+00,-4.393000946734590406e-01,9.130914196109484182e-01
4.358152285640858881e-01,-3.687398003764025267e-02,2.648406995559347554e-01
-1.264557836074610586e+00,3.744358516563014438e-01,-7.991410003890935254e-01
-4.987027049110533961e-01,1.077299521087246165e-01,-3.205898276459058227e-01
1.866786413734062844e-01,1.110842464718038262e-03,7.396259245976877228e-02
-1.510368290340133424e+00,3.198505134461426813e-01,-1.017955254161000411e+00
8.653878729328954300e-01,-2.715324356113786308e-01,5.606915422382852121e-01
-1.249138996211854646e+00,2.897375863691301623e-01,-7.491722817090417097e-01
-5.812868619126573266e-01,1.639802900037553579e-01,-4.575684453789638506e-01
1.388446943221742558e+00,-3.716897188502253369e-01,8.452251465373814554e-01
1.391009440682229759e+00,-3.668908260622383843e-01,8.630927103698132763e-01
-4.042604606983731808e-01,6.949188842007764100e-02,-2.062700162001345483e-01
-1.554337056182927501e+00,3.677445465204672304e-01,-1.014545144444386482e+00
2.734653556749168657e-01,-4.927939833074773679e-02,1.766700005240853522e-01
-8.480733292691718939e-01,2.837453128318823681e-01,-5.397529202845743335e-01
-1.354924228408483700e+00,4.332301904063265430e-01,-8.703834203164035888e-01
1.036424527377139082e+00,-2.799987275271541565e-01,5.800292305349133981e-01
1.387120413098873239e+00,-3.281644873653030703e-01,8.424491084597091062e-01
-3.364662196289740503e-01,1.354500193051940138e-01,-2.354562908495895779e-01
1.371938838002500161e+00,-4.023465791880302955e-01,8.545563128155053700e-01
-9.738484251031228611e-01,2.953150670367906128e-01,-6.439688011634224774e-01
-7.577319059619171959e-01,1.907580620220426515e-01,-5.489048201867098298e-01
-7.058535378762450518e-01,1.513381361958489879e-01,-4.799899196239313937e-01
6.619879763112611615e-01,-1.797076695580778483e-01,4.228697391609433365e-01
1.480196951516725923e+00,-4.242936361082772501e-01,8.950876157669214184e-01
-1.501803538277364458e+00,4.057518698359932618e-01,-9.121806332126036754e-01
7.870193611036922776e-02,-5.126769908336825665e-03,1.125828487671154954e-01
8.520342759702945745e-01,-3.074099139536037306e-01,5.717913234795030109e-01
1.000727790950148854e+00,-2.689432193434277418e-01,6.326335525697165396e-01
-1.196921084410252023e+00,3.354658536714936190e-01,-7.407430764980532656e-01
-1.402254758267899692e+00,3.780577921734492031e-01,-9.110463584779363577e-01
6.168775562994461836e-01,-1.754743382614596670e-01,3.860878210287352896e-01
1.335002747619018715e+00,-3.404115645085325492e-01,9.417574118850928766e-01
5.998615167460836783e-01,-1.972888668617263364e-01,3.991134368297061807e-01
9.334643562157653174e-02,-2.781690028789280192e-02,3.998177604174405625e-02
3.013668377824442121e-02,1.674102748152017303e-02,1.063364726814555392e-02
-7.570003793165769324e-01,1.814238655618731766e-01,-5.234769274447246268e-01
5.822625348404476125e-02,-8.245482329285960810e-02,3.581749845293022427e-02
1.256773602514597687e+00,-3.138416350626933027e-01,8.522086031396652883e-01
-1.047536550958377832e+00,3.142372414348478249e-01,-7.753827002404256596e-01
9.187854636420675902e-01,-2.256447252561307182e-01,6.610267557437580210e-01
1.287960329279132926e-02,2.395480375604673237e-02,-2.891395451718693083e-02
-8.084127212123378703e-01,2.180140744224129401e-01,-5.459830960590257298e-01
-2.143019208304881573e-01,7.131077746187457211e-02,-1.591425518126854954e-01
1.134117325175010293e-01,-3.909156472122993914e-02,4.038310514098659987e-02
1.231182409131696298e+00,-3.503856748412710331e-01,7.934119488267680209e-01
-1.422646621324519467e+00,3.830543540752945897e-01,-8.701435981030131162e-01
8.265252901794908347e-01,-1.896911629688461387e-01,5.722168213846100526e-01
-9.459482057971554392e-01,2.506072111769422905e-01,-6.634071234776105497e-01
9.762421783339942927e-01,-2.261151872686357478e-01,6.104633682350355528e-01
7.834633542310115439e-01,-2.017158979406871999e-01,4.947405021661752111e-01
-2.948983508055266767e-01,1.137254620972226321e-01,-2.359095561818617681e-01
4.387930589381056068e-01,-1.321741811573304282e-01,3.598164415471329924e-01
8.182085899459299316e-01,-2.068089217191899920e-01,5.142971200477676197e-01
-1.285202715590333611e+00,3.099185954232526186e-01,-7.387561593091005463e-01
1.447727542652393895e+00,-3.940806442104082818e-01,8.864176021507006453e-01
-7.976312828298418589e-01,2.116001790088713752e-01,-5.520259871665421647e-01
-5.231900970029825793e-01,1.161909154483219270e-01,-3.285404324590491254e-01
4.296262490065914652e-01,-1.074423948890127350e-01,3.144234357302717608e-01
-1.807765747455734595e-01,4.563800549684558956e-03,-6.975040425898429430e-02
1.454621786117526350e+00,-3.944939864547200026e-01,8.593504764202738455e-01
5.035525012972847936e-01,-1.674814699887107183e-01,3.826831977696739662e-01
5.178398222148118402e-01,-1.515955814489280962e-01,2.962331607358488772e-01
-1.292544637879996072e+00,3.216356064458289477e-01,-8.531565380948280541e-01
9.841027746538970611e-01,-2.652316048677741400e-01,6.426252449958426149e-01
1.256196881897913897e+00,-3.802709970227327041e-01,8.296171012287139046e-01
1.159337812717445571e-01,-3.616643321015794443e-02,1.572655079580186632e-01
-2.740084406480583490e-01,1.346172570419854886e-01,-1.878886421859773392e-01
5.482962091648031500e-01,-2.053852786227537697e-01,4.237405337276153872e-01
4.057252600354718797e-01,-7.900777904795376616e-02,2.361828991853325843e-01
1.245074501988692406e+00,-3.029209974663967242e-01,6.933474249872015882e-01
3.242833454058393627e-01,-1.112370899793203027e-01,2.324230896152513770e-01
-1.188383201143685675e+00,3.433754569737542117e-01,-7.980565744961338748e-01
-1.502687185632080924e+00,5.111439385299962890e-01,-9.958185355120450222e-01
2.391414429126474672e-01,-9.697341413121253473e-02,1.327150994684799801e-01
-9.884235774227356774e-01,2.195458125958255069e-01,-6.189746300781032717e-01
-1.702230771323592351e-01,8.957269630380067238e-02,-1.311881105047161267e-01
-9.900670674425318118e-01,2.831095544547363452e-01,-6.180596385178733776e-01
8.176821792877971840e-01,-2.806676381749266813e-01,5.205328151584184271e-01
-4.725727808857689838e-01,1.212544544576823757e-01,-2.595142685323070242e-01
6.192562032021290408e-01,-2.317202619518967111e-01,4.130610720813489012e-01
1.442369870353204409e+00,-4.665272036309078274e-01,8.765048887437988379e-01
-5.011687587199611382e-01,1.354440442235717301e-01,-3.197051579178681879e-01
-4.287489527893446617e-01,1.126042499617141979e-01,-3.432593307825129170e-01
6.439009904886309199e-01,-1.102921115437041494e-01,4.458619452582547882e-01
1.316348405683857470e+00,-3.732326171973303075e-01,7.088627394427324813e-01
1.465806690400894174e+00,-4.294673469530264631e-01,1.000361158937119299e+00
8.382761363402851940e-01,-2.133344721719644121e-01,5.812654335049881604e-01
-1.284052530686304872e+00,3.506107020196082003e-01,-8.423868333428002897e-01
-6.251833973582238135e-01,1.282185956669383564e-01,-4.251803698427407130e-01
3.709207119527423990e-01,-1.483601285116237234e-01,2.038316077930391601e-01
-9.614511725970520395e-01,2.930342907540225972e-01,-6.479714608224118599e-01
4.473173843267926053e-02,-2.120119755397956163e-02,7.261166904767579755e-02
-8.932404660662547347e-01,2.508072943848948522e-01,-5.763361216719632418e-01
-1.505218005600440723e+00,3.861591192757666824e-01,-9.202769557266868850e-01
4.904042741022214269e-01,-1.408758316838605029e-01,4.114399304988866635e-01
2.653969559629514308e-01,-7.883840448366329079e-02,1.191741843994919003e-01
-4.046342856728589732e-01,1.347389779487693784e-01,-3.244462155946479798e-01
2.271266762537224870e-01,-1.209545425467459523e-01,1.020715350319713888e-01
-1.462814615825365649e+00,3.562008273984850759e-01,-9.512232073018321854e-01
1.792191515899984322e-01,-1.654744672467545197e-02,7.023279030576377868e-02
-2.902778579965025196e-01,1.041065587875015519e-01,-1.677611624020399761e-01
1.892649550062033836e-01,-6.990979654947504507e-02,1.406150839845833611e-01
7.689608035148728926e-02,-5.360996373093214473e-02,6.902367180142997272e-02
-7.557488861231255184e-01,1.714118539705810629e-01,-4.842220631067943315e-01
1.311863472401439523e+00,-3.632770203400720876e-01,8.109573753336339896e-01
-1.489368343748500800e+00,4.174116439558163694e-01,-9.835541454824697771e-01
8.766268239424175324e-01,-2.672842789197228397e-01,5.241734710214823734e-01
6.651274074475530540e-01,-2.676341629799287580e-01,4.275358885014450827e-01
-6.380924622681026781e-01,1.747202722255569718e-01,-4.342578594088895017e-01
-3.348606714505447113e-01,3.245329527119792529e-02,-2.098977020988813391e-01
9.596738808204201276e-02,-5.879074586575348815e-02,8.418476786129569511e-02
6.583527120042811376e-01,-1.645203573943229691e-01,4.326520045436736961e-01
-3.491524014461361292e-01,9.661715629139686068e-02,-2.070307583739363078e-01
-1.429946967319432716e+00,4.574827031128921861e-01,-9.433404369930916689e-01
-7.450305291613147363e-01,2.402368929134326148e-01,-5.066402320061770270e-01
8.485623321470902036e-01,-2.750715465133350413e-01,5.329470675900667143e-01
-1.087423027455068691e+00,3.716245993904861433e-01,-6.985340747299054742e-01
-5.600375000411995929e-02,-6.761163194657538074e-03,-9.325093770146460070e-02
-1.256654165899601772e+00,2.911376222937140379e-01,-8.210540916970141545e-01
1.497497865578389931e+00,-3.760561071091553798e-01,9.934550902900775027e-01
4.228624429098105098e-01,-1.301659933401586033e-01,2.793289771952378597e-01
3.800575518877774561e-01,-8.674167817989657248e-02,1.597082719818369301e-01
-1.347383157519913333e+00,3.553066754228872970e-01,-8.761524225371577490e-01
2.434827127627255203e-03,-1.732656122520772127e-02,-4.226612246608382750e-02
-1.315330097742718918e+00,3.870211032510559312e-01,-9.258879412622388339e-01
6.661368282199909840e-01,-2.421059292140301522e-01,5.267820898048927170e-01
-8.455918441880494463e-02,7.479463036246898622e-02,-9.614455626855425430e-02
7.372771105288172810e-02,-5.789908736063645311e-02,1.526633518257383970e-01
1.275348461298210501e-01,-7.534572790839785816e-02,6.802326753777332424e-02
1.369141031446620804e+00,-3.504206580532519544e-01,8.488515752561600625e-01
-1.440341023654704289e+00,3.941349444024971338e-01,-9.601739991250055617e-01
-4.204488333012414425e-01,5.468489744731536845e-02,-2.947384486084999033e-01
-1.030440714511891009e+00,3.200014000044003604e-01,-6.753494767626428974e-01
3.758222446223875579e-01,-1.263189313271293190e-01,2.776096155388817488e-01
4.516020766193140079e-01,-1.137946142213805967e-01,2.896231652508953203e-01
-5.768203232257360785e-02,-7.137497787367416517e-03,-2.949255590153561715e-02
6.814348598664625722e-01,-1.614947212121840003e-01,4.045480640860367738e-01
1.496258019627833669e+00,-3.853472968262225407e-01,9.699337482042883485e-01
5.762261569430495722e-01,-1.964144659949059457e-01,4.086304590004571358e-01
-6.179245184384377643e-01,1.961089921308845907e-01,-4.521872445310163857e-01
1.007779254467598085e+00,-3.709398253168590398e-01,6.229244734952078533e-01
5.638882223106477243e-01,-9.848772690084854620e-02,3.920249356853272582e-01
-2.521097722856111556e-01,1.034846402295534346e-01,-1.483032729654109871e-01
-3.280501971154177743e-01,6.370102005449652938e-02,-1.916332457940722878e-01
-1.125757155548604782e+00,3.600580805933636941e-01,-6.641567977001019418e-01
1.027439359994186452e+00,-3.258596161608360298e-01,6.390040355309292153e-01
-9.527387838705050904e-02,-9.342722971257919062e-03,8.624568790375883656e-03
-1.527667846250907013e+00,4.586412819666224050e-01,-9.766973352544879861e-01
1.219342126147799688e+00,-3.321869216429696459e-01,7.011844306459870113e-01
2.445247954206261898e-01,-7.378094767968461365e-02,1.296121208067680941e-01
8.813901313435028584e-01,-2.297523967418713675e-01,5.534678156156308537e-01
7.056074189642294048e-01,-1.990603636015731981e-01,3.960402676074900041e-01
4.119130027565144347e-01,-1.364616653298930671e-01,2.560047994463791055e-01
6.959643653966148813e-01,-1.808879060098709524e-01,3.711658566411930593e-01
-3.789729207789903631e-01,7.602950204172415072e-02,-2.572263697319844278e-01
1.233001298737274265e+00,-3.755315576666434785e-01,7.954912049567514076e-01
-7.202490285011196036e-01,1.862751906405994140e-01,-4.738025613332021990e-01
-1.499427896475489463e+00,4.097740699581686186e-01,-9.058731198173194388e-01
1.544525784280446290e+00,-4.455327863533355970e-01,9.548186562932268195e-01
1.379266624345548919e+00,-4.063521350566000612e-01,8.578445969873077503e-01
1.148081653745448572e+00,-3.037491246832167979e-01,7.548453496233087368e-01
1.220955715317413537e+00,-3.141594592086101034e-01,8.203940317390527870e-01
-8.654582401926962099e-02,1.032840373482104834e-01,-4.799999633286498868e-02
1.067007999234613758e+00,-2.447031447591683229e-01,6.633995488344810454e-01
-1.056233070418342024e+00,3.470054849408720776e-01,-6.670022215791051590e-01
-8.256634202520445331e-01,2.974392064591876994e-01,-5.930803370384089002e-01
-3.585655290378973459e-01,1.703773255025642711e-02,-1.870904587744181002e-01
-9.947645564007687735e-01,2.295843165793985119e-01,-5.503163373463164643e-01
-8.775162281338252379e-01,2.206890178857066620e-01,-5.497668815975902401e-01
-1.377069420031711067e+00,3.235796444077233547e-01,-8.895475385392792589e-01
-4.897076447682949807e-01,1.880159815352198949e-01,-3.280148950282020248e-01
-4.308119265846152568e-01,1.323748550387334189e-01,-3.546542086771395375e-01
2.502247394964143279e-01,-8.714008620975514929e-02,1.613899401175774573e-01
1.313216882351446069e+00,-3.887599856570794765e-01,8.425273097057548455e-01
-1.306102625387315364e+00,3.958665943020017175e-01,-7.992970148716517231e-01
-1.515160671606203602e+00,3.771039018048270575e-01,-9.418921672986153570e-01
8.548497058708413032e-01,-2.500040800267115948e-01,5.104035185946534936e-01
5.767083859970915105e-01,-1.089078029339382997e-01,3.526636463614970518e-01
8.537239169551325002e-01,-2.198398779505227607e-01,6.452062493846437707e-01
-1.053713494238620152e+00,2.623227804746117720e-01,-6.407909473895968544e-01
-8.806803424728213425e-01,2.752156756424330997e-01,-5.375412086956313784e-01
-7.705994012998427234e-01,2.275472939079866697e-01,-5.187575640406294486e-01
-1.154809280352764533e+00,3.118660073118718068e-01,-6.461998405506691467e-01
1.015159577193573526e+00,-2.836396431050961509e-01,6.597376538272208268e-01
-1.289706230493047556e+00,3.408293939560551045e-01,-7.862432557988688897e-01
7.482953716090796625e-01,-9.999508705709909961e-02,4.762075573417150487e-01
-9.909183289869076816e-01,2.193390568147603192e-01,-6.928883515084691691e-01
8.693903740491842891e-01,-2.412764748269921600e-01,6.192519756778339657e-01
-5.773521062387629854e-01,2.113055248819841747e-01,-3.654251227887934106e-01
-5.268236747463429515e-01,1.755550911434878847e-01,-3.418923598062595937e-01
7.068761084567528608e-01,-2.387983699424243988e-01,4.441875732289918277e-01
5.453499807738603211e-01,-1.142137001836168730e-01,3.174067883732279993e-01
8.193275063290392790e-01,-2.220507888966681831e-01,5.563438867475481997e-01
-1.138054059294097753e+00,3.410268812601709443e-01,-7.162028547510873588e-01
1.091466038797402005e+00,-2.735800736394033983e-01,7.038310958294644593e-01
5.338790477264372392e-01,-1.951599954222455191e-01,3.394026132174202681e-01
-1.121732943275064454e+00,3.525179514004468384e-01,-6.862062762211177391e-01
1.424312761618210965e+00,-4.052529470603867812e-01,8.985874192414460282e-01
-8.000723068371260460e-01,3.072555899447408367e-01,-5.660604789298581130e-01
-1.394946266681713620e+00,4.342000599066458411e-01,-9.628701159544373889e-01
4.962206167196747120e-01,-9.341667321339837404e-02,3.083966307343848356e-01
-1.451393840164425963e+00,4.354056424129814640e-01,-8.646325015442307693e-01
1.863481574933578688e-01,-5.034517067171459526e-02,9.373633948816188777e-02
-5.955045170892423467e-01,1.332278343630584339e-01,-3.067573528019834073e-01
-1.379359673629354743e+00,3.606624222994707085e-01,-8.450044020280780277e-01
4.570281883484943464e-01,-1.412072294303448050e-01,2.910541751133178812e-01
3.555180784581807307e-01,-3.414543163135330683e-02,2.907975027165775606e-01
-1.311003763509672959e+00,3.723407982367847313e-01,-8.388477225177692898e-01
-1.241010467546117324e+00,3.900545105977751281e-01,-7.794551240324020247e-01
1.330201844370851427e+00,-3.495431294431778912e-01,7.992067547669109429e-01
-2.510248809988843144e-01,7.803976688581909515e-02,-1.753289701653274746e-01
1.352533132070055544e+00,-3.447500821853708985e-01,8.143951364957923156e-01
-1.044622732854497027e+00,2.468291766235098939e-01,-6.061169213823055513e-01
1.390321482530591624e+00,-3.575230697902759269e-01,9.052597539608499000e-01
-1.405356233566272373e+00,3.717394425772677091e-01,-9.625420627512129013e-01
1.145708132586084949e+00,-3.646553353480904702e-01,7.718565172735327717e-01
7.118286572631307707e-02,2.539995296350410978e-02,9.925569977315029657e-02
-1.174836330637863552e-01,7.107349588780427496e-02,-3.613753367128862137e-02
-7.613896097944622410e-01,2.413732712932881996e-01,-4.993952599963673022e-01
3.822441178253079275e-01,-1.346973131422990466e-01,2.787553524848463415e-01
-6.078960612680597148e-02,2.971106697025800020e-02,-4.705380416831746876e-02
8.309192652806253188e-01,-2.360010986819182366e-01,5.410915619160059364e-01
2.618953767719527925e-01,-8.082483641562862586e-02,1.626471010882100943e-01
-1.554931904212363047e+00,3.790774859681226294e-01,-9.518739781448596338e-01
-1.434384809228478552e+00,3.623059960311480476e-01,-8.857346482390225928e-01
1.434243108789936272e-01,-5.484733828743828220e-03,7.458080216643880878e-02
-4.820584639828161544e-01,1.187527368283588791e-01,-2.823289352236977301e-01
-2.754794424709489098e-01,8.331343646651416524e-02,-1.239061046557737578e-01
1.426538726179835237e+00,-4.360597430715011935e-01,8.608460771425696656e-01
7.999566953716686912e-01,-2.605502185529811610e-01,4.711717376294348170e-01
-1.222145081020030617e-02,5.108889277023208331e-02,-9.681547860535674732e-02
6.976027930068888772e-01,-2.196773760386715180e-01,4.250726958582380366e-01
-4.205995498727971293e-01,2.015916779390331814e-01,-2.472271177581815693e-01
6.074305611451438214e-01,-2.034447532127239000e-01,4.546970169908809423e-01
3.375868748291823707e-01,-6.610215668981606063e-02,1.758735316736421139e-01
-1.052427987780543694e-01,7.467529596618326104e-02,4.477087791501121843e-03
1.071944486768799054e+00,-2.853418880730027030e-01,7.089279523432178154e-01
-3.545229066658776018e-01,1.317855528925973296e-01,-3.091927278319245853e-01
-9.746139793296466625e-01,2.552007975427109110e-01,-5.793037920833128407e-01
3.543636322765888469e-01,-1.388529553022739560e-01,1.939971877572467251e-01
1.031744639193875823e+00,-2.801935518069434972e-01,7.728346689698381011e-01
-6.182803587736593887e-01,1.953012169951033328e-01,-4.427266438127810955e-01
-1.996398424151227258e-01,6.378710937110865231e-02,-1.238622186116365431e-01
-1.389109832724396143e-01,7.185924356171874416e-02,-9.043040446514102881e-02
-1.309401924747753965e+00,3.778670772895739716e-01,-8.578670157035375166e-01
-2.239490629018809839e-02,3.380921437729161871e-02,-1.195234808617729946e-03
1.229761199841798547e+00,-3.239737434570422736e-01,8.049909366169210045e-01
-3.530836307827333043e-01,1.235377348591135543e-01,-2.309021519479400597e-01
9.997982746454248115e-01,-3.484585387681415347e-01,5.879486569100728088e-01
1.013581674267805210e+00,-2.164928798830488277e-01,6.983781662653795186e-01
-3.838756158776684274e-02,9.793156703960881684e-03,1.280955741528938888e-02
-6.775307016769335777e-02,3.508877804359427505e-02,-1.061839125295935826e-01
-1.059121829061339781e+00,1.923180827558662043e-01,-6.215857739742789434e-01
-1.299199595450718503e-01,-5.136551969653774252e-02,-1.264925247697017696e-01
1.283525478429600630e+00,-3.012213035278987205e-01,8.414098544727874884e-01
-1.486507373610868266e+00,4.336230563938979210e-01,-9.419232511533917052e-01
1.461280477565546576e+00,-4.381011623920333942e-01,1.004573836168970002e+00
1.294128987369345118e+00,-3.465900006593302107e-01,8.762337411885767757e-01
6.102094523947206861e-01,-1.732282071893847530e-01,3.628760046303101117e-01
4.466278547161606910e-02,-5.017474018293366020e-03,1.415334355185648985e-02
7.673307641678361879e-01,-1.870356045645835685e-01,4.728508026917236373e-01
-7.927255467252953824e-01,1.570602600742425359e-01,-4.974564796543319845e-01
-4.838011999080643610e-01,1.379996287210715766e-01,-3.128949043574500433e-01
1.218292182046612382e+00,-3.109067232327725749e-01,7.471425590076689049e-01
-1.474064381170187898e+00,3.780421442440047852e-01,-9.690173154883360285e-01
-2.229074192403668053e-01,7.440482106251736227e-02,-5.945450558607193875e-02
-1.089337540050550723e+00,3.235562923539674896e-01,-7.106108218624305195e-01
7.010032149166274262e-01,-2.197145819971974834e-01,4.425987137824764495e-01
8.772061938610213883e-01,-2.968277019369643943e-01,6.000266603700395995e-01
7.412526150001735870e-01,-1.745596592634095223e-01,4.448438658651776567e-01
1.069627342996809727e+00,-2.499092554385757003e-01,6.147600689985515121e-01
3.144348293912464509e-01,-1.115852511265079394e-01,1.623934950877150007e-01
-1.212475590026785982e-01,4.294230100651159898e-02,-1.650684184829023238e-01
6.792316269064500034e-01,-1.708701091331494004e-01,3.890376497933171751e-01
-1.701291446946629204e-01,1.374120038618487256e-02,-8.202512956703575386e-02
1.357840225130122702e+00,-3.198953340380476518e-01,9.024896588844903977e-01
-1.557496627966523661e+00,4.787212031964823700e-01,-9.681089084089326002e-01
1.439970713717678041e+00,-3.699060876609868709e-01,1.025881758998823612e+00
-1.203530273952874152e+00,3.361384333755647047e-01,-7.665833181734330593e-01
-3.040495362661463918e-01,5.536484655251030368e-02,-1.556529519943564976e-01
-1.139800872076914828e+00,3.330959456394133600e-01,-6.944223724290931044e-01
-9.665715703672963510e-01,2.792348883937770809e-01,-6.090944305559397032e-01
-4.260882322973245095e-01,9.940038120497055041e-02,-3.062644476169467112e-01
-8.401873565572387514e-01,2.405958045739920725e-01,-5.918846699042674686e-01
5.419307705770438632e-01,-1.554518068027049560e-01,3.584702800293879665e-01
1.383701800658944991e+00,-4.731199497929894360e-01,9.655015929482289039e-01
1.356587245983661427e+00,-3.777152784483960302e-01,8.957761681386389174e-01
-8.363885611021794064e-01,2.453708916724567646e-01,-5.788707112820276057e-01
7.884788290259359123e-01,-3.016292918969294412e-01,5.062103360241156924e-01
1.141109678635081837e+00,-3.159418222578232460e-01,8.417997091148738953e-01
-1.137975999318140197e+00,3.486120003343796125e-01,-7.799624493130256075e-01
5.373449101619286461e-01,-2.306737812668981924e-01,3.343407084288581577e-01
6.998854988379917819e-01,-2.070774069151262720e-01,4.744298564485599501e-01
-4.809255717131222796e-01,1.482448891370712896e-01,-2.977183855781758148e-01
9.150885149385409312e-01,-2.623792179386508217e-01,6.217569572239266540e-01
1.057486314894716894e+00,-3.165193854996840028e-01,6.300551961653847455e-01
7.037152688422001479e-01,-2.133444477736695655e-01,4.219216206900537336e-01
7.635169614090978607e-01,-2.036905757609085432e-01,5.154109687025841824e-01
1.050427301624583754e+00,-2.931673299252466336e-01,6.948877241509093805e-01
1.112088058872459539e+00,-3.526067724634212586e-01,7.501934963366565512e-01
6.009297523092023072e-03,-2.936165942203449244e-02,-3.681692172187153028e-02
-9.456477290622791743e-02,3.564233957995386476e-02,-8.679598054487674963e-02
1.079226252365468541e+00,-4.022192786188836799e-01,6.752614664116437515e-01
-1.492325268957123419e-01,1.462699370040236070e-02,-3.184143203123039612e-02
1.212163349773364152e+00,-3.347434061708238207e-01,7.331706765808714277e-01
-1.179962147190176225e+00,3.212222974285244281e-01,-7.669249949373696529e-01
-1.360497037618884075e+00,3.911219320912898700e-01,-8.424422968109266385e-01
7.853300089213545443e-02,2.936384206422006440e-03,3.791813410755288938e-03
-3.554258812071246498e-01,5.692269970697578368e-02,-2.400926802650609759e-01
-8.565376490130311993e-01,1.887131700847974880e-01,-5.708503875533871286e-01
-1.064760276236942582e+00,2.702219076864721403e-01,-7.353952071922885692e-01
5.884806966333312461e-01,-8.288825462592269711e-02,3.211124663271692214e-01
8.219279306221810577e-01,-1.755398933146376794e-01,4.621483123415811023e-01
-7.398657068856581698e-02,-2.481019386133925461e-02,-4.944924182567373566e-02
1.051037095619995476e+00,-2.797209650196497699e-01,6.137113660610535870e-01
1.496255126097847166e+00,-4.332794192545266765e-01,9.883615596777450829e-01
1.047315699661180766e+00,-3.020065894199526757e-01,6.658405306165919857e-01
1.358850552949240065e+00,-3.493458862236946127e-01,8.927794856650004274e-01
-4.473532073298249617e-02,3.832226339871330073e-02,-5.097028582231771104e-02
4.187720957108586051e-01,-1.540712738156108652e-01,3.339069420379700559e-01
8.622861511875040685e-01,-2.309732661590022662e-01,5.505262093764141662e-01
-1.413683030719079747e+00,4.014403446989446844e-01,-9.834181521405794824e-01
3.996544718639237770e-01,-6.949991876826391857e-02,2.301530441872957633e-01
-1.423059582454990757e+00,3.899395797255120200e-01,-9.973047975547344457e-01
-8.409445248541143059e-01,3.066080354718001000e-01,-5.606330058599036104e-01
-1.193198434533814689e+00,3.697339079905598291e-01,-7.570686796333102597e-01
-1.132468121508595216e+00,3.135136862439709127e-01,-6.979514195823086631e-01
-1.454573847239051698e+00,4.133550278529133926e-01,-1.030415558168541912e+00
-1.433686416894874416e+00,3.711033987114920052e-01,-1.030096613365485858e+00
5.147682062597425112e-01,-1.664137470588381296e-01,3.315268280949016932e-01
-5.877019102007742246e-01,1.743031978374874058e-01,-3.214330198984082232e-01
-2.168289579551236912e-01,7.707228104070561192e-02,7.813354150222412420e-03
1.296533901433468694e+00,-3.440640722652330563e-01,7.180932922698931575e-01
1.027198638048051338e+00,-2.452484802141519371e-01,7.013872331779714697e-01
-2.846164349006320982e-01,7.133008369779351987e-02,-1.068890427380295854e-01
-1.287663304630886074e+00,3.421626638658517572e-01,-8.084873753621518722e-01
