-6.940813435929801267e-01,-3.516760099221112323e+00,-2.341375634710698872e+00
-2.062735373686455098e+00,3.456062528059608674e+00,1.341802156442065463e+00
3.168425735543793920e+00,2.648517361332528797e+00,-8.062065096372145190e-01
-5.370481206172154076e-01,-1.966693682055875136e+00,3.728573510060751328e+00
-1.648511951225059002e+00,-1.701130449951712975e-01,-3.879076053280464009e+00
-1.527108091980200699e+00,-4.050466941987597380e+00,8.224895846864184457e-02
3.513235874935810354e+00,2.362008444521632444e-01,2.374551847139464211e+00
-1.856244544527132723e+00,-2.679613473744645535e+00,-2.762177847131250807e+00
-3.754693175952269701e+00,8.743244894099070352e-01,1.791026625215586865e+00
-3.283199796901922873e+00,-2.678956123980435144e+00,-3.705171780700954876e-01
1.436074704358434762e+00,3.940033303642032525e+00,1.127315098184261399e-01
1.117741730596456096e+00,-3.438915088113216889e+00,2.262495847817750150e+00
-2.381106527764505376e+00,-8.161646796973957840e-02,-3.507077374467694408e+00
1.588989095057042666e+00,3.903589556120535153e+00,6.982798718401369564e-01
-1.482337313714169325e+00,-3.760732517873300207e+00,1.256248338085296012e+00
4.806386240264580723e-01,4.110687402681592495e+00,9.480886083083537308e-01
-4.387721772396518394e-01,4.036694312766750059e+00,-1.099696257462165816e+00
4.156484564886149258e+00,5.551015478919595347e-01,8.748934962361006873e-01
-1.642486218400272868e+00,2.771769746178701865e+00,-2.903224705897449631e+00
1.535856642454296983e+00,3.712151817059185621e+00,1.288162006592597608e+00
1.035398690609758310e+00,-4.170046963922937167e+00,-2.766908338441704251e-01
2.403480645842384522e+00,3.289138313302033545e+00,-1.314674412633632050e+00
1.176946825863382923e-01,-4.245877153846502772e+00,2.903960636045505583e-01
-2.228741867176796454e+00,-4.579032285252510048e-01,-3.606002571937051204e+00
-2.892521417844464704e+00,1.482109822746962902e+00,-2.803543964937009303e+00
-4.092621517346611171e+00,-1.145031901728495560e+00,-6.708898755731598218e-01
-3.813646038957535511e-01,-3.617568219023440612e+00,-2.142554280025468216e+00
-3.978352385641664490e+00,-1.597669853426296083e+00,9.849712036767428458e-01
-6.027517914810768263e-01,4.096658414753940214e+00,-1.006790191953356395e+00
-2.960293846246271343e-01,-6.329375038245081964e-01,-4.195646760846550194e+00
3.948687697320371726e+00,-1.393691810494317895e+00,-1.017369089260914850e+00
-1.116301969812865780e+00,2.448358188088266552e+00,3.286419219750525311e+00
-2.906787427309666327e+00,6.138599087920085795e-01,3.028103648411205384e+00
-1.941559730202884415e+00,-3.746471648988861425e+00,1.312803589720408781e-01
-1.731611033514340425e+00,-3.524663576092905704e+00,-1.818137709008452729e+00
-2.046620197589076096e+00,-2.566103300154877420e+00,-2.751525930280654730e+00
-3.569363639331527338e+00,1.258472363514929970e+00,-1.839973566063294541e+00
7.005990493595363189e-01,-1.870000010553918068e+00,3.780414855555473963e+00
3.588059916958512119e+00,2.191115604236955505e+00,-4.943572588816138036e-01
-2.613044964047399610e+00,3.333313323183288102e+00,8.742736095145815789e-02
-3.424161999367183462e+00,1.586683603003886667e+00,2.045446899442798117e+00
-5.530026396355797180e-01,4.181874648297261743e+00,-3.453388806916658504e-01
-3.087448659955290609e+00,8.872179423322837932e-01,2.728526084423783082e+00
2.332592397492333713e+00,-3.234928290077263124e+00,1.544089232160924752e+00
-3.678751309827184901e+00,-1.194279489321471210e+00,1.873524745018859683e+00
-4.124887204141223229e+00,-6.393703902371782322e-01,5.899090059299174627e-01
3.014549045103262159e+00,-2.258932915884827697e+00,1.911837006567147279e+00
-3.322744812382137702e+00,-2.308104336220059949e+00,1.263264665188487124e+00
5.433639667936800421e-01,1.711876069781953502e+00,-3.747730450041237837e+00
3.393289243685604362e+00,2.384825666956496892e+00,1.189620813967193991e+00
-3.430605059401541368e+00,2.023661739405192783e+00,-1.509030983929111391e+00
2.140573574115182787e+00,3.465272674527045904e+00,-1.103480124773332349e+00
1.675202552297852865e+00,8.760498729958305919e-01,3.863890191622114223e+00
-3.563491587674557870e+00,4.119248063840871832e-01,-2.155991271300775836e+00
-3.983322016435113966e+00,-6.394242761008958054e-01,-1.228935907575155584e+00
3.157031479221764858e+00,-1.452035784496557458e+00,-2.361171283437305757e+00
4.187684107278499268e-01,-3.547130857268116166e+00,-2.304320625984949356e+00
-8.178057801640657709e-02,4.149050282247276122e+00,-2.497296689920855683e-01
-2.542868790270910395e+00,-1.442178923398312440e+00,-3.018728569126167827e+00
2.036313576610845111e+00,-3.708734761838029748e+00,-3.818239320395135916e-01
-3.560690949016558804e+00,-1.912328262235566401e-01,2.317391732590184716e+00
2.785719569036675392e+00,2.977172822928055407e+00,9.804277859441478116e-01
1.349929009973277028e+00,2.476735679594955108e+00,3.233674692711808518e+00
3.284947307282952145e-01,-4.075261433907482633e+00,-5.450747251672117821e-01
-1.246119314003469453e-01,1.494756393224271340e+00,-3.907306344078666172e+00
3.921939737878836318e+00,1.593779697733757272e+00,5.634815116438381954e-01
3.197969531726236436e+00,-1.197405959053628788e+00,-2.460330997119917207e+00
6.584375171807897720e-02,4.194239817978357543e+00,9.602652370138280158e-02
2.465741201939947835e+00,-1.482879853440888018e+00,-3.171763349626276707e+00
-1.459385120464023744e-01,-8.562045801166559000e-01,-4.121115618726714835e+00
-3.782172594334163751e+00,-1.168902342980443487e+00,-1.516124155550414354e+00
-3.937525267790362715e+00,1.377984808358956759e+00,-1.227700137936527103e+00
-3.690690504418628226e+00,-2.017802269786531877e+00,1.687572736451647612e-02
2.409291666825986056e+00,2.545462544754438117e+00,-2.562732156759064850e+00
1.943709421764098000e+00,3.702694924458199477e+00,8.189821599727169499e-01
-1.166662112834796927e+00,4.062388245345966098e+00,-5.343079102283042614e-01
3.691495186592003819e+00,1.409384265331371067e+00,-1.471164339445410585e+00
-5.520578202393578993e-01,3.217366853989471753e+00,-2.581318595750733191e+00
1.104268549403028654e+00,4.105900358640665715e+00,4.104297076420960200e-01
3.212631283134714244e-01,1.539237859103067541e+00,-3.958176301128094376e+00
4.026108520558453030e+00,-8.110008010166204206e-01,-1.044853446411813103e+00
-1.266767900650186407e+00,-3.005607137766185932e+00,2.779124065575840685e+00
-4.098831825700887777e+00,-4.064969864620883166e-01,9.831640019972186506e-01
-3.328317390016052091e+00,2.328090559026448680e+00,-1.290803172969956059e+00
3.924091723599947845e-01,1.663347650129579414e+00,-3.951860290881881621e+00
6.023349234736265212e-02,2.571565154785460994e+00,-3.462416092620905772e+00
-2.142719150529207361e+00,2.052868483450165371e+00,3.012428346936634416e+00
2.096820630711530853e-01,-3.478215127265823270e+00,-2.393935116989569956e+00
-2.189220823534468785e+00,-9.921997162620515009e-01,-3.385074984191716485e+00
-3.573277446965638648e-01,4.106960183424527955e+00,-4.607673320497944203e-01
-2.981802282586470398e-01,1.370866535543472375e+00,4.040644618529602994e+00
3.906784060275162229e+00,1.008460508586109361e+00,-1.375566964490715804e+00
-3.456444607694285853e+00,-1.365718380310315228e+00,2.102732530317073412e+00
-1.630758597033385549e+00,-6.443857999117021118e-02,-3.900663630626524547e+00
1.739214395001469127e+00,-1.409908992236001302e+00,3.614383116059287637e+00
-1.053513182949509019e+00,4.008228987729961723e+00,8.026072819732504859e-01
-1.354042698258007826e+00,-4.038304224546543253e+00,-2.559049840486891242e-02
-2.119996718813795145e+00,1.238663721744662993e+00,3.427004504529207463e+00
-1.371661193986811522e+00,3.506278945174282846e+00,-1.922401434582183155e+00
-3.311780948991537965e+00,1.164807286695450639e+00,-2.498660014094547854e+00
-8.450909845082913430e-01,3.307837253403594246e+00,2.592735789120374612e+00
4.085407460774693966e+00,8.387937513659109168e-02,1.105539284587321092e+00
1.910595940875515986e+00,-3.245333489253401815e+00,1.916771574393257627e+00
2.604745649889774306e+00,-3.150883091537974412e+00,1.070415735008416469e+00
4.215048805544959087e+00,-5.210270280484637917e-01,3.683457491518744853e-02
4.196976914657981617e+00,3.583441637386720058e-01,3.534614078492701594e-01
-2.513492530358893973e+00,3.176742076307614404e+00,1.299299931844282607e+00
2.254825553980921438e+00,-1.055801214706407976e+00,3.368736525552160188e+00
1.936184259446195766e+00,2.291660290791140309e+00,-2.951091854971310102e+00
-3.161348763488156965e+00,-1.841784292154717173e+00,-2.029008426463916326e+00
-1.985942669441471464e+00,2.712492016463699418e+00,2.626339265578879534e+00
-2.681138315055640486e+00,3.237507854328617984e+00,5.379335847277456617e-01
2.947880196740034542e+00,2.897214755908382067e+00,1.006220460731566124e+00
-3.287765307504824541e+00,-2.180989190368293418e+00,1.510414294137434776e+00
2.289809063718289295e+00,-1.521028009423438299e+00,-3.255094425822431248e+00
3.685591161593224641e+00,1.937263884520297186e+00,-4.481317302847676043e-01
-1.283970932250496411e+00,1.773089679843862676e+00,3.659604853416056791e+00
-7.912872131246075913e-01,-9.355476556931500987e-02,-4.197714879185105552e+00
2.037019520131575501e+00,-3.071726320407182964e+00,-2.125586087495379140e+00
3.616191871119160961e+00,8.413049594738138959e-01,2.122629379658078630e+00
-2.242675596837984953e-01,-3.598056314922469134e+00,-2.129254305765845956e+00
7.817289370221590650e-01,1.964130353515905814e+00,3.752574089771636423e+00
-3.334162873522473536e+00,1.002739022594376417e+00,2.470621045782957825e+00
-1.264501007763906948e+00,3.405942563356889052e-01,-3.949645538088359054e+00
-4.076623759778946976e+00,-9.496931822788878819e-01,-1.911358618503145868e-01
-1.212366221516216758e+00,-3.711209138659845586e+00,1.704001628334787188e+00
3.964055206378194640e+00,1.216707365135932806e+00,-6.206152627516188236e-01
1.151286293667955318e+00,-4.021000531650111398e+00,-5.781064493246801383e-01
-3.122286080445677570e+00,-2.817652007765931277e+00,1.249304503419507856e-01
3.099569945554304429e+00,1.615897056369300921e+00,2.350801573819895740e+00
3.863217977802213099e+00,1.468300675758725360e+00,9.824427458126863133e-01
-2.876988919524834376e+00,4.670178919162880637e-01,-3.160961703800170941e+00
1.150831458158226628e+00,4.117803185222871143e+00,4.383331707106756792e-01
-1.081211009594228889e+00,-1.982749167075086305e-01,4.154960239694442059e+00
9.636914454125777851e-01,-1.196272091018088624e+00,3.973718839324546170e+00
2.139207028080446715e+00,7.927582109713879888e-01,-3.615406364166910524e+00
3.804593877410928915e+00,1.791176965553027634e+00,5.124178399944975260e-01
4.007499475473109030e+00,1.222714596403844611e+00,-7.331134162618613281e-01
1.541503740655026378e-01,-4.063117613728833177e+00,-1.326106628697046652e+00
3.032411365583179030e+00,-2.176405000451186567e+00,-2.064097304487532814e+00
-3.534361425695223824e-01,-3.666458313168381888e+00,-2.143508050994417324e+00
-1.559066904102812012e+00,8.433060786151558297e-01,-3.814830898066300602e+00
4.127142482118768996e+00,-7.220771052660367451e-01,1.094832317196109628e+00
1.585457517199841515e+00,3.863522328610565548e+00,-1.138972933222486494e+00
-4.176137183951070142e+00,1.821161362401738371e-01,-6.312833995437177048e-01
-3.806398087689937704e+00,-1.142494118565491545e+00,-1.560843403700171050e+00
2.622787161284833690e+00,-5.612893470201445467e-01,-3.361978853693741609e+00
-3.595340002540855728e+00,1.055527411967340345e+00,1.889435965849230570e+00
1.863886489285452530e+00,-3.834056429886689266e+00,-3.816737010374506855e-01
-1.063618947423129901e+00,2.419934113917645124e+00,-3.245792138010096028e+00
6.212425992746441195e-02,-3.963400877071369344e+00,1.321292419097637394e+00
-2.197877045239793325e+00,3.340627121217355278e+00,-1.657410781693819946e+00
-2.802460104016028630e+00,-3.204719502648415652e+00,-8.189533038483480520e-02
-1.260260103325818060e+00,-2.645116854741287771e+00,-3.045692168500658159e+00
-3.483282397277265741e+00,-1.614899964488214046e+00,1.838402326130157416e+00
-8.061142797002526228e-01,2.041380457373927815e+00,3.638845385310254699e+00
3.266146831952816409e+00,4.548598789124915220e-01,2.782252888461302032e+00
-3.952256025396572614e+00,-1.394705312767572147e+00,-4.941412391500600854e-01
-7.479240407028959758e-01,2.256273775731610254e+00,-3.493488708682742860e+00
1.492999369619454786e+00,2.081300290695053512e+00,3.412129752117469383e+00
2.503980562074412664e+00,-2.049011506776182046e+00,2.842352860553847282e+00
-8.954846516425560843e-01,2.180669734360944911e-01,4.172635037766132982e+00
3.715969950199134342e+00,1.765068409560617724e+00,-1.144079471189484831e+00
1.923074988694821297e+00,-5.915850913009053080e-01,-3.788841265058025432e+00
-1.468524152154100149e+00,-3.636432367992102233e+00,-1.789307551578162458e+00
-3.758760889370783342e+00,-1.891762369721082582e+00,1.713349547195320288e-01
-8.241891833253114363e-01,-3.168794976258626939e+00,2.678020511171058438e+00
3.477442877840218216e+00,-1.792586905034391886e+00,-1.561355861243526322e+00
-3.690723428915540616e+00,1.698709309813392299e+00,1.225367332081956029e+00
-1.171006663896193345e+00,1.009409296730185979e+00,-3.992761512989190464e+00
-3.365554801871550872e+00,-2.470924715519093429e+00,-6.964380026220470254e-01
-3.338590198175797052e+00,-7.458408772640525708e-01,-2.471907946479594109e+00
-3.548660058284279550e+00,-2.204506989136945094e+00,4.503383870312106102e-02
-1.868753002347864234e+00,-2.214267054751680064e+00,3.103271362835484215e+00
-2.405177787386270916e-01,-3.949013609018470206e+00,-1.615469535877180451e+00
4.824101900690120348e-01,2.491145310332023133e+00,3.333698728152769686e+00
-7.438420566410299806e-01,1.630630994742148898e+00,-3.840665941622174895e+00
-3.409889069305269249e+00,-1.640334788146195377e+00,2.055982462546102063e+00
1.215152675366844459e+00,-2.177158670268958929e+00,3.511477407408408080e+00
-3.301980736103923064e+00,1.421054460247750839e+00,2.437743484208379829e+00
-2.186182622583314195e-01,-2.486556156503080484e+00,-3.553720374155553419e+00
-3.939146041673435850e+00,1.617577340527290020e-01,1.418228346815191276e+00
-3.323365278168591286e-01,1.785404295964670762e+00,-3.845300878721721105e+00
2.247634094408979877e+00,-1.642523160351998746e+00,-3.214286889616253085e+00
-7.650107929433334064e-01,4.236160483990972558e+00,-6.145986097824459454e-02
2.074131293495783179e+00,-2.239628669088023383e+00,2.919121016654945056e+00
2.181025768447662383e+00,-3.369745330743861178e+00,1.215029817998835027e+00
-4.197621481152445710e+00,7.592970075263830720e-01,1.480836184957541601e-01
-8.389501664656054958e-01,3.255703971922320417e+00,-2.631192625103209615e+00
-1.726388856141375827e+00,1.106817904619727067e+00,3.700182880098593863e+00
-1.312956513246769319e+00,2.216244764793770639e+00,3.317717273509992904e+00
-2.595337535929620021e+00,1.069212851972198619e+00,3.243990518261429923e+00
-8.778098308118774673e-01,3.650599570248861170e+00,1.978610402121572021e+00
7.998886908551696706e-01,-6.421015498587765435e-01,-4.201959233355332834e+00
3.052652039450170829e+00,2.995673520183171235e+00,4.688820948729137406e-02
-2.542981039624000683e+00,-3.211119068393115228e+00,-1.116930075493974606e+00
2.163194604964159495e+00,3.600295431742351671e+00,-7.273852546636977445e-02
-1.705556328807689592e+00,-1.111835612063497791e+00,3.700331593552298237e+00
-1.498920200265915659e+00,2.126921513666784946e+00,3.376374616101910142e+00
-2.507719698036927181e+00,2.583921323674081449e+00,-2.314324636652819400e+00
-1.735384670283200537e+00,3.344571437682640980e+00,1.993722822358231950e+00
4.264143837550658844e+00,-5.292662891248747226e-01,-3.107711953523752957e-01
1.890860398224752714e+00,-1.685445512934837797e+00,3.321240188821623640e+00
3.484461502507841146e+00,1.731850867961445828e-01,2.394229583940072459e+00
-2.521427301103821073e+00,9.013724996426124569e-01,-3.273535537346173641e+00
2.571031619629766674e-01,-1.256352539262320711e+00,4.115373655037822154e+00
-3.541362132775510707e-01,-4.189499795444434405e+00,5.835680508250636889e-01
2.701690592741575081e+00,3.351872599678598519e+00,1.294056271332345853e-01
1.599894622172234881e-01,4.009976064277270602e+00,1.337908595472915296e+00
-1.732300535872537406e+00,-3.764564624751026933e+00,-8.588300946592936080e-01
-1.037956870844329860e+00,3.508915200311334193e+00,-2.097748358700122662e+00
-1.930991732415092477e+00,-3.403894855815434717e-01,3.857946031188917768e+00
3.919065670871272111e+00,7.604745516931253890e-01,1.227368015744409346e+00
-3.238522773457921389e+00,2.672139047064628681e+00,4.216790295253062260e-01
2.711580447544069461e+00,2.901377770046055904e+00,-1.212414222987560963e+00
-3.672109516840466714e+00,-2.062008203353065561e+00,-3.369566225807009707e-01
3.589218906030758660e+00,-1.431069837193427174e+00,1.726136851774297432e+00
-8.738821835773925573e-01,4.006742549242336082e+00,1.135155366873876526e+00
1.811851171927341353e+00,-3.441793252076599696e+00,-1.632999714792288781e+00
-2.371433633440223954e+00,3.511937192340100378e+00,9.678384664322117747e-02
3.413393554430773857e+00,-9.140574088230166705e-01,2.339295491603509802e+00
2.673113529577561653e+00,-3.404883700620549458e+00,6.174279602989239946e-01
3.688408198844448815e+00,1.297867290218226000e+00,-1.630193503981613334e+00
-1.558035650966409280e+00,-2.655343616773807813e+00,-2.853362458706213634e+00
2.657028665908993670e+00,3.268869376490212364e+00,-6.684501083050418124e-01
-3.052351544902425218e-01,-1.910453720629315955e+00,3.783917111545334500e+00
1.184529735484443069e+00,-1.507832699202812154e+00,-3.827727781374951732e+00
2.454590551208136517e+00,3.284727211304577121e+00,-1.085834323816043279e+00
5.115555085776871680e-01,-4.193098041890539029e+00,-9.062830592255434192e-01
5.296801129341041081e-01,-3.626903677306076546e+00,2.188871891408878056e+00
-1.728953797889521748e+00,2.780441333699978479e+00,2.701253205656246603e+00
-8.078896701835214245e-01,-3.731972315153508912e+00,-1.770283358044212552e+00
4.099839824725536097e+00,-1.293604919719164026e-01,1.082728111989289310e+00
7.477471923652391841e-03,-4.100117644561509955e+00,-1.096052110721805084e+00
2.840381996988350366e+00,-1.486547476677049451e+00,-2.767429327607382916e+00
3.719315463734712335e+00,-1.925299709715923013e+00,4.090930390880561512e-02
-2.311158630897047761e+00,-1.705890075981586040e+00,-3.050659042878457239e+00
4.238569329239844308e+00,-3.633247811377515735e-01,3.163985960833158861e-01
-3.220043021176243414e+00,1.751968835982566475e+00,-2.125215871633685527e+00
1.584898905267041025e+00,-3.852208455767496265e+00,-6.904418643741423445e-01
3.252427280472561133e+00,-2.615740116105253144e+00,7.018570601204019432e-01
3.210564121266462401e+00,-3.224326737685647565e-02,2.890224236171937466e+00
7.551660491589546886e-01,4.169962505824627463e+00,-5.311217461795405548e-01
-1.432101219879073684e+00,3.274859473863200421e+00,-2.342945811169689030e+00
2.433487366983271283e+00,3.366022664988848945e+00,-4.862277541064404796e-01
2.261811522101189631e+00,-3.136940173806503918e+00,1.990676955125860736e+00
-3.951309851593729938e+00,-1.648979979826842079e+00,1.853182759659745826e-01
4.160734760653808095e+00,4.883648175591476237e-01,-2.510087553340127342e-01
-1.863847940664608460e+00,-8.905503976294748547e-01,3.707184030400863861e+00
-4.090906050980751552e+00,-5.225655266835352863e-01,-2.013490620279680954e-01
3.979500192738504527e+00,1.334219013533214371e+00,8.511788179669962373e-01
3.859122790494376343e+00,5.543952316555108562e-01,1.506196284488279469e+00
-3.070820537712947385e+00,5.903622822120795366e-01,-2.877150963541490025e+00
-2.865175406686135684e+00,-2.473046546859934303e+00,2.082301805383812709e+00
-3.180361632984752274e-01,3.781685322783740144e+00,1.999468512213909310e+00
-2.832588128303238140e+00,-1.087306776013198473e+00,-2.954514240623127730e+00
-3.085885643668534684e+00,1.442150050246595816e+00,-2.490196262751322998e+00
-2.480864445145938291e+00,-2.405959206100762859e+00,-2.394745615925147675e+00
-6.225805400152240043e-02,3.140342078802890402e+00,-2.903987153436726754e+00
1.004760577375157560e+00,1.987722452358628544e+00,3.725288147350163559e+00
-4.252043192583637499e+00,6.152361990637740252e-01,-1.044918143679657851e-01
-2.007615735530533296e+00,-2.507485121147283724e+00,-2.731606168740382756e+00
3.233677376797347236e+00,2.275592382123198920e+00,1.439636517352278489e+00
2.656371400180355558e+00,2.128464372704790275e+00,2.586873591116841453e+00
6.638038544950546349e-01,3.305096758311514282e+00,2.646941712077397479e+00
-6.149227660165175191e-01,2.158606563226781905e+00,-3.582209691154626174e+00
2.506148715193838417e+00,2.447583251936078508e+00,-2.313922619208659714e+00
-3.651124272806141491e+00,2.126627511329954423e+00,3.012780709274422986e-01
-7.486296801776425036e-02,3.485920621286076493e+00,2.441505889217852054e+00
6.431285743754738826e-02,3.165565303040182688e+00,2.830730087415822549e+00
1.122078619012468526e+00,-3.633377739690536457e-01,-3.996727378064181657e+00
3.949769095991370604e-01,-4.239076963148832533e+00,3.624857951134530243e-01
-2.089059622433590224e+00,3.394121984764395528e+00,1.181119684489316812e+00
-4.200741322905032216e-01,-3.010212072978387887e+00,2.902616847013844037e+00
-3.472560201850388495e+00,1.966370639772207829e+00,1.717075860811161814e+00
-2.723609236668046218e+00,-1.254243725735866066e+00,2.957433711693350453e+00
-1.688052651957409500e+00,5.130550936628229808e-01,3.852202594994329488e+00
2.227334467862914558e+00,3.589100963954807266e+00,4.316303372175478437e-02
9.601751432816314491e-01,4.018566037863929630e+00,8.723146881401022679e-01
1.465020463134685702e+00,2.806271087726467606e+00,2.756069219661095193e+00
-3.764032799961287257e+00,1.330325094838854305e+00,1.543406123004154251e+00
-1.580048349305783528e+00,-1.029095703246382554e+00,-3.807665565929392315e+00
-1.724043186131700489e+00,3.688539130353521767e+00,-1.180326140365208776e+00
-4.298069928298944298e-01,3.293012355420150694e+00,-2.613670656111746649e+00
1.336105400777193308e-01,-3.407069164268083927e+00,-2.552951972095514943e+00
1.019958732269399926e+00,1.317644405704001764e+00,3.916132020984544049e+00
-2.381879507023805687e+00,1.379170915596343638e+00,3.347094753870746064e+00
1.046623572636874000e+00,4.088311198445365058e+00,-6.468874246968502328e-01
-2.384156499523783612e+00,3.572944181604187364e+00,-4.048811403085714744e-01
-2.860090723968003790e+00,1.221561301205146000e-01,-3.179984358576301240e+00
-4.432583879141919203e-01,-1.191356486312731278e+00,-4.030692922297957281e+00
-2.350490074865092816e-01,-1.803847763353383371e+00,3.892235703093425592e+00
-2.914399109850445146e+00,-2.205405625447478979e+00,2.138067332432803891e+00
-4.131749421794138399e+00,7.844985325567269685e-01,-5.628110975221773948e-01
4.246969781920796549e+00,1.379928506240113151e-01,-5.808115736105136893e-03
-4.208677796691012496e+00,2.497116248873242905e-01,2.756922695896502074e-01
2.510127883537222271e+00,2.423055977471052724e+00,-2.570380826544104824e+00
1.354826934314422027e-01,3.902906836129371282e+00,1.587986747748751926e+00
-1.410967701722599221e+00,3.076389725871283787e+00,-2.579296181496153473e+00
2.122785273601207834e+00,-2.813099960729329219e+00,2.185486003537075117e+00
-3.499788179094451390e+00,-1.787735399735227437e+00,-1.597176949272167690e+00
-2.682443646967550777e+00,-1.919881015345268560e+00,-2.704237900093983349e+00
-1.504880932024774021e+00,-2.469738102884019515e+00,3.080295028061326157e+00
3.643730872305128710e+00,1.744797741645896516e-01,-2.067905685712485120e+00
4.029421033785413719e+00,-1.414379899640781924e+00,-3.644983580480015695e-01
-3.916989220541817751e+00,-5.396854391280733187e-01,1.621491647364980526e+00
3.552736527321573412e+00,-7.532288409668863594e-01,-2.031482379047996112e+00
2.354265495104006511e+00,-2.852069926570187874e+00,-2.200126385276691021e+00
-2.829228972980390999e+00,2.516896138530475113e+00,2.023148748555312793e+00
-2.523650145369050968e+00,-9.989667375582014230e-01,-3.223342192489518698e+00
3.567544961841762952e+00,1.399093042006386733e+00,-1.908665452283587971e+00
1.968852047155145724e-01,4.237189616921187785e+00,-3.019541139515511952e-01
-2.454250458586106021e+00,2.906347246967017739e+00,1.955679636221524298e+00
-3.587688837213977688e+00,-1.826674773769067395e+00,1.448408564162334100e+00
-2.068782104672956645e+00,-1.742814933160535595e+00,-3.315001524938239186e+00
5.273478162109090928e-01,-4.120479452900921657e+00,-1.122105817455323118e+00
5.546374096874082671e-01,1.867147106857122152e+00,3.796675233183699483e+00
-3.352870020469495671e+00,-1.727990514148336487e+00,-1.995597841229835856e+00
-3.890853741290081214e+00,-1.663077990706520071e+00,4.266828000876894955e-01
2.310756201904420770e+00,-3.295224386994086707e+00,1.463775439280058821e+00
4.000821643811248940e+00,-5.533485096773387291e-01,1.155237435305333848e+00
-1.435839187913299675e+00,8.649856604168837393e-01,3.951979751119082174e+00
2.264422075024584924e+00,2.776277206935154229e+00,-2.210679756431871201e+00
1.423435956922222800e+00,-2.747501079193708229e+00,2.909454629288051652e+00
-3.783973905666990212e-01,2.589345591818105419e+00,-3.409531172094531826e+00
2.890200809259596326e+00,1.645187414251148561e-01,3.045453647842451872e+00
2.792485683713654687e+00,-2.178942589723108281e+00,-2.388974479913856808e+00
-2.824522808693788800e+00,3.047503517333569611e+00,5.544455665591144777e-01
2.730661229945934299e+00,-1.935017994697986410e+00,2.541049752794955374e+00
8.015114046568343475e-01,3.900936036295903797e+00,-1.480815468988867956e+00
2.596434862507418284e+00,-3.288855138192011474e+00,1.059724345448072452e-01
4.278766177762003409e+00,-6.305101114892056602e-01,3.154709470314098207e-01
-7.533215219921495232e-01,4.015244336693344351e+00,9.027143615322537062e-01
2.412298630758785922e+00,1.162395767441338323e+00,3.280097437093462354e+00
3.915697424611549238e+00,-1.059751219520054688e+00,-1.133913716926347792e+00
3.492808479058727045e+00,2.317660034441478611e+00,2.412018519930184401e-01
2.074930974467565914e+00,-3.616308172780414942e+00,7.680301918129874839e-01
-2.233153665517298325e+00,2.648324765888590004e+00,2.345533735835283462e+00
2.267523956887795844e+00,-3.554102561413589711e+00,-4.338532089120444857e-01
1.240775249629289867e+00,3.182539965285465122e+00,2.559872441921028141e+00
4.132651789610522819e+00,1.135173695350639861e-01,7.922393833420994236e-01
-3.703931177873181824e+00,-1.446056860367148422e+00,-1.479476558791822605e+00
-2.291949329906379784e+00,-1.233551827709931326e+00,3.284781514016431814e+00
5.380055373764087295e-02,4.178304725079700077e+00,5.894518769244943002e-01
-2.388571940818337680e+00,-2.879105835411002179e+00,-1.828821203360144532e+00
-2.031361555259285634e+00,-2.022380299561038708e+00,-3.097585103422652697e+00
8.711218378192268075e-01,3.018214984003876111e+00,-2.807726417484478709e+00
-4.077186937395838484e+00,1.249205612276584665e+00,5.497589983017552306e-01
-3.283590472210211608e+00,9.793551619755621607e-01,-2.542951674327435629e+00
3.473139261263579858e+00,1.858705874549239745e+00,1.581917028923523594e+00
4.024237313567976315e+00,6.097429508564942147e-01,-1.265259620228322168e+00
-4.087193570360023287e+00,1.028795620942786648e+00,-6.080629444539954465e-01
3.343401217443815021e+00,-1.886685714386155066e+00,-1.950767946054656310e+00
-7.010903952640411552e-01,-4.129909516103461797e+00,-6.451754247754080129e-01
-1.626111867074381490e+00,-3.845716354711576024e+00,6.054030518241012571e-01
2.062228617194846514e+00,-2.933771471705067135e+00,-2.387353308696356091e+00
-2.220856048428773821e+00,3.640385527838994051e+00,-2.247855225937546442e-01
9.500131115328036557e-01,-1.433523538340902626e+00,-3.875794596877915055e+00
2.476485003432934651e+00,-2.543761416176153478e+00,2.334390129215320187e+00
-1.349309703644022695e-01,-2.471908457455228803e+00,3.438638505872647411e+00
2.300004896164398183e+00,3.595764454187825088e+00,5.038611911260034715e-01
3.286876493402783872e+00,-8.478549189482307291e-01,-2.578945938244546987e+00
-1.249850822339064305e+00,-2.643736588025800582e+00,-3.093840276186426763e+00
-1.619647770732764114e+00,-3.134375894487441361e+00,-2.363992993202859605e+00
-6.811998679060035089e-01,-1.118456811631181047e+00,3.943233622689728435e+00
-2.390146531116693396e+00,2.159851423034910400e+00,-2.674554670028030490e+00
-3.161862167579715166e+00,2.811267944858369283e+00,5.274033408020228908e-01
-2.372347542762088146e+00,-6.389067217098958196e-01,3.525835185189983623e+00
3.375176892034787102e+00,-3.176929647124094869e-01,2.608375939093496410e+00
-3.389322211991210310e-01,3.733669076170548884e+00,1.899433792348935723e+00
-6.631886157753356104e-01,-8.635841103964958521e-01,4.172289485847455737e+00
1.990510204426388485e+00,-2.902620387550406966e-01,-3.770795099235487502e+00
-2.430393445383333795e+00,3.380316011432868972e+00,-2.097376901530066673e-01
-4.022462472399699784e+00,-1.192988835860194996e+00,2.560801279656058638e-01
2.745084449717491992e+00,-1.586114105277469433e+00,2.776282326392319089e+00
3.901233113835695931e+00,-1.391728333010269214e+00,8.598341084265512801e-01
3.136800875769257591e+00,-2.635072922860648426e+00,1.203873649924364964e+00
2.158433640059227443e+00,3.155228219844121162e-01,3.645944051848434064e+00
-3.540274479246146910e+00,-9.286284867167390322e-01,-2.165242873127577905e+00
2.408702813535796405e+00,3.186819353133977906e+00,1.134024993581952634e+00
-2.810507746788706740e+00,-3.219272021449707033e+00,-3.174831461556571477e-01
2.909937599534788144e-01,3.473460997674619133e+00,2.441116953630320108e+00
1.363838104176613886e+00,3.618937037207499596e+00,-1.735134568772380925e+00
-6.864526098267542675e-01,-3.475065171251863205e+00,2.390848684973432725e+00
-1.094366659320713309e+00,-1.809059520234761742e-01,-4.071683230226310179e+00
-7.710460284185731705e-01,-1.155918619964444762e-02,-4.171009157817686663e+00
-6.850260013404287918e-01,-4.070260356051488948e+00,8.788291570710781153e-01
-1.844357941581023841e+00,-2.585786613145727220e+00,-2.792563441479934738e+00
-3.500009772512701289e+00,2.294218343897581835e+00,7.604170854922184253e-01
-2.150790599027497252e-01,-3.121160863440537891e+00,2.902457460944391165e+00
9.316160696115712014e-02,2.669784515055863672e+00,-3.247320670198327264e+00
-1.025985129590861966e+00,5.384671070182520669e-01,-4.061369455448053500e+00
-4.254412471914823968e+00,5.099854295681730543e-01,6.501901446743582058e-01
8.999802107209271540e-01,-2.443904837475480818e+00,-3.371483533549533895e+00
-3.254152681438691630e+00,-2.735999684123266551e+00,-5.291955103632283164e-01
1.331140706751841485e+00,3.704420345119546099e+00,1.574368578019497145e+00
4.118326694561918799e+00,6.454383561139810377e-01,7.666761729466012865e-01
-3.625863703194225796e+00,7.530265236043386379e-01,2.096573745280823076e+00
3.368218052073166824e+00,-2.599647315576579576e+00,-6.529634643441771802e-01
-1.755192279992354276e+00,-1.572846581546191835e+00,-3.545742645414385663e+00
2.033776766970392558e+00,3.645295130205092882e+00,8.347515161398383343e-01
2.224300612003091260e+00,4.354190990202759168e-03,-3.542234165514092314e+00
3.446807180810461890e+00,1.493646888997653133e-01,-2.573914377285873911e+00
2.256746541340801659e+00,-2.295635848476866414e+00,-2.751491505149386008e+00
-4.128721591424225679e+00,6.709349791045110534e-01,-3.723886894669569125e-01
-3.008802202904132361e+00,2.054711647183512291e+00,-2.185467898598712377e+00
3.552527581485295460e+00,-2.334313067739924197e+00,-3.662603369347893767e-01
1.998070873195518127e+00,2.643926383482841924e-01,3.664550899209540358e+00
-1.880523939120833932e+00,-3.457403244279438681e+00,-1.628314038492838955e+00
-4.411445480893659843e-01,2.666978670244338101e+00,-3.220442902385225459e+00
-8.202589628834728863e-01,-4.136367945092957576e+00,-4.255794949765870361e-01
3.572752701816798382e+00,-1.535837575547797984e+00,1.730044857833872074e+00
-2.623018118409718991e+00,3.174872430213716790e+00,8.075233831474263324e-01
-2.454095713906888077e-01,1.429341345972160449e+00,3.965520227344808468e+00
2.458449619121035656e+00,-2.867505174533536483e+00,2.025167284513200716e+00
2.029651018948247287e+00,-2.740718394557984716e+00,2.485830967853613238e+00
-1.012216083955207235e+00,5.778723559736644866e-01,-4.160732991822765570e+00
3.629084273203138533e+00,-1.349005221153008804e+00,-1.713168923391253262e+00
-1.125408916051617858e+00,2.340612547794855836e-01,-4.038680249214432472e+00
-5.228880389793412464e-02,3.208270145868791001e+00,2.749846994673248446e+00
2.293286425040345300e+00,-2.905814355319269904e+00,-2.060481546586662827e+00
5.364003168018087742e-01,2.993110941884556286e+00,2.955631088288767305e+00
-8.170735143474373574e-01,-2.356115323411234641e+00,-3.483401492277590883e+00
-3.101081207090566672e+00,-2.868756465497049213e+00,1.528721933869489902e-01
1.522817025121768308e+00,-3.860245901920479117e+00,7.217287931630249620e-01
1.557336273431284113e+00,3.933972504607410769e+00,-2.528212531865389051e-02
3.663648587550463631e+00,-9.419420722517505284e-01,1.897904334297938478e+00
7.363712053549668068e-01,-2.590233115110006423e+00,3.273883274208273519e+00
4.161433224187534030e+00,4.114602838225608905e-01,6.626566364713797341e-01
1.147890177005651102e+00,-2.974274463139810365e+00,-2.824627551555607852e+00
-1.909410454591054407e+00,2.027814685702384878e+00,3.210334813599930559e+00
3.228115859601648374e+00,1.266447276136471789e+00,-2.424190696517278809e+00
-2.583645606240099646e+00,3.377916704970443273e+00,5.723478094266850613e-01
2.773310293438360219e+00,-3.266622978473642025e+00,1.182636069637276605e-01
7.829793147184169744e-01,2.224357117989814281e+00,3.548824375258969877e+00
2.550765462006498563e+00,2.875088173800753655e+00,1.722808564119329144e+00
1.345410808877913089e+00,-3.003826862288909716e+00,2.706054812179282010e+00
2.428419630333962520e-01,4.096291014481796111e+00,-1.175456764471168203e+00
-1.630189494483457180e+00,3.831469572716169392e+00,-7.655600200594360194e-01
-4.203581493573769201e+00,1.933255224986514809e-01,1.069002018428382300e-01
2.194044007895656456e+00,3.604613139521109400e+00,-1.298282971934626995e-01
-2.325287934760801534e+00,3.125306688275628630e+00,1.856941734777973529e+00
3.140374436681868886e+00,-2.796792418696135485e+00,-8.746143121941420961e-01
3.430983897822880824e+00,-1.828924694523423877e+00,-1.796233886722199413e+00
9.405742544667597960e-01,5.960949785437325010e-01,-4.041158705367993598e+00
6.772967300601623331e-01,-2.635522242471660892e+00,-3.314536497825812944e+00
-4.251935858818890246e+00,-2.166761508679253961e-02,-7.500678302273187104e-01
-3.987753909184959422e+00,-1.453582597570423518e+00,2.828973974808572933e-01
-1.929202546568965948e+00,8.877348462076839475e-01,3.630668708965356206e+00
-3.242261639275423768e+00,2.281813669645508913e+00,1.547535469950946041e+00
-1.440922345681258099e+00,3.528464556986709688e+00,-1.986857344957253080e+00
2.880208301135690263e+00,-3.010386999584600876e+00,-1.124125177828477984e+00
5.846745106576244355e-01,-2.056087695105889068e+00,-3.669026310964621729e+00
-3.363630617011012625e+00,-2.514669981922291964e+00,-5.416433777167287689e-01
-1.701808690375974153e+00,-3.400546666315269473e+00,1.840735389889004425e+00
-1.675474497075922997e+00,3.658872083856114177e+00,1.551082680365910127e+00
-2.556957706607686287e+00,-2.505819207351493993e+00,2.337585322191044312e+00
-4.016095964943767527e+00,-9.212694889789194708e-01,-1.081908721382429439e+00
-5.498114886028843129e-01,3.403552624182819120e+00,2.507921589666456619e+00
-2.220137284298119074e+00,-3.545005013194373777e+00,-9.616916492812486172e-01
2.047027521163205854e+00,-2.742044057537051494e+00,-2.526640307003695352e+00
-1.590353092936920731e+00,-1.715512524205816458e+00,3.514046962915565953e+00
1.964973266158753340e+00,-3.409565111554174077e+00,-1.584952115643172288e+00
2.889646132504535725e+00,2.032361351921824433e+00,-2.353176441556612986e+00
-3.627610095841543369e+00,1.692063298682017658e+00,-1.519569975782787408e+00
-2.953385857214235743e-02,-4.207149575697875399e+00,9.467538822265637866e-02
-1.278270797540297821e+00,3.955780437176640518e+00,-8.569991856551755216e-01
9.007516369317659644e-01,-3.982392356834838498e+00,1.051627220000440177e+00
1.090710422384766343e+00,3.996039405884946216e+00,-8.815361935157193241e-01
2.367535872588836021e+00,-4.433724829532807721e-02,3.569157309952652124e+00
-2.143236729467555612e+00,-2.568563643484518266e+00,2.626436046681963177e+00
3.402915321375031610e+00,7.067238624136955583e-01,-2.434796050710188009e+00
-3.516978537067806942e-01,-4.151961727651048761e+00,-6.718634964534875298e-01
-3.082820065592549064e+00,-2.786311881500799004e+00,-8.712620078476310814e-01
-1.582000858276915389e+00,1.064634032674748321e+00,3.746088231263350110e+00
-1.536434449973018257e+00,-1.454376680916343867e+00,-3.707343737280790918e+00
-2.583607270814067824e-01,-3.985944920853367268e+00,1.620748946078351960e+00
3.390779510629419846e+00,1.860437387222837913e+00,-1.791829877584254049e+00
6.870259369554720941e-01,2.939897798825350073e+00,-2.895943659760478628e+00
-1.704236086769354674e+00,-3.578267108970802024e+00,-1.346006291229838059e+00
-4.071654702595893127e+00,7.143676337728721570e-01,-5.571726167027998278e-01
1.171009160401474736e+00,-1.875613737935442948e+00,3.592878261112711691e+00
-2.930388070328824868e-01,-4.284690013046756896e+00,4.590770343694856037e-01
-1.207576730817926824e+00,-3.370502905973108199e+00,2.347835235703926493e+00
3.381341088566467867e+00,-6.741522152970983450e-01,-2.536930055620368663e+00
3.083492756642765009e+00,-2.858432270604382541e+00,-5.026413601060341074e-01
7.635879130286391536e-01,-4.171102888514749196e+00,-2.362089376401635687e-01
2.235566232928997810e+00,2.982394807113584179e+00,-2.231048610435468760e+00
7.080361209259157240e-01,-3.795219966839019854e+00,-1.883320968751935442e+00
-3.018986592375932698e+00,2.700114380676091330e-01,2.987387336421391204e+00
3.767862532774215012e+00,1.969692136515958536e+00,5.762979834086995323e-01
6.345171846965517171e-01,-3.897242843625853048e+00,1.662838745406779895e+00
2.820662469584195087e+00,-6.632604277996165809e-01,3.088342881368509207e+00
-1.893705639929439855e+00,3.445650312566536755e+00,1.476317105405049679e+00
1.197550190950209981e+00,3.414959587375880901e+00,2.349029745114429968e+00
3.049792903966285440e+00,-2.366182732292752833e-01,2.923138111929912686e+00
-8.178180605844224960e-02,-1.150370010772518548e+00,-4.093783409351730462e+00
-2.266600041699104118e+00,-3.155049698986598816e+00,-1.799016875640867985e+00
6.754381203035849657e-01,2.255851977506360129e+00,3.473330994679693529e+00
7.235166979955719446e-01,3.549134025367126632e+00,2.289513978748185519e+00
