-4.361387260566839674e-01,3.168507039106005063e+00,5.738255885579481408e+00
4.487385978890094940e+00,-1.760551333120610185e+00,-4.374942014386976830e+00
-3.548984273906034659e+00,1.654896362162441514e+00,-5.132749261043088929e+00
-7.434502408649153182e-02,-5.941801251762814928e+00,2.684100976151531093e+00
2.398734575880955511e+00,5.847421347939248726e+00,1.394718767877218601e+00
5.435473147475224920e-01,-6.324139675819802076e-01,6.590587763389399001e+00
-5.106777195347955711e+00,-3.460875556553271171e+00,-2.099426474432202649e+00
1.635593120122186495e+00,3.855533462343987416e+00,5.043659021266090114e+00
5.889972175521918096e+00,-2.800594333776958766e+00,8.128561174741284756e-02
3.717162561279283572e+00,1.372670073773634425e-01,5.362929241383793233e+00
-4.577717927261259478e-01,3.182479298053259020e-01,-6.412633319436437773e+00
-3.121917646983840555e+00,-3.791078060557189211e+00,4.326200390635364101e+00
3.513100875899456632e+00,5.257515288512216500e+00,1.528730088418586153e+00
-7.045478998233012380e-01,-5.752079978057936804e-01,-6.491496461001958096e+00
5.880351855194722033e-01,-2.394956836303951064e+00,6.008642919235696489e+00
1.015380894686198410e+00,-9.808292225819796872e-01,-6.359959758649875283e+00
2.360865219338842191e+00,2.105740929227814195e+00,-5.626303640647693172e+00
-5.906289430221232095e+00,-1.104917481998077600e+00,-2.663795920855744015e+00
3.621005198199511721e+00,4.676526700030808392e+00,-3.049673720459388893e+00
-7.127779758114175523e-01,-1.500817633700514575e+00,-6.256329288168178238e+00
-3.283582060590700458e+00,1.021476953177153507e-02,5.732486409064690314e+00
-2.145257706684004173e+00,2.471064039214620145e+00,-5.694770813806109722e+00
-1.967390173053988889e+00,-9.038298341056457685e-01,6.163225013116506723e+00
3.130598378360637923e+00,5.374035850278196413e+00,2.029884235316496532e+00
4.920122276346726942e+00,4.330966075655108050e+00,-6.391263581831052587e-01
5.561221061596180348e+00,7.309374875308370934e-01,3.481096031093125376e+00
-9.419615562828856925e-01,2.866308741151006867e+00,5.732085137294873789e+00
5.185265673089330285e+00,-1.847120632571406684e+00,3.905957515165212612e+00
2.627139788668589659e+00,1.963344052878922774e+00,-5.656507947845479833e+00
2.114576725713128713e-01,6.337360934715330352e+00,1.544689746221441951e+00
-6.402914195804607189e+00,1.568233060680839452e+00,5.111426904926672510e-01
2.646811793754768161e+00,-4.806486366440721802e+00,-3.516529242347093742e+00
4.516962789954507507e+00,-4.686424296703425085e+00,-3.576579301284426443e-02
1.282689804187014060e+00,-6.914095368766053351e-01,6.311644472314865695e+00
1.085909302634405771e+00,2.323993965984836318e+00,6.124483559632536434e+00
1.964210805701164020e+00,3.843736526408227938e+00,4.955351790119761013e+00
5.814703951467246945e+00,2.804191005702421524e+00,-1.382932243617983059e-01
-1.859877309669032419e+00,-5.959065311888537941e+00,2.016169275291301854e+00
-4.364066016946247295e+00,1.145216352523064973e+00,-4.672371514214969324e+00
5.259911119303538385e+00,1.221997189390063576e-01,-3.817039646335608438e+00
5.700303796852413285e+00,-3.098161593785976109e+00,-1.135172854457710656e+00
2.583115581768876901e+00,9.627821832118116374e-01,-5.879892455210365299e+00
4.901756740448070637e+00,-4.205712593097998386e+00,-3.271446813273410914e-01
-4.820906119480728336e+00,-2.619153444601759695e+00,3.599804843119356779e+00
4.904600236777048039e+00,-3.149930358801540375e+00,3.083095311821344442e+00
5.809567923688334190e+00,-1.143983597570273458e+00,2.603703935778243217e+00
-5.418931400380150976e+00,-3.046646526390942356e+00,1.834724794980315599e+00
3.915677792379711253e+00,-2.323328943712266170e+00,4.643433224695677985e+00
-4.226180358185341324e-02,5.943498049284814400e+00,-2.309633286470770042e+00
-4.011774915674148900e+00,-1.418007316407162266e+00,-5.071938884645416756e+00
5.929464803250020566e+00,2.387356133453798268e+00,-1.360881331755788848e+00
-1.685219853381866750e+00,2.156291842387669799e+00,-5.868141581661936890e+00
-2.140199536459632235e+00,-5.745857467668948892e+00,-2.442722894094835784e+00
5.452116514506455403e+00,3.195307571679441683e+00,1.141524266424742029e+00
5.618790219169941480e+00,1.644543454182405995e+00,2.756430404836947012e+00
-5.246294971564162246e+00,3.584806979198211341e+00,1.086050643843983643e+00
-2.091015155755811428e+00,3.154775198120929325e+00,5.311381278039577936e+00
1.873163828380534079e+00,8.325163082011564075e-01,-6.040594637250919163e+00
3.173005660160881813e+00,4.354835238874090741e+00,3.541352186615112974e+00
-4.564528227876057720e+00,2.631452625134418910e-01,4.645827739423227243e+00
5.149099015475528063e+00,-3.714369989239680869e+00,1.506096285922438938e+00
-2.863548849829288478e+00,-1.058435126779279090e+00,-5.663911748385214828e+00
-9.789268190347354404e-01,-4.620123970921747869e+00,-4.587586174109586246e+00
-2.198095109777703726e+00,4.017845065711999619e-01,5.921130104236679514e+00
8.531566887115583642e-01,6.136102954840869650e+00,-1.691148653348728992e+00
-5.119081726418455602e+00,-5.246243184189913755e-01,-4.057104504365006470e+00
-5.198300809308449288e+00,3.766067122218090812e+00,7.058156140975956339e-01
1.671008247015394632e+00,3.146274375877925467e-01,-6.209374317347071681e+00
-4.231440023815296492e+00,4.792806395312330103e+00,1.516187597194391001e+00
-1.048726771838528193e-01,6.205155110890377301e+00,1.801451558109130158e+00
5.101576505158878838e+00,2.034358650557952064e+00,3.484428046860681416e+00
6.402144793098633713e+00,1.865237943791480113e+00,-2.309379660904179732e-01
4.593318464491215281e+00,-4.000284749439941834e-01,4.516160326959099081e+00
-2.455097333379006930e+00,4.299356386257300322e+00,-4.457592575127698353e+00
-1.313774205615343194e+00,-7.670936057887808301e-01,-6.358947153239483008e+00
3.439878610643797963e+00,1.213294366618013598e+00,-5.424422775520581830e+00
-4.836671437923072858e+00,2.558420219207300672e+00,-3.451823032057592222e+00
2.197132384597916044e+00,4.278134742765978160e+00,-4.200589464107121529e+00
9.871656688267300972e-02,-1.328548156694110138e-01,-6.552057984309198169e+00
2.146607591657981873e-01,6.237337355070864398e+00,-1.937860501061523522e+00
-6.271079201245136403e+00,1.677240496116034096e+00,-3.754084285165454338e-01
5.733868815610080327e-01,-4.633233300841395952e+00,4.629627726664670817e+00
5.865444534551650158e+00,-1.719066128319548747e+00,2.204307979871709122e+00
5.904803840163687312e+00,2.091044814192414947e+00,-1.877146715561000656e+00
1.619904393944030241e-01,6.244209432043040131e+00,-2.151057307800509744e+00
1.030234921761623346e+00,5.580943958576985331e+00,-3.404825227041253566e+00
3.996912483721871912e+00,-4.473256569407683791e+00,-2.471793610025177390e+00
-1.752607718703152573e+00,3.290719317865004268e+00,5.308228241668311753e+00
2.844737460466971068e+00,4.979237284722977108e+00,2.773582946883571765e+00
2.264001506674246045e+00,1.139318730735265905e+00,-5.838374508586754885e+00
9.779258261228499505e-01,-6.044214690168821846e+00,-2.362769654194161628e+00
-5.324326799405521449e+00,2.377263128485716415e+00,-2.963524195979575726e+00
4.502058441873482586e+00,-3.510102867315656461e+00,3.215251895860865794e+00
2.417331773699553654e+00,5.892745966364133281e+00,1.234314693596777257e+00
-3.196349507051008842e+00,-5.611531875677957970e+00,9.225794954303335738e-01
3.236822192273702381e+00,-8.332671249348809761e-01,-5.548139414983882745e+00
2.944402269719836318e-01,-4.589028687663075923e-01,6.512606245872738953e+00
3.615844674607938902e+00,-5.195634767462562031e+00,-1.331823217051023578e+00
3.521536615244721613e+00,3.267577508794912156e+00,-4.358352568316536058e+00
5.401755033557222418e+00,3.812379898623028840e+00,-3.183592319715951996e-02
2.616134749429170903e+00,-3.639926311353896882e+00,-4.813971195645363466e+00
-6.002486168148251089e+00,-1.512283823622508461e+00,-1.967589680878054637e+00
-4.206463056622634866e+00,-3.208007095692912092e+00,3.748833911320125889e+00
-5.182232618348050934e+00,-1.873969991675228153e+00,3.417125485858398370e+00
-6.438254215386331580e+00,6.194634893934358733e-02,-1.007471787014355025e+00
-6.043830643830827576e+00,-3.270189668157182927e-01,-2.330528017717335754e+00
5.034959254741697698e+00,-1.744827522832813171e+00,-3.769799597118936418e+00
-3.805186919426354564e+00,-5.175539681384276669e+00,2.137805134818911434e-01
-1.860350294345156641e+00,4.846068443702646888e+00,-3.840280223788917979e+00
3.907008325412187677e+00,2.771232102372163553e+00,4.273515104366713224e+00
4.047695584677881264e+00,-3.803905089376708570e+00,-3.463030460984165337e+00
5.315474401375123392e+00,-5.803402686181797776e-01,-3.700032769451467196e+00
-3.136753531542995521e+00,-1.099897860116700654e+00,-5.617369476378166304e+00
3.915234088887923569e+00,-2.686082854632458883e+00,4.412917568103039478e+00
-3.987163501249295638e+00,4.908804826229893337e+00,1.655893487507211548e+00
-4.615478286652266782e+00,1.050783782923800036e+00,-4.345245877297698733e+00
2.605626868242226113e+00,-5.458261264629965304e+00,-2.496197779875124478e+00
1.169599680340922765e+00,6.378930421300054832e+00,9.593315471860102139e-01
-4.279546323626762572e+00,3.000632453792907217e+00,3.911698622808257308e+00
-5.000926932362729893e+00,-3.004987230194953618e+00,-3.003502330083127614e+00
-1.165616481484502476e+00,2.854628801855322529e+00,5.635870637405106187e+00
-3.620791656745634968e-01,-5.493689634978330183e+00,-3.655389433749111294e+00
5.317004624727113438e+00,-3.808768030447742703e+00,-3.634416135052304653e-01
2.048348033599988849e+00,6.027220772084326050e+00,4.903701261539508693e-01
5.615242981262469790e+00,1.899623962781088818e-02,3.131057441756654569e+00
2.062050773002934434e-01,-3.063328598207320841e+00,5.770226237536365765e+00
-5.328483935069368904e+00,1.247426186261069825e+00,-3.381971015739536846e+00
-3.388678155777629541e+00,4.924730382795472483e-01,5.499700699886069799e+00
3.416352424214806671e+00,-6.291965601966835742e-01,5.441646156838261916e+00
-3.914348028644163424e+00,-3.290821114231292199e+00,-3.952775729077256273e+00
-5.089546016800952088e+00,-1.181759908722782360e+00,-3.896698574658434389e+00
4.472604521034770464e+00,4.767385442134917106e+00,8.894236959680447141e-01
3.476912158061237768e-02,-1.723057781639542596e-01,-6.592372625760144267e+00
1.470080197444910697e+00,-6.423315549010501613e+00,2.611682954230772347e-01
-1.965745324318167286e+00,-6.170161341973472879e+00,8.919855815587192094e-01
-2.785473187472947476e+00,5.706882493367851694e+00,-1.642885863937499247e+00
-4.862202479368073149e+00,-4.297893736192127667e-01,-4.292291395217343819e+00
-5.388921403902881657e+00,1.422000648127273781e+00,-3.395931385457473972e+00
-1.928010918973711574e+00,1.590760798804627285e+00,6.067534674172576636e+00
-5.370939915927483987e+00,3.045894346722100021e+00,2.169419320721411193e+00
-1.003774141768664974e+00,2.863581395516298755e+00,5.792397177925068696e+00
2.693596829232318690e+00,5.863708647975125032e+00,-1.412605714883243546e-01
-6.403894074140203507e+00,-1.582329642581954632e+00,-7.981470453506838147e-01
-6.979702817238363499e-01,2.231070030572821494e+00,-6.216836709348831924e+00
6.243811708163880425e+00,8.120446222366570765e-01,1.559052502279654862e+00
5.148897852194866509e+00,2.104655765362295039e+00,3.460962088701607264e+00
-4.072506444987742391e+00,5.191158725840201882e+00,1.165942863654329670e-01
5.730342708899687665e+00,-2.924701949920455402e+00,-2.636787469806868289e-01
-4.363021574797271818e+00,2.420359050109896493e-01,4.902576773475638916e+00
2.622053486751063645e+00,5.186206681141702468e+00,-2.735151380730680870e+00
-1.776515544597919050e+00,-2.452406699184380923e+00,5.650773349047875094e+00
4.667881065379588357e+00,2.809688432709863903e+00,-3.798655278823970249e+00
2.783333326907155847e+00,-3.418141827123110654e-01,5.900933036506866181e+00
7.737545320045148278e-01,4.317840265631460284e+00,4.775739874563330822e+00
4.439175499267383529e+00,-3.134078463557238514e+00,3.623935713310407092e+00
2.014052665020560795e+00,-5.377280706380807018e+00,-3.089114729978034379e+00
-4.654091706333987943e+00,-4.070973343776870479e+00,-2.364913885444475117e+00
5.247083453947823273e+00,4.390564202995948517e-01,3.768870944997119388e+00
2.089766366927136243e+00,5.560383442212712524e+00,-2.598039211752012356e+00
-1.358552912009797886e+00,-4.930447824415687741e+00,-4.086702016693745776e+00
-4.586439667026350975e+00,-4.468510449745233259e+00,1.631753037237157367e+00
1.371526982317837318e+00,-6.397089423332819713e+00,-4.313896128718704426e-01
-4.726004548716570497e+00,2.097939474135110061e+00,-4.023517870758655413e+00
-3.048811496301967683e+00,5.811800982226166923e+00,5.047162353629732756e-01
6.503685135710395304e-01,2.278601759372449020e+00,6.175096986247658570e+00
4.745364075926007175e+00,-6.253788202599367407e-01,4.341300573378065408e+00
-1.473400091001509649e-01,-4.478000298890166597e+00,4.695678724369824586e+00
-5.870566490744140609e+00,2.337244562721891405e+00,1.359279153540703389e+00
6.148946064699262415e+00,-1.842355588205166761e+00,-1.092442864647922285e+00
2.192952911599200139e+00,6.170232375796278035e+00,-5.278118239205457085e-01
3.929640910538369614e+00,6.552235515177324832e-01,5.129455767485471718e+00
4.635142352058737814e+00,3.561334913794682588e+00,2.787231152026041769e+00
4.304761813092447653e+00,-4.576240598378850111e-01,4.727923360752468440e+00
1.792005108924041634e+00,-5.067617235051007363e+00,3.680363895189235457e+00
-1.294783398930245299e+00,2.029524608999019541e+00,6.099109775603517747e+00
3.059373370238436252e-01,-4.807652206297722941e+00,-4.256216920198156117e+00
1.823305371771140271e+00,6.023260785594737321e+00,-1.638830198429713558e+00
4.318012612501193281e+00,-3.466683704636968066e+00,3.605170057515989512e+00
-2.745839977777544405e+00,-5.559819150520737274e+00,2.283380059003305540e+00
5.446297932676230857e+00,-3.711371642685856731e+00,-9.885421531025095909e-01
-6.909650340208369768e-01,5.155735151019745111e+00,4.164366472487666115e+00
5.865232407408634607e+00,-2.315868578689730395e+00,1.250521218984295135e+00
1.281572555467049179e+00,6.064395629501405871e+00,-2.038763490192023742e+00
-3.976597595754387537e+00,4.831329418116549590e+00,1.847585239393360279e+00
2.915948905095460120e+00,5.255978096467428529e-01,-5.903846086091214751e+00
-4.033481681422843579e+00,-4.624685460392904623e+00,2.083710239630641947e+00
-4.650904966269012952e+00,-2.136777059058144079e+00,3.900152086966610643e+00
6.511206826726901653e+00,-3.180635039579000622e-01,6.280517948102423142e-01
2.637027806146312159e+00,4.346699347022729754e+00,-4.130722166034995091e+00
2.976858882671992834e+00,-5.611622747108924614e+00,-1.334964360868840405e+00
2.838705649846881673e+00,-4.887937994650240370e+00,-3.096128963708936865e+00
4.247423475124709746e+00,-4.953946369094305524e+00,-8.616143111270034849e-01
2.815082905687864567e+00,-2.664244234301136771e+00,-5.232893977352473414e+00
-1.409064785961144040e+00,6.391592492717314222e+00,1.098781641980132839e+00
-3.240247250301642179e+00,3.829092094780938149e-01,-5.694348512991761702e+00
2.408136770864397480e+00,1.251773558711505085e+00,5.922093397587995689e+00
-1.671887979608848163e+00,5.950738723283208742e-01,-6.196471788628278077e+00
2.010314421475759339e+00,-5.853678147108629659e+00,1.920337185094291410e+00
3.074783871179713302e+00,-4.995182370008412143e+00,-2.893479256360540042e+00
4.812326241181446917e+00,3.719038849223214260e+00,-2.478708265943393219e+00
3.950963679323331590e+00,-2.756504961243559482e+00,-4.424373238766132310e+00
-6.510699183258016554e+00,5.948878815487150806e-01,-9.754309183114490134e-01
-3.533365069554219140e+00,-5.186887179952853977e+00,1.298458916781367378e+00
-5.091103876857890675e+00,-3.499070298444819205e+00,-1.996931633751871216e+00
4.132399672238490140e+00,5.001911985471422462e+00,1.142469744010839311e-01
-9.501223195211032646e-01,-6.422836006417092847e+00,1.260522324971687702e+00
-1.250471441508533621e+00,-1.365808098891334588e+00,6.244198527406309651e+00
-2.573080549237510617e+00,2.810343535229631318e-01,-6.080654842857271980e+00
1.442053623017290898e+00,-1.601565335863859740e+00,-6.122622451253236342e+00
9.761997186330536591e-01,8.300810186665774637e-01,6.365854791610360941e+00
3.032104859599173530e+00,3.550006587458058416e+00,-4.481892203342111358e+00
2.666703850763300743e+00,-6.019800316507121885e+00,8.616634083812928502e-01
-5.472924360100321906e+00,-1.631575548058324276e+00,-2.907357470041948666e+00
5.900426765463706147e+00,-4.875076313648295523e-01,-2.620690518131929103e+00
-2.764343684247248856e+00,2.285013206500366323e+00,-5.265581596093974248e+00
4.550779869307890912e+00,1.372357538396371812e-01,4.614652583590067358e+00
-5.915663196380507749e+00,-2.648086919185574040e+00,3.971547169806090016e-01
2.967893515361338608e+00,-1.334723665485625821e+00,-5.660147804054135534e+00
-4.108362625213072938e+00,2.197180865253888005e+00,4.493238754983440053e+00
4.978730429403420032e+00,1.374726076856005175e-01,-4.182362297480699986e+00
-5.444307079952189099e+00,-3.536913705234488781e+00,-3.611453463978727130e-01
-5.385721641296814965e+00,-1.205886686230238647e+00,3.814924641970311558e+00
-4.877573200230601813e+00,2.789391471478638085e+00,-3.267920669942793843e+00
1.206812975976796043e+00,4.010093151275175849e+00,4.893381486966686289e+00
-2.534271417468457521e+00,1.490734601159579897e+00,-5.846756737569630324e+00
-3.931487838970583182e-01,-6.010678750335582521e+00,2.497580184770204603e+00
-2.345374325378821734e+00,5.740352483848546683e+00,2.167308399142668929e+00
-2.224791969020623927e+00,2.122605260779077518e+00,-5.736423557233703008e+00
-2.514261021026931608e+00,9.491192274210189517e-01,6.059749699090121844e+00
-2.332957632058747954e+00,-3.723460742836784299e+00,4.858252909707225342e+00
3.696496159375154633e+00,-3.900395324051126877e+00,-3.679630156769380545e+00
-3.646996171813622900e-01,2.266519946777793226e+00,6.036065891408007644e+00
-6.113493145838072351e+00,-1.500110770058874943e+00,-1.657272501592786940e+00
-1.729529919658959303e+00,1.228653923252296609e+00,6.156724917858935164e+00
-4.789684761064238572e+00,4.189396142829557412e+00,1.317141888664136617e+00
-6.299290215155557426e+00,-1.185146071438591686e-01,1.266143874064097341e+00
2.720268490748440904e+00,4.384474981774610924e+00,3.835760586527485305e+00
-6.409214304473344725e+00,-3.475289340007121641e-01,-1.281955476091978019e+00
5.510368360237102969e+00,3.309092414410780947e+00,-9.777249003149379725e-01
-3.956039901879182530e+00,7.008313998340864881e-01,5.082419608128271094e+00
-5.908321665153858149e+00,-1.224639370936825511e+00,2.400870557651294313e+00
-4.778624794824364308e+00,-4.291753227164890383e+00,-1.637544785300323991e+00
6.501021922459135904e-01,1.300111355308293470e+00,-6.389945069913804510e+00
3.517269508100657305e+00,3.883139053408356745e+00,-3.943477032481304434e+00
-2.165332247665614052e+00,1.213284020523064610e+00,-5.917080842135280072e+00
-4.679598592208079388e+00,-3.294611587629337368e+00,3.433289410216313176e+00
5.131680739680657410e+00,-6.282220047327647938e-01,4.063333099159481598e+00
-5.929513580084404545e+00,6.104736823932318535e-01,-2.436113503769865574e+00
2.337097532671160049e+00,-5.846538667203184048e+00,1.660444567001970739e+00
5.816573100062054635e+00,8.075009544898320568e-02,2.509857992731883591e+00
-5.316337250394718161e+00,-9.907706457690078627e-01,-3.732954459212504350e+00
-5.474190453264528244e+00,-2.083189613738640755e+00,-2.611520308266269463e+00
4.807752490856239902e+00,4.338615629896650283e+00,7.562481253003373594e-01
3.162947404902200610e+00,-3.575385021724638346e+00,4.598479552498031531e+00
2.044377317547169337e+00,-2.658536154898620385e+00,-5.663201975996726034e+00
3.749449096053801167e+00,4.283363985774599314e+00,3.133419455689502975e+00
5.185406655183521174e+00,3.839163658622899433e+00,-5.356904901106965822e-01
2.668816501566468435e+00,3.297358046646011953e+00,4.860466612048639945e+00
1.445289990030042215e+00,4.783728425920624083e+00,-4.255291566429008299e+00
-6.808775645669761234e-01,-5.440088913374847124e+00,-3.780557159988119587e+00
6.533238458645230118e+00,5.032912118817657599e-02,8.922933445917874407e-01
1.931197276126785045e+00,3.821295571417766990e+00,4.850414268802383688e+00
-3.824871987827197728e+00,-1.819092309315050615e+00,-4.873374712246627993e+00
-3.046683258480007428e+00,-3.614349804252975584e+00,-4.548308633313184579e+00
3.884885145049311594e-01,-3.660404315214886850e+00,-5.449776433639323514e+00
1.853247168670222322e+00,5.690964987401378572e+00,-2.499847984334487183e+00
-2.641741377511506172e+00,3.912024611573775790e+00,-4.383271313838142724e+00
6.280209327550787535e+00,-3.801381041866908617e-01,-1.630866431755082946e+00
1.556497057806198736e+00,-3.357048018469231732e+00,-5.381715845868122017e+00
1.212188758256167231e+00,-3.981776069499697979e+00,-5.014230211398352566e+00
-1.768825979444964336e+00,6.121501397664878219e+00,5.294628711538098553e-01
-2.374290890206321780e+00,-1.001844354831641137e+00,6.028396483652483262e+00
4.501691665027341749e+00,-1.522594000748751286e+00,-4.254027054550597597e+00
-6.788426336875916789e-01,-4.787456346183169842e+00,4.266514495201736423e+00
5.935115746025300787e+00,-2.556267213193664567e+00,-1.635155947472964444e+00
3.459486118235767904e+00,-4.775036907231992700e+00,2.643905679335953884e+00
2.668348591444524853e+00,-5.907553538198327736e+00,-4.952468936349088136e-01
-1.772382513685896610e+00,4.191992899111877668e-01,-6.220446538703891193e+00
2.698565491713210140e-01,-8.550371447806244252e-01,-6.416931626337449401e+00
-1.004967746393391259e+00,-3.848603113127686548e+00,-5.065027187438329470e+00
6.098549695955194139e+00,-2.372267820133429961e+00,-5.567841324230499156e-01
1.934713627705104022e+00,5.647055415977888515e+00,2.621375783601123111e+00
4.110874905552351244e+00,2.137561037492685223e+00,-4.565071815983088754e+00
2.049013907423620218e+00,4.340988897201522256e+00,-4.359433730048379196e+00
-1.608795605177033794e+00,3.538617637881507516e+00,5.254039789668923710e+00
-9.878293391105192889e-01,-5.804726905619950195e+00,-2.823377744234066178e+00
4.062238675775228458e+00,-5.068902324241721047e+00,-1.419265829648635791e+00
1.868495058866141423e-01,1.480410261487772994e+00,-6.378691388108562954e+00
5.028219769728187849e+00,9.111127511621339714e-01,-4.208277567183136725e+00
4.302405161247198073e+00,4.759467134218123618e+00,1.391904920662248912e+00
1.914759675672690342e-01,6.017791254040619542e+00,2.408811890126935307e+00
-4.528002342846665917e-01,-6.161814759358756888e+00,2.298644022073140558e+00
3.347897517968536185e+00,-3.633470907156025387e+00,4.218892676954880905e+00
6.431729297741108020e+00,7.750284797255913016e-01,6.462117545654165740e-01
-6.206951321783719777e+00,2.006017161701103557e-01,-1.985446498321398634e+00
6.311309441894677796e+00,-5.694939857416446705e-01,1.367512190443031628e+00
-2.655406970686065016e+00,4.301861776749937860e+00,-4.318953686212767984e+00
1.430559013619698838e+00,-1.996890455365453176e+00,-5.983973799228501811e+00
3.404729994906657176e+00,4.223899470310436222e+00,-3.632803592578283780e+00
-4.339848092697609516e+00,-3.563006892115902602e+00,2.992513607313407320e+00
4.424784501817220495e+00,2.102411803352019604e+00,4.285741009234688370e+00
3.174291306172341454e+00,3.815637375218615457e+00,4.266074107755971845e+00
1.147686668459742432e+00,-5.045278742557851359e+00,3.906116648242070166e+00
-5.281148087551721382e+00,3.334302848383197571e+00,-1.545405008949364722e+00
-6.537231166622898826e+00,5.705024814762424956e-01,4.315554606396988513e-01
5.534662023997133140e+00,-2.702648593538181654e+00,2.249474982314911387e+00
-5.538573721068211775e+00,3.173314435233171693e+00,-1.466101242241237557e-01
-4.654163350021797818e+00,3.151892719758243810e+00,3.464036365676991025e+00
5.215224862422551233e+00,-2.937551735099545702e+00,-2.750879500285367207e+00
3.333631789400847811e+00,4.717154420510000001e+00,2.905091584224323675e+00
-4.653808311286018906e+00,3.221471386801184611e+00,-3.333627360881901591e+00
1.499766323153569836e+00,9.336447598840352802e-01,-6.281174075870723073e+00
4.826987411259078264e+00,-2.776135181227594284e+00,-3.473406197366159631e+00
4.507750708589628452e+00,-2.564935780333647664e+00,4.024807364661130649e+00
2.349763617394191151e+00,4.794932493446526500e+00,3.819144550354167666e+00
-2.504782274403398290e+00,1.287906215604266436e+00,5.971449057070540078e+00
-6.841453831195350166e-02,-5.581212842015409237e+00,-3.422505382799185369e+00
4.237209361094530280e+00,2.724600125288025865e+00,4.182617879520901916e+00
5.034148380315238036e+00,-9.965128271896269707e-01,4.030547217399178983e+00
-4.813326788940013756e+00,-2.503785392855714331e+00,3.707044894042221372e+00
-6.146975315539502382e+00,-1.661539736802704059e+00,-1.000386296189263780e+00
2.443727761401863763e+00,-6.011216368218653017e+00,-1.130531724679029404e+00
-2.147527527797751024e+00,3.779976033316193806e+00,-4.777391719696107764e+00
-3.287683556933655993e+00,-4.692512905430180403e+00,3.105212675113427689e+00
1.684285640461252287e+00,5.483738849464945275e+00,-3.252989051814507704e+00
-4.224569329094824965e+00,-4.521037967240327582e+00,-1.810613809281211184e+00
-5.014836912189705842e+00,3.532667495369422817e+00,2.311768370627931279e+00
5.446691528178425834e+00,-6.323491241403298435e-01,-3.362224610457523966e+00
-4.869766032665418187e+00,-3.985651064468375804e+00,1.404006811642529939e+00
4.777021884590381684e-01,2.725544147086813584e+00,-5.902875993909955099e+00
-5.218578435556508133e+00,-4.139090870543885026e-01,3.736055817987712135e+00
-6.581200912302694661e+00,-3.736649288413433356e-01,-9.056431938240133706e-01
2.795937203115293368e+00,-9.731690224790983113e-01,-5.696170040092583875e+00
-3.100995095590048933e+00,-4.790737755414810728e+00,-3.105393506504467993e+00
-6.212234004980228264e+00,1.781691487359229109e+00,4.729258068435520518e-02
-4.177487450449797635e+00,2.976776475804103483e-02,-4.904319815956101891e+00
-4.593945570448924265e+00,-1.484296879126091984e+00,4.359559573156652768e+00
4.388112921340977302e+00,-3.391601553581877315e+00,-3.232092483341467926e+00
-4.839874367954390522e+00,3.692750997655522283e-01,4.327326133440716482e+00
-5.134987886318893580e-01,-3.516608708148478701e+00,-5.501563340486454123e+00
-6.056565720066306113e+00,-1.027760387055101532e+00,-1.994496694971900519e+00
4.868887267833386545e+00,1.951228065957140601e+00,3.855052320401548993e+00
2.828165792304624837e+00,-5.255630236654963205e+00,2.394059575418463037e+00
1.677147186055062855e+00,-4.425065458284110353e-01,-6.238409548184396414e+00
2.327468308201116276e+00,2.383633534663347930e+00,5.451817900394307692e+00
2.174479864832094211e+00,4.433282845914793491e+00,4.189376166467527085e+00
1.588025522358188155e-02,4.661917149264778182e+00,-4.478727335966193657e+00
6.536185118504937108e+00,-8.739867678483521640e-01,-1.900996906421103805e-01
5.282386046665281221e+00,3.861027702645527970e+00,2.343284459139294840e-01
-4.355384982183345244e+00,-2.072410634428349940e+00,-4.377184177741812121e+00
-5.666868833259269600e+00,2.169773884947609144e+00,-2.439109604573481693e+00
6.469492139567794453e+00,8.728353097821078821e-01,2.733733614916934451e-01
-5.708643802934819433e+00,2.917137235334741785e+00,1.599401461476474662e+00
-7.012857057729601218e-01,5.061324933846714780e-01,6.445476079984140405e+00
7.707600815960027330e-01,-1.414505959612877950e+00,6.269925821360813778e+00
-4.255944268919814810e+00,3.417248373163739306e+00,3.728679402475635118e+00
4.813971265657717602e+00,6.497535317271583288e-01,-4.397058996027593203e+00
-1.967589846737766823e+00,5.812265328349397464e+00,2.162052996820465811e+00
-4.749508586539591626e+00,-3.746642947991319694e+00,2.430399647307460054e+00
-8.777689091016991352e-01,-5.536771927954226236e+00,3.292345714340283891e+00
-1.881357473125870650e+00,-2.818704018939012790e-01,-6.314479920192147766e+00
-5.180840867804428207e+00,3.989469921525733653e+00,1.680618277326387244e-01
7.594594780766845687e-01,4.392085798277784114e+00,4.774953098593027967e+00
1.090786577413656255e+00,3.206445494288254761e+00,5.566935845052514154e+00
4.939556772218893776e-01,-6.183417053507355376e+00,1.471674212816903360e+00
4.463592444334194553e+00,4.228655127324106644e+00,-1.862179470674598436e+00
5.844967778868287667e+00,-6.308477793495137487e-01,-2.869890002555998354e+00
3.195190602743285258e+00,-5.562714030767225815e+00,1.524870211912677354e+00
-5.139062789520551178e+00,-3.884933280732560501e+00,-1.253842328987882837e+00
2.055945366948643827e+00,-2.511614746419417621e+00,-5.572123132509683607e+00
5.726109022060534848e-01,-6.505219878301739200e+00,1.062436648702709707e+00
-3.021377016145594840e+00,5.819957822835252870e+00,3.099490802017574806e-02
5.013240078614733974e+00,5.895692403645701463e-01,-3.928226173582803238e+00
5.428276342572081248e+00,-6.895594247513503472e-01,3.414105195049877306e+00
-4.746217478599110251e+00,-4.306766946764179593e+00,8.572175314078774866e-01
-6.350745111586135749e+00,-1.305453444731798918e+00,3.092892862971811652e-01
-5.750893293450342725e+00,-1.999596504993703672e+00,2.419322131642811957e+00
-3.087330361275175683e+00,-5.453640873089852903e+00,-1.795553397689305442e+00
4.852523438415749624e+00,3.063786557089938078e+00,3.105066637395909712e+00
-2.220466292108333572e+00,-1.286169428139567916e+00,-5.831959849182234201e+00
2.791409680470395394e+00,1.668438416244058878e-02,5.953191830094302972e+00
1.011526513237878122e+00,-3.342600831693346652e+00,-5.516946621132459150e+00
-4.682694626317427944e-01,3.107164672169483666e+00,-5.694442201258314462e+00
-4.768586975987765264e-01,-4.066431130486370726e+00,5.121916970072168951e+00
1.578611271810865579e+00,6.163955450034492856e+00,1.200395466399842848e+00
1.174059035560215847e+00,6.347884535975144793e+00,8.270879595309447163e-01
-7.149778502193231411e-01,-1.818244741057443381e+00,6.173271475062152014e+00
1.657935318032297989e+00,3.912778171008550743e+00,4.904174112429368293e+00
6.123405507268070203e+00,-1.057956636393487360e+00,-1.994408149281574838e+00
-1.028051130389453283e+00,-4.790823732057484463e+00,4.343691941869903594e+00
1.020948171677352301e+00,5.263983518959732599e+00,-3.588230708626474197e+00
1.781056785868432524e+00,6.229711097648896079e+00,1.121465844148935992e-01
6.484835925505611165e+00,-1.115868347130665850e+00,9.601335138845843442e-01
-2.324965497380911295e+00,4.928116863867399999e+00,3.610720002409406160e+00
3.651828903213443223e+00,3.749966439548352848e-01,5.453158186881887914e+00
-4.168838258754882231e-01,-1.948043610841368345e+00,-6.192376618304336056e+00
-5.810818836515236896e+00,-9.310612331996772628e-01,-2.768059425440621446e+00
5.645719830063408828e+00,-3.275960841113009892e+00,1.700206603568281682e-01
-6.058879694148662232e+00,8.546724643080795270e-01,2.486556710920051039e+00
1.961135298998160748e+00,5.179576618081095596e+00,3.464331588408108953e+00
-1.471010896816322466e+00,-7.937522705164137271e-01,-6.314154982599496257e+00
-3.244275019957186146e+00,5.512233386810398095e+00,-5.272511792874855496e-01
-4.996204483789944639e+00,4.097507220889911927e+00,-1.366774109429262030e+00
-4.270119774416672342e+00,4.052236310948171827e+00,2.750649922808189096e+00
6.377469008261221539e+00,4.714052065760007681e-01,7.898103573488129969e-01
5.327035348667597425e+00,3.443173263898858583e+00,-1.504782551213980080e+00
-6.221711548346436693e+00,4.527355645660632866e-01,1.985385224776747393e+00
-2.872511366417801248e+00,-5.494369564774360448e+00,-1.655171658596707562e+00
1.332071007130753104e+00,2.034747833145764684e+00,6.065918321881617281e+00
1.807716392716896214e+00,5.200335882552519884e+00,-3.362905926767492115e+00
-5.303934469846219857e-01,1.645109073213888717e-01,6.479405449072471512e+00
-5.935600985102699845e+00,-2.666210897892920428e+00,5.577459091954867221e-01
5.200634688580646703e+00,-9.972194165408480027e-01,-3.663721218885028996e+00
9.254886873959001781e-01,-5.920691049944537099e+00,-2.462193556140643835e+00
-4.856380375803906801e+00,-3.309727565601467969e+00,2.950317662358148851e+00
-4.174910968423619195e+00,-4.018459333878290352e+00,2.890107939323425246e+00
1.778353211452588623e+00,6.386610171534698566e+00,5.997904927980744760e-02
-5.905662152337512794e+00,2.624331875965549621e+00,6.607199099570421064e-01
1.799107142271644699e+00,6.157565780394380184e+00,5.990839567824046696e-01
1.403018606598858131e+00,-3.858211036832594587e+00,-5.018670230787316555e+00
-4.588263288035509646e+00,2.929835512197703107e+00,3.552423986668861389e+00
4.417742821339846193e-01,-4.172093236291375185e+00,-4.973288719441114836e+00
2.462076520498474863e-01,5.037534873526651857e+00,4.215527694540067039e+00
3.363237298913001272e+00,-6.766529121333458852e-01,5.504669558053217671e+00
-3.881886833857039143e+00,-1.463105457149454613e+00,4.955645320777241736e+00
-6.378433720501911486e-01,5.337745866749082913e-01,-6.438536050176328907e+00
-5.820861004896002555e+00,-2.854273397810619617e+00,-3.737245466985659181e-01
-2.211401256699174311e+00,-5.261421347064744403e+00,3.119814862279804757e+00
-5.972066262930578517e+00,-7.957237614785100943e-01,-2.429802149645734488e+00
-2.919830239510399661e+00,4.043777325947252699e+00,4.223144054038107775e+00
3.640195629587050341e+00,-4.769070949668082982e+00,-2.555967007276363834e+00
-4.203898886299241688e+00,3.981546077931792826e+00,-2.935856958243838744e+00
5.230532396839990383e+00,-6.135769525319489937e-01,-3.951546746838361379e+00
-5.470253413160492073e+00,-4.229255648663172718e-01,3.627652883088604341e+00
-2.521362821659349773e-01,-5.153455826133233941e+00,-4.015000005930424720e+00
-2.567379915158926273e+00,-2.215139354232558144e+00,-5.501643380185691434e+00
-3.278673098626467386e+00,-4.412615973113036993e+00,3.538793522366940891e+00
1.381225334291771745e+00,2.256512550697038932e+00,-5.991326709377799098e+00
4.028582999468143910e+00,1.522549578099265277e+00,-4.863118106850041755e+00
6.281686364635241659e+00,-3.172155122916447412e-01,1.468009046416400620e+00
-1.715008807221783504e+00,6.841706069484360109e-01,-6.209119352869614694e+00
4.730076463241095652e+00,-2.595761559281228426e+00,-3.838169903025667296e+00
-5.803710675216873227e+00,1.162734672262030200e+00,2.898101517751663359e+00
-5.815020888486822415e+00,2.690676740543014311e+00,1.459632677267826306e+00
-1.095944276714186927e+00,6.286878943909856687e+00,-8.006607153382796493e-01
-2.077847370092117618e+00,4.810772233813012555e+00,3.979480462393392148e+00
6.270858110331295698e+00,9.683287843361034763e-01,1.904532668346923030e+00
5.266890564768044847e+00,-7.576494959500336135e-01,3.779789136162281071e+00
3.184337313829921801e+00,-5.537672820046576128e+00,-9.193932308398320430e-01
5.730111880660396118e+00,-2.252804592792049920e+00,-2.176156117143054125e+00
3.633710628478052485e+00,3.365734859519798228e+00,-4.354396457153046462e+00
-5.507520085682791056e+00,1.510276249489419964e+00,3.350666004935314302e+00
-1.693283669135966951e+00,5.412636480731295663e+00,3.207243611837554909e+00
3.906811786487017990e+00,4.136985119418936652e-01,5.174955958958331159e+00
1.057915653937719025e+00,-3.258889133011571904e+00,5.502733072428777739e+00
3.999553699737336210e+00,-2.042438819115805160e+00,-4.860309962877266798e+00
2.691897059448630003e+00,-3.956709454444112151e+00,4.487520821480518229e+00
5.546797029646837629e+00,1.387413488918680660e+00,3.167695238131331248e+00
2.221747919487194078e+00,-3.487419236207637052e+00,-5.068871697555617395e+00
1.789497337986047931e+00,9.911778786589021673e-01,6.259654958603649177e+00
-4.151265282309097415e+00,3.650683668732978227e+00,3.469235170746491015e+00
1.587590443860432021e+00,-5.629925866270166779e+00,2.781814750803642156e+00
-4.321135514118926935e+00,2.133566330967889613e+00,4.375933429088143534e+00
-3.382231309104589023e+00,3.942607316140109841e+00,-3.928836147346779661e+00
6.080329709185424925e+00,2.359013829225230729e+00,-7.890939727254295821e-01
-1.731914697816146820e+00,-6.062838771357039747e-01,6.190885633378707453e+00
3.562768130170495429e+00,1.690675662475419783e+00,-5.183095806221015955e+00
-3.019004321356171694e+00,-2.007047660468032291e+00,5.358055861846918511e+00
8.522532138373090094e-02,1.831138767159457670e+00,-6.234091015495203614e+00
-3.546824716150688062e+00,-5.366833409226165585e+00,-1.344969022776943524e+00
2.052230588835830982e+00,-4.388279192472779755e+00,4.372446235314730423e+00
-4.697747931066249549e+00,3.943813590460731433e+00,-2.184550028817358047e+00
-1.225752543791401639e+00,5.590806325207842153e-01,6.334336984209923749e+00
3.381255539959587164e+00,8.999449443962965756e-01,5.495128516837903376e+00
2.745605609163516370e+00,-5.680462879642803387e+00,-1.338878477718556281e+00
1.689995907693206068e+00,5.448866463622673351e+00,3.217036407867623016e+00
-1.316216182431664272e+00,-2.926338616731233966e+00,5.783579331653159628e+00
-4.199610756806285039e+00,3.085839307310763946e+00,-3.951761185811184518e+00
2.553057267521278151e-01,4.780657387454519736e+00,-4.275927749279194501e+00
1.018221296058772873e+00,1.596956339169796957e+00,6.136798901961455499e+00
6.313439666518091187e+00,7.612298924115150633e-01,7.234992673763365190e-01
-2.554338707828585076e+00,-5.653204480926061315e+00,1.848791757131377000e+00
-1.379516200499761203e+00,-1.183221434651962056e+00,6.373105705799622989e+00
3.364450717327689411e-01,-4.010859394617948936e+00,5.191897671639837952e+00
-5.247348240082168935e+00,3.948119501974407974e+00,-1.320488168389062078e-01
-5.749495428613571768e+00,5.845460883484914216e-01,2.969294204947785065e+00
-2.883449347061117773e+00,-6.313782027249981166e-02,5.843440541900955409e+00
-2.017817528079712375e+00,3.832485049656187748e+00,-5.066139963230459564e+00
-2.626576586607153097e+00,2.495580981646391638e+00,5.505827535753464730e+00
4.537853494040943403e+00,-4.666411543564546349e+00,5.219563652033373247e-01
-4.733354556478488462e+00,-5.095195556091067779e-01,-4.546948339186508647e+00
-2.596411908082301156e+00,-2.943896112869774040e+00,5.273294822565659068e+00
-4.471562127938899955e+00,-4.680095189657897947e+00,-5.685966886700414280e-01
4.232300719025521296e+00,-1.960454803764654974e+00,-4.446276491035403566e+00
-3.496031727927987331e-01,-3.170414761161282513e+00,-5.800763980735993641e+00
-4.627982949261407519e+00,-4.371150344369287843e+00,-1.273207237109796441e+00
-3.238663177669134918e-01,6.133829570623690941e+00,2.204101891468634555e+00
2.030845689459908954e+00,2.312923522958371336e+00,5.803098576031893607e+00
-7.945448465701791807e-02,-5.038985934443408254e+00,-4.007380525290191287e+00
4.068858375266058425e-01,-3.084398574591939557e+00,-5.792195459245834677e+00
