1.629249988277953642e+00,3.266105758588467189e+00,-3.701778169420729458e+00
-1.793071413613553933e+00,4.645330555030330544e+00,-1.566168067617010884e+00
4.744228687317086468e+00,-2.302387687970025354e+00,-5.084619491469567487e-01
3.743193388113125852e+00,1.040452586625048914e+00,-3.460888359119939750e+00
6.579530248710657725e-01,5.159401250731336042e+00,-6.260666636179067490e-01
1.719836971748444743e+00,-4.754132191591119216e+00,1.381465495387435682e+00
-4.418188755132253398e+00,2.425009763628197756e+00,7.796420826282344230e-01
-4.980727496521067721e+00,1.474752438366250473e+00,-1.142366948207443854e-02
9.500637827839021332e-01,-4.323087294731181585e-01,5.146455018201178788e+00
-1.105559168852541019e+00,-4.966411521162445553e+00,-1.042040494977657161e+00
-3.409088878340791773e+00,2.536961081853088107e+00,-3.074813933106534058e+00
-3.094797750886338350e-01,-2.413073748698262300e+00,-4.705928228260011004e+00
2.305449909831112087e+00,-4.740808424208161398e+00,-7.720227953691606582e-02
1.953866884937109027e+00,1.406224455859127476e+00,-4.592714254231271553e+00
-3.200086772843436123e+00,2.944663283911900464e+00,2.838214995613479452e+00
2.316712706662653609e+00,-4.482515490606284736e+00,-1.083093421694163005e+00
1.366798859490794271e+00,-1.134172223188887996e+00,4.902685876867594494e+00
-4.228948486250418526e+00,-1.321717298812367103e+00,2.751553147537774802e+00
4.815887167299367277e+00,1.035277448995190364e+00,-1.638840926620901861e+00
-3.525172970190844079e+00,1.019877203524930248e-01,-4.039350504702526656e+00
2.505877603390743502e+00,1.412847623706321887e+00,4.526869968269534361e+00
4.495308345344316336e+00,1.716838953147253877e+00,-2.013695761858156352e+00
-2.316858137155914488e+00,-3.523716192498215882e+00,3.225604956117635869e+00
-1.754866452761031370e+00,4.921558903622659464e+00,-4.126357149347438802e-01
-3.587992169488238847e+00,-3.724858007713184094e+00,1.063195560431844156e+00
-2.853969517795223787e+00,-6.673035604570117796e-01,4.380285914490098520e+00
-5.188588865854488752e+00,2.381845408436932821e-01,4.563725409932307131e-01
-1.475967380784698246e+00,2.500261771252891840e+00,4.388821542041895896e+00
2.797483201606644876e+00,-1.564715395452002999e+00,-4.151109630447164633e+00
-4.919836487688400872e+00,1.515018936408775607e+00,-9.749122227562125875e-01
2.723513468108403668e+00,-4.094536692070986028e+00,-1.931920895967979002e+00
-2.793533291592268597e+00,-1.207152522591246280e+00,-4.168699479940322306e+00
2.606657086473426421e+00,4.514012552061161365e+00,-5.841641743077248261e-01
8.052652820274054379e-01,-4.821518896869054771e+00,-1.737199977545528018e+00
5.042169469269356163e+00,-7.563228258111269753e-01,1.297687544750634858e+00
2.374368493807540670e+00,-2.873234024848732471e+00,-3.534201506686348804e+00
-1.909495307586650314e+00,-2.619810201278510498e+00,3.988211790099338128e+00
-3.713954392967802942e+00,-3.290758438474783443e+00,-1.819895691487362077e+00
-2.500704195939821961e+00,-4.518226948857295255e+00,2.506545408667006924e-01
-4.435421080407439653e+00,2.498424080385442281e+00,-1.207797791619386274e+00
1.775546712239373104e+00,-3.609407747357654017e+00,3.309804681052894271e+00
-2.009197262731466704e+00,-4.754562484088586949e+00,-5.529586876166556753e-01
-5.694655169020508279e-01,2.340636670563192023e+00,-4.613905711902396511e+00
1.840576506899216591e+00,4.287488428125302953e+00,-2.428104632160994925e+00
6.639187540352269046e-02,-4.800984055233215031e+00,-2.133876141845169272e+00
-5.301436679741385882e-01,3.754863792655947830e+00,3.570812788791631665e+00
-5.136946073289884396e+00,-7.966280093287462227e-01,1.332675717615853683e+00
-4.679143619723879155e+00,2.253061940441851263e+00,-8.081154030690927970e-01
1.113611893703098987e+00,5.049904455737258324e+00,-8.614586170314614266e-01
2.802978638276115930e+00,-3.190238462217535709e+00,3.108724886864393966e+00
-2.960529457393556552e+00,1.712906777574639827e+00,-3.978429254067145315e+00
3.830374161224606944e+00,-1.095066449989285262e+00,-3.487731799039921476e+00
-4.887174692394549602e+00,-1.533596156031616697e+00,1.154346120987653546e+00
2.012458949733141544e+00,4.340085493540491335e+00,-2.087309494253520636e+00
-1.318569364233328212e-01,1.358401166758211209e+00,-5.149172977558854392e+00
8.960659171686369273e-01,5.066766754186789790e+00,4.706775263279864840e-01
3.202682708990609139e+00,-2.970981179121135796e+00,-2.942055740616607018e+00
4.133017930236604798e+00,-2.649808493810930088e+00,1.861744346491178925e+00
4.928109566780089601e+00,1.357027207123757906e+00,1.109142898036869385e+00
2.997538324500635287e+00,3.296329703796058386e+00,-2.948978370613303479e+00
3.433817896059070396e+00,-3.882878447502459807e+00,-9.183623074457080149e-01
-3.994007107565830772e+00,-3.332753429087095043e+00,-9.119703083776820041e-01
-3.283617010781997525e+00,4.011520145251651570e+00,1.013405869120388880e+00
2.947374853721184351e+00,-1.007605364798977110e+00,4.228545735188409260e+00
-1.960921991750880444e+00,-4.950795869684025519e+00,1.266409717587308192e-01
2.342623962986118968e+00,4.422351449947207414e+00,-1.542354081461350113e+00
4.518791910182845761e+00,-6.840616457700168795e-02,-2.603316041378665791e+00
-3.030055276591286262e+00,5.647749563101017722e-01,-4.279209156363024569e+00
-3.503586361129897853e+00,3.199800500919058432e+00,2.028568916769638353e+00
-4.598215711157125490e-02,2.238389451465177871e+00,-4.755621477937786779e+00
-1.033208283431738428e+00,-3.940546549725957526e+00,3.238764303051710591e+00
-2.780423076378657488e-01,-2.521821989913813233e+00,-4.576678528257740908e+00
-1.210352285842416942e+00,-3.206646569610366093e+00,3.957615418808973828e+00
4.935650361373944861e+00,1.284698739931295908e+00,9.611234228163560989e-01
3.587450264859512572e+00,3.283465268204088350e+00,-1.928286058839708383e+00
5.113685064166589633e+00,3.291144978857487580e-01,-6.055337336302174522e-01
3.240964376487090348e+00,2.652153500679407916e+00,-3.087807408974943879e+00
-1.014346097513256634e-01,-2.042542621731863850e+00,4.799989868688207650e+00
4.758907595071288910e+00,-4.923098379087154086e-01,-1.998356497869052451e+00
-3.747477850918788933e-01,3.511666657277925374e-01,-5.264105627244919816e+00
-4.570072783639475666e+00,2.551087881522925205e+00,-5.873668611207988333e-01
-2.544523437343535477e+00,-3.342459905984946911e+00,3.149498097160610577e+00
-2.465671289177613801e+00,-4.197823831774116776e+00,1.892684799539110729e+00
-1.774219190120095435e+00,-1.324021871348784130e+00,-4.714987099070969911e+00
1.530557318817841628e+00,3.424564876542041780e+00,3.673949415853400069e+00
-1.618134405109700857e+00,1.432927171733013594e-01,4.956370525942207728e+00
7.809858580307158515e-01,-5.177082368470164120e+00,4.510471334924533171e-02
-5.205787101574991027e+00,8.223863695674754615e-01,-6.069598948399788085e-01
-2.603759744613775684e+00,-4.172600180525176228e+00,-1.746686808592023965e+00
-1.737991166761378325e+00,-4.226222132715819590e+00,2.607493626916334239e+00
-2.275407826711071113e+00,-2.899621663414897466e+00,3.770915312841539357e+00
3.888132541094701633e+00,-3.205598045773954574e+00,-1.132522510695813223e+00
-1.955594630430537384e+00,3.665605773421609204e+00,-3.243451109422272438e+00
-1.722466704367117130e+00,-4.722437202528387168e+00,-1.145940599934820225e+00
-4.697525455394821137e+00,-1.667854637432865994e+00,-1.860387961270481449e+00
4.865278490448353921e+00,2.993395875247671367e-01,-1.966348300513065750e+00
-4.101050228766258243e+00,2.015490168625911682e+00,-2.616994081452438170e+00
-2.288430567294793772e+00,4.177929409816403705e+00,2.293974595598109456e+00
-2.028246518281131561e+00,-4.518827262939518086e+00,1.584021296927688560e+00
-1.215505573833217806e-01,-4.855438291666136053e+00,-1.870778292435650414e+00
9.515194990920423646e-01,-1.024894309805662873e+00,5.114047194656894391e+00
9.593908728404533237e-01,-4.503931755247241320e+00,-2.208806019552823852e+00
-3.628194442478513082e+00,4.722049095698593324e-01,-3.748696556149071490e+00
-2.947847452135733182e+00,3.820202730407989744e+00,-2.058122178987808137e+00
-5.215093084786387223e+00,6.587463113586956576e-01,7.660408759640360277e-01
1.625314154372969888e+00,3.918872927081476831e+00,-3.151943555804167296e+00
-1.120564230871994749e+00,-4.241235353203865799e+00,2.782168319231660192e+00
3.643431085194683838e+00,-5.918233543512937400e-01,3.748278037710877530e+00
-2.980560675683083360e+00,3.373343738124616298e+00,2.730193392904445737e+00
-3.526262999746495375e+00,-2.270494147458460343e+00,3.135933322640296339e+00
-4.291252846267647136e+00,2.131542414369023586e+00,2.107096958357352445e+00
1.104911225324278323e+00,5.102557917104744156e+00,-2.866044320835653414e-01
-2.975943938756231977e-01,-4.375140174526198855e+00,2.798945525920391475e+00
-1.976932454485226920e+00,-2.056356919542063899e+00,-4.412081013344657521e+00
5.119827999195159407e+00,-2.402686115612573392e-01,1.001302096774800310e+00
8.281673896632503196e-01,-3.156813372821500430e+00,-4.261059252410980491e+00
-8.604214422776496063e-01,5.129440632041684545e+00,7.679559951009035101e-01
4.077874803402610215e-01,-1.495153936572523268e+00,-5.016433601842842371e+00
1.609022845776297395e+00,4.942791017308911350e+00,-7.897732087909576926e-01
2.497254266547583423e+00,2.889456965470169614e+00,-3.523941677307730114e+00
4.853507604619266225e+00,2.116559878171979214e+00,2.584678163735582568e-01
3.066940343103853994e+00,-4.021800824650889616e+00,-1.080423938083428403e+00
3.927984333635450742e+00,-3.301782131052924285e+00,3.294365961027057588e-01
4.696610496972799531e-01,-4.829083195048152533e+00,1.793313605858089410e+00
2.459441813063539595e+00,-1.353252486925022424e+00,4.361648636436423310e+00
-2.148771173439596005e+00,-4.341501131678435321e+00,-1.965885010595334714e+00
8.600300899816484268e-01,4.952459901003044784e+00,-1.615065761636514274e+00
-2.565337244368298464e+00,2.072592169956611219e+00,-4.157204323088319775e+00
1.909664639206219316e+00,3.693282364886443681e+00,-3.059970868701805458e+00
1.335388621508805329e+00,4.565379985155570530e+00,2.435255425709909716e+00
2.726150559618299329e+00,1.488190925926782260e+00,4.284982225572476544e+00
2.196992669611179672e+00,1.873175428902683848e+00,-4.368319709605266610e+00
-1.748539330344995313e-01,2.361042668951258972e-01,5.210297434998430788e+00
-4.028170711169634544e+00,2.271407297251077928e+00,-2.406404545688858310e+00
-5.042940638037887169e+00,-5.518684740044589310e-01,-2.867483704532444166e-01
5.001067930703658959e+00,1.145201431542497650e+00,1.101607318965968085e+00
4.184831896483754754e+00,-2.943168636838447760e+00,-1.041984205001152741e+00
-1.932978045018028723e+00,-6.598362029551100294e-01,-4.850766038484361609e+00
5.204775608074198701e+00,1.911010507629841426e-01,-4.154286502542639536e-01
-1.386730003209667661e+00,4.698446160071799937e+00,1.680177757587737242e+00
-5.132058183406619456e+00,3.087468409964617272e-02,1.243640388405496289e+00
2.171910517714064959e+00,-3.206094955652955214e+00,-3.529211402134869946e+00
3.452749056936030847e+00,-1.977474645005298681e+00,-3.342053570731040590e+00
-4.684222171816822211e+00,-8.579672992412117338e-01,2.292070004693310459e+00
1.488619836354257986e+00,3.256501010699537346e+00,3.921566539992752176e+00
2.812188493084128924e-02,-5.160498546502677364e+00,9.890643319739139683e-01
1.173186892178377017e+00,-3.336206234514771829e+00,3.913096241896586225e+00
-2.148319208383558276e+00,3.960529319672284831e+00,2.297188160946166402e+00
6.317194985831600662e-02,-5.264510934289578614e+00,-8.596025579699004271e-03
-2.224386835244695604e+00,3.564766327355372688e+00,3.149931265841635852e+00
-1.429839656369515710e+00,-4.590125100876062625e+00,2.103424344910155508e+00
-2.564623843974247919e+00,2.533135589830162182e+00,-3.800572952615949074e+00
6.983384416621497559e-01,2.410639535847372006e+00,4.630200172363539757e+00
2.380123139767284624e+00,2.733609033754765605e+00,3.825136909683821695e+00
-5.081247951830166976e+00,2.261482757675103428e-01,1.109275654370670328e+00
4.076610112457215718e-01,5.235405118878200703e+00,9.101722908666524114e-01
1.456290156726312290e-01,5.163564240571587582e+00,-2.120785354051586344e-02
7.117387270561351675e-01,3.432251058941670152e+00,-3.905739695273586776e+00
-4.705719540053662442e+00,-1.590504078760961448e+00,1.855544828883801456e+00
-4.621971241530427044e+00,2.298750414351420357e+00,-7.113441062330632114e-01
3.711909380934792502e+00,3.430333658155985344e+00,-1.106308318789738232e+00
3.508244203125637783e-01,-1.475528630898132576e+00,-4.943696549214151581e+00
-4.368657574669677857e+00,6.091698724307782475e-01,-2.838510861286464237e+00
8.681110541485396181e-01,-4.244432165145515690e+00,2.878696488402523013e+00
-4.397229736362235464e+00,1.561787147626827466e+00,2.335824596133345477e+00
1.952516369040657285e+00,-3.192854386745420658e+00,-3.748590722797336738e+00
-2.038884965921929027e+00,1.270723268653933147e+00,4.724707507315620170e+00
3.224524080058371212e+00,-1.014544332596657883e+00,-4.030914248725824045e+00
5.070936926833826686e-01,3.618684279891630773e+00,-3.685754111627883578e+00
4.970709225153035149e+00,-1.297966334259537335e+00,3.521906261541947747e-01
5.213004801696636825e+00,-1.579856648255087703e-01,7.136424538103594006e-01
3.165742432851269328e+00,-4.039301997388499821e+00,-1.221251685170500867e+00
-1.831411847688130035e+00,4.472897355749793746e+00,-1.804177038166387081e+00
9.471287163836156209e-02,4.578601915266672151e+00,2.645401647175525284e+00
4.533427694557096821e+00,2.233479464061062902e+00,1.407822583768753244e+00
6.419586335684349665e-01,-3.566903582035216402e+00,-3.851508902781848764e+00
-3.653810761395150042e+00,-2.479459363973803843e+00,2.789151466476302854e+00
1.776870947213828322e-01,-3.839311438763883810e+00,-3.551624142624235869e+00
1.943965525616146550e+00,-4.855293184778369131e+00,4.607649584246064633e-01
7.318368125825868153e-01,-4.314065191652221465e+00,2.835429627516875328e+00
5.036606612277100048e+00,-5.442100677139356524e-01,-1.311591097304934728e+00
-4.040910280304011337e+00,8.803641594308880824e-01,3.123098459696405094e+00
2.008710815164555630e+00,-1.520634595374148912e+00,-4.598585600261874795e+00
1.720086839404658008e+00,-1.717821849692290792e+00,4.723964517693902465e+00
-4.456953187052040022e+00,2.828276367672854619e+00,2.684044026907438374e-01
4.717598056699016773e+00,-1.637545152429932038e+00,-1.462567691760669808e+00
-2.767612367421098618e+00,4.352258359904753959e+00,-7.813083394602673426e-01
1.143064805920969595e+00,-9.554179989988888233e-02,5.023318916874825568e+00
3.657811370610423385e+00,-6.226169572640609662e-01,-3.589541365917932492e+00
1.204416537421701516e+00,4.447339473067153826e+00,-2.421615518152085755e+00
-2.041336808471202469e-01,3.768311262287653562e+00,-3.597026388884053905e+00
-4.343525223333815966e+00,-2.908429332280710877e+00,-5.040636112586109885e-01
5.062828060953877163e+00,-2.272506789400677296e-02,-1.448317257024618332e+00
-3.981521751250823193e+00,-2.899847410325561814e+00,1.633268399159980566e+00
2.905997784498930869e+00,-3.030638299053910245e+00,3.151237542833277505e+00
-4.204557163943698939e+00,-3.146629498456027019e+00,2.932243619475095042e-01
1.936239495552264156e+00,3.217172406778222360e+00,-3.636109703958342987e+00
4.112318552281518436e+00,-5.135481353986728337e-01,-3.136231041028714195e+00
2.382937648105104778e+00,-7.737867047455465608e-02,4.693287568449737712e+00
-2.065955111671007594e-01,-1.749701295788383293e+00,4.947845966802415951e+00
-2.128149605486890028e+00,2.596878919265031005e+00,-4.106330174640404174e+00
-3.555092468322865962e+00,8.222420997583175170e-03,-3.895565902165179839e+00
4.210717940492850531e+00,3.069239863043796035e+00,-8.726615403068505028e-01
-4.440150431985768975e+00,-1.879864872650397256e+00,1.932784017902826834e+00
6.183554341192938342e-01,-2.567675196719376718e-01,5.131205447924647167e+00
-4.559049321191773529e+00,-4.276958202980814944e-02,-2.409465795628195739e+00
2.722298670769820461e+00,-3.943184721145223559e+00,-2.204897649778563284e+00
3.282345904252434554e+00,3.664403993462873377e+00,-1.872175438560218952e+00
6.163657530539078389e-01,3.249302654019456393e-01,5.190768034235417439e+00
8.444773332524323495e-01,7.234249870819201567e-01,-5.146760797604581050e+00
4.301615235252356229e-01,-2.322780620833338361e+00,4.659031117600121341e+00
1.036376797596081367e+00,1.888607675659360607e+00,4.754091917882448115e+00
-3.327744849998409027e+00,-4.112334602922767424e+00,-7.430316581841114529e-03
2.060701879505956846e+00,1.129952052227352288e+00,4.642974100039662488e+00
-4.051902142903581527e+00,1.459874459960044835e+00,3.006069436827290886e+00
7.893786162227960368e-01,-4.592114946846226786e+00,-2.466461372618993231e+00
6.590904161247436166e-01,4.866855475635452954e+00,1.772263247058128321e+00
-5.161315257663425804e+00,3.573375455957270574e-01,5.431362326154767217e-01
-2.525297105952680532e+00,4.235552548726282396e+00,1.778102994637372980e+00
-3.662375696507528394e-02,5.179217068866942775e+00,4.697572075560128846e-02
3.392876978479107297e+00,3.897738206587100684e+00,9.418064125491999450e-01
-8.377456654510444523e-01,6.892638961436626799e-01,5.153653563561094941e+00
-4.804020006208245874e+00,1.699493838824805980e+00,-5.567297299347814254e-01
2.278478632668927695e+00,-1.503551986906451532e+00,4.498903668700132918e+00
4.862553350584127188e+00,-1.715047330277409687e-02,-2.023219468812819777e+00
-2.039507308820545539e+00,3.542990373159137008e+00,3.258151080902468522e+00
3.926989376570359180e+00,3.554378171044893175e+00,-3.179774621477384766e-01
-3.651486579535359600e-01,1.127629592854455520e+00,5.075943966863135870e+00
4.360988386079196033e+00,1.094879187614286487e+00,2.714033038135605036e+00
4.503924463316758775e+00,-1.138929169827173293e+00,2.525802096464891289e+00
-1.240735964844435157e+00,4.381545770797030670e+00,2.567136446625788881e+00
-4.770532579654809702e+00,-2.558792534579295563e-01,1.896644000024807486e+00
2.214491204420624637e+00,-3.073708294079468661e+00,-3.623682088999452766e+00
-1.491411098898067333e+00,2.027895547478326677e+00,4.556631625317736578e+00
3.356291128858042150e+00,-3.461529046670372534e+00,2.035405635238596744e+00
4.884845528748559040e+00,1.873604920291307652e+00,-4.686007904111186284e-01
4.067956529904014573e+00,-1.442997637799965815e+00,-2.947648835427559177e+00
-2.752116532876296429e+00,-4.374253264976415423e+00,-1.042084300710763856e+00
3.086329236585565461e+00,-4.155483322154974068e+00,-1.206495404084248602e+00
-3.259703486926885496e+00,-3.882852263537928561e+00,-1.218982485835912621e+00
-3.224435610103245864e+00,3.908928386707804403e+00,1.665389590288530064e+00
4.175289016009358534e+00,-2.952221617514113827e+00,4.362391081331886689e-01
-2.752736408198369400e+00,-3.018018845677234552e+00,3.247310965943447147e+00
2.280893137190050268e+00,9.974583033925470410e-01,4.533029498127191914e+00
-5.200466716682939916e-01,-8.794606947216251358e-01,-5.125110422916610453e+00
5.818755781405185457e-03,-5.165530742335440628e+00,-7.572731812785513661e-01
3.465406239146694212e+00,2.439255371883869206e+00,3.038463997163086905e+00
-5.042288857925619538e+00,1.129546974238915036e+00,-5.503976398721084351e-01
4.367526592182850997e+00,-2.497293711755264489e+00,-1.675451221983607741e+00
-2.201608852728740295e+00,-4.261222899779839146e+00,-1.910435954088058663e+00
-6.510768631357267688e-01,5.111001454811812117e+00,-1.229471888856672468e+00
1.226979511507074960e+00,-3.355972603285414468e+00,-3.713618919634220639e+00
-2.748330672694447419e+00,-1.010837777731076637e+00,4.428430631289735686e+00
3.893815126881339683e+00,1.289504785936282039e+00,-3.281070116953940463e+00
-4.239490680300181502e+00,-2.755517686541228972e+00,1.236088482688044499e+00
5.821822120233169917e-01,-8.554364457415213341e-01,5.264800226562099894e+00
3.201832371448105174e+00,4.021218176428377866e+00,1.000674529835464233e+00
3.029433047572425153e+00,1.515576667941362921e+00,-4.049788851639078757e+00
1.583580366138647388e+00,4.600814914652021415e+00,-1.827379004852157873e+00
-3.784371204460729388e+00,-2.279927111890928781e+00,2.697933245019846105e+00
-5.068231160545850322e+00,-1.125730309454278794e-01,-1.146600608476959549e+00
3.488532369895044560e+00,-3.403324617105523142e+00,-1.892756137654094672e+00
-5.033976653817062719e+00,1.169154950472319099e+00,-7.432761950937178952e-01
-4.167168937213711288e+00,-8.039751285309114648e-01,-3.175437186966081793e+00
5.445207833777983009e-01,2.195217985439200881e+00,4.690899611850807283e+00
-4.941585121953893101e+00,7.583207853575973934e-02,1.551067956434153405e+00
-3.056928932826464829e-01,-4.022224070836389664e+00,3.249819507263923324e+00
5.214905472021782451e+00,1.816510475593116625e-01,2.460384638165784010e-01
4.329241657519192543e+00,-2.547907754175698258e+00,-1.644851190497201632e+00
5.156379945721061731e+00,1.507085879356680591e+00,-4.411601290802603659e-01
2.711502330702937336e+00,-1.721396344618153051e+00,-4.215592013265736959e+00
-4.997121713479665495e+00,-4.341956789960280810e-02,1.533007404113331917e+00
-4.806880024282725650e+00,1.432172469717034380e+00,1.905931995436852988e+00
1.688805589635866689e+00,-4.819377032413279416e+00,1.672054436109327913e+00
1.260508245208420863e+00,2.736688928815297572e+00,4.316346726807691603e+00
-5.177913944931832546e+00,3.790714369804359940e-01,-1.206125531543941198e-01
-4.844484090458710313e+00,1.864393895990648753e+00,-8.318151614651250192e-01
-1.609914274420938707e+00,-2.028709584903831409e-01,-4.954503384987692272e+00
2.945461169069708340e+00,-4.102940837552958797e+00,-1.185678487022747918e+00
-1.468676145911795849e+00,3.604054725597045650e+00,3.463499829919207684e+00
-3.226523818021213574e-01,5.033825594617256094e+00,1.534521133847586150e+00
4.568710933213350422e+00,9.494225265860093410e-01,-2.442238746208742484e+00
-3.451946085526840680e+00,-1.937342693238410574e+00,3.464352672978905812e+00
1.512429030770023441e+00,1.584307114944691341e-01,5.070383315112956701e+00
3.599793817932083861e+00,-1.645489083551257448e+00,3.381989584384403003e+00
-4.077846700689993220e+00,2.483024624622653942e+00,-2.064302018848178211e+00
8.930884694046091754e-01,-5.119532631655693500e+00,-9.720395833800243857e-01
5.124273221536152612e+00,7.969761487043682813e-01,-1.063176897848245206e+00
3.793094420013485735e+00,-3.072044196432565766e+00,1.861100661109299725e+00
-2.425778119204056171e+00,-2.310141672093892762e+00,4.088562942765788577e+00
-4.004522609194141936e+00,2.599206160777319141e+00,2.154783926646634207e+00
-9.773133182235352878e-01,4.702021475522166760e+00,-2.176115099510696371e+00
-4.320376803169783564e+00,1.940761218825548085e+00,2.298285782560046897e+00
-4.470763020291994294e-02,5.141439949272431420e+00,1.296777306099829774e+00
-4.718352147336950964e+00,-7.812757330723669735e-01,-1.974263307437493786e+00
1.840671297416974550e+00,7.615637772989626575e-02,-4.852871981776854859e+00
-1.916644105837524092e+00,2.831340806643322328e+00,-3.943927713774276977e+00
-1.363251090153245748e+00,5.093123635215432543e+00,-3.447070717562129016e-01
3.721278057405743134e+00,-3.268730822505651279e+00,-1.688607339322684364e+00
8.693636441247160063e-01,-3.837879262051573814e+00,-3.415248434600853145e+00
-6.116130049396694135e-01,4.113511326492958808e+00,3.227134660878603789e+00
7.603327200214611281e-01,-4.948845204144081578e+00,1.625179228015595445e+00
-2.810364656579616760e+00,-4.434701880992200529e+00,1.130561562019683081e-01
-4.299596509759421537e+00,-1.473672652191563293e-01,-2.999104318654592038e+00
3.270131301841256999e+00,1.227694685463841751e+00,3.864840233083778553e+00
-5.283928533357473700e-01,3.073239895073987427e+00,4.272390759014911943e+00
3.623057454868893412e+00,-3.235091580831620295e+00,-2.093145035018225464e+00
3.509496097246201263e+00,3.969435721473030920e+00,-3.051247761416001625e-01
1.218626237618094077e+00,-5.076807040153433981e+00,7.870642012824186073e-01
2.704873146092025227e+00,3.166684622711879005e+00,3.336142683129220465e+00
4.185531022702215331e+00,-1.519824582058547424e+00,2.853532087605931356e+00
4.343634532932303394e+00,3.048601825860248749e+00,-2.381275378955644562e-01
-4.501113441893656031e+00,-1.240721130941187411e+00,2.371018184497898584e+00
-9.069035555832343221e-01,-4.533167876846446731e+00,-2.443213447734589483e+00
-4.444226664667628945e+00,-2.804651057330094233e+00,-6.953961950086842148e-01
-1.255102626924851084e+00,-1.558765098322788090e+00,4.941218758884183160e+00
8.527220470528278362e-01,5.144029539361217651e+00,-2.344575848918017402e-01
-2.327751973356865900e+00,-3.249143970330053754e+00,-3.444288654296831176e+00
3.275227639846311156e+00,2.788471402282811873e+00,2.872864268276807742e+00
5.270337248721184142e-01,-4.994125910366038035e+00,1.600412396471980969e+00
2.500205192563707879e+00,-3.797796525341209595e+00,2.693605444598285548e+00
-2.460543463203737069e+00,2.486092668943894246e+00,-3.914998189966749642e+00
-3.619440232615158681e+00,1.313205297580054332e+00,-3.673116800332613341e+00
-4.814779870895042890e+00,-1.002852213015593241e+00,1.909175927383428117e+00
4.518220306934446207e+00,2.671230455991832287e+00,-5.599877776425541409e-01
3.007357775816586365e+00,4.222608366833238591e+00,6.100395780065053231e-01
1.206788991746972961e+00,1.371215885782509414e+00,5.004406373846339129e+00
-4.079173074145016287e+00,-3.134926960377792504e+00,-1.231092883679882899e+00
-4.964869634882522753e+00,-1.073315538208209574e+00,-1.413643969035561776e+00
1.074876911313326522e+00,-4.999984224761360174e+00,-6.024671534971250964e-01
5.206788792371854768e+00,-2.759391377645155630e-01,5.872926147994261825e-01
-4.625578268423562456e+00,1.679535272509023347e+00,-1.905658568518556972e+00
-3.607302674069989390e+00,1.859704774826351326e+00,-3.351973524198883947e+00
-4.390914645013179740e-01,5.191018688263447700e+00,2.881147313142801147e-01
-3.728630031408926904e+00,1.612721892064010731e+00,3.178170766713857454e+00
-6.306198724558126356e-01,-5.183619635665933423e+00,-4.134070806587135383e-02
6.949787149583340762e-01,-3.129210253257248553e+00,-4.025614291289704383e+00
4.302403626836404094e+00,2.646017903230135193e+00,-1.090373133959988028e+00
4.479091526338287110e+00,8.550165511520831929e-01,2.540411380500319005e+00
-1.339293746343784397e+00,-1.693307560189208028e+00,-4.727837154593312441e+00
-3.825100990086935493e+00,1.106864378580405983e+00,-3.292647643734934793e+00
3.236717458369227973e+00,2.590199722195758891e+00,3.067639907365557139e+00
4.327111693278965276e+00,1.286561403245114477e+00,-2.618317540938809085e+00
-4.109781911939431431e+00,1.503482029498442785e+00,-2.885252648585298285e+00
3.144669912228572617e+00,3.847793615143474621e+00,1.572076208183859736e+00
9.389225142514847633e-01,5.110698795376989345e+00,1.024811021175723535e+00
-9.045012618434326024e-01,-4.827616360500121218e+00,1.723006559927711345e+00
-2.700478294391567502e+00,-4.135596848989444574e+00,1.875904131267785324e+00
-2.884502152722900004e+00,4.521419373941269804e+00,7.945466085464858441e-01
-2.981896402412511193e+00,4.168893151072131431e+00,1.218800029341215119e+00
4.777952679828546323e+00,-2.252854751269189659e+00,-7.093803655869788116e-01
3.063607655831329879e+00,4.111964805330587502e+00,1.162225254191024515e+00
-3.618468073419192521e+00,-3.110835377341529817e+00,-2.335639118069047893e+00
-2.036170229459622227e+00,4.404349850552993217e+00,1.812257953031495950e+00
3.605690132816654181e+00,3.451899412417831048e+00,-1.381852452370480488e+00
3.215878361859525469e+00,2.105139844231707080e+00,-3.508702401992651154e+00
-1.752620207199853564e+00,-4.374301105313896265e+00,-2.322797074195539047e+00
3.039172862877471459e+00,4.258245238937361954e+00,8.612307819440902235e-02
2.056371877960169403e+00,-5.313439362224338103e-01,4.817403310735027588e+00
1.244430205385091970e+00,-3.267833864751160888e+00,3.931864678443193206e+00
-4.319156738576334753e+00,2.572475718295846647e+00,-1.539485531522435391e+00
-2.141911954705747745e-01,5.230182224392009083e+00,9.853811005275622259e-01
5.162129198496551830e+00,1.760712436039892775e-02,5.882922887652378696e-01
-1.793745822752265351e+00,-2.365914512416397386e+00,4.320654368746726703e+00
-2.991775978603446462e-01,5.152145136196357278e+00,4.371271307236049841e-01
-1.233137083731311368e+00,-5.073475323393310532e+00,4.489740740870306057e-01
2.156320952682020842e+00,1.658447327404637850e+00,4.463233023565398305e+00
2.144985380131930963e+00,4.336616700334522179e+00,-2.132872516176637756e+00
4.046695280983109377e+00,-3.319742429676296069e+00,9.664187582263541465e-01
1.709671251070195463e+00,-6.794986145936511290e-01,-4.849868148546252478e+00
5.339371299340737176e-01,1.846555463364318639e+00,-4.905958385548208511e+00
-3.572891480478781023e+00,-4.754851291821671766e-01,3.735112017901988768e+00
3.143555673531021277e+00,5.381079844212186547e-01,-4.066708859949705435e+00
4.436943672192920296e+00,9.813702793700788130e-01,2.595987342501606676e+00
1.861796656270347183e+00,3.642271036189395517e+00,3.191898096459463652e+00
-3.291270865106490362e-01,5.070886052244710562e+00,1.668574861553560051e+00
-3.936516594308132611e+00,-9.254188592673666669e-01,-3.374035800157520804e+00
2.171239452583239693e+00,-1.084452544760073689e+00,4.739994158533360924e+00
7.864711722311970021e-01,-1.703526990696871524e+00,-4.795496931643464578e+00
3.807781969343316586e+00,-7.177521065531065059e-01,3.583310916805284130e+00
3.850145392251589804e+00,-3.450995494101302352e+00,-5.896137884494198067e-01
-5.129982571214599218e+00,-4.525427510023097843e-01,9.468573601545340335e-01
-2.932427002308972241e+00,4.032513064672172298e+00,-1.531669351901137732e+00
4.155941606706268665e+00,-4.389873882082981349e-01,3.068553218964670481e+00
-8.605740109647887215e-02,2.727878345076056643e+00,4.426707974058041728e+00
2.925296863187888619e+00,-1.551813733896773462e+00,-4.058187245148883626e+00
3.883530609139931311e+00,-1.286694196255465439e+00,3.164998020505144005e+00
-1.722140556394885058e+00,-1.282085798041135094e+00,-4.840134060917579362e+00
-4.158220142817094178e+00,2.496595766001535655e+00,-1.972262105896768203e+00
5.137834107290569996e+00,-6.008632711688788319e-01,-1.086348971212581116e+00
7.296491373279252457e-01,-4.621932365893020034e+00,-2.404648110583906817e+00
3.005028558287784701e+00,-4.027724424141205795e+00,-1.691802129925206843e+00
-4.383505470781850377e+00,2.385748095733021490e+00,-1.764534304569462808e+00
3.992171972299722427e+00,2.757673837780924675e+00,-2.165782791976261556e+00
-3.542733671165174680e+00,2.218900012982675030e+00,-3.244585772989915462e+00
5.219328800594937867e-01,4.482399218352410841e+00,2.541038521513488746e+00
-3.545520697831317847e+00,7.681992824419884291e-01,-3.874969302079438016e+00
9.002742220458997968e-01,-4.793225939760247023e+00,2.159848928595268447e+00
-1.290783481626937457e+00,4.406322964981604251e+00,-2.458065708469845401e+00
-4.351405398155277382e+00,-8.003017320558026837e-01,-2.833713404909907752e+00
4.269588848224805666e+00,-5.149696032601479567e-01,-3.059836386254993545e+00
-1.457043145694101538e+00,3.141395603249492741e-01,-5.098777492473513639e+00
-1.169802458676696189e+00,-4.236603196810197147e+00,-2.639099494096139420e+00
-4.757813177308944930e+00,9.246815737288005543e-01,2.057733200693167230e+00
4.703413614996383885e+00,1.617443848811451979e+00,1.923348100063170918e+00
-1.204764422886892145e-01,5.033784961043000550e+00,1.323348821987804014e+00
-3.898198368408570591e+00,3.431526758977224922e+00,6.641980825300155544e-01
-2.756641252428516875e+00,-2.068707172246264214e+00,-3.962554023730881614e+00
4.359125712484608783e+00,-2.861501997050468038e+00,3.362231909103438610e-01
-3.761703851986971880e+00,2.057371839851620532e+00,-3.105266382834654948e+00
3.761314211078809588e+00,-1.746924538949119476e-01,-3.683342624686483102e+00
-1.407121199621881091e+00,1.263908273522321268e+00,-4.789431926120433225e+00
-2.630956421108172183e+00,3.298527833831483846e+00,3.083256546205962678e+00
1.291708671070041170e+00,4.646479162734619694e-01,-5.049544838987278794e+00
-2.303737806161001156e-01,5.252380693447324056e+00,-7.336932914515812421e-01
-1.257735653875198922e+00,4.317249052065701420e-01,-5.025551897280861269e+00
6.199769678619933000e-01,-1.924389234194031406e+00,-4.837615950901862583e+00
-7.968600376596929324e-01,-2.808220488661256620e-01,-5.173605235226254706e+00
1.323801257436585610e+00,-8.148028791507777591e-01,-5.022296400327469712e+00
3.269162082844309758e+00,-3.131484558891227010e+00,2.465779862640265385e+00
4.479511139860252733e+00,-2.569691543397266464e+00,8.331566511437179523e-01
4.826669053968760004e+00,-1.841776302760797179e+00,1.113743304149555913e+00
3.929873514208529706e+00,3.301628114681889326e+00,-9.388172312176428225e-01
-1.235981858283294654e+00,-3.475375452249819030e+00,3.683937709934664184e+00
-4.179096083015013896e+00,2.178334120986086475e+00,-2.226802378715073250e+00
-2.908620944616082227e+00,3.292470862974890444e+00,-2.766481515861514140e+00
4.012513451521932950e+00,-2.940275048683096415e+00,1.472675941698672553e+00
-3.174130017757451405e+00,2.417853993590856048e-03,4.173983533273670332e+00
4.046325517886376844e+00,-1.094288183807510695e+00,3.168802347977063061e+00
-2.877202690546495578e+00,2.319803561474973019e+00,-3.768313000179620342e+00
-5.158229660070110967e+00,-1.213760961725863563e+00,2.638269071994454595e-01
-2.541313184595378249e+00,4.441991820958457460e+00,8.756917134521032819e-01
2.714572334309688362e+00,4.506802675611591980e+00,5.000562823784094890e-01
-3.841583697697432132e-01,-4.947083554095718760e+00,-1.765230800464873351e+00
3.752457739902629097e+00,-1.965241363524238283e+00,3.073018487582311664e+00
-1.342007916946288959e-01,-2.834115578011244807e+00,-4.449326149863666480e+00
3.442008992486433883e+00,-1.024996986008455568e+00,-3.858159842066915868e+00
2.012529367453230744e+00,-2.372503517589897637e+00,4.188296025580576121e+00
-1.061685239363273192e+00,-5.097933827021120301e+00,-2.279621324248732456e-02
-5.124330491631791773e+00,6.751796987678000406e-01,-6.944453461876654021e-01
-6.537234545487748960e-01,-2.283897789430338499e+00,4.673260387931855497e+00
-5.094067964411614469e+00,-1.067662028309083327e-01,1.220511518960132102e+00
3.614237226791553237e+00,-3.654042688564077768e+00,7.541907967260476076e-01
-4.657906856623942105e+00,-2.283880308330789255e+00,6.937003536081393085e-01
-4.184447979648771465e+00,-2.317502683532798091e+00,-2.173307502050511264e+00
-5.151123787079103344e+00,7.574395667826939738e-01,-2.737899872203657936e-01
4.910082565466110438e+00,1.794957834029719812e-01,2.062148539660469293e+00
-7.219929488326084499e-01,3.553486894298439891e-01,-5.304582768528169012e+00
2.796698607591637575e+00,-4.485536664818235764e+00,-4.784214319851660679e-01
4.030006852650857674e+00,2.591398416482959099e+00,-2.147066577384726838e+00
-2.146265685701548076e+00,-4.744613926032284823e+00,-9.564715049989540585e-01
-4.405812757337306707e+00,-2.756242705843883201e+00,6.124109675663207408e-01
-2.938500898324003519e+00,1.009287628097217171e+00,-4.283220093909974935e+00
9.065483645790386458e-01,4.013840071429329193e+00,-3.380581562944835916e+00
5.176363111034185671e+00,3.111928874367620584e-02,-7.598992508356707809e-01
2.969923311781604180e+00,-3.802718590986798652e+00,2.124772013335944010e+00
-6.759614408685737930e-01,-5.203472368429070904e+00,2.730619423857894579e-01
-3.655135570623025743e+00,-2.433284335467897463e+00,-2.854513815864609949e+00
1.494129547618324505e+00,-4.335076634059765510e+00,2.308579774285267394e+00
2.678987074950153868e+00,-3.986434190463338911e+00,1.972812700277415621e+00
2.221231585051917090e+00,-2.474266752687763193e-01,4.703905580919181872e+00
-1.580331301173274028e+00,3.197392649199694237e+00,3.737673054293864094e+00
1.226956883761600281e+00,1.944310128221215628e+00,-4.749761868957319777e+00
9.934555671108956654e-01,-5.058208681445583110e+00,3.781428557588419892e-01
2.995566404764124502e-01,-4.400736405504549253e+00,2.715974515039625725e+00
1.738969855083171590e+00,-3.010338321234743653e+00,3.980084427695663507e+00
-1.302249302535208042e-01,1.514071206383304613e+00,5.051043481323531203e+00
4.273714818179034758e+00,2.712257892902505851e+00,-1.230333386450505939e+00
-2.154928517498979068e-01,-4.814288268642816782e+00,-1.972240469497322346e+00
-2.895293619685393782e+00,3.540416505368965350e+00,2.546064909082997207e+00
-2.111867327218175827e+00,7.087456767522158918e-01,-4.859017951145668590e+00
3.265966536733624803e+00,2.498509438110478431e+00,3.314350164873301807e+00
2.730495125732024242e+00,1.423920876053067941e+00,-4.342549999432889329e+00
-4.053693934606804605e-01,4.902539753556092172e+00,-1.700720407885164764e+00
7.742416543653830585e-01,3.307579137628716026e+00,-4.044332445353372663e+00
-4.259478875906190787e+00,1.579126062868236424e+00,2.501512510999913008e+00
1.218486329784759459e+00,-3.500619515422493944e+00,3.735943377041988089e+00
-2.731433804436266488e+00,2.702066421023789022e+00,3.523306038915148264e+00
-1.303831034784763476e+00,-4.911079904715943911e+00,1.381707357479494025e+00
2.037660954018582604e+00,4.348841957221145194e+00,2.178486364633664962e+00
-4.393301631241836702e+00,-2.277821230962101318e+00,1.981618091489332212e+00
2.324761765906588451e+00,-8.365971996419151457e-01,-4.657723033469419960e+00
2.283210952805992733e+00,-3.769520131468868218e+00,2.796685402193552772e+00
-3.997052605938026471e+00,5.133837347212572011e-01,-3.413932663610454554e+00
-6.345171430682933211e-01,4.679177713238745540e+00,2.185454370303443472e+00
-3.548174595881912197e+00,3.455459936310946834e+00,1.681896987123253195e+00
-1.228155792627522835e+00,-2.678877713083991363e+00,-4.308825224622916394e+00
-2.408448680585535406e+00,4.232875248280191904e+00,-1.935258497062827265e+00
4.860177099868348449e+00,-8.652699353494089918e-01,1.753733607147930584e+00
4.365756458363774684e+00,-1.776207706108680284e+00,2.412730937313713575e+00
4.851654918770785585e+00,6.506386491951199336e-01,1.826181122163608617e+00
-9.539535240639764879e-01,4.170859499358465783e-01,-5.072842238275691251e+00
-6.204433613924525970e-01,-4.471668186462713912e+00,2.803393437307085456e+00
4.172277488442308169e+00,2.399285535481347598e+00,2.013226235477354908e+00
3.192627778364939939e+00,-4.059765169759899095e+00,-6.640211714720102298e-01
-1.839633507310026284e+00,-8.050273919627040087e-01,4.905126293229261414e+00
-7.241745991700315743e-01,-4.931178677925467824e+00,1.596965958971283239e+00
-6.582337582063607639e-01,1.781954035117539359e+00,4.889467832355729904e+00
-4.777046757478909278e+00,-1.940738488922528093e+00,-1.581400716467637468e-02
3.767815063081743077e+00,3.483484304494735451e+00,1.153477198191339204e+00
