1.107853587914531701e+00,-3.874367392141680355e+00,2.990681952132750787e+00
-2.749599900616152226e+00,-3.924601846723352772e+00,1.557665452488303570e+00
5.055746993069459627e+00,7.066804111463027560e-01,-3.055582563859761125e-01
3.642401801140616513e+00,-2.407530837742867469e+00,2.482434650206020166e+00
-8.489130056647924416e-01,-4.982427267181496866e+00,1.662488907029339436e-01
2.746932490503947832e+00,4.023924910599681048e+00,-1.362871413158887046e+00
-4.843535290499571211e+00,-8.804066840328254040e-01,-2.059157398700125347e-02
-4.934324746129362005e+00,5.894669453639952289e-02,8.897773752333009156e-01
1.289543220614468300e-01,7.134425320008490612e-01,-5.016923756253757638e+00
6.652467537130287711e-01,4.742327317446490831e+00,1.483857884354269574e+00
-3.324077324098113628e+00,-1.708121619534212376e+00,3.416036576801242841e+00
1.228732336496149546e+00,1.760981885230023192e+00,4.641112323624584590e+00
3.514484612161169697e+00,3.679577483692335171e+00,-1.000825364645307330e-01
2.106914790935232151e+00,-2.364692980001576128e+00,3.876047163714826382e+00
-4.243419884472309001e+00,-1.466633202331535379e+00,-2.229477133287441681e+00
3.614881730515612457e+00,3.325193103039296272e+00,8.323541011570609882e-01
7.560444959598242587e-01,1.210346929755004686e+00,-4.827022476645446147e+00
-3.878118046310100375e+00,2.721825219516941008e+00,-1.702635344315627686e+00
4.308104025042768015e+00,-2.498924009104947164e+00,5.552089595011800993e-01
-2.537957295059081186e+00,4.446259026597079722e-01,4.489319338884048882e+00
1.082798517355523904e+00,-1.487550510030204443e+00,-4.839542633590735221e+00
3.876984208285303879e+00,-3.074990557189820173e+00,9.318131238742983768e-01
-1.571659150428774687e+00,4.250752184552833768e+00,-2.393270005113756760e+00
-2.990239261429158191e+00,-4.056884598889339166e+00,4.454807961869836630e-01
-2.297814751919277754e+00,4.548487208371675194e+00,-9.446305884668354524e-02
-3.105206463034168696e+00,1.918760182857019103e+00,-3.543906382825979140e+00
-4.829096441528769823e+00,1.303528791015153843e+00,5.597085173832725413e-01
-2.813002356721518105e+00,-1.371259278763900857e+00,-4.001242170173698653e+00
3.685261355169876740e+00,1.673258381841709053e-01,3.467159280805566013e+00
-4.730846289033973306e+00,-1.050040444880697560e-01,1.785149732375653997e+00
4.007102746807192695e+00,2.757920734963914100e+00,1.532502204486538178e+00
-1.463726268143287434e+00,1.421490578375464997e+00,4.545268550825979581e+00
1.095902444820927357e+00,-4.938591996634098535e+00,-2.132680498398834834e-01
2.461800041682312035e+00,3.989175490062874641e+00,1.761866540731074959e+00
4.559941077184202385e+00,-5.876248449919810879e-01,-2.157238153594438934e+00
3.592985461546871484e+00,1.555762729346087170e+00,3.042145631160965813e+00
-1.602241698362244504e+00,3.394552989208628802e+00,-3.244070182620953702e+00
-2.061023374922719587e+00,3.857990555839577063e+00,2.626369818982940529e+00
-9.434438129845794663e-01,4.874423645440502106e+00,5.078184119410005248e-01
-4.549796144593766911e+00,-1.169306933443063024e+00,1.854542430537305497e+00
2.132529230045205448e+00,3.179684026917888762e+00,-3.259876210876530234e+00
-2.951426663836855813e-01,4.860026429256589786e+00,1.184876732828323398e+00
-4.464916035273041039e-01,-2.508081033477051136e+00,4.330571855945970938e+00
7.799736275720959844e-01,-4.724362289263633663e+00,1.688634615686970930e+00
1.855090406330400343e+00,4.134432316697122189e+00,2.278128139888915271e+00
-2.199403375958459250e+00,-2.881298880727934275e+00,-3.484461152990718347e+00
-4.618309310512583643e+00,2.336418474509188936e+00,-2.178223115415927336e-01
-4.762763201236930755e+00,-8.300246429793526337e-01,1.538578562287983287e+00
-3.657076925682123947e-01,-5.038050213818444867e+00,3.065660979606461556e-01
2.967409686540605218e+00,2.481898800546737061e+00,-3.293083073183412424e+00
-2.521641901243086625e+00,-1.183552638822993108e+00,4.229678543923196976e+00
4.365830016348200893e+00,-4.796908893226710102e-01,2.613987442309882336e+00
-4.142251764874075981e+00,2.920220414356549110e+00,-5.535383938742383797e-02
8.624817122220627130e-01,-4.782364118659529595e+00,1.330644748292719060e+00
3.320879982885101556e-01,-1.793567778404139501e+00,4.807750969688897591e+00
-7.891153684541503122e-01,-4.840020907548905349e+00,-9.097616000952466475e-01
4.270962943889101027e+00,1.478161417837936309e+00,2.328511378217588579e+00
4.213319977004403860e+00,1.468134350771316043e+00,-2.404576570694901605e+00
3.854811499765242289e+00,-2.512102860603882881e+00,-2.078996728075824141e+00
2.207893739908578290e+00,-4.203787409157873078e+00,2.013513967149282102e+00
4.415584415038495969e+00,2.478445599026755097e+00,4.260848631210757409e-01
-2.452468556033754243e+00,4.079266037402113021e+00,1.825963271972724788e+00
-4.334473820962009505e+00,-2.627957605240772931e+00,-5.522859305882481529e-01
2.256609027209806939e+00,5.699128798430325160e-01,-4.503880594718819630e+00
-3.060348450692357836e-01,5.103521761887916952e+00,5.453403895951803859e-01
1.044877972998409676e+00,-4.889094631636222488e+00,7.475942857418410581e-01
4.531729722779538783e+00,-1.514022949847233956e+00,1.586734378817512559e+00
-2.189991683725363458e+00,-1.467494089452329453e-01,4.593230348447836953e+00
-4.458796568928026005e+00,-1.706603678472699226e+00,-1.421182019760959037e+00
8.012185639814804750e-02,-2.578875107726111615e+00,4.368919107006001390e+00
-2.906518222844763355e-01,4.270380372333486108e+00,-2.630110661811746464e+00
1.268158442807370667e+00,1.866396701500403488e+00,4.519291438876240186e+00
-7.903616597125474597e-01,3.730432162643669614e+00,-3.316680556637950250e+00
3.907976012990342696e+00,-2.464877257171413927e+00,-1.936565359707268730e+00
2.573875926379942225e+00,-4.242743483265690507e+00,9.366052817860426316e-01
4.616283340384724987e+00,-1.818817971056854610e+00,-4.371096688616115666e-01
2.643819610344328996e+00,-3.698659315788469293e+00,2.134575903182451828e+00
-2.792510494753716599e-01,2.446341306005057170e+00,-4.393556793210906086e+00
4.774637499175566901e+00,-1.124884955570315981e+00,9.936467705729212785e-01
4.340876257322720533e-01,-8.155014749105420346e-01,5.021306442202627451e+00
-4.790504750097731801e+00,-1.108670505453380084e+00,1.291916658862432454e+00
-1.818738215813631820e+00,4.140576094439646582e+00,-2.287813209128515712e+00
-1.281621109130760772e+00,4.758271344150375448e+00,-1.067412712370680694e+00
-4.179053575489333761e-01,1.177528968487007388e+00,4.870385732002373125e+00
-2.582150300020999434e-01,-3.150747776104921183e+00,-3.961617329241176488e+00
-2.329198083140238573e+00,8.920893989677799452e-01,-4.373608864498707227e+00
2.249397236739000938e+00,4.524826774578865063e+00,1.046654659504973606e-01
-4.842521177401931887e+00,6.522081235263202936e-01,1.533090156518490454e+00
-8.071087439541191344e-01,4.359425914036576089e+00,2.393219680438473773e+00
-7.356849834176852898e-01,4.659650434129644303e+00,-1.881353814339525421e+00
-1.812282223942961457e+00,3.729660687765445015e+00,-2.952006191877747376e+00
4.658138701715533792e+00,1.705135547866008849e+00,5.012722288576419993e-01
-2.322895193729904495e+00,-3.172586367113112260e+00,3.228850478425661752e+00
5.278708495750949331e-02,4.681798696055135878e+00,1.687270957782637248e+00
-3.428332849829566875e+00,2.645794966512744040e+00,2.761416434926546426e+00
4.627919391754820921e+00,-1.876314722587904882e+00,8.972159981932679162e-01
-3.868391076283626440e+00,-9.824068782023817059e-01,3.147863167206655266e+00
-3.699888988325262584e+00,-2.916249486860738926e+00,-1.963275153503372339e+00
-7.392382071327315840e-01,4.893147037061665650e+00,-8.422113374042562439e-01
1.657981504912723558e+00,4.267522676595464581e+00,2.069292741949550596e+00
3.133446159905959316e-01,1.251993872323922341e+00,-4.952458776716827771e+00
2.584259022019781415e+00,3.600932272179191873e+00,2.158900391963823662e+00
-2.790365420192785884e+00,1.679131450557348471e-01,4.213559191576238483e+00
-3.462136863345205651e+00,-2.897992925996575320e+00,2.293102498538454270e+00
-5.030728316591528859e+00,9.612078271030244370e-01,2.482885461417436990e-01
8.169280247728430977e-01,-4.408344786189479336e+00,2.434806757053546100e+00
-2.032038027986946827e-01,4.518429461464288366e+00,-2.164871514004225617e+00
2.840048158316745397e+00,-6.273638297847980438e-02,-4.209218518566760103e+00
-4.155868075585071431e+00,-1.933688078074635941e+00,-2.194707500221663388e+00
-3.023696480356572458e+00,3.435450593421704113e+00,-2.146784002460840668e+00
-4.862294510531837588e+00,-4.962993495225693219e-01,-1.281286406302675429e+00
-4.851714930487450728e-01,-5.018274233854240762e+00,-2.374144471579271998e-01
5.767046121705934336e-01,4.409865714111790957e+00,-2.332272117794959687e+00
-4.317291564395264736e-01,1.940107520863823432e+00,4.665904296666285589e+00
4.524689752824303746e+00,-1.115981119618100426e+00,-1.922242034045870129e+00
2.404055530859098955e+00,2.170541376330839878e+00,4.043862922896471979e+00
-2.442321136375656732e+00,-4.366017175058888533e+00,-8.540281801344157264e-01
1.652455492277936644e+00,6.818456369109605619e-01,4.742480791194557455e+00
1.014621338812259771e-01,-5.072110771620851111e+00,1.491885356414146824e-01
1.974329809469166586e+00,-3.755035450190741919e+00,2.676525670403723911e+00
3.701573434143757613e+00,-3.283481704975209858e+00,-1.305347080319628317e+00
4.153223008242733272e+00,2.691104346511582701e+00,6.580764794561083653e-01
4.479231745416521804e+00,1.948579741527051379e+00,-8.809032901333100352e-01
1.572731505975736299e+00,4.493609811044702695e+00,-1.505346945341116793e+00
1.897799824615976183e+00,1.039813303388116283e+00,-4.515162550032091993e+00
-3.093965671350278335e-01,4.360237901955903439e+00,2.521804590422704440e+00
-4.396712547423917150e-01,-4.962896117775516203e+00,1.072624482277925173e+00
-2.243107405911312302e+00,-1.645246785291463620e+00,4.301212835410959556e+00
1.125801438532790355e+00,-4.271816765142878225e+00,2.305957721722724507e+00
-5.698773521231724759e-01,-4.281366082693692121e+00,-2.820341218093894931e+00
1.299280082966103533e+00,-1.646509504667852175e+00,-4.658189798787399027e+00
2.148873072968820352e+00,-2.835585548797482591e+00,3.590261401354873705e+00
-1.097098552908722491e+00,4.272466351809262042e-01,-4.897991017287847804e+00
-3.914468719848710254e+00,-1.213398933397527690e+00,2.920222523567185480e+00
-4.336922871437231208e+00,1.901053259549855046e+00,1.278520138828956210e+00
3.985408757363852139e+00,-2.339648063285466151e+00,-2.073795052747071654e+00
4.832070764376620531e+00,1.391100000024328986e+00,3.432584955187611420e-01
-7.376601700807799977e-01,5.987929240070259951e-01,4.990997868666474879e+00
4.708163936181827047e+00,-1.696562843842032153e+00,-6.262333510044911788e-01
-2.940042960558575391e+00,-3.718277390686814066e+00,-1.588407371676731517e+00
-4.847166722957783058e+00,1.567102399131637069e+00,-1.824198412127852331e-01
3.509279523097252884e+00,1.918492092016492290e+00,3.095805552641339276e+00
4.265390891262264894e+00,4.519360824116617770e-01,2.600423472926877810e+00
-4.351358009344274080e+00,2.373722884783222575e+00,-1.207523047335886668e+00
-2.869412055125917238e-01,-2.956739156131753088e+00,-4.177550110947446882e+00
1.407769288841300925e+00,4.830486218711497415e+00,-6.416213514713074995e-01
1.406546194383698545e+00,3.168884411598010153e+00,-3.728512106082544797e+00
-3.508820833444937115e+00,-2.756485216152069206e+00,-1.980895909619177386e+00
1.636887116248623375e+00,4.802082205400882486e+00,2.993246177574956923e-01
-3.600943816212355042e+00,-2.275315426649218153e+00,-2.748303309136409300e+00
-2.645078887691486025e-01,4.848152030954051561e+00,-1.444207613632336074e+00
-2.439997375372259913e+00,-2.026536527706482627e+00,3.937890116140984276e+00
-8.645160328218829404e-01,-1.877525981934338395e+00,-4.644750792716497045e+00
6.903051492303554637e-01,-2.741405642306816492e+00,-4.228933693870432720e+00
-4.837471825924569480e+00,1.358573320740908308e+00,-7.667647550501426046e-02
-1.353622686536299025e+00,-4.806015497616443533e+00,-1.239811231421939386e+00
-1.413253343540675777e+00,-4.772179126883754563e+00,-3.057854989763238440e-01
2.641778440705597197e-01,-3.789887220864962991e+00,3.351213670864816141e+00
-4.078351568307989616e+00,3.000869087668521562e+00,-7.490852641958818392e-01
-4.741007390817372880e+00,-8.770261030893755638e-01,1.433533114652222995e+00
2.505117663749814039e+00,-4.318790683593777935e+00,1.281513245793114986e-01
1.583049096239783626e+00,6.882995743037854108e-01,4.683714911556432270e+00
-3.651268027555889972e+00,3.559716495971742556e-01,3.489814358074081024e+00
1.576023353386813763e+00,3.969085452766694111e+00,-2.640703034714089625e+00
-4.825215050045356335e+00,8.154192862184803103e-02,-1.443841281875446025e+00
3.343922498072652072e+00,1.943501079445363100e+00,3.344586692725735499e+00
-3.008255954629244666e+00,-4.758446386331489919e-02,-4.138480970738295461e+00
3.885581999619466487e+00,-4.437454156511949632e-01,3.239339050386140340e+00
-1.304008866830670341e-02,-3.877572181848498722e+00,3.172422183363393877e+00
4.815475021165730674e+00,-1.791555658125728034e-01,-1.219692656366782035e+00
4.632043184171106276e+00,-1.250513821281797000e+00,-1.673484258508426636e+00
4.271093904220811588e+00,2.663092907004002363e+00,7.728959260474682624e-01
-2.692818231651313177e+00,-3.782968359096272604e+00,1.799691741770992115e+00
-1.728320252706477156e+00,-3.918108442737479269e+00,-2.779342480360283751e+00
3.186119452656322348e+00,-3.168873238946854354e+00,-2.335061719953524850e+00
2.290727873561384076e+00,2.645507333926931270e+00,3.716947374577362240e+00
-3.018320150528059909e+00,3.623406086776964852e+00,-1.782710997444636680e+00
1.903506933107836252e+00,3.060649078091210118e+00,3.539431874091750085e+00
3.132969862615897050e+00,3.948127717682778037e+00,-5.313307335599816161e-01
1.481155084546573741e+00,4.066518032998571286e+00,-2.569472820133837931e+00
4.926281993595404529e+00,-1.077727573748342715e+00,2.946233888043551796e-01
-4.430637233249969498e+00,6.943708867557114583e-01,-2.216670974117610271e+00
3.034936810829123477e+00,2.993632249268533552e-01,4.039673571716477340e+00
1.279599831398821053e+00,1.624383212433462065e+00,-4.693056358102975167e+00
-4.914201588561811107e+00,-1.296993804520285565e+00,4.462468272613269171e-01
4.991425345175443340e+00,-3.364048517860165465e-03,5.618972024356219119e-01
-3.671879152464846641e+00,-3.290724182214627369e+00,1.022312439245268711e+00
2.226507587206114358e-01,3.363471650149269521e-01,-4.957455360668539868e+00
4.085445618820170210e+00,-8.750632104479891815e-01,2.716257442750784179e+00
1.569638213682510441e-01,-4.689818782802620767e+00,1.796421476747818380e+00
-7.144257996198066785e-01,-3.803029298546774850e+00,3.217698710771617066e+00
-2.963056330563608398e+00,3.836188994523986651e+00,1.484112827382745081e+00
4.816376595777480674e+00,-1.578288079581032566e+00,3.885526004502122821e-01
-2.995283694132351737e+00,3.969434603058110245e+00,-6.039657706534299342e-01
3.005423189145673746e+00,2.311412414271655003e+00,-3.362350541592988407e+00
-2.899152784035811337e+00,4.105842827729143885e+00,7.183511389127333890e-01
1.388571748791632476e+00,-3.909023287025425120e+00,2.872098722101279478e+00
4.387275072224790406e+00,-1.052003983716181201e+00,2.194104025411056202e+00
1.390943484641469663e+00,-6.908974981259091708e-02,-4.886942935183024694e+00
-4.865860891033564339e-01,2.224813347194356972e+00,-4.529650004661090357e+00
-2.014314962693574351e+00,-2.243390630507558825e+00,4.138355976402525727e+00
-2.560808140103811859e+00,5.553558372916700403e-01,4.364790092196788152e+00
3.024505468504186112e+00,-4.102769777002372109e+00,-1.681271752861911717e-01
-3.764848171381008690e+00,3.199434605049386704e+00,-8.567160653308906193e-01
-2.204327826533960533e-01,6.449065313744727357e-01,-4.948446334788136447e+00
-3.699106153542409015e+00,1.055817130940270854e+00,3.159246266532005354e+00
4.006131180746849374e+00,2.588547677622979215e+00,1.781688197990868305e+00
2.175013602058893714e+00,-4.498772298359082988e+00,9.207349157651267824e-01
-4.065669928902803099e-01,1.195723134527488796e-01,-5.037812966840256479e+00
1.403005929654624007e+00,-1.488354054098154133e+00,4.653108041305315190e+00
3.079231420212276693e-01,2.536330003274045009e+00,-4.347235236635890843e+00
-4.236396498548335998e-01,-1.481101122127651548e+00,-4.797034285765437112e+00
-1.768349958757918339e+00,4.707561773795675641e+00,8.881107259174594315e-01
7.465876466207570505e-01,-1.089162930723112099e+00,-4.846671081312509344e+00
-4.594800920787459830e+00,1.534596042123859971e-01,-2.137476755314935417e+00
2.500249031795503285e+00,3.700469513445008296e+00,2.440100185201547145e+00
-1.159966358201913073e+00,-4.441461319916210293e+00,-2.080996498624282598e+00
-4.854676546667283432e+00,1.196580256967120892e+00,4.656620797959432068e-01
-3.844894101330782465e+00,-2.960732513707053926e+00,-1.433798593048345893e+00
-1.593757138150229347e+00,-4.727119251714198001e+00,-3.357749573491841666e-01
1.735702941495419926e+00,-4.422982664071024139e+00,-1.770345692846734931e+00
-1.821646597325610628e+00,1.935688520394204526e-01,-4.742342189034800093e+00
-4.751366950225773600e+00,-2.590707444117547609e-01,1.357360698021779388e+00
1.756703015433844106e+00,1.244351693596615238e+00,-4.601035933582252824e+00
4.729833764317738165e+00,-1.592201193175671214e+00,9.696685122185035866e-01
-3.445639881346632016e+00,-2.295403499968335481e+00,-2.884984090110668919e+00
2.530577700780342276e+00,-4.403440058530745382e+00,-6.647656016278015167e-01
-1.513708550721119428e+00,-3.505800458491777905e-01,-4.785724281661004831e+00
3.154174326885855972e+00,-1.928465058780398422e+00,-3.469048406319864775e+00
3.984282700658948073e+00,5.519385435710792709e-02,-3.190280941033816209e+00
-2.861151117863273363e+00,-3.368322441813957902e+00,-2.435636820863632312e+00
-4.543842425201145119e+00,1.801734407889785450e+00,-8.522617004188626222e-01
3.523754138588249596e+00,1.774430019972567329e+00,3.169108686806139108e+00
-2.713281166821745138e+00,-9.151884759629581589e-01,-4.129429936268389056e+00
3.726916923003865456e+00,2.451261312812980986e+00,-2.371385026742793389e+00
3.923894175575119991e+00,-3.152752879578707201e+00,-6.110974676979405995e-01
4.594487934062684964e+00,-1.668022697314179570e-01,2.078251028566467262e+00
-9.979627458997551992e-01,4.666428754184059002e+00,1.768451654768635528e+00
4.231815009390693660e+00,2.793660686923485237e+00,7.810333693250699483e-01
-1.573800918945712057e+00,4.340034831155173300e+00,2.005351049048776702e+00
-4.358998544789368879e+00,-2.476451283442262508e+00,-1.173262565631152166e+00
4.579759895069196673e+00,1.570598830323997497e+00,-1.049731487273436681e+00
-2.120188482565259047e+00,3.913594874779534827e+00,-2.358544570539192531e+00
1.003316670994174320e+00,-1.042732365449704490e+00,-4.777869897453812520e+00
6.487942209588386522e-01,3.684396302334164708e-01,4.989155965370805745e+00
1.680262729862227022e+00,4.642343057874935397e+00,1.011428680854093320e+00
1.888935565288733187e+00,-2.868923845177834497e+00,-3.679444568678950755e+00
-4.796523028423349544e+00,3.310652144580777945e-01,1.430350100210425079e+00
4.968824560947599167e+00,8.588349446388091613e-01,8.801562085948295699e-01
-3.903843549331315610e-01,4.308009991271118722e+00,2.475063220999331293e+00
-1.914938831871272562e+00,-4.636117436063612374e+00,9.919753244694742289e-01
2.732356614102013470e+00,2.302364427614770559e+00,3.461401364186615925e+00
-2.914913631205637845e+00,2.208917111095713981e+00,-3.589997451809801010e+00
3.673657875329331191e+00,-2.657763848712178856e+00,2.269189402080815654e+00
-3.205111936173879350e+00,3.865057338131130837e+00,-1.874407582718719822e-01
-9.584276298286870110e-02,1.218609711746076130e+00,-5.033044837295270746e+00
1.516489486751064764e+00,-4.475236743086606239e+00,-1.796055237115658620e+00
2.954095353701037929e+00,-2.707587398821848623e+00,3.149082851977597297e+00
3.540054836412378503e-01,-4.870019933744165641e+00,1.153264580152626229e+00
-3.180743242280843042e+00,3.467267175755319286e+00,-1.682837513609296787e+00
-4.348121456426888187e+00,1.407917227829973639e+00,2.069746411838297107e+00
4.483596494718519843e+00,1.912725564519241583e+00,1.307626876606819755e+00
-4.768746455366693837e+00,2.704533920679583758e-01,1.608524768455543041e+00
-2.989600269995166482e+00,1.554576763357506497e+00,3.850307657989011645e+00
-9.488326819586778704e-01,-1.629767791475052130e+00,-4.659860416880582612e+00
-4.740031672467479140e+00,1.507027300941903292e+00,-5.120704088424271605e-01
3.884236690728390951e-01,4.140374058494557197e+00,-2.776645553949021572e+00
4.609873076418261384e+00,-1.615376263932536638e+00,-1.252036603174834450e+00
4.944355144620808495e+00,9.195165860399445723e-01,8.615986901522426633e-01
4.274215555336661865e+00,-2.890896260246740290e+00,-6.684285826120618390e-01
3.665408311254515716e+00,3.278086495108428200e-01,3.553698986462322296e+00
-4.751375945896733732e+00,1.629903018707407725e+00,-4.773999764810969992e-01
-5.084314031772801279e+00,2.672615980300016014e-01,-9.512904771206358578e-01
2.690055352262239019e+00,4.125586803059025698e+00,-1.627404277060507498e+00
-4.027173520114973315e-01,-2.371110897641479642e+00,-4.476089195752347649e+00
-4.765525157386592880e+00,1.105716900605076214e+00,1.094163088847675658e+00
-4.791463315380040555e+00,-4.299737624177669693e-01,1.615352789151351498e+00
-5.658822517785384587e-01,7.699859256966562482e-02,5.000053896262950381e+00
4.085487432442935329e+00,2.787817728321017263e+00,7.856192742336204349e-01
-2.983125097176571483e+00,-2.489597764299909866e+00,-3.192822940856582026e+00
-2.056213698831725445e+00,-4.343394168250324761e+00,-1.676193657685531857e+00
4.244745160908740544e+00,-2.441873134165230663e+00,1.366359136508508598e+00
-3.111276121987653909e+00,3.146756039735299382e+00,-2.490379142671212964e+00
4.719301023815494212e-01,4.518618926543800304e-03,-5.088008697656848156e+00
3.177653674010076035e+00,8.727597396888612247e-01,-3.794285831334351045e+00
-4.079767220177728859e+00,-1.354119412213377061e+00,2.594714493475735129e+00
2.502845560115272150e+00,4.324427412230680723e+00,1.039777855961101505e+00
4.561845821106221166e+00,-2.302427092235809880e+00,-3.413654709633173051e-02
4.033316729617025587e+00,1.951002011564703098e+00,-2.313841465621627069e+00
-2.177653838459197022e+00,3.268647093978401141e+00,-3.256720619600981692e+00
-4.751749576626134619e+00,-1.000338471853350786e+00,-1.408750781800842677e+00
-1.928871962723464284e+00,-4.277101787065617167e+00,1.972267093374428848e+00
-4.863241457461918493e+00,-2.915491202462675568e-01,-1.445124691704750663e+00
-1.798062099025438565e+00,-4.547767910483780263e+00,-1.511774591965420855e+00
-3.693964278504581422e+00,1.826831952672149928e+00,2.821838356154501959e+00
2.446940512492856712e+00,-1.144282660722960587e+00,4.220192505364991575e+00
-1.920846393793752105e+00,-2.499492675224265437e+00,3.930607432004599833e+00
-2.699652692032779910e+00,-4.317172630932523347e+00,2.956760345380473054e-01
4.619214261046869829e+00,1.746819980781384229e+00,1.062117445592551945e+00
2.504436211002537327e+00,2.878971964658988192e+00,3.276747693660328142e+00
-2.323155333860198457e+00,-3.225830021369160860e+00,-3.164952345694591163e+00
1.898936910210063500e+00,4.501785204358483838e+00,-1.395992906272871759e+00
-1.224953084602380393e+00,4.869959401116879860e+00,6.928225410539093909e-01
-3.335352584895688199e+00,1.010900213337617481e+00,3.671644470355112322e+00
1.938248504772428271e+00,-1.609931738544487789e+00,-4.351869998307394738e+00
-2.110403446165979968e+00,-2.177626115569815113e+00,-4.107762134254532960e+00
4.587939926871464458e+00,1.697721038053263243e+00,1.461049255182041540e+00
2.027289231281816040e+00,-4.663810931319723352e+00,-6.200171433598069548e-01
2.490527678907710651e+00,4.393619683782555185e+00,-6.861850184978055545e-01
9.349883666074907396e-01,-3.285716938115134322e+00,-3.855166481644237031e+00
3.756571991730696780e+00,5.315380827738858116e-01,-3.416061740244964451e+00
3.044847865865181635e+00,-4.049186228374947127e+00,-7.916270322635899914e-01
-4.084540603801245062e+00,2.681363699470575401e+00,-1.295424213887677034e+00
9.481630977849118125e-01,4.129596166238189703e+00,2.743065235851145811e+00
-3.053139402918659151e+00,3.747866867872742702e+00,1.678228598444934994e+00
-1.488785930413443204e+00,2.346189322874702388e+00,-4.331465938808455540e+00
-7.338460922932793506e-01,-4.978876999169624895e+00,-2.402184366816244032e-01
-5.519648337177488484e-01,3.242084699899753453e+00,3.889012924765375967e+00
1.640239229781112584e+00,-3.153727657800172501e+00,-3.506447867363910120e+00
1.706138854236507685e+00,4.606507514319071461e+00,-1.324850610958602015e+00
2.945583304758525145e+00,3.076705316882464736e+00,-2.807614985721053724e+00
-2.312907661600112075e+00,-2.025980583076311348e+00,4.028468240567215197e+00
-3.047222073146599985e+00,-5.960936858601048050e-01,4.092048090077546441e+00
-4.361890883382019801e+00,2.499733128780856184e+00,-8.124730748773895117e-01
3.369174679442943798e+00,-3.789749290270221671e+00,-4.998484974785809554e-01
1.345752049679219242e+00,-4.649105045810504322e+00,-1.401286190799385656e+00
-1.564759506899349728e-01,-1.027035560837934014e+00,-5.036477825727388336e+00
-2.535430394667826715e+00,3.885852323787708507e+00,2.132277940379849301e+00
-3.922285492802951357e+00,2.227996302427979636e+00,2.357190524646131546e+00
2.569420664512308328e+00,4.205589751547392119e+00,6.488476451790045063e-01
4.682862547283507482e+00,-1.155140639727369578e+00,-1.546215485892758812e+00
-4.359514956751664450e+00,-4.451029545982132518e-01,2.597286649052923835e+00
-3.253660555581737501e+00,-1.063378499205172245e+00,3.755058667474297618e+00
-2.000634793217798357e+00,-4.596443149425466501e+00,-4.861809799950235211e-01
-4.377632942129348059e+00,-5.845565075495272322e-02,-2.371308265902375645e+00
9.920913193974697508e-01,4.920784165664298548e+00,4.598514239343063359e-01
2.236356775145026621e+00,2.209827305566407940e+00,3.845803308143307397e+00
3.270418583822298775e+00,-3.765992502346810600e+00,4.402862507775513745e-02
3.361597469925784232e+00,-1.762054968900678587e+00,-3.314192478495468386e+00
8.738777434495570429e-02,1.391047232167475611e+00,4.819622668832363566e+00
-3.234343334390191060e+00,-3.055157461863657331e-01,3.784604628809420390e+00
1.632471154124526036e+00,-2.939050612578073540e+00,-3.671423504534474080e+00
3.955020463264346642e+00,-2.702247423416684224e+00,1.559895807211152841e+00
-3.678036726153732783e+00,-5.416436204667823828e-01,3.432285220692506744e+00
1.421659497280354234e+00,-4.235097890358098915e+00,-2.314366525403897867e+00
-8.559906161526419366e-01,-4.829223460460313255e+00,-1.443658969032809214e+00
3.441202920970038992e-01,4.873471602143669479e+00,-1.173103034755521357e+00
-1.509345051456668418e+00,4.765881404298228929e+00,-1.009713585773643230e+00
-4.090756584140078367e+00,-3.232889808873510962e+00,-4.523317102897861375e-01
-4.143658224722894801e+00,-2.834117744227042213e+00,-8.136336348439305866e-01
5.104816763044431660e+00,6.288656983165791248e-01,-1.252848046292666939e-01
1.337632407817933577e+00,-4.500771170524247466e+00,-1.927027672024326010e+00
-1.942840674469339834e+00,3.607390425275875057e+00,3.084350918625946569e+00
-3.459864263625282099e+00,-3.249955498720997316e+00,-1.570436298136551390e+00
2.448743439688339407e+00,-4.339863594886381293e+00,4.075645401354427433e-01
2.855357281915770873e+00,-3.238607007421782313e+00,2.568261023597211423e+00
1.173764582801536394e-01,4.237382916849040448e+00,2.783926675901627679e+00
1.451108562063294638e+00,-4.750473015850281477e+00,-9.149505089645804112e-01
1.211709260425560153e+00,4.532722483330678953e-01,-4.914730127785272629e+00
1.447199566039905738e+00,3.088233090769456179e+00,-3.763958111013129937e+00
-4.411803762022058706e+00,-1.307860042449057181e+00,2.140866180523303797e+00
-1.925684086124263450e+00,-4.616525238492395822e+00,-1.190146485893904593e+00
4.554386268428360474e+00,-1.411191068808781424e+00,-1.555434955399034536e+00
-1.629344647279308278e+00,3.167159789905731326e+00,-3.594913937275320048e+00
-1.887576495848360070e+00,-4.583488005602401216e+00,-6.516792756354963245e-01
3.336884479019761041e-01,5.046469662868130257e+00,1.072879749455329934e-01
7.043675066086748648e-01,-1.620702697080994126e+00,-4.725973875127433388e+00
9.906940815892724128e-01,-4.821918360696517247e+00,1.348203723014798960e+00
4.485545582868410541e+00,2.004013857357015649e+00,-1.504118975514718404e+00
2.554807437928206415e+00,-4.148475687773715004e-01,4.286266111598520112e+00
7.459205501513084258e-01,-2.401448973136475651e+00,4.421172587975245705e+00
-3.703846254006783134e+00,1.873186911452383363e+00,-2.806811043565945685e+00
3.352961227154982016e+00,-1.846727316268497177e+00,3.199306048822299076e+00
3.276419051989234887e+00,-1.859489665871889796e+00,-3.365778314515686542e+00
5.574015361179702338e-02,-3.498881982463794671e+00,-3.583246293292450702e+00
-2.095513864504902291e+00,-4.360217176369346248e+00,-1.803615705467072061e+00
-2.711967123242970068e+00,1.577819457508627510e+00,4.000131590926619296e+00
1.494095025341805938e+00,9.184199970837232385e-01,-4.832012163063562404e+00
2.019784538647893424e+00,7.905886006787566922e-01,4.472646956551371566e+00
3.053596722791386497e+00,-1.277351696202631837e-02,-4.078049960354240611e+00
4.606939643199353895e+00,2.002504077232258428e+00,1.029377044434726975e-02
-4.650878472075768322e+00,1.975371200133730465e+00,1.251880633873307114e-01
-3.599637920992313944e+00,-3.036771558287347350e+00,1.780939215673584153e+00
3.369963799020687212e+00,-4.253426494557391857e-01,-3.675600113823572102e+00
-1.633463718634093675e+00,-1.969059372413471287e+00,-4.319134713188456764e+00
3.781228058061458785e+00,1.299014991475952729e-01,3.353964475051047334e+00
3.362260741671668551e+00,4.390934697275537535e-01,-3.665054345809134251e+00
-3.626274795679469976e-01,1.110109602395350503e+00,4.976020654723702918e+00
-4.171699048295922196e+00,-1.333290239455164228e+00,2.522607731012318499e+00
4.997057634193899922e+00,-1.028843627107599357e+00,6.568091688890750901e-02
2.444991864973330209e+00,3.751738768748573261e+00,2.395030961165352412e+00
4.201051421852070256e+00,2.644372596800683262e+00,1.247506889562390642e+00
-4.376363624184051559e+00,-1.144292510910467131e+00,2.376516468330760024e+00
3.136289411256814041e+00,-3.902958691964175220e+00,1.112762413365332659e+00
-3.320999106072778151e+00,-1.398357372316848979e+00,3.620490334025425749e+00
-1.296603026090639377e+00,-3.962914107148194809e+00,-2.757971078191609138e+00
-2.783468382178114542e+00,-1.409532287514239923e-01,4.299691781156455228e+00
1.889417733283747847e+00,4.380588351017853377e+00,-1.936745337100215680e+00
-2.076053308001338582e+00,-3.949669481632129830e+00,2.316126640334704057e+00
-3.213900358858082118e+00,1.642350018908554476e+00,3.563186202950830772e+00
4.516869779177006272e+00,-1.086539337832862939e+00,2.091634825403109854e+00
-5.589132551310477259e-01,-4.561972473501580971e-01,5.076853397300885362e+00
6.546870870378282969e-01,3.910152611521431343e+00,2.961759899620415748e+00
-4.913185644374348016e+00,7.354007410960500257e-01,-1.074827962784456137e+00
3.438265063837116831e+00,-2.594122303382134564e+00,-2.819081262980971392e+00
-1.838578711770326279e+00,-4.424693486925727726e+00,-1.515986854786589344e+00
-4.656892958117762937e+00,-1.962563059893034367e+00,-7.027453418839926802e-02
-1.206483373854696062e+00,2.223505417171783183e+00,4.393197166395107267e+00
4.735105608358257001e+00,1.424051541841778068e+00,-9.961317876517444825e-01
-3.493366644457347459e+00,-1.172535897774916291e+00,3.540671589635536964e+00
4.060170521202648430e+00,-1.325257167252818613e+00,2.758950438174110342e+00
-8.502046162984390199e-01,-1.304821205235883630e+00,4.720443628018203164e+00
-3.876846467989484069e+00,-1.923951682490959936e+00,-2.591331032957787883e+00
1.867921177626008289e+00,-1.366972508433887068e+00,4.489697650277255647e+00
-1.660377367979820384e+00,-4.828230584992537544e+00,4.344145804586332926e-01
-4.265423169806475956e-01,-6.119805341000910115e-01,4.962380167336349679e+00
1.942800748827903323e+00,1.035199121459745575e+00,4.557359188796845650e+00
2.276230913677192991e-01,-1.068843847199237168e-01,5.054003754212108568e+00
2.275952627373730053e+00,-2.013043625608581522e-01,4.531510584148092491e+00
3.477602417918017164e+00,2.222762152855572104e+00,-2.779793593563329779e+00
4.673397591038091825e+00,1.179375604821559342e+00,-1.505328186644689481e+00
4.721611128530883938e+00,4.464453033108026214e-01,-1.879332548335327591e+00
2.712453780410144510e+00,-4.243572884103987697e+00,-6.471830427589590762e-02
-6.872929935470307727e-01,3.952581847844246710e+00,-3.037894820723848088e+00
-4.052680002505029577e+00,-1.064946033610020493e+00,2.785263753130959419e+00
-3.150432639448242256e+00,-2.506582441208779155e+00,2.984578863086705613e+00
4.256536898555038029e+00,1.723909093635939360e+00,-1.997253069249645296e+00
-3.560495945337556201e+00,1.372631298577908776e+00,-3.325804674046799470e+00
3.450825639631172059e+00,2.172218536371733344e-01,-3.711243539564153426e+00
-2.663448212148884053e+00,-1.738965962418208999e+00,3.980232789940671978e+00
-4.334271105419785108e+00,2.602594474728276985e+00,8.192723358869501427e-01
-3.770812899431045917e+00,-3.248109728047746891e+00,-5.907726103059807166e-01
1.014699052718195382e+00,-4.838963152915091825e+00,-1.257181435367964673e+00
1.430916930479573024e+00,4.437859404488799342e+00,2.025770678782438772e+00
3.462776174623549252e+00,1.087110657676142234e+00,-3.513752106419034238e+00
1.470350615092283819e+00,2.126153615863709767e+00,4.389238240445245687e+00
4.056152657281282714e+00,-4.760815192569229914e-01,3.034778011268710163e+00
1.829054352400678596e+00,2.080011623455997771e+00,-4.206281931169284505e+00
5.743634133042374579e-01,4.966527153894325863e+00,5.208383555944248178e-01
-4.710303379593907991e+00,7.539675307300872653e-01,1.608390639509650777e+00
-6.840843940101685172e-01,2.809346188065285688e+00,-4.153127196012744271e+00
-4.767764291232784224e+00,1.679749590377004775e+00,-1.600069532892272606e-01
4.230954197384583004e+00,2.408445667565541015e+00,-1.200819164774004744e+00
-3.633640668001306473e+00,3.489842093062906159e+00,3.783409211975547470e-01
-2.718442589137815890e+00,3.059712538032509865e+00,2.994935539241132094e+00
-4.829264407195492659e+00,7.341787043892114006e-01,1.211760300146798253e+00
4.032741617678728296e+00,-1.320042105298063762e+00,-2.907220001270943044e+00
1.262656874734096324e-01,-7.255910557027740460e-01,5.126481173356289389e+00
3.948076745111473773e+00,3.260935695744531682e+00,1.688532618118632478e-01
3.217161723439575738e+00,-3.759275535580770988e+00,1.097356430079274858e+00
-3.545366382159077512e-01,4.843742270023147611e+00,1.591725416145424621e+00
-3.251000198728984714e+00,3.841736288536197197e+00,4.335079939443963193e-01
-2.239992518831225521e+00,-5.801993167917217642e-01,4.553675606030762602e+00
1.780328924760458398e-01,-4.317789343242269595e+00,2.784268009956756718e+00
4.787916956567127791e+00,-1.581279488235452835e+00,-2.863525200473484578e-01
3.465703107772038383e+00,2.883326649422200738e+00,-2.361296585481468480e+00
9.047227093415666221e-01,4.987646223631500675e+00,1.729931200190580887e-01
-2.092580388924875745e+00,2.938163922248323789e+00,3.542183109339552605e+00
2.263087254886388511e+00,3.809789734929610372e+00,-2.218483597501538007e+00
3.283609005674167580e+00,3.116646481021852821e+00,-2.150957262324416863e+00
1.294253298474504099e+00,1.336432351584001532e-01,-4.855867027219074039e+00
-3.007644820090151772e+00,-2.054319674439831989e+00,-3.406577267703683187e+00
1.315877417188296539e+00,-2.669454059593797002e+00,4.133966862677943332e+00
2.349948148913832302e+00,4.393752167563037325e+00,-2.576777788824640703e-01
1.137012829394933977e+00,4.254709509261000555e+00,-2.368052632042308314e+00
1.808174400804589022e+00,2.717855196227390913e+00,-3.920032205203163755e+00
-1.413455194125096792e+00,-7.738409713353705532e-01,-4.829961823579557390e+00
3.248003195330877890e+00,-3.834480007158257209e+00,1.778777728816505199e-01
1.577793832874608393e+00,4.244882162820674765e+00,2.180877539586490332e+00
-4.098332287481219360e+00,-2.131824628607558836e+00,-2.047033493609571320e+00
-1.308035414846332234e+00,-6.047523231920839404e-01,4.954527741168527122e+00
1.645227951038509273e+00,-2.835247144489447813e+00,-3.904680115194976153e+00
2.760650374436034227e+00,-2.572354848660043380e+00,3.488573625401070188e+00
-1.552181261880129615e+00,-4.568532527681035127e+00,1.401266979718998051e+00
3.810567782863042985e-01,-3.709221280079803673e+00,3.477126070414449988e+00
-4.733742307618044265e+00,4.553425699537844845e-02,-1.627901663483771300e+00
1.526246076552100872e+00,3.286420537583519152e+00,-3.560580875105694876e+00
-3.862024209944672659e+00,-1.299123039277751301e+00,-2.952886832895027958e+00
6.572771491603748850e-02,5.024104298738546248e+00,-7.688369171667205348e-01
1.715021375054482100e-01,-4.311254376092441554e+00,-2.701406436537616251e+00
-3.611398500987052174e+00,3.556158741002668489e+00,-8.889425176224635683e-01
3.124869593093159370e+00,-4.233011732940396565e-01,3.994899078250742086e+00
2.724130647661465954e+00,3.124023338559850593e+00,-2.864548199485085878e+00
-3.191332654402802227e+00,2.728400672131153226e-01,3.966578385506079218e+00
-2.339780311377961830e+00,-3.856092612621719429e+00,-2.209836400173578408e+00
-4.517893208647472569e+00,-1.967611396656318679e+00,-1.100049344718347699e+00
4.133213024395978596e-01,2.309864347758113556e+00,4.459395525357678025e+00
-3.119655641049662975e+00,-3.414670660796134349e+00,2.048942379461857310e+00
4.352375605022481331e+00,-3.843235998471244974e-01,-2.546216427922812109e+00
4.069538627362796035e+00,6.650248155073998912e-01,-3.020074826633849518e+00
3.878095511267886319e+00,-1.761838595753369319e+00,-2.700327622184142129e+00
-1.401707556774388075e-01,-6.900093273211587164e-01,4.949067732476552628e+00
3.136020607490017098e-01,4.590212036473962698e+00,-2.268421102042313287e+00
2.709625392890514295e+00,-3.149405661554888436e+00,-2.846186203285976379e+00
4.208599285928309008e+00,2.737736768299376511e+00,2.428779335498959802e-01
-2.236177826072152985e+00,1.817406027806947044e+00,-4.227707628844459720e+00
5.588885922429306374e-01,4.902864807122873536e+00,-1.083060096036761122e+00
-1.943256704908932875e+00,-8.880180507196131501e-01,-4.590690283578757303e+00
-3.725749636222564831e+00,3.128477696087401227e+00,1.051363012889964033e+00
2.162926078291579124e+00,-4.125700457480308003e+00,-2.018841507181993400e+00
