1.956600731843217700e+00,-2.371879410796101428e+00,2.157178858602414984e+00
-3.022155000908079980e+00,2.987366206885998243e-02,-2.172078723963250191e+00
1.571582908489921326e+00,1.960433473453700781e+00,-2.703915683388530944e+00
-1.857831635029718598e+00,1.526095039943850207e+00,2.849044223889363181e+00
1.267109359141310510e+00,-3.341269650810461123e+00,-9.613115397796221373e-01
2.384429157510845609e-01,-1.567605940867732750e+00,3.451327901986515734e+00
6.853760011708520672e-01,3.653863615880067250e+00,2.461486233229391307e-01
1.251473946823874694e+00,-3.220889972022827674e+00,1.452195490010149248e+00
-3.526147320992020440e+00,-1.192731428904793001e+00,2.235812029705981641e-01
-9.626465624519497943e-01,-2.726375579543364402e+00,2.358945240571577617e+00
-3.710589106249287394e-01,1.606292726956837225e+00,-3.290278374864536115e+00
4.027966349219979647e-01,1.482128157800516099e+00,3.412201969366931209e+00
5.906197689299342857e-01,-3.573928774041528644e+00,-8.438942786564315179e-01
-6.013936752597021096e-01,2.039914241105398318e+00,-3.085828409106187387e+00
-4.877046590698319584e-01,-8.061738949113438357e-01,3.591944464489830402e+00
-1.468693673999986293e+00,1.516544784383513811e+00,-3.068678224549231448e+00
-8.339103292531321321e-01,-2.759600931340084884e-01,-3.584348387892556165e+00
1.828436289458080122e+00,3.235407650341654229e+00,-5.574520278419853314e-01
-1.554071940819422570e-01,-2.296238820503218037e+00,-3.029580028445679751e+00
-9.117089258527173445e-01,2.320670407543137248e+00,-2.735055475140156123e+00
2.012980802532930102e+00,-1.722570217501295797e-01,3.191344697007946873e+00
1.212461949768915970e+00,1.280525111357073698e+00,-3.315366145940740417e+00
1.163422108344541073e+00,-4.344204310036123284e-01,3.522345284156982004e+00
8.495956418645148611e-01,-3.595373606859427085e+00,-5.853690732468647129e-01
-5.788300615603219068e-01,-3.236566031000128074e+00,-1.835146118780211610e+00
-1.731323493679089331e+00,-3.169919791832881639e+00,1.095295615453888871e+00
2.060828142193155799e+00,-2.073460855798929803e+00,2.273729737920417104e+00
-2.469711760722295590e+00,-2.201270897103699831e+00,1.986544057087226145e+00
-1.002706694269597909e+00,-3.159775372041048191e-01,-3.587479383716330350e+00
2.394365686846782193e+00,-2.743080990479499270e+00,-8.158267344034459967e-01
3.356605622121668020e+00,1.685210717733096830e+00,4.290303016603102537e-01
-3.261648195695818320e+00,1.606203236445877369e+00,-8.160324428132539332e-01
-3.643990300382521141e+00,2.674809702788878002e-02,7.548227498159796323e-01
-1.277732648927293602e-01,-1.753047871302071847e+00,3.259865098755801327e+00
1.040049687243546739e+00,-2.724790965090650996e+00,2.430238093105582919e+00
1.097741295392914873e+00,-3.317192744783670655e+00,1.381576818068648960e+00
-1.465605665862974138e+00,-3.137754975351934039e+00,-1.278867890940404095e+00
-1.174491180440330629e+00,2.356451640036841155e+00,2.671164252947076712e+00
1.781282268841198890e+00,2.335726714094379375e+00,-2.272000993080245834e+00
-2.602663924383758154e+00,-1.072345424260553903e+00,-2.426443123178207983e+00
-3.683760183655838016e+00,-7.204761916076456441e-01,-3.023032844973658761e-01
-1.374021933757813674e+00,1.160970903083467787e-01,-3.447351291936184836e+00
-3.662972773521047110e+00,-2.193044365053301858e-01,4.535087980221046422e-01
1.478388059758688922e+00,1.864637374260685654e+00,2.900539781410208739e+00
-2.914663691210082508e+00,-1.427093145679116493e+00,1.918861870620149901e+00
-2.616919026615787125e+00,-2.372024311760072113e+00,1.096293027539402276e+00
1.388799821352397545e+00,2.668113245915292975e+00,2.164698493246013822e+00
-2.024611405703611755e+00,-1.736475940479278668e+00,2.590413166071546591e+00
1.947996497075266564e+00,-1.574041116032122822e+00,-2.649406684963913960e+00
6.502830485008840311e-01,3.228263309887116073e+00,-1.866217963087619447e+00
-1.797241381103956703e+00,-2.733860003470012678e+00,-1.804789061965657693e+00
8.827647587305059718e-01,1.265562428898379999e+00,-3.365067691061579769e+00
-1.451639141669708755e+00,3.462182383184675416e+00,3.820243796758379107e-01
-1.031701938138401609e+00,-3.454244003329889345e+00,-6.958064548206551736e-01
-1.498530344074059384e+00,-3.346213877651911250e+00,4.950317538946626406e-01
3.663247232833072964e+00,3.879848243765707805e-01,1.162625924720232240e-01
2.611225762553575080e+00,-1.649600768311026533e+00,2.089179806260194727e+00
-1.136328525491944186e+00,4.654925775834324320e-01,-3.434135510796927804e+00
6.193017262310562820e-01,-3.608364048974690430e+00,4.313548705367407088e-01
2.535675319868180289e+00,4.745093162306114332e-01,2.689592386455422979e+00
-3.393339216440916850e+00,-9.322325650086672466e-01,1.238707485765321525e+00
2.296805104794058527e-01,2.815458910677797189e+00,-2.356601613088836977e+00
-1.762618991730220408e+00,3.143285560730546102e+00,-1.087838693468337725e+00
1.713917995369137248e+00,-7.622125971434633440e-01,3.094228423096983871e+00
1.702832769958569026e+00,-2.125544895242360344e+00,-2.462335468008062911e+00
1.557155775461617875e+00,3.070645616337056794e+00,-1.477503203744046978e+00
3.668680569532816182e+00,3.966475464032193088e-01,-1.259132910843641928e-01
-1.257755433053766358e+00,7.685484086477358812e-01,-3.372839059927377203e+00
3.718870145761843826e+00,-5.293218123359060279e-01,-5.583676258313240159e-02
2.508076924834944155e+00,-2.640037901164231648e+00,-6.249715116826670691e-01
-1.057961335987759988e+00,-3.471350850773881724e+00,8.122082988079495358e-01
-2.069497513885045326e+00,-2.993885591265606827e+00,-1.143147437528259092e+00
-1.622783448980746002e+00,-2.652374420265978028e+00,1.986885557460838614e+00
2.145485722041350574e+00,4.352549742037465919e-01,-3.116946440764958748e+00
-3.979586703757321819e-01,2.303261168849754181e+00,-2.917400723682751718e+00
-1.598869107717525218e+00,-4.025565754342866898e-01,-3.353978161855534879e+00
2.629926334689835166e+00,1.704924228552681331e+00,-1.964236682683794921e+00
1.829024946102111859e-01,-1.345446714057713988e+00,-3.388959476715419417e+00
-7.881462174714014557e-01,1.596611656845628335e+00,-3.297222433007239939e+00
1.985675070181678992e+00,-1.865538692040920266e+00,-2.556716238249628681e+00
3.245970070603027668e+00,1.811382106898235644e+00,-5.916046113195393141e-02
-1.447662658981591521e+00,3.420179521282311619e-01,3.452289044229218895e+00
-2.893771917931126758e+00,-2.088239814923884108e+00,1.032329514333190756e+00
-1.950165292614416623e+00,-2.492689917303442915e+00,-1.990465896853274907e+00
1.987937808398470008e+00,-1.796898604462918714e+00,-2.661900011977655911e+00
1.241731619833031042e+00,-1.575955057948826177e+00,-3.208188890511594060e+00
-3.603683553679910112e+00,7.320288881208820708e-01,-4.877696529645418333e-01
2.516472700247744054e+00,-1.823545313412981539e+00,2.024030426587057896e+00
9.060258586587716101e-01,-3.526521519483945877e+00,-8.483491080475556723e-02
-1.169009847245841449e+00,1.606420406747434415e-01,-3.442368912292438576e+00
-2.880890399481355058e+00,2.393722284203584572e+00,2.237726948457621490e-01
2.823359907847863060e+00,1.833213876781087492e+00,-1.628780967569923410e+00
-2.860940232730961874e+00,-1.179506640294374575e+00,2.110949537399219977e+00
1.258703877906472313e+00,-3.325746102865268838e+00,-1.055564228108431202e+00
-5.942435121743935289e-01,2.991299570914558004e+00,2.147170785676856042e+00
-2.274744363046226514e+00,4.425315539290807787e-01,-2.888536171643332207e+00
3.997991962550996869e-01,-1.519031292652650356e+00,3.390348416170671175e+00
-3.584429565237581272e+00,8.587495478045854558e-01,3.036961989640717396e-01
-7.681318390642744021e-01,-1.433385933310101334e+00,-3.332963482319359461e+00
-9.092427110280913993e-01,-3.374738898717415836e+00,-1.440139692840298968e+00
-2.959623107092240968e+00,1.509790415407943787e+00,-1.762027643918221198e+00
1.794400086095737867e+00,3.249919042302522598e+00,-9.447818252976514231e-02
1.016884211290907336e+00,1.813459151734278629e+00,3.069108221005802495e+00
1.885695259813457980e+00,1.773527247292249864e+00,2.653749581754169640e+00
2.658576554567037231e+00,2.610247647205166110e+00,3.787105752400647674e-02
2.207293327903429692e+00,2.924607576231454953e+00,-5.704369329935956578e-01
-3.185286939595990852e+00,-3.253945036456782902e-01,-1.917184989838185194e+00
-2.506748875210921268e-01,3.231087342499868509e+00,1.732444619606186897e+00
2.157938488520011244e+00,-1.324084794331946147e-01,-2.992434009451136134e+00
-1.952357463519712732e-01,-3.485396172036444362e+00,1.133151349507862671e+00
-3.485793574850567289e+00,7.110430519334007826e-01,-1.161670630895634160e+00
-2.871074246880457537e+00,-8.673092495728537132e-01,-2.196792416308515072e+00
3.358598826742392185e-01,2.920558423936942205e+00,-2.298729589133919671e+00
-2.181760076996877906e+00,-1.549407915918329826e+00,2.564050939876473922e+00
3.672128442224335654e+00,-6.956927307836826557e-01,-3.533956693325675941e-02
1.888652304939183013e+00,2.384003580636512520e+00,-2.060580948691524306e+00
-3.374096035894650125e+00,1.610234743632113386e+00,-1.326055188632880300e-01
1.939039177610219378e+00,-2.972000769732945358e+00,-1.206899362926097119e+00
3.338268947496999761e+00,-4.431916305796755329e-01,1.609766183294155217e+00
7.109352808139138835e-01,3.668522353809436698e+00,-3.351553475431599538e-01
2.141602933838084422e+00,-1.962974023722371619e+00,2.247459709784888737e+00
-2.246010906320288658e+00,3.004655104219804862e+00,-4.514358614026507954e-01
-3.698444078558012382e+00,-5.080906625721747227e-01,2.997357624920705677e-01
1.385955138257739305e+00,-3.057456337888419196e+00,-1.433930113969910991e+00
-2.052234556433325086e+00,-2.847915581624405057e+00,1.090647241236970322e+00
-5.950804831761092872e-01,-3.652042499529741248e-01,3.671206366254379905e+00
2.366968584050382685e+00,2.344421338129063948e+00,-1.558798087359905660e+00
2.209528634272441394e+00,-2.512727704239896553e-01,2.962271137053812176e+00
-1.106694701600335895e+00,-2.356736609496917101e+00,2.616348474346231079e+00
4.228943403884410923e-02,3.598345899970946782e+00,-8.403273541387031864e-01
1.321076729127704130e+00,3.258425941369251788e+00,-1.234893022455829881e+00
-6.567838949726102771e-02,-3.598097211415469676e+00,-1.129841009108562444e+00
-7.796341047630827026e-01,1.644354061959673707e+00,-3.302219836337983327e+00
-2.950055165141412861e+00,1.713312187701885314e+00,1.605454657827764420e+00
-1.326330285845598311e+00,2.744029427001545063e+00,2.163154143387588046e+00
3.101145599523008389e+00,-6.319617687361896996e-01,-2.012035088944348793e+00
1.457390374511571496e+00,2.997950999859132271e+00,-1.642892274730213265e+00
2.455142730496024495e+00,2.307117026211826794e+00,-1.604115894868625158e+00
2.049698033017208321e+00,-1.327651374473127310e+00,2.848280935103761458e+00
3.634386823266861466e+00,3.669339232324197453e-01,8.108141673916133829e-01
2.092586188774191669e+00,-2.064131586500661975e+00,2.310401975547914155e+00
9.839392277567371448e-01,-3.084947902416505183e+00,-1.769904546343173513e+00
2.064268793273740688e+00,3.141244294507823387e+00,5.510324250236965371e-01
4.523858976283859912e-01,9.565791560725207532e-01,-3.646990767005493073e+00
-2.197058484324225347e+00,-2.987490125077246539e+00,4.084410580941107843e-02
-1.054886447930750037e+00,-3.508643622500405623e+00,7.786350199575756692e-01
3.648002467074890731e+00,-3.936745282657546641e-01,-8.786562989333311924e-01
-3.540289024218704839e+00,-1.005176578951771482e+00,9.362990920017096041e-02
2.469421933121159096e+00,3.452535861876068757e-01,2.807366301460160418e+00
4.902832231837344623e-01,-2.185921784906286636e+00,-2.909708702916523837e+00
4.606314504751159444e-01,1.785353632638424226e-01,3.632008500634951620e+00
-1.364603306761652313e+00,-1.828624400035624431e+00,-3.035459845932173106e+00
-6.828876017363416651e-01,-2.336863642588365320e+00,2.832987251475604040e+00
1.759402547779895576e+00,-3.003406590845920654e+00,1.276586707630643636e+00
-2.652986322563299915e+00,-1.390980954946984927e+00,2.229876768968393375e+00
-3.155512962049397352e+00,1.943913738355184995e+00,-4.015623857669241015e-01
2.408906341220233005e-01,3.770673237035412129e+00,2.240391630310417936e-01
-1.673700473954674584e+00,-3.017472579254733223e+00,1.341501346497978364e+00
8.686512739896032897e-01,-2.156852996563673575e+00,-2.886873540128125359e+00
-1.661160109950539088e+00,3.275138980026223834e+00,-7.232557575068441214e-01
4.919673559572753097e-01,2.922317738003015641e+00,2.343445029417194014e+00
-2.972184596081796748e+00,1.907957970889824661e+00,1.256442040758233514e+00
2.353342589276049335e+00,1.968637766382637766e+00,-2.148930580961341263e+00
3.480362014112752700e+00,-1.091771999604373100e+00,-9.263552089311104520e-01
1.214390296259295621e+00,-2.559021726101562866e+00,2.505376855682809101e+00
-1.788676862116103550e+00,-2.585022573343537022e+00,1.941113386345604042e+00
-1.076723239821207434e+00,5.373453876584736166e-01,3.510208395992542751e+00
3.501596650561645152e+00,1.004495256863709329e+00,6.205938274839722935e-01
-3.410628553794075923e+00,-1.351243443769615471e+00,-6.331209325181480496e-01
1.268315498139998221e+00,-2.916468400782413539e+00,-1.998452708612420192e+00
-8.884118967154064350e-01,-2.935964393805692296e+00,2.092796721794271786e+00
-3.744349390158105417e-01,-3.681588731246568713e+00,1.188175841989796561e-01
-1.498381801833211791e+00,-2.575720488720988133e+00,2.133888011986412980e+00
-2.226947789996874150e+00,2.765458938209544026e-01,2.972598917739422753e+00
1.943886665295171179e+00,-1.728856493702218167e+00,2.699390193140073446e+00
-2.343438444795804099e+00,2.654158978368740041e+00,-9.856496965502262730e-01
1.253741324926229472e+00,-2.457381765939636864e+00,-2.492669089393932502e+00
-2.725122964527365799e+00,-1.221250061890808203e+00,2.313923854225758081e+00
-6.224066191786385982e-01,2.476211895088942683e+00,2.784690633718583719e+00
-3.784416628326332521e+00,-4.400346351658694366e-01,-5.278882442856613899e-02
2.625138684813721923e+00,-2.614902066742086362e+00,8.860127606444969661e-01
-3.213691995958003034e+00,-1.641662135998884775e+00,6.976364685572248314e-01
1.457044084822496810e+00,-2.174483137683510758e+00,-2.658218836391829765e+00
3.659668892148310704e+00,-7.179847252316455819e-01,8.023776600776222345e-02
-1.678429786694417558e+00,1.564338440498828642e-01,-3.379630609081391235e+00
2.473048601826261239e-01,2.664253240399011347e+00,2.563074684939016468e+00
1.614519300728332718e+00,1.554518111329553642e+00,2.917617581564867724e+00
-2.823809152699021219e+00,-2.452935113419849600e+00,-1.727471256857723569e-01
2.801451261567814571e-02,-1.550357606001140143e+00,-3.409178244021132453e+00
-3.464800091751508937e+00,1.246978654018775945e+00,4.618267971057332666e-01
-3.328476209674976261e+00,1.462733442153693941e+00,-5.994016653049292209e-01
-3.714994018341412296e+00,4.232733798780538570e-01,4.264713669841488364e-01
-2.731796323624272382e+00,1.184626362231727903e+00,-2.235155962248146722e+00
3.057208082572932639e+00,-2.053512400648725755e+00,-9.134338340624553743e-01
9.145993177040937505e-01,2.441563120962957800e+00,-2.698471271631452062e+00
6.261821028367707542e-02,-2.778834717098751739e+00,2.479177752138055357e+00
2.705910823799991816e-01,1.904417864791896120e+00,-3.143352593661812300e+00
-2.795080549663010228e+00,9.055199572675257658e-01,2.257217313109819656e+00
-3.446751221584336555e+00,1.364875915228644487e+00,-4.906031084061619474e-01
-9.527395502648824399e-01,-2.530291707675913493e+00,-2.605714187836110973e+00
-3.163470707063037235e+00,6.008985199496409413e-01,-1.901769769468566684e+00
2.887957394577715942e+00,2.436722770355933321e+00,-7.244313938097082795e-02
-2.551827779937843599e-01,2.871902164942513380e+00,2.261359924677210032e+00
6.756257489316026543e-01,3.637057374368667162e+00,3.062623824305653053e-01
8.261425216804167693e-02,-3.369097154933585525e+00,-1.551513059840914144e+00
-1.812327347573234659e+00,2.369361283803635310e+00,2.324021409031210350e+00
6.974597841549734500e-01,-5.530206794702232642e-01,3.615793024834416780e+00
5.519236822871944614e-01,2.324303576381594016e+00,-2.927364738157726354e+00
-1.852465986753115690e+00,1.525197866885641629e+00,-2.830937957424573437e+00
5.655829929542921519e-01,-2.202445944187878535e+00,2.934770980990825340e+00
-4.693565882453253901e-01,-1.323990086557786716e+00,-3.423145926022883145e+00
-3.248256273754487555e+00,9.781576234428793759e-01,1.704419148358018443e+00
1.425063005287929618e+00,3.323918601844166876e+00,-5.875612047740587096e-01
-2.971426289434075052e+00,-1.379049494031612477e+00,-1.723997351962197833e+00
1.453810446872277229e+00,1.473651733013833454e+00,-2.997141797394781815e+00
-1.397488725966842704e+00,-2.854635909174561892e+00,1.906562102692813010e+00
1.593324282982571560e+00,3.056156077147487604e+00,1.380019325753957915e+00
-2.355662476120197635e+00,7.506878469284021804e-01,-2.796705980383562107e+00
3.033102144735919214e+00,-3.569672598550734377e-01,2.089957341260734847e+00
-2.516157930597069825e+00,-8.851486389653326903e-01,-2.590824710527672714e+00
9.863859130263921138e-01,3.386027721064399199e+00,1.175941769494549760e+00
2.259317756779162245e+00,1.511281248214486395e+00,2.706643846762639249e+00
2.751485092737112392e+00,1.592113162581463515e+00,-1.925019623107822264e+00
1.474749762444437007e+00,-3.081306113367030974e+00,1.375031912144949686e+00
1.003143142201085691e+00,1.816018767780147813e+00,-3.113860833602949629e+00
-1.767069082338283303e+00,1.714411720705446784e+00,2.799591782252004446e+00
3.331471303711182053e+00,-1.729201862691490899e+00,-1.272816049029033003e-01
1.114348571296899237e+00,1.446078088707642539e+00,-3.242615827266633222e+00
2.063755014794724119e+00,-8.762944900214805211e-01,3.055710458930845252e+00
1.480346251968733540e-01,1.036218758990209654e+00,3.595951250188235804e+00
-3.394538746733083201e+00,9.286391057502068058e-01,-1.216647837214570593e+00
1.627657000954130462e+00,-2.144379436789816573e+00,2.526838805860545545e+00
1.879185603367359514e+00,3.211628761160364665e+00,6.953369761871945609e-02
1.842062417940634189e+00,-1.291977661004266587e+00,2.966410540439176291e+00
3.714631732138978126e+00,-5.590258202750626043e-02,4.264128094807898700e-02
2.775324136118721530e+00,2.073838627114991784e+00,1.223357076748834205e+00
8.543888354468719415e-01,-3.522321598868555004e+00,6.128858117651049264e-01
2.467081398934309888e+00,2.813902902912848170e+00,-1.713467944556026478e-03
-1.240454533013298111e+00,-3.004256095188488018e+00,-1.803684173752212017e+00
2.483123018976490126e+00,-1.511718316579729361e-02,2.748469733486586186e+00
2.324593982286834670e+00,2.054087338695119058e+00,2.040222514552860744e+00
2.905519818848628644e-01,3.720709908522180420e+00,6.587633303624248482e-01
-4.812261137837894331e-01,8.347964476204253748e-01,-3.620698353821841575e+00
-4.968015145243008801e-01,-1.754697885919770828e+00,-3.275768632160572125e+00
7.368923425238995684e-01,1.796435261701035069e+00,-3.112646482094067579e+00
1.153178890169147985e+00,2.096664414922918773e+00,2.972186793312904918e+00
-1.983904245428820934e+00,-2.660084372460194579e+00,1.767054323730846699e+00
2.490552051052222993e+00,2.568841431220571625e+00,-8.677737302706156619e-01
-2.959363965884729275e+00,8.445661773597568089e-01,2.095048149416522065e+00
-2.181532818206866509e+00,-2.794647956516827403e+00,7.426775403348198079e-01
1.505054528095845168e+00,3.233918732665308493e+00,-1.179638449322084393e+00
1.291762964951719495e+00,3.416067316833541145e+00,-3.248456633936496751e-01
-3.796183620576083495e-01,-3.535235770016663448e+00,-1.119793928472597733e+00
-2.167044370786923579e+00,-9.936954276836410527e-01,2.945810560275246015e+00
-2.447137959284120257e+00,1.572639868775545402e+00,-2.387208948749283355e+00
3.041088010871045855e-01,-3.697719338043805148e+00,1.918639686775128750e-01
-8.608921333586616598e-01,-3.182242373550399517e+00,-1.683303752135444809e+00
5.874075519087381680e-01,-3.358166902122232234e+00,1.407995807098791019e+00
6.825083277408393601e-01,-1.236010867279162984e+00,-3.476905409623856524e+00
-2.103881932002051425e+00,3.133851231324342290e+00,-5.003281979849126815e-01
-2.670204131180577978e+00,-2.658211295450036982e+00,-1.325844221486686680e-01
1.092421646360402621e+00,-3.271442263833340469e+00,1.336865280761250663e+00
4.449536341979201115e-01,3.255861160208984195e+00,-1.681904148728313064e+00
-5.092287214734506628e-01,3.537438593270481935e+00,-1.137582911664914764e+00
-2.085668347572775527e+00,2.497580922763938727e+00,-1.884083743919095832e+00
1.027681371162592727e+00,-2.140053900912804785e+00,-2.848935594400925808e+00
2.091122703221297563e+00,6.265439600152792332e-01,-2.966322204804269003e+00
-2.988569001701695704e+00,-1.798259002276273666e+00,-1.282234976972409735e+00
-2.465020717520682414e+00,1.938068374867094157e+00,-2.027563495429470120e+00
-2.507909251298328979e+00,2.202746019457064719e+00,-1.655297855004040697e+00
3.051011559875390411e+00,-1.684647107050039283e+00,-1.103186689764383832e+00
1.286555843485031714e+00,-2.153894281864306981e-01,3.514084023107864496e+00
-2.928265757194367325e+00,-9.070807172255079820e-02,-2.171373578519573577e+00
-1.009237995110727759e+00,9.502555985030310959e-01,3.416373588242682668e+00
-3.638647072992416742e+00,-8.825253896120521802e-01,-7.114908662170192910e-01
-2.940628080253837151e+00,-1.971698700296682372e-01,2.228086654545584633e+00
-3.352304402922060778e+00,1.265264032181094844e+00,9.883684164558798058e-01
2.464710433849037208e-01,2.011083486812453636e+00,-3.102842747768534970e+00
-1.111062263839638131e+00,1.761480172014073808e+00,-3.063613344015575279e+00
-1.519901428612043581e+00,2.989563243281513572e+00,-1.520008172582207884e+00
-3.526131351131058800e+00,-1.270583844310658295e+00,-2.249922491925747670e-01
1.522037218185797736e+00,-3.393445094252775185e+00,-2.488098565165039189e-01
-1.454921126161849765e+00,-1.193553629312789743e+00,-3.207594299604076937e+00
2.521128126713220174e-01,-1.274778047000124204e+00,-3.472186352893313455e+00
2.540183225834748537e+00,-1.953408751234890328e+00,1.922137571294360248e+00
-2.004699655423801463e+00,3.147976416550648526e+00,1.027609303001922603e-01
-3.737537063344349875e+00,6.684600444825965493e-01,1.886505513382353005e-01
-2.166452093812800406e-01,9.387856434856991505e-01,-3.619368845045560779e+00
-2.256781896147689981e+00,-1.176905085140907747e+00,-2.801229612432941440e+00
5.742732862791717630e-02,-3.653653977036788625e+00,-8.582110387332471113e-01
2.377872142920001153e+00,-2.829212393438828244e+00,-2.962965921203118969e-01
-1.818158787238223217e+00,1.839310316804223966e+00,2.741653502053507552e+00
-2.307516501953695620e+00,-9.494852223270772162e-01,2.751652273556300266e+00
-2.387845070958404481e+00,-2.822981294840179789e+00,-4.291729247597712016e-01
2.506682754242485434e+00,2.710913532782114554e+00,-5.127771870480802852e-01
-2.751971138916186277e+00,-2.466780270531286234e+00,2.823535737638496745e-01
2.246506421862021874e+00,4.751309906604931355e-01,-3.029735464144571733e+00
-1.977533561407288643e+00,1.638824330365246995e+00,-2.661053669926827236e+00
-2.910331513108461721e-01,-1.911286936677588422e+00,-3.193385106484046165e+00
8.632458910621140236e-01,2.174265482175505415e+00,2.785891906740486146e+00
-6.593900046619837196e-01,-3.438700948314500128e+00,1.260775964997777887e+00
4.985047421028962478e-01,-3.589266430628566429e+00,9.331207597640941431e-01
-1.920214928941402333e+00,4.529238768155881001e-01,3.137929329893802688e+00
3.306278844498168112e+00,1.128129984816613307e+00,-1.152285300704332549e+00
3.040104692251311747e+00,2.114974151616707765e+00,6.492642799488844707e-01
-3.108105721283280776e+00,-1.620876163803584236e+00,1.329495085914554897e+00
3.505922088108289092e+00,9.434161959498530425e-01,-3.804352046012067778e-01
3.505603818626879420e+00,-2.505624077478257883e-01,1.377914493176743749e+00
-3.590273417198403649e+00,-2.076419173864998968e-01,-1.118973518955584501e+00
6.157763774297405623e-01,-3.645000951506117914e+00,4.360727141023200935e-03
2.807330829828553309e+00,1.368790368150347714e+00,-2.085688117688677679e+00
-9.658224922921455624e-01,6.256895620777848110e-01,-3.548607125452686972e+00
-3.442675811807641928e+00,5.287081214024347275e-02,-1.491513017436677746e+00
-2.431175936271155802e+00,-1.719152693496981188e+00,2.285166029722781378e+00
1.160744449094566200e+00,-3.529203466151261903e+00,5.345631688376464297e-01
2.174342958466322084e+00,-9.809162461342386674e-01,2.925627281298033289e+00
-2.378383654745434672e+00,2.870986388685389912e+00,-3.372727853586776070e-01
-3.626714100705515920e-01,-3.569067277273176853e+00,1.069768077865902667e+00
-2.080665612983442880e+00,-2.482829430095294221e+00,1.850822486359824603e+00
1.528809048282147476e+00,1.794174821065634307e+00,2.925472822050271038e+00
1.904277913081281026e+00,3.123479249890239728e+00,4.457468146922641261e-01
-3.362174556565971084e+00,1.539783654333737317e+00,7.118285926621714665e-01
1.790258909838198242e+00,5.862560235882015025e-01,-3.176499431182402855e+00
1.344874298007661846e-02,2.164902689683816828e+00,3.032519825668257951e+00
9.436377109035574140e-01,-1.820235004606400198e+00,-3.164274993609573539e+00
-4.787514395511664050e-02,3.639886413307401813e+00,5.796586476312430847e-01
3.676016913271975106e+00,2.439914796283472465e-02,7.303899135810139054e-01
-2.910062843474810812e+00,-9.789259847398281700e-01,-2.024059811825416499e+00
7.652101086102381933e-01,2.907997143976791321e+00,2.132391827306674870e+00
1.659095736418223221e-01,2.656422242400957590e-01,-3.714138725211107328e+00
2.469641467013304226e+00,1.182052593411082375e+00,2.454511938832667273e+00
2.570848971871076749e+00,2.796120305934690187e+00,2.106521990674330991e-01
-2.153870781347066998e+00,6.925083245657180919e-01,-2.890067142128501576e+00
-7.631553051987377545e-01,3.633742941066619547e+00,-1.079399324411101646e-01
3.304131648003459709e+00,1.649520871115893073e+00,1.239331248223560084e-01
1.268744036734705372e+00,2.725839393201759275e+00,-2.127767939621094229e+00
1.878018688618360299e+00,1.186368420140498037e+00,2.982817793526713945e+00
-3.455312691429847316e+00,3.798151146094563280e-01,-1.177237309695152945e+00
2.657941027487370711e+00,6.153693357116477580e-01,2.525778596539820509e+00
-1.654230093256084722e+00,2.792808776251327618e+00,-1.867171685051749019e+00
1.991955846296499910e+00,3.101344361058872678e+00,-2.242117970758959189e-01
-9.498007660850714684e-01,-3.444630782448642847e+00,1.041222015521349853e+00
-2.874176983815562192e+00,2.712573665971951820e-01,2.276584642596962027e+00
-1.540639588644250768e+00,1.046992160940367178e+00,-3.199282585776777488e+00
4.612895309945878042e-01,-3.044280491456806015e+00,1.965565593532690336e+00
1.142441972917076276e+00,-3.423006498856949520e+00,8.278055075756343140e-01
1.223157885741454676e+00,-6.075414393229144894e-01,-3.434567877099280242e+00
-3.125058680419615431e+00,-2.063297482566669228e+00,-4.510784782956138717e-01
-8.122413757947135604e-01,-3.412429368027157572e+00,-1.306875478591366102e+00
6.310701967318885774e-01,3.424229255150976758e+00,-1.320697063520921866e+00
2.949169707162139886e+00,1.908440663073240007e+00,-1.281162778935898583e+00
-2.407816404768412522e+00,-2.782144248798758657e+00,-6.458909054205986822e-01
3.670458650535677325e+00,6.766931741639524711e-01,5.835284528995295927e-01
1.170189523274234755e+00,-1.482180268750682428e+00,3.202893584093438495e+00
-1.788137154764944670e-01,-1.291612182169789236e+00,3.463892992160856554e+00
3.461249092140608941e+00,-5.582718621098369249e-01,1.411017009946780032e+00
-2.281273038055538382e+00,-9.572560033022049497e-01,-2.812987428685257196e+00
3.196276013104854208e+00,-1.894101771510655619e+00,-1.809786437375686674e-01
9.107270238926741257e-01,2.528649915484047828e+00,2.582603349058866904e+00
-1.302494976520536918e+00,1.530628767063926698e+00,3.126791283405732536e+00
2.623895970227997990e-02,2.327698880706408069e+00,-2.966134259789074967e+00
3.685784062375480730e+00,4.395160269885803328e-01,-4.557809917514361597e-01
1.792589892459746315e+00,-3.024751164162250205e+00,1.258924897005095911e+00
1.301677217718132828e+00,-2.910704627651558685e+00,1.927084034759343201e+00
-2.317479404060238224e+00,1.695907168850517621e+00,2.244842116812936439e+00
-5.519624434463666907e-01,-2.734280581488856221e+00,-2.389686307888055250e+00
-3.026798701099677302e+00,-1.246363846327908309e+00,-1.809729141754169879e+00
-3.235497635621017221e+00,4.563749125000297058e-01,1.880354955689478524e+00
6.338996031147225985e-01,3.614554074889414714e+00,7.834157886987879182e-01
-2.388585447743509782e+00,1.493201141929842990e+00,-2.378687429142829934e+00
-2.512362461704538141e+00,1.882062621236122668e+00,2.110730487964487256e+00
3.421232746852069795e+00,-9.902872677721045180e-01,-1.170956082498003648e+00
-2.338302054036750288e+00,-1.122868029300477133e+00,-2.577752547539533534e+00
-2.201838010764654907e+00,-2.590887094598218088e+00,1.427225001023085360e+00
5.368088471885897883e-01,3.110526221997616858e+00,1.924440860476315240e+00
2.260868490346130688e+00,2.753500699391895346e+00,1.038766725688345716e+00
1.975780069033236996e+00,2.271349555380858032e+00,2.229043168408239239e+00
-8.722293596241113001e-01,3.551401283171268908e+00,7.202291311711589428e-01
-6.153681342068919591e-01,-3.659285775371962313e+00,3.849842921818618646e-01
-1.455762509565523277e-01,2.699826989075781558e+00,-2.441347463067589985e+00
-5.495237784424950034e-01,-2.482097746611433120e+00,2.769370851831753466e+00
-2.241931602583073335e+00,2.167773178239327692e+00,-2.051977634816427365e+00
7.308529155862758531e-01,4.282606907414647779e-01,-3.620757498648541794e+00
-7.402829225862797013e-01,4.077090858445706623e-01,3.652531962133925614e+00
1.711732785179854943e+00,-3.104375013376024395e+00,-1.066911320459517531e+00
1.911696665213592272e+00,-2.930437400638200796e+00,-1.266591523006512121e+00
2.961207694297464110e-01,-5.710019348314380183e-01,3.645747360049489405e+00
1.248063431814249391e+00,-3.216126205752529277e+00,1.365247467347113108e+00
-3.208599170570544334e+00,-1.407096717759647841e+00,-1.283767387342323207e+00
-8.534684502921709992e-01,1.062373033684999690e+00,3.486935498463177296e+00
1.110129903162501597e+00,-1.413557661503045404e+00,-3.221312835294541266e+00
1.533708097678317728e+00,-2.939969249884395452e+00,-1.652757339653402102e+00
-3.069291028954986178e+00,-2.235095723724348282e+00,1.968760708081873090e-01
3.179073270504633619e+00,-1.792380088122788040e+00,8.052540847242160016e-01
-8.381752545468148519e-01,-2.809900887569431127e+00,2.351127730118463433e+00
-1.194696851903957358e+00,2.357075078788767541e+00,-2.617028274827030820e+00
1.840307357206817152e+00,3.162361899929744258e+00,-6.620314814531248482e-01
-3.586659386716254172e+00,-9.517306573442838591e-01,4.085142181902735037e-01
3.159074711526996815e+00,1.337568813059027084e+00,1.578314295177298598e+00
1.429371742796594180e+00,-3.438205547694525244e+00,2.928096258819619102e-01
-3.359563798764991227e-01,2.360403060298259525e+00,-2.874268165253335727e+00
3.344124577962797940e+00,-6.612794223372043811e-01,-1.357701463029094224e+00
3.483288077542392003e+00,7.032933035003333666e-01,-1.277017692800154425e+00
3.595641732008838076e+00,-5.459283523608369215e-01,7.580726380812573550e-01
-2.460593635385765143e+00,-2.727833723238170638e+00,-2.759009411357570829e-01
-1.169360494037222420e+00,-2.857182898596113851e+00,-2.088261911662933290e+00
3.027959581162811276e+00,1.664537527309664311e+00,1.438736224687614973e+00
-9.637241275254357920e-01,3.452452329798957553e+00,7.827345103582791230e-01
8.230440658235451679e-01,-2.697399303057200104e+00,2.451112403776458226e+00
7.755968273288560422e-01,-1.736992616256600286e+00,-3.160138759002435460e+00
9.759256655632592148e-01,-1.430305193016801812e+00,3.290316034853685956e+00
1.612278700127945941e+00,3.031251905707218697e+00,1.467701025773320955e+00
-2.970893855607149359e+00,-6.827857879010412745e-01,-2.064360509464721272e+00
-2.823911421347202744e+00,2.392581036110102755e+00,1.471574705766375557e-01
1.171555284685047216e+00,2.284573833659262032e+00,2.746592123949754161e+00
6.153346886457892184e-01,2.302484059907118130e+00,2.833105347753873016e+00
1.586745808464838925e+00,-2.983062137676169900e+00,-1.718095458950311905e+00
3.547289290318134558e+00,1.082748463883073109e+00,1.979253026086860157e-01
1.551439066765475605e+00,-3.038397250864332211e+00,-1.389483930459190164e+00
-2.544452889982913746e+00,2.088345914682907090e+00,-1.705082796434302717e+00
3.405641944383804187e+00,-2.161274454684212198e-01,1.472327443438928629e+00
-2.244974166397248450e+00,2.547497998722203505e+00,-1.519581563244409184e+00
2.188012570047516370e+00,-2.932286422273512549e+00,8.593178075325736964e-01
-1.094728518634778602e+00,-2.335121380758008680e+00,2.664787814482177275e+00
1.645842139142966287e+00,7.702831989332925566e-01,3.217345382262586373e+00
-2.181914786671826645e-01,1.601463750964618127e+00,-3.341381717310273558e+00
1.395391461752194973e+00,3.282022154384902191e+00,1.032318618099413721e+00
-6.518382418810597656e-01,1.967674077784121955e+00,3.087500373035219070e+00
1.994561970625802427e+00,3.091430522999579988e+00,-5.101678193619696433e-01
3.173971462497473084e+00,-1.400148021515343455e+00,1.388390611475301961e+00
-3.568951701805667565e+00,9.916865445751624764e-01,-4.254196041670153527e-01
2.936234307601918836e+00,8.308561249349823985e-01,-2.112995850393043717e+00
-2.873823646880922400e+00,-7.629254190507389621e-01,-2.308572117772920151e+00
2.562032373061689405e+00,1.304922238405508583e+00,2.423853446756862429e+00
-2.206578205125386827e+00,2.927874587701131404e+00,-7.282281993930225239e-01
-3.026906587061795051e-01,3.084444645158871179e+00,-2.011825306205959674e+00
1.582301841762938366e-01,1.955478129059585957e+00,3.181742601862516562e+00
-4.001760448358339661e-01,1.213435211738278507e-01,-3.721174312465776790e+00
-1.676733776394967013e+00,-8.685889466814979976e-01,-3.198113519358500412e+00
-2.636295857793681030e+00,-2.571299363121422488e+00,2.729846724833083771e-01
3.202344995816823747e-01,1.891270040442690981e+00,-3.168205551905435069e+00
-3.374180541015691759e+00,1.118773782036709130e-01,-1.712928648949783028e+00
3.206940880596791832e+00,1.031957938895877058e+00,1.687774734165452317e+00
3.618000105395849708e+00,8.318431991632520006e-01,5.784645797813412482e-01
2.683271994389397008e+00,-1.672287888291208668e+00,-1.877716568692899601e+00
3.070078969353172926e+00,-1.930871861274020107e+00,9.998175740977638393e-01
-2.114592867728272374e+00,-3.137606808686845827e+00,1.746487763923906811e-01
-2.119077376096623055e+00,-2.594865655038296470e+00,1.643736151421880454e+00
-3.481891586805849759e+00,1.042718440101478183e+00,6.358898170108501224e-01
-3.497795228877422780e+00,-7.852679308775967204e-01,-1.043478888277633132e+00
-7.795703594687907190e-01,-1.511447803928164024e+00,-3.365264330929754522e+00
3.256148393782865469e+00,6.869303775627106923e-01,1.804591544691846128e+00
3.044361034052476711e+00,-2.104294990484295358e+00,4.245295755445322450e-01
-9.622612014256117785e-01,-2.851193097231726536e+00,2.178095755575756520e+00
-1.058034439138134664e+00,-5.458174910017763448e-01,3.509742576899798738e+00
-2.969166557941552931e+00,4.302123805529038392e-01,-2.305108373734725991e+00
-2.117753996295618446e+00,-6.542231773813935725e-01,3.025922910222697659e+00
-1.518210440469978995e+00,-3.326053019062217064e+00,7.739619403428200650e-01
-2.762889502351430160e+00,1.662667387989080092e+00,-1.894733496164419773e+00
2.667329333391116886e-01,-2.536758001472081858e+00,2.769500413196879673e+00
3.474489348525245713e+00,-6.187269665219199410e-01,1.212100766848386968e+00
-2.441355785862032057e+00,7.730587462941974630e-01,2.675198587469432621e+00
3.087982730345682381e+00,-2.266415603151245850e-01,2.064992925656733647e+00
2.466192027150141630e+00,7.802980786053494988e-01,-2.678686404344529315e+00
-1.811030766914268231e+00,-2.917931475904437466e+00,-1.521059119875448840e+00
1.174965738846134755e+00,-6.360450679565786691e-01,3.441535452708076814e+00
-1.450776251488079538e+00,-6.791101053482859751e-01,-3.361448646952740482e+00
1.121899257042003439e+00,5.493838552036598433e-01,3.481404237040433447e+00
-2.955637790388247407e-02,8.147230857497299583e-01,-3.624621763484345394e+00
-5.967102671463371255e-01,3.581499933775070144e+00,9.672723123708721893e-01
-2.015453828718021256e+00,-2.330275117288049813e-01,3.131251894664449420e+00
3.212809401522243924e+00,8.459647264252790899e-01,-1.679427228635838265e+00
1.401201882554545364e+00,-1.279829798225268878e+00,3.179295448213299125e+00
-5.262472807412027498e-01,-2.909423793420153448e+00,2.265199576819484140e+00
-3.391888414630610082e+00,1.358616407013688132e+00,4.972707566095713738e-01
1.617155777550520090e+00,-3.375115008959400864e+00,1.240379731147737696e-01
1.051480624880498788e-01,1.469335358527618651e-01,3.777198158560788332e+00
2.498359221115254325e+00,1.398843867344801817e+00,-2.405034077413481075e+00
1.186202968768072186e+00,-7.883685094143061400e-01,-3.382342727492173129e+00
8.040404975603762106e-01,-2.439837950120060217e+00,2.623720920313736382e+00
-2.334269953706225031e+00,-2.792801338384782728e+00,-3.761855047874099744e-01
-7.844474654564171923e-01,2.544058855791385909e+00,2.570877224638489000e+00
8.330064323531397585e-01,-6.023304139585717865e-01,3.646917798130534738e+00
-1.059013145126886046e+00,6.891570680280743877e-02,3.602895212923470147e+00
3.667036902455130143e+00,5.517503383988314747e-01,-5.917895230545772156e-01
2.979751694626600944e+00,1.203626794601269756e+00,1.863306271638438982e+00
1.827453860151843745e+00,-3.210529887238248725e-01,3.230830888760422681e+00
1.723479911739940640e+00,5.890062399344971888e-01,-3.347345558776097185e+00
2.618787038594884820e+00,-1.259634736861671378e+00,2.399071016669342082e+00
-3.586196676989558796e+00,-1.231738467587841224e-01,1.030750742064912462e+00
1.346196400775191426e+00,3.040576205464452730e+00,-1.763401703946218646e+00
5.898539106373931196e-01,7.517514758180249279e-01,3.635039612758978578e+00
1.313413910656955896e-01,3.488534488604645212e+00,1.270631268574558659e+00
-2.994246713576152796e+00,2.140441227078392350e-01,-2.136042317590882256e+00
-1.629172570113279317e+00,2.679239089644478877e+00,-2.119551258733601173e+00
2.360845770501017182e-01,3.605367738463210792e+00,8.500737978052322896e-01
2.618133001842825713e+00,-2.630415378261435233e+00,-3.838653705472497291e-01
5.991780916231593812e-01,-2.993648069189241756e+00,2.187276647651028583e+00
-2.237435440618610105e+00,2.820578367573716161e+00,-7.680411559645878850e-01
-1.919087589596262244e+00,2.365379397140845885e+00,-2.202936720786601743e+00
