1.378816454338778863e+00,1.207593562917234520e+00,1.607623698868018591e+00
-8.501197376091109703e-01,2.413040416063373939e-01,-2.248418038377703265e+00
-2.205644554343693997e+00,-7.712894122460006718e-01,5.296568478019232362e-01
1.789904629405183023e+00,-1.453676598465634573e+00,-7.338081462267029842e-01
-2.598355346676795574e-01,2.286439594649188223e+00,6.886411210069104394e-01
2.312741639718190800e+00,4.545677525513119877e-01,7.229182778957037314e-01
-5.343412940650722476e-01,-2.320738323330040043e+00,4.208397427412555736e-01
1.194584159291084857e+00,1.833679962942784458e+00,1.062959235367457511e+00
8.823860032762734784e-01,6.240405475855287376e-01,-2.165886743421250760e+00
2.019732171650123309e+00,1.323169601624903047e+00,-1.914078213060483868e-01
-2.199695564470157905e+00,-5.075074243605045554e-01,-7.811106672859763345e-01
1.782224507596298135e+00,-1.454928800509506903e+00,7.786533674851418008e-01
-4.452752258322561357e-02,2.396947609433706550e+00,2.850810037408291198e-01
-2.106975540034100813e+00,-8.183878892705769292e-01,-8.991860572828219711e-01
2.393373871416688559e+00,-6.564452595392727963e-02,2.783443150595358295e-01
-1.876755055177768527e+00,-5.142005801412125043e-01,-1.434840882164748699e+00
-2.008999440930963498e+00,7.112347393797628925e-01,-1.093690695926448964e+00
-1.139077555152182342e+00,-1.902126223017404749e+00,1.017007310954435084e+00
-1.459884325539570371e+00,1.914183112406637077e+00,-5.508480797164422293e-01
-1.888326288223804772e+00,-1.057951044309219935e+00,-1.042102866302434094e+00
1.653493044493210551e+00,-3.370122189355920783e-01,1.778542747342760189e+00
-2.414292660268053226e+00,-2.572300560759610000e-01,2.152727004350615814e-01
2.031014494225890754e+00,-2.457671331033904338e-01,1.300669352511329313e+00
7.541866117540668712e-02,2.376862777234017621e+00,4.895815649853138551e-01
-5.167103243975770255e-01,2.308741468952141052e+00,-6.134813510679790749e-01
1.441174612919424058e+00,1.779514161778851467e+00,-8.708444650482678462e-01
1.386318255194118665e+00,1.004263744966430894e+00,1.687759346745995703e+00
1.948560059802551869e+00,1.011416314325730870e+00,-1.205944822735844468e+00
-1.977882423018838765e+00,7.325145814994604709e-01,-1.199814507288153420e+00
-4.438773410765844973e-01,1.916553695867348361e+00,1.412779417404228521e+00
-5.354319798547451104e-01,-1.040313422907148455e+00,2.156885291384982306e+00
-2.342048184103854569e-01,-9.688583055544717215e-01,-2.203683287492974152e+00
1.032607927282502835e+00,-2.296129737088808687e-01,-2.171636952446395874e+00
2.283248121840117495e+00,5.916337861762492878e-01,4.644946058211715245e-01
1.745931873272059454e+00,1.363260743761610438e+00,1.079584512431003063e+00
1.191057184986974438e+00,1.901315426733378944e+00,9.562861410046337163e-01
-5.289374150229629590e-02,2.136624387357775046e+00,-1.083651552409405028e+00
1.442462303431883974e+00,-1.930838187654967619e+00,-3.437141026470502680e-01
-2.034754281740606796e+00,-1.069469026692349889e+00,7.254962594317395652e-01
-8.978260883074072884e-01,9.858033189953394615e-01,-2.010276784645102843e+00
5.124022021100722579e-01,4.046862687645050860e-01,-2.355487014310781113e+00
-1.901804381589738302e+00,4.289683095237003529e-01,-1.416821637284432889e+00
8.907555050959261589e-01,-2.819864829529637046e-02,-2.228400770962043254e+00
1.239853225240219903e+00,-1.587853864656438185e+00,1.368181794584118149e+00
1.855725814810492702e+00,5.230113548662522760e-01,-1.507126004929759011e+00
1.456207261690673160e+00,1.253974470506917571e+00,-1.438517122856658004e+00
6.789409818521942031e-01,-1.981187862273727784e+00,1.183311489384974990e+00
2.172881486754958402e+00,6.362008361311682902e-01,-8.357758636341147129e-01
-1.674950376059034074e+00,1.455061921828022298e+00,8.230798849421138152e-01
-1.749095993402706828e+00,-1.724142736829249678e+00,6.689273114588825675e-02
-3.845804037653810514e-01,1.955773433050779220e+00,-1.381783689523548686e+00
-2.390038495942736763e+00,-2.486514544520895820e-01,1.645057275288820122e-04
-8.306033111973641636e-02,-2.276984271166933915e+00,-8.989397139385705282e-01
2.836538107183965707e-01,2.256201909554397034e+00,-7.132493017092861320e-01
1.066279397283442787e+00,1.990221749468130907e+00,-8.179832622756766369e-01
-5.701355291380117984e-01,-1.668820026542150448e-01,2.317359293227843064e+00
1.119920322009287261e+00,7.805769072133238451e-01,1.998687259161175067e+00
-1.986440559330177047e+00,2.131497535803527632e-01,-1.269950330615262857e+00
7.335632315124155367e-01,2.220401218023905887e+00,5.074295781265300009e-01
1.163029039154802602e+00,-6.522546983101641382e-01,2.018318755916925333e+00
1.438979074665986513e+00,3.051261332536623905e-01,-1.923628130702291994e+00
-1.916325155200337971e+00,-1.398724654734208928e+00,-2.704335137777053588e-01
-8.793876915710991948e-01,-1.855001178449896315e+00,-1.325156146899611587e+00
1.734623573730648793e+00,4.173580163765419626e-02,1.582925695497181762e+00
-1.435212874041007280e+00,1.766668105659685573e+00,7.062672799239574362e-01
-1.630897256110150018e+00,-1.661924907036960608e+00,7.015530754649892398e-01
-7.199554990932117704e-01,-1.344080173900866759e-01,2.281948636992610968e+00
-1.977626486145763973e+00,9.638752211820011614e-03,-1.340637512140121945e+00
-5.392531080990090597e-01,4.388882462029356502e-01,2.337282085386186203e+00
-3.617993837098210652e-01,1.824871601753041528e+00,1.513408280022474628e+00
1.209569514547923053e+00,2.030996961806569967e+00,-4.884855537104692558e-01
1.027347427030598642e-01,2.009134939017967802e+00,-1.443734101022070115e+00
1.885807388022780140e+00,1.317424549335039607e+00,-6.670840715652318620e-01
-2.307830813072362819e+00,2.682554418148223041e-01,8.452944360286783754e-01
-2.078033039003691851e+00,-1.005146908732347466e+00,-7.478845717816823280e-01
-1.727564611828359853e+00,7.350435136456072716e-01,-1.536278792740307209e+00
-1.882097343516546673e+00,-6.982568977892988915e-01,1.317014377475886677e+00
-1.882309520563372640e+00,1.380527627121791001e+00,-4.084108856825345302e-01
-2.136382474593073955e+00,-5.112033593751069693e-01,-1.044420968824859131e+00
-1.578482187274003801e+00,1.625087341010717612e+00,8.655497302370972479e-01
-8.353342067131901416e-01,-1.046455473065080577e+00,2.007553191653768998e+00
2.279247068536710330e+00,-7.916979926972145254e-01,-3.633353132167704835e-01
1.416320506201006024e+00,1.078086977056528228e+00,-1.626721812642212717e+00
-5.115456375186373528e-01,1.828934201623661382e+00,-1.510918815911327595e+00
-1.653762937939142086e+00,1.598347037309322927e+00,8.492284619893798459e-01
-1.903407498180598845e+00,1.525038349355156919e+00,2.895744863960516002e-01
1.577705546040683582e-01,-4.786777936529936772e-01,-2.354477261301897162e+00
1.122627754868917194e+00,8.977741675464167015e-01,1.931037818307524079e+00
3.606866917155012731e-01,2.256893454117078424e+00,6.041472963123889484e-01
-1.938239098477298805e+00,4.054936007181228486e-01,-1.287685047253195547e+00
2.151201006597720511e-01,-1.616931738704211252e+00,-1.808680510008574549e+00
-1.728490280712148719e+00,-8.263153508491328791e-01,1.490556492710767955e+00
1.925269228645514641e+00,3.385792285055102546e-01,-1.445991485786015662e+00
-3.183941818586437655e-01,2.291153854613421359e+00,6.680779882220380106e-01
9.312118906487436565e-01,-2.233607057375475158e+00,-7.113279980861345053e-02
-1.470108927737586502e+00,1.127970078636082590e-01,-1.898447045605374361e+00
2.242381340476249374e+00,4.377098633293664554e-01,8.139987461728751539e-01
6.171116310509867642e-01,-6.814390059117612086e-01,-2.217575361547119428e+00
-1.683786805117647445e+00,1.402356406532073718e+00,-9.964305757025090360e-01
-2.018959421325139114e-01,2.325479384571021324e+00,-7.562835653796567970e-01
-8.433550607801073573e-01,-7.526900003237442238e-01,-2.163625053855825264e+00
-8.538166906154658342e-01,-1.984384841014242173e+00,1.069406742682370570e+00
1.423703560973699656e+00,-1.593968773514834014e+00,1.105553000514614581e+00
1.039334580017084342e+00,-1.481373108426899510e+00,1.586150453607911404e+00
-8.091276470853466796e-01,-1.579815245239244881e+00,1.642775361491947361e+00
-1.157975267490297888e+00,-1.694566425893511363e+00,1.257435451133328774e+00
-6.129601190873250616e-01,4.209314290735199915e-01,-2.305457578613919978e+00
5.862817218545841591e-01,-2.310894387668305239e+00,7.541307128313194663e-02
-2.144450303011556702e+00,6.065116671757808664e-01,8.807321916463368705e-01
1.270824649059287603e+00,2.012255480652632933e+00,1.056268421058674800e-01
-2.682928581924570732e-01,-3.572470759744004742e-01,-2.387763602005381181e+00
-7.476941138038629697e-01,8.138985681143221518e-01,-2.145170264663629034e+00
-1.914426023978125002e+00,-1.471148844442222270e+00,-1.958264298924281832e-01
2.152206445190046225e+00,5.184528764704284809e-01,-9.413685163141672918e-01
-4.931413822262426527e-01,5.392063222071624695e-01,2.313417281136850523e+00
-1.930507827363437956e+00,-1.130048343137155742e+00,8.261670675460798252e-01
1.994748918421021533e-01,-1.080960250532309264e+00,-2.165221324349811294e+00
-5.740661712996599775e-01,2.109811287652271439e+00,1.066992261380261597e+00
5.225218818055570313e-01,1.148670389249545759e-01,2.362967352902957341e+00
-8.949743314275722117e-01,-2.238601475668598795e+00,3.437984240328095242e-01
1.340108952364128969e+00,9.409141268659658719e-01,1.732865196405163566e+00
-3.931670172609935676e-01,-1.879627637564597942e+00,-1.525584290500688001e+00
8.481672860959650340e-01,1.766675341634448004e-01,-2.271371960946099389e+00
-6.114164249584548294e-01,2.184611032440633593e+00,6.839938826028868490e-01
1.438387766130535095e+00,1.569163031032771549e+00,-1.077797454098261110e+00
2.389176870251542351e+00,-3.584125737770321174e-01,2.174949934426972376e-01
-1.694167806420346034e+00,-1.170951315646601154e+00,1.207753710210987430e+00
1.495226099233090578e+00,-2.464041433653714197e-01,1.866619751798138216e+00
2.141150703003185107e+00,1.046555282883071314e+00,-2.458797916615036716e-01
-1.085954597305017533e+00,-2.133035861940915989e+00,-1.565504966197205083e-01
-1.475265083281657619e+00,-1.824145764028801242e+00,5.893003617019738627e-01
-1.111060608566179081e-01,2.439667062003155529e+00,-1.730840611217644154e-01
-2.148300002496283501e+00,-5.402567876932465873e-01,-1.040513821985623144e+00
1.175373991098338733e+00,-1.405977607994470135e+00,-1.622095560947780735e+00
1.095803857786511015e+00,-2.099524173517939740e+00,-5.256767659671677251e-01
-1.617508406769417650e+00,7.926158995830817622e-01,1.637462716382539041e+00
-1.704445354078209851e+00,-1.592957758147751424e+00,6.133544151839110947e-01
-1.729864253579020739e+00,-1.138097748694543165e+00,1.256474216462822202e+00
1.620697413322948366e+00,4.448223790722646287e-01,1.762477590604898614e+00
-1.389535110810563301e-01,-2.627504557317673628e-01,2.410513065904422714e+00
1.402171008732501001e+00,9.934968697775583557e-01,1.713469183899494652e+00
-7.482102091385568476e-01,2.243857487629995706e+00,3.778109076734225136e-01
-4.859975895038569638e-01,-2.009652002879046773e+00,1.343799588583752591e+00
-2.445036265663701691e+00,-2.137159446562981666e-02,-3.113981910553594856e-01
8.435043401137037877e-01,1.817049701652429183e+00,-1.334797320154428091e+00
1.194499057796727826e+00,2.059792191468460487e+00,-4.914120311848169664e-01
-1.050883791416680202e+00,4.800284592661504535e-01,2.159345303852179487e+00
7.758655418756251754e-01,5.258770394115163116e-01,-2.198098315107339218e+00
1.265665143562401562e+00,-5.909879762139632620e-01,1.997227373949024942e+00
-1.506419304919112578e+00,1.842866431198593613e+00,-1.270700816126885402e-01
2.112485814303104004e+00,-6.670713262983990477e-01,8.678529903408312984e-01
-1.345767043711414424e+00,1.589200290657014403e+00,-1.318670503167969521e+00
2.202966581128287249e+00,1.011292515738528630e+00,5.503723375675205476e-02
9.728839407757409186e-01,1.737410310863093388e+00,1.351405379098927328e+00
1.998163012638949354e+00,4.585735682626422283e-01,-1.293317134962969295e+00
-5.163012608264447995e-02,-1.243356819792986734e+00,-2.075260138362136519e+00
-4.958697514338831769e-01,-2.402411499531847294e+00,1.361566235685019999e-01
1.558077690575133900e+00,1.646632507124163425e+00,-7.973158228247512191e-01
-1.556974404977546245e+00,1.830868424333272015e+00,1.141643389879848924e-01
-6.940322805951022467e-01,-1.992245591029575991e+00,-1.204855070382456983e+00
8.897709218039252521e-01,-2.192486534844061641e+00,6.443609854423382188e-01
9.354928807433229299e-01,-1.474634022459316185e+00,-1.694443054648323566e+00
-1.992442805206986467e+00,-8.426651077783183785e-01,1.109953240488092074e+00
-9.433943210800640466e-01,9.225704994743167964e-01,2.055754309670582813e+00
1.738003322182837040e+00,1.251726369998199972e+00,1.198999106485370225e+00
1.873555088681456260e+00,1.277841476059531800e+00,-7.796549262474599118e-01
2.225046582119364125e+00,-9.140278134454774550e-01,-1.234212246898282045e-01
-3.343483809577678101e-01,-6.378943645352173064e-01,2.287936247958142655e+00
3.669643038481325004e-01,8.605074502737365405e-01,-2.228018088391177542e+00
-9.590657862311849913e-01,2.180868732693540313e+00,5.178542141982630520e-01
1.878809466442651788e+00,1.498572616482105824e+00,-1.844154748255104892e-01
7.119226039697561514e-01,2.289354307624057228e+00,-1.665558772575349011e-01
1.943626118513744228e+00,1.249475991220550419e+00,-5.663828939670920715e-01
2.120568076661984769e+00,-6.959542270040528500e-01,-9.292627407255601435e-01
1.609936519317713088e+00,7.178635484229151098e-01,1.677571096334486089e+00
-6.480830492248476071e-01,-1.578170080900540340e+00,-1.667497521179773345e+00
-1.330315054610555103e+00,1.968592536924496761e+00,4.234603772324065374e-01
2.034053344735585966e+00,3.367293997095074931e-01,-1.327556959395448377e+00
1.405388634242450197e+00,-2.009550037630174923e+00,2.004710914551268916e-02
6.362026325495518941e-01,1.865861343474036760e-01,-2.382717920551725044e+00
5.365825645600316163e-01,1.576346998663806787e+00,1.828216918332987939e+00
1.192596778146500336e+00,8.408350352664124561e-01,-1.887497695860440139e+00
-1.507976399962608127e+00,1.821630940809205068e+00,5.210289492485975504e-01
-4.172169763756942706e-01,5.348818023775193664e-01,2.324357589691071979e+00
-1.818705466000866133e+00,3.850728880493394790e-01,-1.598004910593692651e+00
1.103024075906676948e+00,-2.070674824309813644e+00,5.290861365963129836e-01
1.277590258818830593e+00,-1.391741317406091083e+00,1.460740963848278007e+00
7.282878210936513108e-01,1.497519359624136293e+00,-1.770394060043738449e+00
-1.837819980521388619e+00,1.508640879050916928e+00,-5.062807510880871220e-01
6.333616534312153101e-01,-9.473928477645969792e-01,-2.122324800269899558e+00
-6.898899336716582398e-02,-9.140826882275990828e-01,-2.209141492990268851e+00
7.812375589451101554e-01,-4.298556174251472739e-01,-2.274161265160702605e+00
-1.116518301711448613e+00,-4.682308689180819661e-01,-2.091545523278554253e+00
-7.169635608728914811e-01,1.514962720343908220e+00,1.804722553876273450e+00
-2.174163665686995373e+00,-1.092150574386132389e+00,1.107813509922340595e-01
1.938990272354066180e+00,1.364164227229932358e+00,4.733741898996276509e-01
-2.258702303529803501e+00,-7.013806746346847865e-01,-3.580978710615431715e-01
1.675374810826706362e+00,-9.951032106060209159e-01,-1.409480697916617897e+00
3.146284019370764601e-02,-8.725378077241053854e-01,-2.264813169033005114e+00
-1.038463058209824652e+00,1.974604096856491520e+00,-9.814105869732587806e-01
-7.530079399963894859e-01,-1.640302657837015843e-01,-2.301841185117406763e+00
-8.853182380060449219e-01,-1.447384804310689832e+00,1.771768502838465542e+00
9.659536853182503213e-01,-2.167420152503912956e+00,1.619958628750051421e-01
-4.935127243442769540e-01,-2.319791871053725085e+00,4.245441127582209040e-01
-4.276596175697213731e-01,2.365163579976523156e+00,-1.503230690076197973e-01
1.329821633966691508e+00,-1.901430833009606802e+00,-8.005522766494315157e-01
2.180414188659352437e+00,-1.978335951312196195e-01,1.024143599142935956e+00
-2.237775769068035991e+00,-9.920746439526993976e-01,-1.523237303459459568e-01
-1.672481437020468809e+00,-5.667469031055423212e-01,-1.638334703980548479e+00
2.046197588445695992e+00,9.433410479573710594e-01,8.547222935520768505e-01
-1.803282299616955076e+00,1.355349075455862362e+00,-8.244121533805016666e-01
1.398754244413686898e+00,-9.663943242729888805e-01,-1.783857962141450315e+00
-1.107528910040325609e+00,-1.963664662703490382e+00,7.572873781092875900e-01
-3.630102956020762606e-01,1.059667610395811366e+00,-2.125770150976382222e+00
-2.288990291044600500e+00,-4.221673218312354536e-01,4.153173054097074601e-01
1.833070567259399652e+00,1.463159561704395539e+00,-5.354771483388256481e-01
1.071850442044737645e-01,-2.097708288904892360e+00,1.181257334999221698e+00
-1.449901863186874973e+00,-9.763281986432838233e-02,-1.938844332172026119e+00
8.498898362905784598e-01,-2.229173123726193445e-02,2.246615172080315581e+00
-1.041204927925880819e+00,8.958612267002741270e-01,-1.984683500331365869e+00
2.688998340700709741e-02,-2.289353039911931287e+00,7.624198912231416880e-01
1.053763218047226946e+00,-1.314794685035292066e+00,1.833157841319668968e+00
-1.859657835614347610e+00,-6.301891561447432455e-01,1.401269512507173687e+00
1.090215782327252692e+00,1.763668876224040893e+00,1.189162809705361035e+00
-2.342749480129941553e+00,-6.312343065046410739e-01,1.085625038207926885e-01
1.715719362033317985e+00,-1.562144658343984194e+00,-6.871820643136621332e-01
-3.323668222350121826e-01,1.195290998140548178e+00,2.098484823870157445e+00
-2.380516931946552450e+00,-3.753587684426487603e-01,1.629454852211867644e-01
1.673754174654799254e+00,1.286836840438132235e-01,1.798350714554263208e+00
2.004814408459342001e+00,-1.209528923924583887e+00,6.538399745241816330e-01
-3.505377348899051948e-01,-4.832724133382301224e-01,-2.342108303273658709e+00
1.620318581525255652e+00,9.981240230711474481e-01,1.456731936518681936e+00
-7.612449103176817111e-01,-1.983659803985161174e+00,1.149469496587821382e+00
1.719935329372906718e+00,3.985203041638204491e-01,1.650281152109725369e+00
-5.531783192228582058e-01,1.253830239616195441e-01,2.343933457742535253e+00
-2.056872281245001460e-02,-1.424054909090175292e+00,1.912977116516502818e+00
7.934257048118994460e-01,2.144040681145317429e+00,6.831393976777876409e-01
-8.350387072036665748e-01,-1.706837717155593959e+00,1.513241516607820358e+00
-4.294228931970093255e-01,2.140338312449676650e+00,-1.027740698774276984e+00
1.284398432122514366e+00,-3.545787076627377465e-01,2.001320537381704234e+00
5.517292946891966254e-01,-1.550824201315416984e+00,1.760324778358758335e+00
-2.309123154925818711e-01,-2.437491860869807070e+00,2.375578877121111432e-01
-2.262040246654635212e+00,2.685128054687959190e-02,-8.927486352532649772e-01
-1.641236521611548760e+00,1.602780507761125905e+00,-8.122720751318216470e-01
-2.296778954699134179e+00,-6.260368731516231522e-01,-5.843905357593724703e-02
1.298426061397109921e+00,-1.753578173539249274e+00,1.171941788796872830e+00
1.810206487414605103e+00,1.347162784946058789e+00,-9.292491903158200950e-01
-1.327953024195470233e+00,-1.416825377214279813e+00,1.392894062825533741e+00
1.612151007728854113e+00,-9.357116570891153007e-01,-1.537903312578005499e+00
1.238387724141622570e+00,1.586551086775664254e+00,-1.215464859579573620e+00
-1.466848806648359149e+00,-1.812542516739132692e+00,7.141799266320003614e-01
-9.408399009768512178e-01,-2.066140371526391295e+00,7.141900525710020986e-01
-6.519767517574800997e-02,2.390341841137273882e+00,-3.697871167761125344e-01
2.294957734927038029e+00,1.094367864577648897e-01,-8.786314243300510363e-01
-1.315398271612295833e+00,-6.813498114251732574e-01,-1.942076399274962784e+00
6.515787349349514423e-01,2.305802097765724756e+00,2.721166913219763006e-01
-3.880847169621656767e-01,2.243498336447010022e+00,-7.673534076498382817e-01
1.294395111391086317e+00,1.909682766524374520e+00,6.400849810126950645e-01
-2.032237079338572450e+00,1.338382009599541123e+00,-1.097208849302595268e-01
-4.658237871273421260e-01,-1.949626006304091996e+00,-1.445758968772824060e+00
7.608042246938063746e-01,1.624484202916643749e+00,-1.664577222761103759e+00
1.157439110236354374e+00,1.879351796718987222e+00,9.451725935467928386e-01
-1.608614194974312017e+00,-1.775627181947039723e+00,-3.316443523453355136e-02
-1.170220334824480846e+00,-2.062692158125582154e+00,-5.501221437864217689e-01
-1.211759652913971808e+00,-1.332700760764938375e+00,-1.646855166973373752e+00
-1.561673023722750964e+00,1.818519723937258581e+00,2.200243028756313501e-01
-2.237575898978046318e+00,1.229155070060764937e-01,8.325829866203505736e-01
-2.499375959150043278e-02,1.254197428755813748e+00,-2.060250589586384518e+00
-1.150974690031282721e+00,-9.679767272801995670e-01,-1.900795268057090537e+00
-9.590226735508262657e-01,-1.193799386170231847e+00,-1.871857405801731211e+00
-8.897634718140549070e-01,1.312197361475364810e+00,1.765488978119498231e+00
1.971968594244686734e+00,-3.791535967073250690e-01,1.373823056533480136e+00
-8.455469836342712764e-01,3.195511081229667205e-01,-2.187616423960953238e+00
2.092099554538184858e+00,-1.157565336885119756e+00,-1.015775294099739434e-01
2.814210324293338061e-01,5.717204605703670728e-01,-2.390320073446237537e+00
1.854449957841072694e+00,-3.001810194960607969e-01,-1.490718011139126720e+00
9.335751930972322477e-01,-1.038125285112153406e+00,-1.967652761887738189e+00
-2.247006758273186744e+00,-7.754788508507198808e-01,-3.682405489623045702e-01
-1.968879856119360117e+00,-6.598601629732581131e-01,-1.212418654962483133e+00
-1.156965751823541000e+00,-1.684471458062856364e+00,-1.239490207618128448e+00
6.212693737635079927e-01,7.430401928763519237e-01,-2.236522259285325553e+00
1.422717325663578336e-01,2.214762793736399615e+00,9.635782451787647807e-01
-1.536469708749754526e+00,1.213909681962632936e+00,-1.411609138798589624e+00
-1.955125216558464496e+00,1.350829821584243362e+00,-3.791425680695670875e-01
1.077243131982564828e+00,9.960426358840408501e-01,1.931425975595895794e+00
-1.161951850375561174e-01,-2.050029991933651541e+00,-1.287168404910839170e+00
6.012224644725374656e-01,-5.476884146114162633e-01,-2.329681323399702464e+00
-2.319498941128256941e+00,-3.192215028132625726e-02,-7.275360865385478437e-01
-1.164509850075834407e+00,1.119120240574586811e+00,-1.851219162705213916e+00
4.370953716571857744e-02,2.435469617808341702e+00,-5.148294337091552375e-02
-1.110629613860518589e-01,1.889285406834592118e+00,1.486618367423037546e+00
1.668810782026894923e+00,-1.633063616934799178e+00,-7.302714078724382718e-01
2.191894591203466636e+00,1.082368245192543432e-01,-9.986179579025044051e-01
5.613227623843298764e-01,1.781848055506920270e+00,-1.532156549226327380e+00
-1.136544274707034230e+00,-1.561231575027678620e+00,1.457856040323908697e+00
9.964610657150599904e-01,1.437100578177804566e+00,-1.652277560649452415e+00
-2.276954818956922200e+00,2.321789897737169539e-01,9.222316250059910958e-01
-1.567056762497426314e+00,-6.680446877074648349e-01,-1.691384126948544786e+00
-1.598918693053686058e+00,1.693867951481812462e+00,-6.675584142418244937e-01
1.218550345926427747e+00,-1.780922027237114458e+00,9.587540087676801326e-01
1.414715748496280678e+00,1.950845922483926742e+00,-1.665416791869298863e-01
1.055476254962196769e+00,2.126940946417925637e+00,5.113983122510563639e-01
2.144979099777672538e+00,-8.247877275012395204e-01,-7.123058889697136964e-01
-1.403403009419466940e+00,-4.442024571175068881e-01,1.880026443784318380e+00
-4.188453393238366629e-01,-1.353474279364437205e+00,1.987190072019663134e+00
1.557695562914590770e+00,7.319160824465741344e-01,-1.720371006241676382e+00
-9.354860441229864154e-01,-4.431441799910790236e-01,2.131476668535081220e+00
3.243729132259998149e-01,3.413946644302052330e-02,2.428540423356480904e+00
-8.094287048407360075e-02,2.117029963950094740e-01,-2.434186495672276074e+00
4.796628879678681012e-01,2.309995378295440549e+00,4.374567746114140232e-01
-1.931220216626855724e+00,-4.630772930489987504e-01,1.413742693612996648e+00
-2.108442405645555073e+00,1.346074387996634147e-01,-1.183180086440076551e+00
-3.724090555750547149e-01,1.096773990795236742e-01,-2.404436696402183937e+00
2.048471421268097448e+00,6.623223698375800828e-01,-1.140516265006681795e+00
6.982844011563037467e-01,2.168580352526526589e+00,8.633991109977042777e-01
1.593459113566058960e+00,2.177252668654790779e-01,1.848532810239080781e+00
-2.815702190193847265e-01,-1.816743238756706402e+00,-1.588779471153540346e+00
1.271885482382252075e+00,2.070452823191040626e+00,-8.679779407655371579e-03
1.848638759434335421e+00,1.219983562433966995e+00,-9.791236904450227874e-01
1.258173082120688235e+00,-1.546071553502816220e+00,1.404836175442297330e+00
-5.220398406553669046e-01,-1.986212273230577585e+00,1.226583287764787977e+00
7.233337070233352151e-01,-1.168052366405142983e+00,-2.021789111547011242e+00
-2.311696534334341191e+00,1.732271041400999245e-01,6.103023816099398813e-01
1.504845501109521200e+00,-1.835663318733973703e+00,4.638137914715826371e-01
-1.790959764168611468e+00,1.664195552041976223e+00,1.124191233416052954e-01
-2.128160616233485680e-01,-2.383092126512083020e+00,1.315266490617477725e-02
-1.405721711053309619e-01,-3.348238890819385527e-02,2.428489383244618605e+00
-6.186589767713882582e-01,8.561969231132329217e-01,-2.140567663259137277e+00
7.201503884415496604e-01,-2.143417857167227769e+00,7.826786948789756782e-01
-2.331718471315566088e+00,4.165990928262667259e-01,-4.929383134209995299e-01
9.186978552968014800e-01,-1.062714294841884399e+00,1.929608818775363277e+00
-7.192343437176343945e-01,-1.726072363205539473e+00,1.612694052769295228e+00
-1.529572526710551328e+00,-4.117963759468772772e-02,-1.826059005089961884e+00
-5.176870191400232413e-01,-2.290589431801145270e+00,-5.465561847084809965e-01
-7.074432840897786345e-01,-9.716106954949705887e-01,2.075597406038369286e+00
-1.927207283395470094e+00,-1.350921474074558759e+00,4.208909103698191267e-01
1.333640875336686182e+00,-1.163284859584721387e+00,1.641889280494852610e+00
-2.304011763665406720e-01,-1.455070944932735921e-01,-2.366586006545161158e+00
1.021638916069178560e+00,-7.121829050635287706e-01,2.067123029411395141e+00
-1.316273204465219893e+00,-1.509944996685853136e+00,-1.376800035833526170e+00
-9.407373071616199622e-01,-1.865460966446184976e+00,1.174940502285064525e+00
1.327810825046435328e+00,1.981263743758864493e+00,-3.842127680368891407e-01
1.799661848052302560e+00,-6.009025199058510847e-01,-1.447526980887448023e+00
-1.870959738274878159e+00,-2.001031443940845533e-01,-1.494596915077794907e+00
1.604699681328952243e+00,1.621799781320388600e+00,6.456268361371080289e-01
8.631613634276494862e-01,2.055496031018468006e+00,8.973196945917241152e-01
-2.191062622016894501e+00,9.502338383750205120e-01,2.285661544852933547e-01
5.449326562832909060e-01,1.287805511753472798e+00,-2.009645150207616027e+00
-1.300915325866012773e-01,2.330942738805880765e+00,-6.734605191651109601e-01
-1.444471323532880991e+00,-1.933124693707463537e+00,1.393479389435180738e-01
-1.548403796289451018e+00,-9.246300469829639157e-01,1.624230016449978331e+00
4.259685205482447445e-01,1.789433056309845727e+00,-1.579913036479677624e+00
-3.320029520585290883e-01,-4.213489605301705132e-01,2.392667251637272674e+00
2.000386087640696253e+00,4.638438516992546279e-01,1.268080651170097939e+00
2.342947327104266453e+00,2.679838138203576858e-01,4.587434813592342064e-01
4.000649715631910963e-01,2.215292598482742348e-01,2.410109699030194452e+00
-1.202417094600060299e+00,9.820415098888832794e-01,-1.871483058085057438e+00
-3.177037578215208269e-01,1.303953195873967186e+00,2.007106656874795281e+00
1.031286884476936505e+00,-1.971059961632366297e+00,9.513144806660144281e-01
1.870561270707376655e+00,-1.485388298183747846e+00,-3.401881803758832201e-01
-2.178730172705253487e+00,-1.001868132872508754e+00,-4.892021449513531683e-01
-9.304577148873459658e-01,-1.094809796394335816e-01,2.239396856323717877e+00
9.602308303626124752e-01,1.754468197265346197e+00,1.369745418674595205e+00
1.427172455331697121e+00,1.565624186723343580e+00,1.166234412302015633e+00
1.467664961695728243e+00,-1.478289916461279718e+00,-1.121791304431846381e+00
-9.380921569417660644e-01,2.079763019453903627e+00,-6.920385178052868014e-01
-4.274070852078251104e-01,9.880713588360409139e-01,-2.176101453598572988e+00
1.586195347881704576e+00,-6.650366171752762900e-01,-1.740630657320770602e+00
-1.925591367579428670e-01,-2.381161653222634289e+00,4.748756592896820616e-01
-1.306952865794054119e+00,-6.311441470023215761e-01,-1.902809095893764013e+00
1.387438477575204221e+00,-1.579635450119682316e+00,-1.268328177767833909e+00
-1.099102122539953097e+00,8.953057931706207562e-01,1.978089129296797255e+00
-1.023924255773052128e+00,1.048108976897116351e+00,-1.867503856543557994e+00
1.626686826739974556e+00,1.350941789907338375e+00,-1.121579842252044656e+00
5.976472523786334756e-01,-2.244424003534986056e+00,6.030351880776053664e-01
-1.587551552419736722e-01,-1.836531130622421459e+00,1.550676198432647590e+00
6.877772185205558442e-01,-1.726151209267976494e+00,1.568168209917166989e+00
1.728503327930195135e-02,-2.370812829298264202e+00,-4.816639878720865853e-01
9.087599480796700879e-01,2.227503728385178849e+00,-2.758508599489629121e-01
-1.890351262001083388e+00,-1.322492135946277791e+00,-5.184325263499760528e-01
2.165975486064061428e+00,1.116123858910926581e+00,1.307199000570006542e-01
-1.237368860432965789e+00,-1.102956419722517456e+00,-1.767500300993692042e+00
-2.389859740765417850e+00,3.143853052463715936e-01,-1.248910778604463562e-01
2.278963457561745010e+00,-8.458532797302288353e-01,1.126953643896650148e-01
-4.319075731941531271e-01,2.165376403999926147e+00,9.481979218251649355e-01
-6.126683805158311680e-01,2.092246761773183028e+00,1.039689436502578168e+00
2.265030503937576434e+00,-2.016508861688582621e-01,7.767489918963261797e-01
1.141382528063933366e+00,1.844158288008119317e+00,1.046851355617271384e+00
-5.274941240720695118e-02,1.002453402469991817e+00,-2.204193780416225046e+00
2.092777034706978068e+00,-1.235094577449208586e+00,6.153023764884267555e-03
-1.916169939694709390e+00,1.421421702387128505e+00,2.025007050766405026e-01
-7.866851881849092898e-01,2.148644692247690280e+00,7.403522109385263228e-01
9.580792174872173605e-01,1.296313071892899016e+00,-1.868666347499240432e+00
2.700490443327532297e-01,1.085590319348664234e+00,2.152550310933848632e+00
2.008429720731942592e+00,1.380215754963144414e+00,-1.132364087726279722e-01
-1.777338719226564834e+00,-1.106661806081651545e+00,-1.201719265992352126e+00
-1.193180317912266197e+00,-1.839515437623742589e+00,1.008748492052599754e+00
9.666889124062503225e-01,4.418923907642233750e-01,-2.177656194194614425e+00
2.510587854810753528e-01,-1.005931930220790527e+00,2.221069953339303016e+00
4.940851989952106393e-01,2.156018039488171834e+00,9.924774926736639191e-01
-2.070565850732304813e+00,-1.046232540983195181e+00,-7.027684216786003191e-01
-1.252562974116814498e+00,7.153137434421413809e-01,1.895276453640185377e+00
-1.440482797779742974e+00,-1.526805346804798458e-01,1.977185353427413306e+00
-2.109144978860510999e-02,3.191387613449439553e-01,2.390100429238385171e+00
6.512540140018536761e-01,1.696139167868343289e+00,-1.554703986543803262e+00
-6.372923221297364105e-01,2.094006973897204027e+00,-1.030509168477255377e+00
1.352141214040953610e-01,-1.193407636050339615e+00,2.111856100371545697e+00
8.545644310067279648e-02,-2.320659740498369317e+00,-5.278768283834334163e-01
1.788685776292015417e+00,1.337102504700798056e+00,9.460613692640548189e-01
-1.774959801780827240e+00,1.606765977552972346e+00,6.259549419909703899e-03
2.076239453119767653e+00,4.124823322500169587e-01,1.159166318342564672e+00
1.615476750513251403e-01,-2.095216938870457124e+00,1.207532291494900489e+00
-6.802650955898534857e-01,6.744710840417299513e-01,-2.189288280277765342e+00
1.595876309146450900e-01,-1.602773827802797646e+00,-1.785073979134230715e+00
1.128412461554011204e+00,-1.836194258224792097e+00,1.144889964037957730e+00
1.266357695882974976e+00,-1.875468731992780080e+00,8.086344631892908863e-01
-8.281091154512224550e-01,2.187349965181287104e+00,7.638516773157183470e-01
-6.115104021414285995e-01,-6.200182323296425935e-01,2.248052086020948082e+00
-6.135263272822624181e-01,2.169992412547010918e+00,7.949226943759811759e-01
-9.655496929712197307e-01,-1.114966558866328894e+00,-1.901247442749302241e+00
3.923085750076925060e-01,-4.875208342592670177e-03,2.380292415029599429e+00
-9.722642104021697040e-01,-1.425149926447204063e+00,-1.689466032221573322e+00
6.395262215302891518e-01,1.768917420661828999e+00,1.553321252576151279e+00
2.165371390249391848e+00,1.025702112842587610e+00,-2.309040739959587474e-01
1.578902282019750691e+00,-9.439939825013435870e-01,1.538993198474627233e+00
-2.254276416181882681e+00,-4.925086060671367005e-01,-6.930660550396747777e-01
-1.089896936980681297e-01,-2.190806738962400413e+00,9.981224064737395096e-01
1.674744026504599637e+00,-1.737425907611438225e+00,5.683874699704154210e-02
-1.113863893484339007e+00,-1.814535426043014876e+00,1.131005700138222991e+00
5.644323135235265188e-01,7.475526616267720303e-01,2.237230258976008024e+00
1.493487110802257378e-01,-6.509617056231655763e-01,-2.326189357723278395e+00
-1.883484955505980052e+00,-1.168124913180311891e-01,1.497752404647310076e+00
-8.318348454101143208e-01,7.655551236635541601e-01,-2.166183315072235605e+00
8.660237098324008453e-01,-1.132871654299816067e+00,1.981151254333902934e+00
-5.559993345783317276e-01,-1.787077471282102925e+00,-1.543984505641073923e+00
-1.664326974749485544e+00,-1.635731603796475531e+00,-5.538136716124623105e-01
1.605879280980025969e+00,-1.723333212795286951e+00,5.815698758530309931e-01
-2.223660153682117446e+00,4.937781712816070590e-01,-8.481507144876886395e-01
-1.546798057504928270e+00,1.002073933854590093e+00,-1.554014784677207439e+00
9.889141587906770114e-01,1.507375595390279654e+00,-1.579601615862604502e+00
-2.279634710212616877e+00,-6.879318206427539328e-01,-3.306682912789271622e-01
-5.274930042892942428e-01,1.088635857017329761e-01,-2.397548571317283717e+00
3.583592657828972849e-01,-8.293727813705120688e-01,2.272819498689489404e+00
-3.512382444610986365e-01,-5.195974422132121351e-01,2.356758147671818904e+00
-1.305542093831223882e+00,1.415676401878555035e+00,1.410223096212807947e+00
4.277057052102960499e-01,1.139575899346899845e+00,2.116976268677362771e+00
9.356580013613209346e-01,1.892824964695390078e+00,-1.259504734807236126e+00
1.746167182600782075e+00,1.321822673137594606e+00,-1.034864532994519415e+00
7.743427742348323317e-01,-8.464097400903768387e-01,-2.102480000997601461e+00
4.146683044099470222e-02,5.659653023749955381e-01,-2.356115898165220379e+00
-1.689359037845202360e+00,1.456239921950985394e+00,-1.007728821217446002e+00
4.761430975282042177e-01,-6.291126290741524407e-01,2.327123431659040786e+00
1.084984682688175800e-01,1.337839626240558077e+00,2.011197346232159955e+00
1.929124044928369308e+00,1.429972712403107193e+00,-2.183795329902994409e-01
2.392517590700388830e+00,-2.315889989211553368e-01,-9.704332482043281916e-02
-1.002678156766120265e+00,1.141806554218797141e-02,-2.241786757777977535e+00
2.282477478370690260e+00,-1.154842921091907698e-01,-8.394306043321956290e-01
1.236211661175669496e+00,1.933496524165695396e+00,-7.860494109350288916e-01
-9.794676016448922162e-01,-8.230953854745403087e-01,-2.063174000410066267e+00
2.045466670726062475e+00,1.171794286521170125e+00,6.448760478534226737e-01
2.862673491764705647e-01,2.909685995507041989e-01,2.387461989132528384e+00
1.895001233438700750e+00,-9.677094767069133185e-01,-1.118392182468376017e+00
8.054482231909226853e-01,-9.900922346104894245e-02,2.275374067095184749e+00
-2.145876669383183444e+00,-8.976913759357663114e-03,1.112377642937851130e+00
-1.804670749366078242e-01,2.027022404340053541e+00,-1.342606293578396448e+00
2.011714829672774041e+00,-1.059298467439736824e-01,1.297748763518075998e+00
-1.711972116066694971e+00,9.141675905767412402e-01,-1.440575604841750179e+00
1.857581823855051661e+00,-8.597919147610136870e-01,1.254659298450633509e+00
-2.332760997281045245e+00,5.187560129557176186e-02,-6.090206860487916707e-01
1.194913316433095923e-01,-2.421122818054991743e+00,-2.692931346002441773e-01
2.264094703334099012e+00,-3.944047974889572372e-01,-7.639668817081439744e-01
-1.665404927569630322e+00,-1.867611496576336849e-01,1.740805899957698299e+00
1.917546298464377852e+00,3.461636644500193372e-01,1.406860645314640168e+00
1.922371984967951253e+00,1.464407277925237283e+00,7.056948375852326039e-02
6.258273159226535043e-01,-1.021300987109778680e+00,-2.072315523972536155e+00
3.515597619691316900e-01,2.147529403773669188e+00,1.082753041892349222e+00
2.262220911444360993e+00,-6.790983248272134398e-01,6.679043363026774260e-01
-2.081676867753056381e+00,-4.402256550025098192e-01,1.167958085602345264e+00
-2.124884962008131151e+00,1.054957198417810327e+00,2.161245559307425346e-01
1.856297200228314459e+00,1.147534145189405663e+00,9.582044304266329471e-01
5.803792936834022420e-01,1.755978335580488769e+00,-1.490399662430605954e+00
1.290035374381466537e+00,-2.023125552028128826e+00,-1.169678051116921774e-01
2.185699539372262468e+00,-1.681142902857795107e-01,1.115041393728262831e+00
2.352558884290640862e+00,-6.331391135020932870e-01,-9.111050025727293611e-02
-1.028069813789678211e+00,-1.594032530421691796e-01,2.204342467441914533e+00
4.742423249851244194e-01,-9.707532727792492766e-01,2.155654636189554108e+00
1.730375592822214870e+00,-2.543390706047171657e-01,1.670184228605417376e+00
-2.405682323106232090e+00,1.964112201505553157e-01,5.409548677448976495e-01
1.246126350458493626e+00,4.869292950609661053e-01,2.047685801419068863e+00
1.215253528358720692e+00,-1.767784634848841852e-01,-2.089147112616248858e+00
-1.767007569599443384e+00,-1.603887750066807394e+00,5.235765713238561547e-01
2.003536574414195748e+00,-1.025029593921562565e+00,9.418352225459065696e-01
2.037851833094604381e-01,-2.390949554780678721e+00,2.383747710397235153e-01
-8.616011678744187607e-01,1.204689774582646394e-01,-2.227603667652568564e+00
-1.456153509279044300e+00,-1.398418902650659490e+00,-1.399840229041097173e+00
-8.751761678739587713e-02,-2.396150426355045937e+00,2.354450402902515393e-01
-2.337936732892724190e-01,1.784064413285859629e+00,1.621038175443165308e+00
1.710016089176088050e+00,1.558927564249053210e+00,7.671056067329374839e-01
-5.584686025223878358e-01,-1.714124361182300271e+00,-1.568300445030265111e+00
-1.411617077253076280e+00,-1.195384215885136658e+00,-1.591255329385151684e+00
