1.648435165703973970e+00,9.605054079653779553e+00,-5.313716738505291914e-01
-5.089001029417680400e+00,-6.337170649750650142e+00,5.241697790599148199e+00
7.117712426372380108e+00,-6.389950782396570439e+00,7.077320853512801824e-01
-6.572597728238052994e+00,-4.517773930565492646e-02,-7.116036425837140911e+00
2.634223684550490052e+00,5.802557449542059764e+00,7.200988008518713457e+00
-3.375065466999627173e+00,8.556943025819395032e+00,-3.576903811748843864e+00
2.826602436044332922e+00,-5.666676010522123441e+00,-7.323024505000979900e+00
3.166919705147273612e-01,9.383099577181624795e+00,2.592308732261757953e+00
-9.078440710333325114e+00,-7.818233930967609657e-01,3.296791403461809988e+00
-5.635456345807874357e+00,7.823217802638986029e+00,1.029287570053358358e+00
2.919177271721940858e+00,-8.498235591974175662e+00,3.272424718198340354e+00
-1.750642143782274118e+00,3.056274601245153821e+00,-9.063067477638218961e+00
8.191592051017295706e-01,5.777428710307549231e+00,7.704537850654689102e+00
2.343579324963113386e+00,-9.187367249893348742e+00,2.221778983127098428e+00
-4.941083991060859049e+00,6.698379626275884569e+00,-4.881506678182631731e+00
5.696448961529835403e-02,-9.017640157012559499e+00,3.515289485981699436e+00
1.362999447488239424e+00,-5.947037160270544298e+00,7.398238380975266537e+00
6.159028277283211672e+00,-5.092556854106870645e+00,-5.611184005681553622e+00
1.651558305290784290e+00,-7.249563348728367274e-01,9.720408256450285833e+00
1.376531978809001799e+00,-9.440136547196408046e+00,1.214718552808152330e+00
1.647533499885278196e+00,7.258886178524405430e+00,-6.397191885079850593e+00
6.585848813424582282e+00,-6.448106426221379195e+00,3.203806157086430684e+00
-7.971229706900225809e-01,7.462478385179001528e+00,-6.153347883395993811e+00
1.178031654551145335e+00,6.469579387101727974e+00,7.157374212067088237e+00
-8.769981012137837428e-01,2.489280352207300151e+00,9.421684190832420924e+00
-6.420820828376265332e+00,5.914360996780312796e+00,4.470137704924521671e+00
1.901160018406810925e+00,9.340212415540975144e+00,-1.326589177804366360e+00
-8.658640923743940121e+00,4.851041681924677107e+00,1.430102204594525750e+00
9.484502160431220741e-01,-6.037660700614392084e+00,7.550555479873896303e+00
5.412250062360805636e+00,5.997726651747130155e+00,5.361532975950516366e+00
8.238464481480439972e+00,7.506301865033784271e-01,-5.297035826941900893e+00
-6.349057348348180696e+00,-7.310013393147451133e+00,4.098252841936848856e-02
-9.393326406822772867e+00,-2.289630571765477463e+00,1.874315063601039444e-01
-4.135028286808443809e+00,8.249227802049068359e+00,-2.732477653326325306e+00
-9.354154639051328601e-01,9.820347062159386908e+00,1.091181403730409269e-02
-1.897181494171143110e-02,9.303201081705624986e+00,2.962200937436949122e+00
-3.486023231798860422e+00,2.351909759940591371e+00,8.622176575851844049e+00
-4.448638461406907219e+00,-1.205463079016837691e+00,-8.587340957922553031e+00
7.347560717534470598e+00,-6.197765753957611423e+00,-8.471931673347928848e-01
-4.276976012148204553e+00,-4.322389451111026126e+00,7.502119724837363002e+00
-8.761448272198469667e+00,-2.628038046692227514e+00,3.475687176885339458e+00
9.861835160299967096e-02,-6.958514449054696627e+00,6.682271878008919863e+00
-9.244389863139357288e+00,-2.332637485184144044e+00,1.187543796524575201e+00
1.453564357159666143e+00,2.559309617626229993e+00,-9.294006397150914367e+00
-9.349296550444702092e+00,2.904747713877092075e+00,3.578995789017865303e-01
-8.217529683377666316e+00,3.617900243023932649e+00,3.424947668855463867e+00
2.264815558549108321e+00,-1.622794016931458361e-01,-9.358187343734616803e+00
-7.999076570542493769e+00,5.372787625118450094e+00,-7.033016659537012494e-01
6.575953457024288795e+00,5.337416193735069481e-01,6.798515724718557252e+00
4.613312824914770793e+00,-8.259058782331768711e+00,-2.691876896200209757e+00
-3.610117042130910558e+00,4.670238847607676713e-01,9.001033792037230086e+00
5.842945991655094318e+00,-6.809949120785510956e+00,3.467096932512258256e+00
-2.467531298437868337e+00,-7.114157712194411509e+00,-6.280979912196968051e+00
-3.139285765004636186e+00,4.263201634346533986e+00,7.936752114450386308e+00
-5.356799497177737734e+00,5.507996810145758815e+00,5.778354631227301752e+00
8.761695077819108946e+00,2.924393363599495199e+00,-2.529550389358345530e+00
3.555699105969920115e+00,8.789675806189086060e+00,-1.995885133548524593e+00
7.887426003722156631e-01,-7.354465713479990008e+00,5.924705642308673248e+00
-3.558495783246405364e-01,7.883954410854555839e+00,5.429390157590123778e+00
3.629383519700319471e+00,5.771858940793695325e+00,-6.876959666395441317e+00
-9.639082315417384805e+00,4.705854697535547526e-01,9.193002715474134501e-01
3.923012301918446632e+00,-8.673641725036940642e+00,-8.696581627641771783e-01
-1.915454369425097614e+00,-9.146360728030234810e+00,-2.890828184772186837e+00
7.979157175875611907e-01,7.905570951688158488e+00,-5.026927231812773122e+00
5.595675310750969800e+00,1.610031283525661161e+00,7.557804631352701641e+00
6.335822960765741030e+00,-6.500730227456818611e+00,-3.517932607436101922e+00
9.011571449576139869e+00,2.530712965788051161e+00,-2.106118816488219192e+00
5.593152859599194171e-01,-7.927830786606108404e+00,5.321643403262100946e+00
8.700540943039349884e+00,4.387183874573649334e+00,-5.907287510483874016e-01
5.539318430236791713e+00,6.217656536560494551e+00,4.778060865435580062e+00
-4.662780887175651756e+00,6.654201358273709843e+00,5.230473256236172652e+00
-4.998306728475090388e+00,1.733523619849667075e+00,8.383094248125747328e+00
-6.819355165258215834e+00,6.477109256004378146e+00,1.866261330178863753e+00
8.284599332479524847e+00,-3.704752762291553925e+00,3.949747467791453914e+00
2.768730429863641707e+00,-9.212366189961768370e+00,1.351211338005848139e+00
-7.300538255111292951e-01,-6.071479999331598876e+00,7.544280929375528189e+00
8.824029613117957638e+00,-3.754409372213635354e+00,-6.489518155361639895e-01
3.176279309563860842e+00,-2.718265842920420283e+00,8.515895606401043594e+00
1.929045987555167097e+00,-8.884515578578936257e+00,3.486926145955627110e+00
6.462017935615834041e+00,1.250457338167193067e+00,7.137152300259450577e+00
8.495301340790151201e+00,-3.569430292566397322e-01,-4.585202051280949043e+00
-6.641897105798602041e+00,3.466951752054372893e+00,-6.267437749781504586e+00
-8.703764957072671393e+00,2.735358118597199795e+00,3.153583635822546860e+00
-3.700620587868716171e+00,-4.130126020503520068e-01,8.973355797430594194e+00
6.595744728353583497e+00,9.603836702949077875e-01,7.204424110085717814e+00
5.432541395039883980e+00,-1.011829960607690815e+00,8.132755612606958451e+00
-7.822609638487277195e+00,-5.509943393151274904e+00,1.166065533146339428e+00
3.324751270663580449e+00,8.916413667904047102e+00,-1.522407180945463345e+00
8.566773039528957634e-01,7.187883220571410270e+00,6.096270941682468525e+00
5.993819496099185296e-01,-6.839138604586323389e+00,6.502423379592132235e+00
-6.136587809991248754e+00,-6.751557294305296608e+00,-3.438953432908866681e+00
9.011355764216357755e+00,-3.277024052122480935e+00,-1.576644536723013745e+00
-9.309584361370701444e+00,2.804979375287613763e+00,-4.612471436937539693e-01
2.711189492331511186e+00,5.617137736325562791e+00,7.348580746152299170e+00
-2.312984615578339564e+00,-2.651559018112141342e+00,-9.030584787830340687e+00
-2.456838738842631820e+00,-7.522514134354689297e+00,5.474937568045621816e+00
-2.913050439582456352e+00,8.523492785402673633e+00,-3.624466586297117932e+00
-8.490356543681071955e+00,-4.472812679996589047e+00,-5.129533107243520185e-01
8.235150150771901600e-01,-3.364675681089025705e+00,8.992528094643656544e+00
-2.098756986542370306e+00,3.055891951805456586e+00,9.096310394174762948e+00
-4.755483203973841277e+00,-8.344295832820469272e+00,1.805086877896223685e+00
5.637206663703083542e+00,-4.419225738384311875e+00,-6.466093252396949431e+00
1.721601223701954564e-01,2.484792722831012934e+00,-9.305139967864970885e+00
2.625595128776155196e+00,2.720052588410744043e+00,-8.860433838743968948e+00
7.316343313642145851e+00,-2.222319160108073177e+00,-5.939041111526159433e+00
6.951739655375048343e+00,-4.186002246504584079e+00,-5.196085593511305945e+00
-5.862459689321189771e+00,-5.436265921314720195e+00,5.488172263297827591e+00
-1.001056664874453217e+00,-3.423329757904862714e+00,-8.857834929765010301e+00
7.971669350347734273e+00,-2.454963288377501662e+00,4.738208097350616654e+00
-2.923748075242984523e+00,8.000436094130082054e+00,4.289258446570083372e+00
-6.900270577176738307e+00,-6.425880290318991328e+00,2.379995715036637538e+00
-5.057126963971980693e+00,-4.588295987977121904e+00,6.833477317585297861e+00
4.161197984550130791e+00,-8.674845485525272792e+00,-1.211109809865024589e+00
-8.274481481926262205e+00,4.839898775626249261e+00,-9.221940266110819628e-01
8.504276643900491095e+00,4.680694232221720874e+00,-3.082098454106693142e-01
7.418233184738458164e+00,-5.850846214360980291e+00,-1.366850253006905769e+00
-7.274271281783206256e+00,-6.342789235778442780e+00,-1.162225507223989318e+00
4.615580614078552024e+00,5.370170934886445480e+00,6.687384608321578661e+00
6.221895285678161081e+00,6.504071725866056752e+00,-3.613222436028247664e+00
3.453788053841221561e+00,-6.588593726984236731e+00,-6.301147747450630554e+00
2.162115425895029475e+00,9.172146909729052666e+00,-1.513130300932023387e+00
-3.734410396569728174e+00,-8.341395859657916745e+00,-3.587725402282772702e+00
-9.293743849715925265e+00,-2.079521371648426431e+00,2.002879241784315312e+00
3.484199933255460291e+00,4.646725869544717114e+00,7.499451554020664545e+00
-7.054173562553852861e+00,5.013983175993381280e+00,4.041405969705144763e+00
-5.100325332281279600e+00,5.913706307658252115e+00,-5.771559283358815406e+00
8.057630754203938039e+00,-4.534103092690494385e+00,-2.421771061426578164e+00
2.305427653188079518e+00,7.226841886483508226e+00,-5.924466033618967842e+00
-6.081761403270965261e+00,7.416481507570307663e+00,-4.096188185100370360e-02
2.321486252867131839e+00,-7.888744764804147103e+00,-4.958491119709257156e+00
5.613387499880236220e+00,-6.684027669419394080e+00,-4.193459104076371347e+00
-4.771229341633597687e-01,4.751152033558208920e+00,8.559409550517150578e+00
1.972844874996153575e+00,-8.971962481982728832e+00,3.406408447722147237e+00
-7.900395973388750548e+00,-3.384137725539820174e+00,-4.703073732831109410e+00
-4.168327273887889817e+00,-2.862663184781802261e+00,-8.291289530389867934e+00
9.076064027677823276e+00,9.003001252383552311e-01,3.432578569219861375e+00
6.229294868320344847e+00,-6.722916271405559918e+00,-3.041624674359446612e+00
8.296643222374264326e+00,-4.454240500511465584e+00,-2.311070407593723175e+00
1.612916740375013758e+00,8.870233186573234008e+00,-3.710204200044959766e+00
8.014932893261315527e+00,4.033983719962312975e+00,-3.744887659775229416e+00
1.945063484097555584e+00,9.411013032888799756e+00,-1.424253086209137598e+00
2.840274517528952991e+00,3.787075910517933686e+00,8.339043049460617141e+00
5.614629278365987020e+00,-2.944941696460123381e+00,-7.566552543565995492e+00
4.969032307509381852e+00,-7.094565757983026799e+00,4.726960516443414306e+00
-6.441301186326081840e+00,3.473627975791666156e+00,6.269939222961322223e+00
-4.637700648015940175e+00,6.672416103010331057e+00,5.357376811081961954e+00
9.378477079033908481e+00,2.770614977771527876e+00,6.964053727490578938e-01
-8.913275743521946737e+00,-1.344625367688321083e+00,3.202598323504044053e+00
3.307402335772627655e+00,6.132713982397855368e+00,-6.829868861523944901e+00
3.116508394067929455e+00,-1.292733050125948469e-01,9.017998484695251449e+00
-2.335878737084739143e+00,5.849313590881756397e+00,-7.144832919059258103e+00
-1.038429614913126242e+00,-2.731460284063381039e+00,9.424842441145580452e+00
-5.273857518324509996e+00,8.121955513918424074e+00,-6.589746881883976615e-01
1.780602853825882903e+00,9.185205091369645913e+00,2.296654029482643189e+00
-9.012050866275281180e+00,3.576868754608368839e+00,-3.896451162855005812e-01
-6.363690587595481674e+00,-7.174075349324342987e+00,-1.368760192323552394e+00
1.835444471717433190e+00,-6.334757761946198329e+00,-7.296253369743618045e+00
-6.461304754462928734e+00,6.078335680119971940e+00,3.721729204252306022e+00
4.006728462473817309e+00,2.100840232399354135e-01,8.756785897257934437e+00
-1.973800832552909057e+00,-8.716133591209466402e+00,-3.837349657388767987e+00
5.683147527619784867e-02,-1.191070560358294950e+00,-9.744589095932512990e+00
-7.540215374814300375e+00,-4.313837852089073444e+00,-4.407204614357173256e+00
8.446995633002250869e+00,-4.790775186423497978e+00,-6.642830844697711346e-01
8.751715775793309504e+00,3.817634814616238881e+00,2.112970943660848366e+00
-5.278173251998697912e-01,9.799400685653253618e+00,-5.012640184367602725e-01
-7.143786476657689732e+00,6.124868023783989202e+00,1.901918193748594055e+00
-5.738030082106147844e+00,3.549836771987482820e+00,-6.888321639378859551e+00
8.132117960945882018e+00,2.438693498605392751e+00,-4.486078102259668299e+00
-8.039366352053392006e+00,-1.736783005694841231e+00,5.092295858123890184e+00
3.803779862548215984e+00,3.384685571610543064e+00,8.326865564709002854e+00
-5.284201018561568652e+00,7.856778391267938311e+00,1.858505531069066796e+00
-2.449116421963291490e+00,6.587614177262397952e+00,6.570167084048313733e+00
-6.634887990539240832e+00,6.686178484816483802e+00,1.405452014420909945e+00
-8.060347099814784144e+00,2.094197438687109170e+00,-4.930763501520016412e+00
1.347319326347387936e+00,9.270975227852312983e+00,-2.670483692184415947e+00
-3.588580578402240207e+00,-8.635007714775289500e+00,-1.940582011294987641e+00
4.425628625539174799e+00,1.747493252528682373e+00,8.408472161792815314e+00
-9.198322545664927574e+00,3.330464675489182902e+00,-8.161921912594030104e-01
-3.196732109357930174e+00,-7.253454044185934091e-01,-9.253777030344812360e+00
-9.131797633890746724e+00,-2.842753796890958640e+00,2.561046349741209927e+00
4.370747161193228258e+00,8.670935578683554468e+00,1.927022234723980043e+00
-8.967648003421400560e+00,1.085582930532088985e+00,3.101946194073932794e+00
5.180202993273652190e+00,1.158446581828258992e+00,8.111540405143882637e+00
8.354416153528607225e+00,4.892582495143930288e+00,-4.732718596729501570e-01
-6.756356283817055441e-01,-7.212292677353189241e+00,6.620901105155570399e+00
-8.386337304435513840e-01,-6.010429522651226097e-01,-9.572602690321987851e+00
1.639651245436973381e+00,3.283407278133084972e+00,-8.827595722545911627e+00
-7.518011699554281613e+00,1.564813712509051546e+00,5.975025289252871907e+00
2.746690687803535980e+00,-2.520359937276142936e+00,8.989761407254350800e+00
-8.205856610968849552e+00,-4.822123269354472441e+00,-1.552288832933002238e+00
-6.773311678322434304e+00,-6.767323357647356374e+00,-6.629551956569369742e-02
-9.090304809893902771e+00,-3.602999607232009627e+00,1.041826336461688651e-01
-3.884242307242869341e+00,-8.281271418913192406e+00,3.151505697428811814e+00
7.354810191837701794e+00,5.203273447910072846e+00,4.006179872810533560e+00
5.736850982487227135e+00,-7.882941491573263626e+00,1.230339846140391241e-01
-3.330937435374921485e+00,9.075734346343708125e+00,4.511191459344430221e-01
4.422031384172942836e+00,-8.208053010323556720e+00,2.184725509634647622e+00
-8.476580074341347526e+00,-7.259520129341060501e-01,-4.506793480286162890e+00
-7.198187465718847378e+00,-6.527273192998199747e+00,-3.630986438099129132e-02
-7.472909680674062471e-01,-3.768736982941141012e-01,9.721337264319537042e+00
-5.462310248131386992e+00,-7.090299543522727177e+00,3.784533860645384884e+00
7.900837809150935698e+00,-1.862303392804771418e+00,-5.527326168026083231e+00
-1.662641946793965930e+00,-1.932491454439659861e+00,-9.173917268071843267e+00
2.738829531705511133e+00,-5.549991475194573809e+00,-7.398057039997307349e+00
3.723470224884687374e-01,3.804160000315442325e+00,8.850570749842905371e+00
-5.627416513611140481e+00,-2.379107544725831414e+00,-7.695774139634425026e+00
-2.043125875319235618e+00,7.388646736843669238e+00,-5.904332227961059942e+00
5.048139446796087171e+00,-8.371560125134143604e+00,9.114965656773850178e-01
-1.082625427650993011e+00,-9.019274191133295204e+00,3.236100324074396628e+00
-2.346872922750243173e+00,9.212886710976984972e+00,-1.638305975618638888e+00
1.664709485222341634e+00,-3.426353563392638968e+00,8.828043608551363164e+00
-8.993967428964957378e+00,-2.160293757971042616e+00,-3.429452765092808164e+00
5.262375640052050940e+00,-5.682639579604256141e+00,-5.537117503319684886e+00
-5.952581268058565023e+00,-2.996703446131962600e+00,6.936430043388381428e+00
6.929285469179590429e+00,-6.071732982081233132e+00,2.169727103642365318e+00
-6.284774805199773162e+00,6.933401076228324911e+00,2.276800479748966044e+00
3.660575189732955259e+00,-1.921950691301180569e+00,-8.716269832047379040e+00
-2.617265958004971083e+00,-8.018781486759303689e+00,4.789135831515392461e+00
5.066050505039476626e+00,6.817583245214725807e+00,-4.508593689934776272e+00
-3.839118484697530143e+00,-4.844124548438727196e+00,7.426820836700887440e+00
2.541632183755616392e+00,-3.421630416631360028e+00,-8.669171877057143760e+00
3.361343908540736169e+00,3.636782092611639872e+00,-8.650420820162995739e+00
9.031408712651407100e+00,-3.370933653849105927e+00,-5.712999116746423356e-01
9.774093723012382551e-01,9.215487104901191273e+00,2.383188475264660156e+00
6.103057176986474985e+00,-7.308938287933680833e+00,1.966022286541852404e+00
-6.235000001727254215e+00,-3.832374920408807562e-01,-7.404712817581529549e+00
7.376781055804083387e+00,6.109908910909772395e+00,1.868726548335260640e+00
6.346986301340330705e+00,-6.729189332081311647e+00,2.816850226982236638e+00
1.623263536454548017e+00,8.383594444420422676e+00,-4.906245588773134436e+00
-2.709179873434370833e+00,3.924589938732228056e+00,-8.483385865672222081e+00
-6.544696480222190971e+00,-6.825914462886817802e+00,2.048514058717460617e+00
5.979473198432803116e-01,9.462272613952141143e+00,-1.468841295919191214e+00
5.665895531833152532e+00,-4.009770365364978773e+00,-6.733665887979259246e+00
1.018625369941778436e+00,8.795907610993067394e+00,-3.897861106286257815e+00
8.781044790037066505e+00,3.670571404036428120e+00,-1.619772389915678401e+00
6.240816232769314631e+00,7.459694505038916290e-01,-7.186743785695422382e+00
6.252803598544935670e-02,8.234706100702029019e+00,4.839816548942494023e+00
6.978416333665070859e+00,-2.838905417511750962e+00,-6.148476740377695648e+00
-2.391527551580356903e+00,1.489427588127568480e+00,9.239106593362690134e+00
3.255568064984035281e+00,6.713478880922030712e+00,-6.080466960888254668e+00
4.372189204587116684e+00,1.649006393600551013e+00,-8.440811339020068971e+00
1.514867459594285926e+00,-5.508960994068407224e+00,-8.020727803460324878e+00
2.673127928293464795e+00,-7.709448057976064028e+00,5.310895544628266407e+00
1.288419759058964775e+00,-2.429208861868993541e+00,9.346162757487672224e+00
5.460299892915343456e+00,-7.522009970322005579e+00,2.116763436361330797e+00
7.011343142089651037e-01,1.940546572630295286e+00,-9.698081358479194947e+00
-7.470164582509869255e+00,5.803353359247512167e+00,2.440498902419822258e+00
7.773435863077113872e+00,-3.736661033477751470e+00,-4.139557009648994423e+00
-8.735220736763064764e+00,-1.025382347828947216e+00,-4.028940318587904912e+00
-7.005569574018179146e+00,4.244247337610571158e+00,4.637025508826044806e+00
5.988524598670616150e+00,-6.378334820231366109e+00,-4.331450388978899113e+00
4.727771306186268063e+00,-5.561886994034870746e+00,-6.122749368205454346e+00
-1.209624714619009778e+00,4.355887521678338814e+00,8.566865839225553003e+00
-8.389779719532825197e+00,4.438115091681231306e+00,-2.623956538390613158e+00
-2.907784811252787094e+00,-8.965106720949000518e+00,2.604954317701342781e+00
-9.103534520027298793e-01,7.372146093262145428e+00,6.165987613550997892e+00
-1.673690788520647343e+00,2.363913738255230435e+00,9.171948981645330790e+00
-1.275551077439069481e+00,8.939194770541671886e+00,3.213403744327643086e+00
4.493485402434337139e+00,-2.587221003925149088e+00,8.258456593339090546e+00
-3.298228852976710979e+00,-8.521726680362402107e+00,-3.793811113518398948e+00
-7.271489353418364665e+00,2.149580057305079173e+00,6.203077027563354662e+00
2.941333014107048310e-02,9.143579557879270681e+00,2.963768842763698785e+00
3.957521365183048534e+00,-8.211752694940049224e+00,-2.986663402646256404e+00
1.271177793995867500e+00,-8.766774168959232227e+00,-4.063266822789191934e+00
-2.169820780057645671e+00,-9.525442530143710229e+00,-1.353936934053333041e-01
4.355358224096718800e+00,3.891244217487945800e-01,8.587101902782460883e+00
8.084890087581161566e+00,-3.868680922605796990e+00,3.355219710170747938e+00
-6.583729051651885378e+00,-1.545478238307836483e+00,6.892739190770899249e+00
-3.153954403018588426e+00,-9.083565524607818631e+00,1.300130839319298959e+00
-3.511320767157138700e+00,-9.020842386147741365e+00,1.645576181458011655e-01
7.667629065355041185e+00,4.220853028905808380e+00,3.691395469481213887e+00
-4.101376960392353332e-01,7.163718568531655784e+00,-6.586655983492775590e+00
-4.913406080047133528e+00,-6.026410063896451952e+00,5.415755782946168218e+00
-5.325019575315328879e+00,2.707726767010714131e+00,-7.489730080090091668e+00
-8.322952757115398725e+00,-2.935279856300181400e+00,4.493001879973254731e+00
-9.227232987158611621e+00,1.113332444990197345e+00,-2.406201424567298908e+00
-8.438626902796405815e+00,-3.917115667162829773e+00,-2.594645853030395521e+00
4.367347557199472874e+00,-8.362373447962484718e+00,1.929720942884326051e+00
9.995620741477618809e-01,-9.121855032132128116e+00,2.907410543270783077e+00
-9.810604581149720005e-01,-9.318993129768513128e+00,-1.933979436072067903e+00
-8.676331627374086253e+00,-1.348268422806295996e+00,4.254412448268399594e+00
2.533616153098818380e+00,7.265054577854290763e+00,5.883419608504380172e+00
-8.385406543593845186e-01,-4.253560920798933331e+00,8.636385012358259061e+00
3.449020770328683483e+00,-2.914253059385353506e+00,8.509894478073304569e+00
3.428562722318130973e+00,9.015842004534306398e+00,-1.113618629062621324e+00
-3.638146751127656842e+00,-7.500603327895624339e+00,-4.962322152770883399e+00
-8.818527722148470360e+00,-4.449980551226187409e+00,1.066701235756398608e-01
3.342540192587931447e+00,-7.648741132398838793e+00,5.004456490198294638e+00
-3.133028167666538799e+00,-4.397243093698584460e+00,8.220341147453433805e+00
-4.677488615908030334e-01,5.398547599827875132e+00,8.109789552699830040e+00
4.838206351495959900e+00,6.961607301009437698e+00,4.576782677472388983e+00
-6.251809134788430811e+00,-7.520753154937871443e-01,-7.501141428991942028e+00
-8.519659126047081088e+00,3.917657950120245314e+00,-2.287458497646851718e+00
-6.377793144099022982e+00,2.248939761296538720e+00,6.915142007813765979e+00
7.525183665142997746e+00,-3.420745962620545200e+00,-5.049251573479820898e+00
-7.791282110764175428e+00,2.377481048714110035e+00,5.138647367358980311e+00
8.456644272685370112e+00,-3.544799136860692368e+00,3.674402252764143562e+00
-1.499688005126749601e+00,-9.076935416651808808e+00,2.777404800374133398e+00
1.637504082316382004e+00,-1.817827680151407499e+00,9.386630839274470617e+00
2.209119551889668354e-01,1.230428646813815696e+00,-9.369877091105742295e+00
-4.133615143838340167e+00,7.679168699959058486e+00,4.177904371345671386e+00
-1.119849736115377414e+00,8.528446870823870540e+00,4.533891701374894723e+00
-7.420358399716814546e+00,2.321162385280131968e+00,-5.684953931624799672e+00
9.425244967721642553e+00,-7.752916201305022348e-01,-1.390636509941959753e+00
7.440981863055587731e+00,1.232968812144549613e-02,-6.331410313935233347e+00
-9.317452138021833363e+00,2.146012737461236330e+00,1.866186125833049880e+00
9.083828103108432472e+00,9.720397940608459519e-01,-2.553568718928429071e+00
6.919391165368244501e+00,5.941865564171873615e+00,-3.611055694631687185e+00
-7.550290976253056563e+00,-4.771818798155714525e+00,4.000583485377890547e+00
3.317283322192150774e-02,7.272696114071392159e+00,6.275120429573659564e+00
9.231778310088296635e+00,-3.162734474377645988e+00,9.849113953637568530e-02
1.367879675872182066e+00,-7.668604284879770638e+00,5.769849451925317396e+00
-6.737505461712154364e+00,-5.699579975303159962e+00,4.145824140143274938e+00
-8.665898077338363592e+00,4.475237625845483791e+00,1.697287383281155743e-03
8.647566129699717496e-01,8.412195279070123988e+00,4.859483184478665230e+00
1.970998818675763653e+00,8.474025016608823790e+00,-4.529887226082400353e+00
-4.212061174535360664e+00,-8.040465864193469869e+00,-3.496878987610287925e+00
-3.294063409502042461e+00,7.895895739042428474e+00,4.629304633645835665e+00
-7.711846545722586654e+00,5.519501993050300648e+00,2.011817482330370943e+00
1.521947269426221938e+00,2.775487404994564145e+00,-9.235024120104826650e+00
5.328280804566785989e+00,-3.229601332776080636e+00,-7.271951985337254953e+00
-8.087840694478895642e+00,-4.867174937625148523e+00,-2.579943090714818865e+00
7.555465794661945012e+00,-4.410634103057457622e+00,3.943805603712374541e+00
-2.043857856458588973e+00,8.367159504139315418e-01,-9.426791622641058410e+00
4.584718951389596953e+00,-7.752680908663761583e-01,8.623855090766321396e+00
7.537198935563476088e-01,-5.804721839093077485e+00,-7.581536093202925208e+00
8.057345634720878280e+00,4.574316406036985860e+00,-3.000674506490798255e+00
-5.360280183269097165e+00,-4.147202762954981914e+00,6.736615766921719484e+00
9.053067924954892876e-01,-1.241007142273782282e+00,-9.454974138635916958e+00
4.080900074251005094e+00,-6.203420199743409746e+00,6.218646474516959621e+00
3.976198825122694291e+00,4.040191353185144330e+00,-7.691762111231970067e+00
7.013706929760647135e+00,-2.372722236224063863e+00,-6.549459609543249350e+00
-2.069595407367960771e+00,-7.869521795939112607e+00,4.974707106543113433e+00
-2.885888761559443072e-01,-7.554707295392968369e+00,-6.000909657265156127e+00
8.393764900908058380e+00,2.842414847771315700e-01,-4.653545432634757617e+00
6.141088161271563983e+00,-7.168250765322111917e+00,-1.585044324724793841e+00
2.059832738958238707e+00,4.310059609056257734e+00,-8.400854175258809065e+00
-6.942516909501060596e+00,-5.814244615797519167e+00,2.990588355165268997e+00
4.133670592057057114e+00,5.369709931596688968e+00,-6.885771736826697520e+00
-1.043210351315877471e+00,-9.633615199716615507e+00,-8.879520406931179499e-01
6.174436478159670116e+00,-4.165668688268479691e+00,-6.049781443171091233e+00
-4.615642383919237979e+00,7.069222337111160215e+00,4.717167517947276956e+00
-8.932184073865604645e+00,3.934678181096903926e-01,-3.366427105566607736e+00
-1.724278942144512605e-01,-8.430710602340496962e+00,4.629624074140246570e+00
-1.990488430683127863e+00,9.126217264231776483e+00,1.688380862596283283e+00
5.800148177766722979e-01,8.663820110956097054e+00,4.142093804041642180e+00
5.986213805387426312e+00,-3.163490702755565653e+00,6.811943498411075382e+00
-7.814113903050922794e+00,1.261855925717934868e-01,5.914805434671229989e+00
-2.011096837304819474e+00,3.427143086384074167e+00,8.878300991805989639e+00
4.118302330788180754e+00,-7.774056665293143098e+00,-4.030136758835801025e+00
9.005150346520007787e+00,-2.746810344494455602e+00,-2.401171904834590975e+00
-6.200341559556038717e+00,1.812557909127985978e+00,7.245541294856347569e+00
8.441415229700346856e+00,3.140461741347398750e+00,-3.903652372104289281e+00
-8.836282108691554393e-01,8.885516338163965244e+00,-3.689729811943715188e+00
-4.272439489967857718e+00,7.677377639652971375e+00,-3.911659445146569158e+00
6.661254274489954774e+00,6.516793046275225265e+00,-3.098377341491404646e+00
-3.093905240304320792e+00,-4.841784651396052297e+00,7.857573481325182740e+00
7.042046272737363388e+00,6.200052972263531359e+00,2.322947300855704000e+00
6.689079962175015215e-01,3.037517236341377713e-01,-9.657682791793028798e+00
-5.516481080413091043e+00,9.090026378699053167e-01,-7.876005918810282225e+00
3.835267843963079404e+00,-8.934485123388093086e+00,1.208510122635495287e+00
9.387206946227072635e+00,1.946639349351353632e+00,-1.589529396179480303e+00
1.868283855399467397e+00,9.227704015173962659e+00,2.352558142378697426e+00
9.983759584819071331e-02,9.612343158505048279e+00,1.146676791524681382e+00
-7.017733410765974789e+00,-1.745128214797842636e+00,-6.116903578433727340e+00
-8.137530222801050983e-02,7.165289248320192428e-01,9.517226575282569101e+00
-5.949731795914423138e+00,-3.427805095336141861e+00,6.878549769153859295e+00
-9.337776228693996927e+00,-9.130613821892589188e-01,-2.817371049234386859e+00
2.170516486018245761e+00,-4.793596762600458305e+00,-8.208841738180447933e+00
-2.807733468127195930e+00,-8.750750967024977456e+00,2.706397363153313140e+00
-7.279427678089503750e+00,-2.482269580673765130e+00,-6.121074106002051707e+00
8.886598032985572715e+00,3.189027216313529589e+00,2.402435762380382478e+00
-3.521449385203915483e+00,-4.219832327363301161e+00,7.751874453364973050e+00
-7.634197158319967258e+00,4.933742220389231825e+00,3.031826358761997131e+00
6.414354267408661769e-01,-2.156517077251839165e+00,-9.339183440859406105e+00
5.460375709831530422e+00,-1.277314450140397017e+00,-7.845141954050743216e+00
3.444774308413561581e+00,1.220346505766400913e+00,-9.021466825036378978e+00
-1.379208980232152104e+00,-6.197025473356691627e+00,-7.314092821687162349e+00
-3.270687159602851501e+00,6.740499621000071606e+00,6.151453817838484106e+00
3.065974401781863978e+00,-8.949185615893533452e+00,-3.412971513272434199e-01
-4.951912183961263203e+00,8.413431867195050984e+00,-3.407972100690296879e-01
-2.509226807933354397e+00,-9.333246065453034035e+00,8.328685628523265772e-01
5.399647652593414726e+00,-5.821645400432340800e+00,5.506164408746171191e+00
-5.125071303227851871e+00,4.329698857931151501e+00,-7.063361800374438282e+00
3.887507401417893416e+00,5.620095224012318091e+00,6.770810944722409630e+00
4.624337568690198630e+00,5.173788864115875796e+00,6.733526377606930957e+00
-3.034599143688465617e+00,7.090772765330691563e+00,-5.749121764722484151e+00
3.942883980689000367e-01,9.233671809474545356e+00,2.743729478156166746e+00
-6.952794306471514751e+00,-2.472707333334028590e+00,6.289341535690230245e+00
-4.978252681853650330e+00,2.760448487267767703e+00,-7.888861448700874135e+00
5.195524148549784726e+00,-1.454462467840254458e+00,7.922806096112351426e+00
4.093060418645462661e+00,4.224481823513425383e+00,7.621677195239468183e+00
-8.373538365481904222e+00,1.518346421796911816e+00,5.018090413896238999e+00
6.089876273819607277e+00,7.556631455172007961e+00,3.500075590565832062e-01
-5.364305593366843539e+00,8.081355763186918395e+00,1.138712361678562379e+00
6.032213518049532874e-01,-9.586975670325358578e+00,1.059254056364408392e+00
6.259512782642485007e+00,-5.112746252028274263e+00,-5.294447173281880303e+00
-9.306390866852716215e+00,-9.884788345991583070e-01,2.553043862383503004e+00
6.523580938166584353e+00,3.019278635326454463e+00,-6.679269723154437344e+00
1.773130347702882581e+00,8.116197240218715692e+00,5.017686188585604334e+00
2.897152445049699487e+00,-9.190545047165157300e+00,1.142409650242927288e+00
9.012062084078246826e+00,2.217640688853645958e+00,2.185208082486197689e+00
9.800448306666220688e+00,-2.648197600614886349e-02,-4.775107578216814530e-01
7.615738314064588010e+00,5.588411931911876351e+00,-1.989883365721700326e+00
-6.661513452168902560e+00,2.248210167476701660e+00,6.496823960141716370e+00
-1.890178592922303391e+00,8.367155129790313506e-01,9.461864515309500234e+00
6.474175557289165717e+00,2.075314522967128816e+00,-6.954920353805481348e+00
-1.696108822637144131e+00,-6.002931742244910218e+00,-7.209607841569427578e+00
-1.461472785171970878e+00,9.598608499413842310e+00,1.956024126157827545e-02
4.213273616552455358e+00,-1.079767058801646584e+00,8.540915183687376455e+00
-1.410119973015957706e+00,8.745524232704688927e+00,-3.856467123371551509e+00
3.611385025203602606e+00,-1.719773875970456167e+00,-8.839679708947247860e+00
-5.350170603152109017e+00,-4.811417222316342723e+00,6.304376805221173719e+00
-5.927490570763337630e+00,-6.816906633511404578e+00,-3.322450255426390164e+00
1.036094492260415834e+00,1.256514103799955206e+00,-9.632962373264824407e+00
-3.646076162017580224e-01,8.362783859303631884e-01,-9.576903123110643179e+00
4.265455264151289505e+00,4.250194750540053690e+00,7.794816449167673689e+00
8.679183640629704044e+00,1.669930455097622612e+00,-3.876620450297108000e+00
3.842805017530622536e+00,4.837993467974118111e+00,7.310986669640243463e+00
-3.595156749721993616e+00,-8.924169424338693091e+00,4.772031114993520728e-01
6.603843491341438998e+00,5.933783096981153804e+00,-3.800869145872147303e+00
-2.881053922752638830e+00,-9.190799923504981095e+00,-8.191007256374898127e-01
3.231344324220450037e+00,8.798918541396307802e+00,2.739774407253278810e+00
-6.091511985952468677e+00,7.464701518526267066e+00,-1.734175419940902907e-01
1.117789615671334724e+00,5.225244130814863830e+00,-7.977350644268133451e+00
3.330524943758543355e+00,-8.426119513723913101e+00,3.306658315862854192e+00
3.613161765022494976e+00,-3.072514025487508960e+00,-8.401200921603248162e+00
-3.758151350249085532e+00,6.584386294825116392e-01,-8.878112287581537032e+00
6.452520089948070137e+00,-4.597163245879145599e+00,-5.511892630923484582e+00
5.669116665949701428e+00,7.754424077375776214e+00,-1.416029392421137567e+00
-7.698268854971363595e+00,-5.854881760458964024e+00,5.700799763127248898e-01
9.354165161683846819e+00,-2.097779178348251339e+00,1.058713781936701404e+00
-4.914962340677930364e+00,-4.959081672404719754e+00,6.850704426873495123e+00
4.273896439554494719e+00,3.853421951707671766e+00,-7.897710866596396428e+00
-3.403693689367135455e+00,-8.601052631744801502e+00,-2.962567169663410827e+00
2.428446635479560634e+00,-9.123565986726969612e+00,-1.746428162470903933e+00
-1.925142575996062977e+00,1.593214166902581885e+00,-9.386161134502009062e+00
2.683345262697475420e+00,-6.483348971531508909e+00,6.741304341512929454e+00
-1.248417536625708202e+00,-5.043639733440753226e+00,8.132755081184045665e+00
-7.547806316956979344e+00,2.663382694009578611e+00,5.292545754638415367e+00
4.559039943955664143e+00,-8.176450389552794462e+00,2.231718674592441776e+00
-6.337773821554689491e+00,-6.093345511600753106e+00,4.412989395852144447e+00
6.412196602464613981e+00,3.797996559568014519e+00,-6.350322587385213602e+00
8.382214552383439710e+00,2.798449474362925571e+00,-4.150255561882625344e+00
7.543856893373106054e+00,2.626998218808064056e+00,5.243514844720505330e+00
5.588461256331544114e+00,8.015562830788988791e+00,2.926444769054346584e-01
-6.432837006395696555e+00,4.038242666929377833e+00,6.259565557715679240e+00
-7.647508534808994618e+00,5.361364553478898287e+00,2.607750761962241093e+00
-8.494471451436108822e+00,-4.188368323668707482e+00,-1.494643194948372056e+00
-7.629324485587298810e+00,-3.505845202857002629e+00,4.860919214482713357e+00
7.968335257585182907e-01,-3.283349375715805873e+00,9.196851428224279701e+00
6.281461726348014807e+00,4.661906312809243502e+00,-5.964487991316167026e+00
6.014039289802876276e+00,7.399805831844727066e+00,1.664486734895760822e+00
-5.509058768539786932e+00,7.766569018951594572e+00,1.583229667311107480e+00
-6.117645999427630876e+00,5.553402599561046316e+00,-4.947719580243330917e+00
-4.677635237264694545e+00,-7.231856346176077643e+00,4.740749369352116105e+00
-8.216621706181371110e+00,3.988588540922707537e+00,-3.402297874184478932e+00
-5.664742222132431060e+00,5.893497690628679564e+00,5.242393029994873110e+00
-4.099186335869747566e+00,-8.649122594597915992e+00,1.685033224221633263e+00
-3.030055831850683834e+00,9.283120842637355707e+00,-6.036734066009937782e-01
6.860908377963251148e+00,6.325641870631510955e+00,-2.632942096867020076e+00
-8.089409766760685017e+00,5.112310886224792350e-01,-5.186837190931957942e+00
5.271872055642977450e+00,6.590792166092411364e+00,-4.721743548147644631e+00
8.760765248410825379e+00,-3.342440063957496488e+00,2.388573378479720510e+00
-3.988715129642882662e+00,1.240259199305334459e+00,8.821021010605297974e+00
-7.707388262645550325e-01,7.715397119591045794e+00,-5.648548086454262318e+00
-4.786578631908701142e-01,-5.436488758800210874e+00,7.989779994886453629e+00
-4.708859558486001573e-01,5.554163589174422988e+00,-7.829688901771804765e+00
3.744413181156571291e+00,-7.253186693463971046e+00,5.154422024273568326e+00
-9.496731760673997602e-01,-5.601978110441748093e+00,-7.940342016153177696e+00
-7.909539223120655826e+00,3.478994937866604520e+00,-4.397017843182273289e+00
9.600461895077460284e+00,-1.179321315864515052e+00,1.189768528428818278e-01
-2.315451872622894536e-01,8.694764887147105270e+00,-4.112787558130506227e+00
-4.577787417114724811e+00,8.421989110220623687e+00,1.336388001969561978e+00
-8.022685702179494172e+00,-4.902131903672898972e+00,-1.849908812018631332e+00
2.407706772457597122e+00,7.910594135657112780e+00,5.128803713179262758e+00
-3.334642574918733615e+00,5.801837762007536092e+00,-7.195442859184238316e+00
8.815899609992884578e+00,-4.013955667803446481e+00,7.631382274909992436e-01
5.776987164570316580e+00,-2.784076505942797208e+00,7.058302948937422272e+00
-1.572219941209719085e+00,9.381208721161842234e+00,-7.498616868899659060e-01
-6.289506929418934078e+00,2.327853497810590255e+00,6.740594085601745888e+00
-3.349744579728597849e+00,-1.340559436773454349e+00,-8.914425649369288607e+00
-1.769749226455071156e+00,7.656038091355378938e+00,-5.932320021968539692e+00
-5.968855592943143940e+00,4.572249922262792587e+00,-6.222644501024555019e+00
9.517725310470449784e+00,1.508069628607776380e+00,-1.535185033592641801e+00
5.769299659725493967e+00,3.546567597940573080e+00,-6.878540260349736535e+00
1.109415249109785062e+00,7.419396197669165360e+00,-6.119521896939446926e+00
7.562308469398158373e+00,-4.748740190754548784e+00,4.279789757668945427e+00
3.427707449458993416e+00,8.571521435112959608e+00,-3.265402398883308077e+00
-9.580584937910813892e+00,-1.523907942619031397e+00,-7.143056608935807739e-02
6.097477835719842254e+00,-7.096426432662865658e+00,-2.849462389450683197e+00
-1.806459065513591034e+00,4.924515488692254195e+00,-8.238401140453710525e+00
4.547412369787093289e-01,-4.265709065178221238e+00,-8.648020197586438584e+00
-4.985118740611397925e+00,-6.591689439849921506e+00,4.832451557735001124e+00
-7.846818925551413137e-01,-9.800742047108178312e+00,-2.347707230886646179e-01
1.155485125859064155e+00,-5.046247702277401714e+00,-8.137906543850821350e+00
5.572606825483987336e+00,6.684943101827802714e+00,4.272625224226931806e+00
-1.856156083523818223e+00,9.513848006374388433e+00,1.132234899773199022e+00
-3.480823168852116289e+00,-8.496283502440483915e+00,-2.683388093559474274e+00
-1.517541727625555836e+00,-9.630129383427464163e+00,6.098763430426188403e-01
