-2.544550506456159766e+00,1.766626917922737405e+00,-2.735777202831841226e+00
6.021863398870963557e-01,-1.779030321852225760e-01,4.046830362656719693e+00
4.036933951845081303e+00,3.811980086170856930e-01,-2.302949850622845740e-01
-1.949488108843103973e+00,-3.608984903144256240e+00,-2.655822396426503126e-02
-9.736685566290016469e-01,3.946795036532631418e+00,-2.324432641591485105e-01
-3.686394339605119530e+00,-3.419591231840369838e-01,-1.938871724309050748e+00
2.484868371124177244e+00,-3.011818410833341009e+00,-1.249148889504143156e+00
-2.814117336332046637e+00,2.572674221268645312e+00,-1.572150513279259698e+00
-2.298410404344036984e+00,-5.838304858116571960e-01,3.348586537149211395e+00
-4.041126048008883309e+00,7.245251876400102820e-01,-5.371829069843543636e-02
3.534248609351709813e+00,1.675331552902444843e-01,1.969439649575744689e+00
-1.572233715925807962e+00,-2.901650789856180079e+00,-2.461914207932104581e+00
-1.476268226752454726e+00,3.799125780598127111e+00,3.691255037504538317e-01
3.572533023702180177e+00,-4.144632451067101764e-01,2.017433197261853106e+00
-3.567334307015629591e+00,-1.386808550758490854e+00,-1.430542117425410709e+00
2.884799714670132964e+00,-3.383898547230674847e-01,2.891467876239554702e+00
2.345436337006275629e+00,1.759758124402457602e+00,2.809100401069311914e+00
3.276290901141793555e+00,-1.740370829083121018e+00,-1.826060230065913448e+00
8.225800085886963986e-01,3.514385532582984695e+00,2.120806814844591326e+00
3.363270400810103311e+00,-9.742797544278837263e-01,2.079100896864495951e+00
-1.885822138279656501e+00,-6.619363159620448300e-01,-3.643914698928691909e+00
3.935815200807480263e+00,1.138870164398879226e+00,5.340262843569517637e-01
-2.642692585578115594e+00,-9.695076880740952641e-01,-2.994114624824951054e+00
-1.597807608617633157e+00,3.792902088622402523e+00,-1.540739403796063077e-02
-9.077642334179087946e-01,3.526036994281536163e+00,1.977054494737447099e+00
-3.622846944829750004e+00,1.443443030424213847e+00,1.427847070284375297e+00
-2.399897407979664887e+00,1.490751754378349725e+00,-2.936739519783336139e+00
-3.966460384982853249e+00,-1.794584589083788595e-01,1.504746075754441526e+00
2.257702412068715692e+00,1.724207309509995456e+00,2.974888067051080665e+00
-2.672515361056528871e-01,3.831435658636374253e+00,-1.451043511697621913e+00
2.043172552232380479e+00,-2.578913795218218397e-01,-3.614004437020747140e+00
4.808912799309319475e-01,-2.359384759027802758e+00,3.318402002111901172e+00
-1.956077535759952912e+00,-1.971772390708978362e+00,3.008859187168120730e+00
-3.795622364507106994e+00,-2.367602503186356233e-01,-1.464115005044438478e+00
-3.340884007020533009e+00,1.539671957387218626e+00,-1.979148085248425559e+00
-2.879938637387442935e+00,2.627770162027982082e+00,-1.375905827273399495e+00
-1.618139387173492594e+00,2.771035626898811000e+00,2.490749387477721122e+00
-1.000242424323456003e+00,-3.946160447318451503e+00,-6.774658161528390732e-01
4.022196371220940314e+00,-8.152593380219061436e-02,-7.153635807283332815e-01
2.317828226353580434e-01,1.091869947824430254e+00,3.933926604421610129e+00
-1.627799610098910943e+00,-7.862551567100808381e-01,3.728363011989282327e+00
2.292779459108085227e+00,1.117105516092705697e+00,3.191508372814638950e+00
-1.887309857151661774e+00,-1.608384843522709051e+00,3.225369272329356995e+00
-5.070165823793915116e-01,-2.507764567814563250e+00,-3.239696476419622773e+00
-3.567624590948865304e+00,-1.006509044446650458e+00,1.862247120825704094e+00
-3.429049466836703974e+00,3.719822189555571090e-01,2.159106645894909970e+00
5.753009748787553113e-01,-2.859162230976904251e+00,-2.849840359455197092e+00
-3.969442058196575918e+00,-7.095727589558172843e-01,6.911843110665016887e-01
1.793391299512145931e+00,3.584632645943086615e+00,-1.629673781622192064e-01
3.865043623473241929e+00,-1.551655636150833795e+00,1.027876068340010524e-02
-1.058472341700286590e+00,2.553842872215611237e+00,3.043142344606231564e+00
3.840906220075396060e+00,1.037315962095733957e+00,8.739466512274683963e-01
1.443639300172071538e+00,-3.827434593702559340e+00,7.121217598360335410e-01
-2.126611250257634644e+00,2.925974904227796713e+00,1.799184828692366178e+00
-3.175720280968071130e+00,2.009974508709134966e+00,1.564232797341431169e+00
1.547273866712538304e+00,1.163790362125008526e+00,-3.563312703188744823e+00
-1.764920312538566405e+00,1.453635033032839363e+00,-3.406789187546245934e+00
2.603543124325495395e+00,9.079019680868856135e-01,2.915691132670092500e+00
-2.499757423419495250e+00,3.174016616404426561e+00,-3.609963351080464067e-01
-8.619796342934943345e-01,-7.385975131979833908e-01,-3.940398603667823352e+00
-2.880826842967299406e+00,-1.284739104761717154e+00,2.627025216386839723e+00
3.821711287016404945e+00,-1.115657195028488147e+00,7.311629039424760723e-01
2.280803906114867718e+00,-2.913802740257135593e+00,1.861203657967745118e+00
-2.312619623881297493e+00,-2.259488707262960472e-01,-3.233002501367992387e+00
1.187006281484084935e+00,3.861486190584953793e+00,3.460828035020757643e-02
3.794488640629196663e+00,-1.231441290982246528e+00,-1.039109144112422944e+00
1.747152234579069985e+00,1.285295051524278920e+00,-3.435175036590067954e+00
2.709942550258630511e+00,5.607031453133873855e-01,2.957260164833609206e+00
1.096854748234001642e+00,2.074697986007770112e+00,-3.402898067384261704e+00
-3.074341006064670312e-01,3.690507051646193304e+00,-1.677175590015742790e+00
-3.343972498649404379e+00,2.140591259635429289e+00,9.894376122123311745e-01
-1.858329767674558042e+00,2.317535465671265449e+00,2.965657282575705267e+00
-3.946086911807727304e+00,5.734524848987562207e-01,7.648037155622264827e-01
3.570347301000724283e+00,2.167377205959718722e+00,-3.464702690816457986e-01
3.690233453646999173e+00,-6.447089801979554169e-01,1.698763505662954421e+00
1.790150091918728315e+00,1.423100501999550849e+00,3.417738280654214922e+00
3.680288848309816174e+00,6.674197848995607751e-01,-1.604502421280649571e+00
1.865399334188716063e+00,3.020418777266334676e+00,1.880065119948472141e+00
3.375948178034644975e+00,1.758965750122093918e-03,2.367246048239679546e+00
1.540910269665764831e+00,3.805509963262994955e+00,-2.125930711981512955e-01
2.472257980684135159e+00,-1.592620701921478588e-01,-3.255115889137918384e+00
-3.057889573880709033e+00,-2.720787036414099358e+00,-5.960257277890664840e-01
-3.294720463488256534e+00,4.080722472784394789e-02,2.418979443436402477e+00
-8.090790212879834797e-01,2.376221069639857575e+00,3.259304818160880135e+00
1.670681814225668971e+00,3.801862469879754514e+00,-1.651444002841891134e-01
1.968816478313533347e+00,3.577565156420206893e+00,8.122905484628071271e-01
-4.878773238790257705e-01,-1.917306127447478747e+00,3.570117586412146160e+00
-1.864277521831281481e+00,1.598485597711697626e+00,-3.259183338902646998e+00
-1.927893353000677656e+00,3.495227993454291138e+00,-3.550457893686849165e-01
2.395711766867999692e+00,1.163193353518789719e+00,2.990015027346276888e+00
3.217312957975223542e-01,-3.425478973730211152e+00,2.282292011019512845e+00
3.572228614790126322e+00,4.628797017203337139e-01,-1.989152593088729937e+00
-3.535630565409915160e+00,-1.299266590488818984e+00,1.673429598646854588e+00
-8.917941712129926479e-01,3.979038222887121279e+00,-1.742218692330136376e-01
5.506093941275349429e-02,-3.976289876889085750e+00,-1.014276170222009776e+00
1.725978708832295982e+00,1.570247830460481109e-01,3.687819181803822843e+00
-3.544946383750808394e+00,-2.834713670458122170e-01,-2.063179286688326730e+00
-1.024400375454369794e+00,-2.433345173635795611e+00,3.096671425346787299e+00
1.403822959034946694e+00,2.662076206098013653e+00,2.755706519909838281e+00
-1.437326400114521396e+00,3.298558877709868220e+00,2.086676737042714613e+00
1.281306335584564859e+00,-1.651853650697173936e+00,3.571200773058909483e+00
2.905846024994183541e+00,-2.009738856814316854e+00,-2.052730525932829675e+00
-8.487904827101796501e-01,-2.748249239954313250e+00,-2.892138137413499788e+00
-2.179477839769776992e-01,-2.125807954874929351e+00,-3.474631079881406404e+00
2.703056573116999317e+00,-1.154679700805802289e+00,-2.858038191372135106e+00
3.223583963454090817e+00,-1.301968318859752172e+00,-2.135830385962667943e+00
1.030104000242491741e-01,-7.209336898412539718e-02,4.104444447095575654e+00
6.725705839649368523e-01,-3.821188557334231906e+00,-1.138339470969148115e+00
3.100087296475174892e+00,2.600838775976018979e+00,-3.546832089711364766e-01
-3.282284619013840388e+00,2.352679745627849872e+00,8.575201747428874395e-04
7.722146346465998124e-02,-1.496196068871827434e+00,3.835686088376609959e+00
8.422341718423966006e-02,6.790962270497025166e-01,4.033020738238096925e+00
3.885527857644527128e+00,-1.192001794699060202e+00,5.856398551606516456e-01
-3.883861156029826844e+00,-9.253406094140753657e-01,8.298541045139430361e-01
9.527018508515634476e-01,2.188622390966006748e+00,-3.348984130115832514e+00
3.927015014959951422e+00,-1.883262622648060047e-01,-9.399310332814165836e-01
-1.009454681856934433e-01,-2.768425584854142585e+00,3.044592400550716338e+00
-2.805948545698470631e-01,4.040869727789556443e+00,-7.760781943125495408e-01
-3.107990070318784048e-01,9.660746843608272183e-01,-3.979641897920483729e+00
2.965302023608702875e+00,-2.709498317030265113e+00,-9.525766812518574600e-01
-2.275358158598381753e+00,1.442921106803095155e+00,-3.012348627407608781e+00
1.501741227485056340e+00,-3.332412547606927067e+00,1.980995840642069572e+00
-1.970110020764949565e+00,-1.292090692902087445e+00,3.381012487975886049e+00
-3.658654940973893321e-01,3.998121516090035410e+00,-1.184256543751240343e-01
-3.526862079701401864e+00,1.029235130338982396e+00,1.691407505674097145e+00
-3.378484606917580457e+00,-1.857264899785923573e+00,-1.429806925699507625e+00
3.683281046255258318e+00,-2.125573526347128150e-01,-1.663629752902447967e+00
-1.682322906347828662e+00,-3.896147347080100576e-01,-3.691781153626358503e+00
-4.054683706410079580e+00,2.072099894406822240e-01,-1.081662602586909161e-01
3.067162418570393623e+00,-2.669257907337421187e+00,-3.375360600570310315e-02
3.637414984352963288e+00,-1.622216434183618494e+00,-9.754404351528259687e-01
-1.513141405819064422e+00,3.689941778493950775e+00,1.148810788906643676e+00
3.414763753723575324e+00,-3.348553789556657501e-02,2.355898628855171317e+00
-1.251198546293531333e+00,-3.586638560370089213e+00,1.667856805685563382e+00
-3.977473617079963497e-01,-4.081891006367348140e+00,-3.022140368531408550e-01
2.347330159618471246e+00,2.924094601518582692e+00,-1.722827246446171356e+00
3.839847188683122692e+00,-1.124264926845498502e+00,-8.441178150797655766e-01
3.727777191359864517e+00,-1.188355523888162818e-01,-1.716738453100875139e+00
-2.365555794232196973e+00,5.372659846909274561e-01,-3.340399894221922406e+00
9.715334875105958723e-01,8.063619736040309460e-01,-3.918790011364454262e+00
-2.410817898917124502e+00,1.476995864865144892e+00,-2.988180963093255205e+00
-2.693041978305976136e-01,4.026412228067232313e+00,4.500165568119235404e-01
2.423662582475979654e+00,-2.138001656053421851e+00,-2.651067703417954391e+00
3.697343480751611899e+00,1.269850309780447217e+00,1.475103463858686847e+00
-2.841336803709220593e+00,1.638081422632609696e+00,2.428057760130740483e+00
-3.340897274373024750e+00,2.191876704744888826e+00,1.009938145566516843e+00
1.812644999489499087e+00,2.357138561525209397e+00,-2.897010441775628831e+00
-2.076377685688870045e+00,-6.848499906593507047e-01,3.410015518370705045e+00
-1.066055830118633585e+00,-7.161440870680664261e-01,-3.926829370203217096e+00
1.044268612650453010e+00,3.631080831627958361e+00,1.432232847283730237e+00
-2.588664766305778464e+00,-1.859176505002299695e+00,-2.471616804384721977e+00
6.808356765447544090e-01,2.595575589201098765e+00,3.202809976156411054e+00
-4.053417127643030859e+00,2.572715376992158465e-01,-6.299436069224411128e-01
-2.339027321837977347e+00,2.692115336991256491e+00,-1.980781929607766223e+00
-3.691633948651969366e+00,-1.089063053289748506e+00,1.438688451798338708e+00
4.160025674778149996e-01,-2.824474780891019776e+00,2.945330513244674542e+00
2.412085107021727737e+00,-3.291259354008634119e+00,-8.333070975182361728e-01
-3.695356600879383446e+00,1.206707788128608128e+00,1.217499078494542974e+00
1.188202073074402065e+00,3.755184608067398511e+00,1.059587408436150291e+00
2.117294886713847024e+00,-3.175892675022867095e+00,1.546538073076185293e+00
2.635599562593879952e-01,-3.555949089821696774e+00,-2.137090060551674053e+00
-8.537275153187871002e-01,-3.582603874673938815e+00,1.857437127803689192e+00
3.897178034136180802e+00,4.169723125684534071e-01,-1.275334091796280100e+00
1.324577391870155330e+00,2.917275148158030795e+00,-2.623429240745406510e+00
-3.224834765733194608e+00,1.430630185366102536e+00,-2.206187703204878225e+00
-3.927748288113560360e+00,4.681464399457788139e-01,9.377853771802728833e-01
-2.834404984982514808e+00,-2.762687439707668169e+00,-1.002402772007765730e+00
1.494822937905813331e+00,2.952353185835420724e-01,-3.769754519533955239e+00
-1.680354412779640150e+00,5.142851888258760662e-02,3.735394221335398335e+00
1.309402900419981974e-01,4.120828951009126939e+00,2.875125455474973890e-01
-3.940909019790931112e+00,1.077567687872349467e+00,5.084851762608152276e-02
-2.675386177561711154e+00,2.977512864017743510e+00,7.574359894347688638e-01
-3.964941054027037115e+00,4.829594633281031890e-01,5.563104426095482058e-01
-3.014873961869832364e+00,-2.745137737342320694e+00,4.122325083115888633e-01
-2.553273803759957161e+00,9.187094093913640291e-01,-3.106859395457165274e+00
1.656420057687739700e+00,-2.789844548391023693e+00,2.413938373183032393e+00
8.216830095647033039e-01,3.974260772960209298e+00,5.167227275082979521e-01
-3.673035981600199840e+00,-1.311291530746280687e+00,1.438274716026638256e+00
-8.025862150974623077e-01,-3.874259230229096573e+00,-1.275590940068214163e+00
-1.677838300122096005e+00,-1.203430065479920152e+00,3.648842163591389465e+00
-1.445071993828334511e+00,2.927963901306840366e+00,-2.628918825373914636e+00
-2.854022683127944049e+00,-3.085404597392809589e-01,2.848788034695004079e+00
1.217192283483064186e+00,3.901718602095651356e+00,3.809708957116887396e-01
8.415541521445465412e-01,2.142207531723746783e+00,-3.398525245915286597e+00
2.150925468713388522e+00,9.168376022582748197e-01,3.435398554657871362e+00
-1.739935681291630842e-01,-3.550917954343582483e+00,-1.995575050186486399e+00
-6.747124708630557466e-01,-2.189167130619625201e+00,-3.337690079261813825e+00
-2.554175521600855259e+00,1.018101851789129819e+00,3.068329108645037717e+00
1.687189971319043247e+00,3.143031894464270337e+00,2.063324117369362387e+00
-8.473961531946958559e-01,-2.802455848742869904e+00,2.846653268773426504e+00
1.887678697839209330e-01,-2.376550125552608250e+00,3.279483323960530328e+00
-1.459648971046823229e+00,-2.174819803796085527e+00,3.207178566272452347e+00
1.527060090766958478e+00,-1.024593222424268424e+00,3.660764234420961660e+00
5.172863811195991257e-01,3.565864481145910592e+00,-2.109182934196133452e+00
4.103547758988433714e+00,-3.198524078875359389e-01,3.237518277194621485e-01
-3.784361691467529987e+00,1.144312087569227865e+00,-1.079071632435776973e+00
3.857417038271417464e+00,1.051436943581448985e-01,1.245643074997426103e+00
-2.245013542530428730e+00,-3.159619876418505502e+00,1.263634555347235011e+00
-7.012175339314565860e-03,-2.398864463534181812e+00,3.342998824543747194e+00
3.038890972093327703e-02,3.156061240560346981e+00,2.666315048089641593e+00
7.128849082464341347e-01,-8.758114335103901471e-01,3.956896201331948415e+00
2.762116431809235717e+00,-8.483709174984372936e-01,-2.990622048261021959e+00
1.331107901321336787e-02,-3.787726550739055398e+00,-1.381609266395920743e+00
2.422370700675756439e+00,-3.032824557958513800e+00,-1.271170831392804512e+00
-9.709612002128920061e-01,3.774798316779611973e+00,1.213846133786061987e+00
-9.570375052954056549e-01,-4.047674149279849587e+00,1.140468605606426988e-01
-2.971246937551814682e+00,-1.113996919601321300e+00,-2.592058782927702865e+00
4.070530280364375919e+00,-2.528096664310544028e-01,8.072225868198346088e-01
2.557144647157016060e+00,-6.339217550605096285e-01,3.119808383835102727e+00
-3.573944357102588398e+00,6.194759739254864783e-01,-1.879122498641651706e+00
1.660597593646022219e+00,2.741577238570012121e+00,2.510433998244519849e+00
-1.929422257299011623e+00,-3.126702456183828804e+00,1.987738363839747890e+00
3.206612913269318188e+00,-1.973506635250961150e+00,-1.440871084788212686e+00
-6.677915506749858565e-01,8.336316501741721785e-01,3.930639395129392533e+00
3.902472099243159853e+00,9.074305619361403563e-01,1.055297533898104378e-01
-3.931401010582575850e+00,8.872990920171799356e-01,6.231029218080289533e-01
1.532028064085600105e+00,-2.698600884935320021e+00,-2.656689900174272090e+00
1.826826221700069031e+00,-1.933123815168719395e-01,3.673653824587707284e+00
-7.496889668711630428e-01,5.097854308632430165e-01,-3.969747461361592400e+00
5.188679010946922743e-01,1.052086939988910785e+00,3.919737026214647369e+00
1.683472893600645559e+00,-3.137240765168576306e+00,-2.014176537485643514e+00
-2.927060002839506070e-01,-1.766301509289806670e+00,-3.822231997133579640e+00
3.620292853636180919e+00,7.967584357858150668e-01,-1.726289866838847109e+00
-2.576153374075561331e+00,2.586941385023214579e+00,-1.757418659592619115e+00
4.051878091010216565e+00,4.788470383221155036e-01,5.508382108092575447e-01
-1.751213173597747641e+00,-3.708061937061986502e+00,-1.086625502674219562e-01
2.121543695503132765e-01,2.989619465840840373e+00,-2.845057181000980595e+00
3.950802070058320847e+00,9.151083504120970380e-01,5.648732105467030307e-01
-2.225657270747332994e+00,4.249211571826565920e-02,-3.526438700660294856e+00
-2.109626841705070532e+00,-2.718913243086844123e+00,-2.266961484202352217e+00
2.994681498056881441e-01,-1.617616369554279565e+00,3.752439195161358043e+00
-2.811117149106511892e+00,1.235265816742791234e+00,-2.660237817966661922e+00
2.782375580084811784e+00,-2.026134689358673580e+00,-2.218660467164686345e+00
-2.513964932704814359e+00,3.559320529116307141e-01,-3.214998288401271331e+00
1.330887622455290575e+00,1.609959602154445557e+00,-3.514084621560682908e+00
1.451331671725794692e+00,-1.259057666399367781e+00,-3.557085995419696278e+00
-2.498008302639360245e+00,3.104487733611956291e+00,-6.940647279640129730e-01
2.797156626601363882e+00,-1.392586736837760020e+00,-2.681814198561442986e+00
-1.028434794836527111e+00,3.025620150196872693e+00,2.552855302529662751e+00
-1.252993799089098470e+00,-3.663217066781384590e-01,-3.860969339101617326e+00
6.202394685819961895e-01,-1.861474412797963440e+00,-3.583371557146358910e+00
2.052902868561909955e+00,-3.454133640015113915e+00,-1.114866075882888108e+00
3.243473049155382704e+00,9.638878256497843688e-01,2.355148286351833598e+00
1.247908637985031044e+00,3.027049901725114012e+00,2.509587912987944147e+00
3.937463948670076874e+00,3.817167610226310237e-01,8.033618558087223249e-01
-5.327982887654199029e-01,-2.885535129060402770e+00,-3.002912159568712713e+00
-3.913105340238343999e+00,5.412172407475126512e-01,1.227773487622404458e+00
3.330542181678322500e+00,-7.164629508124440438e-01,-2.192077111129111966e+00
-2.218774679405322026e+00,-3.091837676748952379e+00,1.516086085994391652e+00
-3.264353104095813585e+00,1.109892221845684812e+00,1.999395303165844018e+00
3.646773336590565240e+00,-1.551394095925829664e+00,-1.176189652328969659e+00
3.009000474353536791e+00,-2.247878685695108292e+00,-1.472900990460856541e+00
-1.597919900703979268e+00,3.496213041519245834e+00,1.430793467981275047e+00
-3.812829711968632740e+00,-1.601735726502189205e+00,5.331302078887205642e-01
2.012225811312497115e+00,-1.160857751685647532e+00,3.427480422230414270e+00
-2.487958607028774694e+00,3.242599146543704514e+00,8.007741349391436780e-02
-1.098639419041956167e+00,3.279125404006725475e+00,2.151444526969156446e+00
-3.120627683878707259e+00,2.431978356784833650e+00,-9.048099887002153396e-01
2.196212161526782669e+00,3.184336685224835151e+00,1.444451142828517609e+00
1.679775472373173040e+00,-3.358507093751077921e+00,1.857776154224309195e+00
-2.664106640321172392e+00,1.240960920750257213e+00,2.927667731907661164e+00
-2.816162570752155592e+00,2.609139671610621658e+00,-1.351941234983125240e+00
3.659657296572617735e+00,-1.759618628595841283e+00,9.782208380942201964e-02
3.054451544887434533e+00,-2.695926631957470399e+00,6.582466581240021819e-01
2.362538394848793466e+00,-2.073783082879959050e+00,2.689712776591445476e+00
1.229255531836693116e+00,3.788536144912034054e+00,8.866533001683295501e-01
3.557132095466938093e+00,1.899156370090694601e+00,-4.033135022752405430e-01
-1.302470744812908032e+00,9.594703183515828071e-01,3.755295253196007987e+00
1.962392041665991460e+00,-1.674222094715159370e+00,3.198052811149723507e+00
1.826342922770686217e+00,-2.117297754826479306e+00,2.998052043440543102e+00
9.099074811089771231e-01,3.341963216523231139e+00,-2.045242411722940190e+00
-2.444518858522755522e+00,-1.103027419847218527e+00,-3.133479571592632684e+00
5.571457779213919714e-01,-3.345723141859225508e-02,3.973456087054227037e+00
-2.460869513839810008e+00,-3.043638757310029419e+00,-1.066687227299372598e+00
-1.393612102323790181e+00,-4.120966606074428773e-01,3.933629688677348302e+00
-3.007601624621513814e+00,-2.248187082246896562e+00,1.557851200520742552e+00
-1.210464709306859010e+00,-3.045892484098009945e+00,2.446262761837693755e+00
3.886872775087314213e+00,-1.902896336497260019e-02,1.232238102909535504e+00
3.178061028073085215e+00,-4.014179463937820325e-01,2.520601480725418231e+00
2.613306570117192251e+00,-2.450608844966387867e+00,1.892098166059774877e+00
-1.994202508308859700e+00,-2.814578017447311731e-01,3.607399753257962693e+00
-1.477182563882046162e+00,3.728011759398042635e+00,-8.611049926843785673e-01
1.204156782505512169e+00,2.095257592210877817e+00,3.302139174477338734e+00
2.004363057897402101e+00,3.032062053639982491e+00,1.852036846232508527e+00
-1.860574066131510662e+00,1.774760750693970657e+00,-3.208370414433020734e+00
1.248210592564841681e+00,-3.644057270676572369e+00,1.427983895619433508e+00
-1.117034009385467153e+00,-2.273061776566781322e+00,3.328994981093671424e+00
3.411176286682898517e+00,9.856261416718340440e-01,2.091991809599365038e+00
5.902820097828995749e-01,1.526299164317305612e+00,3.829561323817002982e+00
-1.718953721881287144e+00,3.648577868046963602e+00,8.893003759391977514e-01
-7.426329156635872453e-01,3.627413306005495386e+00,-1.712739137384098109e+00
-1.641765167442092110e+00,-3.808065323150914505e+00,-4.438551416260488880e-02
-3.682538711059315517e+00,-1.598451885188044930e+00,7.674612940678277040e-01
-2.431505321434755285e+00,1.659714576589291557e+00,2.847428363984164434e+00
3.149209376667083671e+00,-1.018795697205679307e+00,-2.422388624884467934e+00
-2.897215170223600200e+00,8.226336419055350069e-01,2.749965438726517775e+00
3.565721727153780662e+00,2.130161487400310971e+00,-4.950728125603170438e-01
2.450503604947243286e+00,-8.748751990622695152e-01,3.128784079606522273e+00
1.156439277518416020e+00,3.207747226355644354e+00,2.290160650385290708e+00
-4.430163681924986774e-01,-2.979103529624576918e+00,-2.636486315866093388e+00
-3.527720928402180878e+00,2.047436044174483882e+00,3.611113411941209717e-01
-2.930671828593040207e+00,2.843376085137347076e+00,-5.280841719125939360e-01
-2.913371959423895596e+00,-2.854146519300315710e+00,9.140913380982522082e-03
2.909250279775520642e+00,1.032166470569805039e+00,-2.618051156445072358e+00
2.033864973632231621e+00,-8.815299001500183085e-01,-3.493143385506690901e+00
-3.301575888378294188e+00,-6.122019790690269581e-01,2.396152634818655258e+00
2.249965291835883896e+00,8.739362223480704461e-01,-3.210636725283960047e+00
6.390328836491963871e-02,9.913344278820083177e-01,-4.033198996267994829e+00
-6.048981597507598895e-01,-7.647388632577714063e-01,4.027853534268926339e+00
-2.186687821986871061e+00,3.427771845287448826e+00,-1.160917565241366967e-01
3.620805098751658235e+00,1.098704514581158254e+00,-1.661173588261555700e+00
2.864846159002714998e+00,9.012794867398939980e-01,2.798172107847364920e+00
-8.106685602930734091e-02,-7.332714518602250209e-01,4.062254292375024889e+00
-3.869269788302344359e+00,-7.382433586190865205e-01,1.241130665009568590e+00
-2.324839050997016709e+00,3.282060961874131877e+00,-9.381850058437869455e-01
-2.150081839901622605e+00,2.486216482007655437e-01,-3.545014376442046533e+00
1.272653627602758908e+00,-3.332424127143208015e+00,2.059388558887409459e+00
-3.350644615443937102e+00,2.387170724459267035e+00,2.043749136378887610e-01
-3.898592244886741387e+00,3.020977942713773401e-01,1.249738161415475446e+00
-5.544624911119492294e-01,-2.438081803664080560e+00,-3.291993552158834824e+00
2.435024690697589200e+00,-2.135684381241712337e+00,-2.439740352029747594e+00
-8.129172535208039063e-01,-3.143962651840082057e+00,2.573877345784373549e+00
3.583605081569755768e+00,1.915870090199710551e+00,1.730190099261004737e-03
-9.655198532788357157e-01,-3.462314388568452639e+00,-1.971979151567250454e+00
1.659608072210749574e+00,3.639779140009742786e+00,1.099840707485754576e+00
1.934374307374361335e+00,-3.486791465741537976e+00,-7.419904923842355338e-01
8.240301824227977967e-01,1.163856157291188742e+00,-3.869564133313040166e+00
-1.414661650645780144e-01,6.690887111008892996e-01,3.988171100329762186e+00
5.245821029891888365e-01,-3.316578882333741429e+00,-2.275441008280709276e+00
3.184603695236556398e+00,1.783276536434512449e+00,1.870451445711289518e+00
-2.315390502357284885e-01,-1.258605402002495488e+00,-3.838279183063822764e+00
2.656087163233156634e+00,-1.444011716331425887e+00,-2.895066649249012247e+00
1.938469507518063795e+00,-7.872127652778681400e-03,3.542890954340440768e+00
2.205768029140500186e+00,-3.426625111352386899e+00,3.137652585859612153e-01
2.241713227445339296e+00,-8.960925747887181492e-02,-3.390762051615892059e+00
3.972916595781998961e+00,-7.145193046910983670e-01,-3.626837038088876475e-01
-8.709716100124861304e-01,-1.791018564615733943e+00,-3.574887170363223898e+00
-1.184391083017774793e-01,-1.187217024474422900e+00,3.857980224558517079e+00
-5.925586942431552151e-01,-7.231649792715800773e-01,-3.982647834447027524e+00
2.707584281953447025e+00,-2.155247781678562458e+00,2.236347955783738239e+00
2.984834162084057496e+00,-1.728519162330516945e+00,-2.147765495146330306e+00
-3.467096372091243772e+00,2.043655213259136350e+00,7.571213770270273091e-01
-2.710558782917018572e+00,-2.652298135733698548e+00,1.408473466436266586e+00
2.650062003772176045e+00,1.073178795906250399e-01,3.091716602636734201e+00
-3.402450996064959821e+00,1.813697463840805213e+00,-1.135545776452577149e+00
-2.493958901951397245e+00,3.028535979881276319e+00,-1.097225879716651864e+00
2.783147747693647034e+00,2.846540760534695291e+00,8.315353439164282490e-01
-2.188871776419878845e+00,6.967046233791546195e-01,3.456569648241810011e+00
-1.531401381444392751e+00,3.302938302514215607e+00,1.926227152531116760e+00
3.554971256204555452e+00,-2.015580765562093202e+00,-2.993509458377728860e-01
3.393837289867627227e+00,2.692569777105719986e-01,-2.310092603898784791e+00
-2.240083752592484156e+00,1.729108017423590216e+00,2.981247518308694833e+00
1.370704527127925010e+00,6.714835018058893379e-01,-3.866265947239275746e+00
-3.081125486010608761e+00,1.110361246781255973e-01,-2.689264528350622907e+00
-3.670911611818600040e+00,-7.662663418830512052e-01,-1.588261821885392333e+00
-1.830142963962166358e-01,1.222504780966498839e+00,-3.970451737969333816e+00
7.359308513549812636e-01,1.331133645396118004e+00,3.831056010100194698e+00
9.444618810963001376e-02,3.103375778205851532e+00,-2.666882740410998487e+00
-2.899996932617592699e-02,-3.160453561151709945e+00,-2.613725379454638897e+00
-1.957222338242621262e+00,-3.521491644316090852e+00,-7.041213296147699197e-01
3.905158406000788673e+00,-4.595942156525962274e-01,1.323265599124652026e+00
2.043657843037384403e+00,1.427934102542132377e+00,-3.273747647200819344e+00
-2.326640242408564152e+00,2.734054303432146060e+00,-1.999501576973146788e+00
-2.966276188941077141e+00,2.076044343221580490e+00,-1.922559088415525919e+00
-1.531167923483401250e+00,-3.636375247312887637e+00,7.197321445103337378e-01
-1.249073187490105652e-01,3.391160923093325508e+00,2.195188358941892126e+00
-5.327540381204508568e-01,7.395780788982920795e-01,4.013373163301336533e+00
-2.409948533428024398e+00,-2.759887863555609222e+00,1.944840058007930583e+00
2.013246897103733613e+00,-3.280724471664706154e+00,-1.493734037542373327e+00
1.974916929781469932e+00,-1.071320693517317180e+00,3.377780099046880036e+00
-1.374967477689858830e+00,-3.811058864615884278e+00,9.538284158735895746e-01
1.563530381102438138e+00,2.931860353160579802e+00,-2.445026206182290274e+00
4.180749450614941187e-01,1.327653264934193666e+00,3.775420743253788292e+00
-3.679943833820343624e+00,5.659832555613345528e-01,1.612664138467501562e+00
7.375524359165546162e-01,-3.481145651707347799e+00,-1.970912238148883056e+00
1.854030739008429851e+00,-1.972434710652608780e+00,-3.057194190733083961e+00
4.828265282581282181e-01,-2.297787864060062635e+00,-3.387482626882544867e+00
1.453158167303538750e+00,-3.834903774834070411e+00,-3.247980438448371671e-02
-2.962640409813920073e+00,2.716143151043806991e+00,8.337670741237871441e-01
3.670690987665247373e+00,-1.130816538891153300e+00,1.146297135701165759e+00
-4.048880989226826266e+00,4.736255454599225256e-01,-7.016471532152536161e-01
2.218170731095056247e+00,-1.765950718940497266e+00,2.972169943448063290e+00
3.431493682734794159e+00,1.833956706580267770e+00,1.265914917689300090e+00
-2.906244602837586566e+00,-2.581064714636694735e+00,-1.381568447214194029e+00
-5.651324779206774451e-01,3.985746685580651150e+00,-6.227925185884174430e-01
-2.160220113988176038e-01,4.024327124089118080e+00,-7.225307658593936866e-01
-3.158372011025662118e+00,-1.285150827039146293e+00,-2.228490586280398755e+00
-2.743282576700218911e+00,2.612575164114927073e+00,-1.521308947533768663e+00
-1.125056729151331592e+00,5.265427438600608356e-01,3.913296845640104049e+00
-2.383753923483866721e+00,-3.111579612712811915e+00,-1.266840671631201731e+00
2.037187960333056935e+00,3.387201060841631861e+00,9.227163290582089950e-01
-5.868115232761596245e-02,4.073516699354724935e+00,-1.511619810676964049e-01
-2.795619988731255834e+00,5.307381030571781677e-01,3.066539326932730791e+00
-6.268850452337677570e-01,2.491608159205366935e+00,-3.210863942508841884e+00
-4.043308329898579245e+00,8.542664855999981821e-01,-1.558979663243448555e-01
3.186991883699808792e+00,-1.188320923204649215e+00,2.275415113276596291e+00
3.315311509701463155e+00,-1.617112416298361888e+00,-1.769874953591011435e+00
-2.308214005694758431e+00,-9.158244292345970594e-01,3.272141093131480716e+00
8.266645596464243795e-01,-6.413556723087555644e-01,-4.021192222596269517e+00
-1.971411728220540560e+00,3.444004759444435404e+00,-1.068625494710953472e+00
3.717287984872138740e+00,-6.905002853761056381e-01,1.609146554051227973e+00
1.900592596578262850e+00,2.710789393682518700e+00,-2.310889203724326713e+00
2.793434993948513245e+00,1.542082612226886029e+00,-2.661186542425214796e+00
3.937776362903678828e-01,1.610721852502259521e+00,-3.736310665431350486e+00
-2.517473048033186167e+00,1.465817234359329202e+00,2.818721923435698606e+00
-6.784198994357294454e-01,3.077025505879768197e+00,2.624993998622680458e+00
1.104583504890043866e+00,-9.083597196213130109e-01,-3.862112106376685006e+00
1.303479085506846324e+00,-3.820629741848933669e+00,3.164372787633112916e-02
-3.421177493084014198e+00,1.412428268132589260e+00,-1.789906788258083692e+00
1.648081286575232784e+00,3.493634492388639767e+00,1.245122653732299689e+00
-3.189395696135603586e+00,-6.260875104686330905e-02,-2.561488561884203818e+00
1.453129673379875308e+00,-2.714756635295698661e+00,-2.719998592373039870e+00
6.380069594409855382e-02,4.068937188146632411e-01,4.029936381377042132e+00
4.032456616825556561e-01,-3.360106697060985415e+00,2.271295211762021093e+00
-2.223978885209637602e-01,-2.922954555177335045e+00,-2.919082712584092576e+00
-4.890443037620958999e-01,-3.220924260890783764e+00,-2.445652255817120757e+00
-1.540075616391347463e-02,4.167764210702433303e+00,-1.593396757065710656e-01
1.899173995106350654e+00,4.678706630380233267e-01,-3.588284019750039189e+00
-3.260410314539361476e-01,4.028855255040826755e+00,-3.013363140730852541e-01
1.776226065449433289e+00,-2.007413967525082832e+00,3.074710938945457883e+00
-2.588353789088729956e-02,8.693919811445416368e-01,-3.995862841410916300e+00
2.046390517344898630e+00,-2.375801776141452049e+00,2.631097518993851914e+00
-1.799188199601993610e+00,3.031376561563286831e+00,-2.161937493519968001e+00
-4.074264112730902276e+00,1.681824770383019696e-01,-1.490719520041522972e-01
-1.420352846608061048e+00,-1.651138580640454601e+00,-3.433186342115349010e+00
3.629268310563997346e+00,2.636422077194851554e-01,1.854474790341055446e+00
1.882807364662075766e+00,-2.797335041588441928e+00,-2.306299166830269698e+00
-1.390888695027179489e+00,-3.603327423605120039e+00,-1.350848804783763013e+00
3.206059852253141162e+00,-1.569169163408651535e+00,-1.990300643075383125e+00
-8.313994960285370217e-01,1.843460852418885798e+00,-3.579748126029358435e+00
-3.521460097989596583e-01,-2.160766465450804752e+00,3.469617851297510214e+00
3.334610553564251845e+00,1.635417143971600540e+00,-1.698603316556752452e+00
2.410232172514842897e-01,6.457016275550524487e-01,4.084277245444686066e+00
-9.092924299546785438e-02,-1.309948154741034099e+00,-3.923974398918724571e+00
1.685281862049949897e+00,-3.104049279206642975e+00,2.107252807279127893e+00
3.525609336649558223e+00,-1.756778515068004864e+00,1.006743373533850905e+00
-1.168033232404970478e+00,-3.296676823883744500e+00,-2.164309525493074204e+00
2.880936511060344873e+00,1.671009879427415079e+00,2.425815454723131204e+00
1.328292622160277547e+00,1.713333580578144666e+00,3.464174223472666458e+00
-2.915399118023963343e+00,9.676803072816763107e-01,2.659613223229956525e+00
3.887149927017381934e+00,1.507382054288294304e-01,1.214370440338596424e+00
1.595058250120847398e-01,-6.394926693815137231e-01,4.113058967577516434e+00
5.553733405335206097e-01,-4.126451971659002571e-01,-4.087909553897309145e+00
1.457745583630482900e+00,5.169418581111383526e-01,-3.833903792239220287e+00
1.393662946083722209e+00,3.579706641963024794e+00,-1.270855387927080749e+00
-9.141181998621769056e-01,2.463686238936686479e+00,-3.198473688274474647e+00
-3.015832278337157835e+00,1.733679864880832255e+00,2.295371740149467321e+00
-3.823080426444155133e+00,4.914373417935397614e-01,1.415125923491857618e+00
-1.127274150665934727e+00,-2.723316257962553166e+00,2.792295152868622399e+00
-1.012682493422527807e+00,-2.628537450156939181e-01,3.972760793703596693e+00
1.373393815849357713e+00,2.741936787664160935e+00,2.794379998154750133e+00
2.526313714022471180e-01,-1.529587056912018184e-01,-4.154930626902259228e+00
-5.824510538838917340e-01,2.904441157551260311e+00,-2.832906348951772291e+00
-3.980254404955120062e+00,9.277842833290794733e-01,6.221740504274280575e-02
-3.544812020315522449e+00,-1.813201943663654614e+00,-8.812262916513284861e-01
9.930082091750385143e-01,-4.336018853451049093e-01,4.019548905744326106e+00
-3.632798762611940013e+00,-1.917642438614050704e+00,3.988612782129231649e-01
-3.391025465421828144e+00,1.838116701501900208e+00,1.425431845710692480e+00
1.562118431599734292e+00,-1.631392284537966697e+00,3.440039322958770018e+00
-3.777184539211325909e+00,8.690596933988964379e-01,-1.463289693964031413e+00
-6.030769678002993739e-02,1.384766412768667188e+00,-3.864826856473550176e+00
-2.530846758210773650e+00,-3.112408499167683917e+00,7.156183427083688819e-01
-6.228092283284366593e-01,4.329918537251149502e-01,-4.024236790394561503e+00
3.572419220180728328e+00,1.774947210236079487e+00,-9.357114395619788860e-01
-1.410709584661624216e+00,2.559464002441622199e+00,2.922249164130925170e+00
-2.707860170159249069e+00,-7.470903997748092884e-01,-2.934365979090628240e+00
1.668683596142254588e+00,1.730473502278811582e+00,3.317809232656775187e+00
-1.973905953666515778e+00,-1.820719364656605110e+00,-3.058112446562295084e+00
3.403724583628238154e+00,1.175948895395839466e+00,1.934614565696376687e+00
1.381127440592259781e+00,-3.872858138893355395e+00,-4.328103059976209366e-01
-3.398605731899507543e+00,-2.295161440084484195e+00,1.902388663811344360e-01
3.105097433890885661e+00,1.513341784017521841e+00,-2.201497140504796057e+00
-2.841132247590601345e+00,4.602957401935471593e-02,-2.919562319141355111e+00
-3.923398470758905354e+00,1.118700466515246239e+00,-3.891984618621984193e-01
-7.740112069228033409e-01,-2.886930252218661508e+00,2.744061170460381671e+00
-1.724873339339391798e+00,3.557546522609453810e+00,-1.159868816016221826e+00
-2.858913707480177369e+00,-2.059239805686814861e+00,-2.213416536437075255e+00
3.777424455426912964e+00,1.107955983684644652e+00,-1.196923328805772568e+00
2.607941961239166329e+00,2.960598774887158946e+00,8.604800675137317389e-01
-3.394567005685992456e+00,1.090188453937451563e+00,-1.900715301216303388e+00
-2.433315570999953881e+00,1.628604036611122519e+00,2.763726489810867548e+00
-6.491800671160106173e-01,-3.890427075146894342e+00,-1.013069289880884183e+00
-2.977462551254830281e+00,-1.029643454768073729e+00,-2.730647643028865090e+00
-3.211674125498112264e+00,-2.396566669433537466e+00,-1.010598718575569599e+00
2.218840977361475453e+00,1.393574431536056535e+00,-3.194989724200803405e+00
4.441819471923624807e-01,-7.505310463014492894e-01,-3.993335092153857069e+00
-2.085761511486133646e+00,-6.323899730046511625e-01,-3.472107867830274142e+00
3.695738261985958673e+00,1.974403249918900816e+00,1.590423439382461224e-01
-1.749427426320176782e+00,9.558286636511318379e-01,-3.635707835022000012e+00
-2.252482432483991825e+00,-1.961226464058841712e+00,2.820527338318580046e+00
3.921720011295051211e+00,-1.145657353053453065e+00,-6.780124271134689851e-01
-2.162426189319217595e+00,-2.303797647687187755e+00,-2.668272973469936193e+00
1.353640249410323237e+00,-3.640403681219267717e+00,-1.274737720517258310e+00
7.061874081111452206e-01,-3.449054071944786526e-01,3.977007810535996946e+00
2.841956008822259960e+00,-1.913816978728997587e+00,2.367300300466989693e+00
1.804167844755483863e+00,-3.477223638405514183e+00,-1.154972127607891696e+00
-4.507648655396990778e-01,3.602909742119577263e+00,-1.915799122861587378e+00
-3.492717329285991212e+00,1.712476704923702631e+00,-1.394859243927619730e+00
1.634109187789544393e+00,-3.003132214116747356e+00,2.172116582507613192e+00
2.590692694224757009e+00,-1.721042705205688916e+00,2.726674140792892942e+00
