-6.909061047563683777e-01,-6.161573223586312986e-01,6.604430836525592152e-01
-3.093190557930913798e-01,-1.098398025253361832e+00,-4.066441101756750054e-02
-6.647507910746639111e-03,7.717051982058251713e-01,8.645704411791440558e-01
-6.144883046828478745e-01,-1.671277765809188118e-02,9.578865822867640434e-01
-2.252674952535991398e-02,-1.046376064607200229e+00,4.667290793930501391e-01
2.652639762447026595e-01,1.115069569374748770e+00,2.527753734699189278e-02
7.731567584849952102e-02,-7.748839303698308312e-01,-7.988358999850682096e-01
-1.276368107915425709e-01,-6.173529298464570658e-01,-9.453792004311173391e-01
1.132161427963659150e+00,1.941963746650658684e-01,-4.907337613175205386e-03
-3.477410914930835206e-01,9.637096810683347670e-01,-4.909699537739999342e-01
-7.220371977797924723e-01,-7.694885919863092560e-01,-4.506241297291515568e-01
-1.068625250214194189e+00,4.457718520733745526e-01,-4.743791994932986672e-02
-3.155912854268590889e-02,1.135801851699443699e+00,1.976111768317813655e-01
-9.067336337817093472e-01,-2.139256001593302925e-01,6.470715496304215719e-01
5.681229640657089464e-01,-7.905587972280142539e-01,-5.853748801817129088e-01
-2.437283187623476011e-01,1.073593303921023923e+00,2.498571239098584529e-01
1.079628829438981752e+00,3.649912558184364442e-01,4.796377825662548333e-02
4.415233984341931373e-01,3.945618511839679710e-02,-1.051262311480901435e+00
-1.885870769013797965e-01,6.658492940298728346e-02,1.117861004315618967e+00
-9.774914411228392552e-01,-2.745941594267777841e-01,-5.873733232817512917e-01
1.078889181592094015e+00,-1.017829486767670433e-01,4.497018801220446504e-01
-2.670373453987210932e-01,-9.939118881677355688e-02,1.104926504950782151e+00
5.625543655945104415e-01,6.234858199156821934e-01,-8.022948217436129958e-01
-5.417871909790806378e-02,-1.143902191945053382e+00,-5.571675630846840283e-02
5.343299003621807680e-02,5.682032392462645909e-01,-1.004151840853529931e+00
8.467331936362524347e-01,1.491895381145836273e-03,-7.824476345020678902e-01
-5.517162842866733113e-02,-3.669022680162799532e-01,-1.078539800130544624e+00
9.473765515267895676e-01,-5.772498496114011335e-01,-3.071455309722331828e-01
-8.390368286227686268e-01,4.649326528245977252e-01,6.293269479626346641e-01
-3.330542510550113522e-01,-6.304152307631784025e-01,-8.973275103483278059e-01
-4.076216974923803082e-01,1.010030593898565421e+00,3.865968644357684059e-01
-1.006634907269811308e+00,4.398560622243970902e-02,-5.093807272184123214e-01
3.426444699182581294e-02,-7.901734668854935029e-01,8.312334183268591525e-01
-4.370340185117206344e-01,1.045477401438458243e+00,-6.180016565401644929e-02
4.200742132799268891e-01,4.817378449533111784e-01,9.570619869599664709e-01
-7.422266351175677013e-01,7.184506329626973997e-01,4.420671456876938410e-01
7.558070864331606353e-01,4.658257898506798500e-01,-6.897647563518841674e-01
-5.650010186283905833e-01,4.443091473831597416e-01,-9.055774005913633795e-01
-1.031110334929460082e-01,7.947075105609340273e-01,-7.980662089628546285e-01
-3.509316918554249987e-01,-8.086412659556987403e-01,-7.299470565348754603e-01
7.037860350476500271e-01,8.953201704345749024e-01,3.928364080527938645e-02
-2.658693056120057796e-01,8.676600365245478175e-01,-6.826434697318579659e-01
-9.713612829006670335e-01,-5.660829997381565670e-01,1.798567077011667403e-01
-3.911864015984457543e-01,-8.061223517682118977e-01,7.217994091233476128e-01
-5.447932195578084613e-01,9.920161369356675918e-01,-2.003758290599633729e-01
8.220997835385241981e-01,-7.888829493113392877e-01,-7.708330633487513531e-03
1.170017811420098891e-01,-1.391401003909722434e-01,-1.159747872381958311e+00
-2.764734827015848939e-01,-7.687994848980950202e-01,-8.089144606124271109e-01
-6.143481284245876084e-02,-9.972851900741150910e-01,5.628358867524315690e-01
6.991805646155612175e-01,8.692466353141777846e-01,2.845468538166278094e-01
-9.182386961087360966e-01,-5.768529447634298535e-01,-3.758559830467781970e-01
-6.559546234964113154e-01,4.361393014996384210e-01,8.491342988665860902e-01
7.288279143768601476e-02,2.925623466658614641e-02,-1.145880463848032882e+00
-3.114400679655019433e-01,-8.035503989264982661e-01,7.489564874828120722e-01
-1.091217569567871415e+00,-3.377569097350200389e-01,2.302706119508074190e-01
2.198206733155427528e-01,-1.002680295035415003e+00,4.730535425869571431e-01
-5.909329619453237425e-01,7.953327515330813613e-01,5.878959258186038372e-01
4.801794667722906196e-01,8.273651004594874125e-01,6.357112025457059001e-01
4.138272502138138353e-01,2.999572777327810802e-02,1.066285202515451447e+00
-4.861949767427177216e-01,-5.313044854848341103e-01,9.205252502943854775e-01
-1.633951387408447420e-01,1.018417423651453158e+00,5.120044755054763419e-01
-3.782817029615477833e-01,4.436938211061696169e-01,-9.973276623424629506e-01
1.907943037695451205e-01,-1.035267969250780462e+00,-4.763811941621300394e-01
9.844901999668443926e-01,4.303561749340265585e-01,4.067570754091972551e-01
-1.212121686900636680e-01,9.177006985928268801e-01,-7.076399846322265486e-01
-1.822691021012760038e-01,-7.956304352896416132e-01,8.037554910638207151e-01
-4.256465637528217827e-01,2.711899771798086389e-01,1.023184124994047872e+00
-1.005891784227372243e+00,-3.430758452660174762e-01,-4.486813911182939707e-01
3.886787993769302840e-01,-8.698671737273063753e-01,-6.053846857712348317e-01
-9.878519026523231439e-01,-5.135011776023657992e-01,2.872691346196335482e-01
5.969949858050715985e-01,7.903857995133517500e-01,-5.611973302689736709e-01
-1.041717930270459336e+00,4.716396812413541362e-01,-5.184505112275554495e-02
7.599555902101406968e-01,6.318303289483829799e-01,-5.786847116298302618e-01
3.808049355699708038e-01,4.433668992031435108e-02,1.068593153185233069e+00
-2.481232148977666752e-01,-4.832332239496709980e-01,1.007261399519728817e+00
3.087207739599266698e-02,2.420412632088533300e-01,1.102040890255290284e+00
-5.203146165141414592e-01,-3.824098198129020076e-01,9.372742347042007927e-01
9.964566966281426241e-01,4.637112993978078634e-01,-3.076750442190290258e-01
-2.953478101329810035e-01,3.801763521337510610e-01,1.026948770018383472e+00
-1.141500152284145475e+00,-1.426234553632921287e-01,1.235187650191553466e-01
-2.201499471739483127e-01,-8.226098213205556009e-01,-7.760010339648134581e-01
5.424464500707195658e-01,5.707421849359974875e-01,-8.361068975863277242e-01
2.581804278785670426e-01,7.439986705438945691e-01,-8.278660913418824929e-01
-1.095629722778529658e+00,1.267807718691913998e-01,-2.860505353749208668e-01
9.011745326618503249e-01,-5.912755607020496740e-01,3.968015360582626272e-01
1.023268420230978748e+00,-8.698484702534980961e-02,-4.971195226347034923e-01
-5.939787225516297148e-02,1.134031443953144480e+00,-1.491619286542304190e-01
-2.747584869604339786e-01,-4.996953009867074469e-01,-1.010735418195199520e+00
-5.312234348676884155e-01,6.984883674556835453e-01,-7.303684647295264343e-01
4.341348872750542265e-01,8.011854356593277604e-01,-7.029813380895136854e-01
6.927361393269023671e-01,4.999606510916004831e-01,-7.750273555287313654e-01
-1.836405917240979679e-01,9.026689159079446245e-01,6.541787841309619767e-01
-6.939348691786858536e-01,-9.176609080097997140e-01,-7.557221450954600128e-02
-3.845737534919610456e-01,8.734991181510111113e-01,-6.008848446318627579e-01
-5.745611591556010200e-01,4.288979195366678099e-02,-1.011281092028915918e+00
-2.709920079015007977e-01,2.210721085523235097e-01,1.095300490575964902e+00
-6.536303631137299064e-01,-6.989828393875719970e-01,-6.411578304916109028e-01
5.005230363576355090e-01,-9.974492865875758119e-01,-3.036845779575482740e-01
1.991038090210285327e-01,8.356643811088231288e-01,-7.456896997631576873e-01
-4.946959135040643329e-01,9.940970420796875207e-01,-2.516626591465799812e-01
1.114574680753482872e+00,3.182347664925255226e-01,-3.895017951659823785e-02
-5.284503724215994236e-01,9.843261275806511890e-01,5.351611512996606174e-03
-9.112385459187557490e-01,-3.560492707954495128e-01,-5.965656991548848875e-01
-4.654854975227584735e-01,-1.001128577167209377e+00,-3.129156144417843399e-01
1.841909689875332809e-02,-4.540131689550782612e-01,-1.069486183670573798e+00
-5.606148485730257924e-01,-7.484614522290592431e-01,6.798488693682298578e-01
4.903710000854636930e-01,8.440445011017559951e-01,-5.816837829765385548e-01
9.094653107560557448e-01,3.820650705191614427e-01,5.925862739148917147e-01
5.591805904242131975e-01,-8.677894416421837454e-01,-5.104525185343026239e-01
5.288675046576579719e-01,2.851699346002088409e-01,-9.753159517494850439e-01
3.624788907694265205e-01,-6.939538227614647781e-01,-8.355103192639801168e-01
6.334239442071695758e-02,-1.003857587348634395e+00,5.444900136807592217e-01
5.166448711930045068e-01,9.231675777505998770e-01,-4.194203219770677449e-01
-1.049554250249666199e+00,2.704064249123074304e-01,-3.823257225307699070e-01
3.677175663897801483e-01,3.757750700984731629e-01,1.014211941365117831e+00
-9.513009494880381167e-01,6.759325532764486333e-01,1.290029004592586626e-01
2.316446234140243088e-01,-1.121879548594796550e+00,1.019715453172250069e-01
-1.097345031234302271e+00,2.950016874924746846e-01,1.670235050694447720e-01
-3.279926638638288455e-02,-9.435619678919877629e-01,6.568198654208937670e-01
-6.328488248690886664e-01,-4.819574179848298834e-01,8.120155029842411887e-01
2.415469519542867427e-01,-1.412534382745414541e-01,1.125378786706441314e+00
-2.120430918585892721e-01,1.023437231701802341e+00,4.330791863730768521e-01
1.314481697937385507e-01,9.380245391223898110e-01,6.066222143198753969e-01
3.147654255832935122e-01,1.057037560742012161e+00,-2.528519307128415106e-01
9.921655774756399371e-01,4.737955410941335765e-01,2.802219178322635229e-01
-5.677221783977857150e-01,7.601323171520047994e-01,-6.385097006766600192e-01
-2.335894881267481515e-01,-9.991023366463755995e-01,5.301742652271863587e-01
-9.383451357053530506e-01,-6.293694022723451686e-01,-2.661696727886854186e-01
-5.361517661334526119e-01,-6.827791271852818866e-01,7.222328681627865343e-01
6.483024682571831843e-01,-8.532927147024922387e-01,4.669682860814204917e-01
1.034729816455735696e+00,-1.060586176342120240e-01,5.082239042982917843e-01
-8.425100649508411310e-01,-2.948258671466984504e-01,7.177970865332368167e-01
1.123691310735252413e+00,-1.495701077061414516e-02,-2.006367791002205136e-01
-6.013574702702988439e-01,-7.462924853106893686e-01,-6.179292295530670609e-01
-2.253381473727760764e-01,-1.987342475694424682e-01,-1.070119401454264985e+00
4.106201215427822682e-01,7.885043922928812454e-02,1.069015796682806663e+00
-1.503528130854504818e-01,8.667934168014488350e-01,7.283743601469228057e-01
-1.117854524935692373e+00,-2.346206544030792970e-02,-2.746194119353614904e-01
7.220752131540354724e-02,2.782638975915849300e-01,1.106182437588675072e+00
4.048129023343171595e-01,-1.056139313184542461e+00,-6.432325734728597255e-02
1.127810188766110583e-01,-3.130916223286940303e-01,-1.106173050415351966e+00
-7.532869855317650964e-01,7.757524002872892011e-01,3.799501828169654649e-01
-6.518393519863395769e-01,5.990385985704325122e-01,7.129534678482720711e-01
3.367941356974939460e-01,-8.992591134137276065e-02,-1.102292895158675679e+00
9.503361040813026461e-01,-5.564809576116981349e-01,3.695584066382970878e-01
1.217569726107712857e-01,1.092203376067060194e+00,-3.367979369952410762e-01
8.205864159522163748e-01,8.060383640366044489e-01,-9.008517038493352169e-02
5.015808138805285532e-01,-9.431786283396953463e-01,-2.877146171044263068e-01
-9.441340075885529259e-02,1.107492033974969203e+00,-3.015727864271554592e-01
6.762489197650998207e-01,-8.574923491989890900e-01,-3.563935092540509997e-01
3.281692585904807391e-01,8.921474138804244003e-01,-6.435159587931669201e-01
-8.530700455277353544e-01,-7.227697424751917676e-01,-2.506820673805759125e-01
1.064072469561412104e+00,-4.218677902418686010e-01,1.306137705408570160e-01
9.472767824982877283e-01,-3.925563891015022566e-01,5.266535293157743602e-01
8.882636076043540219e-02,-3.520558167030345409e-01,-1.079339058674150031e+00
3.028540559073387706e-01,-1.064418482159401380e+00,3.666961825778418671e-01
9.252472049141978461e-02,-1.073673429214226482e+00,3.399012709511987640e-01
-7.598882426298624315e-01,-7.095166721026999745e-01,4.868931055320888102e-01
2.287577326506877728e-01,5.851441518585041857e-02,-1.135632438567214963e+00
-2.530223280446921574e-01,-7.739988674433041504e-01,-7.976264057312173472e-01
-6.425310817319032641e-02,-4.991691110011799437e-01,1.013732208140147195e+00
-1.083024881739151013e+00,2.879971237080426461e-01,1.538807004330081107e-01
-7.348366801280380445e-01,-4.226411531056833426e-01,-7.732679051158511951e-01
5.716967548889072548e-01,9.685650551759741322e-01,-1.723293096953889825e-01
3.984039396528855637e-01,-5.790736895359256398e-01,-8.994347880390304306e-01
-8.070874919542074810e-01,7.574962341795192788e-01,3.427100065783106331e-01
9.806819998678824035e-01,-3.513832295046117049e-01,-5.090775738612464130e-01
-7.902145337574197903e-01,3.770550748746493430e-01,7.467817261917135685e-01
-7.152831900163745260e-01,-7.593441845659026912e-01,4.480280488530070104e-01
2.040679038331739692e-01,5.826379541778851090e-01,9.422047524874945790e-01
3.099322673210189172e-01,3.617845486312152858e-01,1.048331597046659125e+00
-2.397504716753445508e-01,1.031991722366308872e+00,4.573671708841944850e-01
-3.649613362562540431e-01,-1.066692327837636567e+00,-5.078853376421298138e-02
6.561330014941778588e-01,-9.309776062840947608e-01,2.029952551963288832e-01
4.820184222655571338e-01,-1.755580768970751437e-01,1.026557417073354683e+00
-8.759178217517590292e-01,7.539515870941245756e-01,5.178157607596473033e-02
4.463722442374267740e-01,3.180694368969638752e-01,-1.002419713662772605e+00
-8.302034872061087034e-01,7.849524045612402690e-01,-7.117204325288760403e-02
7.151501951889294162e-02,1.142125900342636280e+00,9.729024377995082462e-02
5.569579400243355183e-01,9.743570963563775722e-01,-2.033042978634107545e-01
-1.395686644054051351e-01,4.142122627148402403e-01,1.057971154747916920e+00
5.669761244180645532e-01,-4.073257379680400581e-01,-8.931983769631537395e-01
-9.588590766980553681e-01,4.030064507513695937e-01,4.835409583018128732e-01
1.041328393381064421e+00,5.076453235819651244e-01,9.250803490141330798e-02
-2.699103982562263762e-02,-8.662734285862626615e-01,-7.652446205744847241e-01
-2.014948884655492489e-01,6.223739154337201152e-01,9.315002355610899620e-01
-1.748162966352810044e-01,-1.090406243292007860e+00,-2.873984856712694103e-01
1.117499094413788141e+00,1.344623199974784300e-01,5.952678723996529531e-02
-6.747075637070885090e-01,3.255341592094017633e-01,8.450643860793440876e-01
-4.062845765127159892e-01,-8.789271175864699082e-01,5.990734361925527107e-01
-7.150969437678438290e-01,-8.339329894157124778e-01,3.062894118771203322e-01
-2.932502923975404685e-01,3.366692313346595911e-01,-1.058471982642205100e+00
-1.589272578588274698e-01,3.053191555574458760e-01,1.099298969083361444e+00
1.793232604472559666e-01,3.758674990197947707e-01,-1.056013987901625484e+00
7.143587366042029041e-01,8.425301903640251000e-01,3.140267048344498324e-01
-1.211791253399604751e-01,4.021421776987875729e-01,-1.071182520245644643e+00
-6.682617986927062992e-01,-5.863382949102605712e-01,7.189975572224432954e-01
-5.610539492750453716e-01,3.347285798315939309e-01,9.304196900654213565e-01
1.084327073072451242e+00,2.044743352714132045e-01,3.293172460134967672e-01
1.030429201948994011e+00,3.971019746672198591e-01,-3.170499414456027787e-01
-9.046432441174115935e-01,-7.117963703653216179e-01,-1.457827076855189585e-01
-9.490454980626471526e-01,-2.555361009123848226e-01,-6.041196572310646440e-01
-5.108700839378883113e-03,-3.905810556281935075e-01,1.087678090632206773e+00
2.483239414405491174e-01,1.362756364448940161e-01,-1.100458277281845643e+00
1.121920983928849092e+00,1.367450084449435832e-01,-6.274533421559094770e-02
-6.597128784989966244e-01,-2.940095472621341299e-01,-8.664954797425672428e-01
-4.638714922241538585e-01,9.758495420939241605e-01,4.047502411596748395e-01
-2.384625380906695846e-01,-5.814776181651436504e-01,9.647913727784592774e-01
1.145158131448079208e+00,1.519250384124347548e-02,-3.039487922529467145e-02
-1.072368210246701148e+00,-1.442271880132055262e-01,3.948851126656918176e-01
9.771821303461868391e-01,5.541157622978600816e-01,-2.092537177669941129e-01
1.091740462936769740e+00,-2.904403664441375099e-01,1.653137334958876825e-01
-1.767200368172659741e-01,6.562121989370279795e-01,-9.366361726896291762e-01
1.085322865500955913e+00,-6.900211298796279924e-02,3.363799473199406975e-01
5.517780785461233739e-01,-5.305137251121774256e-01,-8.567990484722903810e-01
-5.908305524884625015e-01,9.900539155614768161e-01,-2.639407847572443691e-02
4.899991443974227034e-01,-9.640984494991129417e-01,3.673141980475280177e-01
-3.347268788986375310e-02,-3.894393700076089759e-01,-1.068720526545922755e+00
3.829815842830225914e-01,-1.028671613302251320e+00,-3.317411278312785705e-01
1.019761576509304740e-01,-1.087634667194140814e+00,3.006664184715799881e-01
3.765609033132273908e-01,-5.990613646889764166e-01,9.053138784714586107e-01
1.099414345704384788e+00,-1.514544695326795753e-01,-3.092008807070912857e-01
-2.359419970044276949e-01,-6.582846460386445608e-01,-8.765700803502873839e-01
1.013588827162999584e+00,4.953058164235337180e-01,2.289598287186224435e-01
-2.890320623164612246e-01,2.867578918356011863e-01,1.077746731582120532e+00
7.048487959508119571e-01,-8.405493732259480266e-01,-3.230218653925607253e-01
1.147027777583768948e-01,-5.050076855854163105e-01,1.038802944525906380e+00
1.104894140458951846e+00,-2.147978995127108881e-01,-1.821993796583927794e-01
7.383136200842770336e-01,6.384399010139708841e-02,8.778946239299332266e-01
6.619411249585021029e-01,5.393454539078187393e-01,7.803643109101828790e-01
5.950433019053462669e-01,-9.729523620875181189e-01,-8.335532027933674482e-02
2.596090353419857055e-01,-2.249294359559073087e-01,-1.070643299110437319e+00
-7.700086473650729069e-01,7.498101472339361306e-01,3.999466584886325893e-01
9.746550641003086657e-01,-4.777168240050318482e-01,-3.443617257579391633e-01
4.794536080650467214e-01,9.510023847169416511e-01,4.199470968846003571e-01
8.118421731025365906e-02,-9.471077123371773876e-02,1.142251880727694457e+00
-5.383748225135637222e-01,5.284772473355698885e-01,8.591406998443468224e-01
-3.872524967488349401e-01,7.377201402798710950e-01,-7.973667605610430531e-01
-2.410677539753852128e-01,1.051564463434947472e+00,4.334241737744561895e-01
-4.320749163207561749e-01,6.017653109054089677e-01,-8.672823736124543048e-01
3.315024276493586108e-01,-1.004424263271039175e+00,-4.925649906840057213e-01
1.683069041253094367e-01,8.809690136247263492e-01,6.752194540922509258e-01
5.630455335322323007e-01,4.906983041323543238e-01,-8.632708311632090181e-01
1.065914346666465340e+00,-2.856301849375428303e-02,3.779305587960152257e-01
-1.138003845931484737e+00,1.075894182796939824e-01,1.496376123117244307e-02
-2.560044588550755007e-01,1.076676825706414320e+00,-2.819135898933936568e-01
8.052117351454243233e-01,-2.705651992865888422e-01,7.612935756999845704e-01
-2.520578315626290644e-01,-5.534832661927949760e-01,-9.603525285406100398e-01
-2.735389077605291930e-01,7.791058586430714694e-01,8.146768002576720846e-01
-5.559199686377499505e-01,7.405170740467750257e-01,-6.465749860202919530e-01
-1.935092764722836645e-01,-1.122452556536465140e+00,2.127445084574393908e-01
-8.245542691834899518e-01,7.471186999859716904e-01,1.811300389379751630e-01
8.541773088093652655e-01,8.046430641384068327e-02,-7.827199545204345243e-01
-5.666145400949730293e-01,-5.804234799491234803e-02,9.978978294668038318e-01
8.831812049300408196e-02,3.261958056236822778e-01,-1.087329100784063307e+00
1.138915404523137775e+00,2.611762318628020330e-01,-1.106498998395098327e-01
3.856688410714954052e-01,-6.362525464619027682e-01,8.710243242539147390e-01
-7.548211214575432093e-01,-1.655947029495563605e-01,8.583071047298537204e-01
-2.637052662035017092e-01,-8.824757787700722167e-01,6.666172376297754276e-01
4.262864930116309070e-01,2.673693074043538842e-01,-1.014461605806252553e+00
-4.038455154036831307e-01,-2.998781529231929754e-01,-1.019634516620466336e+00
-3.634710183233336722e-01,9.127853373978371820e-01,5.854305072014254208e-01
-2.927317548506798150e-01,-5.629515990351032784e-01,-9.496506302562032209e-01
-8.267980311892267897e-01,-1.168573026425463735e-01,-8.044482565271591223e-01
1.068626927268788274e+00,-3.856925637521881889e-01,8.371298922009369481e-02
1.857529819740416921e-01,-3.080586162645968518e-01,-1.074470714851849307e+00
6.200648249343666540e-01,8.526056999640225786e-01,-4.154295479991654272e-01
2.151411055369708558e-01,2.866296935912050481e-01,1.085063421241637460e+00
-2.690070397380802669e-01,7.876149051708655202e-01,8.026523793314854771e-01
8.879699797049583898e-02,-8.385008223346800040e-04,1.175753681934219586e+00
-8.583866150561008102e-01,4.918997698158582565e-01,6.043114364915452841e-01
1.780231562614005281e-01,-2.866509862808800935e-01,-1.092516550318924029e+00
2.908025783820684662e-01,-5.809823600492622919e-01,-9.775091192426628162e-01
3.258794303127987013e-01,1.129357721501504042e+00,4.978441194851898621e-03
1.019285828846110409e+00,-4.581801657946659168e-01,2.775791104093205952e-01
-1.768753164678889267e-01,-4.008003702864658124e-01,-1.048131336617011522e+00
-2.935988006280606522e-01,-6.977520695417989138e-01,-8.656820913197519340e-01
-1.122212215926762902e+00,-1.001807248097661973e-01,-1.766569036554173078e-01
-2.399196307521340443e-01,1.032017161220359469e+00,4.066104041764050381e-01
7.676534402175769767e-01,-8.162544914076599323e-01,-2.078965027819691946e-01
4.117838732837614812e-01,-1.061897837159254454e+00,1.816360580958121251e-01
-3.710873432373749670e-01,6.230090479057281971e-02,1.088928041363318444e+00
6.080068778468910029e-01,2.227834019834940282e-01,-9.512038350998042180e-01
1.143462406998515091e+00,1.044760010487985891e-01,1.497907844388411958e-01
8.101540442972652301e-01,5.970692572677837040e-01,5.330311853191742610e-01
-5.252203271539553908e-01,-7.907509402319022884e-01,-6.272984337607976357e-01
-2.745289813315824889e-01,1.120046494096284873e+00,-8.760673760622318673e-02
-5.920306886213919789e-02,1.406292314153782252e-01,1.147906918769792561e+00
4.621138034116195059e-01,8.948515054094514642e-01,5.399017569551730622e-01
7.673098483789854152e-01,3.698451891175761341e-01,-7.818552585940091726e-01
3.898958858444079301e-01,-7.738445972158265462e-01,-7.496371933739226501e-01
-4.151387973045869151e-01,-1.065133447962827384e+00,1.529720193949120621e-01
3.994413584651015925e-01,-6.540953536305719185e-01,-8.595197620191824539e-01
3.708540528464545072e-01,-1.069335475489024301e+00,2.539197122210731239e-01
-5.838669318292015742e-01,-1.452533647525258431e-01,-9.586592373023588021e-01
-9.902120660357797144e-01,5.564527899821847950e-02,5.529033814583338424e-01
-8.589373750419948550e-01,-7.464528299122040744e-01,-9.340832831732595598e-02
-2.451283990955275410e-02,-1.155054455403045965e+00,3.352141518969333628e-02
-3.098987776439122155e-01,9.007425843489614836e-01,6.348092613803612005e-01
-7.796795362428595721e-01,8.286231714225549272e-01,6.783560999351689880e-02
7.518642142795350924e-01,-8.721013555158635411e-01,8.608480738970459428e-03
2.851694021291526493e-01,1.098660597753762014e+00,-1.939146055519452849e-01
-1.407437795298954741e-01,7.568452624620914948e-01,-8.526417686786437189e-01
-7.809797739281622020e-01,-2.611658430992401803e-01,-7.986945683944612906e-01
9.559176784409869621e-01,-2.145709235930661277e-02,6.199600577087768238e-01
9.613738805013674060e-01,-6.397708115848352861e-01,-7.215767412413641446e-02
-3.996152992786022318e-01,8.840934259413392171e-01,6.302874236991822254e-01
1.122157641592466254e-01,-6.177332088037456037e-01,9.765238473088054816e-01
1.158968039430360308e-01,1.146538746664808928e+00,-7.772114130525829834e-02
8.593740282914189565e-01,-4.675161625733352255e-01,6.367325844104961829e-01
7.161608154100285173e-01,6.023554784417420871e-01,6.802505155419793503e-01
1.355481158067423086e-01,-3.725092297720702939e-01,1.092302907186660565e+00
3.525426723318210165e-01,2.328621511118785219e-03,-1.089883984799361771e+00
-6.363971233308239883e-01,8.729745173225427202e-01,-3.758142655309179569e-01
-3.357577377625701187e-01,3.070185354325244975e-01,-1.066615052754133153e+00
1.000503539158524635e+00,2.921604437227372508e-01,-5.230706905169735244e-01
6.766604639323738069e-02,-1.027697050043634208e+00,4.928303153609643328e-01
-8.727185940144902565e-01,5.071885787953048785e-01,-5.596710731573165676e-01
7.699400844535415622e-01,-3.569804353000968211e-01,7.483783348703475502e-01
2.719074332928472781e-01,1.093506934036845957e+00,-2.442087165846661967e-01
5.894446845160590254e-01,9.742741753159750440e-01,1.995583992604196555e-01
-8.754472430224634616e-01,-7.074657537605365532e-01,-2.279701581078101003e-01
-8.795629361989169004e-01,-5.311583345949149049e-01,-5.470190401927746970e-01
2.475615161603144376e-01,-7.096083115087331583e-02,-1.124950609018108061e+00
6.460890958188419964e-02,-2.853993274446460227e-01,1.116992977087631900e+00
2.990337311022006617e-01,-6.939020402367519491e-01,8.560805477814306119e-01
1.141679979027644842e+00,-1.692537434728871026e-01,1.611616363749842074e-01
-4.462150842256972783e-01,3.941752661158902105e-01,-9.922414656176639092e-01
-4.755891265381542721e-01,-9.439793302366815408e-02,-1.046512072019905926e+00
-1.870671773935049520e-01,1.109445921211634767e+00,-5.537306256118754155e-02
2.803502576652687206e-01,3.850281039696331065e-01,1.044311588176766392e+00
-5.220687133743843189e-01,-6.548054203761182190e-01,-7.945159054117173492e-01
-8.000584273556661241e-01,-6.421809020879774010e-01,-5.228013722049424938e-01
1.419909583092631433e-01,-1.112904407055814060e+00,2.095601131648426318e-01
6.015157067023004789e-01,-5.410626321859748344e-01,-7.864370433850683684e-01
-1.211528739518361458e-01,1.047334131585841321e+00,-4.396436365876099095e-01
-9.040335966113289823e-01,6.639569310732886809e-01,9.493978859836783857e-02
-5.691148440553848997e-02,-2.980801630637812116e-01,1.088847379736322729e+00
7.001237743784405332e-01,1.199230448842482089e-01,8.940086488511751472e-01
-1.091789963489124604e+00,2.309889133079991996e-01,-2.174140005809461207e-01
-8.073933076045718416e-01,-4.973099455807266089e-01,-6.150919831209713529e-01
8.072566661444694480e-01,-3.161010149236598843e-01,7.218492774867402151e-01
-4.104034135970895947e-01,-2.485431941977644596e-02,1.064974136034588348e+00
-7.209956403927147983e-01,-5.945200486640039861e-01,-6.644161849577712164e-01
5.041679497195088455e-01,-5.984573072012987494e-01,8.292094537144307775e-01
3.415379184821850655e-01,-1.004415606548791473e+00,4.655989494369712212e-01
2.577779185552581120e-01,9.711188162283475034e-01,-5.356342049651212633e-01
2.485259838890729045e-01,7.162831878987375722e-01,-8.723144997693017544e-01
1.648499334494607504e-01,-1.119381761068703351e+00,-3.555201036443186302e-01
2.471441361552834670e-01,-1.047808882879116110e+00,-4.113628905057316598e-01
-4.810526264949737535e-02,7.616580491830478028e-01,8.814170689969277328e-01
4.179641129750054640e-01,-6.624204193378891992e-01,8.422246993032609375e-01
-6.702014612848646857e-01,4.080065945530056970e-01,-8.573240330236308049e-01
4.082756025525545174e-01,-1.033506107225907078e+00,-2.212681785868968187e-01
-1.265832324867770253e-01,-5.126590310866697697e-01,1.002409178150519775e+00
-6.217565548405652454e-01,-2.729487324222760747e-01,9.137543816273164810e-01
-6.332987511302076156e-01,7.884056479113128457e-01,-5.460056551734677743e-01
1.875409830874567585e-01,-7.039657866657864638e-01,8.827628040335859794e-01
1.093031189573958395e+00,2.805248525367813883e-01,2.301092082085322565e-01
8.280341274937470519e-01,7.962748418872023226e-01,-7.184700825590185913e-02
-4.176664215256483681e-01,-8.198613444156385155e-01,-6.900188298004029663e-01
3.000638577162484388e-01,-1.101133700700676732e+00,2.347101686981370172e-01
2.844746146855680613e-01,3.207349301751578619e-01,1.052569161615335647e+00
8.356540027234262702e-01,4.226523914262546588e-01,-6.619309430570122776e-01
1.777211466194027201e-01,-1.094803329883385246e+00,2.311766196542005269e-01
-3.167259426240694870e-02,9.912426589115135300e-01,-5.749313411162988441e-01
1.058917005910851916e+00,-1.754467003311228346e-01,3.940075953732248282e-01
-3.173035235878055027e-01,-7.950223634120445748e-01,7.778222606490881041e-01
2.722490522924604917e-01,9.546776171901184549e-01,6.083742750395210175e-01
-1.007113464382717982e+00,2.059849377848937124e-01,4.803929674395729932e-01
-1.009682580800105312e+00,-3.967941719425987501e-01,3.893667246629939349e-01
6.890107399793716780e-01,-8.880657809501947553e-02,-8.981217012448637904e-01
-7.725417004153579681e-01,4.623498076102438431e-02,8.240955927672941606e-01
7.131057372002664874e-01,9.131079805469380362e-02,8.909149912920334424e-01
8.111029649597945035e-01,-6.206231517948687104e-01,4.951041741960656717e-01
4.411908302376610913e-01,-1.068900794180225988e+00,1.779176583985596916e-01
-8.648280115688220526e-01,-7.885941257065207100e-02,-7.570281930992566188e-01
1.069891039419008649e+00,4.029106225350231330e-01,2.235141810331771062e-01
-1.041860774647845433e+00,3.640321551384321785e-01,2.256040879612148109e-01
8.765965243642825921e-01,4.171948741976300168e-01,6.248217625120581209e-01
-7.200031503031745217e-02,9.564907126542955274e-01,6.130144571873084036e-01
4.010013715124483014e-02,-2.142024445006827649e-01,-1.124500158282390361e+00
-3.475572837629913314e-01,-1.040100978826282496e+00,-3.150436057326022055e-01
7.810753803335663825e-01,3.758087822236932940e-01,7.314105449607636311e-01
1.001955975306053181e+00,-5.386646134204343683e-01,-6.277218425494160078e-03
-8.148543115354944799e-01,4.709427751058162248e-01,6.534504010943862351e-01
7.783883550060345380e-01,5.375127027652596423e-01,6.208348920449100472e-01
-1.120307783920506894e+00,1.201211650997226904e-01,-2.684433107870006774e-01
-5.075545357238834265e-01,-7.977663244492048111e-01,-6.463246591942437558e-01
-8.887920892458722744e-02,4.343113167137631070e-01,1.067881511805040207e+00
-5.798401464062215016e-01,9.931483831830184572e-01,-4.269524968131421794e-02
-3.460160893259862647e-01,1.015527419365034323e+00,4.408127293891848653e-01
-4.715592671820637571e-01,-7.866548761518542543e-01,-7.068414799247411118e-01
-2.965075721995777402e-01,-3.500388222067107868e-01,1.067958275196649209e+00
-7.684638118318322109e-01,-7.125543386450272632e-01,-4.915839275105847173e-01
6.448836661830860129e-01,-8.852922074512661332e-01,2.895055105941857776e-01
-9.306686444790503998e-01,-4.140873408910670794e-01,-5.573677189231235340e-01
4.076450499945541428e-01,1.079346804416713379e+00,-1.738651733459700977e-01
-4.908555291870529413e-01,-1.024986983673696228e+00,7.986052761882767026e-02
-7.585712532577574274e-01,-1.260486787816605392e-01,-8.541809745912372076e-01
-5.397996197357755044e-01,3.454195968561954433e-01,9.603675242125371270e-01
-1.139424694326026666e+00,-2.003675479827440042e-01,-1.090456031743738258e-01
-6.813657431994870617e-01,7.928354039255721686e-01,-4.059391763958462018e-01
3.159588040613663940e-01,-4.702347878219353405e-01,-1.002886035683785870e+00
5.874272863216779550e-01,-3.140932016356087070e-02,1.007330834723883628e+00
3.723513676187746868e-01,-1.051221930836803153e+00,2.308387397687048648e-01
8.628889406005306462e-02,-9.547323315874128857e-01,-6.267098284780638906e-01
-9.764720331389501462e-01,2.286795854611446688e-01,-5.603305990042000140e-01
1.539408974833068877e-01,8.724510567370226122e-01,7.222378410305416718e-01
-7.479535550278195721e-01,-6.910230325154504971e-01,-5.514788609835639122e-01
-6.837670566389468796e-01,2.372163021373153435e-01,8.965644606737034339e-01
-1.054079302132977514e+00,-3.936975703490501743e-01,-5.245167585744101024e-02
6.446993638651807856e-01,-8.274066299037564631e-01,-4.544435910314054694e-01
-1.042409931094563591e+00,-6.146691202597560216e-02,4.689182453204688850e-01
-7.113708217491283847e-02,-1.121753010629796377e+00,2.915605753702625869e-01
-1.115438881454129616e+00,-2.120526473635510889e-01,-6.314192024705467254e-02
-1.059985918704026586e+00,3.996688256585903543e-01,1.792678535408552820e-01
-1.146156628326431504e+00,-3.545453488427964539e-02,-5.024824709063446630e-03
-1.058512610264173759e+00,2.089812149050483125e-01,3.980963722378302316e-01
5.756316108429133660e-01,8.801684354212476746e-01,4.068647313195067894e-01
2.701190119706831094e-01,8.230478121596235264e-01,7.476684220633513789e-01
3.543238151647866707e-01,6.943627279399321450e-01,8.536802901642427388e-01
-2.376977894988616460e-02,-4.572468513840270976e-01,1.045544384261789528e+00
6.952720744180984624e-01,6.841993226245769444e-01,-5.907097963440478550e-01
-5.688509705925858251e-01,-7.345525845778918539e-01,-6.609819812669164296e-01
-6.266800123401029543e-01,-8.942340698961394052e-01,-3.120842024521262026e-01
3.873073074567106033e-01,8.774182140553503650e-01,6.066417169248446983e-01
8.044695745569970802e-01,-1.605089185662752493e-01,-8.017769584725995546e-01
7.876189599705631927e-01,5.072792838407493843e-01,6.660129333583413302e-01
-8.594509551976733386e-01,-6.971003526741577083e-01,-3.294427854323091487e-01
-1.218710370409633037e-01,-6.231264769084537969e-02,-1.152513692927040534e+00
1.913900888059259786e-01,-1.080796034200314448e+00,-2.918051764265361947e-01
2.714775399375661258e-01,-7.725486654467079717e-01,8.160686691800328463e-01
-4.815505647103741627e-01,9.979847941239725628e-01,-3.152788999509685275e-01
7.423639609713992282e-01,6.708560319960482632e-01,5.561761831755364094e-01
-1.015451048320714644e+00,5.471153069151755144e-01,-4.503029779689616402e-02
-7.464873129152215236e-01,3.942028103585532017e-01,7.853893439284115319e-01
9.228444600275647058e-01,6.583197939237398488e-01,1.323969146048468992e-01
-1.287355247056768126e-01,1.002868597235479609e+00,-5.246419702072017133e-01
-2.938064298639918026e-01,-4.645577333725000591e-01,-9.996358941148806299e-01
9.479529345708742616e-01,4.790441575651905870e-01,-4.324308713845212426e-01
1.064744530005862916e-01,-2.820878384059044008e-01,-1.105729226661217757e+00
2.072684048488184771e-01,9.961635132482208332e-01,5.058629861281946916e-01
-3.304465070097255958e-02,1.967183288337989999e-01,-1.127396434691762428e+00
-6.381514254010769438e-01,2.080954845831932687e-01,-9.329164949016335306e-01
-2.023365147200326397e-01,-4.797982904983352226e-01,-1.014684816713720350e+00
5.978764364180823021e-01,2.840359299295018292e-01,9.594473238477001509e-01
-1.160734981260706622e+00,-1.653314864009450824e-01,5.306677784865141551e-02
-9.863533231540676238e-02,1.109180029281505053e+00,3.286109308843498944e-01
-2.942994215957732140e-01,-3.126774002794876495e-01,1.065223334135603661e+00
-3.569724702469156963e-01,8.535834041248477888e-01,-6.966827195892715263e-01
-5.139546737701983226e-02,3.106307606380843134e-01,-1.100538980141058998e+00
-9.959927159715121769e-01,-4.306358883973457896e-01,-4.029414695422223192e-01
-6.301506746360807654e-01,-8.148202658763877837e-01,5.441453023121251009e-01
-5.891536301679486248e-03,3.070466010419087843e-01,1.102510879923493059e+00
4.808594687879575447e-01,9.994088763167012779e-01,3.162618013548243456e-01
-5.501764525327687561e-02,1.051428358077072467e+00,-4.610133544055405319e-01
-7.711704628035794817e-01,2.591789539098606210e-01,-8.066250865851829488e-01
4.660546184824161942e-01,1.021327553283968292e+00,-2.826262715574278175e-02
4.359004942607681010e-01,1.018604510656575757e+00,2.500759900731621133e-01
1.078644306990667046e+00,2.302134885244075113e-01,2.852089620048056662e-01
8.161432164154776014e-01,-7.355210648960880393e-01,-2.647983361343604347e-01
-9.531102241507437567e-01,-3.730609592736527924e-01,5.337374128797672812e-01
2.109904030980135070e-02,1.125152086496549186e+00,-1.093477716859679039e-01
5.164542688707971507e-01,9.647482918350298586e-01,-2.941403822355795339e-01
8.581210332026338872e-01,7.733027693168351702e-01,4.457481237555383641e-02
1.113606337448294070e+00,-2.814975373469326136e-01,-1.094547117714066153e-01
-8.681015737326876203e-02,-3.149597203807799617e-01,1.091648676645933236e+00
-5.187207015545023392e-01,9.787762340216461521e-01,-2.652278844110412814e-01
5.250260611362644880e-01,-8.991434348365724416e-01,-4.764480164114470728e-01
-1.100520550188115232e+00,-3.215105427666325455e-01,-2.295906102044106278e-01
8.597603943426267437e-01,-2.929221038790876808e-01,7.139851690727592182e-01
-8.287672463167240489e-01,-1.674192461725879377e-01,8.007909244564846984e-01
-2.915011283085324756e-01,-1.067654288403568241e+00,2.674224637225542933e-01
-7.901416342900723366e-01,-6.807205971981882264e-01,4.971566247863430932e-01
4.386769490720119347e-01,-5.727457039733302446e-01,-8.754752377941799057e-01
7.807718387669270177e-01,8.417660782009144249e-01,-8.445013168931299330e-02
7.259318415588950080e-01,-7.047480442505080767e-01,-5.260624146393199085e-01
1.704442039120331320e-01,9.609445459588555893e-01,-6.118392086235416860e-01
6.103666816823521968e-01,-7.666933093211575345e-01,6.086002330080119149e-01
2.531503130086879549e-01,2.230267058729603624e-01,-1.116215252171630867e+00
-9.497270152291519274e-01,2.786385360453569326e-01,5.921059480632938632e-01
6.055982599301981129e-01,9.558213465180680490e-01,1.526711760103049154e-01
-8.494619284503325263e-01,-3.845837520485623218e-01,-6.821437810075023922e-01
5.364451640683528533e-01,-1.001173050262740949e+00,7.337768178951811771e-02
3.170714780184580861e-01,-9.292397825918842225e-01,-5.874706551573088964e-01
-1.015639626002621032e+00,4.481271880362286408e-01,-2.676614062318675158e-01
-4.151341112810477130e-01,-1.053207612411134475e+00,-1.804532584680559881e-01
5.110275575159189954e-01,4.972903763570603597e-01,8.971411605017027835e-01
6.218881861787277643e-01,6.634146951771187073e-01,7.174242220772620859e-01
5.536134391995674031e-01,1.795967236051981553e-01,9.835890421014423790e-01
-1.116661828771089215e+00,-1.906048489214503816e-01,6.676381380882904972e-04
5.060435958919553556e-01,9.234726459377885499e-01,-4.923719940263281969e-01
6.046909541386336073e-01,-2.273868779435906096e-01,9.407661527135300350e-01
-1.190065844958940466e-01,1.042795365629170634e+00,4.426380018383759274e-01
9.884432219098984174e-01,9.767531586517644304e-02,-5.980869508753570152e-01
2.342002143142945803e-01,1.002886733023596433e+00,-5.000772226002010434e-01
1.067458511264724352e+00,-3.717235259214341503e-01,-1.975081170964844424e-01
-1.836805836146798432e-01,1.112358187869138121e-01,-1.107297183744889058e+00
4.262359473608905436e-01,-4.871820972574996689e-01,9.511161523192511735e-01
