-4.384332803049721505e+00,5.807400363789185782e+00,-6.235665353897898555e+00
8.725638928640415681e-01,-1.234598168231440640e+00,9.374671816747808251e+00
9.283592088131033648e+00,-1.561878833131201239e+00,-2.489611005807814970e-01
-6.527361866607377827e+00,-6.885860888897036070e+00,-6.659835396065084678e-01
2.124387977875389077e-01,9.438768293243084528e+00,-5.517519211949969971e-02
-8.278264720063233995e+00,1.691065475889898861e+00,-4.744992388700199015e+00
3.865536438333652569e+00,-8.089323754692383517e+00,-3.158808991579505676e+00
-4.609371183935923710e+00,7.636329983156480594e+00,-3.448517889595343888e+00
-5.798546613950568585e+00,-3.066067877570722300e-01,7.536902684382878803e+00
-8.603124157503716063e+00,4.069389271845961886e+00,-2.575835261519515140e-01
7.830270289285929053e+00,-1.992563090379960267e+00,4.783181314785116989e+00
-5.036830885105910482e+00,-5.248231660898834861e+00,-6.183186149637313278e+00
-1.055668457741955502e+00,9.342276269049715864e+00,1.287826743827058529e+00
7.562074134337907871e+00,-3.322345613770724349e+00,4.817010401935821307e+00
-8.685535645756083056e+00,-7.760262761919385355e-01,-3.704473585497954691e+00
5.989255823314629801e+00,-2.838562051258537444e+00,6.810397105966075948e+00
6.049762823280221191e+00,2.187502706343880998e+00,6.875155381696258061e+00
6.452572849450065817e+00,-5.658193603242272829e+00,-4.274794831405947626e+00
3.758271961860064181e+00,7.111102863508506289e+00,5.434419907056926569e+00
6.752000550535177226e+00,-4.454464037532260612e+00,4.871287114177005328e+00
-4.286040356353577607e+00,8.625383519409898780e-02,-8.630685454936854129e+00
9.442777445175012829e+00,1.037089492543314811e-01,1.617269772748928469e+00
-6.223559262144524595e+00,-2.195820141285386995e-01,-7.212506416896231620e+00
-1.296400548347414361e+00,9.446777376078319577e+00,3.901868444868877850e-01
-9.376318577286278655e-02,8.200197740935953661e+00,5.003961123189985649e+00
-7.370169807805807771e+00,5.250493538753943312e+00,3.292898380878099385e+00
-4.208019494227626112e+00,5.126707702311482429e+00,-6.730031258507160885e+00
-9.120681014209040427e+00,1.821352385653053796e+00,3.229618733220021021e+00
5.817003252057530105e+00,2.141709859140866978e+00,7.248895679827039196e+00
1.834821223392467004e+00,8.896121179002262735e+00,-2.850173964477434652e+00
4.746056912905359582e+00,-1.389685963976322380e+00,-8.280615207927674248e+00
-6.426264036232508525e-01,-5.952758792386879882e+00,7.384406902510554538e+00
-5.835068363244395151e+00,-3.576589841962383165e+00,6.581023316336466422e+00
-8.502707871420263075e+00,1.936811758515111004e+00,-3.638324591001820263e+00
-6.371467584222644476e+00,5.693159389862476161e+00,-4.561549239462205918e+00
-4.741430789461649198e+00,7.776366093498785048e+00,-2.990670354090357641e+00
-2.183545971449452949e+00,6.881940059745447869e+00,6.048801716823784425e+00
-4.546435694160166463e+00,-8.137518166078180570e+00,-2.163664695677399052e+00
9.016865344375700531e+00,-2.530695666296394641e+00,-1.435405052701378636e+00
8.164845010132028014e-01,1.841077446997575695e+00,9.265424269189608708e+00
-4.453985059588741358e+00,-1.208972664502227845e+00,8.426604742764409295e+00
5.511212814585194408e+00,7.380440197200075492e-01,7.669316201762087282e+00
-5.482656709821073449e+00,-2.831128671982594103e+00,7.135570657365090774e+00
-2.345826508314879266e+00,-4.920932741654463705e+00,-7.868021791524624220e+00
-8.757364131482358260e+00,-3.104051813344880228e-01,3.966917245288673399e+00
-7.646457115085102174e+00,2.652678256912190946e+00,4.849938436446787904e+00
-1.703390876834588730e-01,-6.406437444424527783e+00,-6.951674276820446252e+00
-9.371685923565618026e+00,7.331571097764267853e-01,1.274520702421885865e+00
6.180671121810105362e+00,6.947948861484392502e+00,2.151307050752550853e-01
7.716334256119166568e+00,-5.806858709520244410e+00,3.406716889812327898e-02
-1.111822954820591347e+00,5.993476221375639845e+00,7.329548857986424970e+00
9.138483780720001448e+00,-1.056370317879182924e-01,2.384532799908147371e+00
8.672873742898797866e-01,-9.512152447151443369e+00,1.208438983780594667e+00
-3.165429656216379506e+00,7.616543277814699309e+00,4.440456952933854673e+00
-6.041796734213085607e+00,6.230659701315788723e+00,3.711498278622614500e+00
4.485490066097013617e+00,2.082342718349706523e+00,-7.997781161537781180e+00
-2.766615036526070881e+00,4.714711500877251105e+00,-7.786311814169942558e+00
6.106090713162820371e+00,1.146991772017124517e-01,7.020377978881755965e+00
-3.654970269775385194e+00,8.649026612253789992e+00,-5.457828387200492903e-01
-2.013982392999783766e+00,-6.695477285165740700e-01,-9.268392137390602414e+00
-7.457127740287478268e+00,-1.436997815982957283e+00,5.738096624379299904e+00
7.815611711753575719e+00,-4.890223860757208385e+00,1.759204361931572258e+00
3.184787788756080040e+00,-8.110209149656553151e+00,4.040192810716176197e+00
-5.016676437061165394e+00,1.270940645757365317e+00,-7.644853769348148198e+00
4.972004318899208464e+00,7.910410870366935576e+00,6.752674230634595487e-01
7.846210981012296415e+00,-4.925772767505727678e+00,-2.354566418422344487e+00
4.994080663992429336e+00,2.218134035874124610e+00,-7.673205900943988134e+00
6.131905763497374373e+00,-7.306391565004641819e-01,7.075297604990500311e+00
4.009982953976118480e+00,4.372240681284085717e+00,-7.528143116783176936e+00
1.680843279802508361e+00,8.631797074825938054e+00,-3.394984572265955514e+00
-6.287576776029627723e+00,6.691534764015766079e+00,2.389583427934887538e+00
-3.036577384842874316e+00,5.957908648412901798e+00,7.072047905098925114e+00
-8.555635014620653678e+00,3.578579571305457119e+00,1.621316905081652937e+00
9.322688046391466088e+00,2.726739033413910995e+00,-3.008286413316859087e-01
7.716183360629819354e+00,-3.870987029778107047e+00,4.054948729023608145e+00
4.549620430726013964e+00,1.699566796021046322e+00,8.205696477028265434e+00
8.782402101064832323e+00,-5.458484452957421684e-01,-3.410300980573512941e+00
5.817123403051840391e+00,5.404446808560875226e+00,4.869839484912246164e+00
7.340289613449435535e+00,-2.313903100627098919e+00,5.671986368435319115e+00
5.752833361384615429e+00,7.600170774252360317e+00,1.159361799371674551e-01
5.732830418804727657e+00,-1.470580396347866081e+00,-7.412037145655507864e+00
-8.422518777150017399e+00,-4.163607847139608964e+00,-1.926190704591513425e+00
-7.568379370264013417e+00,1.800768382816832158e+00,5.413803820696426072e+00
-6.800693461299143205e-01,5.420360543108986739e+00,7.819834962607803419e+00
6.036725051860893032e+00,7.508007071687838874e+00,2.326897382909995649e-01
6.480265077047866029e+00,6.712139374936158198e+00,2.480988718875919652e+00
-2.567927771076203403e+00,-4.408153206139999725e+00,7.971553641419720115e+00
-2.915395757264854115e+00,5.081350021212713841e+00,-7.430691879731522675e+00
-2.182917719193340655e+00,9.020606925774380613e+00,-4.553233876830798943e-01
5.787558838626069679e+00,8.023736898119457894e-01,7.215264202926157111e+00
-1.544743930473081894e+00,-8.118679358110142630e+00,4.832213303144206940e+00
8.452750530251655903e+00,-8.928111724222813628e-01,-4.334502883341464496e+00
-8.844398842938382188e+00,-9.621371313883054777e-01,3.491878224561327571e+00
4.097208454793305199e-01,9.454539063816518762e+00,8.865292318662035265e-02
-2.172363614021934008e+00,-8.803611549938270997e+00,-2.886528927965587688e+00
3.621143118407959882e+00,-1.123440732676776577e+00,8.654190294940944383e+00
-7.915305042963185045e+00,1.750808468242825544e+00,-5.016531720531311578e+00
-4.035363818798932911e+00,-5.182013419255777187e+00,6.774751859580265823e+00
4.489369422266856091e+00,4.780179384636156215e+00,6.820650202164120657e+00
-1.425379063000372648e+00,7.999073651649891481e+00,5.196159166098075488e+00
1.550407155437437901e+00,-4.884610949984581119e+00,8.111925097167459242e+00
5.482462580393819174e+00,-6.009882007655783731e+00,-4.857352696798563407e+00
-3.286672368118113585e+00,-5.292476812102711037e+00,-7.116227003315368727e+00
-1.448211241200583199e+00,-4.214424181438478634e+00,-8.342926154546436379e+00
5.615410396885096134e+00,-3.881734828943020243e+00,-6.615789596573660170e+00
6.626078221174535265e+00,-4.610104779653291907e+00,-4.934799740377346033e+00
-1.861766162647195133e-01,-7.029693789679306581e-01,9.493753813184191870e+00
-6.860917490915391381e-01,-8.815772889101809895e+00,-3.116968597899215432e+00
8.531405420563723752e+00,3.981025433321581986e+00,-2.876931316822873286e-01
-5.932235014052690936e+00,7.243845289794351494e+00,1.344998355649043575e-01
-1.074641397348155447e+00,-3.839494444410058716e+00,8.676013330811180424e+00
2.293860455564613043e-01,9.959851216118917883e-01,9.429917934276998537e+00
7.925810573305273721e+00,-5.082474042084734300e+00,1.415711521115923910e+00
-9.322364327576078580e+00,1.828704397454067598e-01,1.570872147200666591e+00
3.750911511914162499e+00,4.707776945528337365e+00,-7.396120119649333802e+00
8.760165282219610106e+00,-2.685655275389416285e+00,-1.975097123896351503e+00
-2.165370894918430711e+00,-6.483353898969059337e+00,6.661562884740957813e+00
1.869327665098922120e+00,9.293513399062796054e+00,-1.260490094353627910e+00
2.466955532216585922e-01,2.812483181200835070e+00,-9.094893195609133230e+00
5.095205330900348883e+00,-7.738643934743977049e+00,-2.403682436525177213e+00
-3.951174408405083049e+00,4.953315110788301112e+00,-6.904363544496925797e+00
1.179143545044794461e+00,-8.588927003135006899e+00,4.215506071755489970e+00
-5.492162134027033460e+00,-2.092185975698393818e+00,7.534137783945236144e+00
1.593011406986385436e+00,9.172677054312696754e+00,2.505836267847659227e-01
-7.428095933722649313e+00,4.235721329773538990e+00,3.851762304786373825e+00
-8.545520027399085450e+00,-1.941984256971132083e+00,-3.756128117493200858e+00
8.266031319145724865e+00,-2.507899075193710470e+00,-3.667043423222714260e+00
-3.662766495400521904e+00,5.775627376563972071e-01,-8.692592747968157951e+00
-8.939168900164812470e+00,2.927513261653725163e+00,-4.549548497181246098e-01
5.263721853952320728e+00,-7.817624452968916060e+00,-2.661844631063437494e-01
7.254255246563785064e+00,-5.711796709485756018e+00,-2.269591456967768206e+00
-1.274680327742613306e+00,9.029405050876313510e+00,3.074997586794752102e+00
7.407017100267070830e+00,-2.414834748159674138e+00,5.643148426883089819e+00
-5.105479188793569989e+00,-7.456086610242050661e+00,3.298054526870692449e+00
-3.313838464483013002e+00,-8.849077510910010602e+00,-1.279243946282252020e+00
7.165496568387715648e+00,5.318644825190500747e+00,-3.452704343437338785e+00
7.994335600256405883e+00,-4.736391767708241218e+00,-1.886124374217544641e+00
8.426716889021836465e+00,-2.319088147314665616e+00,-3.774590005209828458e+00
-4.667037658915304199e+00,3.021628212644988487e+00,-7.792253368987377193e+00
3.014811853843717415e+00,1.672979960915322195e+00,-8.902210085372226800e+00
-4.236037922207249729e+00,5.108570022271702094e+00,-6.851571326681279217e+00
1.774369151291758318e+00,9.111122654548907462e+00,1.575365853348504652e+00
4.380855970538363842e+00,-5.935151349095442619e+00,-6.287108944829340906e+00
8.902176165442687861e+00,4.307551459580732378e-01,3.799095583659078734e+00
-5.595439253522576983e+00,5.096203495913133708e+00,5.678843514535341086e+00
-6.251762105216498888e+00,6.801926550336056643e+00,2.444197402526740337e+00
5.735345141072482278e+00,4.511717849456228890e+00,-6.277853232493055380e+00
-5.367941655605185325e+00,-6.738603451587524829e-01,7.678018221327150172e+00
-2.458408335009102608e+00,-4.975445733495885148e-01,-9.245652611010809707e+00
4.387079930451572629e+00,7.318371917299140605e+00,3.869722977552846555e+00
-6.684456783011131442e+00,-2.302107998547368251e+00,-6.121760340302423664e+00
2.790881549755442670e+00,5.016439929046297763e+00,7.804636136680287883e+00
-8.858803526009840112e+00,3.099617050092033921e+00,-1.655441553775027774e+00
-3.437328007890012582e+00,7.663812119160419378e+00,-4.350496047252145893e+00
-9.045911175381961655e+00,-3.704842019752460636e-01,2.968412816027671930e+00
-1.033189439769955031e+00,-6.909625600717311578e+00,6.453919957993227818e+00
3.497023246949378716e+00,-8.718575768572208062e+00,-2.238869748087624068e+00
-7.655458229145304827e+00,4.789700562042277454e+00,2.769679859814881517e+00
4.817597665780437133e+00,7.552307039281755507e+00,3.032628039206425097e+00
2.690127964609572153e+00,-8.560471131703547343e+00,3.266895558831767410e+00
-1.351220681853607219e+00,-7.858849307535592743e+00,-5.415374091633548659e+00
-4.230854949211396487e+00,-7.709547098543405141e+00,3.760127850139305394e+00
9.087405005397977575e+00,-1.275311461091098275e+00,-2.670325713531808809e+00
4.954648513030518231e+00,6.027025890062615687e+00,-5.596381945662533219e+00
-6.156603609979195646e+00,5.405757216218304073e+00,-5.095132828731667729e+00
-8.593572797885771664e+00,3.311874727467604806e+00,2.008278081236464452e+00
-7.910604514219390815e+00,-4.344927374319848212e+00,-2.859425597204372060e+00
3.865311362142973994e+00,1.965601572324862933e-01,-8.597035306628571405e+00
-4.069182691873132640e+00,6.945872976162219548e-01,8.554177613472010222e+00
2.741506554753516234e+00,9.099164207530471060e+00,1.235210967105786706e+00
-8.176364678796296914e+00,4.785787024500138820e+00,3.832223701350213202e-02
-4.267739486522609482e+00,8.185278845862502095e+00,2.005359645722164075e+00
-8.633201874024154066e+00,3.412044956236698123e+00,1.125430882556356371e+00
-8.432607883916526603e+00,-4.361847057577374898e+00,4.060644584884677277e-01
-4.879287957917779472e+00,3.960547085475507600e+00,-7.210568356687919511e+00
1.811716619097273107e+00,-7.520148069061591833e+00,5.300266529376051139e+00
4.178359319897910318e+00,8.327080892572892523e+00,1.785282481894135742e+00
-9.137708688903924070e+00,-8.784628896399131470e-01,2.938195497738938400e+00
-4.006534957533952834e+00,-8.026420204457686225e+00,-3.526557066590016998e+00
-4.809248482545899428e+00,-2.102002019131558708e+00,8.182785568219841821e+00
-1.236267310312755274e+00,7.726232076084282419e+00,-5.766739404048202289e+00
-6.831092020770467954e+00,7.031345511500148859e-01,6.386020686098216714e+00
5.032204172722334334e+00,7.941631051682641385e+00,1.483974526794249016e+00
3.478822488117388811e+00,4.677012052135297360e+00,-7.523477871221391666e+00
5.051323547755971255e+00,3.476325341138164493e-01,8.198196830117218781e+00
-2.340216994305314824e+00,-7.599568569287280972e+00,-5.112359039054807930e+00
-2.520851461514562519e+00,-4.095876476826115997e+00,-8.060932496397736458e+00
-5.383398018753422498e+00,3.461831854117142449e+00,7.092316039341648448e+00
5.475292244378302975e+00,5.764887171318315850e+00,5.300395923490278882e+00
-3.838183374228721245e+00,-6.084959800229143845e+00,6.156005187776610654e+00
-1.303098565322964308e+00,-5.809951681018707070e+00,7.275224381204041357e+00
-4.864152461823779916e+00,-4.353828765537465451e+00,7.040742514965513621e+00
2.468882949579891406e+00,-3.641457423861042653e+00,8.418897641211522398e+00
3.490827453684944182e+00,7.904967809936835010e+00,-4.364279717938760683e+00
8.961258471435280981e+00,-3.234052879588585228e+00,9.412537936138918315e-01
-7.683173535526583109e+00,4.972343326144470943e+00,-2.558208009149351980e+00
8.581826596060576406e+00,-2.242874742711174818e+00,3.118368879510719616e+00
-7.036199340063777896e+00,-5.853369266785064085e+00,2.363868476823716147e+00
-1.760387466899314024e+00,-5.748876345997392612e+00,7.407906430006308440e+00
1.720723180903173777e+00,6.725352231512290224e+00,6.602312292673693683e+00
7.093539283063382550e-01,-2.851167915382276874e+00,9.077677669145844064e+00
5.943579499698592450e+00,-3.217216149311381113e+00,-6.877392279747609471e+00
-2.119136062625151862e+00,-8.313927088637358409e+00,-3.713201379661974055e+00
3.715069884855287441e+00,-8.095919960876718946e+00,-3.216224924838890775e+00
-1.636484303102094667e-02,8.883670260126768525e+00,3.268217573507051554e+00
-4.582721118285033590e+00,-8.483043852002776219e+00,-3.434781026989944253e-01
-7.082133294405313251e+00,-3.908927596301532970e-01,-6.320744222464238504e+00
8.883650531701102082e+00,-3.120701736581370067e+00,2.067256758344212297e+00
5.057793253019625901e+00,-3.327770454282900303e+00,7.279620717893027226e+00
-7.454700343447498767e+00,3.765336846271700288e+00,-4.469061980298365988e+00
5.134027066599130329e+00,4.831296591545676478e+00,6.278691390520673821e+00
-6.376085859832544500e+00,-6.055203475658117007e+00,4.062065731102944000e+00
6.121604386102205808e+00,-6.182229025876361916e+00,-3.419287907340367472e+00
-1.351333403926868737e+00,1.808109741918873636e+00,9.170895352609045759e+00
9.268160626613711983e+00,-3.434416383545313978e-01,5.922288346169203299e-01
-8.321408524128665718e+00,4.287844596150382159e+00,1.337097131913430159e+00
2.049443644181450086e+00,-6.648561336505296460e+00,-6.427849229835461031e+00
3.637719991445524048e+00,-1.965926266281608825e+00,8.579393421823171550e+00
-1.010350442698698892e+00,2.056688292552833364e+00,-9.159482771190269546e+00
1.436314742568648439e+00,1.580215883458761628e+00,9.243653001355694343e+00
2.066477395947487583e+00,-7.795757147907543150e+00,-4.992237331425050328e+00
-1.367988747199435418e+00,-3.324950862525867912e+00,-9.102505425027938912e+00
8.736895116592604538e+00,-2.062126570007442872e-01,-3.677912209438040314e+00
-4.051440662841381268e+00,7.545983386712655339e+00,-3.861610084368410689e+00
9.304611449731803319e+00,-1.443884667428605884e+00,1.572764344519822721e+00
-6.135697078146336914e+00,-7.217637970035993611e+00,-8.581035021335888802e-01
2.528910014889027558e+00,6.887268591553885599e+00,-6.163262853102905225e+00
9.339134431267368086e+00,-4.091661758255393244e-01,1.658972839138356914e+00
-4.634175130004268617e+00,1.852728699447702798e+00,-8.282233391053154037e+00
-6.147389919257946644e+00,-4.537571287666342101e+00,-5.737999757336693207e+00
-6.426470606102544503e-01,-4.235579943168732875e+00,8.479577351045474387e+00
-5.306813373995338701e+00,4.771921012024856523e+00,-6.148698229270453730e+00
5.211413509500079755e+00,-5.952492045318197533e+00,-5.250645034982522219e+00
-5.119446215132215983e+00,2.691349396309246522e+00,-7.535347621326563328e+00
4.264723750991922024e+00,3.204820740202672713e+00,-7.835408230520941153e+00
2.815253559921536919e+00,-3.276540840583394676e+00,-8.319539653667058943e+00
-3.662509313526268073e+00,8.531452727821145388e+00,-1.325890706185627543e+00
5.667084368929173444e+00,-4.491051222455769931e+00,-6.235069825621644135e+00
-7.166900172348387166e-01,7.087231121776765619e+00,6.261136658545866318e+00
-2.672647709679559558e+00,3.898053502851703822e-01,-9.056250440075228170e+00
5.960883992144961896e-01,-4.117624858841803182e+00,-8.510323823484306160e+00
2.621061416564874680e+00,-8.832599524273675229e+00,-2.933259263205371781e+00
7.622721102945365423e+00,-8.159281008660182466e-02,5.767687018446795655e+00
4.382034329727522604e+00,5.719089408576717659e+00,6.291984567670842132e+00
8.967277214851112177e+00,-1.621336786371248229e+00,2.137274761847208104e+00
-2.651920681830614690e+00,-5.777496414855690432e+00,-7.373140356114814331e+00
-8.543305928469578703e+00,3.432488006189493124e+00,2.690123361456343343e+00
7.222151793758161631e+00,-3.359334966207754736e+00,-4.978903749392138423e+00
-6.959744578124531067e+00,-5.747204494905386873e+00,2.958798616332841913e+00
-6.820244046085079503e+00,4.221318132145415625e+00,4.590533779030829820e+00
7.335990340122548581e+00,-5.535681550193450207e+00,-2.723921653769208806e+00
5.517540918335452460e+00,-6.672346815337702353e+00,-3.542202250620540838e+00
-1.606386345016584949e+00,8.614650509093053188e+00,3.696195515270703336e+00
-9.542608509288918128e+00,-1.337463310929976723e+00,7.960242038081906113e-01
3.493964333922612298e+00,-4.212171895562769386e+00,7.888355142929190933e+00
-3.627508028896030190e+00,8.743674922801806915e+00,4.848983306593040443e-01
-6.850384090519182623e-01,7.743276829305006714e+00,5.362836714142051875e+00
-5.440471759535840057e+00,7.429176983324066619e+00,-1.941103461821561460e+00
6.695471635319086623e+00,5.621744495782010631e+00,3.903205096637625715e+00
1.573082362007889534e+00,-8.740512961104684564e+00,3.937042655164105120e+00
-5.482770146946147172e+00,4.042926677469240282e+00,6.790924947987798888e+00
-4.612082885461734172e+00,7.693356438934087826e+00,-2.934095052911517953e+00
7.123876713634958335e+00,-6.157791304591919257e+00,1.964614929394943310e-01
5.156308899534370660e+00,-7.950401993922696420e+00,1.330732718893481215e+00
3.796768444641633877e+00,-6.378598659848448094e+00,6.076697211450311720e+00
4.945226584901891265e+00,7.622243798372444701e+00,2.639369005129965196e+00
9.137214192482817410e+00,2.141775022455401523e+00,-4.697280686688440898e-01
-2.680077898631006317e+00,2.493661144222151016e+00,8.745861480831965906e+00
3.095033169549096019e+00,-5.302838682744828169e+00,7.284536504391444289e+00
2.542704849839972692e+00,-6.187686049843569513e+00,6.753451100093091242e+00
4.229148024598480049e+00,7.159577796317433851e+00,-4.224322507921152159e+00
-5.847595344146263585e+00,-6.216032359817484920e-01,-7.541833661610601425e+00
8.651915566053028916e-01,-8.758899554126491349e-01,9.222009453223934727e+00
-7.237587878332603530e+00,-5.191329536387610410e+00,-3.025062971924288746e+00
-3.723911082182679966e+00,-5.381411808735573343e-01,8.966108002405988486e+00
-8.222125399500235687e+00,-3.389176207441392918e+00,3.125261966618697151e+00
-4.760410808873752231e+00,-6.362844096173363440e+00,5.175421878332758574e+00
8.574392797930917354e+00,-2.536701454528280664e+00,3.072095689222879678e+00
6.641396063665227167e+00,-3.113450835615723999e+00,5.960458991090680669e+00
4.204199318082013193e+00,-7.279417461635045328e+00,4.193998378463687615e+00
-4.959763506621544416e+00,1.551570194321751084e-01,8.194538221610352835e+00
-9.885014827736426923e-01,9.327584863624034384e+00,-1.568681472342037253e+00
3.652464697229766522e+00,3.569970443251371695e+00,7.996267586017938633e+00
6.137633921144351135e+00,5.349724852455160828e+00,4.814554440399401614e+00
-2.805873806188637243e+00,5.467229408671628654e+00,-7.288841190031772221e+00
4.749606897943788875e-01,-9.067688818540881712e+00,2.878741327315306631e+00
-4.167538059676915374e+00,-4.794838489075199384e+00,7.328900809270089134e+00
8.034996768705832793e+00,-1.036550814104806872e-01,5.171344624852515004e+00
1.889101486471852054e+00,2.607650586231235135e+00,9.103806849003001744e+00
-1.736471963186423828e+00,9.091701089296480021e+00,2.457022317636367248e+00
6.723152563299799045e-01,8.758052036231909199e+00,-3.510890874226703318e+00
-5.956679535723584884e+00,-7.514878346025820832e+00,-7.167267670165787807e-01
-9.270393356218104230e+00,-1.436279904735142887e+00,1.346199021179870892e+00
-4.703491783686100547e+00,4.847763416673597447e+00,6.675762835822077967e+00
6.655765769544728094e+00,-3.898635868173587760e+00,-5.563521925021317927e+00
-6.239461582046225807e+00,3.269485115921523466e+00,6.309239711159437825e+00
9.303507143285228764e+00,2.663703075396567144e+00,-6.500392839377413523e-01
4.673640887580019943e+00,-3.802979066752813608e+00,7.261380211470025436e+00
4.305821907550567929e+00,6.203972860707480663e+00,5.803636034652880582e+00
-2.540534521697928927e+00,-6.083760627126159726e+00,-6.532843575950667336e+00
-6.697543829048596464e+00,6.667801514868010315e+00,9.123685163486432437e-01
-4.802613267599946667e+00,8.189968209824106893e+00,-1.002303033383284081e+00
-8.234261355894595624e+00,-4.619811317364282743e+00,-5.357342136737829330e-01
7.368240976259096797e+00,8.541483782806065239e-01,-5.750167325695558773e+00
4.339724861721116156e+00,-2.792294152771619409e+00,-8.086588054076326415e+00
-7.973789999202347545e+00,3.478077229638686929e-01,5.271470147231559267e+00
5.851802754108245352e+00,9.683007781970418559e-01,-7.180878425546738164e+00
1.105233853182492343e+00,2.648643251660807163e+00,-9.193850667993073600e+00
-2.179293192537457013e+00,-1.814361603603567685e+00,9.181326082267169397e+00
-2.824287250671642102e+00,8.998374999046626854e+00,7.354222964323493816e-02
8.913442808312977306e+00,4.608569292476200063e-01,-3.485996133094004357e+00
6.697540596081656084e+00,-4.437240312483631960e-02,6.762547007052809533e+00
-9.913127079809500586e-01,-2.064771663413509817e+00,9.295317365083997529e+00
-9.214771542883035238e+00,5.442457586394966462e-01,2.548937277782915345e+00
-3.146151468520467009e+00,8.852223351839304755e+00,-1.856601979203365449e+00
-4.339579590780727969e+00,2.269995438643413355e+00,-8.292744452996949178e+00
6.593599103726512922e-01,-8.459593524600315106e+00,4.383744227494092982e+00
-6.083010990547783159e+00,7.338505289122720043e+00,6.062185161398615518e-01
-8.656423684216646208e+00,2.886605767602951733e+00,2.709149784171465125e+00
-2.405395774658241503e+00,-4.730361985206894104e+00,-7.982252945049651771e+00
4.388448087371507711e+00,-5.961530684959128301e+00,-5.797128960814692533e+00
-3.941294511539347400e+00,-6.837362132313566043e+00,5.480176380595096042e+00
9.169643250983108729e+00,2.115809591525635636e+00,4.713439156722515344e-01
-4.060407769021913360e+00,-6.925659029168742542e+00,-5.091138432023787352e+00
5.799529629669758712e+00,7.004584521895845128e+00,3.137106010329273165e+00
2.302288334704968076e+00,-8.877499322764775158e+00,-2.081692309722295242e+00
2.894938483452652811e+00,2.555579025102661994e+00,-8.747986827375237695e+00
-2.775845827008334710e-01,1.115316935329746961e+00,9.311804595394962192e+00
-6.107801752696736530e-01,-7.465411680066494249e+00,-5.687854661051930272e+00
8.027140744145574658e+00,1.842336309333918232e+00,4.754542785748251177e+00
-9.247687057374580633e-01,-2.225128936338335972e+00,-9.066837378757968580e+00
5.339922097436146764e+00,-4.495797387380202181e+00,-6.743657945273127119e+00
4.010808752688164169e+00,-1.603611094138077453e+00,8.308529968516365827e+00
2.849689891159121302e+00,-9.030442600360158778e+00,3.851264271232608394e-01
5.271092917716618587e+00,-1.159628058466824818e+00,-7.729660805227817733e+00
8.494377567922034800e+00,-3.957130394636173776e+00,-7.085227306578476547e-01
-2.699358298337432238e+00,-3.059453301181918050e+00,-8.566744028537051747e+00
-1.328963911176940238e+00,-3.033084022782206457e+00,8.758528973279753771e+00
-1.397969564417496535e+00,-7.930185897463936096e-01,-9.348572685392642967e+00
4.561224167102004401e+00,-6.716374932936782116e+00,5.036316786379461341e+00
5.836744045419425042e+00,-5.417885344138420045e+00,-5.034346487786367064e+00
-6.600177068115189449e+00,6.576427068338258408e+00,1.831701641215280674e+00
-7.786500444568035917e+00,-4.454703629019220124e+00,2.741516448156201768e+00
5.713407127792280882e+00,-1.723663230754582720e+00,7.321114200221824575e+00
-6.421427497209969637e+00,6.244399463555900809e+00,-2.575595123355628679e+00
-3.662381343246176701e+00,8.406318881581068325e+00,-2.268937458679336494e+00
7.861802888901724629e+00,4.583332878577251357e+00,2.472537879341424993e+00
-4.794258600879489407e+00,2.477123467463093753e+00,7.967827731551991199e+00
-1.618670460814867873e+00,8.084491505843965697e+00,4.820072376101394163e+00
6.772034980005947169e+00,-6.620282878233880730e+00,-7.635421935437093355e-01
7.966474428166225863e+00,-1.180286150343129670e+00,-5.113830132932226213e+00
-4.245636362662828844e+00,4.871512027043758408e+00,7.005887391183908797e+00
3.822288418696843770e+00,1.123969749779189842e+00,-8.776144966536200798e+00
-6.583513548947308003e+00,2.425408123890608003e+00,-6.384805562146306457e+00
-8.530320063570517419e+00,6.922223774004593322e-01,-3.990699253636893928e+00
6.858040094221656835e-01,3.307382299664096248e+00,-9.031290103354548293e+00
2.097692700470466409e+00,2.083125553943896868e+00,9.088997932822937997e+00
2.317610346668740107e+00,7.191921909871739516e+00,-5.742205062787220982e+00
-1.725037014460834017e+00,-6.742154945508579189e+00,-6.481139566280011977e+00
-6.430487247649551819e+00,-6.606437389253388304e+00,-2.222366763327894734e+00
8.342461560102131912e+00,-3.543256398204540858e+00,3.223657972267614191e+00
5.728563815478596055e+00,2.338855290942504439e+00,-7.263162884336058056e+00
-3.382720323721752909e+00,7.752261950134544222e+00,-4.387378072719350541e+00
-5.216226694934850805e+00,6.659077493917309631e+00,-4.335880842674716185e+00
-5.675599426973794159e+00,-7.287217553471570852e+00,1.081224594198768374e+00
1.557248841799216521e+00,7.399848732952280628e+00,5.535289590103420920e+00
-1.113158552790145750e+00,1.506540892819631106e+00,9.357263005365672015e+00
-7.227209547696392455e+00,-4.939643588002872399e+00,3.985254032163773275e+00
2.670923570051936480e+00,-8.376709952264164372e+00,-3.788571220680854612e+00
3.468766092278714908e+00,-3.983650499351751417e+00,7.783424820970358482e+00
-5.452256953007121432e+00,-7.799511115368567005e+00,1.608056622259834256e+00
5.481898735378302412e+00,5.894304510491910953e+00,-5.167839656967163187e+00
1.389376075392570131e+00,2.274037008957175310e+00,8.941522603079548048e+00
-8.041686839929871766e+00,3.301903227519552786e+00,3.597534210147498079e+00
-2.607319509431190174e-01,-7.997644074358677635e+00,-4.993399943525192342e+00
3.242525209358972038e+00,-5.173157782574328678e+00,-7.237013855121604777e+00
8.753478588441465993e-03,-5.032782803150580797e+00,-8.124476879657514417e+00
9.518421260184818378e-01,-9.447613193095151018e+00,-5.150397907982013912e-01
-5.074450339965358658e+00,7.765769351220902728e+00,2.129817036547922093e+00
7.430793442216880429e+00,-4.881297518514283951e+00,2.709079198441162628e+00
-8.712204215214281788e+00,3.588901038930477405e+00,-1.791576139638017429e+00
3.632870989771003423e+00,-5.636160754992443955e+00,6.764019726703060620e+00
8.665054840099081446e+00,1.876975379891353102e+00,3.376746749930712443e+00
-7.927802403959633537e+00,-3.851182118086083683e+00,-3.716154442781201883e+00
1.185550781428889033e+00,9.324425834209467467e+00,-9.296566246164261749e-01
1.999021133231689396e+00,9.211233184458887280e+00,-1.135129463797581506e+00
-7.636732709707974465e+00,-7.028299930593340239e-01,-5.513556422636717969e+00
-4.431523241071708696e+00,7.676756627563730895e+00,-3.321355812852443190e+00
-2.557422940410987167e+00,1.400138196893479403e+00,9.062585759140658226e+00
-7.087612328482578938e+00,-5.366452314798132228e+00,-3.493059515019879768e+00
6.508900951351699327e+00,6.232347093804861515e+00,2.714461869101946423e+00
2.328673453377737790e+00,9.159304931245225490e+00,2.027687137204883527e-01
-6.216204679709160352e+00,2.518550831926684275e+00,7.007791381367796113e+00
3.855460918226721878e-01,6.324049807586325400e+00,-7.125906234112869164e+00
-8.520799430890361847e+00,4.372677276670226654e+00,-4.764461364073774297e-01
6.211134180549534811e+00,-4.849291893771313866e+00,5.286219730215366397e+00
6.608799948437749094e+00,-5.412812945694640554e+00,-4.125718996833741770e+00
-6.012899958612499596e+00,-1.033905408701160988e+00,7.314136420941578010e+00
1.830558297999242301e+00,-1.463768847441950793e+00,-9.345066668215990191e+00
-2.246145481195924720e+00,9.015780688494494655e+00,-2.116035867032766138e+00
7.757379233100317961e+00,-3.979240016571766958e+00,3.842880251981504180e+00
6.091205015425327218e+00,5.180634177810651941e+00,-4.868253490901323310e+00
7.419213243470767161e+00,2.069110251699654679e+00,-5.787045768894856224e+00
2.188363040350816302e+00,3.799111670697993048e+00,-8.403370685037197418e+00
-5.009695747144935041e+00,4.469648870802239493e+00,6.577935539018416655e+00
9.086960556055838356e-02,6.982080735482961487e+00,6.455188887466991154e+00
2.277662634926442387e+00,-2.247273611229461121e+00,-8.997428574665971013e+00
6.196333145205838999e-01,-9.332692222150813066e+00,-3.733089540876017853e-01
-6.644774430111061392e+00,5.435152296294910812e+00,-4.145623525176499236e+00
5.672755439303482028e+00,6.667881124197180931e+00,3.452680975347105274e+00
-6.941699033710793998e+00,2.087770415598472873e+00,-6.119050257491168487e+00
1.868944853480069446e+00,-6.629574456794719239e+00,-6.581082857782362794e+00
2.050171587892027358e-02,4.001976373636985107e-01,9.384458962998717624e+00
-1.322075741177554997e+00,-8.020545545245964192e+00,4.820371249762701815e+00
-1.987413916162347638e+00,-6.058623495835939288e+00,-7.166433822694219913e+00
-2.806113936731542857e+00,-6.618804310030748539e+00,-6.126900459203591609e+00
2.482866621123418049e+00,9.344776873041466203e+00,1.991942757083649818e-01
4.857317697966003323e+00,3.167863038904057404e-01,-8.130323268740715648e+00
1.717225675557948028e+00,9.238670518915997221e+00,-1.661889892619549669e-01
2.489568620777298236e+00,-5.920698662951919822e+00,6.942956705762965974e+00
8.276859915336066686e-01,2.425974092588555564e+00,-9.129254997935737137e+00
2.913266259039887895e+00,-6.855740761673188466e+00,5.881681652945669470e+00
-2.009078815491750269e+00,8.116965585194517274e+00,-4.692376162170696752e+00
-9.002700856063423629e+00,2.856887338893399964e+00,-5.560616307605290576e-01
-3.857636339056377928e+00,-2.431129035068004374e+00,-8.251320036364356625e+00
8.111076759397342073e+00,-1.821738014322243027e+00,4.535728045752376758e+00
2.743238134056363631e+00,-7.122312245192541802e+00,-5.610368635829869888e+00
-5.153472693426543572e+00,-7.056254431516609138e+00,-3.697525822503117343e+00
6.413163948445184559e+00,-5.213826514381280752e+00,-4.635516914899822538e+00
-4.277778861449417769e-01,5.041902291760379740e+00,-8.079707634231526825e+00
-2.401252983175833133e+00,-5.022726473474976139e+00,7.713569143961024999e+00
8.598718557951109176e+00,1.838074500284559543e+00,-3.515802779782281284e+00
5.555505084964039719e-01,8.205355783899146438e-01,9.552975859446769746e+00
-6.331529584965852608e-01,-2.414911394922662158e+00,-9.264064970093729201e+00
1.715516103686045124e+00,-8.204159801233444682e+00,4.549374209856357432e+00
6.742926058731741001e+00,-6.176579506991101809e+00,2.292389921667234987e+00
-4.396619815835149048e+00,-6.410463873177413952e+00,-5.525219447553568308e+00
7.229661790177873470e+00,1.710098626683656198e+00,6.006886997717693966e+00
3.686157257993740721e+00,2.622207123531116846e+00,8.326225151434478278e+00
-6.184829655988398400e+00,3.615281196407188702e+00,6.118915319684361975e+00
8.678587411813145636e+00,-2.155274696684046809e+00,3.053934654605630072e+00
-4.012724109626391034e-01,-2.006531389396047693e+00,9.439498248014505322e+00
1.366886562109399295e+00,-7.806658504791641473e-01,-9.483822808015986539e+00
3.921316384390444831e+00,7.220885533477278129e-01,-8.717349490023474701e+00
5.384002083774484859e+00,7.308067702641129593e+00,-2.372155778585153474e+00
-2.751101197979456958e-01,6.433859804132093352e+00,-7.117547054165670239e+00
-5.916439819147728763e+00,5.430920047006412510e+00,5.374830486063889801e+00
-8.388789080252612607e+00,3.244885251494702416e+00,3.122034638790910588e+00
-4.412015306570810758e+00,-5.732467702859577408e+00,6.024942433767754402e+00
-2.785415056268799816e+00,-4.394164352578208699e-01,9.098909023903978266e+00
4.465715815502083963e+00,4.972584895797173665e+00,6.919291297442351052e+00
8.514647422982076774e-01,-9.265158410629928398e-03,-9.620861201339405255e+00
6.985101972324135877e-01,7.175895512816132360e+00,-6.192419671184532959e+00
-8.355393044956265669e+00,4.473414960757413184e+00,4.192795465063243326e-02
-8.941167887463924657e+00,-1.807004227227576143e+00,-2.490255702504353685e+00
1.596061848046852250e+00,-2.039324880879362034e+00,9.299098678216379810e+00
-9.317234930557061645e+00,-2.136827734158533332e+00,4.525558016771083492e-01
-6.614177054246244580e+00,5.992879886317997951e+00,3.354490065894688566e+00
2.203019349323466436e+00,-4.993340132524766162e+00,7.827342595201793429e+00
-7.797454129447728199e+00,4.397577556943843113e+00,-3.484440127449622171e+00
1.048225570309443411e+00,3.583576064758679180e+00,-8.757680552571288857e+00
-7.597621377582078672e+00,-5.510976308893266840e+00,1.085782557622869460e+00
-7.675821051616915636e-01,1.814667772800163670e+00,-9.288762161865768974e+00
9.145267096662751172e+00,1.917067764853303435e+00,-1.717768717445093962e+00
-1.885674641228663351e+00,6.233146482339837036e+00,7.030333816896527921e+00
-6.241258299892673556e+00,3.100450039588873996e-01,-7.047637861454399300e+00
4.471481707712468889e+00,2.471804818502853163e+00,8.009431142612148946e+00
-5.232318874122319663e+00,-2.519332844022172946e+00,-7.438344273093801640e+00
8.146931775199522718e+00,3.446949344365352053e-01,4.832720030652355447e+00
8.042811411744950068e-01,-9.442134384677364878e+00,-1.450721496433327262e+00
-9.000894481864888164e+00,-3.097986074784924604e+00,-6.826329604295158782e-02
8.057562490586661852e+00,1.762708942514317645e+00,-4.709343276068120865e+00
-6.064551077565649706e+00,2.161882524025113828e+00,-6.912798455059762759e+00
-8.072446294714708870e+00,4.918560456178679097e+00,-9.733259338710738007e-01
-3.715360415898796731e+00,-6.306184943810501764e+00,5.911294653110545028e+00
-1.617964578054425839e+00,9.131188524844741750e+00,-2.297513862624039671e+00
-7.432843188529718148e+00,-2.616099824402303931e+00,-5.567114430421379545e+00
9.227241826127832169e+00,3.325997621371734048e-01,-2.401461927382662953e+00
7.535594047285335328e+00,4.940861128934954216e+00,2.545016454431364483e+00
-6.768657771096885156e+00,4.711655425471755976e+00,-4.444482717155012530e+00
-4.718610600874722394e+00,4.789090671797243459e+00,6.477727124232751876e+00
-3.696839222488360832e+00,-8.185990263705498649e+00,-2.912476056159995164e+00
-7.032778347092293991e+00,-1.823747657620196083e-01,-6.630283561375128087e+00
-8.534236296586069415e+00,-3.297407280498738213e+00,-2.850098797942171469e+00
6.092784472657120531e+00,2.146919884092161279e+00,-7.075542352120065992e+00
9.065542854030925746e-01,-1.479811625238934614e+00,-9.317478117970383167e+00
-4.731345049706924932e+00,2.531246418312125268e-01,-8.240578845000282371e+00
9.441410533981080988e+00,2.160477628140114792e+00,8.497940423141192579e-01
-3.010063666625681034e+00,3.619264588364296209e+00,-8.383076511708045686e+00
-6.474887593662158380e+00,-3.351790625960591186e+00,6.129634967151901037e+00
8.149590180667845019e+00,-4.853124143488090958e+00,-1.499972898008489208e+00
-5.979747793677474554e+00,-3.530788655772409079e+00,-6.613014460174228226e+00
9.589584235837332882e-01,-8.807510316645561943e+00,-3.368794724390853812e+00
1.011357612396821981e+00,-1.662651404372764707e+00,9.196285890845386390e+00
4.994988281108670769e+00,-6.273214390174006283e+00,5.380008694928328339e+00
2.054232565464813032e+00,-8.729132760430273308e+00,-3.043505306257654919e+00
1.329206558360654267e+00,8.550520699089076970e+00,-3.967347801646624372e+00
-6.660617248765324128e+00,6.103000238177473946e+00,-3.194645563902869689e+00
1.655705531936273456e+00,-7.955200692483579417e+00,4.710301556556315994e+00
4.515790798910339632e+00,-5.732335307424020421e+00,6.223472758807004901e+00
