-3.007290782551632180e+00,4.510240928286013862e+00,4.517334043160323276e+00
5.852501341878390662e+00,-6.751531886744526201e-01,-3.766134141163541837e+00
-3.226483200235081394e+00,-2.214550557716785661e+00,-5.724731098866914003e+00
2.406915682998920669e+00,-4.271756161951983266e+00,5.001017545576861068e+00
-9.137951651998325042e-01,6.830261903313101790e+00,-9.189945050299634932e-01
-3.527177342491021328e-01,2.020628860694911211e+00,6.834382019864097657e+00
-2.679982203842894428e+00,-6.431129074745359553e+00,-6.718088561070566511e-01
-1.287651477177462978e+00,5.960667694617656664e+00,3.521207751964898769e+00
6.886585125839398636e+00,7.056572423535419913e-01,1.076666939754666208e+00
2.451354543541241604e+00,3.940149834302989706e+00,5.254737299862997091e+00
5.574446340201657524e-01,-2.186633518901675899e+00,-6.535334740869190640e+00
-1.805696943288717993e+00,-3.443878864418004060e+00,5.856565375832309073e+00
3.978291061162216868e-01,6.952700670978982700e+00,-5.731713551096060399e-01
7.850996176823461514e-01,-3.120522707000533913e+00,-6.262475309669703449e+00
6.693046412001275591e-01,3.112266044288637401e-01,6.937311576410150060e+00
2.571819509319361430e+00,-2.519017112080226273e+00,-6.000633949641326126e+00
2.164093775912871997e+00,1.127349510405733390e+00,-6.489555975792710818e+00
-4.498759410676228754e+00,-5.002003799694803021e+00,-2.141001089658676193e+00
1.604352762056546533e+00,4.918940924404587633e+00,-4.931556101155987193e+00
1.195816133285111604e+00,-3.847582211123491636e+00,-5.666611102089282426e+00
-4.098329156214308711e+00,2.604743565496119850e-01,5.786981758608950699e+00
-2.219426151994504881e+00,-9.587943592161686235e-01,-6.627658562675148524e+00
-2.489675992630759005e+00,3.106773504571535005e-01,6.552750906360913952e+00
-1.072233926935089177e-01,7.025525367456545212e+00,-1.107277982031093233e-01
2.561157170461078714e+00,6.139843951709230474e+00,-2.405101524692354609e+00
4.216278090792078714e+00,4.777962823188516062e+00,3.110242759084412167e+00
-3.328924488927534675e+00,3.978410861413090860e+00,4.636957469855132352e+00
5.071129112382774196e+00,2.486748799870408089e+00,4.545206835559825187e+00
2.489318322194741473e+00,1.133798988148245979e+00,-6.468647717671483832e+00
-3.229718889640527557e+00,6.152707381861579172e+00,-9.243465979453067138e-01
-6.859024458609607855e+00,-1.842021590928362818e+00,4.358009471581073165e-03
5.493040002646807807e+00,-3.996187776774721367e+00,-1.691443790774142419e+00
6.561386955970439416e+00,-1.698440198141585089e+00,1.715787545550045090e+00
4.176108279616881913e-01,2.263109667359210153e+00,6.566219514858579132e+00
-1.232767747525375990e+00,4.714153537360700419e+00,5.208161946081354188e+00
-9.587160578570878000e-01,6.093381477554201453e+00,3.432109672384385135e+00
4.067772979773374153e+00,5.459318330877956704e+00,-1.323838434216933146e+00
8.648476849911996833e-01,-5.461124324184932100e+00,4.367949335042285774e+00
-3.817355452664080051e+00,-2.928356686314601998e+00,-5.052350804900005876e+00
5.539035034396555979e+00,1.561847960276348646e+00,-3.953098401076627688e+00
7.074189520830402422e+00,-7.442780851287185417e-02,-2.206544069615262380e-02
2.985631303252468172e+00,1.638720484068717231e-01,-6.302021936294725180e+00
6.734125858550275012e+00,-1.178508117272385025e+00,1.230783811042102993e+00
-3.847856101537601159e+00,-3.574617512037467471e+00,4.700633580478970508e+00
5.603394953587732097e+00,9.215874953561115079e-01,4.233255912723374870e+00
5.537536787934527638e+00,2.976245483875811892e+00,2.957901756734674148e+00
-3.879661030178209735e+00,-4.873293887958672244e+00,3.109913664017823542e+00
3.989138181638750336e+00,1.657972509040579023e+00,5.489249850009068510e+00
-2.583602098582221007e+00,4.341364067501157109e+00,-4.624969025498968378e+00
-2.141786859732210502e+00,-5.107659139453844865e+00,-4.460127400942250020e+00
4.600485632888339893e+00,4.734267843632993689e+00,-2.387183966453045869e+00
-1.601728958221933841e+00,-1.049366932140100461e+00,-6.686073625910532670e+00
1.291991678981190939e+00,-6.968515757518758846e+00,-1.737278225094586181e-01
3.305881043315497259e+00,6.050964283558089463e+00,-1.892006331791142859e-01
3.944984895070359876e+00,5.351086387106022357e+00,2.028285215079545178e+00
-6.882884960484929593e+00,7.199884566802843278e-01,-2.238737003141879622e-01
-4.471926389626538878e+00,3.476448251196241568e+00,4.122073984639265554e+00
2.415152125597528787e+00,-3.799191146788608031e-01,-6.400720849101789511e+00
1.697415674323206058e-01,6.686013085010698020e+00,1.798287252011369741e+00
-5.228213272696768499e+00,-5.727085116212374816e-01,4.621461251930870873e+00
6.394065026606577717e+00,1.404596801002927151e-02,2.870527865886895569e+00
-1.141234534736478956e+00,-4.393909136214357858e+00,-5.211164355653581381e+00
2.200678335475925174e+00,-6.120157755511269393e+00,-2.777628791935975450e+00
-3.311602717308332000e+00,1.239298821729832412e+00,5.805869679172454667e+00
-1.952338068578875818e+00,5.195844459738655274e+00,-4.095304468505997164e+00
-3.802666780424884596e+00,-4.564741220715800907e+00,-3.774252697900049469e+00
-6.860330251909672938e+00,7.711005007150757429e-01,-6.758135724476433959e-01
2.513782243483742018e+00,-9.950951264907312854e-01,-6.364791392460654507e+00
-6.611346000815498947e+00,2.454484054918791625e+00,-2.799546128017789681e-01
-3.505589791473993966e+00,5.959725793616104994e+00,-6.107695721415001833e-01
3.137565403678758358e+00,5.668785845846846527e+00,2.613570193923218987e+00
5.100657564491332785e+00,4.921702469234685573e+00,-1.060511655613426640e+00
3.688985527328498826e+00,3.642743953899671094e+00,4.602193062669865498e+00
-3.639175807472818214e+00,8.945670020025174862e-01,-6.096040328865163005e+00
2.871564492077311459e-01,-3.563069628397415922e+00,-6.045275265579156176e+00
3.581021945526053685e+00,9.917784002002805188e-01,-5.957449584411509846e+00
-5.179906244967429352e+00,-1.527349257994240261e+00,-4.373161335012207829e+00
6.762090512379137497e-01,3.422141778197036022e+00,-5.905533249799610473e+00
1.327090608677141459e+00,-2.332953441691431262e+00,-6.508252841063070449e+00
-2.555790270632699812e+00,4.861126174631043462e+00,-4.371370546913754040e+00
-6.631815919021324390e+00,-1.984794536922867891e+00,-9.276105285066633677e-01
2.014808478445375250e+00,-2.118836763525586697e+00,6.428556795883848096e+00
5.947054436406482125e+00,2.367767389342215090e+00,2.781097587853675002e+00
4.816882945735245336e+00,4.284969597317832779e+00,-2.788196782122364770e+00
-2.570436283734463867e+00,4.765427499915408482e+00,-4.586599211794499809e+00
-1.204954848775558363e+00,4.213413410943261717e+00,-5.597367907666867204e+00
6.403541915818333763e+00,-2.631744567452634520e+00,-7.971923785225087933e-01
-4.222505133006960953e+00,3.772188548917478013e+00,4.060539243053263192e+00
-3.108524460964494085e-01,6.789170476675292498e+00,7.919914829531951028e-01
2.591994621046341596e+00,1.630962834613068624e-01,-6.324044215019199555e+00
4.342129260939166180e+00,-5.553256726814094435e+00,-2.781973052912582040e-02
-5.632949982300933911e+00,-1.773136526149889924e+00,-3.806005043694523859e+00
5.382508016347342661e+00,4.418521566477895957e-01,4.512244228311975469e+00
-8.903346204949375009e-01,6.823897269824377609e+00,-1.097497971424788110e+00
-3.627785591960471234e-01,-6.243841479412590267e+00,3.159557571589515224e+00
4.431070457059232304e+00,-9.363845094066394203e-01,-5.281290857662287230e+00
-6.580653274907238837e-01,2.012802229439547119e+00,6.692794060478651552e+00
6.203118569591831388e+00,-3.065714190571882991e+00,6.312418816525200427e-01
2.445515206099007521e+00,3.188971388471302681e+00,-5.691394058919304833e+00
3.161170935842954055e+00,6.154026026155047902e+00,-1.603105896020363685e+00
5.115578404655235722e+00,-3.448313901300220419e+00,-3.443782051793935040e+00
-4.510296357722964444e+00,-5.165561803399205232e+00,-1.283985374097606380e+00
-3.006952171926435380e+00,-3.710086981822306118e+00,5.069139286221568952e+00
-4.523800265500423023e+00,-3.181305642057759897e+00,4.233505458091842755e+00
-5.872032193088853269e+00,-3.695413050135132771e+00,-9.287588580340434552e-01
-5.073725153010157918e+00,-4.283354444491981994e+00,-2.108027882520771445e+00
6.248820730653662281e+00,-1.626778306095008897e-01,-3.175357197077137705e+00
-1.022566555238607400e+00,-6.432125483904790997e+00,2.290159908065709349e+00
-3.465002897715408814e+00,1.897498199484944248e+00,-5.700554587690481512e+00
1.513188547943228768e+00,5.951441871258965399e+00,3.135815332586465942e+00
6.294933196845907908e+00,-2.366756408545539703e+00,-2.050781377464069966e+00
5.919540523854397662e+00,1.021352836203315961e+00,-3.563377458701295186e+00
-1.384410006421818995e+00,-4.558097552780265183e+00,-5.144031089904591347e+00
4.210259367351495641e+00,1.262723405587917291e+00,5.399738018502402426e+00
-6.465515796772256962e+00,2.732668979369756279e+00,-1.892101258755321813e-01
-4.063853985132178437e+00,-3.029861026796385914e+00,-4.684093716791119633e+00
5.596693243857933986e+00,-4.230757681347615318e+00,-4.157293649270765168e-01
-2.249947787116819420e+00,6.492076600051458257e+00,-1.541900260381161569e+00
-6.192269983988901494e+00,1.701840933519172649e+00,2.816332475566242000e+00
-2.646472423445244360e+00,-6.292323524263482071e+00,-1.755939919850881603e+00
-3.515111105390073654e+00,3.816815072131481301e+00,4.548802961280793866e+00
3.045740707296744176e+00,-6.230424080267674469e+00,-1.514400719498551373e+00
6.931507800909959549e+00,-6.269082603385571772e-01,1.033227542953738087e+00
-1.169584997104807123e+00,6.488152390144558801e+00,-1.888562257530706390e+00
4.683325239003358398e+00,4.066699046175973997e+00,3.036152230652803041e+00
6.871719465783286962e-01,-5.537041798728231656e-01,6.965016221082617420e+00
-5.000264585062717870e+00,-2.901894003439821734e+00,-3.784946140000913672e+00
-4.394946117084809423e+00,5.433210961205917622e-01,5.367923931513802316e+00
2.537209525249594311e+00,3.142641913627702621e+00,5.636762240419106007e+00
-1.318840890851743719e+00,-6.295635047300889298e+00,-2.612373449780044155e+00
-3.476825158403778371e+00,-5.064501019680749394e+00,-3.358347001041720681e+00
1.652941710783326412e+00,6.812157102878749981e+00,-1.037758082140777027e+00
1.294100481134109026e+00,-2.414966494161232546e+00,-6.532217241276959463e+00
4.522897188822175174e+00,-4.713755942835222257e+00,2.738298758786187559e+00
1.071354141274563521e+00,-6.089860626326458970e+00,3.326566687297571434e+00
-5.150243881726590978e+00,2.917981214760300368e+00,-3.821236883292659758e+00
-3.567654960169915679e+00,-4.428152004010038389e+00,-4.050727095721546434e+00
-5.141120514741426284e+00,-2.786977340147162252e+00,-3.865906956543190720e+00
-3.676487524775064131e+00,2.465644496118782225e+00,5.485195777433342634e+00
-6.924658899414789737e+00,5.612326473469190224e-01,1.072347378942535734e+00
-3.396131821956116514e+00,3.964288575522625369e+00,4.699386039171816520e+00
-3.721725442891778979e-01,6.468067795860528157e+00,-2.467550723947213864e+00
-5.059441590498308550e+00,-5.033313518400377440e+00,-7.967376780259897984e-02
-6.534674854628049756e-01,-5.837919761006411523e-01,-7.080133162452475482e+00
5.157120425436310995e+00,4.543121446091715754e+00,1.143764420769667112e+00
3.151042133955287650e+00,5.746723595210223579e+00,2.561952169164156246e+00
-6.411191850013714166e+00,2.399687304301221236e+00,-1.838538575497469463e+00
6.860560459479779993e+00,3.940292159079566980e-01,7.822580533493478372e-01
-5.075065917133817273e+00,-3.956875553772997156e-01,4.883427097280432783e+00
3.605577022740086290e-01,4.943129334602100577e+00,-4.799041687009854229e+00
-1.449569089691819634e+00,-1.111445685205143530e+00,6.639584188701964429e+00
3.645455013963416313e+00,3.590455662357749045e+00,-4.971383545618724753e+00
1.720367199513439971e+00,3.217104002283031949e+00,5.994821025518605850e+00
-2.275769026361608383e+00,5.814351157054422181e+00,3.086950217225781223e+00
5.063784813024739151e+00,8.769042944792705407e-01,4.775950985322132247e+00
5.108947634468020027e+00,-4.678218905632322233e+00,-1.031206393418279799e+00
-1.905847087370783122e+00,-6.814075177275285888e+00,-7.073414521344164596e-01
4.016341849773739980e+00,4.458155433693685055e+00,3.516988615589366596e+00
-3.477834613280993414e-01,5.034595795767534909e+00,-4.798881416413098400e+00
1.910658774785002345e+00,-6.416752802741807926e+00,-2.149332455876355574e+00
-2.357750673669385844e+00,-5.739264897680619093e+00,3.446852040590450805e+00
4.541220566719622376e+00,-4.982924779348554267e+00,2.036451632709060711e+00
-4.745414929492800304e+00,-2.067009252563076771e+00,-4.767928199785427701e+00
-5.831764396303229958e+00,3.613997482883879453e+00,-1.708160971830784858e+00
-1.626528509422120683e+00,4.462226757239253772e+00,5.283517293607753906e+00
3.974445398907256344e+00,3.466685753534352266e+00,4.512441492171715751e+00
1.251811067015926815e+00,-2.341726876387230316e+00,6.445859663189669853e+00
-6.894941038549205814e+00,-5.989515723726698271e-01,5.453560750467244533e-01
6.861542827378345422e+00,1.268368613929137689e+00,-4.754094122141799272e-01
-9.238674836331238760e-01,6.336069128981086429e+00,-2.965732277652748383e+00
2.434094661957684647e+00,4.421494038416204475e+00,4.815973704622293461e+00
2.066270084379265626e+00,6.507582778213643948e+00,1.328772699459890072e+00
3.410006444448533180e+00,3.513664604312573658e+00,4.841234531874620828e+00
3.539801506590754432e+00,-2.181472251143001806e+00,5.627834180541657183e+00
-3.308160962248093639e+00,3.192210121388284971e+00,5.335782545339954552e+00
3.436419725646311818e+00,-5.489719535313335008e+00,-2.393650717488429169e+00
-9.982835144255653992e-01,5.628295047362100512e+00,-4.014647589128107263e+00
5.119247098946515528e+00,5.174442477186907974e-01,4.888603010436116669e+00
-2.099180514573089351e-01,-5.489597533700670162e+00,4.494276461422364477e+00
7.115479093089362550e+00,-6.905436031916021289e-01,3.675230363623041008e-01
-3.953228577155147860e+00,5.556974008038634061e+00,2.172411464962875627e+00
6.413808790007526461e+00,1.518753130942958274e+00,2.058727375093209577e+00
-1.454023506402932986e+00,5.239388801716513555e+00,-4.422246449186516770e+00
-6.451293924506310340e+00,2.737340914917318901e+00,3.265724885602630523e-02
3.518600477552999095e+00,-4.847487652047250545e-02,-6.161170068713778925e+00
-1.843576440405996442e+00,-5.426356650453056041e+00,3.951128874432561666e+00
-3.982361771209036228e+00,-2.961701109672328247e+00,4.810741988757175847e+00
6.135315609751838650e+00,3.379992373593067700e+00,6.475022448327565350e-01
1.041026929566297721e+00,3.738235796550787082e+00,-5.869382758672713862e+00
5.813007436986253218e+00,-3.765683483259393949e+00,8.003427797508624320e-01
5.638018805851165993e+00,-3.819979853021324701e+00,-1.242022693562961022e+00
6.589680974628723042e+00,-2.359294964199926792e+00,9.976332943325334490e-01
4.891090294496789781e+00,-2.640680853451862209e+00,-4.246147131199798253e+00
-4.692634524326704692e+00,5.189511862382356178e+00,-1.365670366064007490e+00
-2.204951575978138845e+00,-3.351148775496682664e+00,-5.796668718093151540e+00
5.731316318726922265e-01,4.410801126148801821e+00,5.401671415431009038e+00
-7.542112213157875500e-01,-2.512457886593496781e+00,-6.407157610039760698e+00
4.448851818452059348e+00,-3.358792963491385564e+00,4.168600630927318029e+00
5.875986552060599166e+00,-3.718275541175566357e+00,-1.001233630839470923e+00
3.092823709826684642e+00,4.914027242871563672e+00,-4.006499199220158403e+00
5.855013349389730060e+00,-1.840868761605348736e+00,-3.419242482151335860e+00
-6.210559590903206306e+00,-3.259551119115891016e+00,-1.102991804449357627e+00
-9.561954733390559680e-01,-5.922689141563437509e+00,3.375920226288919412e+00
-2.664610434680768858e+00,-6.420530674434308693e+00,-5.545986796051087797e-01
1.356414071469480342e+00,6.567717905352474794e+00,-1.899498529343699227e+00
2.081078156537842894e+00,-5.645341585365513559e+00,3.777450295666623159e+00
-1.603902332468661429e+00,3.159838622064028435e-01,6.802090961091238341e+00
-1.461456498029343853e+00,-3.221125465230139984e+00,-6.154444653867559012e+00
3.237229791437950421e+00,-2.750763168133850911e+00,-5.528295692915709658e+00
-6.354088066118359635e-01,3.441902919470162470e+00,6.033111282958798505e+00
1.869375728071351883e+00,3.133069066884347720e+00,-5.917110950079034204e+00
5.334152946968404585e+00,-3.523191191778629605e+00,3.162993419141313378e+00
-3.788102777008907740e+00,-5.315065388857503237e+00,-2.186758033068157303e+00
6.227881891935349579e+00,1.784826950976785342e+00,-2.528563942195138470e+00
-2.782403786182611416e+00,-1.298721731455097395e+00,-6.115644824349353748e+00
3.364423046200639700e+00,4.121175016962079773e+00,4.492310655944467435e+00
-4.286001133847315181e+00,-5.287342879640759996e+00,1.523806558607683437e+00
4.448956605766667849e+00,-1.552883080078695244e+00,-5.193855833777526243e+00
-5.736308532198532539e+00,1.295652302791760357e+00,3.708455518990176891e+00
5.333647307612682020e+00,1.300067529053487547e+00,-4.320185979993396153e+00
-3.267873875888578805e+00,-6.073302710908537350e+00,1.103193147674890184e+00
-5.117332012880447145e+00,-2.570539622208977804e+00,4.374886211770720124e+00
-5.365835162736955155e+00,-1.284576697820227764e+00,-4.278338550455024425e+00
-1.738704555966223309e+00,5.816441419203266072e+00,3.317528517049369796e+00
-2.068538644128593340e+00,-2.068609959751671834e+00,-6.391879629123821793e+00
2.176303505839498165e+00,-4.564579119871648771e+00,4.846270488099479579e+00
-5.434946544464136942e+00,4.499358985210535344e+00,-2.749071341076580674e-02
-2.113066324950235053e+00,-1.317970908009117759e+00,-6.532415130729315678e+00
-3.904222174798309464e+00,1.595868516271836235e+00,5.736644478737040309e+00
-1.196410098668127642e+00,-2.784153015450140156e+00,6.350088119217506488e+00
6.053123880603133777e+00,-2.711098117374302063e+00,-2.224364503682203953e+00
-2.544991779571525559e+00,3.867480361266288469e+00,5.165420879111429109e+00
-4.675513781015885328e+00,-5.106116639442621619e+00,-9.763179378751505322e-01
-3.326683976550096400e+00,2.286763396917940838e+00,5.712239337756634505e+00
-6.797789932666264967e+00,1.566460585182463117e+00,-2.352860969543137115e-01
-6.057868827078528362e+00,-2.991216512091569690e+00,1.415063573570650046e+00
-3.209046283221862472e-01,6.574644356429878655e+00,2.088740365838868129e+00
-5.592258620412684067e+00,-4.130913530802853728e+00,-1.044567998053773428e+00
3.681777446483448291e+00,5.446468096597785191e+00,-2.355730371225303710e+00
-4.954729515244585158e+00,2.801549987698094268e-01,4.878274057822941323e+00
-5.344504194473626235e+00,-3.352668130150364689e+00,2.975193429297605441e+00
-2.042242584120781412e+00,-6.819695930462621014e+00,1.086864358702494815e-01
1.101120839658562112e+00,-7.406223391175287274e-01,-6.912723137610898405e+00
2.061368030937719809e+00,3.865236686706808644e+00,-5.515685818593149214e+00
-1.572977870690568603e+00,-2.139173421245177398e+00,-6.360209047490678280e+00
-3.350061582952339467e+00,-4.144513033009721958e+00,4.794633285908071585e+00
4.386716383073235193e+00,3.571952021879006178e+00,4.229084206437728533e+00
-5.414254965211791060e+00,-3.445055403210365519e+00,-2.580521758907052376e+00
4.797259223963024510e+00,-3.270033968759848086e+00,3.900409250246594350e+00
4.951695198183897695e+00,4.011493434089951293e+00,2.387066709348995897e+00
-3.813113144570064783e+00,-4.961621926383058323e+00,-3.265140031014810873e+00
-3.617441309148030637e+00,-5.605620052052772806e+00,-1.714802785565334498e+00
2.203372453430209266e+00,6.570508251353924578e+00,-1.009546647788640561e+00
3.915939343075719670e+00,1.570654923943925196e-01,5.943810818153595577e+00
4.244257333102897434e+00,-3.191815597664991344e+00,-4.666666852110637365e+00
8.171300876212924669e-01,6.787046027137602522e+00,1.408490687636862582e+00
3.035398113523696928e+00,5.888498147192248844e+00,-2.114385497515248513e+00
-1.111204300808391922e-02,5.957939342556747953e+00,3.538476613091147360e+00
-2.686030851599258695e-01,3.445384921356952734e+00,-6.144992848607104818e+00
2.743274323399745640e+00,-6.395581306315047954e+00,-1.655416034805033298e+00
5.925562840548495025e+00,3.803224484597788724e+00,7.682293300318924212e-01
-9.597106445456347057e-01,6.020098317434066537e+00,3.336339342188645141e+00
-1.802933906167861311e+00,-5.288631786906038634e+00,-4.108243610495977194e+00
-2.402826266902030050e-01,-6.324773981641222953e+00,-3.096521160947879547e+00
3.155922363028649702e+00,-4.862839539786284249e+00,-4.036313630728844970e+00
-6.514318090248364390e-01,5.057146788971254026e+00,-4.747617194662351103e+00
-3.634335459516732314e+00,4.852233057450766052e-01,-5.867850934095537596e+00
6.353089958418610017e+00,2.421564838543809550e+00,-1.585706305630325996e+00
4.085203585980436536e+00,-3.958843880549920424e+00,-4.105114386435619878e+00
4.008378622228097043e+00,-4.556152898350255498e+00,-3.488518002099343374e+00
-4.793193908265529934e+00,4.567639274424068141e+00,-1.824592579272956261e+00
-2.797403518002097300e+00,-3.608031481831587561e-02,6.462509307867397190e+00
5.725961852972520916e+00,-4.189734583412615954e-01,-3.737969292272434352e+00
9.852215563769765039e-01,-3.039951731831035620e+00,6.145320827350511550e+00
7.113447435712685341e+00,3.471886319754777239e-01,-7.372748709934904277e-01
5.138552878770431320e+00,-1.405662575902447697e+00,4.449590970190562267e+00
5.521897436710596629e+00,-3.894841860971200109e+00,1.761049684357252287e+00
-7.564425271317513078e-01,-2.726638133115172113e+00,-6.361067763723023738e+00
1.822218414503538053e+00,-2.823197692635055045e+00,-6.094611604780584280e+00
1.877764271579592803e+00,-5.628995990528154358e+00,-3.555461767208415669e+00
6.982423743766874580e+00,9.669160783862031927e-01,2.678722277007365427e-01
-1.466884384629704385e+00,6.836038647203694474e+00,3.943294534993583844e-01
3.595548883742230473e+00,2.446844493896709771e+00,-5.467901989183324929e+00
5.347637459227043699e-01,3.343499588505002063e+00,-6.086611730430035117e+00
-4.201643695632414577e+00,4.044744752956703771e+00,3.907473721346277351e+00
2.466842156411890752e+00,-6.542920499793249967e+00,-5.504114154533826797e-01
6.573143010079260939e+00,-2.750144346830512898e+00,4.871812843133210835e-01
5.762156394261931380e-01,-8.247370456360425539e-01,-6.964179689835608755e+00
4.999774546465063807e+00,1.989371023551535833e+00,-4.648100217906420362e+00
1.408084904110507907e+00,6.889451966396200611e+00,-5.289653014440254264e-01
-3.243598814859163237e+00,6.163846065971864796e+00,6.533929003113765621e-02
2.231171906969066754e+00,-4.796303291451652129e+00,4.706940914133128651e+00
4.185497751422790458e+00,7.278723845623952249e-02,5.583488429896966920e+00
5.514091698411455411e+00,4.293994309163749357e+00,2.414232837602158788e-01
-5.550241621658916991e+00,-3.791565182524852418e+00,-1.965384753527511075e+00
5.941528543733457290e+00,3.312128456581835856e+00,1.488780355740300765e+00
-3.852476582734405408e+00,8.389791983716214929e-01,-5.955013489850733421e+00
3.398367806245295331e+00,-3.052266439312464996e+00,-5.235428885123693199e+00
1.731228049601735153e+00,4.209474821546931977e+00,-5.335555262736691340e+00
-2.820223394845249310e+00,-4.350950841280116776e+00,4.452440049226111363e+00
2.327865359613663365e+00,5.648054829976658198e+00,3.400075164807199180e+00
3.098493912012850737e-01,6.469280359130221036e+00,2.733596172310277073e+00
2.885869856407424994e+00,-2.424146938226067416e+00,5.855496515959141668e+00
-6.321513404686175619e+00,-4.276067794947364109e-01,-2.759786429062663249e+00
-6.474208874101591071e+00,-2.807363015029955555e+00,3.152733772744190643e-01
6.118850176113078909e+00,1.354173914950726365e+00,3.214547280105307880e+00
-6.731687966273019796e+00,-2.188798941047249980e-01,-1.292818870886845772e+00
-6.537985029472419107e+00,1.480337842311981733e+00,2.315392726271293888e+00
6.828867716067299476e+00,-7.507622689360029522e-01,-1.694035696174142736e+00
2.532436345963015034e-01,6.865226396101738793e+00,1.017773004325266628e+00
-5.359753310659183256e+00,-8.137667280124381008e-01,-4.515923875031874424e+00
2.058573506183330348e+00,-5.725985445509295113e-01,-6.674881405045486105e+00
6.514391615131882141e+00,-1.065849199222461241e+00,-2.473839375135380880e+00
4.773343025938626027e+00,1.546459820198220259e+00,4.954538165800128624e+00
-8.685741939170873449e-01,6.729821778320753900e+00,1.918291734313328112e+00
-4.048106266010293552e+00,1.864627220938718022e+00,5.516216917350020843e+00
3.322360682899760498e+00,-6.070699417773639972e+00,-1.251953970138542704e+00
1.861392178074207537e+00,6.053829762982481100e+00,3.057660421718932486e+00
4.484526802227367881e+00,3.189111433415085184e+00,4.341213794150352356e+00
-3.917275880934049770e+00,-3.433233630850172080e+00,4.762942451957859369e+00
-4.743706888488016027e+00,-5.036501733350745802e+00,-2.554140909549475480e-01
5.476710474028848807e+00,-4.323599619368471814e+00,1.169128862428885363e+00
-3.036181450809801508e+00,4.949829425419136619e-01,-6.218913503649606156e+00
-1.294592698313459689e+00,-4.737553512730821481e+00,4.987998063930368708e+00
-5.720370660215087222e-01,4.526981956327085221e+00,-5.418088439883176122e+00
-1.379193764976669900e+00,-6.786238308354264781e+00,1.577756713605904526e-02
-6.859130341702685207e+00,1.221523769654670355e+00,1.019593034630448036e+00
6.007864073407839456e+00,1.162485303236413969e+00,-3.207111922848632446e+00
-2.822242877794672200e+00,-5.548279075730942367e+00,3.035478065833636663e+00
1.440653377529718393e-01,5.754766555799792904e-01,-6.977321699068293803e+00
-5.340852160794649528e+00,-1.821511165115376807e+00,3.984931716587771344e+00
-5.807221233613498512e+00,-4.114095729842687454e+00,-6.549450118630182338e-01
4.114749446530196586e+00,-1.342055617046109317e+00,-5.367892736230369444e+00
3.663888602867952649e-02,-6.875679047744560179e+00,-1.193373124079526004e+00
-6.704132241073478049e+00,-1.716543245299620324e+00,-5.461128017422792746e-01
-3.046719930143161115e+00,-3.879276130153537228e+00,-4.853289880837354353e+00
-4.335556159453588521e+00,-2.205598979649361358e+00,5.015665704973644168e+00
6.367029265168403285e+00,-1.748761456282406535e+00,-1.985617581800957820e+00
-5.481684658874384830e+00,-7.362513734118912856e-01,4.265775466956786666e+00
2.250121187565965464e+00,-5.232215323689819009e+00,-4.129587472804026937e+00
-4.797053035168003632e+00,-4.782486326783707220e+00,-1.498670152862408012e+00
2.895196244011200903e+00,5.602057085686467985e+00,3.020666203675999473e+00
4.831747355840372293e+00,-2.243172820483011254e+00,4.396775921239087559e+00
2.901269541408170394e+00,-1.659714066456817960e+00,-6.099203358984014223e+00
1.863504322838474558e-02,5.188659662934390404e+00,4.491612536880583484e+00
-9.186649510267289598e-01,6.451295337917919426e+00,2.432495923465167298e+00
-1.504920066137061641e+00,2.507240135987825358e+00,-6.298177781013681198e+00
6.581102531819772672e+00,2.626782757298725457e+00,4.457791577990589948e-02
2.977868066835808847e+00,6.225449728354957912e+00,-1.353698588956978810e+00
-2.261574867113929077e+00,-5.617013936250309314e+00,-3.504404854134086200e+00
-5.943632116289391476e+00,-1.952651882361608360e+00,-3.194786694733667165e+00
5.567265175830038437e+00,4.269760301824008231e+00,-1.704597043421055003e-01
-7.074759735345922174e+00,7.355895972403242444e-02,5.573488368797715475e-01
-2.057243014273173909e+00,2.302103916809461470e+00,6.265966984494411030e+00
3.059441730518400182e-01,1.350061245742657290e+00,6.814213719203986663e+00
-6.344760107971747054e+00,2.012865937561200358e+00,2.470568623340593462e+00
4.963076056838182204e+00,1.583754377442526673e+00,-4.731863161307497734e+00
-5.116479149277642691e+00,4.759536428855673407e+00,-6.683750001971171251e-02
-3.011731906573786866e+00,-4.921568273141793348e+00,3.967877383286791737e+00
1.345631728645466207e+00,-4.133477901278080680e+00,5.465125653245774373e+00
-4.928977303501096419e-01,-3.425858878424937526e+00,-6.180510366396166688e+00
-6.859193796022950096e+00,7.881350793239459973e-01,-1.301337957762060960e+00
-2.325923804911232740e+00,5.871033982258425432e+00,3.057489564151810946e+00
-1.567651370534473676e+00,5.290272139532339324e+00,4.306461463330065520e+00
3.274810476636892620e+00,-4.601526884768433412e+00,3.872318644316499192e+00
2.403261933641859027e+00,5.386176779596107522e+00,-3.582145207652381647e+00
6.291759173986465115e+00,1.544678595639025209e+00,-2.721307847669107272e+00
5.482750496758361791e+00,-2.617223512352741643e+00,3.640377262875729159e+00
-2.650093793045514623e+00,-6.523690025175437057e+00,3.401964315709501419e-01
4.165757072914628267e+00,-3.026509698258336822e+00,-4.632882731707514523e+00
3.581414795325975398e+00,-4.981332939797362691e+00,3.586694999985617915e+00
-5.725667007243325557e+00,3.471473909343162578e+00,-2.185957232061201516e+00
5.095735319392868057e+00,1.799111708858551761e+00,-4.242360999376167285e+00
4.810396701765849770e+00,3.450407307074085494e+00,3.598326370635022364e+00
-2.449461654172949476e+00,-5.951427323980701622e+00,2.611178737771413960e+00
-5.344978950591134037e+00,-4.381070871338393680e+00,9.201872726178356166e-01
-4.815139814766773441e+00,-3.936421703908457914e+00,3.292813437644176222e+00
1.454812354525334972e-01,-6.990662288850792550e+00,3.755772226933596913e-01
2.460327974124228767e+00,6.300214693987799208e+00,1.837104459100334264e+00
-3.965960749017986564e-01,-4.310347273239710120e+00,-5.301086376918929588e+00
1.540296181290049748e+00,3.550938059673621527e+00,5.907437496823997769e+00
3.592493855828117866e+00,-4.280952298785009269e+00,-4.237313633412432168e+00
-9.675692276491901778e-01,4.796369642006665379e-01,-6.901999180098042252e+00
6.629257598692939180e-01,-2.010530784434296336e+00,6.717599142938706969e+00
-1.803527437731187844e+00,6.604822115837173158e+00,-1.223508794996549742e+00
-2.206748138406827042e+00,6.421649048606439258e+00,-1.662257289811434724e+00
-8.654447983366745367e-01,1.811449530298399613e-01,6.898594350506484396e+00
-1.270348615121197344e+00,5.973883662856394494e+00,3.358942801454889437e+00
6.608414433617189943e+00,1.623926022999429009e+00,-1.683197838262651347e+00
6.465573615886200942e-01,-3.200570429139727668e+00,6.229513787092541222e+00
-1.023282371978066818e+00,3.869598888043563445e+00,-5.657408804027532767e+00
-1.452796691605412249e+00,6.391894254921014706e+00,-2.341670364076918975e+00
6.448215618792774606e+00,2.787961469693366556e+00,1.290912937053326326e+00
-5.269350685363979991e+00,4.304466201787012558e+00,1.733186053615397570e+00
2.255924674509206085e+00,4.143441981802026497e+00,5.253559146670800928e+00
1.683554888931729776e+00,-4.057710906509915283e+00,-5.433263374506855037e+00
-4.477348586956538590e+00,-4.836652723158448630e+00,-2.314586221680654088e+00
6.878765194021422502e+00,1.943966631412942792e-01,1.354484511548428749e+00
-6.534750987690171264e+00,-1.595980072653481407e+00,2.253919041554880209e+00
-1.360029443877794009e+00,6.735847810203727803e+00,1.419661065194652849e+00
1.453811505756203992e-01,-3.653756159896011990e+00,-5.987526669440605964e+00
-5.681492451385357079e+00,2.893022496015128731e+00,-2.621352092662919020e+00
-6.466488816924169214e+00,4.478364137414816981e-01,-2.882690586482936190e+00
-6.499381613797733159e+00,2.218267279600649289e+00,1.244624673679686655e+00
5.588744459765581318e+00,4.051291045494953558e+00,5.042350226117827683e-01
3.537653536634852269e+00,5.283559430935891754e+00,-2.932538213851715980e+00
-6.397726822368376531e+00,-2.204790231588345417e+00,1.911362110929845315e+00
3.415924112667229062e-01,-6.863966262827716491e+00,5.284865948559648308e-01
-8.482568158306167394e-01,4.572572800998536913e+00,5.258174200425335343e+00
-2.960481734847146273e-01,4.307871374873510462e+00,-5.419773380490275905e+00
-1.733571511158619405e+00,2.107307491265617116e+00,6.430166268950676667e+00
-4.324277226068056201e+00,-5.257989333726595937e+00,1.691929799969361214e+00
6.013006314322971058e+00,6.110935090299879358e-01,-3.362889408687026460e+00
4.249389860092222193e+00,-5.508073112545488925e+00,-1.745815945827688953e-01
-3.421718202727670910e+00,-4.418313451305775352e+00,4.319930202068087866e+00
-2.421188036485632633e+00,-4.695016473112937128e+00,4.524582784289283843e+00
-1.524054985391768424e+00,6.508710320430819429e+00,-2.454925052473151847e+00
-6.945944571292400838e+00,-6.100474424280796226e-01,-2.650738444978959496e-01
-1.486889699391358732e+00,6.507424241141525734e+00,-1.826468088575094573e+00
4.126174684828212591e+00,-4.349553703777374380e+00,-3.544142502551163698e+00
-6.381680285270777020e+00,1.352834756929380822e+00,2.489249459974128609e+00
3.375255597191677115e+00,-5.114198939708476388e+00,-3.361026016696884611e+00
-3.027141195337508695e+00,5.966952928406939805e+00,2.254527547684157085e+00
2.499898619507079811e+00,3.095191385847873011e+00,5.719177446264652964e+00
-3.786517184235765221e+00,-1.604640779166897291e+00,5.592596794588130749e+00
2.864715178650016902e-01,-2.103456642443907842e+00,-6.642263223852849841e+00
-3.957292954500071236e+00,-5.683447332867547885e+00,8.309227299352962559e-01
-7.728057811208051235e-03,-4.658349082170960109e+00,5.206736532150259222e+00
-4.755790476783190002e+00,-4.687056415596171810e+00,-2.026089305239429983e+00
-5.495060835318808401e+00,3.434126226362811174e+00,2.700062906587535672e+00
6.232087432288948570e+00,-3.106301286154896424e+00,-7.605360844176253243e-01
-5.387987525617860207e+00,2.219918351356869879e-01,-4.420918325368534241e+00
5.901497790581790248e+00,8.604904832061663900e-01,-3.800825738656792740e+00
-5.552393202607589728e+00,-1.999813300883907852e+00,3.883991884950678486e+00
3.043482864478790351e+00,-6.001333204175837821e+00,-2.008583026553802497e+00
-3.179102158947688106e-01,-5.186235228486651749e+00,-4.603212466516738210e+00
-1.502713696255146614e+00,-4.339424019253727671e+00,5.312888947838689369e+00
1.238076090212227198e+00,6.145173541016057950e-01,-6.897832070844772012e+00
3.877635280307031973e+00,1.765812840345836188e+00,-5.525486832445491103e+00
5.770427005707965407e+00,3.550477437879725251e+00,1.491640454709337149e+00
-8.365940421646743674e-01,-2.462204643678151950e+00,-6.453807288183402768e+00
6.399115255189578910e+00,-1.086676864941876763e+00,-2.907611638401552234e+00
-6.522747094672411983e+00,-1.051009897336450560e+00,2.541819258404192539e+00
-7.036678653264242023e+00,-2.277890227252697686e-01,5.073207009733839978e-01
-4.008925094121214450e+00,4.605928849393427171e+00,-3.231229435341230527e+00
-5.045664510941643144e+00,4.460767397854860761e+00,2.144000192408428429e+00
5.043060774979136518e+00,4.812862170046252608e+00,1.428300938923591001e+00
4.628109787681034426e+00,3.432692037123024953e+00,3.993472457607889492e+00
5.896131671562550025e+00,-3.447903777279780257e+00,1.184181390185909954e+00
6.867300803753024319e+00,3.151652064217901339e-01,-1.393629176019663074e+00
2.500893017577813904e+00,3.334864115758543246e+00,-5.727455053259461693e+00
-6.499332779254371140e+00,-4.358656183769092363e-01,2.854748158620708853e+00
-4.847626158537408969e+00,4.919264585429801606e+00,1.130513771226071773e+00
2.524754016312086069e+00,4.215360157251942574e+00,4.955910930845768725e+00
1.628651344665389855e+00,-3.664549088375028130e-01,6.759664393554213113e+00
5.623065103140732823e+00,-1.345831872558913123e+00,-4.134367381449722600e+00
3.684869370941926459e+00,-4.614445307688880282e-01,5.988788108101658736e+00
3.932186487375180395e+00,5.232132371333768184e+00,2.541207683252301841e+00
4.716371839989605519e+00,-3.612401222564901815e+00,-3.751940654153310906e+00
6.399083844629613327e-02,3.974604268020206721e+00,5.850981980959970130e+00
-6.316690219989426147e+00,2.181087601079222615e+00,2.118310572782621026e+00
3.788581154288400477e+00,-3.089229099373782095e+00,4.950618797099782142e+00
-5.882726369737858896e+00,1.087376560013317839e+00,3.619232384912422162e+00
-4.423095374571617278e+00,2.781367892809866182e-01,-5.412944410794976235e+00
4.653677548497619831e+00,4.987390055282411971e+00,-1.806243516853347497e+00
-2.422384997033325771e+00,7.031308937663330871e-01,6.460807911727862951e+00
3.415470270635939443e+00,1.555029036832578759e+00,-5.903714277836467517e+00
-2.780810641982195186e+00,-1.482109856933148340e+00,6.193239135081913815e+00
2.809483370510730271e-01,-5.236023344761979725e-01,-6.954339009848457209e+00
-4.077742594526139186e-01,-7.001831901005708403e+00,8.002107353327088113e-01
3.321837072384307810e+00,-1.214085116334920444e+00,6.051924449623241387e+00
-5.965069944068947194e+00,1.886489983718721009e-01,-3.646235075883994092e+00
-2.554224130464948672e+00,2.032619494971579677e+00,6.142563777443504236e+00
1.734315951242368925e+00,4.471161267553645402e+00,5.095571314394423901e+00
5.631680421875707943e+00,-3.948980074353916514e+00,8.269525491535302253e-01
-1.703416980755541710e+00,6.740947426781326079e+00,1.071664842462778156e+00
-8.070808673634366492e-01,-1.234098138929638377e+00,6.949597607071792638e+00
-4.757281982582240332e+00,-9.058535901044704186e-01,-5.089175846375895595e+00
-1.376244207821725851e+00,2.807101123846994284e+00,-6.145267873842302997e+00
-9.366663547084130848e-01,4.051016274528719485e+00,5.504614302823864769e+00
5.396546614052698310e+00,4.246306375923744270e+00,3.260642646844457149e-01
9.313400964698392848e-02,-5.620137070238374832e+00,4.092535925182803069e+00
-1.838386773866957702e+00,4.511179539080436007e-01,6.862122564830940519e+00
1.383389527971630839e+00,-1.508477373647653552e+00,6.752900958731799186e+00
-6.847293162776202813e+00,6.131252395259395582e-01,-1.584568361644335344e+00
-6.197177607920102638e+00,-1.500049863252395754e+00,2.837293856803447145e+00
-3.707441495442621360e+00,4.465025159610970240e-01,5.920147800434298446e+00
-2.889490802670021896e+00,5.090832212931986067e-01,-6.530473286761875329e+00
-4.679600211005848998e+00,2.688246500256634697e+00,4.581965060222707997e+00
6.471488613071997520e+00,-1.476822397100929551e+00,2.265920233574259868e+00
-3.362081075755477766e+00,-4.517587945209418088e+00,-4.276668408434722402e+00
-1.904541971364093422e+00,-2.102227779290224419e+00,6.466295675162247569e+00
-1.752607655813136933e+00,-6.624632241815410438e+00,1.324896045626221763e+00
5.726098463693788609e+00,-1.008259631513136689e+00,-3.755602955459702574e+00
2.284579158514575159e+00,-4.948525863355760279e+00,-4.566491666084778522e+00
-1.926863704686582413e+00,-6.682909877524155107e+00,5.018559670376858683e-01
-3.746734962726546492e+00,5.921580377950018459e+00,-1.764330744416217345e-01
-2.862504795247354239e-01,5.092256088694532501e+00,4.875541750379485784e+00
3.146679718526266267e+00,-5.808043005119587932e+00,-2.048303082072750581e+00
2.947723232326656895e+00,-4.471301189560337619e+00,-4.603597246767762385e+00
