-5.231002393729494493e+00,4.358262309966650649e-01,1.414911770105343303e+00
-2.593192537642324158e+00,3.506649444106530122e+00,3.282814989571680275e+00
-1.819469311360778496e+00,-3.234982401046386347e+00,-4.113327616107199880e+00
-5.059337914994979535e+00,-1.782112100381807673e+00,-9.130055966067974760e-01
-3.696537736049554823e+00,3.972376861874941323e+00,7.547220257523648002e-01
2.575314019223430506e+00,-3.688016428086796861e+00,-3.131464384309014637e+00
1.738647867648916323e+00,3.424736460933577309e+00,3.700309867878593284e+00
2.079810599911694702e+00,2.280633191533167015e+00,4.470128034944881534e+00
3.082384807629484857e+00,2.285686046673290228e+00,-3.928337105961632769e+00
2.749516125255884624e+00,-4.639164176884493784e+00,6.458096396909573933e-01
-1.458215516344146812e+00,1.179713035216366501e+00,5.154639272793186677e+00
-1.568341589365772615e+00,-4.627932641971725047e+00,2.610471927291582617e+00
1.262550377026251169e+00,-4.604162297875483034e+00,-2.757976027963899845e+00
-4.964110790675662521e+00,-1.729382307836789368e+00,1.331294665388011556e+00
2.091922092371965025e+00,4.766173562044394352e+00,1.548975302125505937e+00
4.471581133980338518e-01,-4.940993991801123641e+00,-2.124470532833299341e+00
3.071848684909767702e+00,1.459931020010790226e+00,-4.262501854184824523e+00
5.033673604400837220e+00,1.245110028869280017e+00,1.691337966664709258e+00
-4.482182751815454225e+00,-9.951605274813648538e-01,-2.897120974460371201e+00
-6.588387079403813518e-01,-1.432950205542856015e+00,5.381288039835871118e+00
7.262684133792457475e-01,3.218185057369546076e+00,-4.536228383892961347e+00
-4.924711673214331675e+00,-5.493581920167546206e-01,-2.281076358783607372e+00
5.464062052627099320e+00,-7.820928941792645306e-01,-6.004177968957929989e-01
-2.009608511789775065e+00,4.376604334609432101e+00,2.617330836240047809e+00
4.894397718835007183e+00,-1.895359468029208072e+00,1.715016564658399467e+00
4.935793180691705473e+00,2.432700585249334413e+00,-3.129355502793970678e-01
3.204792493365649975e+00,1.514876516289897612e+00,4.143219681976349378e+00
2.355356466518009118e+00,4.890946418336379331e+00,-9.028420255848954579e-01
-3.497682861455915670e+00,-4.220741605253470752e+00,-1.810484261364686265e-01
1.385818770516269227e+00,1.769009512971950748e+00,4.997070660303083223e+00
-5.690046838421582986e-01,-5.159369228164837118e+00,-1.893617526927743322e+00
-4.370924734074941309e-01,-2.783571394640691032e+00,4.603681905508738126e+00
-4.447142629672494962e+00,3.041794273766035950e+00,-1.028824757519677169e+00
1.090823129495070987e+00,-5.288400674757657072e+00,-5.254209561267082496e-01
-1.670656225196521794e+00,-9.601634419953228861e-01,-5.153445169849069529e+00
-2.107884192991075878e+00,-4.922137659909417984e+00,-4.280849274496176249e-01
5.221001395093179731e+00,3.378227287417678304e-01,-1.231094647222793714e+00
2.821972082227834466e+00,-3.092884352249698932e+00,3.608393488744414679e+00
4.167428572724856117e+00,-3.251840125579591234e+00,1.136434299154705618e+00
3.961496151074558325e-01,2.390137424396356902e+00,4.905819521651790360e+00
3.172006655932110952e+00,-1.642576042023329963e+00,-4.112914828765972253e+00
3.482216955402428926e+00,-4.001275844023118644e+00,1.155652079273810307e+00
-4.025803131048788508e+00,-4.208620875611024381e-01,3.639120235710555207e+00
-5.088082481131058543e+00,1.980295038190581947e+00,6.678821235533228817e-01
1.250100594080833183e+00,-5.340091868517288454e+00,3.357128483696864008e-01
5.571548251295748155e-01,5.327931338900262048e+00,-9.867229339519522080e-01
4.334061603587373135e+00,1.096832522846336699e+00,3.392350015563888377e+00
9.403764296056292826e-01,2.449485691106902951e+00,4.829671573064799439e+00
-4.057092691270368867e+00,3.654638056092840426e+00,4.904959454359688054e-01
2.202391668868776797e+00,-1.601392085593376091e+00,-4.782968379943561388e+00
-1.854119362899002255e+00,-1.236880230268087022e-01,5.162444450302626109e+00
-3.928466794501682902e+00,-3.658000017364519518e+00,-1.358753814509548130e+00
4.484166278809089690e+00,3.110374679050192381e-01,3.153660864651080864e+00
-4.993388636396930202e+00,2.179574620190677159e+00,3.307309043110686630e-01
-4.083396315260202414e+00,-1.654421808181242071e+00,3.409130081407851787e+00
-3.060244979335775550e+00,4.451777014084228767e+00,-1.125513193745722174e-01
-2.147173671654334814e+00,-4.846968611585224629e+00,-1.494415885016369128e+00
2.974057372262306487e-01,-2.096808127345234585e+00,-5.066119509649129604e+00
-2.915455252223029703e+00,7.826899043927556532e-01,-4.561459607366948887e+00
-5.552285023462750324e+00,6.005553369128877605e-01,-1.781692314495488538e-01
-4.349617221029118408e-01,-4.559558194952670895e+00,-3.054007644559572299e+00
3.608573578614682642e+00,-2.568926977297839809e+00,3.298659937725876290e+00
3.374794586580160405e-01,4.692689587822170161e+00,2.894562143676973953e+00
1.630650906820946267e+00,8.737622222239954661e-01,-5.171351056558776804e+00
4.012600542935564008e+00,-3.803835864539593103e+00,6.766223059176789123e-01
-4.873313553010917509e+00,2.485386818267342424e+00,-2.553221744771022039e-01
-4.324645962056517412e+00,-2.421841773269682641e+00,-2.276024315711945523e+00
-1.366918959950622181e+00,-1.267234273150923407e+00,5.190509674109096139e+00
1.592054437976295755e+00,4.599463876506959537e+00,2.330746874185594120e+00
-4.368326759100217060e+00,-6.942350250719857563e-01,3.263576194118635865e+00
4.955431830426004325e+00,-1.395926363992434860e+00,-1.765208494351806046e+00
-1.440375481036685335e+00,-4.656566038916856165e+00,2.487636211016433840e+00
5.121178784722808963e+00,-3.279993351095430443e-01,-1.908534684031744533e+00
-2.976905220041710098e+00,6.366897080103828266e-01,-4.493251716177582900e+00
-5.216930976495585348e+00,1.035035535699435405e+00,-1.282196586920524961e+00
-3.578039922249008686e+00,-1.092633411061982196e+00,-3.888612644242024352e+00
-5.424528098500987383e+00,-8.196308991393932986e-02,-4.180506965796009222e-01
4.373885309201393845e+00,9.178818685097533958e-01,-3.130094016415143177e+00
-3.827924208016394214e+00,-2.501338340292000861e+00,-2.913802139299991545e+00
-3.451229104397567138e+00,-2.538057596728724441e+00,3.498711570195176535e+00
8.547635454185010806e-01,2.806861874196704854e+00,4.661176756486545614e+00
5.445303767343233403e+00,-6.214713070242723347e-01,-3.306077739135884208e-01
5.050373643976437954e+00,-2.072375981569581249e+00,1.921953449414120496e-01
-1.328611418685429202e+00,-3.394733811275399749e+00,4.047569402080806178e+00
-3.956117445167555702e-01,4.680452039939545728e+00,-2.843607537352594417e+00
4.137079629676446935e+00,3.200031560259275931e+00,-1.547873534753684055e+00
2.480767501811554254e+00,-4.602575199830347685e+00,-1.625706056950230627e+00
2.185082896019160170e+00,1.433310752359400864e+00,4.893982331902576810e+00
2.715724921952450188e+00,-4.039495079983006498e+00,2.469586064424532879e+00
5.111975399129248032e+00,-1.848878429974480486e+00,-8.494479933848828601e-01
5.449018661400270247e+00,5.037257174278925859e-02,-8.449966932623907967e-01
-1.222689772980306122e+00,-4.186153931717230492e+00,-3.186651854122478422e+00
-3.054392019813530368e+00,1.764513838370497245e+00,4.235467812961165812e+00
2.905055401460916453e+00,-4.360564483693035953e+00,1.271348290982476037e+00
2.459390283454287118e+00,-1.514277525775947320e+00,4.755879694111213141e+00
-4.313781654896299500e+00,-1.821947352056123570e+00,-2.878448359453201988e+00
-4.581205700647908441e-01,1.124218531356147688e+00,5.371398556362974475e+00
5.063448648702866262e-01,5.343426076291118321e+00,1.327774698920796803e+00
4.770960425710432773e+00,-2.609571636613313039e+00,-5.170582771716987491e-02
1.564310436496796575e+00,-5.203016511222887885e+00,3.282196379635481942e-01
3.393032074853007618e+00,1.755941718069434110e+00,-4.018087920423288217e+00
5.110190217434220639e-01,-5.307028412041949750e+00,-3.180575998145762640e-01
-6.147183115110784746e-01,-9.313392694202209388e-01,5.363139979659801604e+00
-1.778258303511549787e+00,2.756899226703907857e+00,4.396984146164245821e+00
3.188383797316089119e+00,2.054901852798551865e+00,4.058506639553394635e+00
-5.232597692653238930e+00,1.304788040391994919e+00,1.211093208604524518e+00
4.874212292955399484e+00,-1.890732828489701145e+00,-1.475737829093985543e+00
6.727176356734346774e-01,8.247572508568756788e-01,-5.397471560198983553e+00
1.651324501915037102e+00,5.031625305222791944e+00,1.506007517666531070e+00
5.408904337519058636e+00,4.961472160843278800e-01,6.992234360601027321e-01
2.705068979593455936e+00,3.881287646763578181e+00,2.753464179213209295e+00
-3.702278676849026784e+00,4.020451419951365679e+00,1.667692228377722907e-01
4.478725116177145971e+00,-2.164564496364832280e+00,-2.203208334854259931e+00
-5.986914353736521033e-01,-3.817697855313545219e+00,3.905695611651512689e+00
-2.201570131157168930e+00,-6.948069117200127431e-01,-4.949420024185433142e+00
-1.523010611962684502e+00,-5.254949781886012694e+00,1.253421712805644628e+00
-1.871031225598447145e+00,5.028238732590270210e+00,1.202178089305465658e+00
-2.708754050200024910e+00,-4.153753257620253159e+00,2.357178521175178343e+00
-4.239643110655614500e+00,3.501050938295347859e+00,1.126268818644113844e-02
-5.410223226415496356e+00,3.256468681206271115e-02,5.099447513099076845e-01
-3.859736489833702766e+00,9.820054615313980051e-01,-3.856481173488563119e+00
-2.490785418390078221e-01,-4.694592108789378493e+00,-2.674213389601497681e+00
-2.273634299871352127e-01,-3.467044454227435235e+00,-4.103981930085277341e+00
3.621031484408445689e+00,-3.269929664163105265e+00,-2.336107318716630576e+00
2.198282925027926993e+00,7.485264490558632966e-01,-4.902071439727972546e+00
2.399617333946733488e+00,-4.399396921037146413e+00,2.185529792572018959e+00
-4.351145995976381187e+00,3.204494243148609645e+00,1.132919396695295955e+00
-2.405480861753689581e+00,7.233836421226014571e-03,5.000895196907825913e+00
-5.211650525839035986e+00,1.103152000758560236e+00,8.760764582901361397e-01
-1.739516918359648168e+00,5.018368944987805058e+00,-1.737842634939656294e+00
3.953922791753785027e-01,3.104312740356280464e+00,-4.564737600662378547e+00
-5.220688537919303762e+00,-1.251471354370715661e+00,1.078434485482041350e+00
3.407572572170081582e+00,3.127030715263062977e+00,-2.897137408476096798e+00
-5.055951886006563312e-01,1.446986713925118018e+00,5.231752231714549062e+00
3.073013723628294613e+00,3.914428646646017085e-01,4.317247461338828529e+00
-2.844145837481955930e+00,5.808235133089590940e-01,-4.656955555209370878e+00
-1.484061584907146125e+00,-3.969867335778320960e+00,-3.442501597653650602e+00
-1.698364834480422081e+00,-2.864374584465152473e+00,4.382491125899339757e+00
-3.428402507350798878e+00,-1.124944704840473486e+00,-4.103073852578233094e+00
-7.189144575346981814e-01,5.268950393328212911e+00,1.026602388398145882e+00
3.807606689208594908e+00,1.760746786484818749e+00,3.591424456756220351e+00
-1.799086666936444479e+00,-5.165460148924313266e+00,-3.210234415069349589e-01
-3.115589627320253019e+00,-4.262026563920311872e+00,-1.287417155844008176e+00
4.736512470774355776e+00,1.483429952212525604e+00,2.431385443738180552e+00
-1.132698242366613067e-01,4.681160632179944159e+00,-2.985560883562073720e+00
3.535028617485046709e+00,-3.911824089299237084e+00,-1.547894082757497403e+00
3.769228130576316005e+00,-9.497726512978099667e-01,-3.913359695082416323e+00
5.485658308890354329e-01,5.129033751036123689e+00,1.168333151374413070e+00
2.914665408386606149e+00,-4.561658883022383648e+00,-1.005166175483741986e+00
1.378069354967057514e+00,5.275525348572576156e+00,6.551687994095334311e-01
4.803407130549840254e+00,-2.505080847700623892e+00,-8.764744801890522741e-01
-2.429295659661123707e+00,6.022555529775343031e-01,4.872697429011404679e+00
1.292099282181309539e+00,4.504692923352950906e+00,-2.893577224089164623e+00
-4.050611267575358054e-01,3.994882692957419934e+00,-3.774391875783958294e+00
3.579511404469683633e+00,1.844484182643626236e+00,3.663743628394325214e+00
-2.579072156772643787e+00,4.940347806831011823e+00,6.906799434157447071e-02
-2.999858972347249075e+00,4.415499100619810768e+00,8.286021975403373707e-01
-4.921787710174446495e+00,6.529931546846766688e-01,2.338790708112918004e+00
4.872570444266689726e+00,6.135915686857804641e-01,2.574983810110869964e+00
9.450929472589555402e-01,2.530913939031274484e+00,4.732479791797365998e+00
-4.829939106760954282e+00,1.592019902630035899e+00,-1.847387980346850700e+00
-2.638438427319843349e+00,-4.084904347857094997e+00,2.365626145517425893e+00
3.423749394426840453e-01,-1.579246750266543320e-01,5.472403754346982119e+00
3.775501806004942562e+00,-2.244874372096867798e+00,-3.208574674117369963e+00
3.238085439666024801e+00,3.537847599740737259e+00,2.603619420170514509e+00
-1.822838374280740803e+00,-5.230948494435788021e+00,-3.828778870779616945e-03
3.597207708702418127e+00,4.130436989436692130e+00,-8.512463107692426201e-01
-3.977427889747036538e+00,-3.766192503017368853e+00,-5.119484625164050229e-01
-4.761563744336547721e+00,9.774961299857470864e-01,2.414703657482351051e+00
-1.948410950136124198e+00,-1.937142480969681557e+00,-4.631471173714046152e+00
-2.492141856591002735e+00,-8.021810602755262698e-01,-4.842492818332011062e+00
-3.900078966611655318e-01,-4.807862783491898107e+00,-2.677168977277355921e+00
-2.630926142145148638e+00,3.233711706903781735e+00,3.424793133713409876e+00
-8.819780705793620612e-01,5.398840743001193765e+00,-8.149407869121574333e-01
-2.979673046591485353e+00,1.785082784449984361e+00,-4.246668265377505413e+00
-9.134067278108947141e-01,-5.344026025341733543e+00,1.093036396834308643e+00
5.372145450779219900e+00,1.495551649233132219e-01,9.741524195103271611e-01
-2.907228873958010995e-01,-5.318429565736174425e+00,1.256874481989315617e+00
1.893439343693289256e+00,-4.331232562054722735e+00,-2.793080855865268219e+00
3.865846462963796082e+00,-2.301212551074010459e+00,-3.080812269838244521e+00
-3.508198881900320032e+00,-2.222055625869620687e+00,-3.564082508803979810e+00
3.931734477486322099e+00,3.313458260237366115e+00,1.713118631428120597e+00
-3.355939278530004177e+00,-4.270104321950579873e+00,7.564969027458411377e-01
3.074968769860862761e+00,7.851796463062834519e-01,-4.560278551484193699e+00
1.197484437767420529e+00,3.497368927178551967e+00,4.109203673582897842e+00
-2.806887068057885237e+00,-3.184487839560802058e+00,-3.404681968782155010e+00
-1.340187428116045298e+00,3.887078510709200074e+00,3.585325875592999978e+00
2.698974623772237624e+00,2.468826728370469237e+00,-3.956716044280471412e+00
-4.160018576347924935e+00,-3.271499996451913361e+00,-1.067189708761566935e+00
-4.801179990808862819e+00,2.251383520568381424e+00,1.228933425832409609e+00
-4.370710051032515864e+00,1.300621049973254451e+00,2.988395342600115967e+00
3.843967392375786218e+00,-1.905445473309103965e+00,3.428494295845602391e+00
-3.906705684507638221e+00,-1.853053305416265673e+00,-3.410350109945846420e+00
5.037472256203938237e+00,-7.871918507302544388e-01,1.858672800596357311e+00
2.080478658223181565e+00,-1.461046768379978378e+00,-4.865917788458913762e+00
4.422485602074256228e+00,-1.697468322483205894e+00,2.795709169575403497e+00
-5.339900893174742258e+00,3.674834754394357694e-01,1.108527658729296483e+00
-4.188260435433257989e+00,-3.018659556953828371e+00,-1.698799559714284646e+00
1.745173159363010651e+00,2.049165764412780977e+00,-4.802198625944196664e+00
4.368503341467584455e+00,1.274000717056703813e+00,-3.075892177607984834e+00
-2.922364834700811542e+00,3.989561678537749123e-01,4.697818967315305905e+00
-4.937796475719796185e-01,-1.428103824187011650e+00,5.304244406403972434e+00
-4.764941214146539039e+00,1.308281193953202415e+00,-2.471624325071687167e+00
4.930613756614278032e+00,3.525707917259585655e-01,2.252923888047731360e+00
3.167899797990811894e+00,2.496285300259960316e+00,-3.607991448686435731e+00
1.103148432134207990e+00,-4.440958099975461093e-01,5.260023811324988863e+00
-8.334295454641901246e-01,-5.179771867203136537e+00,-1.703328442680712485e+00
-5.215286940195669629e+00,1.457055226912215673e+00,-9.892038107094880406e-01
2.881598465028949452e+00,3.031790253169492022e+00,-3.535860633474866788e+00
-4.296668450452887811e+00,-2.399935684186219387e+00,2.469901711946796752e+00
4.127097486935150883e+00,4.896450241554247684e-01,-3.545277439783468765e+00
1.469202345144087651e+00,4.053944868341222474e+00,-3.346619575371911015e+00
4.253292082406677999e+00,-2.876152140745993790e+00,2.059764796162424361e+00
1.222403208436939392e+00,3.128986837317937031e+00,-4.281482869499023458e+00
3.535413855679313322e+00,3.751037661993237293e+00,1.897072878550071673e+00
4.900777362184330355e-01,-5.491327168703716843e+00,-3.821504790879504815e-02
-1.950408913850343984e+00,5.048833181374866363e+00,-7.205384766437679112e-01
3.179140546962277547e+00,1.660256046882028214e+00,4.090496875254554077e+00
2.722594234908389255e-01,5.155482250013881718e+00,1.843439949353724350e+00
-2.856970008454225773e+00,4.503903646465653665e+00,9.445571433544773798e-01
-3.554355619431423641e+00,3.195511893915903290e+00,-2.707297988720531290e+00
3.503703017836089728e+00,3.621739846176913247e+00,-2.222839427042344163e+00
1.490313980897976398e+00,2.136422793137719989e+00,4.685262623988718289e+00
2.479214534490636446e+00,7.317082421959375527e-01,-4.858299637055186082e+00
-4.171923786389695188e+00,-2.126088191178312048e+00,-2.899989826536235604e+00
1.353476203930814803e+00,5.279066772561135323e+00,4.313611552190975695e-01
-4.505377466076383897e+00,2.092206510653579876e+00,-2.473121115253349878e+00
2.929514042830767107e+00,3.860827404620400305e+00,-2.495169015158611892e+00
-1.377260896696141490e+00,1.561338750048030466e+00,-5.082401411715802730e+00
-3.303022016870744149e-01,-5.001822531885227185e-01,-5.497351081629219038e+00
-4.113356201695030773e-02,5.457264551734848368e+00,3.204581722170687930e-01
4.187910387762737940e+00,1.801538953794629361e+00,2.847847763815415600e+00
-1.960715013196073331e+00,-5.112217791166943748e+00,-2.768439667603586063e-01
2.740471248930681725e+00,4.579373693702064152e+00,-1.075141693997650139e+00
1.322677569051985191e+00,-2.543058105804822500e+00,-4.662350798015557629e+00
-4.221335140082499215e+00,3.629656901664167212e-01,-3.496223235067892343e+00
-3.515745909507483002e+00,-3.707361345396160246e+00,-1.942144250075967360e+00
3.380761347085886825e+00,-3.792843198591322462e+00,2.140378604055092726e+00
-2.685174897614965861e-01,-4.883797906099004216e+00,-2.640144050483245852e+00
3.285146539909106878e+00,-3.363392247764591225e+00,2.762071759239162372e+00
7.906541671458127141e-01,4.953430165487287873e+00,2.439733226340949468e+00
-4.980331077577835330e-01,-3.156480817858040133e+00,-4.312024089048204445e+00
5.449479473267751395e+00,-2.448315178168281869e-01,-1.542078269177403205e-01
1.095384862954353444e+00,2.908862992259943159e+00,-4.425888870558452481e+00
-2.583157605486873010e+00,-3.493651371442052067e+00,3.315016454662285117e+00
2.398649281393003374e+00,-4.879478197490151103e+00,-4.952384441509912194e-01
-1.394108310702813158e+00,3.083869053980963226e+00,-4.275896096887345621e+00
1.954143256407998352e+00,1.696495479995196343e+00,4.778591861072352565e+00
-2.259454181257982253e+00,-3.973286880692501022e+00,-3.139970160852730174e+00
2.422039444854835022e+00,-4.288616986796681907e+00,2.211772804151408423e+00
-3.301162543255433679e+00,3.862691914164765983e+00,2.206062389591582740e+00
-1.283393350691012014e+00,-5.204647042001615986e+00,5.569137776763877223e-01
5.098696508298282026e+00,2.141356284720277170e+00,-4.928949770225684035e-01
-5.168770938932251369e+00,-1.498151094818345186e+00,-1.101148683753194524e+00
4.845348103088022995e+00,-8.302180293676618694e-01,2.337544963096823469e+00
3.613524140484585701e+00,2.060952742974894836e+00,-3.765517477426391757e+00
-3.473037777191026354e+00,3.373614001448672184e+00,-2.558815664920666144e+00
-5.296958573085493782e+00,-1.553074093360971242e+00,1.235182237560559643e-01
-4.717274633107420456e+00,2.635996451624835757e+00,5.853527870934955857e-01
5.276303496098515566e+00,2.978067197552663470e-01,1.174447769717388734e+00
2.273701706688714630e+00,2.992218367735050011e-01,4.927912008086321016e+00
-1.379301190893724050e+00,-4.696799846028242520e+00,-2.435541394402400250e+00
1.799763054026348064e+00,1.622093850486324929e+00,4.893080281423007882e+00
7.959399715642643258e-01,-1.605425152970224589e+00,5.245434809816201138e+00
1.543208941367896658e+00,4.383709874913490623e+00,-2.839146096790819307e+00
3.873692411687193360e+00,1.931154412182630509e+00,3.256997354825147628e+00
4.582711007664109104e+00,-1.608415729548919648e+00,-2.399392762804158696e+00
-2.992577095523545783e+00,-7.685669344713615958e-01,-4.505273574671966763e+00
-2.188419009289800155e+00,-3.992220493710935791e+00,-3.135055995711939048e+00
-4.156298550495383992e+00,6.532474952600243398e-03,-3.807826643290522561e+00
-3.401880136304992419e+00,-4.374212102234515953e+00,-9.890157615633118904e-02
3.961276779766963685e+00,1.829520381356140923e+00,3.292798358628808320e+00
3.267060433852647439e+00,3.271119099968983868e+00,3.179835216626374361e+00
2.821866690766448027e+00,-3.576964820601800543e+00,-3.289374926682639533e+00
5.727547841060081080e-01,4.497723787890469005e+00,-3.121846150994313174e+00
2.738696158630455901e+00,1.314533508993202648e+00,4.501730394604495089e+00
1.239864251708018950e+00,2.134536313098998495e+00,4.912323758354097514e+00
-2.212636816663899886e+00,-2.593214089433510505e+00,4.254917060739443535e+00
-2.018316236798217700e-01,-4.798229328492333856e+00,-2.524274206462345571e+00
1.120493857826775574e+00,5.329364979777375666e+00,-1.600265506875182819e-01
-1.626344562547371808e+00,5.261067314542537510e+00,2.776090764160180080e-01
-4.819349114854840188e+00,-1.464199819806890401e+00,-2.228482769867468960e+00
5.394948242915052816e+00,9.505905173425432952e-01,5.025875019825428724e-01
2.371129641195866444e+00,2.638925745894635355e+00,-4.249548434949351972e+00
1.048472928771696289e+00,-2.788278420522167234e-01,-5.335222171448415374e+00
-3.696644538562801618e-01,1.829356022518776159e+00,5.109353410887986335e+00
1.711683962952129878e+00,-5.139444225986388837e+00,-1.106963449949022182e+00
-4.149018482727693247e+00,-9.445908819736517081e-01,-3.541302733896636745e+00
7.331660986727159823e-01,-2.392409316806643371e+00,-4.856180411708878708e+00
5.415498532850369529e+00,7.658392367007140766e-01,-7.993975022981258949e-01
2.305969588546319837e+00,4.253001790470126942e+00,2.568712900460396575e+00
-3.505047430802903818e+00,3.051455958898365850e+00,2.967430525688738552e+00
2.955438727145993649e+00,3.828505592006722580e+00,2.630024511560828060e+00
-2.006376455360500799e+00,5.165604649983731811e+00,2.039341747114233327e-01
1.898413335529822499e+00,-8.079034352398991592e-01,5.002071961388312005e+00
-4.322340331582428696e+00,-2.998561449843646809e+00,1.338997685184141639e+00
-3.070735200661153463e+00,6.482759981902441737e-01,4.466060806211679335e+00
-2.290420775364994110e+00,4.482606699192146493e+00,2.278412188848306652e+00
-1.456460396113578248e+00,-4.514868391449293306e+00,-2.728082040854467039e+00
-6.064611627638512026e-01,-5.382431872664680483e+00,5.937278510309594859e-01
1.766146071073083079e-01,5.463609998593335071e+00,-6.492569432362038651e-01
3.407206366322303115e+00,-3.525663289524198607e+00,-2.503084238107629478e+00
4.210998355749628885e+00,-3.192960777392607863e+00,1.493978430058204410e+00
6.209652647047704255e-01,-9.139896023034392858e-01,5.371859672115291140e+00
-5.394528964174100105e-02,2.535866144555900092e+00,-4.821334859655450167e+00
1.401942377364037151e+00,5.128061998868265192e+00,-1.527828864809880560e+00
-1.684778192285145471e+00,-4.690037859654785812e+00,-2.399528576084326126e+00
-4.485647877780409409e+00,2.542582927961419159e+00,-2.053628460088849916e+00
2.657794952589667581e+00,-4.193916350125905801e+00,-2.415745401840223128e+00
-1.161099265187300222e+00,4.031563434534605861e+00,-3.679446963159261674e+00
2.862978627361683626e-01,-5.824936261642180702e-01,-5.492607732451753932e+00
-4.412482882269748607e+00,1.615076777280469278e+00,-2.963321940680316846e+00
4.896419997580857775e+00,1.159532979821900511e+00,2.160790945508921368e+00
1.465330148886328399e+00,-5.082212171096261777e+00,1.387501696100046589e+00
3.718377877707181423e+00,-1.901407672384129777e+00,3.645554392184453096e+00
4.870683047392930121e+00,1.648601765603165514e+00,-2.154098389014874826e+00
-3.543532912820832603e+00,4.136492019985565705e+00,3.558276650280438047e-01
9.152921754494222073e-01,-4.239453322490610354e+00,3.410889241214182022e+00
-1.588211450908236122e+00,3.332233601275802926e+00,-3.954098596106516705e+00
3.552877421243144873e+00,-3.530975316272859210e+00,-2.300133057162409678e+00
2.447029974996703938e+00,-2.294226574154154541e+00,-4.392415220337098525e+00
-2.539299215032028378e+00,4.770442012906130347e-01,4.844280777633736434e+00
-1.042403113089744648e+00,-1.653290882857290645e-01,5.463869668651523348e+00
4.641691328785992887e+00,1.172747224853403658e+00,2.741897166208473458e+00
-4.515069580046266573e+00,1.075425694638684204e+00,-2.988261818183622687e+00
-3.730067386798613160e+00,3.370539598842402285e+00,-2.126929697711618772e+00
1.825245288828313939e+00,3.711395052697116448e+00,-3.732538336391079792e+00
3.336740200819170887e+00,-2.557698397895750375e+00,3.595453202051243746e+00
2.576686242058549681e+00,-6.990815817426891954e-01,4.824430054158801440e+00
1.781956781150062508e+00,-4.868443866151555000e+00,-1.457339064613861535e+00
-2.505610745651753124e+00,-9.727517439166808444e-01,-4.783832134428238625e+00
5.070176302418396563e-01,1.335265837291455648e+00,5.330634891241198048e+00
-1.144606891724733178e+00,4.818911135770030940e-01,5.362703852347289413e+00
-2.468881976155820279e+00,4.729673189192665994e+00,1.142814713914592328e+00
3.373859900750702412e+00,3.912532841633130420e+00,1.550589919660181781e+00
3.253774579122002741e+00,-4.368734709997817767e+00,-3.866781452361144900e-01
-1.305195598593364759e+00,-5.073520263316959600e+00,1.231112521528378245e+00
-4.724521676006645521e+00,8.036533195552432174e-01,-2.496785702567832832e+00
-1.426216612877584611e+00,1.234033486050718942e+00,-5.122606068418400049e+00
-1.384256462702693202e+00,-3.809150104086995281e+00,3.621713094935671506e+00
-5.550554098955572391e-01,-9.069728882911178014e-02,5.374140827349547678e+00
-1.325772490044311525e+00,3.276885020194410192e+00,-4.073119327499977516e+00
-4.983479890299194359e+00,-1.221598416343433913e+00,-1.859359952283376360e+00
-3.423917983983586488e-01,5.353855730676750913e-01,5.444629284722879881e+00
-2.965133136011720350e+00,3.552242400377893627e+00,-2.880776674762909995e+00
-2.744385913075087391e+00,4.788082071639919057e+00,-4.690121909612439688e-01
4.378270778577714850e+00,-3.027859511627667199e+00,-1.136725580277845538e+00
5.141804878516110122e+00,-1.980160248026680891e+00,4.112286763963541314e-01
-3.270086783278354226e-01,4.930253693378745972e+00,2.780768352862644566e+00
2.079669853326555629e-01,4.880930200578481148e+00,2.547327182453878347e+00
-1.999606059073849362e+00,-3.310446845959305495e+00,-4.013675238477791396e+00
-3.336501876719928816e+00,3.569617289812290206e+00,-2.521618269309738203e+00
2.324705877284912070e+00,-3.242859272623051847e+00,3.866275695522515932e+00
-8.636723724723351092e-02,5.220525308365521866e+00,1.441896841916663119e+00
-4.961680042997040907e+00,1.479548266300281467e+00,-1.590726704784547696e+00
-5.380273133241655792e+00,-7.822750690105155780e-01,-2.469644501058413377e-01
1.950633955005555142e+00,-4.706168522116565889e+00,2.057376265016340078e+00
-4.114400112921398289e+00,3.104458191728009631e+00,-1.836804571693058774e+00
2.273256038886916741e+00,1.792601735980643873e+00,-4.683204585304288514e+00
3.701497150219737353e+00,-8.948602389603940166e-01,-3.972059386824788429e+00
6.763556593860541033e-02,2.246556856211372022e+00,5.017892387555671796e+00
-2.162473562747878386e+00,5.104126354941068477e+00,5.473390870220686821e-01
-2.643705310745366077e+00,-7.097325067173220203e-01,-4.693443184196340212e+00
5.229966334861597232e+00,7.176512289208757389e-01,-1.479421248179449977e+00
-2.430631487010926683e+00,4.750219575184466692e+00,9.296018955818345919e-01
3.868140984089813106e+00,-3.879254938168609446e+00,-1.496891726622998908e-01
7.509501486249280378e-01,3.466071552194738725e+00,-4.159441274594855464e+00
-5.099086048938509030e+00,2.124347292355135419e+00,2.454716468803594120e-01
1.335222043756323917e-01,-3.153688615672992412e+00,-4.584678003815542802e+00
-3.819182861298658693e+00,-3.622465435053833893e+00,1.310186308264603028e+00
-4.586902847529636063e+00,-1.233831114362545112e+00,2.792959887674906216e+00
4.823209939295736604e+00,2.387068035268096633e+00,7.097775322252267705e-01
-4.825842292655234900e+00,-2.429382683831347034e+00,-1.402779725826334145e-01
-1.435851468749877347e+00,1.382477192227699048e+00,-5.097066086068501534e+00
-1.029884823541096006e+00,4.533764553223468496e+00,-2.797395174879202973e+00
-1.554921862160010049e+00,5.368669009592393238e+00,2.103670916527755341e-01
5.980948613711168926e-01,-1.867274669117405583e+00,5.146757807000216900e+00
2.465641815534668879e+00,1.248901367442249555e+00,-4.834640079387669154e+00
-2.667610084097538081e+00,-4.288259520991959839e+00,1.869418026892413653e+00
5.383963535710750703e-01,5.911741813560201786e-01,-5.461046475492230989e+00
-7.043802502524257880e-01,-4.089343789533733009e+00,-3.520964976584119555e+00
3.882127089794532804e+00,1.178582684749930332e+00,3.677651842351235434e+00
-1.559187779532410723e+00,3.228783757087544615e+00,4.110644717011129323e+00
-1.616617237866962153e-01,4.756177437213996440e-01,-5.398606032664014620e+00
1.438819882837500064e+00,4.825434148589407890e+00,-2.054631601867572765e+00
-3.518442408122961940e+00,-4.184128301099797831e+00,-3.414210095924098964e-01
5.376432839663949359e-01,-1.471633637496081726e-01,-5.380409555013249800e+00
-1.465230437299027910e+00,-3.438498428978880916e+00,4.085482596817016088e+00
-2.695068254929841589e-01,1.908443486855381677e+00,5.124981138821825155e+00
-3.387015571819615989e+00,-2.166731510708224562e+00,-3.793111650910671262e+00
5.825794198734824958e-01,-5.470645409484996335e+00,-2.995275945523511590e-02
-6.129045512901284409e-01,-5.025936922929871820e+00,-2.260872608665497552e+00
6.170876080260863372e-02,1.973758839831148526e+00,5.171499153443904540e+00
-5.315203481149941567e+00,3.671782506829749937e-01,-1.577950549523411183e+00
-1.313326770993189507e+00,8.382989180284510233e-01,5.309984437330740548e+00
-1.146897431932630163e+00,5.170985119987959067e+00,-1.130436636513975301e+00
-9.127072093249452012e-01,-7.626677449083174576e-01,5.422135998736158591e+00
3.590648218861070884e+00,-3.123508987601654852e+00,-2.909482470549966227e+00
-3.341466011751771159e+00,2.703783629538103028e+00,3.344778727245454331e+00
1.127206018119039532e+00,-1.375355868013442118e+00,5.198797800231221622e+00
-4.229123600750189560e+00,-3.009566302353252620e+00,-1.876793832109723059e+00
-2.687752780215164172e+00,-2.258042055791252167e+00,4.305631689919324323e+00
1.323391726006664326e+00,-4.881273235464943738e+00,1.778925792826693053e+00
3.623578091219361141e+00,2.907222420560647169e+00,2.956298969543891264e+00
-2.392977070260097872e+00,1.504460576349080148e+00,-4.807310351334225018e+00
-1.884013267267735658e+00,5.102835230913083109e+00,2.324384032604418504e-01
7.926595594915154530e-01,4.123658640119886698e+00,3.513706060987790813e+00
1.613036873382718561e-01,-3.420478988175900792e+00,4.293832802846155872e+00
-7.226071512043730216e-01,-3.171035100351758729e+00,-4.391113314780719534e+00
-1.002475591580449743e+00,8.206707976357581202e-01,5.382504964289055671e+00
-4.534122046525252969e+00,-2.957935197421703410e+00,-1.017359042721472928e+00
-3.046395325897509387e+00,-1.276973374051966426e+00,4.252942253560058283e+00
1.721646005421119785e+00,5.091545368762634638e+00,9.887293546011243217e-01
-4.348971926828015810e+00,-2.660471920755095088e+00,1.988550707184739696e+00
-3.299744005948987979e+00,4.173839853355924667e+00,1.583635096588818625e+00
-2.822167705008319594e+00,-2.156543547179241127e+00,4.115741938912518272e+00
-2.473864455260518902e+00,-4.468341641708430956e+00,1.994462134623403271e+00
-2.789388010317514155e+00,-2.947459234265704442e+00,3.685739525926875260e+00
-3.631053782505117233e+00,-3.756255037941547137e+00,1.712778311045040969e+00
1.472250964846288923e+00,-2.001922130286927448e+00,-4.783978765750429574e+00
-6.291207934752569564e-01,-2.668260749060163750e+00,-4.733920476689257306e+00
-1.056119532432251873e+00,-1.955137452807456322e+00,-5.060261736213727879e+00
-4.774724964797912641e+00,1.529379052580169818e+00,-2.153622698798884905e+00
5.106562973581623588e+00,-7.064102474468751947e-01,-1.773633387312238963e+00
-2.464534361266095819e-01,1.496917147799449399e+00,5.235533956404992750e+00
-1.972158005409914150e+00,1.900818794983923699e+00,4.687741061429976597e+00
2.744053116759833655e-01,-2.538617527089642945e+00,-4.786882720910794475e+00
4.610884221863915222e+00,2.961612817409292386e+00,2.007292602033271256e-01
3.367677769788731679e-01,-1.212461609617570581e-02,-5.484807687653140640e+00
-2.105183701820675601e+00,4.996370200990198351e-01,5.078084430306610386e+00
3.875599819355047604e+00,1.487446620847734102e-01,3.967787022269026131e+00
-4.297570810015976517e-01,4.836797518484072356e+00,2.429179247646525486e+00
-3.790880748513615117e+00,3.614494633822293856e+00,-1.763482351200592158e+00
1.839167949091164100e+00,-5.170158266376710721e+00,4.702116768209969044e-01
9.348567455709414498e-01,-7.571388036654571607e-01,-5.338859974485941073e+00
-1.265123273386714819e+00,-4.884824653330587907e+00,2.234243900843144726e+00
-3.984888488979568155e+00,-3.723749434747265052e+00,-7.994007689258260108e-01
2.918090887159001223e+00,-1.363214061198171068e-01,-4.608210880589903802e+00
3.470228318544475776e+00,-4.196736007375552191e+00,-1.900380027173230110e-02
2.162365525051475501e+00,1.241180159406393591e+00,4.850449553028852279e+00
4.749164719015535496e+00,7.517637596042533454e-01,-2.633685546077048745e+00
3.847425133212582615e+00,1.621389852692120659e+00,3.548108139568751263e+00
4.344492844511618768e-01,-3.471813225900913569e+00,-4.155437837161138681e+00
4.467477287625470694e+00,-6.385415002523524564e-01,3.097106263861825415e+00
2.317495609534705459e+00,-2.352902074524621856e+00,4.391033035291024511e+00
2.409396955323815703e+00,1.550771921273772502e+00,4.638714286885708304e+00
-1.614619158459657866e+00,2.981530423700055610e-01,-5.325041472620726246e+00
-3.277003858946704540e+00,-2.486184462047110078e+00,3.815940487559691174e+00
5.668377560623895084e-01,-4.706203363832606179e+00,-2.887606908734534628e+00
-5.231598673042233472e+00,2.263284937507128725e-01,-1.651136696032227569e+00
3.290625577274175484e+00,-4.188416654331639677e+00,1.512012925333214852e+00
4.531609697273104587e+00,-1.142635043636940573e+00,2.847063357736967504e+00
-1.672865900787826599e+00,-9.044183622627067765e-01,5.196579409131213190e+00
-5.016029171481980242e+00,1.406378651026708670e+00,1.969251385264262133e+00
-3.549187771066302677e+00,-1.448159240299102812e+00,-3.904111046704403343e+00
1.799489826239529133e+00,-2.709363848270899044e+00,-4.451893185144617071e+00
3.498918466303461816e+00,-4.202391723610010565e+00,-5.383939889829200132e-01
1.623197605873540228e+00,-2.938139204668798854e+00,4.327791467243232937e+00
3.083768823051069141e+00,-2.766535304641664084e+00,-3.414527530903566976e+00
1.972744041240404256e+00,-2.892923000742965822e+00,-4.150193360040762336e+00
1.942367817193724422e+00,1.941196643829975699e+00,-4.703198995823198558e+00
1.595203231774228847e+00,5.153040723971008319e+00,-3.023679320310314611e-01
-4.944458141669913154e+00,-1.203981620583195911e+00,2.134447877926470838e+00
2.509352181993885988e+00,-4.358651656952083897e+00,-1.980398887984743839e+00
4.088777815601302379e+00,-2.354217372594909374e+00,-2.661676901857342514e+00
3.299156065127566873e+00,-7.465648282238939171e-01,-4.370370995152480731e+00
2.558474683968847252e+00,4.132753283952607326e+00,-2.608037967967280935e+00
-4.837285039755180094e+00,7.891003686278006413e-01,-2.377646380357226086e+00
1.529243205610641310e+00,-5.204604272504741225e+00,4.749488389700987079e-01
1.386064480905888852e+00,5.056426200002430704e+00,1.573664338760549120e+00
-2.367881044832205628e+00,-1.651243509883596472e+00,4.786857249069460529e+00
-1.128605070968368596e+00,3.328519377539987278e+00,-4.260611486658816283e+00
-5.263637715652146554e+00,-1.733578132091663671e+00,5.321251686758952104e-01
-3.638838082628437665e+00,3.371560770376574201e+00,2.240442730966719420e+00
-4.979789601220298678e+00,4.558475631153817154e-01,2.345602647322729606e+00
3.257027826805473758e+00,3.616595705646915349e+00,2.392566516608966687e+00
3.718179341395849935e+00,-1.199088973971433658e+00,-3.876433347988243128e+00
2.405878750914175690e+00,4.841052735532456630e+00,7.041795548551572637e-01
4.433734187880405742e+00,-3.207754058767271044e+00,-6.133084219014617311e-01
-2.198417672201091744e+00,4.546181805483161753e+00,-2.216583295646328278e+00
5.158959843772705334e+00,2.660360192956906164e-02,2.112181204051953642e+00
-3.964235007032600233e+00,-3.776801931403655832e+00,6.496823218234412112e-01
2.626191037385631866e+00,-2.168512759748039809e+00,-4.265580410817606527e+00
-2.010330269834742778e-01,-6.351670365882128300e-01,5.482951833866424707e+00
-8.150560170437927132e-01,5.379207155419118536e+00,9.011228782376717872e-02
1.245801338670022851e+00,4.637080986162667173e+00,2.620199436662750792e+00
-6.192067605120628038e-01,-4.450242531367018195e+00,3.100648555163510345e+00
-2.244779277639604498e+00,3.071370788633294602e+00,3.944867885135777907e+00
-1.202008007735887452e+00,-7.643993601437322205e-01,-5.290187130277566041e+00
3.396574383641984274e-02,-1.084781739506582188e+00,-5.429825189610427927e+00
-2.000772785700868361e+00,5.859354979145646736e-01,-5.050356130294233914e+00
-3.022985419048562328e+00,-2.257236067772350641e+00,3.885227111263571675e+00
4.724884280395999170e+00,-2.179687295591223872e+00,-1.951456796921066328e+00
-2.461936343080657341e+00,2.337250425131421672e+00,-4.271058870318518608e+00
-2.658181532912802861e-02,-4.522172043967248811e+00,-3.033718996102463095e+00
4.765651573434969812e+00,2.398189453385201286e+00,-1.503338361936934486e+00
4.247717171139724357e+00,-3.223815898806892566e+00,-1.232756551706033044e+00
2.610485661437939253e+00,4.381925529524617779e+00,-2.018856788188755136e+00
3.876315332712525041e+00,-7.113300142116257829e-01,3.680257929825239138e+00
-3.401479929955091297e+00,2.878927976876031192e+00,-3.223840755830720273e+00
