2.527103216614153158e+00,1.308859942665182352e+00,5.554446525232550336e+00
-5.420509723313784001e+00,4.489140127498077448e-01,-2.943290259693192024e+00
2.895850141376680176e-01,-5.595111176884572046e+00,-2.495600337846282546e+00
2.183583436753712359e+00,5.104402481238952127e+00,-2.747466177847608826e+00
-2.190505929673163266e+00,-1.606755972480811590e+00,5.516238302234634183e+00
2.685981349680770958e+00,4.517064530911422793e+00,3.494560523582789013e+00
3.723334733449873646e+00,-1.433869656511219670e+00,-4.733576552747448929e+00
4.112777175119101125e-01,1.404119876243659526e+00,6.053882560010512393e+00
-4.359052166079573354e+00,4.326912416429755659e+00,-8.198754345460184112e-01
-5.883734358943704112e-01,4.735098834869149620e+00,3.959595520832852156e+00
-2.627250619097859285e+00,-4.186169553859754977e+00,-3.601154909984710439e+00
5.110157643147760886e+00,3.442739995444662249e+00,-8.330230715727069413e-01
-2.951622129039229492e+00,-6.820697541108624584e-01,5.386894696375357228e+00
-2.328584899111977524e+00,-3.808276917666918671e+00,-4.342126864444612266e+00
2.644485423516223399e+00,5.245375892350192970e+00,1.888608443569764539e+00
-3.613301619965868738e+00,-2.727228759513462109e+00,-4.220436928978859470e+00
-4.835561889792426626e+00,-3.541777166826999057e+00,-1.294564378424267748e+00
3.765396195664136414e+00,-3.528833448382082238e+00,-3.515648275515741883e+00
-5.062163803816061680e+00,-2.995718454251105278e+00,2.316600997148785535e+00
-2.075446672362604605e+00,-3.119868010310979045e+00,-4.876210595218497090e+00
5.323016906589450592e+00,1.932355235448417030e+00,2.705833502693456794e+00
-1.238427934659539709e+00,-5.794106670335485987e+00,-1.956818769791364154e+00
4.581975278411948516e+00,3.315499052461347684e+00,2.554810129256223750e+00
-2.425504608084241287e+00,-6.244334645814088036e-01,5.688324827623366886e+00
-4.962067864813310969e+00,-7.885260393469060158e-01,3.728593095841807870e+00
-3.051072323851917734e+00,4.083064770748306316e+00,3.654021694513091667e+00
2.982787410146995111e+00,1.261948363862144040e+00,5.232684487292041275e+00
-2.163471807745178221e+00,5.708126785331666397e+00,1.962730458251233268e+00
-5.045877498899984381e+00,-3.356776635963067967e+00,-1.362817449792349977e+00
-4.066963600668250800e-01,-2.778405063083767335e+00,5.527837798656237034e+00
5.235058698622826689e+00,-3.467207655215641449e+00,1.729916268531121182e-01
-3.066261988631049817e+00,1.961973702144281351e+00,-5.008313188765501245e+00
-3.009385075833341361e+00,4.776762244594622508e+00,-2.522694723250916482e+00
1.962135397406453041e+00,4.714302310808218266e+00,3.434565717427643605e+00
1.586924401413460917e+00,2.715210887258687311e+00,5.468263203154266172e+00
1.037569536598056952e-01,1.504313588789245149e+00,6.058484526786227953e+00
-5.234801740899257538e+00,8.155825435235062315e-01,3.092206166325021766e+00
3.337921355100345711e+00,3.929633320679502440e+00,-3.500966814743753819e+00
1.243913456580653110e+00,-5.378904461437599593e+00,-2.756123094802774620e+00
-6.075823870715995056e+00,-3.967176521685224742e-03,-1.103642181833733416e+00
-4.719986383608766545e+00,3.701135364200757838e+00,-1.782201264748483727e+00
-4.963530055033507971e+00,-2.910695556365453296e+00,-2.225704661557142305e+00
-3.529839089935795204e+00,4.487467875374041348e+00,-2.269193490475167607e+00
5.989422574158201229e+00,1.561287699285108799e+00,-7.432402694202918658e-01
-2.118757386124730413e+00,5.875433408793952594e+00,4.848549082826899004e-01
-3.378528069656419053e+00,4.793920428407659529e+00,1.834502808807652707e+00
5.728930182772654867e+00,5.079108976434150158e-01,-2.199996706130872060e+00
-7.149931537111732238e-01,5.867179728265595529e+00,1.798664123290504291e+00
-1.916029149580637192e+00,-4.935480741986915554e+00,2.944226784977619804e+00
1.154285246257396924e+00,-3.928222824461087725e+00,-4.774391371876983925e+00
-5.829598634785003064e+00,3.921115036604860826e-01,2.099914190525175250e+00
-1.647353751802243638e+00,-5.505102905736984908e+00,-2.195186862584397769e+00
1.481278474642939047e+00,1.040496117366828566e+00,-6.003327939665052959e+00
-4.407239644890551311e+00,1.178629094391635102e+00,4.050518804397899686e+00
-3.568232856851684787e+00,3.134081719655173792e+00,3.903539849613854695e+00
4.253667158185448827e+00,-3.820040248942705219e+00,2.194954254993896292e+00
3.685161546723168424e+00,3.323878284829726582e-01,4.969849342819266269e+00
-4.437829873540420245e+00,-3.242041324873770947e+00,-2.553398018870161934e+00
-1.611873159721229243e+00,8.973099530319282868e-01,5.841126687214357460e+00
5.831729071301666067e+00,5.717112394424177513e-01,2.002798418833304783e+00
-2.960835900893686645e+00,5.387876193360435551e+00,-7.954750728111230629e-01
-1.105709544660963550e-01,-3.985218198785205779e+00,-4.633697922276852843e+00
-6.238681173691078552e-01,-3.870549583362926649e-01,-6.211763674140101443e+00
4.464255027304523615e+00,2.290278989128728959e+00,3.312768844436397409e+00
-2.391749223386810286e+00,-4.288509484143570027e+00,3.620598599500951309e+00
2.393567736822401315e+00,-4.351449627429014200e+00,-3.753823537978708824e+00
4.012244567039751963e+00,-4.132022380977762310e+00,2.113696040204116500e+00
-4.273082428454619830e+00,-3.121952459411844849e+00,-3.066332056158852737e+00
3.442085039114562317e+00,-3.838215873438674652e+00,3.519564889088310888e+00
-1.013886539156401249e-02,-2.687486710932538880e+00,5.519750793848170467e+00
-2.868282370296821870e+00,3.103055241820336096e+00,4.508537815320071473e+00
-5.617561493448382848e+00,1.581574199724591345e+00,2.474415769520392772e+00
-1.614422840652963709e+00,4.942766721447198641e+00,3.249227013576498013e+00
-6.880202629222819111e-01,-6.291474032710033804e+00,2.677618336856189829e-02
-1.740937626630175483e+00,-3.884770844883750573e+00,-4.523490669240406881e+00
-5.491384841759106905e+00,-2.411853289499549469e+00,-1.610151431143623801e+00
1.981623730555783558e+00,-5.710158545014097697e+00,-1.114567885241189549e+00
-4.369062760479665464e+00,-4.068527726330732008e+00,1.076729718152509507e+00
-3.079037315524252083e+00,-3.752972892746435196e+00,-3.899374012792633959e+00
-1.998610086023422383e+00,-4.777414150661197567e+00,3.424271882041724613e+00
4.702654110998790493e+00,-3.998457548552786900e+00,-2.394451258572346808e-01
2.355129798021445620e+00,5.760189436527483053e+00,-5.382032737348813045e-01
-3.522388448766021529e+00,4.925907357632603123e+00,1.196410840900767658e+00
-6.003052407315847105e+00,2.528007978591617633e-01,1.579478384514768186e+00
-2.054792007709585810e+00,-4.930942806507896847e+00,3.294494673295782494e+00
-3.243064403623662439e+00,-4.892293322565689273e+00,2.253975510268700244e+00
-3.738254230196762951e+00,2.978257634104457097e+00,-3.892050112695474517e+00
3.386824666629335123e+00,3.990313579423300783e-01,5.132948204603756004e+00
-1.790373508875809039e+00,-7.511174606797020592e-02,5.780344390348238548e+00
-4.709906395866981121e+00,-3.132774477735883689e+00,-2.136547773494833713e+00
-9.860462040868304134e-01,2.645540930732785512e+00,-5.559022750755014286e+00
2.632176031986020348e+00,-5.528824845646981068e+00,-1.056694120440168971e+00
-1.675123745132182096e+00,5.990677874023591976e+00,2.221750868305721049e-01
-2.286357507278072188e+00,-1.720494284859080958e+00,5.459104491159761707e+00
3.874713182230642428e+00,2.483810319415989731e+00,-4.150526730688001820e+00
-5.077095124210274868e+00,-1.352321086348852841e+00,-3.202949318045269056e+00
2.827787943718366837e+00,4.257072851318452145e+00,3.525583192578430669e+00
-2.793895061208169217e+00,3.915567457573939425e+00,-3.824566065803492787e+00
-5.373509127219818104e+00,-2.972237633450698802e+00,5.141458148505069214e-01
-4.998632489216761066e+00,9.360105243711311362e-02,3.802479290814423152e+00
-3.812874649447632436e+00,4.840034529293918419e-01,-4.927324544793188821e+00
4.225499112511943878e+00,-2.916188322544337019e+00,-3.423112029450508853e+00
5.643689729381284437e+00,2.273053922781060887e+00,-9.614245341445639692e-01
6.089443252403081708e+00,8.482116195334807873e-01,-3.817830515170601569e-01
4.789111757865876839e+00,-3.481400525250634814e+00,-1.809751472159809360e+00
3.915289137783187989e+00,-3.857226072614485357e+00,-2.785470541603717987e+00
-5.591670207155033268e+00,1.039762710809872148e+00,-2.471115569503519627e+00
3.980813199295580418e+00,1.534695156515069492e+00,-4.368420599380281821e+00
-9.713461914150514076e-01,-5.989752090828396547e+00,8.994971640044143735e-01
-1.638316094411483848e+00,2.601170885335398086e+00,5.266995200752830009e+00
-4.336224604757585865e+00,2.014486793302426637e+00,-3.976108701319677419e+00
-5.962535937512558171e+00,5.095096269962169355e-01,-1.532724086598545643e+00
1.403633568695297207e-01,-4.053787366549656213e+00,-4.690296722559916809e+00
-7.667004674172642753e-01,5.947315415485078027e+00,1.401638220779247490e+00
3.289470658163700101e+00,-3.716791391784848742e+00,3.733060680096272232e+00
1.614186499553412979e+00,-5.240204532744420440e+00,-2.683055929071594292e+00
-2.465356691265557565e+00,2.936702766084613003e+00,-4.892674900455809883e+00
-1.465696693860741195e+00,-2.725618709243168070e+00,5.404918440722239481e+00
4.852241519484369547e+00,-1.371791268364238814e+00,3.611098533257178556e+00
3.152348814663454846e+00,-2.194199214494708006e+00,-4.910385990937728096e+00
3.123018100471991243e+00,1.113058741729120893e+00,5.124093696096415407e+00
-5.683311851714353269e-01,9.591532901084894869e-01,-6.178535981005879307e+00
-3.945186772572728984e+00,4.412586116512390078e+00,-1.921481908970694041e+00
-2.347515955270289112e+00,-2.404167240429702090e+00,5.049754191453177832e+00
-3.150263908438962979e+00,4.325184914850608742e+00,2.945345678387645272e+00
2.946464726368963838e+00,5.334672159824710214e+00,1.190820857620215500e+00
2.611368251867997259e+00,-5.103274014344018283e+00,-2.119071794067467707e+00
5.229744470982750748e+00,1.460062529698353373e+00,2.898248992082117503e+00
-1.918982917296805091e-01,5.106444184510916529e+00,3.391806712685122793e+00
1.869574610766547851e+00,-2.104290717357548690e+00,-5.457226757755902824e+00
2.541347925723766998e+00,-3.850937513673407864e+00,-4.129856611383301512e+00
-3.957267263367556964e+00,-3.429737194465182770e-01,4.848089552797082646e+00
-3.039453963646376877e+00,-3.781546589631498811e+00,-3.964019360557053062e+00
-1.230620272954372624e-01,4.641989681155692438e+00,-4.205574176118042296e+00
2.938097237238829873e+00,3.343862879165326429e+00,-4.330407243650885363e+00
6.686227829496407260e-01,-5.613352863557926398e+00,2.622290837489802406e+00
2.061117187210809831e+00,-4.433582892175691903e+00,-3.771883939790348972e+00
2.628294211401230207e+00,-5.242556864592085475e+00,-2.012805570617767881e+00
4.133564713982898375e+00,1.786118728240646547e+00,4.311538390537091203e+00
4.934991119441117569e+00,-2.912365025428553356e+00,2.412603632491587380e+00
3.061500463227109670e+00,1.271909437731664205e+00,5.253737118310171539e+00
-3.141487623354938918e+00,-2.394674486423079340e+00,4.689899462485036530e+00
5.102744725981828822e+00,-2.360126498189753175e+00,-2.870479725494231360e+00
-2.626082323989332057e+00,-5.319273600872588048e+00,-2.150276207935757355e+00
-4.506479914458371816e+00,3.199578537951911716e+00,2.725625869206984131e+00
-2.928257853792036070e+00,3.068115879291835046e+00,4.555017073552400930e+00
2.608036296607187943e+00,-4.833824058392877099e+00,3.022472769940133919e+00
-4.368967219676661351e+00,4.126356511571188435e+00,-1.142337442598868602e+00
5.788442573928450408e+00,8.253570576994961883e-01,2.176969600436707175e+00
-4.176801425168042314e+00,-3.556078699604451554e+00,2.672299415296667924e+00
4.420919251825029761e+00,4.021867863239495300e+00,1.173007385862433916e+00
-5.984367817826680813e+00,-1.860443061335451231e+00,7.349656856176186581e-01
4.942089639150551994e-01,4.926411963140953532e+00,3.743135651254247520e+00
9.233366271570765393e-01,5.881646188239580963e-01,6.062470285889212107e+00
-1.491562634574074897e+00,5.979997092531672109e+00,7.202909727074888746e-01
-2.267025945937100939e+00,2.275851138705919929e+00,-5.296409854134338957e+00
3.322042284233660769e+00,-1.026193506591597693e+00,-5.240799863983013118e+00
-2.618200692098510363e+00,4.288684973558987146e+00,3.548936875498765797e+00
-3.734385501324716916e+00,-3.933982975104827418e+00,2.918276019490080753e+00
-3.654925394265844119e-02,-7.332156438560885614e-02,-6.218742342124308209e+00
5.167092350460503525e+00,1.605528023264287230e+00,-3.183320349124293180e+00
-3.654428604928519064e-01,4.173023691864917062e+00,-4.610051229938745720e+00
1.696514548332835215e+00,-5.724318195481433946e+00,-1.759490926798266797e+00
1.857496793674896063e+00,-4.522073758217725725e+00,3.899363422126587153e+00
1.973009014584182319e+00,2.579576920258836115e+00,5.379255785574121873e+00
-1.785630757507440602e+00,5.041210144578230690e+00,3.014085987731986105e+00
2.951499012173497860e+00,5.387668657604706368e+00,-5.291664398179527495e-01
5.075901264303155358e+00,-3.189338512150073246e+00,1.328936342504077661e+00
-5.254351595714190637e+00,3.174719515937761471e+00,-7.604354633006596975e-01
-2.956066024291021055e+00,-3.027949626983854170e+00,4.587634057970423562e+00
-9.468641539609853330e-01,4.381575044213544601e+00,4.239922367160411376e+00
-3.035987528861328943e+00,1.572083745321787518e+00,5.114746912931717127e+00
-1.272425563544606897e+00,4.974782731134370195e+00,3.274330679002592781e+00
9.865957004722331058e-01,5.997259672015709420e+00,-1.166532991347885462e+00
3.565073165087915719e+00,1.822844810640130486e+00,4.771993669186261222e+00
-1.493459280622768226e+00,4.894453915999473215e-01,-5.901299664884650298e+00
-3.143786112888095285e+00,-3.760938882264442729e+00,3.760367288781798045e+00
-1.351553790753390549e+00,6.113979687393527485e+00,4.448664979051568102e-01
4.125610575596713403e+00,3.457243277094742773e+00,-3.230537612643570977e+00
-4.353345982483278753e+00,4.041814530764088254e+00,-2.190280669484241383e+00
1.713932038649189415e+00,-9.220594184833097451e-01,6.023788101937811668e+00
-3.872540366109355148e+00,4.718092642388495683e+00,2.081196759630321580e-01
-2.891353213809182421e+00,-4.261773471118630141e+00,3.450203873711006342e+00
3.380693933776658611e+00,-3.552435947920423498e+00,3.790926045388085530e+00
-5.181392985673093143e+00,-2.516453121830706241e+00,-2.490490431448762809e+00
4.946610583128645544e+00,2.210826295582407397e+00,-2.923826187826578771e+00
5.916860833203013925e+00,1.526018838759576779e+00,-1.855650782925994668e-01
-4.985311107829233812e+00,3.442218911154477201e+00,1.417441891425285094e+00
-4.706664820546063943e+00,-3.873536736580052153e+00,1.253651192365254907e+00
-2.210996634537317096e+00,3.879508917250301891e+00,-4.253086995816634186e+00
-3.017304363337095729e+00,2.344224734919942321e+00,-4.784211047370119374e+00
-3.129585022954730178e+00,4.328774385265018232e+00,-3.251104212641362512e+00
-4.314016022453755816e+00,-2.586445803854487968e-01,-4.426697492987273108e+00
7.043755701686715831e-01,-3.791537338763238729e+00,4.988066060377085442e+00
-3.170956894631909995e-02,-5.030898674231176315e+00,-3.682777361585255260e+00
5.728989869359827347e-01,3.820973604679478441e+00,4.834601537574101826e+00
-1.576591248711403104e+00,-4.760809907969073329e+00,-3.513645969325223106e+00
1.146745511637472514e-01,5.522231801471566115e+00,-2.719140668174040432e+00
-3.100919539271785208e+00,2.632616559645454490e+00,-4.697118632065186539e+00
-5.630064097557691660e+00,-1.558913918689499134e+00,2.191390364459005369e+00
-4.856247456719248845e+00,7.773019386386780250e-01,-3.798236863145934894e+00
4.783581179042962539e+00,-3.812860602054400694e+00,-1.419734610033637656e+00
4.259977859991737503e+00,2.303397670041573253e+00,-3.690311508462858381e+00
3.763435401586312956e+00,-1.343486054288702602e+00,-4.698327438643227438e+00
-4.071261397867603549e+00,-1.092158359449379113e+00,4.498566231981698138e+00
2.315415413662228250e+00,4.162149687931632869e+00,-4.098366616684039343e+00
4.102205121273666322e+00,3.956551096079684804e+00,2.408875949651148485e+00
-7.397840667096013956e-01,-4.903402418843492150e+00,-3.850595671045013102e+00
-3.760121600013588417e+00,-2.027249368026351917e+00,-4.447111293297434820e+00
2.010646538228674007e+00,3.701881121108330674e+00,4.506671024244488066e+00
-5.072502749289599322e+00,-3.430568706262287826e+00,5.501035930564118770e-01
-8.847287656821694046e-01,5.285586047420879119e+00,-3.327842194540538312e+00
3.377548145045361938e+00,-3.166578724142378842e+00,-3.953513071458281569e+00
-5.957314623183784796e+00,1.351356083671923614e+00,-7.207441620469959842e-01
-5.069465861321578171e-01,-5.702964519267482046e+00,-1.962832022955599998e+00
-1.614432410132223605e+00,4.661266276510681372e+00,3.687025462609857751e+00
5.413278277710486641e+00,-8.003657017619656422e-01,-2.848103118181023685e+00
-4.834069324926212552e+00,-1.238005800231111397e+00,-3.684010715481036424e+00
5.100063391353407027e+00,-4.720756057118019600e-01,3.402780861993027095e+00
-6.016557304232525105e+00,-3.536047973188468085e-01,-1.361057777562376003e+00
4.811294523645650578e+00,-5.094587441943774220e-01,-3.840832716411986869e+00
6.339348219260415362e+00,5.944176617100500604e-01,2.936184067350444682e-01
2.065312840397851790e+00,-5.757438265733176408e+00,-8.482160095853098492e-01
6.694681943884064346e-01,1.033190229383863956e+00,5.993662194433307278e+00
-8.442251689628996747e-01,-5.470504291091374149e+00,-2.831291287151364688e+00
2.368519645835527321e+00,4.894162743681683025e+00,-2.968847620106277230e+00
2.059050427734317346e+00,-3.184636708134718663e+00,4.956087071789562870e+00
-1.140622872727316883e+00,-5.645775706407387240e+00,-2.248875391869576301e+00
4.704882470199307498e+00,1.905443076476404984e+00,3.727426381953547807e+00
4.700284814908025410e+00,4.066145154187688959e+00,-3.184521920761128055e-01
-4.134545534328426086e+00,1.788615819292371123e+00,-4.241390746503395981e+00
2.740454250032200001e+00,2.055462289273211063e+00,5.089676808019947707e+00
4.457362824334786922e+00,-2.788996921836639054e+00,-3.255097592131492412e+00
4.066436412665304090e+00,2.143004789195451565e+00,4.140647192071685190e+00
3.896705494004652159e+00,-3.842484079777113148e+00,2.857035524482145483e+00
5.749776168136486731e+00,-1.967112077351160337e+00,-5.864712713353964491e-01
-1.110623242666692878e+00,8.534682628244976144e-01,5.945258247888891567e+00
4.700021691162635129e+00,-3.386321000984061858e+00,-2.260430979651105510e+00
-5.448047649340804099e+00,-1.172582226030271235e-01,2.907865269842733635e+00
5.470188071972607702e+00,8.377323690519550281e-01,2.693905997485412041e+00
6.117927545343131435e+00,-4.621020963889950206e-01,-6.477786581008441180e-01
3.791826461173792406e+00,-5.191110930311136906e-01,-5.000664373175020216e+00
-3.668817661824250731e+00,-4.269139878367089302e+00,-2.659567423253124563e+00
-5.270740926732883302e+00,-3.096415242917729849e+00,1.200709763677767938e+00
-1.136789394898151118e+00,-5.183139653984889073e+00,-3.000461306705898501e+00
5.897982654455360851e+00,1.928797760086588431e+00,-1.301273793502305542e+00
-2.229014611966444015e+00,5.049384670873108938e+00,2.925864833516563124e+00
3.633356898111494093e+00,-4.429141846783238634e+00,-2.146314055290460932e+00
-2.732114695991446074e-01,5.508796791016284722e+00,-2.801307733239727149e+00
-3.610189702458396876e+00,4.009883330981391047e+00,2.667209776955377976e+00
2.773656352228510258e+00,-3.968499196164194665e+00,-3.940767464745085658e+00
3.582230680774689979e+00,-2.722349141530154615e+00,-4.107899212650885090e+00
-4.228589876830575633e+00,-1.734643454753709291e-02,4.526123509202321316e+00
6.634097813071668237e-02,6.255505743309289102e+00,7.184822171131572954e-01
-3.883134492217417133e+00,-8.575869118094058274e-01,-4.825265572681747273e+00
-2.260290835869387394e+00,9.537127634858482139e-01,5.664836993919790231e+00
-5.057889085500788084e+00,-3.161813232934015394e-01,3.485324049108432298e+00
-4.343663543003762340e-01,2.086303328006653413e+00,5.746463497921967090e+00
-3.855151816400671727e+00,-4.735543796837627717e+00,1.262675237112576898e+00
-3.734087577377787626e-01,7.120457750030479982e-01,-6.275509402042099616e+00
-4.936554672728977522e+00,3.388217001580689391e+00,1.842471694144117933e+00
8.575011021841924541e-02,1.441035307310612579e+00,5.974529191155454555e+00
1.152817773048562033e+00,-3.488472248270397813e+00,-4.911948670671758777e+00
9.343062566076159037e-01,-1.879453382474864265e+00,-5.868028991844954412e+00
-2.281887494426081187e+00,-8.654401722931464036e-01,-5.751396292937034360e+00
-3.515310647708888681e+00,-4.058541922052081752e+00,3.023501160117497477e+00
-4.434449640416208149e-01,-6.098701948187592592e+00,-2.468164194991586957e-01
-5.827798219936878965e+00,2.040791283499066466e+00,9.156508427313109211e-03
-3.250486307719823387e+00,-4.896447436770628436e-01,-5.262397627339467476e+00
-2.706581517278255689e+00,-5.138507410378907736e-02,-5.567724138269688261e+00
7.764725581302773794e-01,-4.126150709506683611e+00,4.389713620353121293e+00
4.867077763330440732e+00,3.114268836895659476e+00,2.325173495403962232e+00
-5.412002532096534146e+00,3.846242722435394001e-01,-2.697770371874301354e+00
3.234406259779192272e+00,5.083500552727826083e+00,-1.108019887584049901e+00
-5.223069138546336809e+00,3.185533135436191987e+00,-1.635651501560965615e+00
-8.974399854506134311e-01,5.947066506287146836e+00,-1.231466695681227685e+00
-1.527871235426984775e+00,4.416551396193386658e+00,-4.037973746937411512e+00
-1.479256781611779648e+00,-4.714391065529227376e+00,-3.674650025394026631e+00
-3.048941480553302164e+00,-3.165910073340609365e+00,-4.309354815833630781e+00
-9.376092995052136558e-01,-1.141900202113543594e+00,-5.937254808826478936e+00
-4.887358416910046799e+00,3.785857553983701607e+00,-8.412167350665300525e-01
-1.216285579389138949e+00,-9.666995478421316346e-01,5.995646505425113126e+00
-5.781864670907236103e+00,-2.158754094272106627e+00,-3.080581988964586349e-01
-4.330542406873350458e+00,-4.265573059715480397e+00,1.000385732746729150e+00
3.207333721850084807e+00,2.825130495627800054e-01,5.308980832507653069e+00
3.728007056692028698e-01,1.360308559732899658e+00,-6.041267382403405328e+00
-3.217950292229090348e+00,3.985625738261146189e+00,-3.696061740786276584e+00
-3.311881685409746368e+00,-4.575139413771678321e+00,-2.613706065834079162e+00
-6.184358063287368701e+00,-8.091902947962517079e-01,-8.067200186380105720e-01
-3.585504921578900550e+00,-1.162893850224300113e-01,5.102036131372268635e+00
5.536261561052321922e-02,-2.085153857817825251e+00,5.796857339696471101e+00
2.348184681667170093e+00,4.840371059082015925e+00,-3.205995420786770467e+00
-2.510210754205864925e-01,6.147477162945127027e+00,4.913851184318587806e-01
-5.075051082302388217e+00,2.764818612189936076e+00,2.203239162165462339e+00
4.128868390569608415e+00,-4.040438346697995620e+00,-2.234506589463706838e+00
-4.443784123151719001e+00,3.941421378337897519e+00,1.627627928829296522e+00
-4.608036032969930473e-01,-6.299576598518934034e+00,7.006260468410284437e-02
-3.627883783802325013e+00,-1.714158662081769258e+00,-4.654494302654557991e+00
-5.086479234472786715e+00,-3.165979497377712892e+00,1.606359855381620072e+00
5.457279027837138585e+00,1.978690778032229147e+00,-1.685768786756570936e+00
-1.956124431281771159e+00,3.237010737746539579e+00,4.892120662484198412e+00
-1.198647208123822638e+00,1.648704429165813501e+00,5.874101669455602526e+00
1.613901864927427265e+00,5.832405675439981785e+00,-1.145434832419331972e+00
3.107360126167303171e+00,-5.242510205466095030e+00,4.715850155944640854e-01
5.457025818789834837e+00,-2.977698747012569314e+00,-6.217171115421227245e-01
-3.084479475478560051e+00,5.393845614959405843e+00,4.460675142716514219e-01
3.986135546736468527e+00,-4.432743267260962128e+00,1.120562388856065184e+00
4.929664271383830787e+00,-1.892711475215599792e+00,3.385644425360375021e+00
-5.091723174334436663e+00,2.434777851795133063e+00,-2.704099425635240639e+00
-2.090304989417992587e+00,3.755415658200342843e-01,5.763650499781570957e+00
1.787688767587434224e+00,-5.955422478091996652e+00,-5.299187832546097265e-01
-4.258533705809287362e+00,-3.609970442731734508e+00,-2.694063312201453009e+00
-5.131297364681018713e+00,1.739162690560736690e+00,-3.085250124439151254e+00
-1.447859624102678433e+00,5.907491244447014900e+00,1.379433384657567041e+00
-8.766697640301942540e-01,4.345252110261774159e-01,6.159625619191790413e+00
4.605919266505058118e+00,1.655019170666481187e+00,3.922882663506548351e+00
-6.880305218970803605e-01,1.279127348853954960e+00,-6.048205257371184196e+00
-1.943127404287458448e+00,2.721342359995966298e+00,5.245194851212401588e+00
-2.109455415033853587e+00,5.206845399794429063e+00,2.621091884570186270e+00
6.015416332236278585e+00,1.559163623207435956e+00,-5.957142158188988290e-01
4.811403125810693737e+00,-2.318782032770459356e+00,-2.995229324961088402e+00
-1.621448716940435908e+00,4.003283680547956358e+00,-4.527813912855006784e+00
-1.009251084778580054e+00,-6.034320962013980605e+00,-4.750539209562301690e-01
4.817685057850393804e+00,3.185591128383946646e+00,-2.230179955913738077e+00
-3.693222602557804102e+00,-4.455039645831788242e+00,2.400924430298709389e+00
3.293439367803475015e+00,-2.394013575058366594e-01,-5.158508468300036398e+00
4.636878324218510983e+00,-2.961392665686247039e+00,2.917895706634860531e+00
-5.906420821164009460e+00,7.984687567158129662e-01,-1.347445915359151591e+00
5.221731817234654294e+00,1.057005038560724586e+00,-3.022597995073227128e+00
-3.516183918857606283e+00,-4.908788151879088346e+00,-1.378032037157597145e+00
6.048252315175600913e+00,1.486043685374319467e-01,8.534776699210687712e-01
5.017843584537772017e+00,-3.224182615537047880e+00,-2.093627312151759678e+00
-4.764047594940770125e+00,-1.551374280460210864e+00,-3.477280206109128802e+00
1.818863850539919724e+00,-3.471551314661206478e-01,-5.887976592381877872e+00
4.833688587973184347e+00,-3.784761418648983966e+00,9.431944507199309380e-02
1.150966970798115385e+00,-4.767236566866407621e+00,-3.661753031406949077e+00
5.984590152911721361e+00,1.433218707449272378e+00,5.657372519862321480e-01
-4.569599004289212729e+00,2.055412149066942362e+00,-3.476095264314335687e+00
5.894240428227717210e+00,1.980776688270098895e-01,1.839581700952480414e+00
-1.589936497033231921e+00,-1.381031126071059711e+00,-5.855049092225632634e+00
4.185026202404556805e+00,-3.245471540253868081e+00,-3.098903647352890367e+00
-2.494961613847991533e+00,3.269019669953651785e+00,4.618844232356393853e+00
-4.248124871813960257e-01,5.807049026569560013e+00,-1.849156135992058747e+00
-4.178525618132030495e+00,-2.684123411182544938e+00,-3.629842344849439240e+00
2.533539796928847010e-01,2.830943085641977497e+00,5.363243971947554201e+00
-5.089018617958849244e-01,7.920336765678828161e-01,6.079492460396620501e+00
-2.771547030241946707e+00,-5.427353156474794105e+00,7.629388142128826766e-01
-5.299671675969997331e+00,3.301366847156391060e+00,5.428167026889746394e-01
-4.785713977239991479e+00,1.691844629643113884e-01,3.969477367438764670e+00
1.852800944571727060e+00,-3.278324073304672570e+00,-4.910111079383891131e+00
3.184681737748238373e+00,-5.246195196272076089e+00,-9.682480942915557831e-01
-5.292254080222460466e+00,2.502538136289034654e+00,2.063905732513942048e+00
4.967652831016943438e+00,-3.322062139804713876e+00,1.920436854501039514e+00
3.466777511587592286e+00,3.200349165551848341e+00,3.988692744738181695e+00
2.469225973565837062e+00,4.895091913053486898e+00,2.786347167773365996e+00
4.686492212939839419e+00,-1.718492270913551279e+00,3.810380242727326117e+00
-6.057209096278580951e+00,-8.595272654329808582e-01,-1.148106711380599609e+00
1.737111680099149513e+00,-3.063565346120888488e+00,5.079381171882695334e+00
5.560583694904015495e+00,1.574617497134281452e+00,-2.227186529295386297e+00
3.060040527301561841e+00,4.866820401713110478e+00,-2.257642737935241950e+00
-1.328913988141293245e+00,-4.399432761206270470e+00,-4.258169977651951932e+00
3.716932762610606567e+00,-4.575871801885713630e+00,1.965018286047075957e+00
9.235825841293676675e-01,5.370226970100597796e-01,6.112914415021840853e+00
1.194462215096996127e+00,1.860388889875614016e+00,5.782375802197220693e+00
1.196617967296793150e+00,4.782926414743344345e+00,-3.517823043078309730e+00
-5.137043591490622063e+00,-1.652909146970446219e+00,2.851178406527222986e+00
-6.005392889168806647e+00,1.265027859815522682e+00,-9.807520572828566374e-01
-1.079384064212115746e+00,5.638682836318682057e+00,-2.506225436200373302e+00
4.202498683715448102e+00,-6.946104013909693009e-01,-4.553389505088530242e+00
-3.872552705406545392e+00,-8.863558565366478348e-01,-4.663555161223777112e+00
9.918211837267445485e-01,4.767867198258141315e+00,-3.973929964284330651e+00
1.615638755092665857e+00,-4.795048902916762223e+00,3.634278723244086962e+00
-5.995142033331669396e+00,-4.580665822369294204e-01,-8.789097231256114418e-01
-2.761355953781184258e+00,4.833180577322997884e+00,2.561065306157166876e+00
4.916775648132098553e+00,9.800254419740933587e-01,-3.549626830228678198e+00
5.528132155816482651e+00,-1.846882341985323750e+00,-2.013591906436739354e+00
6.113358227879793105e+00,8.139908793068903470e-02,-1.166711087333359043e+00
2.509957293529550437e+00,8.297531691245501051e-01,-5.600688819116269812e+00
-2.993034852570947812e+00,2.153500297787304785e+00,4.982982918210912437e+00
-6.796446025838176475e-01,-3.664077164515326945e+00,-4.769974134067779481e+00
4.581993676041332120e-01,4.746743447644597325e+00,4.034583940551294212e+00
-2.869491986591643951e+00,-8.193788924037862520e-01,-5.438070479743609908e+00
-2.703891016714115025e+00,-5.431969047332403377e+00,-1.166454395586129733e+00
3.355784086949672673e+00,5.248174542440213308e+00,-4.755521351205894975e-02
-1.656895928437404519e+00,-2.273638100323819078e+00,5.470507048310409459e+00
-1.525627467568088980e+00,-2.783331444005924915e+00,5.306179397942275777e+00
3.699330960233110588e+00,4.421777342074205031e+00,2.145524576846360443e+00
3.202231398337758717e-01,1.297292893259461177e+00,6.018314565823171591e+00
-5.765977640245444569e+00,2.161266210252910103e+00,-7.241919018320304158e-01
3.555892691740659473e+00,4.976671735482167236e+00,-1.134137949975720261e+00
-3.272674120989852220e+00,-4.815556596923915578e+00,1.915826309095737479e+00
-2.333474094903419616e+00,-2.867129878454614644e+00,4.922994420151754369e+00
-4.691767929114297075e+00,4.103587048974076446e+00,1.028797186390049356e+00
2.828437879716574344e+00,-1.836520784229704661e+00,5.214591221624496953e+00
-5.288727651860749557e-01,4.617558207844817630e+00,4.171377802089915043e+00
-2.221125059320510520e+00,-2.683966740943978024e+00,-5.104242110508687702e+00
3.613397014764360371e+00,-3.652131374297671762e+00,-3.431911224220844936e+00
-4.047616858092593084e+00,4.555313645695552083e+00,-1.160085630736282791e+00
5.970267612479345232e+00,-1.720141781444781248e+00,8.769490805691424473e-01
-7.798403760375571814e-01,-1.770834849772586483e-01,6.154436551079649931e+00
-1.587806781573921633e+00,-3.911912428565820665e+00,-4.547582323999696641e+00
1.586582532015947011e+00,-5.040080109404032171e+00,3.042088056943860863e+00
2.842885848825939643e+00,-5.466688637276792662e+00,1.184038836387480975e+00
4.152827354349896360e+00,-2.682661144723429647e+00,3.696384483400543708e+00
-4.919257806977349823e+00,3.007137256479142984e+00,2.056674897520372358e+00
-5.560985020451845173e+00,-5.902563772887068350e-01,2.661296913754790605e+00
5.932460832175219245e+00,-1.848555151814084141e+00,2.617143606778893350e-01
2.405112560249164755e+00,1.032169056838392773e+00,-5.505985068114082281e+00
1.401891175591076788e+00,2.962259002419332266e+00,5.273262278932493885e+00
-3.802465695308693050e+00,-4.296158696479298378e+00,2.156042503289777645e+00
3.393687819700555774e+00,3.500101388764337518e+00,3.794953176642420267e+00
5.506254008619533735e+00,-7.033586570660473880e-01,-2.771444545226798617e+00
-5.789752453485498052e+00,7.292145585145858311e-01,-1.835741882188445029e+00
-1.007411994052254567e+00,2.489736042925222659e+00,-5.537979239115139229e+00
5.822255661037607943e+00,1.573903731442724885e+00,-1.628774291840385358e+00
5.343236246873910744e+00,2.263155613131737187e+00,-2.042577627549805097e+00
-2.378701213321229524e+00,-2.992913688030223174e+00,5.005541029181876489e+00
4.739972253125517732e+00,-3.789610681063960040e+00,1.122173897413204502e+00
-2.113160300277328485e+00,-2.527988330409233875e+00,5.158444325628619431e+00
-2.883038953056391129e+00,-4.339907081550956058e-02,-5.443369347078929721e+00
4.949641336370812716e+00,-1.678618044172939916e+00,3.289522984431808350e+00
-2.029616392843378581e+00,-2.543211714546884661e-01,-5.833115157806419759e+00
9.891150083539919091e-01,-4.065618245959441435e-01,6.152516801460603979e+00
-1.123726242606393061e-01,5.148576928276860976e+00,3.383791588701835718e+00
5.673996539682580220e+00,2.088214992015827942e+00,1.068947580660209562e+00
-2.524149709655422846e+00,-4.409909163338626037e+00,-3.495766744225297984e+00
5.011447539275021512e+00,-1.091283896228688155e+00,-3.428379070696874642e+00
4.029560019678221749e+00,4.010245881333068141e+00,-2.421492421004110440e+00
3.880822524896851089e+00,-3.604213509820322514e+00,-3.168372758744506523e+00
3.728698554007470634e+00,-1.209129158590454445e+00,4.815044510531870436e+00
-3.441328700979656041e+00,2.947355622605245529e+00,-4.225364880961004488e+00
1.489788558166472265e+00,-5.975110691465244095e+00,3.405820236159759484e-01
-6.004007085650914455e+00,3.429958190712859012e-01,-1.720224706038417484e+00
6.205373899972292051e+00,-2.148325221038773283e-02,7.341895751144837945e-01
-8.746040413659246227e-01,5.918130982796256934e-01,-6.120556630532952624e+00
-1.053451545668300238e-01,-3.067213245429573742e+00,-5.317614578983913987e+00
4.968291629117988606e+00,3.278869416410772786e+00,-1.772939919332246372e+00
-4.225471120998252950e+00,-4.281191912635193830e+00,-1.591200779186066061e+00
-5.760147414211236772e+00,-2.004087568754447268e+00,-9.430934608393369833e-01
-4.410912773588968605e+00,3.837062937307277100e+00,1.862953100111576665e+00
-1.560463067233707646e+00,-4.840593064318932548e+00,-3.465048820373412219e+00
-5.247019761768904722e+00,1.372753803433942377e+00,-3.186634505855125976e+00
5.905318951314186826e+00,-1.547819339712752873e+00,1.390143524814827058e+00
5.024002076326061328e+00,-3.316527763611472945e+00,1.654119099276189830e+00
-4.109061278285038310e-01,-4.714110072663260098e+00,3.865721052342404374e+00
2.813823753005968431e+00,-1.438944724787341922e+00,5.393462681491834942e+00
-4.392757878276028372e+00,3.322561034592775187e+00,3.045581414145368093e+00
-2.450836027948409601e+00,5.018783671080496944e+00,2.693400548364617730e+00
-2.200184760099459957e+00,4.172965771449913319e+00,-3.916304628909904384e+00
-5.349984367705581612e+00,2.593515726210386507e+00,-1.772072432602647796e+00
-5.478017645582058393e+00,-2.978905732390785044e+00,6.095408320478128417e-01
5.819846406680040829e+00,-1.356665925229742831e+00,1.963904361677757393e+00
2.053979845256084680e+00,-2.085175757528953344e+00,5.454023366298588194e+00
-8.712141037542545652e-01,4.542671552923685852e+00,4.087236101568424651e+00
2.156256184660148456e+00,5.670065611202247169e+00,1.060851840376438870e+00
-5.203299942944984657e+00,1.143493248093748332e-01,-3.526396698422143761e+00
4.571372381185166978e-01,6.209256198317301134e+00,2.851784260816580541e-01
-3.281582177399987810e+00,3.499124970465377071e+00,3.943288853747694223e+00
-3.630684024932957943e+00,6.762426080969084763e-02,-5.043303149486850323e+00
1.272928205190235529e+00,3.902639899257995371e+00,4.721285290434749093e+00
4.446595211543302284e+00,-1.965107483488772955e+00,3.848496548721171973e+00
8.236520131719615723e-01,5.711173344125310969e+00,-2.137819364054907911e+00
5.229431676940901497e+00,-5.976033489651476627e-01,3.246452034492194105e+00
3.665803335316815681e-01,-6.175746870931945409e+00,-1.052556059386450249e-01
-5.685292416598024090e+00,8.140408958544649298e-01,2.442691589784856010e+00
4.357858267270308339e+00,3.258295872234466817e+00,2.832551118146236835e+00
-5.551881110614876214e+00,-2.499896008476553799e+00,-1.099794021842810388e+00
5.235215458538674760e+00,3.032959948254133398e+00,1.079969484300373317e+00
-3.214529527655669572e+00,-4.744073251007821845e+00,-2.295588784472867516e+00
3.080143617882642015e+00,8.411609147423360078e-01,-5.365408558387815496e+00
9.913550134491505572e-01,6.115987965662133874e+00,-2.200551814316413224e-01
2.245160458839845496e+00,-5.726606734402726495e+00,6.544505103881101959e-01
3.836366818551399938e+00,2.870938858085998024e+00,3.858965025036860563e+00
-3.666926524174500268e-01,4.209091330851530088e+00,4.522421464985603379e+00
-2.013510448708129008e+00,3.816005727144657467e+00,-4.350676624359349098e+00
-7.123069197863867164e-01,-6.041991926096702548e-01,6.151636099521113898e+00
4.176561784931526411e+00,4.587190067315714437e+00,9.981736618688850093e-01
1.151934853890319799e+00,-6.039124716190130471e+00,-8.993189631016506036e-01
-2.891541572777613922e+00,-5.272388315277995119e+00,1.014274651678538364e+00
1.756383303806781759e+00,3.126860658533006099e+00,4.936126490105368525e+00
-4.940704089994012449e+00,2.766449022593902018e+00,2.215073589848807867e+00
3.782823685729283625e+00,3.340662622999662101e+00,-3.513974053921056662e+00
4.239824525442180025e+00,3.866645208381433996e+00,2.590793335966363742e+00
2.714959573837834039e+00,5.616197009656659134e+00,1.935033051575412721e-01
3.639218318383366402e+00,-4.758131278987162815e+00,1.746921793658798183e+00
5.980053894242415069e+00,-1.136325155221894034e+00,1.024033804271854198e+00
5.058013387599141986e+00,2.218837398753971346e+00,2.796227180510642452e+00
-1.256115780357022205e+00,-6.179117387546274820e+00,-5.800076230459773052e-01
4.310823066719115637e+00,6.042574495810605351e-01,4.500999700966277217e+00
-2.772534457780950756e+00,5.103982165022248552e+00,-2.178712519953191595e+00
1.850388583156570732e+00,-4.479597485293989934e+00,-3.952790921617795661e+00
4.990515567046296397e+00,3.729426119064660483e+00,4.358661046476094980e-01
4.091180406613418086e+00,4.810823751211593668e-01,-4.597550272692252804e+00
-5.215048709027546359e+00,4.132765131289851679e-01,-3.179727078842946142e+00
-1.913370366044758297e+00,-1.692325239289284911e+00,-5.746896946967255282e+00
3.848370789523127389e+00,-1.895031364324575307e-01,-4.815901252451381787e+00
3.649790576733897285e-01,-2.503569376663337120e+00,5.659977766992350112e+00
6.681685719110631583e-01,2.949759386534587247e+00,5.458671464560265640e+00
-1.029315838402876437e+00,6.043372891459698470e-01,-5.999316953284898446e+00
-2.540587059450310381e+00,-1.403954992408302349e+00,-5.530820773880214425e+00
