2.934796146630465508e+00,-4.729699998183767740e+00,2.364128819537250070e-01
2.541985077989549424e+00,-2.592711839676783647e+00,4.255600292177357247e+00
-1.832120124412232931e+00,-1.896159008490633235e+00,-5.028304997849699198e+00
1.618588371377311486e+00,-4.552006392969200732e+00,-2.784250910021159875e+00
5.084032727042001598e-01,-4.429057478055186792e+00,3.412541760685450676e+00
-2.334345384443061722e+00,2.665665864878125291e+00,-4.358076397844770966e+00
1.423197155647782708e+00,1.658996829837273479e+00,5.009404889790801896e+00
2.409144520329676631e+00,2.502941878440814616e+00,4.349896264521684763e+00
-5.417882581053240720e+00,1.273118422785635806e+00,8.348067301178409005e-01
1.315405876028391319e+00,4.078309542193152559e+00,-3.551997842949001338e+00
4.664840404316207945e+00,-3.771474016090055059e-01,3.113821330459537240e+00
4.575011113899113191e+00,4.785538130217690256e-01,-3.327614431109822135e+00
-1.204382647227391523e+00,1.769809548277887279e+00,-5.228960713215373701e+00
3.562842533300406345e+00,-3.893048188069444304e+00,-1.741260791685978804e+00
-1.108371809370777061e+00,1.061555060719925558e+00,5.349483815001690346e+00
-2.306247199931396596e-01,1.252858733404478064e+00,-5.382013222026764687e+00
-5.407914924090087894e+00,1.406822064915856041e+00,-6.825116894898575204e-02
-7.195395099035929443e-01,4.879745031401805377e+00,2.629169662429807541e+00
-6.388820775775938543e-01,-4.738241407227532953e+00,-2.845011349549080748e+00
5.546604194216969042e+00,1.171533113790965919e+00,9.417749110161157677e-01
-5.474718259554617106e+00,-1.386264194168468356e+00,1.070817173953459545e+00
-9.929809455448654343e-02,-5.123575098104499403e+00,-2.234021550311934945e+00
-2.164509074225376750e+00,5.259675202396083549e+00,-1.625864334628403240e-01
1.425108010298917316e+00,-2.453406385671656587e+00,4.847851638844376865e+00
5.051357149665334223e-01,5.630222188081185131e+00,-2.545021934080997639e-01
-2.905331508021549158e+00,3.934334870484741842e+00,2.825428948275070073e+00
2.004958903849533236e+00,3.701863707670629999e+00,3.674329387023827387e+00
-3.428433501610048673e+00,6.402754417097692441e-01,4.431742449634509029e+00
2.618456643788952043e+00,-2.195563486013321519e+00,-4.462564974929321693e+00
3.309738348989986090e+00,2.122579328985724434e+00,4.008481778930406136e+00
4.117494099107349426e-01,4.072512905326803878e-01,-5.632565185608107150e+00
5.273441298372214092e+00,1.557506748028910426e+00,-6.005685128831953490e-01
-4.730486478240881754e-01,-5.346596987187154149e+00,1.669915098072592752e+00
1.094093421440704761e+00,2.377551497766947630e+00,-4.905190678894247647e+00
-3.646318045468921021e+00,-2.659965272258944857e+00,-3.379283401712706691e+00
2.168732668471551772e+00,-7.419700232780100935e-01,-5.004839099835794336e+00
-3.052181838364363742e+00,4.551947052933138060e+00,5.502214045184680158e-01
3.357644613090030372e+00,4.485237772271799983e+00,-8.321273194356202385e-01
7.442110644030277555e-01,5.167140230624966080e+00,-1.856808060578917008e+00
3.347515329917186921e+00,9.841001677381374657e-01,4.389221921959171269e+00
-4.169197538790220037e+00,2.407158283251092268e+00,-2.826456006726263404e+00
1.277371126139328128e+00,4.729610792073751568e+00,-2.636314129690712882e+00
4.805973166094373639e+00,-2.766272095528836239e+00,6.042084548990884763e-01
1.652010608529324909e+00,-5.219053508121668017e+00,1.344403660767739872e+00
1.823466195965758985e+00,2.767220275648792249e+00,-4.552487041522581990e+00
-3.032608000700012241e+00,-1.213938509081514683e+00,4.526589921106337400e+00
1.094160556146279717e+00,4.697632692804320165e+00,3.132297365024713898e+00
3.066918827629436795e+00,1.465404762092213042e+00,4.491453591188259153e+00
5.166635031026731717e-01,-4.751949634816983625e+00,2.952602112740525975e+00
-4.440260177186388546e+00,1.299290179978621840e+00,-3.226197926447899711e+00
5.289990379673970011e+00,-3.877936368352991603e-01,1.865669454813581041e+00
1.514772308241169041e+00,-3.068416625103593365e+00,-4.526526743356121152e+00
1.118010740537818792e+00,4.997784280561259784e+00,2.331481371765224964e+00
1.245491000270211090e+00,-5.272216985923392940e+00,1.393552931173126508e+00
5.075101725681404830e+00,-2.536405377073363887e+00,-6.334598296006558327e-01
-6.629302870674196324e-01,-4.183003463577938952e+00,3.567174513946132386e+00
1.206020947802043830e+00,-1.077376496558862362e+00,-5.407810579853000732e+00
-3.841438269383889548e+00,-4.479471214331798290e-01,-4.087404712976934640e+00
-3.323471778642783647e+00,-4.176784088742281575e+00,-1.711829314818214431e+00
1.569406630719425655e+00,-5.495195204667409961e+00,-3.568330192131516365e-01
-8.884028175947411565e-01,6.580039193361425509e-02,-5.570770394635147227e+00
2.613292306201626225e+00,5.006679520482445689e+00,-3.707115752813094356e-01
7.317856190998974775e-01,-2.371195539296913068e-01,5.608366074728317052e+00
-5.495277109422603168e+00,-3.649614770268321678e-02,-1.216656149033127576e+00
5.923584279293199195e-01,5.054518972067149285e+00,-2.585826732627027447e+00
5.694093574241336775e-01,-5.395649925178171102e+00,1.435211004509024946e+00
3.830782913638836051e-01,-4.028703803877197842e+00,-3.855427465957248945e+00
5.564435319793178181e+00,4.021860959899784538e-01,9.043872159532336807e-01
-1.759775502946326897e-01,8.357500631819815284e-01,5.463933388903629229e+00
4.692536707466116397e+00,-3.113321909341761895e+00,1.389148283366252734e-01
-2.796762869106693028e+00,4.644624794901471176e+00,-1.308977211944910124e+00
4.431321201003131982e+00,5.763526332200515911e-01,-3.388384947777873801e+00
-3.375141555875129207e+00,4.466882709531955875e+00,-3.698125654606419510e-01
-3.187526832309161229e+00,-4.176750329256466721e+00,-1.824774498729847760e+00
3.095416765608180465e-01,-5.584359338792157956e+00,-3.916383765157871455e-01
-1.802650373222223434e+00,-4.108627221643577521e+00,-3.232469469130629491e+00
1.562065712025047626e+00,-5.245444437199640042e+00,-1.067015926502319134e+00
-4.657942900258043473e+00,3.090848739174914872e+00,1.248491033441523346e-01
-3.295528201182101324e-01,-3.699740033974407982e+00,-4.132691022542899439e+00
5.257838442777016397e+00,-1.665118606380977750e+00,-1.308441590043558644e+00
2.815630504807169032e+00,1.240416482779837626e+00,4.732029634237636451e+00
-1.976896809840574143e+00,5.267088557328173160e+00,9.944889759529473849e-02
-8.395876882268823449e-01,5.432354643736545974e+00,-1.058506218248536301e+00
5.316219005060044189e+00,7.356572336813288482e-01,-1.535712836149436544e+00
-4.112457551716294901e+00,-2.421865636762044804e+00,2.980770848526317796e+00
-4.006031575784530396e+00,2.639523682306142760e+00,2.868744467669615439e+00
-6.250039249573098310e-01,3.222292570305167470e+00,-4.551050815192787979e+00
3.060910164287985680e+00,2.949766228665459344e+00,3.775565521916079970e+00
2.729640541214962468e+00,4.352587223702760078e+00,-2.211587477828633297e+00
-1.870281694314986254e+00,5.157915776387152818e+00,-1.299931188446886932e+00
-2.682954687946379480e+00,4.949401279940026654e+00,4.899401307675806949e-01
-8.672515634488067171e-01,-8.221875052347638047e-01,-5.404627813501837075e+00
4.192133620837863006e+00,-2.297488699650240829e+00,3.009110291401891679e+00
1.715004082642060501e+00,4.310996186772991123e+00,-3.000598611908270374e+00
3.925544119507228480e+00,3.997751784023336086e+00,1.059389177529040937e+00
-3.773708544754492133e-01,-4.342375599337025882e+00,-3.568159214571183124e+00
4.527108024861530744e+00,6.459356841418190109e-01,3.306973221986819755e+00
-9.609417206980237491e-01,-6.652540046021954145e-01,5.544392968945305533e+00
-7.610288340500583892e-01,5.253194881586072285e+00,-1.698241428692594424e+00
1.656114263478206006e+00,3.025873431504453315e+00,-4.383467232323384977e+00
-5.411996732992140124e+00,1.693183590059077925e+00,3.572787970736990282e-01
1.488965024596452524e+00,1.885129147920128867e+00,-4.918147028929860554e+00
5.330532090973601811e+00,1.068737489859261425e+00,1.399356210201462281e+00
3.523062852034692050e+00,-1.318757776971918982e+00,4.178025659623405552e+00
1.736774858672708532e+00,3.513474274905789230e+00,4.128942521119253861e+00
2.434481224206412886e+00,-5.026781791871824723e+00,9.421450067745916757e-01
-2.328738066555221309e+00,4.780726168421339572e+00,-1.647327207968217300e+00
-5.342249327417624372e+00,-9.927323173921451804e-01,-1.503214388596903817e+00
-1.089567331430973063e+00,5.571903282574738325e-01,5.507834184583340509e+00
-1.458675214270307885e+00,5.187998227617109492e+00,1.566469366976842137e+00
7.358837627439253348e-02,2.204768186721476564e+00,5.157625306198120541e+00
-3.044158840750725917e-02,-4.600698975780163735e+00,3.198791295172804361e+00
-2.736574316855568068e+00,4.291990865018791013e+00,-2.274700372575077623e+00
5.089303372896393007e+00,1.511172208061128286e+00,-1.875760773321656139e+00
-3.375994995201430093e+00,-3.186038311902258169e+00,-3.126584374351529583e+00
3.582092923410480356e+00,3.441502177079771574e-01,-4.487410386220012981e+00
-1.223883624908625595e-01,-2.871204142358999789e+00,4.846430284660741883e+00
4.575536781424063726e+00,-8.043833496492490687e-01,-3.174607036241287261e+00
2.107680663762621365e-01,-5.007219346819169026e+00,2.575468519800142797e+00
2.340700574022833269e+00,-5.022706749016413674e+00,-5.546564966778564365e-01
-2.438012741057327570e+00,-4.947451406833990539e+00,-1.362361749848771231e+00
-5.660385566887714548e-01,3.789858739733109605e-01,-5.500645870041005026e+00
-2.297281734712332213e+00,-3.145582642938938855e-01,-4.998982800119804004e+00
-2.147363176433395360e+00,3.750251073793730239e+00,-3.472044310325179239e+00
-5.408843762847694414e+00,6.083529912036549359e-01,-1.128891488703671397e+00
2.720157704804874399e+00,4.078592110068967713e+00,-2.712134326873560486e+00
1.357038782137967248e+00,-4.739059181577486513e+00,2.777563559582458819e+00
5.291618276899139772e+00,-9.907641665356571314e-01,1.832602298553431375e+00
2.203157845377436530e+00,-5.037603766742797973e+00,6.144229501030809004e-01
-2.781063656501941317e+00,-3.507214568325244031e+00,3.572523108296773220e+00
-5.342084615513949863e+00,-1.676602137589399577e+00,9.048097192052808602e-01
3.252169168768194840e+00,-4.336227124796725008e+00,-1.452775313290196380e+00
-4.923771505656223013e+00,1.615452947249128357e+00,2.103611860592286664e+00
4.300829303735793196e+00,4.743814493061018767e-01,3.534180650743904639e+00
2.619144014208006688e+00,3.935389574244111177e+00,2.702863254426995709e+00
-3.359251910569700961e+00,-4.077407117668205849e+00,-1.927600641457297703e+00
-1.082705675324152184e+00,-1.197659120122602783e+00,-5.357525625803278402e+00
5.549015031748383286e+00,3.228986557050665951e-01,-9.593258130431995268e-01
-2.034126182173811692e+00,-4.012993832301474662e+00,-3.333402732877921437e+00
-7.715052561963248179e-01,-1.888154116748234523e+00,5.161854091819896517e+00
1.211967273070917006e+00,4.063239574033699952e+00,3.748141811312192484e+00
2.245084346181321244e+00,-3.524970069816134033e-01,-5.134606178858672543e+00
1.515037920419993522e+00,-2.108047464650240510e+00,-4.926700097638143205e+00
-4.434547742282757277e-02,4.722828225694812865e+00,3.126199476729890847e+00
-4.338131401086807948e+00,-2.190386512104382177e+00,2.961527012982916318e+00
-1.179776084051262330e+00,4.052449335335011504e+00,-3.727778255590503687e+00
-4.455978577136731289e+00,2.833644909631480857e+00,-2.016309747462246449e+00
-1.038807864781120749e+00,-6.066622593056644197e-01,5.284883424854926126e+00
-2.401594777634322442e-01,3.784810018101964157e+00,-4.177760434252951072e+00
-1.840448117562013763e+00,8.119212000869966209e-03,5.318475295894593557e+00
-1.544748652908530584e+00,5.040597483458829409e+00,-1.958143688944898653e+00
4.967117603220223998e+00,-1.212850797811558134e+00,2.317428382132010967e+00
-4.684658297672460670e+00,-7.804574819197184210e-01,3.049954986359192155e+00
-4.685311613493857053e+00,-2.481277801475337608e+00,1.945467757994380653e+00
1.325588182064698195e+00,3.841690038303911869e+00,3.822316546651063351e+00
-8.498455894111719422e-01,-3.814539572635363474e+00,4.165315514071061820e+00
1.666892104110783701e-01,-3.870911462119587920e+00,3.954185266341159188e+00
3.568519685156264387e+00,-4.256175276271219943e+00,8.848817839944419505e-01
3.555111380542010369e-01,5.132407123727494636e+00,2.413417900293427287e+00
2.948837965890694246e+00,1.421904874482033287e+00,4.524193309102007454e+00
-5.340138047259070930e-01,-5.518611605467379277e+00,-7.124075080712069519e-02
4.533058994903018224e+00,-7.545278297263027234e-01,-3.097434318528913266e+00
4.807456809261024588e+00,1.791562393827444311e+00,2.297501303487124780e+00
-3.354838573300712667e+00,3.384310961565692999e+00,-2.892348896858814022e+00
-1.205502408461826547e-01,2.768718476183507082e+00,4.857472380921363353e+00
2.559752437121137092e+00,-2.743934385582069702e-01,-5.059482927712073419e+00
-3.538760192193468157e+00,2.047237114583682960e+00,3.943783180706470048e+00
2.325258617530516769e+00,-2.864768467138306463e+00,-4.262847388254288994e+00
3.460517097184942603e+00,-4.174649314286462243e+00,1.238844794254350123e+00
-2.725131524356820378e+00,-2.515776926130088409e+00,-4.086519652614461151e+00
-3.139380300838455540e+00,-3.404665340508703508e+00,-3.221460483735327784e+00
-4.775559328994200547e-01,2.757930799369132657e-01,-5.626596968990462244e+00
2.781923335643301964e+00,-2.515512662115436893e+00,4.062288133520156386e+00
-2.400708649389861726e+00,-2.557981560812678801e+00,4.451787893450436684e+00
-3.389389257576545411e+00,-4.435942105538710045e+00,-6.667824091783168816e-01
3.258166692673297060e+00,9.071935078605658509e-01,-4.548021974487505226e+00
-1.073692233664042872e+00,5.321230974808153213e+00,1.364002283029685403e+00
3.175992107669026954e+00,1.534900169679271897e+00,-4.360113362131691872e+00
-1.557406391117515110e+00,2.284578432498399092e+00,-4.900459507923822677e+00
-3.252145185377225189e+00,3.519168991276667491e+00,-2.874593348026224682e+00
-1.123105943257860062e+00,-3.642549590312591956e+00,-4.113576648277380343e+00
-1.073906820805285323e+00,3.259788068304154685e+00,4.366613404986765978e+00
3.421121330283474649e+00,-1.803369892894328252e+00,-4.076962857533993123e+00
-5.425883520560312867e+00,1.520809997876709785e+00,-8.152192276104130997e-01
1.950280578668161402e+00,1.230209977410195110e+00,5.173757579071613932e+00
-8.735375051568118332e-01,-2.665354200505031912e+00,-4.819828814836017550e+00
2.231505173749518622e+00,-1.428493159340579410e+00,4.922782625311343807e+00
-5.375903275002405834e+00,8.499205004208494341e-01,9.327568538312048796e-01
1.713376069294456627e+00,-3.320820562476275661e+00,-4.080079746225146131e+00
1.950880786004649758e+00,-4.876074224021110126e+00,1.880356578028449466e+00
3.715016582841298209e+00,-3.744037669172892269e+00,1.843439092903565335e+00
2.402248370653428111e+00,5.079074298658665221e+00,3.281593689101827693e-01
-9.821177959050358952e-01,-4.084683521420060970e+00,-3.768268265460466449e+00
1.752867367454891134e-01,5.494241758554790245e+00,8.434790563047723788e-01
-4.522885850940428831e+00,1.122593642174481543e+00,-3.152226154857741047e+00
1.559649241948509069e+00,5.406877464242041853e+00,3.282933586885019017e-01
2.725514348318845759e+00,-4.893804385155062775e+00,2.377742440664517426e-02
1.068290439548052584e+00,-3.582376766028897208e+00,-4.128919714390010043e+00
-5.639171409338202601e+00,-1.598197088943950905e-01,3.709915213327094619e-02
-4.738764590578090186e+00,3.000385510505350073e+00,4.735424131796435177e-01
5.059314976422688126e+00,-1.670525118886934557e+00,1.981454122377596994e+00
5.418332596395616818e+00,1.307164152709569649e+00,9.371764496245356124e-01
-1.007968774349991881e+00,-5.539754164044789597e+00,-5.938669207763639379e-01
1.445322839275724192e-01,5.176816591456737449e+00,2.042560243258801034e+00
-5.240276391151630797e+00,1.378891022019857804e+00,1.180204416239094556e+00
4.456675471225699958e+00,2.539914316358516722e+00,2.056405407363786075e+00
6.813869832541673555e-01,2.108713415347509557e-01,-5.607548234691115852e+00
4.145083057217425204e-01,-5.624497363366750768e+00,1.227245531098279663e-01
-5.272504378559538019e+00,9.757969985082548536e-01,1.658937169836857350e+00
4.588313551332508844e+00,-2.775147735612051747e+00,-1.757707657077727914e+00
-4.783311810819948384e+00,2.867799346419042994e+00,-4.851645382341532864e-01
-4.984217611900711553e+00,-6.038608684937220028e-01,2.466052759458135846e+00
1.397552708137294930e+00,5.383816678214554230e+00,-1.096872488980381144e+00
-5.389374163211763324e+00,-8.232595704318814711e-01,1.174534930539910649e+00
-9.320085672307618641e-01,2.808439323456367376e+00,4.788193580332104737e+00
1.813094820741537161e+00,1.989372531244935516e+00,-4.967624065598440275e+00
-1.813008391792285900e+00,-3.452006267474475365e+00,4.013390324471235893e+00
1.913592841178893833e+00,3.623176727963370869e+00,3.780475921076411172e+00
-3.508171157016174435e-01,-7.014616234915644899e-01,5.562809674187124465e+00
1.872130624873768745e-01,-3.729553364796087234e+00,4.107048185812290697e+00
-2.336494550988506447e+00,-4.976403031952722600e+00,1.210435000567032571e+00
-4.539395186344439281e+00,1.743962808457653502e+00,2.865169821667429950e+00
2.860508766641018941e+00,2.038381255124738889e+00,4.223992586697062457e+00
-5.462312711429703427e+00,8.916381275904536885e-01,-1.083237495908285997e+00
-3.344994791673958079e-01,-4.128125312441695449e+00,-3.834664902515137364e+00
-2.032271194479682741e+00,-7.441056453864715314e-02,5.220263936493447332e+00
-1.388645620046366602e+00,-5.512118371231593983e+00,1.614263834672804709e-01
-4.668103365371719882e+00,1.060297592800216737e+00,2.879258018952281173e+00
-4.613210688542681126e+00,-3.066424310880863313e+00,-9.975286397804725702e-01
-4.591913470594779945e+00,-1.602820869903265777e+00,-2.908705821267920655e+00
-1.706991942705547549e+00,-1.479504046621868296e+00,5.126758304761052543e+00
4.018241221599815338e-01,4.220396573703774301e+00,3.517337046920134824e+00
2.321549320656185689e+00,-5.096214545225833392e-01,-5.090708470139971631e+00
-3.602359460823012505e+00,1.048813053732133849e+00,4.128866517194416552e+00
-3.677921938463911022e+00,7.567683003119881624e-01,-4.166296234890622507e+00
-1.762910457876704085e+00,-5.024964728725208829e+00,-1.825281194529936091e+00
8.689397843454772508e-01,-2.813635914243918901e+00,-4.764990988249071968e+00
2.112589720385032344e+00,4.830761051318122945e+00,-2.030526947648970904e+00
-4.593303506497084521e-01,4.221728263046685137e-01,-5.661766974067597324e+00
2.541450695742388799e+00,4.781438544024088522e+00,-1.380267092180204269e+00
7.213187971353289540e-02,2.963499659353826393e-03,5.715820854945177665e+00
-2.501596178890562516e+00,-7.127743669457230480e-01,-4.846126026454925295e+00
-1.959881825834637104e+00,5.211735921409323957e+00,5.217315926319737729e-01
-5.392353256060157030e+00,-9.201385175966901864e-01,8.910988631034789664e-01
5.141062489616450293e+00,-6.203549206763109281e-01,-2.133454516372577103e+00
5.115670266251579612e-01,3.515204890803276694e+00,-4.322740567290422220e+00
-4.449457910921948312e+00,-3.297989567069711914e+00,7.452941001612062299e-01
2.942516944014696101e+00,2.626640798760504492e+00,3.931482725604745987e+00
-5.400931537333693022e-01,-1.855641678000894190e+00,-5.344172071149073666e+00
2.694907189395209901e+00,4.075808781125392244e+00,-2.595969876437266954e+00
1.701421874252373234e+00,-3.645281073343761502e+00,4.005276357211861260e+00
2.859715223656372540e+00,3.770626841139205765e-01,-4.709940915292443187e+00
-3.015518398331474614e+00,4.123871208088777607e+00,2.504557955583850859e+00
1.385170834813704177e+00,-4.784259748023258041e+00,-2.622981399845959682e+00
6.846587810585539335e-01,5.447927365970174129e+00,9.846678394995543870e-01
-5.376788783785245052e+00,1.883375696961595125e+00,7.795829131045722837e-01
-2.298397008264280394e+00,-4.910202246439596685e+00,1.450387200266094023e+00
2.540113665179037472e+00,-4.572669066777010904e+00,-2.157298266369064077e+00
1.207329607569802343e+00,-5.070858373963921473e+00,1.963579271703055573e+00
-9.163332943612524373e-01,5.240716470266431060e+00,1.572847647596021803e+00
3.476992192918090030e+00,3.359505635856382622e+00,2.766026686186715100e+00
4.384370218143465725e-02,-6.334345143770060416e-01,-5.567027231238647289e+00
3.125935070877359223e+00,2.530315436652230243e+00,3.890397694035720555e+00
4.978529064293093498e+00,2.568149545081136242e+00,9.416858338266178574e-01
-4.679874674008887681e+00,-4.936867443876989947e-01,3.000515303515128185e+00
8.285286532474124277e-01,3.991633227291587538e+00,3.767797565328983467e+00
-3.152135031787236752e+00,4.184655117715949224e+00,-1.836074073196770406e+00
-2.676023983330104272e+00,-3.802440663632893347e+00,-3.118043718280582244e+00
-5.536908844921581974e-01,-1.781511382723652392e+00,-5.348748569641865735e+00
-1.931956967802111347e+00,-4.944548001201503062e+00,-2.277820396466926578e+00
2.714358487053858404e+00,-2.040246615163398669e+00,-4.552791548956740542e+00
8.670148915710181869e-01,4.112619167155605382e+00,3.703521691731154863e+00
4.800927954765663586e-01,3.020457315592499636e+00,4.869513702534943533e+00
-2.602229187517959730e+00,2.828149833504780553e+00,-4.288678438632705259e+00
-4.632739462828615373e+00,-1.522046716613167261e+00,2.836516192655516910e+00
2.561232626959838665e+00,3.407602302170225084e+00,3.578123144099643049e+00
3.151154263683745516e+00,1.859678500208566287e+00,4.284101059709521486e+00
5.516293079911982922e+00,-2.751196090519952286e-01,-8.437098720733754442e-01
-4.110933441898335650e-01,4.918175993051669970e-01,-5.522905955420150725e+00
-2.495231922296076821e+00,-4.637132212951798338e-01,4.973141064724651450e+00
-1.116596015620805682e+00,-2.943683540220904060e+00,4.692009953044037118e+00
2.468998247944281244e-01,-4.754272823712529572e+00,-3.032317020715986189e+00
-1.795845710853716470e+00,4.996756507193238939e+00,1.894249578278139001e+00
-5.583952176129399980e+00,4.145075044002482501e-01,9.115256456295460774e-01
-5.012963803256623940e+00,-3.110325389308642996e-01,-2.429629228831911014e+00
4.003610828921912557e+00,4.651198953211125309e-01,3.850818458172220904e+00
3.039317293770265049e-01,2.775422031265851075e+00,-4.930349282925773124e+00
-1.347629618721431832e+00,-4.602828147850404505e+00,-3.030478372515719609e+00
-3.698881713151636053e+00,1.036156556626132291e-01,-4.201110701814952719e+00
-2.893684129587438481e+00,4.729610518966051558e+00,1.159446170155949085e+00
-8.740854294564516513e-02,1.673370500558508667e+00,5.357442228140622653e+00
2.748761242485011191e+00,-3.414905568347459397e+00,3.565293186628036182e+00
-1.047215252969881660e-01,2.425580378857168817e+00,5.092760698421726850e+00
-1.013668693111878794e+00,-3.297652120793431063e+00,4.515778235485671033e+00
4.081782734122290535e+00,3.330909279660834166e+00,1.729515310713907628e+00
3.811110709973655641e+00,-2.926258613644333373e+00,-2.803318654949700228e+00
4.813490699494924918e+00,-1.941475168741472190e+00,2.086164949782530975e+00
1.183109742118807262e+00,-2.838161160234172975e+00,4.754860452739175791e+00
-2.562831452754850137e-01,-8.336275113276003790e-01,-5.539901203406826014e+00
2.720250796970351104e+00,1.080149643374419544e+00,-4.755509925895132106e+00
-2.648641615567446816e+00,-1.526103617173077076e+00,4.741383236452398009e+00
-2.126865516057603323e+00,3.574880906400943026e+00,-3.810873493608745388e+00
1.025426025607027336e+00,5.285039377459033183e+00,-1.640226369386254657e+00
4.898205860240587128e+00,2.241518799291621011e+00,1.603412441771251196e+00
-5.203691704185780864e+00,-2.011964387471540494e+00,2.055818888397607791e-01
-3.737122527098666769e+00,-4.951767079522380599e-01,4.233366673737582353e+00
1.806207461343721510e-01,-9.165299377086246757e-01,-5.590686042906200193e+00
-1.187888733804991048e+00,-5.510104286044862576e+00,7.596995841476417155e-01
-1.540405648716841380e+00,3.071318876646264684e+00,-4.495921901815306043e+00
-4.348955277178352397e+00,-3.185980520683895367e+00,1.907702243961375776e+00
-4.773844723471985851e+00,-9.921088323533117093e-01,-2.889939301931602866e+00
-1.682013804089091735e+00,-5.417908022466811246e+00,-4.754117521127744772e-01
-2.221621856988631183e-01,4.895055232579347937e+00,2.735500215566931903e+00
2.589026583530795733e+00,3.173214120501831381e+00,-3.824908981042038025e+00
2.637992225927921375e+00,5.014883866965322845e+00,4.079486150362114927e-01
-4.232511332712788565e+00,3.612958557926759795e+00,1.293929648523163278e+00
3.940558449776527389e-02,-4.432980664066298537e+00,3.411243619410150529e+00
4.272695874233181534e+00,2.940439809393270654e+00,-2.251911658444656794e+00
-4.186304072519217101e+00,-3.468351299067013560e+00,1.084156690680662782e+00
-1.995446790292100259e+00,3.767653313341031485e+00,-3.705328563773593764e+00
-3.923846299689857986e+00,1.826892639368956406e+00,-3.652941503920102306e+00
5.026479975009102041e+00,-1.289908916393194938e+00,2.174043058043299226e+00
5.288621304395181966e+00,4.742366939932425862e-01,2.080379127307905307e+00
3.794758485223381217e-01,4.800052438115953279e+00,2.963468904332207998e+00
-1.469775238640729231e+00,-5.371298752445810898e+00,-9.953450355898613156e-01
-1.822744181456619872e+00,-5.041615539646373989e+00,1.597915393107701920e+00
-5.326636391151340355e+00,-2.698285663304508808e-01,2.037167394718970126e+00
2.968671213683247156e+00,4.822092794510274949e+00,-2.713285606644714187e-01
3.645633853432150850e+00,3.899533722277287229e+00,1.852668483396555654e+00
-1.321551154105750914e-01,2.675569781011742254e+00,-4.825003765791523236e+00
-3.019737116654872100e+00,-3.354613409880415009e+00,-3.353897421619075114e+00
4.074486050275011095e+00,1.494443344714065480e+00,3.626257924878740546e+00
4.996495149650107770e+00,1.700376535811507495e-01,2.613076028956780483e+00
1.444040381040733179e-01,-3.371934509630681642e+00,4.458130938922160169e+00
-1.242999888076387727e+00,2.519662276104723375e+00,4.760462506851033559e+00
1.202366765299167778e-01,4.214193287046864356e+00,-3.680436719900894715e+00
3.419081653921387520e+00,4.948815212565462751e-01,-4.298666624345380605e+00
-8.589980178478551220e-01,-5.366955799882870970e+00,-1.060516412696666633e+00
-4.511456551501466627e+00,-3.032054021945619127e+00,-1.321852409638761827e+00
5.109183066716878052e+00,6.877877824032184728e-01,-2.109225029905029025e+00
5.010284081194078531e+00,8.936433212306815754e-01,2.182173494831785021e+00
-4.363974254211515635e+00,-3.234194427020763651e+00,1.020675409288541058e+00
5.437647836792897094e-01,-4.882220545735410866e+00,-2.673578553334326369e+00
4.768160940287049065e+00,9.394401136881007641e-01,2.817508333057870296e+00
-2.828837201065646401e+00,-4.560614798267827119e+00,1.548933347678302708e+00
-1.214640977225223351e+00,-4.069072292589152262e+00,3.766252376999264406e+00
-1.434893001756254893e+00,4.714555434579638771e+00,-2.613574996372005632e+00
-7.106811407060567021e-01,5.550484282246745060e+00,-8.647991716243518256e-01
7.764025444037999657e-01,-9.650604501953440328e-01,5.676851708057294665e+00
3.990450205777072434e-01,-5.030818857373117181e-01,5.609556851104864350e+00
-1.652472744598585397e+00,-2.020541414863519236e+00,-5.080687368803275206e+00
-2.385287915391261393e+00,-4.825390398306286244e+00,1.666335677268967030e+00
3.816795448539034297e+00,4.121120914997062457e+00,-9.308670179730335059e-01
-6.061690456525332671e-01,-1.165067167313529328e+00,5.393373323878488890e+00
-2.180327899054426699e-01,-5.545835402870939568e+00,-8.166276456891469193e-02
1.956270284941063142e+00,-4.963375979786426306e+00,-1.626384882348998140e+00
2.876505071712804007e+00,3.703880085244855458e+00,-3.115783856904704496e+00
-1.331848992787572294e+00,-5.257518655997975188e+00,1.423886620607408782e+00
-5.624298695695165051e+00,4.450307621808218816e-01,-6.685032427976701774e-02
-4.504630090398329401e+00,2.738638158481998097e+00,-2.001821990186774869e+00
3.615338771489761349e+00,7.408286412816201816e-01,4.257807191100160260e+00
-6.307009487780375068e-01,-3.339742870240037131e+00,4.586274685191787270e+00
-2.987546155148825378e+00,-3.535915611215295407e+00,-3.094373057906723457e+00
-3.415958466453238085e+00,4.389909460205515757e+00,7.905722946797989481e-01
-6.630107354577276235e-02,-3.396683561233543980e+00,4.389483170768510689e+00
-6.449168339055126598e-02,4.723480549167284437e+00,-3.037399507047668923e+00
-5.239246898868629820e+00,-1.334101165113796172e+00,1.465911791291441224e+00
1.227028745953494315e+00,-5.379486867759524671e+00,1.290004323369978501e+00
-2.966907163566080641e+00,-1.836694528868851595e-01,-4.868461601553970119e+00
3.838276331114339079e+00,-2.280959435461526574e+00,-3.311645360700675944e+00
4.548885330970136032e+00,-3.292848192844457067e+00,-5.929914349495177817e-01
-1.938987962136997201e+00,4.105703790800696140e+00,3.213706289167067798e+00
2.462233442668596783e+00,-3.948429373485042859e+00,-3.003997657151066480e+00
-4.539929762596931262e+00,-3.076027529577869402e+00,-1.176319422686602945e+00
-3.794780218836236063e+00,-2.972213669745178866e+00,2.772117468300667298e+00
-1.241062966223571040e+00,-2.923259811135649588e+00,4.771734109809976587e+00
5.056442665057068631e+00,2.427432102648308554e+00,6.294858713991171584e-01
-5.626662794370080434e+00,7.404776259753206302e-01,-6.017423747396547506e-01
4.176524316069325060e+00,-8.544218010085544712e-01,-3.504632115094334033e+00
-5.265789725143995348e+00,-1.071798854975178239e+00,-1.764738799514159684e+00
-1.382251290026450530e+00,-4.430691740062990824e-01,-5.384781897063660949e+00
1.476596551421709203e+00,4.319062162691845508e+00,3.264307966882465717e+00
3.017868938354330233e+00,-1.316524581445937425e+00,4.517340672062492679e+00
-4.922029083287487339e+00,-1.689195708537578611e+00,-1.947635718174104635e+00
-4.107562094959377852e+00,-5.124784581557185748e-01,3.731831844484212901e+00
2.469574792846546796e+00,-2.267198945784980602e+00,-4.502231764183572515e+00
-4.922291702653815548e+00,-8.454247397435543654e-01,-2.405130598405361919e+00
5.413998669479593850e+00,6.277769469234308897e-01,-1.579573612678268235e+00
3.953283469116553928e+00,5.423675349544549995e-01,3.944948147199122346e+00
-1.389780634230679546e+00,-3.602233512297031925e+00,-4.144942025048579559e+00
1.780375759620909326e+00,2.073730878997915195e+00,-4.931290435628740809e+00
5.129791786110621948e-02,2.328227721238280978e-01,-5.677491670460251605e+00
3.854409554858096776e+00,8.512641431118054269e-01,4.074449242050238951e+00
3.264253445482723226e-01,-5.568213448361968965e+00,-1.146543787026573336e+00
4.877753631338229034e+00,-1.036499928064318204e-01,2.890948383142028622e+00
-2.504686094386122441e+00,-2.828322400280483429e+00,4.065952653614077761e+00
5.425599642175992443e+00,7.535317312966675063e-01,1.534988174838428643e+00
-2.700748149006762411e+00,3.531500035173946284e+00,-3.593125087832540920e+00
3.154961651795216149e+00,-3.064201160517632694e+00,3.436477159954700600e+00
4.736165988704166274e+00,2.806892732298734927e+00,1.181229314981932843e+00
9.209030529062361969e-01,-3.670029346154158656e+00,-4.204463334091125937e+00
5.604939733697761994e+00,-8.074430614445136101e-01,-5.857923438954250051e-01
2.913265813071691746e+00,3.083801488108040445e+00,-3.491233044700932098e+00
2.898507197900045962e-01,3.403090416356659098e+00,4.492113986021782246e+00
-3.991009540534217859e+00,-3.945202336361618212e+00,-1.080931562654967815e+00
-1.008172399037051248e+00,-3.156331793818872633e+00,4.489061136256520257e+00
1.332190085895369025e+00,5.155723579707902626e-01,5.426177280471747189e+00
5.021882599850191475e+00,2.224008093947171361e+00,-1.229367848682282771e+00
-2.487799319095966855e+00,-9.428701642265125971e-01,-4.927504186726089586e+00
4.839662902085649421e+00,2.157895532349509704e-01,2.952885972635221457e+00
1.773727076524604040e+00,-3.751259814210913923e+00,-3.827245201508936212e+00
5.323202857551829759e+00,-1.436175783750949231e+00,2.352615410636757776e-01
-1.596575385600969010e+00,4.729531405628421559e-01,5.347148209696693577e+00
4.274143169757681271e+00,-2.877219540929771835e+00,-2.214181124463685535e+00
1.032657771657715440e+00,-3.892518218722246459e+00,4.018219730792289113e+00
5.445825973419477606e+00,-1.012970029645017700e+00,-5.959495722826775310e-01
4.286006192598890152e+00,-5.873682731755359709e-01,-3.585850135208462852e+00
5.342500257797258456e+00,-8.726921374335406822e-01,-1.502541329272483628e+00
4.179681117313318595e+00,-1.960061914772295077e+00,-3.230086927330710900e+00
-4.037619868176388849e+00,7.163568964075329726e-01,-3.702029391733456354e+00
-3.010520195345927963e+00,-1.083385747162762369e+00,-4.603336825482471362e+00
-3.413250108222428914e+00,-1.773427473146585331e+00,-4.157186139027964522e+00
-8.028602327504064107e-01,-5.528168159622328659e+00,-2.541073905349027773e-01
-3.110833040321867138e+00,4.593679974064461824e+00,-6.592653601994103996e-01
4.194880681272212364e+00,7.079146145667097878e-01,3.620180466539075770e+00
4.164618297214114584e+00,-1.188635835969316545e+00,3.492892988687706701e+00
-3.422440513420649921e+00,-2.739241861843060843e-01,-4.373051818271309621e+00
-2.528690601679008054e+00,3.611075563932123700e+00,3.485276401123708734e+00
-4.994337480469765111e+00,-1.101320092249494120e+00,-2.357166623623660584e+00
5.073852484084906855e+00,-8.225483476563598684e-01,2.361635888908124592e+00
2.115722941500089327e+00,4.675759979235929897e+00,2.447889075346221244e+00
5.339709644577103065e-01,-1.128048361670165756e+00,5.422407319206048015e+00
-1.567690027683922072e+00,-5.073142113441543088e+00,1.970828416789417892e+00
1.673911848543465419e+00,3.315030647663641972e+00,-4.250357638080230593e+00
-4.800452833650771467e+00,-2.865055510872815403e-01,-2.885780803249951898e+00
4.228260587130758807e+00,7.409428961058720509e-01,-3.681778842764201531e+00
2.056485008328928110e+00,-2.958399003580083786e+00,-4.350717537326333151e+00
-5.074646480199953125e+00,1.616415118301696152e+00,-1.702655638423405060e+00
3.081933381012088580e-01,4.467586183423216006e+00,-3.330139900663312780e+00
3.100791083363891865e+00,2.970489235513226856e+00,3.577374837699189847e+00
-4.286856585692534694e+00,3.623161070317490129e+00,2.457427862649703976e-01
1.210687310417217777e+00,4.128767635097887023e+00,3.607659477989382690e+00
-2.573601913087716575e+00,3.029083738547577731e-01,-4.927079534209445555e+00
1.422695178811088201e+00,5.232333532618879346e+00,1.435506441069338779e+00
3.959046665199990045e+00,4.002131056190747493e+00,1.115522073078068360e-01
2.711842544823341861e+00,3.064012828128329868e+00,3.804973800889414282e+00
-4.281350514911029137e+00,-3.002562080626721475e+00,-2.294650997724127617e+00
5.459897408537943697e+00,-1.431460741585300234e+00,-1.096388941153233709e+00
-1.038029206019406736e+00,1.102869680274810360e+00,-5.482760250408872160e+00
2.837465986478799884e-01,-5.468380421265588431e+00,-1.294908840359778157e+00
1.730530446976779491e+00,4.692208960296762932e+00,-2.680422678039692475e+00
1.363038279022632304e+00,5.369110483169281522e+00,8.746328196788438758e-01
5.543815073503308710e+00,1.145573097827094593e-02,1.193332163451612082e+00
2.995753702620598258e+00,-4.652168801401919573e+00,1.398645193499051365e+00
-1.695844582817058965e+00,-3.985949434964316751e+00,-3.560208695685567193e+00
-3.596853306676382367e+00,1.311415034218845754e+00,-4.155357183301061852e+00
-1.619705059438416028e-01,4.361509669450982507e+00,-3.557956043330882334e+00
4.361646082375278510e+00,3.488691335120887249e+00,-5.551098896639174995e-01
-3.103505871248602332e+00,2.818482453984648473e+00,-3.562812804857685478e+00
-3.321705655507927624e+00,1.605845988109317668e+00,-4.165632645195257666e+00
-5.580590757025346349e+00,8.361418666920379661e-02,1.099353065281790005e-02
-2.723675766118164532e+00,6.810562571399155136e-05,4.820461853263430463e+00
4.077436787809570973e+00,-3.812373071166988758e+00,-9.067369116330693535e-01
-1.040344604419167762e+00,3.089225344407444229e+00,-4.478584437119608630e+00
-2.937938346851251659e+00,3.854913341579369046e+00,-2.706703804822378157e+00
-4.772374526676588680e+00,2.211048241139198289e+00,-2.100200891597198360e+00
-4.738294021581674897e+00,6.021265041125151152e-01,3.023370286011500596e+00
-7.080540132418445820e-01,-5.439197032120313580e+00,-1.038603965431431408e+00
1.799571481425422892e+00,3.031083788549461033e+00,-4.326045936455815699e+00
-9.453805065809923747e-01,3.155337720432735416e-01,5.520505283092071558e+00
5.697768695410879047e+00,-5.475723196372200841e-01,2.273471575329368000e-01
-4.619000292760618187e+00,-3.109781576019068350e+00,1.015419228067872659e+00
2.958382562441715269e+00,-4.384417127361881050e+00,-2.138949784919474961e+00
2.031118137377504240e+00,-3.820418279319294896e+00,3.520574370997145763e+00
3.667427588188772347e+00,-4.254533814944341685e+00,6.988338245180399921e-01
-3.439567580024207594e-01,2.709915486464705925e+00,4.840136503598113649e+00
-4.313531443045112823e+00,2.864289976018274952e+00,-2.235894557724562137e+00
-1.997830290486983573e+00,1.119788879723377484e+00,5.095743218535644381e+00
-9.224573117766736718e-01,4.953528158747491972e+00,-2.541204270436512758e+00
-2.872379759475353733e+00,-3.936264334570439782e+00,2.862881946420486656e+00
5.900308282120226427e-02,5.448456490241926353e+00,1.716910956578668435e+00
3.358193366647590938e+00,-2.547449014366164555e+00,-3.763067037901563161e+00
-3.920090344124528503e+00,1.995162300869213423e+00,-3.455778590230951686e+00
5.183048359009273298e+00,1.410666606957456493e+00,1.784397076886735434e+00
-1.611626745715583731e+00,-2.253699013537906026e+00,4.839229529628065407e+00
1.892866827001528363e-01,5.711018986729703428e-01,5.573148296233265242e+00
4.612722535149686998e+00,1.459098493263430552e+00,-2.809267530509514721e+00
3.168865679531745805e+00,-1.967769133473328491e+00,4.198598937941846465e+00
-4.004465349289911380e+00,-2.304379412685100714e+00,-3.189994534278262961e+00
-4.444726998472023460e+00,-1.075574660866322585e+00,-3.359706022800555303e+00
-4.007205721088340944e+00,-3.378844427417194485e+00,-1.968963462528868114e+00
5.348212561329146908e+00,-1.235762484489614010e+00,-8.187496557218177928e-01
-2.593393595246775707e+00,4.595763887812899462e+00,-2.141816842110070063e+00
-3.795837531393096764e+00,-4.103979571486464195e+00,-9.500672339510969622e-02
-1.027430831440223846e+00,4.490772076607675856e-01,-5.466768069446443334e+00
-3.892191714088236498e+00,3.472850668162124066e+00,2.248379026650327628e+00
-1.402471437625667061e+00,4.620134923744730671e+00,-2.854292451709469880e+00
-4.323891059228619049e+00,7.351086972281898335e-01,3.516514311605844600e+00
2.175858682443927883e+00,4.841864450120048957e+00,1.535485932079397209e+00
-2.733386471651210847e+00,-4.876807273676222465e+00,7.179220725189147112e-01
