4.489638929879337326e+00,-1.019755549599813405e+00,-1.376882501997721275e-01
-2.810754055192540513e+00,3.481464381707520594e+00,-9.004886938888383430e-01
-2.486386252287908771e+00,-5.279890029267909624e-01,3.745421677609688693e+00
-9.544975902926389200e-01,-2.029173568609462297e+00,-3.983886746203159746e+00
3.393574729090204301e+00,2.411588796057575923e+00,1.805930628801144966e+00
3.478745473465143512e+00,-1.466750920696965554e+00,-2.727911379291237726e+00
-3.026033577136691743e+00,-3.377669394429034799e+00,5.564243930354803025e-01
4.554247776486179511e+00,5.829710147832112277e-01,-2.167303990818501558e-01
-6.263378009206029828e-01,2.992821847113211753e+00,-3.400565866242792445e+00
3.369231322685914964e+00,9.675302119050086525e-01,-2.941521721699109637e+00
-3.501631519512982571e+00,1.405641035771304947e+00,2.476025556321859167e+00
6.035402823197086875e-01,-3.848326295735036151e+00,-2.425543761680200028e+00
3.316796927887603719e+00,2.934695266425116689e+00,1.091209918562051850e+00
-3.935038496379257289e+00,1.077071757419937326e+00,2.116005444149839931e+00
2.428396051983312098e+00,-1.680009262641763090e+00,-3.466760751304223565e+00
-3.887311630779074267e+00,2.014423063367717592e+00,1.301951410117317076e+00
-2.090914230633282411e+00,3.336891435234155878e+00,2.230349274160553730e+00
-2.435473657239446421e+00,-3.209968001896689849e+00,2.236461331247864059e+00
5.188077542564033529e-01,4.028456174848717986e+00,2.295880185370374083e+00
-4.186034459074043035e+00,8.091890784446834628e-01,1.555976605480285269e+00
2.948207611676232354e+00,-3.467023980274359207e+00,-8.617054546443172480e-01
-2.349064745380853747e+00,6.581024236117274384e-01,3.905816578935988659e+00
2.920563211594219055e+00,-2.965680429098358939e+00,-1.911193458795245270e+00
3.614431205928545499e+00,2.598211445755512994e+00,1.107224322156145524e+00
1.834500731546369279e+00,4.144804984392741254e+00,8.815655247875331391e-01
2.710920263993679580e+00,2.708962382203256691e+00,-2.595327135650084660e+00
4.319805246256419373e+00,-1.396288512231609547e+00,-1.293772717042667164e-01
1.853765688098022224e+00,1.803383338340184050e+00,-3.963075258600422313e+00
-2.144743161890773742e+00,3.477267347502229988e+00,2.079789215055108720e+00
3.500058741120894545e+00,1.133808703095096959e+00,2.720730401002398935e+00
4.074855157906575043e-01,-3.729237626843211029e+00,2.723617706224044532e+00
-3.738463617402236761e+00,1.461253742908207531e+00,-2.183672158719453638e+00
-1.583518004827985104e+00,1.761812889331664023e+00,-3.900722358788022870e+00
3.358781118381039654e+00,-9.539404396800486019e-01,-2.904453600982522143e+00
4.482677396163134986e+00,-3.650624600146438192e-01,-1.202629137529290793e+00
4.526892299638451966e+00,8.051274056729313955e-01,-2.997175662985870903e-01
1.558494186871734133e+00,4.233994900661103067e+00,-3.748189304398888422e-01
-1.482964623763842305e+00,-2.964595109968169329e+00,-3.188635156135072535e+00
-2.505740064329667671e+00,-1.258376512871685726e+00,3.588430351430846432e+00
-1.657058331888373592e+00,4.230603698161148785e+00,-3.557551552806836326e-01
-1.446831931141758565e+00,3.117421734246281773e+00,-3.084464797859615359e+00
-2.686726638792444444e+00,3.286532841530379390e+00,1.646774747693771079e+00
-1.516760277649735089e+00,2.178083597640560587e+00,-3.676254362726452118e+00
5.404105166109005598e-01,-4.454245524143438217e+00,-1.017556456268334131e+00
8.314160371384829995e-01,1.551631380874560540e+00,-4.275145822806137197e+00
1.465288660631956175e+00,2.671136206707739547e+00,-3.359415248303141421e+00
-6.749094521496630250e-01,-4.471409210711142279e+00,-4.519530348682209153e-01
1.966212673825286750e+00,7.304137393134682021e-01,-4.048556679453794160e+00
1.155561489383266638e+00,1.863233593098603480e+00,3.896383700725274846e+00
-3.759110157156527965e+00,-1.504017106970028772e+00,2.270086454447037827e+00
7.103568211203203919e-01,4.521490445010022619e+00,-2.176875789041202713e-01
-2.538398547821951734e+00,9.160843090705347302e-01,3.650631438333737044e+00
-3.917964011939766067e+00,-1.965587070715248963e+00,-1.483520648617832949e+00
2.407717606892328721e+00,3.773713799288413551e+00,-4.842874738235323218e-01
2.686569928244992411e+00,3.128092264667517330e+00,-1.892589561843004642e+00
1.657558552459914125e+00,-2.718315464504705403e+00,3.207930988442670994e+00
4.108529812007554405e+00,-1.934710990330912761e+00,5.357828572859442140e-01
-2.889001638440587438e+00,2.861010682004917705e+00,1.863178337607424684e+00
4.044543347723349669e+00,2.018978525432825855e+00,5.172231313690998922e-02
2.338030503550736050e+00,-3.926520554618525782e+00,5.212942279096492715e-02
-2.657032787501543147e-01,1.976021281600325086e+00,-4.117736883381558854e+00
-3.848116375318304971e+00,-5.681701180837348542e-01,2.284973752745066644e+00
-4.560222283970533752e+00,-4.615185175550138852e-01,-5.493170414995409701e-01
3.304922518389096453e+00,-2.759725823343938345e+00,-1.072856936175651033e+00
1.655494515127354127e+00,2.301247078494583320e+00,3.498090097401723053e+00
-2.912325177188147318e+00,-2.245878971747751862e+00,2.753811223870366032e+00
1.523158367850712347e+00,-2.552973908561988914e+00,3.415189438762303187e+00
-3.214086382778156281e+00,2.665181591959796314e+00,1.715146054167941081e+00
2.480954778951415474e+00,-1.935974256095892132e+00,3.364709459889194676e+00
3.563415869541938008e+00,8.450690894023746846e-01,2.667744561665799541e+00
3.213149192045792191e+00,2.711463166221306675e+00,-1.766597425789493858e+00
1.167184103747616497e+00,4.412889371043516640e+00,-1.024539724147916386e+00
2.744688574809758919e+00,1.602856265619885701e+00,-3.220935406483737218e+00
-9.260209041432058141e-01,5.570261152721025510e-01,4.544233422260216315e+00
-3.990053525814222013e+00,6.260844055972901723e-01,2.168716698813865751e+00
-2.257461593513950593e+00,3.754583782994328267e+00,1.346206568100550394e+00
-1.276790461416600575e+00,-1.546796046716280237e+00,4.068449360740903131e+00
-4.080727988988778754e-01,3.353921341717997606e+00,2.937551945733360537e+00
-3.720289160323189126e+00,1.684514801714607657e+00,2.106910744405864122e+00
1.506456182013372391e+00,1.992342033105207744e+00,3.841215849251632175e+00
-3.372854312833056811e-02,-3.400393699961913097e+00,3.036594806845736905e+00
7.298647443896781883e-01,-1.833210249666267666e+00,-4.166253901761451495e+00
1.008510926567895094e+00,2.679893953229224302e+00,-3.543286048208228678e+00
2.965305597917195501e-01,4.571394138975350074e+00,-1.904461109626838233e-01
1.385428331421871384e+00,2.015184359943551939e+00,3.933745263973484452e+00
4.800308867057231921e-01,2.720617046920517090e+00,3.728280531250125929e+00
-2.904087042496336757e+00,2.102796094017715944e+00,-2.799661934297770216e+00
4.190723157846425906e+00,-1.695525438032571941e+00,4.980835335165326172e-01
3.844885330158405612e+00,2.147676329597157707e+00,7.430876718260510660e-01
-2.616804405250164223e+00,3.118251879143566718e+00,1.828491249574857980e+00
-3.739878172310084903e+00,-1.301658866297330241e-01,-2.677678811098233247e+00
-1.117918690102197132e+00,-2.010266443440664741e+00,3.967429263410599205e+00
7.236960809100717595e-01,1.191092225022481133e+00,-4.377236127056392867e+00
3.323884059923799761e+00,2.473476722262659244e+00,1.877634052081723182e+00
-2.062534293905648575e+00,-3.435757125193256378e+00,-2.205043808725335008e+00
-3.188521439168602090e+00,3.210768465055767962e+00,3.848671956369731362e-01
3.486176185783962822e+00,-1.562417001399789784e+00,-2.530205858829100762e+00
-2.594537556294829184e+00,1.421617632647570018e+00,-3.437569622242603984e+00
-8.048467541624526600e-01,3.987569819658578929e+00,2.033342396076645908e+00
2.000485878097720605e+00,4.174347045514159582e+00,2.498102323111950629e-01
-3.986770120144791818e+00,2.026116817558679895e+00,-1.127146238195814609e+00
-2.221237621171378684e+00,-3.534426526841612848e+00,1.820248970359773510e+00
4.313718131102950437e-01,-4.242715766958869317e+00,-1.574636213323025391e+00
7.159459437979159846e-01,-4.466965126113024098e+00,-4.495853475885118189e-01
-1.068789060397771662e+00,-3.699050053087296508e+00,2.460198126261631923e+00
-1.938748686567061563e+00,-3.207772796435927720e+00,2.575037290544171409e+00
-2.419941273442073548e+00,3.669639091327687730e+00,-1.273843176009869183e+00
-2.329996029360304366e+00,-3.536223959933839645e+00,-1.540954378806401737e+00
-3.052677576600787424e-01,8.879283790755737593e-01,4.428806188205996364e+00
3.861566825858626206e+00,1.938379278768153524e+00,-1.260226054702544118e+00
-3.179303564730493470e+00,2.531296387886431187e+00,-2.132449353281558047e+00
-1.876954650750602749e+00,4.080874338220764841e+00,-7.801435912234463421e-01
-3.861610111277775648e+00,-7.573571694006230315e-01,2.336246929987884968e+00
1.687156764296628308e+00,7.085451993899450907e-01,-4.160182211387828843e+00
2.627268153853199895e+00,-1.795210050301972560e+00,3.298975121905407093e+00
-2.381996806329361505e+00,-1.516564653443753352e+00,3.510401014608416137e+00
-3.438888065244974701e+00,1.035191491869910330e+00,-2.854623986968730875e+00
3.267829324481268838e+00,1.880960171482206400e+00,2.628953326942770286e+00
3.080131392209267016e+00,-2.963925001944554882e+00,1.636889775344813946e+00
-3.335988286355199950e+00,-2.984156318494889160e+00,1.064908943190490564e+00
4.242643841555250539e+00,-1.512385351620125995e+00,-3.050553608283330595e-02
-4.347516626722105926e+00,-5.086692997608014410e-01,-1.519839521849557507e+00
-1.339066880243585667e+00,2.530352683152799376e+00,-3.591388386419583245e+00
2.931951475302527310e+00,2.463372522004769749e+00,2.318291480028449758e+00
2.225156312515092605e+00,2.674038932021669535e+00,-2.866711866106614437e+00
1.987358549367729044e+00,-2.002056551924457306e+00,-3.611639780350552442e+00
-1.819365084666506815e+00,-2.155648603812683639e+00,3.519708744358558405e+00
3.008165147436362652e+00,-3.367032412410113196e+00,-4.972794850574856484e-01
3.072164380467895750e+00,5.938337304148474383e-01,-3.270799793909717756e+00
-3.896871657110462461e+00,-2.138041329543314273e+00,8.831276939670360537e-01
-3.091282658298907915e+00,-2.412611455541897154e+00,2.346951956676643469e+00
2.834901380569108120e+00,3.579406622046539255e+00,7.394725027388603378e-01
-3.764440432838592976e+00,1.646611982867014268e+00,2.120635322675608503e+00
-2.384758848063154524e+00,-5.722198326593899154e-01,-3.919689935782236123e+00
-2.209128145650335551e+00,-2.792631499468487544e+00,-2.885652581025849095e+00
1.206081461731328242e+00,-4.717024446262504944e-02,4.437855734715597578e+00
-2.983905214510300663e+00,-2.007427530661074044e+00,2.799290252546606794e+00
-1.760083616778413740e+00,-2.150985942375128523e+00,3.635195784881021464e+00
3.900131049338481315e+00,-2.368867309863770920e+00,-5.888137602624600175e-01
2.032212426649237624e+00,-3.186891130957772766e+00,2.601750580963516857e+00
4.347410740009904018e+00,-1.450187926895970758e+00,-1.310801716510161530e-01
2.563369729337281910e+00,2.984328104095437695e+00,2.236486677147647040e+00
-1.627498213165026408e+00,-4.092163609344246389e+00,1.519712308039279369e+00
-2.621832357518570245e+00,1.628767118863726271e+00,3.486992353021306723e+00
1.722911276086696031e+00,3.632237252589407550e+00,-2.126558329511460510e+00
3.232909017441479183e+00,2.761993340182697931e+00,-1.737321842792949766e+00
1.873787393430841330e+00,-1.397398420950163311e+00,3.992935838022081185e+00
-8.841203019288517151e-01,2.954209726211667775e+00,-3.297341897545633671e+00
2.489839320837192727e+00,-3.871776726677881086e+00,-1.107908166993680776e-01
8.234336585229805605e-01,3.445671269827460304e+00,2.780089522839428007e+00
2.009559457458200971e+00,-3.059237890125775738e+00,-2.609193912292143480e+00
-5.858165570956339607e-01,4.452013154914602033e+00,1.233726549698340280e+00
3.396267839032587332e+00,1.511223592021268269e-01,-3.070178401716070926e+00
4.524032138760786026e+00,2.211851268534264503e-01,3.945702211922971214e-01
1.102916839388946135e+00,1.131913681081441858e+00,-4.298189346588261905e+00
-3.786537343289186452e+00,8.380816588455385352e-01,-2.420610283513047634e+00
-3.389554889393786574e+00,-3.165903437713416313e+00,1.804254703360107792e-01
2.725918328070288332e+00,2.378647090654269380e+00,-2.742873779561617376e+00
1.011023528614227063e+00,3.165380687153681372e+00,3.101956226748484369e+00
-4.438740638088205515e+00,-8.899993625421281918e-01,-7.570813885548645095e-01
-1.307309769332639426e+00,-4.219861277011997203e+00,-1.396192359324413879e+00
-2.770333518141889328e+00,-4.524634583791546372e-01,-3.640604880549876743e+00
-1.778347771356372897e+00,-1.435619998271488340e+00,3.984734410220478473e+00
2.431842835449452789e+00,-7.281358648716302895e-01,3.854236779980249494e+00
4.456492724461095456e+00,-6.561611389893503565e-01,-1.102125811148063184e+00
2.566110545455213998e+00,1.691107881220128339e+00,-3.329015506583907325e+00
7.717159877538787294e-01,-2.259810737961092997e+00,-3.873667341337164949e+00
1.244307483440057149e+00,-3.446141826450511481e+00,2.666737503669409648e+00
-8.674725541779396698e-01,3.659141879916079088e+00,-2.588490722677897704e+00
2.432025785907506066e+00,2.840766609632680684e+00,2.689251770908027250e+00
3.469660989217374425e+00,1.271211481367125362e+00,-2.661226127379379580e+00
3.414355548482445268e+00,2.935650594232175781e+00,-5.827970987105559608e-01
2.815905841917863750e+00,1.358983179993998425e+00,-3.228795104848027897e+00
1.185119733057364427e-01,-9.384010170477037338e-01,-4.468452345485613542e+00
4.151072353985684416e+00,-1.890222299719947596e+00,-5.756846322478749167e-01
-4.346188786706063567e+00,2.053082445098542430e-01,-1.175699498674123822e+00
1.718025571098963367e+00,2.860982647765739628e+00,3.106847030726935799e+00
9.451027570457745108e-01,9.888753308212515636e-01,-4.426281219038900261e+00
-1.241168867126120512e+00,-3.490106044329939206e+00,-2.782806997323094667e+00
-1.638696041268034920e+00,2.789121432178420346e+00,-3.371771044954401830e+00
4.406743154132272799e+00,-3.428430081339775559e-01,1.513343253804932509e+00
2.273211281490234714e-01,2.789175764691501413e+00,-3.533455265252745114e+00
1.466224206816781228e+00,2.637137775700132192e+00,3.438839763347695033e+00
2.703624826947907067e+00,-1.854090626804179465e+00,3.190475169754547036e+00
-2.853290415330214103e+00,3.401534951814628283e+00,1.318554542723395562e+00
-1.072915271778520196e+00,-4.027514767892110825e+00,-1.809444664933101077e+00
9.219544037904212619e-01,-4.319225692325523447e+00,-9.219863331722570887e-01
7.563118196720628461e-01,3.783410806739397891e+00,-2.489747785419712756e+00
-3.044122975760474303e-01,3.622403390752559016e+00,2.807131826265986341e+00
-2.820606515711448825e+00,9.372587076374654380e-01,-3.446518861604125572e+00
-3.520605194450075803e+00,1.455524589472853902e+00,-2.430147971723438438e+00
-2.179171801247806961e+00,1.745266887917544141e+00,-3.674674353351011113e+00
-3.802441237213740610e+00,2.468871579959461826e+00,-5.408921577695039451e-01
3.139164564805511759e+00,2.597625716078815206e-01,3.424970329213858022e+00
-3.301052402129232455e+00,-4.757235081718065306e-01,3.170216869106807778e+00
4.035243460111678893e+00,2.649469675238345645e-01,-2.123297536445942768e+00
-3.365991664275500117e+00,6.639091296091015337e-01,2.941558976388135349e+00
-1.174883907119192772e+00,-5.326957924177136983e-01,-4.356611370156976193e+00
-3.431848946449501891e+00,1.526280950129787373e+00,-2.631035445999790223e+00
5.415776933160931783e-01,4.407936774900385046e+00,1.216942404975811964e+00
-3.293800715570587734e+00,2.944476428920228095e+00,-1.230013805984490283e+00
-8.367390071629183801e-01,-3.634607087598216157e+00,2.751247222327815489e+00
-1.704177062651650809e+00,-3.644873700489053459e+00,-2.000630202551913595e+00
-2.983048632011375378e+00,-3.402265809994018841e+00,4.968468471280210186e-01
2.469134586180687485e+00,3.616908406654965713e+00,1.233577953344653366e+00
-2.023297237699127837e+00,-2.315391350315071151e+00,-3.471257527271430998e+00
2.834180632527448562e+00,-2.645951215914435828e+00,-2.412308386813058370e+00
-3.504835959656073641e+00,1.039835469328680498e-02,3.030810809576031772e+00
-3.975445093565749044e+00,2.080974496220132863e+00,7.593605198610803297e-01
3.992169707385692323e+00,-8.219708638378284693e-01,-2.028652961897039031e+00
-7.977537012469053668e-01,3.779269158049916921e+00,2.381240391362455355e+00
-1.783058069622585284e+00,1.022810117589862816e-01,-4.299461442240142262e+00
-2.753839694890074519e+00,-2.997293909724937144e+00,1.902918929238520018e+00
-1.185360097885770569e+00,4.189403938553956763e+00,-1.285174251658161904e+00
-2.236163943184037439e+00,1.274890499439957636e-01,3.864793208153982196e+00
3.018240431245197364e+00,1.669912047469495286e+00,-2.959725816530464737e+00
-1.357207996385369597e+00,-4.327184833955442400e+00,4.018501049875109477e-01
-3.480483107939091880e+00,2.963088913259099400e+00,2.479412788898139874e-01
3.088529876095031934e+00,-3.181789725444497119e+00,9.657268181418368069e-01
-1.878703781622035329e+00,4.152876982086394442e+00,-1.334466570805503960e-01
-2.110583058444786886e+00,-4.040868300410252800e+00,4.031632870418594417e-02
1.198086891775450580e+00,-4.545823746860243375e+00,-1.687240279823138678e-01
-1.081680843123004943e+00,-1.567613694044734496e+00,4.140367337957227001e+00
4.498542443474518038e+00,3.906742878465077062e-01,5.372173796656310590e-02
-2.871036530588714886e+00,2.412443300924971556e-01,3.571204273396483941e+00
-1.113732598997134282e+00,-2.193687380422590039e+00,-3.853589678881176983e+00
3.392364495641213118e+00,-7.298567817151053738e-01,3.028392711862821329e+00
-2.522832981087306248e+00,5.430013958952814024e-01,3.763655987600081243e+00
3.582626523253034989e+00,-2.869170132419521568e+00,-7.311596704092971910e-01
9.946521888116578447e-01,-3.481578324824884163e+00,-2.825455533809479114e+00
-3.369468196235713364e+00,2.348340196101333266e+00,-1.995928584803495998e+00
4.290070715581297378e+00,-1.249161204830835814e+00,-7.323336724515336904e-01
-2.051355059748273479e+00,-3.678429788548635671e+00,1.758022648106282171e+00
3.816952644654366900e+00,-2.348682164841473519e+00,-8.723780139819413693e-01
2.074304166217964429e+00,-2.362367591091981467e+00,3.297710609171940810e+00
1.428823246077005893e-01,-4.226671104180533156e+00,1.554567334842713588e+00
4.184612947216235668e+00,1.672277007018583284e+00,1.148227051833879825e-01
-1.389362341063268946e+00,-3.701932071435898308e+00,2.329426365694020618e+00
1.271285297438265127e+00,4.369245801950639496e+00,2.705229604737235949e-01
2.813573694224699384e+00,-3.565529388471806005e+00,-6.378767831973353175e-02
3.545434596789472370e-01,-4.515211920362951936e+00,4.675855052755111818e-01
-3.083138375675466669e+00,-3.474663322933646104e+00,-1.396467006021439861e-01
-2.992398323451027409e+00,2.298368501966494559e+00,2.621851440862206228e+00
-3.184323147771150331e-01,4.015604261626288363e+00,2.216397898765773533e+00
-2.994677702478201198e+00,4.253062690049523864e-01,3.330329170604314992e+00
1.797848415060538385e-01,-4.473666641186522241e+00,-1.360052998754409881e+00
2.440860159677941787e+00,1.998628860997880174e+00,-3.362117731169621759e+00
-1.601468634827078574e+00,-2.904603792806872420e+00,3.063188132398257491e+00
-1.290774784280996013e+00,-2.642206251401827410e-01,-4.371281688935788168e+00
1.918922664238233766e+00,2.968372201737994320e+00,-2.690390653954538802e+00
-2.939271386788230078e+00,-2.551666134764527083e+00,2.465076189195466672e+00
-2.774541117791311962e+00,-3.171988083082368792e+00,1.567746317884979312e+00
2.610764556523390123e+00,3.725238326547913648e+00,4.517087569856365059e-01
1.362145549433337877e+00,2.720030635022573171e-03,-4.443190043879142515e+00
-4.104731566563876832e+00,2.103823349128601361e+00,-1.428963331451554297e-01
3.833726278381747843e+00,2.461342384214203260e+00,-3.508862933955236851e-02
1.711254198709293961e+00,4.174043930206398301e+00,5.037931013959280335e-01
4.306050427732968977e+00,1.143079794194101773e+00,-7.816483523375802323e-01
-2.918246564907178708e-01,3.015635354854448558e+00,3.463919907255142761e+00
-4.421782793466539907e+00,-6.617318665569863478e-01,-1.346253546769576870e+00
1.058380496709791618e+00,3.811311919902520717e+00,-2.393546415257809201e+00
4.456076098834014232e+00,8.063260146267136053e-01,-2.653617864532509807e-01
-3.798011400952100214e+00,-1.527126491970555833e+00,1.933056104573957157e+00
-4.292990614431276164e+00,-1.524332244768771494e+00,6.334394233888852588e-01
-4.534912756036937331e+00,8.094828506071629626e-01,-2.009990921263364594e-01
1.100539618130251585e+00,3.023589402224612588e+00,3.213779481173453245e+00
-1.059624964997214480e+00,3.381283548351761148e-01,4.377423380972386369e+00
-5.548276759591700413e-01,4.197300211778606460e+00,-1.685893075871701452e+00
-4.275440570431250364e+00,1.578652221164886349e+00,-4.443483802700832763e-01
-4.355659953780810945e+00,1.136465980989892488e+00,-7.828176608789850777e-01
2.678858885596430373e+00,1.223478605589345680e-01,3.592479227587365820e+00
2.771034940594195195e+00,-3.203919712308894940e+00,-1.784962102976329845e+00
-2.643534791064558576e+00,3.512087659321784905e+00,-8.215993978214466420e-01
3.596131718693699186e-01,-2.547052132044947736e+00,-3.718251056234179952e+00
-1.484106315525725472e+00,3.507358816328288054e+00,-2.709085789082344320e+00
-2.046592466629024443e-01,4.147800181762589800e-01,-4.507167269354519057e+00
-2.497359087869325034e+00,4.702808038239106314e-01,-3.784033719180828204e+00
-3.460314701576486129e+00,5.693749881838907623e-01,2.890377821068180086e+00
-3.928630996609993709e+00,1.597106933262481654e+00,1.628668324137315437e+00
-4.511502005151952766e+00,-1.875073603604324179e-01,2.300515182736741909e-02
-7.900816016828430266e-01,3.376463637633320580e+00,-3.029451985190295904e+00
3.960435838248058005e+00,1.772190596150270636e+00,1.438354254346974281e+00
-1.338846433113812573e+00,4.154407805624540373e+00,1.321663457505379613e+00
-4.833625245723811581e-01,3.316550326987866004e+00,3.071960320712283199e+00
4.274522431637668873e+00,-1.538749829989906948e+00,5.991759841680927012e-01
-4.060917784991157298e+00,-1.172486420706172705e+00,-1.759748646105537384e+00
-2.554525168871787599e+00,1.746576123129633507e+00,-3.486697035282930734e+00
-2.949745455672021510e+00,2.049740827544167754e+00,2.862485481534501552e+00
-1.569738852863249434e+00,4.359983602136837888e+00,2.633006074782078265e-01
3.099361283027054270e+00,3.346038506731174866e+00,6.211846776217041510e-01
3.850958641558808626e+00,8.332495875545166131e-01,2.269057912164447632e+00
-1.292578291490367626e+00,-2.213480383966583087e+00,-3.846128449122938164e+00
1.140550030045249352e+00,1.996634638712170284e-01,-4.405580628386845277e+00
1.211278792784270975e+00,3.970165890578956969e+00,-1.899177946559146513e+00
-1.540839960003419495e+00,-3.279339225595515828e+00,2.787210680606843738e+00
1.050654171470571496e+00,3.418427930714390772e+00,-2.805458914736956633e+00
-8.637297220822157673e-01,3.991847229999155866e-01,4.563786386358038349e+00
-4.061878027156054394e+00,1.952006956535573323e+00,5.098838971627033256e-01
-1.280712794511454367e-02,3.942803454193182677e+00,2.326166636820168776e+00
-1.502199393073210543e-01,-4.212143624373479334e+00,-1.461873321834949335e+00
3.634859159529394645e+00,2.107281035293743887e+00,-1.781608770126539731e+00
4.228353308660041776e+00,1.718406662421360309e+00,-4.745743353179296964e-01
2.013173871892535993e-01,-1.387427427139137803e+00,-4.323885031053172234e+00
7.587963461477639782e-02,-2.131018555610193932e+00,3.975310984902197031e+00
-6.013188018249236710e-02,-4.011258098804079353e+00,2.272903234590968324e+00
6.005232398159178198e-01,2.248462806933722025e+00,-3.964933814157800107e+00
7.725031237591816202e-01,-2.677895205441055637e+00,3.503273071655393256e+00
2.860783113889979301e+00,-3.048553597289204387e+00,1.988281690554580372e+00
-2.326294227516315427e+00,3.261453828807221011e+00,-2.298680707439375581e+00
3.850616726911022969e+00,2.358108417978770799e+00,4.033047392332189673e-01
-9.217180326775967769e-01,-1.318180323464400505e+00,4.315605080590716014e+00
-3.012842815938706398e+00,2.713871367260636269e+00,2.118195715169805649e+00
-2.696678055285001374e+00,3.240006514566603713e+00,-1.844925534306112613e+00
1.568304835572074118e+00,1.198156795857362455e+00,-4.158284888793003731e+00
4.314297083294658997e+00,1.538423140046356830e+00,4.549763854425686316e-01
3.673778606257594337e+00,-2.766575343647758700e+00,-5.275279132429883111e-01
-4.228930143041720768e+00,-4.057237900805603648e-01,-1.739295535269657522e+00
3.818506553380578872e+00,2.154506479125315899e+00,-1.361047863735667107e+00
2.262394734949820574e+00,1.865841869537308240e+00,-3.511787131439593868e+00
6.487941228854113840e-01,-4.451266788712715083e+00,-9.959036233098021995e-01
-1.752462841869637300e+00,-3.900261605907013429e+00,1.463171716635916164e+00
-2.914819856796513786e+00,4.693595420737786683e-01,-3.551201124002408172e+00
-1.294472197420990733e+00,7.130260345390424526e-01,4.280989771851239745e+00
-4.668555493170715720e-01,-3.840610812360367277e+00,-2.431063330676217049e+00
5.788180219635443713e-01,3.063926169270220878e+00,3.414191044514153894e+00
-3.229274136277276774e+00,-3.140036601491863699e+00,-3.807793967753113074e-01
2.342292215131776878e+00,-2.896382628916357227e+00,2.692505943397003776e+00
-1.698237078255160792e+00,4.065068560446833068e+00,-9.637238732437088951e-01
-1.258936832381507775e+00,-4.230822543423814253e+00,-9.753409634344228918e-01
-2.144950840820786464e+00,2.382640143312623415e+00,3.258097568974950953e+00
1.494609793160939226e+00,-4.248836636174104342e+00,2.172865972578078286e-01
-1.203310613074922708e+00,-3.908577485851910893e+00,2.244727554695504335e+00
-3.365541425411078258e+00,2.945712332335742367e+00,5.046938235987703525e-01
-3.974168986247109014e+00,-2.180419159042851884e+00,-4.496834652560679491e-01
2.512339178518498417e-01,-3.447810225107943438e+00,2.929593795655154320e+00
-3.080994479390239960e+00,-1.330125162110300963e+00,3.023500703258083178e+00
1.453615301062532117e+00,-4.256585509663636024e+00,-7.545168765041736503e-01
-2.851591922378992283e+00,2.773420557419207899e+00,-2.105359216649626664e+00
2.180629654019480945e+00,-3.992490062138025930e+00,3.042185110987538077e-01
-4.578759732992028653e+00,2.984145026835955394e-01,1.841229807420200482e-01
-2.040718671213961777e+00,-3.454441350549302570e+00,2.099920743870991480e+00
3.367487181791443795e+00,2.456322065448235836e+00,-1.859457632078357792e+00
-5.950928902102683438e-01,-1.682209545086200270e-02,-4.469195667430892804e+00
-3.542470288996061534e+00,2.509840594195243302e+00,1.327497083086766283e+00
4.232267237082297129e+00,5.827094800904409899e-01,-1.347469988445700873e+00
4.358139699469745665e+00,1.257520974619092513e+00,1.981608782207745501e-01
-5.849525966985401615e-01,2.164515501590623892e+00,3.939243334276295805e+00
7.011906323912410477e-02,3.882983209072145225e+00,-2.512451632825589254e+00
2.159985374273381442e+00,4.044348775638928473e+00,2.242279412361568303e-01
-3.668034059391342527e+00,-2.034857680485436582e+00,1.805588161528305369e+00
-9.377353614225111267e-01,-2.399227476909334911e+00,3.793415286016016630e+00
1.045727580254333544e+00,4.108991265164780415e+00,-1.734680757570758569e+00
1.631683595916021412e+00,-3.279468400717339804e+00,2.836158083436765676e+00
3.765095175515963621e+00,-1.946829029987136916e+00,-1.680582115292805323e+00
2.994731789858913196e+00,-1.417798486735792451e+00,-3.102011760689380893e+00
3.151473418650542424e+00,-2.811623653233923381e+00,1.908514007933666656e+00
-1.801115233627444745e+00,4.218144954806652969e+00,2.599151531760098277e-01
3.450180033277162828e+00,-4.799559639691410307e-01,2.945186884861594745e+00
-5.748939566222279751e-01,-4.363114285538835624e+00,-1.235452986736510050e+00
-5.123176478268733902e-01,-2.588591437766857073e+00,-3.716752784309154567e+00
-3.811460484981556096e+00,3.718308032291083309e-01,2.591255640623610468e+00
1.315330703137290058e+00,-2.357443351866034487e+00,3.707452981403779990e+00
4.553070235514232955e+00,2.288980666084999838e-01,4.382498127495572660e-01
4.534828581796359614e+00,-2.740592794376038935e-02,-5.553980802098347214e-01
-1.687291662717854912e+00,-1.426280165162901348e+00,-3.885773134411641738e+00
1.068980018165389456e+00,4.149571302716449139e+00,1.388427784148416277e+00
-1.388823417318172604e+00,4.186587908325738461e+00,-1.258060315890239478e+00
-1.179027849785320381e+00,3.610769009538299379e-01,-4.455675826123711936e+00
-2.729680911472963878e+00,-3.704103366107797779e+00,6.041771449554678847e-02
-3.992053127262558565e+00,2.120273367280287147e+00,-1.006102400490293952e-01
-2.043138425376875844e+00,-1.345324032641789014e+00,-3.941429693131853540e+00
2.171864794800535403e+00,-5.899328637561518374e-01,4.009262483114840236e+00
-1.546714533972258776e+00,4.209417005682564827e+00,5.831156856393236373e-03
2.075924127856224377e+00,2.331668826798540373e+00,-3.271539045834050974e+00
-1.687929148814045988e+00,-4.087354694696566426e+00,-9.988394339339887740e-01
-8.879005959644425960e-01,-4.277923217132786782e+00,1.273830372206194106e+00
5.786772500261226637e-02,-4.593236225902827208e+00,5.551049190551215172e-03
-3.512357749410722096e+00,-2.648167961181887797e+00,-1.241814828183766428e+00
3.405004684498160739e+00,2.880024562603265448e+00,-1.020294549247232618e+00
-3.983474989685333867e+00,-1.796165996945284504e-01,2.014082137908549619e+00
3.574250918955084622e+00,2.217273041964515634e-01,-2.903171036082665246e+00
-4.390115924080708609e+00,1.280168506199791834e+00,-2.144600506705089116e-01
-1.948322404137992958e+00,1.831108613045374867e+00,3.693994591137743200e+00
1.153525866964499214e+00,-2.479886865700718701e+00,-3.695487651149119035e+00
3.347865600412551768e+00,2.024892307452712537e+00,2.302760078414167744e+00
3.181232434779208695e+00,1.910243927610275838e+00,2.655863585187330234e+00
2.651650241063874702e+00,-2.397586287413762562e+00,-2.798396682847329675e+00
4.501515526612211104e+00,6.445095576072054078e-01,-1.470665756735427820e-01
-1.051412733888535733e+00,4.043387920067284647e+00,-1.866522205888044628e+00
3.727739044250205636e-01,-2.782421205544945764e+00,-3.632754119888259137e+00
2.455684956198480318e-01,2.691482670281534872e+00,3.627562676416326681e+00
2.781514521013948027e+00,2.438615929485487666e+00,2.638224885189733193e+00
6.109298760672474682e-01,3.507998733485969467e+00,-3.009805594343327062e+00
3.867962952602984839e+00,-1.259975857645638575e+00,2.111059715941826731e+00
3.512601970493019365e+00,9.567761681117543660e-01,-2.826577405509105301e+00
-4.310495691265563423e+00,8.770479033392983848e-01,1.204865077792635741e+00
-2.414296720153717324e+00,-3.086622103258904737e+00,2.331439552997984777e+00
-7.929466228140178430e-01,2.715439946840439323e+00,-3.599528086162339768e+00
1.248720320591149457e+00,-4.172476512296434237e+00,1.573544768575158015e+00
4.242215233536420271e+00,1.473045521841500838e+00,9.015129936052983517e-01
-3.988878493219820243e+00,5.120451581646311423e-01,2.190696890397751062e+00
1.713485112823478485e+00,-6.540881908573796810e-01,4.108991544366416448e+00
5.145836458262056379e-01,-1.832736057251110440e+00,4.221296183636731314e+00
2.864131267175305418e+00,-2.434032861783839152e+00,2.574397087140825491e+00
1.161966308802088621e+00,3.833759958572017457e+00,-2.088556622262139673e+00
1.016061004137234214e+00,4.418726215774342769e+00,5.776577719257787180e-01
7.883818607456708483e-01,-4.234733020268447667e+00,1.585348227197820092e+00
-3.432798475298980634e+00,-2.560178883540100259e+00,-1.380079324103437699e+00
4.350661225456905257e+00,-2.622074083794905808e-01,-1.413804618386129919e+00
4.103291669103923400e-01,3.105401679697470829e+00,3.263183524601009466e+00
3.657122637955326550e+00,-1.925197998070101058e+00,-1.925873298519021670e+00
-1.276291923698721131e+00,-4.383966165074260068e+00,3.447250781887301052e-01
-2.038163921249083188e+00,3.909310728602743978e+00,-9.728652116013428719e-01
-3.748933859836631743e+00,-1.102369215817996656e-01,-2.562645279077801597e+00
-1.117841231265054858e-01,-4.464070820849291188e+00,-1.147825997574655421e+00
-3.821205560084179886e-01,-4.184812826851763035e+00,-1.718735059515689612e+00
2.816824638765373034e+00,2.484603219225228088e+00,2.738631346947283607e+00
9.682927802332861322e-01,-3.228425484355499364e+00,3.063507760506639421e+00
3.026223352084848273e+00,2.311036418587537167e+00,2.430570986522611499e+00
-4.291436629699420635e+00,1.282327270709701983e+00,-7.786810789709659453e-01
2.824075238035682389e+00,-3.079065059137642724e+00,1.821137931072039695e+00
-4.474646000626458786e+00,6.096200434934062606e-01,-6.461292556427311595e-01
4.463701035120039684e+00,1.956889520143774153e-01,1.130387683684733968e+00
3.083537414350942640e+00,5.347758987481052717e-01,-3.299599139968609762e+00
1.855135626158204376e+00,-3.963579034964057612e+00,-1.175314979508725433e+00
-3.441976365805646587e+00,1.348608739646054211e+00,2.655730609317216384e+00
-1.866752778265609258e+00,-4.119630963685812830e+00,5.232299499169446033e-01
-6.050452374925988641e-01,-3.306229515206801306e+00,-3.082218531758645685e+00
-2.182028097908720987e+00,-3.241552252387177369e+00,2.340419617222999626e+00
3.797277195530866845e+00,-1.975402320425746483e+00,1.635712677831330453e+00
-3.102755782953640296e+00,1.839213640427625363e+00,-2.810089885058819181e+00
-3.478735092002760432e-01,-9.742275632811769892e-01,4.432588868891140343e+00
-2.038680317149477617e+00,4.084681832024984693e+00,-6.851806020061794733e-01
1.409409912844139079e+00,-4.378537239957211114e+00,3.307459090653112055e-01
-4.399620473964843015e+00,-2.754132839585191617e-01,-1.256595364253133118e+00
-4.210365371850365968e+00,-6.809158062768174702e-01,1.530082846866460233e+00
-1.074525893388551950e-01,-3.882906873249201585e+00,-2.433933384868366634e+00
-2.313890018844448448e+00,2.858532952574791786e+00,2.749875649696026603e+00
-1.766649806394735567e+00,4.043689659506984668e+00,1.127594795840997755e+00
1.208725713680768754e+00,3.430284486551260059e+00,-2.697959523833120876e+00
-3.339842466246293551e+00,6.601185672319045405e-01,3.006342594342101826e+00
-2.834687444778263732e+00,3.311969287963648423e+00,-1.596343807533989745e+00
1.627642274934420596e+00,-4.051355086359100355e+00,1.512969332918998600e+00
1.451068123080507588e+00,-3.359536215194401709e+00,2.799491881152607498e+00
2.056718241316322082e+00,9.088420475753420380e-01,3.908908927352798823e+00
4.046590528674811615e+00,-1.226542923756499093e+00,1.845329816906512210e+00
1.983364101591560180e+00,3.596104049411862569e+00,-2.170146584012840663e+00
2.239566469272131766e+00,2.125012995148986672e+00,-3.378006312205025008e+00
-2.540010898103012948e+00,9.765134372963271137e-01,-3.615257241418864176e+00
-1.678994815202240032e+00,3.584241243671770771e+00,-2.301756215364393565e+00
-7.528753509625232265e-01,4.077264878093671996e+00,2.046891399776731735e+00
2.049237021003090575e+00,-3.906627860526524998e+00,1.445882663728309092e+00
3.893747934760262375e+00,-6.624730625624897229e-01,2.295218650681705608e+00
3.393571955780011251e+00,1.192570465475384811e+00,-2.795303075876930166e+00
1.826686275496472334e+00,-1.452800041918176133e+00,-3.899879845287926194e+00
-3.239394451881822512e+00,3.241369032190871025e+00,-7.258953183257579322e-01
1.103749985985335913e+00,-3.433484617396309058e-01,-4.452166588996007590e+00
2.805068342801882775e+00,2.923456953275257231e+00,-2.142148225890355917e+00
-4.099153467308665810e+00,1.880953138796835233e+00,-8.336594901482008435e-01
4.066029466184576613e+00,-2.586641310478968170e-01,-2.172517439927256877e+00
3.111001546703533904e+00,-2.630358599221278126e+00,2.083925429078259839e+00
-6.342599957274432931e-01,-9.612870326033534640e-01,-4.392988930016079152e+00
2.978995381683983368e+00,-3.297278447384035527e+00,1.041052454755740708e+00
-8.531093392437707479e-01,-2.260302470645321748e-01,4.480414749422076071e+00
1.031647409025542750e+00,4.463966837648870367e+00,-4.741407347845379983e-01
3.078290454831364986e+00,-2.762161621724549931e+00,-1.841488621466143671e+00
-1.914945736746765936e+00,3.874367579808261297e+00,1.474341037942833665e+00
1.927136588273798301e+00,-3.653025035162565270e+00,-1.874920844449981860e+00
-2.732219361084958553e+00,2.027752243130632070e+00,3.029893610460427933e+00
-3.261676702928551830e+00,-3.025863852155573852e+00,-1.199302414477642298e+00
8.084336401162367514e-01,-8.033146234604150449e-01,-4.431306977471541231e+00
1.716801604574220638e-02,-1.476333168355238978e+00,4.319842253427412793e+00
3.681510125163453662e+00,-2.230293330179283551e+00,-1.445355505416518138e+00
3.730624124378376649e+00,8.948834124030399240e-01,-2.478785689208978571e+00
-2.870243222089412960e+00,7.806294087051340869e-01,-3.406145890382255459e+00
4.192450180114371427e+00,1.427573627063391637e+00,1.213454959842857450e+00
1.926197109233308780e+00,-2.913324256499792764e+00,-3.050785908862574392e+00
-1.286933928975341868e+00,-9.122135733902142496e-01,4.305781286398093322e+00
-4.025312808676034804e-01,2.286976814293315563e+00,3.855249255172082279e+00
4.183832147213140118e+00,-5.697059260362223876e-01,-1.564549765478443044e+00
1.239185929312726753e+00,3.874752737369989930e+00,-1.894066051730833866e+00
-1.507637970013380180e+00,-3.283011140626621582e+00,-2.747221258476272077e+00
2.971229521122300099e+00,-2.717839855689997197e+00,-2.318535856656617433e+00
1.282595807202630445e+00,-1.984220331941123350e+00,-3.953849132928797250e+00
1.124524342265190491e+00,-2.331801817857740211e+00,3.808577986173740548e+00
1.433291242286947265e+00,-4.163020005684379576e+00,1.169406999729479590e+00
3.013038581135923266e+00,-3.264605165279962140e+00,-1.067198304654028540e+00
-1.424017180585287923e+00,8.773313168985826804e-01,4.363662855325953771e+00
3.901332220124500427e+00,-2.458658809595207551e+00,2.996677914101210094e-01
-1.260837819465936649e+00,1.638386422466148851e+00,-4.085021704976922408e+00
-3.149006700424724414e+00,-1.881325110801438383e+00,2.801685482071655464e+00
1.527557919926042507e+00,-3.577225384473607050e+00,-2.472730048494062860e+00
-2.618896124793704150e+00,-3.640510081214936022e+00,-8.023519224755616408e-01
-2.954265620194471698e+00,3.298346708833271190e+00,-8.981153230751669492e-01
-4.590095317576159850e+00,5.509831692430368077e-01,4.126195056150660512e-01
-2.899257178319080808e+00,-3.491214522511882024e+00,-3.527736458107354478e-01
3.741710472512224772e+00,5.928822554468017314e-01,2.565813646311843055e+00
4.375629982778612259e+00,2.957872515506507760e-01,-1.406586292292384854e+00
-4.333883538949378611e+00,-1.457753634963077638e-01,-1.255387224043028827e+00
-4.487560032640740104e+00,1.033829677209953779e+00,2.092855405167186322e-01
