4.952916185322018272e-01,-1.404738307901252092e+00,1.190554142807624283e+00
-1.545350660415972355e+00,9.149600943780303863e-01,-5.873390213248036451e-01
4.895802059830097752e-01,-1.243555287927956355e-03,-1.808811069302912466e+00
4.494129400253899509e-01,1.385799337318265323e+00,1.208096071697800422e+00
-7.434510845345204677e-01,-1.723482942813976404e+00,7.919085381515342248e-02
4.267816620385969095e-01,-4.323175742591863213e-01,1.830038794361243726e+00
1.349137439307511732e+00,1.116408575184770324e+00,-7.149217281457009854e-01
-1.577709840410822795e-01,-1.517431752296981795e+00,1.137320802208590109e+00
-1.521205400664607410e+00,7.971386723314591860e-01,7.966607065123468834e-01
-5.777484362460414413e-01,-5.120402027074603124e-01,1.729987507747710263e+00
-4.247138690749532319e-01,5.027800445275458774e-01,-1.748588062117310216e+00
1.354385180768932218e+00,6.246043096617096557e-01,1.176586241216632800e+00
-1.019218219330019437e+00,-1.567120811936872027e+00,2.661618272083912107e-01
-3.328210422047310213e-01,7.544027183261093894e-01,-1.714667114977289186e+00
4.256894622115143245e-01,1.065845032708583467e-01,1.833459217764481508e+00
-7.820227273801608758e-01,8.638265873964662278e-01,-1.489300941814162949e+00
-1.196531932088047201e+00,-4.521918974542250141e-02,-1.440975146979525334e+00
1.441566862586047160e+00,5.158800250520103603e-01,-1.138180485552667598e+00
-1.414697352113978734e+00,-9.833055741900889046e-01,-8.732319291355484792e-01
-2.791436733782450830e-01,9.872196958912992093e-01,-1.574089630161407349e+00
1.387590112228313632e+00,-5.520151237664473465e-01,1.202853577665505158e+00
2.742043621745472032e-02,-1.656081995425599807e-01,-1.899021696480055477e+00
1.092242497523498113e+00,-3.327549505707517730e-01,1.513768663813409354e+00
-8.755484236512217633e-01,-1.647741594487128092e+00,3.527048860792284524e-01
-1.558018529329177282e+00,-1.103596027897101539e+00,-9.425944058488794353e-02
-1.264844550380933574e+00,-4.905934685815795393e-01,1.353175274817872920e+00
6.445291415280552938e-01,-1.323985096927342786e+00,1.169095897487834712e+00
-1.037400980416045115e+00,1.770873588700893897e-01,1.652423572227507798e+00
-1.267616857819765075e+00,-1.706528590687365248e-03,-1.412473745913803258e+00
-1.445884560112728201e-01,-1.884852419968572113e+00,-1.220849775576278440e-01
1.754575972627168357e+00,-5.159166355241012747e-01,-5.818547496285025877e-01
-8.616724692560784327e-01,1.662725230907811325e+00,-2.670521403769591795e-01
-1.088179039223184930e+00,1.318713379332307145e+00,8.039215728064761368e-01
2.015471645567016579e-01,-3.859926726028171662e-01,1.829087171970863901e+00
1.370735698345416642e-01,-1.199290202201752420e+00,1.502489893158019951e+00
-2.553942266551502138e-01,-1.504107983594003883e+00,1.145007900187874794e+00
-1.710317822488220285e+00,-7.247254951467947404e-01,2.495579363042650656e-01
8.859658086288596524e-01,1.441919655753549856e+00,8.727072875865529156e-01
7.704450478308320083e-01,9.163985991118972496e-02,-1.718240675534338679e+00
-1.775611567342399555e+00,3.499708091166559010e-01,-5.333185535822955181e-01
-1.561204008650320718e+00,9.903755156112975522e-01,4.864637490289002164e-01
-1.240130010514251424e+00,2.939225124805330269e-01,-1.388794907078909180e+00
-1.235206148958459371e+00,1.215666166953179861e+00,7.210907832446650234e-01
1.721553576411320341e+00,3.595197173626824561e-01,7.313028158865442219e-01
-9.848449480600853789e-01,6.099141402832843895e-01,1.523654675681942905e+00
-1.343178138744515859e+00,1.077280426111581479e-01,1.307376066271639381e+00
1.752359689035220880e+00,6.368507120995765547e-01,2.515637301546859161e-01
-6.090505682899141071e-01,2.324942868154616649e-01,1.771473494484011590e+00
-3.857903275111221331e-01,-1.421572453322539120e+00,-1.120732542489956352e+00
7.271988316767609151e-01,8.357153615649930423e-01,-1.570170531970541905e+00
-1.830681633257497554e+00,-4.963423812133470059e-01,-2.436382781780899176e-02
-1.032499405225484196e-01,-6.031287210476902333e-02,-1.875600749707795556e+00
5.804558114342810438e-01,1.793960853761076502e+00,-3.389971336117719725e-01
-1.515938559245985306e+00,-9.527688198781003592e-01,5.182104063169413743e-01
-1.372936404296285495e+00,-6.745566541253339432e-01,1.089891702831356834e+00
1.415295670401001793e+00,-1.117053901630918222e+00,-5.000744146667217560e-01
9.160069455838765196e-01,-1.371120018059156065e+00,9.298500131834395166e-01
-1.053505097113673017e+00,3.404831475863157597e-01,-1.484050640128962373e+00
-7.251507870083346852e-01,-1.506906980802515283e+00,8.402375730475466487e-01
1.640556316681860416e+00,-5.285608489594494364e-01,7.802739603767484544e-01
-1.165780230855322896e+00,9.124276122605791128e-01,1.181381311304616544e+00
3.485398888230257786e-01,7.982306946759604172e-01,-1.652068454591968161e+00
4.126374946119131665e-02,1.689399301588680125e+00,-8.924533046216714949e-01
1.090873474646480323e+00,-6.708515324047940043e-01,1.316977000196123404e+00
-5.871187181110859576e-01,-1.526533236566608664e+00,-8.941198815972318803e-01
1.087408126977880807e+00,4.896801127180075430e-01,-1.481723624769447856e+00
1.363854772088638923e+00,-1.131473554820292993e+00,-6.109296661909233706e-01
-9.943083780616464029e-01,4.973715341235283027e-01,-1.501984146911686580e+00
1.130511215796168090e+00,-1.483211308437501597e+00,-3.994243725589884941e-01
-3.124919173081709689e-02,-1.874070510620806651e+00,-7.213090240701378053e-02
-1.182358813738821457e+00,-8.521144008856355034e-01,1.200095419278084830e+00
-1.847998713217419597e+00,-4.544574991202781633e-01,3.594404415339320646e-01
-8.722415159863055045e-01,-2.808421502601039510e-01,1.633928422101778466e+00
1.545970953657130609e-01,-7.847312917061112225e-01,-1.760543904973952412e+00
-1.471627264006344082e-01,7.913822157194912998e-01,-1.718669402383106393e+00
-1.446507845802408099e+00,1.878821863004065396e-01,-1.213374111099935870e+00
9.552632455373575304e-01,-4.127128265161219556e-01,-1.563126206639568361e+00
-1.105503593438505128e+00,-7.755794112551774866e-01,-1.269502972790179651e+00
-5.744588825782747099e-01,6.429987363713087767e-01,-1.695786115746935163e+00
-4.353395053091497768e-01,-1.535282930578095728e+00,-1.025364082596371240e+00
1.639850418031986612e+00,-4.631535689904303643e-01,-8.115027879522030974e-01
3.900172705912511861e-01,8.497106748334107840e-01,1.663716826139230553e+00
-1.372581075719134125e+00,3.031763346791613856e-01,1.257363647860787914e+00
-1.857243496157538809e+00,-3.672385014845727658e-01,-1.363032579479759865e-01
-4.390090337770488071e-01,-1.517765197907090302e+00,-1.086575186638293333e+00
-7.612955324094994314e-01,-1.214326279501612982e+00,-1.279106757226310176e+00
-1.157246719267882140e+00,1.482312714069283555e+00,1.003296423254112640e-01
8.178117887395832675e-01,-1.406253335051019571e+00,9.480038379142616822e-01
-7.206352044755560682e-01,-1.609577715038937873e+00,5.555837730543984332e-01
-1.154691831660105805e+00,2.396651545922608428e-01,-1.422065360561594494e+00
-2.621898348494068332e-01,1.886787853195399212e+00,-9.583232482125595211e-03
1.137001558182966443e+00,-4.108735458737907131e-01,-1.463846157551819349e+00
-8.504499388979661623e-01,6.944243837474619596e-01,1.552788318304423321e+00
-7.636337334363680895e-01,-1.721009497079484696e+00,3.495871649182150792e-02
1.150424914998913639e+00,1.439668841570272528e+00,4.351281910755601667e-01
-1.331072867102538471e+00,7.610964049485362537e-01,-1.087915247011377318e+00
4.829608287902681929e-01,-4.742849055716293893e-01,1.772077133316367403e+00
-9.315311288411187718e-01,1.573387185236824415e+00,4.265857728137626426e-01
-1.449380482250911761e+00,-4.753036296599735255e-01,-1.103676474187136325e+00
-1.621939454489022214e+00,-1.014300050996181035e+00,1.531539244299335856e-01
-1.002310969620065606e+00,1.461632817849308319e+00,-7.101538395576454388e-01
1.540625351064990323e+00,5.629966807169696219e-01,-9.294587463424202056e-01
1.584827848477797785e+00,5.112936742887340680e-01,8.767802684213481523e-01
1.780331697759268250e+00,1.693285375278505978e-01,5.865003743554156879e-01
1.687858419675863031e+00,3.864669517538889265e-02,-8.530880828311906416e-01
1.480988160520531949e+00,2.702819346215094010e-01,-1.130364260157749046e+00
-1.645873603060523882e+00,8.578637331163254665e-01,-3.805306065954373040e-01
1.243683572133796877e+00,1.381738543573191924e+00,1.567050323965098191e-01
2.396472582895722847e-02,-9.887395085761344626e-01,-1.592005920382510986e+00
-8.117618635282172201e-01,-1.134730659295033250e+00,1.234979622976007940e+00
-1.277577379756362319e+00,1.390148356975799970e+00,-2.123537677889270336e-01
-1.757087318903040263e+00,5.327249219787494328e-01,-4.371194784915565790e-01
4.291888204001772511e-01,8.037418993209681783e-01,-1.661082355324662974e+00
-6.159552932863316954e-01,3.535920306341227004e-01,1.742299695934155013e+00
1.070976799980238869e+00,-1.526616396740539505e+00,-3.506699194305857303e-01
8.705244702406854662e-01,8.590255073158388488e-02,-1.647222535112130348e+00
-7.421376433588574573e-01,1.747420171325176685e+00,5.260851369438197811e-02
-4.594324633831227134e-01,-1.836580919977648163e+00,-1.920976020001907703e-01
1.406702645196153956e+00,-1.212027544076797581e+00,3.780367712173855477e-01
1.228255297044155148e+00,1.075223007285779353e+00,-9.813947381589651631e-01
6.984796363767692418e-01,-1.313176998880677848e+00,1.124617890795617914e+00
-2.044911809907241224e-02,1.847083374474602024e+00,-5.170991518303400536e-01
-1.366286529728178323e+00,1.112250552285487748e+00,7.150506277301327263e-01
-7.291597431886568392e-01,-1.691354078307202968e+00,-2.049476525814952765e-01
-1.284906675479665195e+00,-2.620738486680321833e-01,1.327711033570122545e+00
5.336902160027287012e-01,3.102604131417782685e-01,1.793953252025257683e+00
1.141485121275727987e+00,-6.141450906106763613e-02,-1.476509625745940246e+00
1.380491420108131750e+00,-6.637575276888681985e-01,1.090810302907275764e+00
-4.620255846616567741e-01,-3.102360294832864351e-01,1.789344890019058054e+00
8.585371028566607388e-01,1.247954095787682016e+00,-1.106879632925104051e+00
1.115211901704036723e+00,6.557799738984746440e-01,-1.380428249611004299e+00
-1.320826515646610133e+00,-1.367596036690585937e+00,2.279394181696581534e-01
-5.588787350768814610e-01,6.572064029971576016e-01,-1.708746861384088378e+00
-1.639416681782455421e-01,1.751293686250565695e+00,7.549907229970160838e-01
8.276846160539368391e-01,1.603325502902449129e+00,5.868313573752631518e-01
4.346532465690889913e-01,-1.434108624797435727e+00,-1.174483881074694036e+00
9.935505268492642594e-01,4.868368393127814331e-01,-1.528199107970831694e+00
1.151009433328662457e+00,-1.084962672153411828e-01,-1.500683950343146611e+00
9.881531361089466170e-01,-1.009874172399123138e+00,1.277406576296779228e+00
1.559292835513767850e+00,-1.069719396700376413e+00,-1.811924185276475030e-01
6.667411721824146875e-01,-1.329171825872032420e+00,1.179522768410161238e+00
-9.546437855872160760e-01,-1.584212361822754378e+00,-2.977912468603970408e-01
1.752156841627318329e+00,4.717877190676973420e-01,-6.535155259428393482e-01
-4.073212351209872795e-01,-4.289140337493810295e-02,-1.883844897754330505e+00
-1.617647026186443737e+00,-3.311962695327300699e-01,9.046499941665047118e-01
-1.199780183736867567e+00,-8.690059269967959077e-01,1.192185429502767402e+00
9.552301878198042884e-01,-1.462439942878939636e+00,-7.859185934409466112e-01
-1.502014411847374387e+00,8.622476798577601853e-01,7.025177189618941886e-01
1.607350367867611318e+00,-5.453232681187595299e-01,8.676165225048435570e-01
-1.130233739106599522e+00,-1.158404406616528437e+00,-9.253416186992622361e-01
1.049342944152129586e+00,1.417165854783379864e-01,1.530237056658847017e+00
-1.702621358717167466e+00,-3.944336601137824472e-01,-8.136766512488579073e-01
-2.586562438341387105e-01,-4.354431410418730941e-01,1.827486069067018271e+00
4.146213767323912724e-02,-1.624842051847555702e+00,9.491669106817320900e-01
-8.115367723141276857e-01,5.528321653622700893e-01,1.621743799292784338e+00
-6.317573739562712953e-01,1.776529042604244379e+00,-1.633175231617859657e-01
1.222819845827128438e+00,1.311415676207626113e+00,-6.908580974726654667e-01
-1.144046037469394372e+00,-4.387441150108079002e-01,1.425204938447524050e+00
-9.847284114688288348e-01,-1.277108047004405833e+00,-9.699285997320578057e-01
1.986920361434443838e-01,1.726234038689453909e+00,-7.689542931778058366e-01
1.554323507980742036e+00,1.051583455615602514e+00,3.963662051334315151e-01
-1.959930304139261836e-01,1.807547829244147142e+00,5.623924612350221786e-01
8.923332821442919727e-01,-2.325368321079693268e-01,-1.663171254336757388e+00
6.845252352904281912e-01,-1.663094002812450123e+00,-6.448804526662406111e-01
2.629503205676325672e-01,-1.194019498748303709e+00,1.480159058346107059e+00
-9.211870340577592575e-01,-2.017995331702440165e-01,1.621326243727286398e+00
5.889605151173050723e-01,7.967070382952335938e-01,1.602286269287987119e+00
1.652993763512695669e+00,-8.027815432481955060e-01,-3.776633055565341568e-01
-1.724159811488003013e+00,6.435960671740054151e-01,4.301743860996509183e-01
-8.596518790115236230e-01,-1.635698231626054211e+00,-4.708446326447734420e-01
-6.736689015646127876e-01,-6.316901289112845097e-01,1.643489083878562740e+00
-1.164629563901887987e+00,-1.210390033166678148e+00,8.436544765203709551e-01
-7.728956244727084313e-01,-2.862608049060189619e-01,1.668188190321978404e+00
-1.102698883046967712e-02,1.064071717046151111e+00,1.563003881200171419e+00
8.012708150874318092e-01,-1.129800587863033945e+00,1.305309986612915640e+00
-2.786223716317228205e-01,1.717820183358275798e+00,-6.729848284419012172e-01
-8.462983572834975599e-01,-1.494684186163308670e+00,-7.827168029640088065e-01
-7.683599853417154568e-01,6.453532481939141530e-01,1.634489245988984152e+00
1.139068309151004099e+00,1.302230963254192408e+00,8.279640035484462368e-01
-1.457896893947676187e+00,1.144015971061466574e+00,5.546539952575447741e-01
3.651418935333074489e-01,-1.807316383417023831e+00,5.840276890866467063e-01
-1.432468631505006140e+00,5.555381281893547740e-01,1.058923857421697035e+00
-7.320451157641076900e-01,-1.472170181274061962e+00,-9.401425650188348637e-01
1.086852777093123112e+00,-1.522969463207890284e+00,-2.928286082158644277e-01
-1.318971411184052256e+00,4.183329735335786781e-01,-1.327229032459131375e+00
1.445284976569857660e+00,1.055968618239991885e+00,5.783454452163186987e-01
1.683513300594456696e+00,2.000464657122174583e-01,7.838406864515923278e-01
-1.731177120339807418e+00,6.731469539888848552e-02,7.823827760987919211e-01
-1.223225678140816841e+00,-7.983399358546230395e-01,-1.217215623441950001e+00
-7.414445280074015709e-01,1.684385710198499808e+00,4.036461009903714592e-01
-8.763862541557306818e-01,1.647372357715112479e+00,-1.325186112923361359e-01
-1.074290433005152590e+00,1.467100334047997556e+00,5.862059918746986842e-01
-1.125747792113367840e+00,1.233144523437522011e+00,-8.858797781041723995e-01
2.627331483392632561e-01,-1.867969069302148233e+00,-3.905130599803960934e-01
4.006069766534219867e-01,4.023761486962833533e-01,-1.818351120769174267e+00
-2.078561025770916393e-01,-8.779384190947752131e-01,1.661741110735061921e+00
-8.126929428580106918e-02,3.995764533648146766e-01,-1.825917358271886615e+00
-1.925893485931298166e-01,1.444319862792917908e+00,1.189504130249387170e+00
-9.207374514339030647e-01,1.659507330369356159e+00,-4.879195419239971271e-02
-1.662329585025434930e+00,-7.657891440880363332e-01,-5.331694040595666984e-01
-1.367633485163258555e+00,1.190369625193527181e+00,-5.631475362603116652e-01
1.692330736131996805e+00,-1.113362358648589123e-01,-8.971698081950042480e-01
1.260484837831971960e+00,1.286140238851327444e+00,4.664431207144869029e-01
1.354752545332008395e+00,1.117528327392313114e+00,-6.833640057544128066e-01
-1.300332313423606889e+00,-1.362406647830462614e+00,-2.615558389688492705e-02
5.873739668789326185e-01,1.644662330845773068e+00,7.972298060817027965e-01
9.172042193304055235e-01,-2.089914176934148937e-01,1.639785225463064489e+00
1.876363505444280377e-01,4.700051001330212141e-01,-1.850258257627602765e+00
-8.584607857902650796e-01,1.015111598792141523e+00,-1.334975036198744913e+00
2.386521493065651423e-01,-8.113121411335374455e-01,1.684439789316168889e+00
-1.334507172628688565e+00,-5.444175255807479630e-01,-1.204747015076739869e+00
-4.570188540239306096e-01,1.591733734926659816e+00,9.860401881036939820e-01
1.319572807469539866e+00,6.857950461619194416e-01,-1.117312915599107725e+00
-1.830612485383182886e+00,4.107854905585064942e-01,-1.093557152078325906e-01
2.405790764424535766e-01,-1.577218526763412842e-01,-1.826721754109452478e+00
-8.705648010624998934e-01,-4.379849282347397788e-01,1.609592104990400951e+00
1.754619041717551786e+00,6.572603157956253828e-01,-2.043558469714804038e-01
-1.249249037459231770e+00,9.078262779316343956e-01,-1.098449464784889695e+00
1.435920324761104538e+00,-1.043798392731622338e+00,6.150882997288164011e-01
-1.729386327315774352e+00,3.779148950306825405e-01,-6.558224934829722796e-01
1.591169215154526917e+00,9.746183714642022711e-01,-2.836734975688794402e-01
1.847116698739473373e+00,-5.241342003337506883e-02,6.146975057927501762e-01
9.741396138317656161e-01,-4.934908438930410424e-01,-1.538560359509641096e+00
-5.750312304490801801e-02,-1.548546562014215588e+00,1.045761006007742466e+00
1.553317209257463472e-01,1.158449590213854880e-01,-1.889670132722311990e+00
5.239406813544758013e-01,1.420137919065356469e+00,1.136262026541822845e+00
6.330653007196610504e-01,-1.793088327796389159e+00,-1.394507261356190686e-01
5.773542639623272660e-02,-6.636750185785875167e-02,-1.887130370426513215e+00
1.171015845032174596e+00,-8.360678182921198465e-01,1.277469427126705748e+00
1.179392622641969535e+00,5.613972030832755644e-01,1.381671018162055065e+00
-1.195709493598873019e+00,1.434675359507654235e+00,-2.926258517957699978e-01
5.314756817392595201e-01,-1.183748219867513773e+00,1.352729920974030442e+00
1.596944125046126706e+00,5.303065142596219417e-01,-8.592927009074307065e-01
9.533132905869804441e-01,-9.173602168162467985e-01,1.349957528966057918e+00
1.288241346563688383e+00,-1.302072198496997846e+00,-4.502117778348350141e-01
1.847184939932690062e+00,-1.211491515366166921e-01,-2.294134874639056076e-01
-5.765642258136386422e-01,-1.544919823392094438e+00,8.737417113532799373e-01
1.670718499804534352e+00,1.768336877124655482e-01,-8.870803604535665299e-01
-1.714354516631143577e+00,-7.877586614019731481e-01,-4.140297672805125229e-02
1.494639106265152062e+00,-6.857873714689231015e-01,9.121127897806473594e-01
1.872736179253243982e+00,8.046281848283036442e-02,1.985363473738218643e-01
1.325943328856487247e+00,1.304160623965700649e+00,-4.926150384998765341e-01
-7.617328030868829591e-01,2.370456515952738541e-01,-1.726747528613325811e+00
-1.434283111069916572e+00,-6.830176580434966782e-01,-1.048415801779987389e+00
5.717807166261574398e-02,2.008149205836082529e-01,-1.850734269659101372e+00
1.691639381153452248e+00,5.615411796962853641e-01,7.586820508092763093e-01
-1.050993983205265492e+00,-1.730646687720514276e-01,1.583796917344894917e+00
1.408573050099828361e+00,2.283113870326477710e-02,-1.228403224943641181e+00
-3.048035007013127906e-01,1.468290810114784906e+00,1.150450395737538045e+00
-1.394829743693304591e+00,-2.204455211952395521e-01,1.177939041431267375e+00
1.184999482209865285e+00,5.867819970244126937e-01,-1.374556381297994623e+00
1.360255673509360053e+00,7.826584415101052183e-01,-1.001039724461763258e+00
-1.409791430629407039e+00,-1.235386803336972816e+00,2.603818985845725575e-01
-3.625828402383884930e-01,5.766778094318738557e-01,1.799280611559350485e+00
-9.497225834946675382e-01,1.266879496512106407e+00,-1.068974967712241764e+00
-9.159713205654554935e-01,-1.446169527829453294e+00,7.918196359538097751e-01
-1.605645883395214746e+00,-9.763346623711331995e-01,-7.477431270231733786e-04
-4.389663972265922531e-01,-1.340937883411819742e+00,1.231114860658101939e+00
-9.201147482665051891e-01,-9.139730566660159150e-01,-1.395562147131790054e+00
5.506210723615126423e-02,1.842057995305221851e+00,-5.834120309854988751e-01
-1.727575786014085901e+00,-5.832713948177623009e-02,8.218624605756472690e-01
-2.543645665950254875e-01,-1.488423486641772264e+00,1.116460631928376745e+00
7.060924868993722070e-01,9.287698096515288881e-01,-1.466663884158013742e+00
5.802437695984364874e-01,1.397068838211642960e+00,-1.156315049270139061e+00
-4.410663574557029398e-01,1.513092952976093253e+00,-1.076944834257208106e+00
-9.157171298438022689e-01,-1.323484275068041560e+00,-9.769060512381969597e-01
2.255328165597213219e-01,-6.861454110790389249e-01,-1.724640651061924990e+00
-1.855614119852420751e+00,2.919309665635382300e-01,1.751022110960568923e-01
-7.676744813572068393e-01,1.430152626034712382e+00,-9.793239649190299545e-01
-6.204813274645585297e-01,1.566012942747508241e+00,-8.604822998742941431e-01
3.231843907475577815e-01,-1.743122322961964565e+00,-5.489964175871995256e-01
1.196403833789092985e+00,-2.956943940726133868e-01,1.449994833148976703e+00
-1.547236216635695660e+00,8.384062862822425632e-01,-5.748666241405380184e-01
7.099025009445282253e-01,9.184220692900916250e-01,1.468329584045102720e+00
-1.686542585675862682e+00,8.889154806210377568e-01,3.301219151311405864e-01
-5.679726792813318825e-01,1.089139533367139867e+00,1.417541713484741894e+00
-5.755771212673456150e-01,1.686342788119330471e+00,6.211053198176799128e-01
-4.958019169967447376e-02,4.495870037092657423e-01,-1.826161821626187676e+00
-5.855987801689522820e-01,8.301531623781743807e-01,-1.582667838877156674e+00
-1.810812600189502103e-02,1.521172105382303519e+00,-1.086325266707514947e+00
-1.647063318747850946e+00,7.395345932347633378e-01,6.115527480957630990e-01
-5.053912504696306263e-01,-1.784499391403396418e+00,3.756670594820227804e-01
-1.590667570345971615e+00,-1.419193574880724118e-01,-1.007044394602164328e+00
-1.080195307297276752e+00,-7.790425472553360597e-01,-1.329955361264375302e+00
7.651397382347903120e-01,-1.468595724760812571e+00,9.254996424386565668e-01
2.327378854964397004e-01,1.852061818207253241e+00,-3.291266194126533651e-01
-1.066278609065115734e+00,1.549210723797280975e+00,4.332480158272801751e-01
-6.392374543046372981e-01,1.837129447248805336e-01,-1.781340653087586379e+00
-1.771626529565608399e+00,1.677910841751265592e-01,-7.247591750285717893e-01
-1.231321212053582803e+00,-1.412873855089723074e+00,3.448016041880362370e-01
-5.539665358543957585e-02,-1.876970160656230791e+00,1.299684295060427042e-01
5.287916076094001383e-01,1.479760231114635172e+00,1.091762987884697278e+00
-4.435512453126296273e-01,6.288332926437478765e-01,1.721631069733537522e+00
-1.745060892717082091e+00,-2.355084189861805510e-01,6.857794592462147509e-01
1.537001248554358934e+00,9.228745658707053490e-02,-1.100215981750698679e+00
-1.605213343220296851e+00,6.693404238894710978e-02,9.795984168510787349e-01
2.214059062770035724e-01,-7.994065865319222031e-01,-1.742611449328772988e+00
-8.301178209265978047e-01,1.110967300159432458e+00,-1.265650244253742729e+00
-1.388731138790892938e+00,-8.061355368483230643e-01,-1.006597967259507787e+00
1.570025297323612401e+00,6.781066250274873086e-01,6.971584373372076149e-01
-9.306301784218615758e-01,-9.488722305517413025e-01,1.342745628434747429e+00
-6.460623285104201141e-01,-1.425596359957727044e+00,1.076623979063322745e+00
1.848397665583188798e-01,1.033300793323363109e+00,1.561780013482770624e+00
1.211848487150605225e+00,-8.050147103178505459e-01,-1.170915864500908565e+00
1.818966834328328286e+00,-2.348891506403448792e-01,-5.289433025687795276e-01
-1.244007922350630846e+00,5.676322260626984750e-01,1.323916514734114536e+00
1.406108795431973979e+00,-8.915781972849210479e-01,-8.140078165171650282e-01
1.467107867431071799e+00,-1.214419855912572510e+00,2.137790171063971567e-01
-1.569034210774647553e+00,1.092779314642389865e+00,5.437154853341175098e-03
-8.353839531622704317e-01,-1.546800568746678373e+00,6.569403976814303103e-01
8.921684778382209524e-01,-6.049663044003281698e-01,-1.572695160747585641e+00
-9.742848614558525799e-01,3.327386168242738029e-01,-1.589638505754264131e+00
-1.528368787231460635e+00,1.112931141266509050e+00,-2.329258870423716044e-01
-8.161140792976784297e-01,3.596057241765645007e-01,1.683940515881887201e+00
-4.898420178138639947e-01,-1.658446157179546354e+00,8.004351931765406603e-01
1.149399085886289917e+00,-9.210388429637139662e-01,1.226019341900743465e+00
-7.880219048588528452e-02,1.851332948974344195e+00,-4.219295398918163631e-01
-9.088502946100375235e-01,-1.111575958456702651e+00,1.245132394100173512e+00
-1.014293633451548882e+00,-6.929338764190018374e-02,1.598086764344015087e+00
1.724556308396741899e+00,3.179124233685592382e-01,7.501424552351800834e-01
1.667005624985760992e+00,5.137732239707973880e-01,-6.763662484782014817e-01
-5.636175509567453723e-01,1.772296057834063410e+00,4.432637839025990178e-01
6.061186847793917365e-02,-6.105006018008681812e-01,-1.771680099619957982e+00
1.328034438469212208e+00,9.845073976032513441e-01,9.193841100841748659e-01
-9.254902347410353114e-01,-1.197821092777590080e+00,-1.171649802057903367e+00
1.166461877114532308e+00,1.386459930726592571e+00,-4.679522698147894899e-01
1.456494362329632697e+00,-1.214708472101352799e+00,-1.535407597203104768e-01
-1.763035293104123102e+00,5.165573424479690257e-01,-3.322579248365857829e-01
1.596760995808689909e+00,9.381722427810843534e-01,2.694280011188734392e-01
-7.218590746389725865e-01,-2.010974429493440352e-01,-1.737582089247538875e+00
1.767357540947148919e+00,-2.619998459744215524e-01,5.409808726329971007e-01
1.750713185565823338e+00,1.482237210981072195e-01,-8.018585458844100788e-01
-1.217224784054646181e+00,8.107020927316004322e-01,-1.154621104748699612e+00
7.568975465224054844e-01,1.586917808681322706e+00,-6.819703951857140067e-01
1.655660136841253571e+00,-5.306306294822867864e-01,-7.044449318165898477e-01
7.375636781893069038e-01,4.210054601343600211e-01,-1.665996655857620024e+00
1.684222224520932620e+00,-2.158447127805226268e-02,8.531381107119127005e-01
-1.366048611665085399e+00,1.257360674959040248e+00,-1.565061132482743478e-01
1.686013982644466003e+00,-5.299048038625969737e-01,6.627371095243137500e-01
-2.016887082737653658e-01,1.473077018715508002e+00,-1.184693485703145699e+00
1.536723802813793727e+00,4.318902165072729948e-01,-9.831447546655864844e-01
-1.084163377183764876e+00,-8.648739969923796567e-01,1.283231613429061335e+00
-3.985695952128617270e-01,1.240767130904116611e+00,1.336242441587110363e+00
-9.725943346507318621e-01,7.083600920809035584e-01,-1.443817646961735646e+00
-2.638688993480395872e-01,-1.146266130273820405e+00,1.433754562071903882e+00
-3.979947345140633641e-01,-1.594221937049292492e+00,9.126644245364414765e-01
-5.407303959105177471e-01,-8.681248308402704783e-01,-1.573223321560898835e+00
-1.787982098676230036e+00,2.960359063365299304e-01,6.182333100499513012e-01
-1.568279270974736184e+00,-1.052989267089432301e+00,2.078549755586388270e-01
9.027737291764880156e-01,9.494795463551177761e-01,-1.362987849600600931e+00
1.282677409186853135e+00,-4.042859751538245838e-01,-1.339678334776232216e+00
-1.790209012729196969e+00,-2.277157672370139496e-01,5.831219317095585053e-01
1.608779018048856813e+00,-9.835569200694054270e-01,-3.500322423876898181e-01
7.188466642565254361e-01,-7.393293837763148524e-01,1.581072087399553405e+00
3.638456197479461585e-01,-1.862096975711529934e-01,1.834017684159558570e+00
1.370558426986809408e+00,-1.309566299036319492e+00,2.963541127877754033e-01
-1.719539571708296410e+00,2.558940303422848062e-01,-7.711243389493861455e-01
5.260244013913644157e-01,-1.810184688117981722e+00,-1.127613236528277607e-01
1.641886994300710390e+00,7.782151402770660642e-01,5.285903069744528615e-01
7.082849187767120691e-01,1.213464339590840657e+00,1.259666929893353382e+00
-3.521062495619255855e-03,6.504941551895426777e-01,-1.800288660202594704e+00
1.306126795255299067e+00,-1.143097282753823496e+00,-7.694428027343371834e-01
4.280152524858282792e-02,-1.645275523826202013e+00,9.412693915476728623e-01
5.864474375354290780e-02,-1.390443980531087531e+00,1.280884540483905765e+00
1.988959703350484942e-01,1.567684579991821758e+00,9.628736598099567612e-01
-1.531674284244988637e+00,-9.650126617052946498e-01,-4.472027731792777572e-01
-1.831416396870384711e+00,4.729356966244975258e-01,-1.673115220988636853e-01
-5.624602277101787839e-01,1.407749616705910700e+00,1.168310203372576073e+00
1.443727481558198189e+00,1.154675400232451077e+00,-4.598398099488849589e-01
-9.502577859815968253e-01,1.218110363958896825e+00,-1.056724528884595005e+00
1.537369237702657931e-01,1.694504864179543935e+00,8.905331530604538859e-01
6.367894505660264270e-01,-1.621372282239840867e+00,-7.671769995678621168e-01
-1.732933793352982477e+00,2.302553593345616767e-01,-6.250678940590359556e-01
-1.185336249878659043e+00,-9.443076884780762792e-02,1.445925100089353155e+00
1.527618930377391049e+00,1.077784509230284682e+00,1.650706149863290506e-01
1.821314590617676643e+00,2.935292430675642827e-01,-3.824730704486906108e-01
1.857352292058088272e+00,2.928435121077470615e-01,2.843962192655362098e-01
8.860730571249287868e-01,1.648221779144271926e+00,-2.805460270314735771e-01
-1.180799663128874633e+00,-1.101652819249738346e+00,9.894746255013785463e-01
1.648864551382490662e-01,8.801574349483868298e-01,-1.618150511689356419e+00
-2.687222153500256061e-01,-5.388422264541583573e-01,1.811027726313444886e+00
-6.293255360156729816e-01,1.435511403441557032e+00,-1.065411053746142755e+00
-4.565621443650534905e-01,-3.308518811568052498e-01,-1.801644701410703764e+00
7.016412159430326367e-01,6.421620509830970880e-01,1.648597810448098500e+00
-5.445423754785985171e-01,-1.797357666249041142e+00,-7.334704960016971698e-02
-4.707386383380816608e-01,-1.815786271536937502e+00,-2.236576773659968431e-01
7.790608591484408096e-01,-7.486209562086074132e-02,1.708739707857477530e+00
-1.776312978081807104e-01,-1.520149843194982697e+00,1.097880922895071221e+00
-1.819860679271007697e+00,5.110857885026667269e-01,1.240428402337638292e-01
8.127824365263911499e-01,9.101789448084897094e-01,1.457166107144917788e+00
-7.633586995075405390e-01,-1.110232956671320270e+00,-1.300687302432915304e+00
-6.942421665011194731e-01,-1.713634831840109118e+00,-3.456969226020215058e-01
-1.668701009787824763e+00,2.559084577490233769e-01,9.356916322086323845e-01
7.767292214951960760e-01,-1.703019177408339413e+00,3.104342548495220289e-01
-5.602564595631724931e-01,-5.861573602655628656e-01,1.727219681086066050e+00
-3.400562455378531301e-01,1.106048489194680240e+00,-1.491983416851629274e+00
1.400532015834337063e+00,4.782538175705789985e-01,-1.171807249646220850e+00
-1.430169226653275505e+00,9.182724269587831945e-01,8.386978338211684703e-01
1.850460265602845933e+00,-5.003017594340346541e-01,2.822704518613678923e-02
-4.257236753149288844e-01,-1.733703785035945799e+00,6.391245451100058261e-01
-9.913526239131222051e-02,7.936580704136929620e-01,-1.718900067012727684e+00
6.617293896713242196e-01,-1.486400832546088902e+00,-9.071068824057085811e-01
1.122283373932808415e+00,-1.029812081524940304e+00,-1.164024245912926414e+00
1.270420314471552015e+00,-1.393877558037230902e+00,-1.580091143233071371e-02
-1.707643021002685835e+00,-1.655841749707342436e-01,7.446238597201194631e-01
-1.712779808630129352e+00,-7.769701118400487161e-01,-2.076300999534566039e-01
1.866865244931054546e+00,-3.443430525542994780e-01,-8.319116913357177401e-02
8.400673277457901822e-01,1.647694286762567684e+00,-2.207864250197507372e-01
7.415870580355686525e-02,-1.112877618649793954e+00,1.534387452329490475e+00
-9.590962478424341908e-01,-1.108981641024814335e+00,-1.164836167782892451e+00
6.862588913612920338e-01,-6.475009276700164351e-01,1.634882132648179276e+00
1.774258268579551379e+00,6.472795742370415217e-01,-1.625391718352203474e-01
-1.708137849187048030e+00,6.433712966646660814e-01,-4.021153712558312998e-01
-2.603251955465631373e-01,1.861698367123219011e+00,-5.102029887998147523e-02
1.700214997022706731e+00,6.093313407812359639e-01,6.174473867107593827e-01
1.531484331602908977e+00,8.138194462110734939e-01,7.245228766696442113e-01
-7.032473281821030042e-01,-1.751985413362549204e+00,-3.731206987487862281e-01
1.594036974770273840e+00,-8.173592076789470973e-01,-5.885477499242116606e-01
-6.557472652402118740e-01,-1.738712333890870987e+00,-2.103022333992300152e-01
-6.776798427051691220e-01,1.533544776167618418e+00,-8.549826642286373346e-01
1.463966841986488410e+00,-1.161127437291503917e+00,2.620333495712411920e-01
-3.981569746708805146e-01,1.610093873912178619e+00,-9.032321859108616291e-01
1.151381575972341420e-01,-1.774078393174729484e+00,6.925986788452519471e-01
-4.404555986755827046e-01,-3.033190681233899899e-01,1.805123381992844278e+00
1.537406582003374877e+00,-7.838990374598857336e-02,1.072020034779202824e+00
-3.846143107428341978e-01,4.448413605138860638e-01,-1.790267071177785496e+00
1.670605513809907183e+00,7.858131180938097149e-01,-3.799154103456333642e-01
1.051992834864115656e+00,1.145913901107901367e+00,1.069815899955242955e+00
1.468848108108497419e+00,4.088082128974746543e-01,-1.109487643343396224e+00
1.022484333083398145e+00,-1.519854776225278759e+00,4.930718809309436179e-01
-1.055899848922056572e+00,1.569390824761972780e+00,7.141223110028784016e-02
7.756893505803891253e-01,-8.482067215122374160e-01,-1.493174486460127071e+00
-1.753718002496825523e+00,5.646309344795091834e-01,-5.078388958667024999e-01
1.827914864081004120e+00,-2.509604130288790591e-01,4.905398814818677788e-01
-9.265836970640237147e-02,1.787387612253787283e+00,-6.306273382451718090e-01
3.200556309026158508e-01,1.103128714664323606e+00,-1.483075270423838798e+00
1.352507804818004145e+00,8.674735608799387654e-01,1.009660506216281783e+00
-9.623653836960629482e-01,-5.864060118395614252e-02,-1.638412744532577570e+00
-1.572083426831972996e+00,5.433612537340923310e-02,-1.039601108903084992e+00
-1.597197657230913226e+00,-1.192674698750184094e-02,9.815053970810521111e-01
-7.348951215861772301e-02,3.759867975027260667e-01,-1.840814888533260918e+00
-1.538530859042284149e+00,1.096481220884155006e+00,-3.527933632755262394e-01
1.804258260863137231e+00,-6.216125767139575320e-01,1.326288989017442854e-01
1.634065348359872161e+00,-9.089580822978321484e-01,-3.767829609637809440e-01
2.002961804880871305e-02,-1.661698016942659173e+00,-8.506190227364471834e-01
7.436685740660862187e-01,-1.703402150944603122e+00,4.395414812591803555e-01
-1.601344361038366415e+00,-4.059756501397862594e-01,9.841330492187768675e-01
-1.107726457320521662e+00,-1.104557336830543079e-01,1.532938060053528728e+00
-7.661671867034276495e-01,1.626823180343010655e+00,5.249426883755062834e-01
-1.685951461465930334e+00,8.542746496317361604e-01,1.436880332898926305e-01
-1.483321535507399203e+00,-5.020170488425416133e-01,-1.100922224721515574e+00
1.748854433569872135e+00,-7.573375183004947830e-01,2.480946465922958533e-01
5.520728148365746657e-01,-1.795310920952928990e+00,2.203032445802910466e-01
-6.552972283057574288e-01,-5.695932242719490279e-01,1.674140174287741978e+00
2.830514908614076286e-01,3.937472176592876627e-01,1.817972098156141803e+00
-1.442121673085806632e+00,1.034543175287365946e+00,-7.344314205148855246e-01
-2.290540123667882400e-01,6.890888806416203272e-01,1.760344089716949556e+00
-1.309676078796407683e+00,-6.422762532928122381e-01,1.213233171328117699e+00
-9.202649773540121370e-01,1.440957478635836564e+00,-8.258217266452687610e-01
8.265363860591770539e-06,-8.410711669197278306e-01,1.716502346425953451e+00
1.311882302239248954e+00,-1.349177745584630772e+00,2.177841312922307315e-01
-1.114844419928703000e-02,1.300648618287522096e+00,1.357542909642878159e+00
1.486868082365526034e+00,-1.016690792043470681e+00,5.705461616425296922e-01
4.668879510432795699e-01,-7.408905276199490020e-01,-1.675397291581287806e+00
-1.823149354525135157e+00,-5.405420763024409991e-01,1.415272406760527679e-01
1.019499591180613285e+00,-4.157892723244273059e-01,1.516739524256931260e+00
-1.476360817735046904e+00,3.496642378777544552e-02,-1.180137591256166241e+00
1.351999244370572173e+00,3.904561717414695154e-02,1.302527535649976809e+00
-6.110206915131016769e-01,7.327368041399569265e-02,-1.782891081436871028e+00
1.047722795585847910e+00,1.580002408536643754e+00,-2.116715601723446194e-01
-4.767423184434816524e-02,8.147202437574218026e-01,1.709366061779416635e+00
9.763872253651877386e-01,-9.101766521822777234e-01,-1.337920101239312265e+00
8.522577105863405889e-01,-7.466696654785419662e-01,1.499838512306864935e+00
-5.000574405946592860e-01,-7.360130257850591162e-01,1.668459626182555500e+00
-6.756746549696209803e-01,1.702337700697694300e+00,3.875787161925621782e-01
-3.809999475566908100e-01,-1.786488904266852806e+00,5.265666780915093659e-01
9.498195223351235672e-01,2.624814889526876360e-01,1.647587714444748164e+00
7.195357701560930463e-01,-5.078538182238588883e-01,-1.681730775855709403e+00
-5.937077095084799527e-01,-9.181467306294047726e-01,-1.508618814640546146e+00
1.815940404136207609e-01,-1.000833857520994075e+00,1.562199901791302636e+00
-1.705472365740865914e+00,-2.395482291905030037e-01,6.964846024852089368e-01
1.052867275787656265e+00,1.369220609269954370e+00,7.395425146788809911e-01
9.573993700220215786e-01,-2.718876652769389723e-01,1.646120319969917922e+00
4.814357411271006915e-01,6.251385873023478368e-01,1.735897226007723226e+00
1.300598744200669454e+00,-1.104358276420766449e+00,-8.505205062519421988e-01
1.815050023455902606e+00,-4.688356403900773572e-01,2.059947215292582123e-01
1.289135062842416968e+00,-5.397687318754860186e-01,1.274520749734986413e+00
-1.254794372663043485e-03,-5.974884391227309743e-01,-1.840071796987425179e+00
1.102526669380778035e+00,-1.210890980580681786e+00,9.889920038903867727e-01
-1.047652624634701768e+00,1.261756537699774139e+00,9.501765723162169941e-01
9.393076824925071788e-01,5.330670755320177090e-01,-1.576349152423930366e+00
1.260353784745045447e+00,3.070461164317545566e-01,1.399344153898309795e+00
1.344577200144133844e+00,1.313923440149450617e+00,-1.513292699235484484e-01
-1.474213871457827896e+00,9.750599503321538686e-01,-6.119380712243309706e-01
-2.838870532059208363e-01,1.406469624649597794e+00,-1.278019053845939945e+00
1.317809908344894643e+00,1.293186696966206473e+00,-3.766840095268527699e-01
6.546481942401072285e-02,-1.892959148652546775e+00,1.961907843912169200e-02
-1.501022137916898924e-01,-1.161025715504553579e+00,1.504956332145379383e+00
-1.435279200755076867e-01,1.756200484811941465e+00,-6.228313446097416550e-01
-4.946418681039722598e-01,1.386419856233228165e+00,-1.214579996863841327e+00
