-2.473684986850388512e+00,-4.861823545820104009e+00,-3.279390529137961585e-01
1.230429402774538827e+00,-4.876312606135122962e+00,2.194755263726138939e+00
-4.782091045396968276e+00,2.088855559557452501e+00,-1.945229799464240017e+00
-4.432937224405628207e+00,-2.698501579543592932e+00,-1.727071834149233709e+00
-1.242771288071191638e+00,-4.193879616984002467e+00,3.345764475107571023e+00
-1.168091413154254798e+00,4.811961551892773414e+00,-2.415389998556030982e+00
4.466940029733299511e+00,-1.932521326675819440e+00,2.247864435785310810e+00
5.037436820667429593e+00,-1.886388504737108507e+00,9.396343833512110777e-01
-2.827016224612339257e-01,4.202384651179526642e+00,3.568235320714024716e+00
1.474631412733424574e+00,2.770532244820880230e+00,-4.467265345070350335e+00
2.910326830355915995e+00,-4.652793849330200793e+00,-5.330856168971347397e-01
-6.232210032421534734e-02,-1.663340785636540753e+00,-5.314319228644549753e+00
-1.966183006456514226e+00,3.836033706019638778e+00,-3.483566947344834297e+00
-2.753634394205378921e+00,-4.071714069485499188e+00,-2.356112465858160920e+00
3.418792542133581414e+00,-6.362434929596281208e-01,4.207962211645495998e+00
-2.131700092249888101e+00,2.916044153383873017e+00,-4.047653152056271075e+00
-6.821577517164871818e-01,4.613636335244859943e+00,2.880307716011461405e+00
4.872187169359972536e+00,2.317625447780391035e+00,9.746292241183875937e-01
-5.311876951242843425e+00,-1.205576568579332486e+00,-3.346574478437811528e-01
3.132126553877604191e+00,-3.556686539203897546e+00,-3.051862893666058341e+00
-2.150419618777974495e+00,2.622323862686119611e+00,4.504359547733735702e+00
-5.090328717747073739e+00,-2.035215810061245634e+00,-1.230389756918556649e-01
3.150597185421615709e+00,4.600796436593209471e+00,-2.377648222366573472e-01
1.314058718358688704e+00,-4.239657145473015198e+00,3.264345772968066495e+00
4.210921402754447485e+00,2.983686601028643359e+00,-2.042789020723255966e+00
3.593036027335161808e+00,3.226410656089282014e+00,2.715816243557766629e+00
5.428450518581866113e+00,-6.586875491204949862e-01,3.746973082232477603e-01
1.868605836649586349e+00,1.088983778918663381e+00,5.091454370373334370e+00
-3.297857103844076043e+00,-1.406587343165681903e+00,-4.188203766812966578e+00
4.846033924263675630e+00,-2.605469436838498964e+00,2.482562879021501245e-01
-2.699973970521201583e+00,2.075261038300669547e+00,-4.387587749873430809e+00
2.476507758548619265e+00,-2.560853682953617927e+00,-4.092238947726575482e+00
-3.202490182793937823e+00,-3.377747765933300617e+00,2.955874678600979522e+00
-6.141423167010392481e-01,2.457663921843613153e+00,-4.829417057028097204e+00
-5.001805737653487682e+00,2.293556313342179909e+00,5.556083876393339560e-01
-2.657246384105263814e+00,-5.086907175844682799e-02,-4.700179081864283681e+00
2.741970069725239600e+00,4.544262049048695573e+00,1.010730720842545338e+00
3.929335413320851345e+00,5.501213805345441799e-01,-3.889309133803467322e+00
3.049722506467388516e+00,3.155645988776703881e+00,-3.206215967143991818e+00
4.221441326706298014e+00,-3.430982681633785170e+00,8.106881691194584016e-01
-1.083119535619250229e+00,5.366277229571529972e+00,-1.249526180016001936e-01
2.457135533839944763e+00,2.825919473365415602e+00,-3.969388918532389621e+00
-2.209198566528148278e-01,-5.178052987661135198e+00,-1.753798839237389107e+00
-2.623510350900838173e+00,-4.665973570900948886e+00,1.384957278928584667e+00
1.005227559308554675e-01,2.039081972867667680e+00,-5.132193449742958435e+00
6.638671730309966268e-01,-2.905705109043937306e-01,5.427304687676248740e+00
5.583847629702306747e+00,7.555660641705930214e-01,2.718087693544007921e-01
4.549046956145817333e+00,-2.996571165390935043e+00,9.231848441954209061e-01
-1.736501057620116084e+00,-4.211677547193473536e+00,3.101165307072925703e+00
-2.215568216599973717e+00,5.069090779359828325e+00,6.102431786484713988e-02
2.403934045223778071e+00,-4.623999287656415547e+00,-1.805002787538137810e+00
-4.329046590805771366e+00,-1.113704725896372372e+00,-3.316514222618925256e+00
5.369591015896720165e+00,1.214279324110340230e+00,-3.974695505444575949e-01
-2.762993152101839822e+00,-4.431135565066228743e+00,1.684025014267756193e+00
-6.537132083344623368e-01,-4.766066124552392758e+00,-2.866147078151650707e+00
-1.340012673125218878e+00,-3.292365720590317402e+00,4.106788487726810821e+00
-3.432457536095959494e+00,5.809580170834252044e-01,-4.305148852254618852e+00
-3.808741871891584641e+00,3.970576166700107823e+00,-4.399239046617997584e-01
-5.103519569826172386e+00,5.648874859102661627e-01,1.966436655319729221e+00
-3.801118026340647660e+00,-4.124300230045854221e+00,2.966522267920314038e-01
-3.326828696127029250e+00,2.763723101681928807e+00,-3.451998279370163569e+00
4.341461694355206014e+00,1.195894870570694657e+00,-3.246916568562548733e+00
3.171097748007908113e+00,-2.767113051498754750e+00,3.622103818569748945e+00
-2.423348688723360400e+00,4.277963525505008135e+00,2.511338097179790285e+00
2.512904656967485995e+00,3.472412277559433935e+00,-3.602731706821414637e+00
-3.043342521216082730e+00,-4.045583861506247381e+00,2.162424398325255126e+00
-5.025377269521531076e+00,-1.129353337315085692e+00,-1.878565770416392056e+00
2.543770419656511184e+00,-3.997805048086132462e+00,-2.877533328380556643e+00
3.605983643246827963e+00,-1.460857399920181487e+00,3.780082406044710464e+00
-7.737052920794965649e-01,-5.122709702134699228e+00,-1.920929858026013015e+00
1.857057591403298735e+00,5.121744222739176067e+00,-4.993174179171962490e-01
-6.822185153042013839e-02,-1.483701726563586121e+00,-5.296543067841245289e+00
2.065916742070209366e+00,5.068614231182006158e+00,5.751361583446800152e-01
-5.123761988013729507e+00,5.126126728925958220e-01,1.802385686993481784e+00
-4.281136798199233873e+00,-3.282278242254332401e+00,1.069031148621224725e+00
-5.422459090344910138e+00,1.162610879249877105e-01,-7.111956974162204903e-02
-4.012282272643021841e+00,-3.707053480270731338e+00,-2.748789626774961192e-01
9.144648757913089732e-01,4.985931194847653458e+00,2.094289293039123923e+00
-5.157488157519281025e+00,-3.373747728602654594e-01,-1.730172069605885543e+00
-3.227937695596393985e-01,-4.137198166713797143e+00,-3.700354835747750926e+00
4.436584479356174171e+00,-3.041415052232407934e+00,1.311110110221517910e+00
3.360543006453022841e+00,4.374967891588113389e+00,-1.677199569833512649e-01
3.195623718525411938e+00,4.113109160819877097e+00,-1.737789721185641678e+00
1.357611623733475215e+00,-2.710357689835437789e+00,-4.559934318141777965e+00
-1.433531540599761733e+00,3.528026474785198596e-01,5.318331355387337922e+00
2.308087613987234388e+00,3.233814871011207792e+00,3.778551122550938057e+00
-3.258394656034936943e-01,4.011040020871454281e+00,-3.754908874899979931e+00
5.254882197132925370e+00,-1.867531691798750559e+00,6.605672403376760746e-03
2.866894417581002941e+00,1.433816875960736370e+00,-4.452838901273350025e+00
2.534393200380860911e+00,4.766472292982593117e+00,-1.202484957826105205e+00
3.120081169081691197e+00,4.537837652865941429e+00,6.317257495657025990e-01
-3.889349389859501738e+00,2.175088827571984407e+00,-3.101653131956639164e+00
1.273570089595565946e+00,-5.388206662881307452e+00,2.111244585874805790e-01
2.079647631107135464e+00,2.416906474130852356e+00,-4.382629569859271434e+00
4.795730910699469440e+00,-8.420011557222226717e-01,-2.752341333777975851e+00
-5.337269101519299674e+00,-8.871650775758896934e-01,-1.120591733509180399e+00
3.736809408041709357e+00,-4.040735819011427310e+00,-5.925397045532804219e-01
2.286882468744273922e+00,-1.806746408914306823e+00,4.732515919845805108e+00
2.730986597243814984e+00,4.196866173713988069e+00,-2.193516085094240342e+00
3.348352869571529777e-01,2.240992943006709925e+00,-4.980104014975766269e+00
-2.334697737710736409e-01,4.620493587618735631e+00,3.107833194294105095e+00
-8.646261909813136581e-01,1.903280075988335485e+00,-4.945173449906055119e+00
3.242388957457739362e+00,-3.637812836321000276e+00,-2.564213520814267788e+00
2.443356241341522406e+00,-4.799202075121886679e+00,1.186662501529041513e+00
5.456990090640300828e+00,-7.515475586568383104e-01,9.157694109130897209e-01
-2.459112638744159085e+00,-4.949962752970630042e+00,5.647975393818378542e-01
1.916751867758676342e+00,5.000958895480299482e+00,-1.065508180341102396e+00
-3.247187977275029613e+00,3.728990700566387151e+00,2.476281955080522845e+00
3.136994323475039259e+00,-9.995031900031884353e-01,4.448486626459289717e+00
4.279580256441513519e+00,3.413016204853190683e+00,5.840140854310230667e-01
4.533628861045012393e+00,-7.315355507937171264e-01,3.031067075671257438e+00
-1.658120601548770612e+00,-3.835434016678720859e+00,3.570862827049557264e+00
1.076159393911705786e+00,5.241684270054134842e+00,-1.128807505821370905e+00
1.675247640955587425e+00,-1.976983245030161651e+00,-4.877302315930305276e+00
-5.168604251915419390e+00,1.706428612299938585e+00,7.152434274163756989e-01
-1.118105517026886542e+00,-6.087228538080786677e-01,-5.496678021444486362e+00
5.177742941866705362e-01,-3.398443036986920962e+00,4.327515603428821578e+00
-9.328289962089820753e-01,-2.459910525637448497e+00,-4.851890584887105007e+00
-2.232112182553590785e+00,-4.002367947378975721e+00,3.089746946958755736e+00
-3.317778726614062812e+00,-4.316460746056257847e+00,-4.478468408581544047e-01
-5.206233698177397784e+00,-6.293385225106914449e-01,1.885314096524898675e+00
-2.953642857396204136e+00,2.692258703593431779e+00,-3.685907235999440257e+00
-3.733089920665734418e+00,3.313027339240445901e+00,-2.074763183801743960e+00
1.911224656944731648e-01,4.970721326042983002e+00,-2.196070457867090209e+00
-1.867099770049538865e+00,4.555548327291006672e+00,2.343344689661329472e+00
2.381458332495922203e+00,1.471902452866097999e+00,-4.729030511261190561e+00
-1.561263686555951935e+00,-4.725228037913753454e+00,2.457199245853553204e+00
1.936856649552749277e+00,-4.959674085421341694e+00,-1.663489590134052287e+00
-2.721803656310569419e+00,-4.670734983852036670e+00,4.755852967721545532e-01
-1.496401277323732737e+00,-1.425640017660038561e+00,5.223461681494905307e+00
-2.417525509062909084e+00,2.425294111158592614e+00,4.384443892358826922e+00
-3.020584553417696494e+00,-4.218751715446305006e+00,-1.837433709406835369e+00
8.325167645692431728e-01,3.574729344569484546e+00,4.077078341143319129e+00
3.664545896350710485e+00,-4.067246918960367275e+00,-2.442227893705663511e-01
5.254391011820245261e+00,-5.862607563500829011e-01,-7.601557952523702033e-01
-5.160670710029785724e+00,7.286196904912717320e-01,1.806893490792477186e+00
-4.210293848832495023e+00,2.091714107000967271e+00,-2.832425950824321692e+00
1.443486204392365302e+00,-3.328371712266054772e+00,-4.177321542306024149e+00
-5.479776213937292084e+00,3.711616332296999166e-01,-2.759279248963292241e-02
1.222404189630091453e+00,-2.498360452279646093e+00,4.680050149306778984e+00
5.490569073848133641e+00,7.541731460296317857e-02,8.141892570336588530e-01
-2.415368447346344372e+00,1.689848254769533709e-01,-4.946993251990805085e+00
-3.836043912086307461e+00,-4.099350074098540575e-01,-3.867084653527189442e+00
5.242963785274730171e+00,1.567772419302171372e+00,9.587539056226235257e-01
-1.342404661202921679e+00,6.509640918589247871e-01,5.379215759422871557e+00
5.768205974222625487e-01,4.565298881766813643e+00,-3.055398133922731851e+00
-4.046232207875145592e-01,5.505940125771708438e+00,5.120430049684646656e-01
2.161855331583718343e+00,-1.620556351742777013e+00,4.578782535305698786e+00
4.212314747204263243e-01,3.924859447439392746e+00,-3.879306535910388209e+00
2.387682372349341886e+00,-7.193649942773183703e-01,4.925035016994888437e+00
2.182834966095056117e+00,4.720259076813058563e+00,-1.839914924913445216e+00
1.939471052453521027e+00,-5.044000775468957087e+00,-1.057016007899799881e+00
-3.513033626031639711e-01,1.671113585091387854e+00,5.266436742801881010e+00
-2.232771881962912985e+00,1.110063743693561200e+00,4.946601737163274670e+00
5.402322240718351765e+00,-1.595033455606260642e-01,8.585232280846375463e-01
-7.913857112779086878e-01,-3.175750638607749199e+00,4.547105836787266320e+00
-6.326932452344962154e-01,-3.838596712043389925e+00,3.788407448779258058e+00
-1.562007933418591232e+00,-5.277088170309735204e+00,-3.839180330474102343e-01
5.276843380642437076e+00,1.793505911549856391e+00,9.159839271271674743e-02
4.497896777944828450e+00,-2.951483845936496486e+00,1.030971593053619850e+00
-4.317953086141482544e+00,-2.776177436233095541e+00,1.797098988097757255e+00
-8.660650920358596849e-01,-2.430703603417898151e+00,-4.784457278296197380e+00
4.116643852152185978e+00,-3.195766469605055171e+00,-1.801095591323482292e+00
-1.369763572649206618e-01,5.384627973565492276e+00,-9.406801776088666855e-01
4.726096129549041791e+00,-1.579004227197418342e-01,2.780380288195766436e+00
-2.216941517485989444e+00,-3.429074446855751024e-02,-5.107842952223321298e+00
2.610885614500427554e+00,2.160223076746400572e+00,4.422968074802040128e+00
-3.777085715574771019e+00,-1.662375653986378321e+00,-3.681367863644236849e+00
-1.338234193820045048e+00,-5.288474156523100156e+00,-8.733673825716561923e-02
-4.999416701423802678e+00,2.000231753359682063e+00,-5.541969466280519674e-01
-5.310193932680335571e+00,1.451146082963500339e+00,5.626019727215738619e-01
-3.072871000357212168e+00,2.618646687541246187e+00,-3.801698055164289158e+00
1.255523846499444041e+00,-4.926458582143000697e+00,1.888265904244391669e+00
-1.812742568125162435e-01,-1.477320602903830826e+00,5.356644824238507852e+00
-4.736073194387992125e+00,6.686301869378094564e-02,2.824653494362680650e+00
-8.337207928896435138e-01,-3.545765004670016485e-02,-5.496432740163785802e+00
4.386714999617789879e+00,3.297245982050006852e+00,1.665924802697790197e-01
-2.873146192071348581e-01,3.122123037758499642e-01,-5.484772154816698553e+00
-1.510485162775744072e+00,4.254798723458424803e+00,-3.174265920814888897e+00
5.498260388665345173e-03,5.383789078078300427e+00,-1.028136116012257961e+00
-5.352573127779577611e+00,2.427218498765499333e-01,-1.245593640090839394e+00
4.520643793706334179e+00,9.762731480782886884e-01,2.879194348764761990e+00
-2.540081988549373726e+00,-1.887352772559297120e+00,-4.513128921377552061e+00
-1.018243506039698376e+00,4.974072085569338775e+00,2.326426932658808511e+00
4.403834710205758007e+00,-2.609653024878175298e+00,2.160126942402396111e+00
-4.939230397040571319e+00,8.976704219617194225e-01,-2.172302472903615556e+00
2.371601643373556723e+00,-4.241472956832486041e+00,2.540920743444816221e+00
-5.303685814326525305e-01,3.892474042876133744e+00,3.729045134787771776e+00
-4.206669477120559719e+00,-1.566436280463468167e+00,-3.049916886965236884e+00
-1.976438272691083409e+00,-4.879912219448105937e+00,1.489949761885790647e+00
-6.015918954492714965e-01,-5.446917384393522354e+00,6.974860083065907712e-02
4.717988831242806214e+00,1.120901903118162846e+00,-2.638286374141030954e+00
-5.445811584374594894e+00,-2.407344611372712606e-01,-9.636216403857948976e-01
4.616978530531191005e+00,2.720943916785451222e+00,-1.018834883722537610e+00
-2.331923275892701763e+00,4.997166367643470331e+00,2.132129724872499077e-01
4.698601465779454145e+00,1.898184837780805267e+00,-2.211742645737096780e+00
-2.779671945529961885e+00,-4.729705914931652266e+00,-3.062409273808903709e-01
-4.630543058400780509e+00,-1.247835904864579959e+00,-2.617106948918078935e+00
-1.863048947851639658e+00,3.833724110060908519e+00,3.529015691207800565e+00
1.015685877833558237e+00,4.858560458815730954e+00,2.417822876063659976e+00
1.440533431063618863e+00,-5.244858940658099655e+00,-1.227420933800289049e+00
3.190472316071573111e+00,-3.387272621973414388e+00,-3.013847270847761717e+00
-4.772641486541676414e+00,-2.259724629246961047e+00,1.720332123660566870e+00
5.037677429043230681e+00,2.106609012480146426e+00,-5.611634413257585857e-02
4.374529516017260783e-02,4.008653901293668831e+00,3.676855822699969245e+00
4.430310029786099335e+00,-2.428882206681465927e+00,-1.964340302470521493e+00
-2.747985249612079350e+00,1.764404289506262602e+00,-4.480982143384363070e+00
-3.992160415376383664e+00,-3.573089375764556763e+00,1.383079506294295102e+00
-4.164925460128085033e-04,3.618260791934646114e+00,4.149598161306638389e+00
-1.609079609498165864e+00,-4.138533351703315155e+00,-3.304777720393453411e+00
3.698455299378816119e-01,5.175667476914722620e+00,1.796951086431833655e+00
-6.381836988393350119e-01,2.202690207766709651e+00,4.984468843440959418e+00
3.838178187661458907e+00,2.536726047152619401e+00,-3.123849521665609696e+00
-1.646612385872304962e+00,2.847536241262127898e+00,4.370977656424015478e+00
4.463239274344798169e+00,4.580545624823214590e-01,3.217621424388751095e+00
-7.130538980224275791e-01,1.755524910728354815e+00,-5.208019251754310908e+00
-9.071854636615692691e-01,-2.236786198552701332e+00,4.929419302416059523e+00
5.400267214454493647e+00,-6.802559932458157599e-01,5.282227934183689744e-01
2.461071070319340581e+00,-2.260799789548589622e+00,4.381457726157431232e+00
-4.359570234577359038e-01,-3.829344782149537885e+00,3.846050560353072800e+00
-3.765328931603692642e+00,-1.689180059581242066e+00,3.668558161886030344e+00
1.472027646803481193e+00,3.092361705851742748e+00,4.349850490303052375e+00
4.762578171648222281e+00,-2.421522038167571722e+00,7.008862586737736322e-01
-1.647403043493098629e+00,4.738692947519576038e+00,2.330693895516350089e+00
-5.312443507933071629e+00,-6.930950562068004528e-01,-1.396256371495644411e+00
2.211559802104568817e+00,-5.957358461361754731e-01,4.995273899338848800e+00
-4.451164592261223518e+00,-2.263288458039659723e+00,2.485627158459121855e+00
9.302723131905680232e-01,2.783481434856904801e+00,4.627210171893293200e+00
-4.282700014417469170e+00,1.835068562844103690e+00,2.961670205794042499e+00
-4.248472387834911324e+00,3.384781353246104185e+00,1.180371056845205269e+00
1.214588393177177483e+00,-1.596339089904023734e+00,5.116125217289656746e+00
5.225787937705794306e+00,8.190829664078274064e-01,1.102903996419395627e+00
-2.484083775687638607e+00,8.543450298926384689e-03,-4.919246154684858929e+00
1.950105148315856241e+00,1.560080470141079534e+00,4.869245244330262068e+00
-2.903960954089748192e+00,4.579512359238383290e+00,-9.284729522259655976e-01
-5.310150023026658950e+00,-9.706647799206796767e-01,1.162008568838080125e+00
-4.473943459957807178e+00,-4.257515153615173964e-01,-3.160938168648511404e+00
3.130719853860227886e+00,2.071696244495386807e+00,-4.076832584160490214e+00
-2.977676124509410993e+00,2.703451677133686282e+00,-3.878324771816220817e+00
3.589778383245648019e+00,1.497959763714538983e+00,-3.861837593414563674e+00
3.203288536415850096e+00,-2.208685006433395603e+00,4.037266142399844604e+00
-4.008683595865269567e+00,3.168815256548634718e+00,-1.730569997268058602e+00
3.559458045047297681e+00,4.171643230288026416e+00,1.386957302011639914e-01
-1.877332967616862858e+00,2.900969753550358021e+00,4.197062431675901983e+00
-3.979293652519585306e-02,-3.142540647713119917e+00,-4.505822660994754258e+00
3.749915322936582252e-01,3.299295708497263391e+00,-4.369604104370335307e+00
-3.434802988418566017e+00,9.287809639013683283e-01,4.169790199103881712e+00
5.063817726950295750e+00,-2.029710271926587595e+00,2.796006931370709214e-01
-4.523254116111716350e+00,1.328884246737056296e+00,-2.974385821923285267e+00
2.436081248349452721e+00,1.444043145475391476e+00,-4.629811286440632223e+00
4.405791877765494885e-02,-4.800263683524622849e+00,2.821485767856855453e+00
-1.443380924663087317e+00,-1.007760403543991748e-03,-5.221648499222248496e+00
3.521323126996581454e+00,3.533733318879851648e+00,2.502002388914627229e+00
-4.589321402582326570e+00,-2.730042202769491944e+00,-1.404746871299831668e+00
4.820382484113307164e+00,2.285067710032964161e+00,-1.217631692874971749e+00
1.540750535562877277e-01,4.545771333152345939e+00,3.335454747938647380e+00
-3.570654456060967874e+00,-1.768372612896666807e+00,3.798330907869053252e+00
-3.811323488682368144e+00,-3.591128315719057884e+00,-1.838768918424153576e+00
-2.307941577608702666e+00,-4.503996530335173887e+00,2.059072512976380498e+00
4.492111380130652698e+00,3.062047889337647710e+00,2.414281978448291066e-01
5.128934987706169402e+00,-1.540897526951339858e+00,-1.082493330778813823e+00
-3.553940379570771579e+00,1.708570406151440180e+00,-3.828417599703755059e+00
5.026606155598535963e+00,-2.197765847350432900e+00,1.643066949689419853e-01
3.994759676269109772e+00,-2.355967065542548422e+00,-3.088319377612324335e+00
-1.636620841069322541e-01,1.851502681996820110e+00,5.149182227644682364e+00
5.328168275112748375e+00,2.946610522695160550e-01,1.083118128354517928e+00
1.110074573172014523e+00,5.304477869592155947e+00,-5.310994519187108853e-01
-5.404023828689664022e+00,8.594123401439839327e-01,4.618826007542961576e-01
-4.474828800087010450e+00,1.382778486493239312e+00,-2.989739132223052209e+00
-5.554792172916290127e+00,-6.352662178043156915e-01,9.203181212614911511e-01
-3.202314111023274901e+00,-1.350100329396519916e+00,-4.354253604876619832e+00
5.394599897235566210e+00,3.616951264439951519e-01,9.802742134992419309e-01
5.108285622716160823e+00,-4.371957683234414804e-01,2.351249583001308707e+00
-1.092279868724837844e+00,5.066405374070710899e+00,-2.246299791498993503e+00
-1.006214048787664961e+00,1.288685234108260191e+00,5.286474474808985136e+00
5.329803538826333842e+00,-1.180323218455683998e+00,4.589854149728209154e-02
4.753823839604751633e+00,-2.750142757159658835e+00,6.148002715332898660e-01
1.052030463881572953e+00,-3.693385284952971581e+00,-3.909914533124680958e+00
-2.833478871962987089e+00,2.657359629543239343e+00,-3.827920169054251254e+00
1.639245897200633628e+00,-4.029668932155993644e-01,5.209967048607349049e+00
6.679845363315874140e-02,-2.687213743735775484e+00,4.846940095692365169e+00
-5.150798587873379297e+00,-1.762859713923159433e+00,-1.007264131654481698e+00
4.213877120157372147e+00,3.414640882849706127e+00,1.077595328278460496e+00
-9.316501723927776979e-01,3.795250178101224670e+00,3.961440904452858014e+00
-3.151467360183890065e+00,4.241375617804817644e+00,1.424853617984875642e+00
3.740719260194470763e+00,-3.984586641104082005e+00,1.667593163855275173e-01
-5.789873375422749380e-01,3.248196764509843071e+00,-4.472402122918432532e+00
-5.535915938343451970e+00,-5.623969322708313179e-01,-6.975668167130105735e-02
-3.416462642504868530e+00,4.231396619001378312e+00,-7.605287371005666763e-01
3.262706020492736059e+00,4.305557516527238171e+00,1.299692307601418184e+00
4.198487157287273064e+00,-1.000408237314978965e+00,3.418927157537325012e+00
2.987469270427059453e-01,-5.233113368430318602e+00,1.801441234938082614e+00
4.606261085145266776e+00,-4.553635000384476106e-01,3.033259234938032733e+00
-2.626920778218088115e-01,-2.896247831549817242e+00,4.755472239101142584e+00
4.720489997782768121e+00,-1.588188647014215027e+00,-2.185821894181292357e+00
-2.546310512932483228e+00,-3.287387822077969535e+00,-3.533278383981202531e+00
1.219987112358547954e+00,-5.268629850226298039e+00,-9.272203792076834095e-01
8.999878098082328970e-01,-4.256889006291885380e+00,3.452353380463520249e+00
-3.781910948399431316e+00,1.792779838886768617e+00,-3.569820392357813343e+00
-9.885799723629257185e-01,5.183019818920858723e-01,-5.362373840535319403e+00
6.709073640810622186e-01,-8.196564977520430784e-01,5.431234564026536482e+00
-1.215293438386773617e-01,4.983511266806388562e+00,-2.402320791606851191e+00
3.345991564342420510e+00,2.945189058028514939e+00,-3.256481688412503406e+00
4.094272161653519149e+00,-2.737904479205389485e+00,-2.476450502185722158e+00
-3.012889589677268720e+00,2.399830314084496763e+00,3.892567449556353143e+00
8.158112454309339734e-01,7.261129073281223922e-01,5.451925898793530401e+00
-3.735195592187730895e+00,1.459021032017949748e+00,-3.851202392360797422e+00
-4.054149441972828782e+00,-2.628471384972448810e+00,2.789243948095336822e+00
-6.941034183691147108e-01,4.542847872986809143e+00,-3.112526234061290697e+00
-2.673506310672940867e+00,4.837602947562991695e-01,4.907500357618785003e+00
-3.840000976525166809e+00,3.856282235946394632e+00,1.137090698489335638e+00
-4.826920484632433173e+00,-1.763449380033428548e+00,2.184753491099353351e+00
5.098362250029130571e+00,1.938769435030014865e+00,7.413138712157733012e-01
1.047137300188698772e+00,1.462949532472662684e+00,-5.193920756573954911e+00
4.788307791945725533e+00,8.891064998020216104e-01,-2.708195158611863107e+00
2.086664412857171857e+00,4.547411380520832935e+00,2.524497368843151346e+00
-1.393175276992290712e+00,-3.867988479186672546e+00,3.633553020112649801e+00
2.275309889451818002e+00,-4.417251747766704484e-01,-5.038919353834256931e+00
-3.290933891049802718e+00,5.188268925231933615e-01,4.297356837391471451e+00
1.218976329291491106e-01,4.962760427610064085e+00,-2.460649852749158040e+00
-1.898227861750232170e+00,5.173227298215844705e+00,-7.058404639967237326e-01
1.820905267870265742e+00,-5.075638442908530834e+00,-1.174599788398065892e+00
3.165095267261789136e+00,-4.208048428423567522e+00,-1.888318413231646620e+00
5.342623937532701817e+00,1.377616860694040435e+00,5.613245528914748705e-01
-5.014913259316599259e+00,-1.688419631828446121e+00,1.670402831399528720e+00
-3.437673315124691875e+00,-2.232064819375994436e+00,3.648187876311760114e+00
-7.349866084834248969e-01,2.796239929955846026e+00,4.796125569865345106e+00
4.370420585835826266e+00,8.038208548182443902e-01,-3.343031778147393052e+00
5.076105367313942018e+00,-1.002752837762853844e+00,-1.987041103730341929e+00
-7.312542146508175245e-01,3.455583809406579832e+00,-4.102201183965400233e+00
-5.309114354999840302e+00,1.446413600728729154e+00,3.808466789905403660e-01
4.404842963606030892e+00,-3.356825098925112272e+00,-3.206886556939664290e-01
3.143289057160435718e+00,-4.380342348814097342e+00,-1.244886635958157184e+00
1.229804078206598282e-02,-3.726286444412881593e+00,4.024523450002681635e+00
4.135370529251506611e+00,5.196010465752658458e-01,3.468108463171025946e+00
1.130443930770680616e+00,3.732263377186221920e+00,-3.863443032041698810e+00
-9.518655879725982372e-01,-4.794113805135619688e-01,-5.303429270419642627e+00
-4.856793715968136915e+00,-2.088002726943675391e+00,1.248072217461072109e+00
-4.405607041271625945e+00,1.906322230779551763e+00,2.658158450345276869e+00
9.382398235841806766e-01,-2.376536710912370509e+00,-4.829381588497676070e+00
3.447052202745167993e+00,-3.810674809453845402e+00,-1.760465733251395548e+00
-3.207390766808396076e+00,8.017096495584319360e-01,4.296467964097387515e+00
-4.953730373875571580e+00,-2.179465681201216753e+00,-8.978625610590051931e-01
3.758707357698378715e+00,-3.855252771402583711e+00,-1.170824958683986727e+00
-3.421405847558754321e+00,-1.233827078759951457e+00,4.097713981797259208e+00
-1.317073645753379596e+00,-2.916580134024617355e+00,4.555945182048085407e+00
1.609839086026873423e+00,4.703545959990503178e+00,-2.285577328140321551e+00
3.431683566032776689e+00,4.017837260713962522e+00,-1.711046078601615728e+00
2.680845094885797586e+00,-3.243123516464506029e+00,3.844213891868522026e+00
2.869502743625996555e+00,-2.688170476874963022e+00,3.900300177037743232e+00
-4.847666719464335472e+00,1.911555659591972933e+00,-2.058549739603426243e+00
-3.414574975680919611e+00,-1.740461412075615444e+00,3.982487207663899298e+00
3.746847146254572269e+00,5.709202586942102586e-02,-4.141105809546526295e+00
1.941569224951752215e+00,-2.285195589423284268e+00,4.544781589385195275e+00
-4.245152502083100465e+00,-3.008662969822186284e+00,1.603365903151779515e+00
-3.989852343318767591e+00,-3.608732902309744972e+00,-9.938673201527981060e-01
1.926766005790454539e+00,1.299549253521156356e+00,-5.009970589992957635e+00
-3.541679913099439414e+00,-2.633517431570803424e+00,3.282314556020507812e+00
-1.465601186685125956e+00,4.210731271281536792e+00,3.279005529872194735e+00
-4.825685660089611972e-01,5.479774755599088110e+00,5.784041593636748413e-01
4.050939223937894518e+00,-3.708444774909299024e+00,6.196000611500120936e-01
-1.350075058395794336e-01,-3.214668124258061699e+00,4.582545625803580158e+00
-5.289788048795061925e+00,1.221503512327948293e+00,5.964119059884019913e-01
2.641079128866667958e+00,4.614322213063523748e+00,1.450139916795707196e+00
-1.102478679855145582e-01,-3.567382548886552485e+00,4.111537792747231634e+00
1.809631569165849330e+00,3.911433844432811391e+00,-3.431200640826106429e+00
-1.818167332995851204e+00,2.338531635463932279e+00,4.627756129086021630e+00
-2.906266176302173765e+00,-4.440844453124353386e+00,1.650946635009564734e+00
-3.772539564990970984e+00,3.806859585966436921e+00,-1.606926021698989571e+00
-2.339752745052382732e+00,-2.742875779680476356e+00,-4.090784044492705718e+00
-1.359405180443805206e+00,-4.849088391997393721e+00,-2.306104293145233353e+00
4.239008377124545035e+00,2.503188998919676944e+00,2.353258993576690994e+00
-3.841491194360654671e+00,-2.857477740516654929e+00,-2.567718655647414749e+00
-4.366346724006097801e+00,1.845909520671753068e+00,2.791678165884260210e+00
-1.860149498118068179e+00,-1.070355614241461084e-01,5.126107858229511649e+00
8.739904645465036703e-02,-2.618629614098496372e+00,4.974588328270426629e+00
3.740698224586172405e+00,-2.373409056294703223e+00,-3.320311169249089644e+00
-1.543688147697855895e+00,4.584558909065328258e+00,2.817027255730246260e+00
-1.278489538017943294e+00,-2.085229509538812032e+00,-4.829099689976337650e+00
-3.427595826861075778e+00,3.728896885939470440e+00,2.264389227884191058e+00
-3.757033722346347471e+00,2.745583949840459947e+00,-2.876084735466700071e+00
5.494903876477103211e+00,2.206137170146900417e-01,2.358484536983479485e-01
2.475623505035210670e+00,-4.573196716641503734e+00,1.738224668071424173e+00
-3.881678608029357491e+00,3.202513373215066128e+00,2.093037641215581335e+00
4.081050197212943154e-01,1.164486324846642162e+00,5.325678896290911624e+00
-3.419870407854152194e+00,-1.328812226028176058e+00,-4.105488802954156746e+00
-3.507579974411936696e+00,3.861206925060434170e+00,1.533976101677514636e+00
1.283450239047188690e+00,-2.824184549254233900e+00,-4.621505418251726560e+00
3.834862930192989960e+00,-3.940538477395466366e+00,2.435706584375469941e-01
-5.423428811466597388e+00,4.640867209718880226e-01,-1.115552263563184265e+00
-6.402427020762885279e-01,1.813204793152067618e+00,-5.185244914960800422e+00
-2.967695159824359941e+00,2.243672395197291447e+00,-4.150553114555100009e+00
4.106057909493212144e+00,-3.742617552050731433e+00,3.115949880096908764e-01
-4.683620372455098213e+00,-2.999504002414523640e+00,5.150637558529512772e-01
3.056763557647846241e+00,-4.559910782200115698e+00,-8.981968434718933247e-01
-6.297674377578937888e-01,-1.414463816692898224e+00,5.219328312462910624e+00
3.112740488253002979e+00,-3.936898894452597109e+00,-2.438803324194515287e+00
-2.123395710084117483e-01,5.277192073638555136e+00,-1.882889208826729277e+00
6.154887930602614965e-01,-5.266375841976577377e+00,1.363692550916884905e+00
4.229984655624869916e+00,-2.139760359684045099e+00,-2.834371299069820438e+00
-4.783971817068957577e+00,-1.166765584067267714e+00,-2.556519291411112782e+00
8.266270598995624219e-01,-4.159156793240809336e+00,-3.633408714120518468e+00
1.267542206216569545e+00,1.058868476031146422e+00,-5.129824828153964233e+00
5.123939126277210931e+00,5.855325026839417607e-02,2.092958260988407648e+00
-4.789047872214427848e+00,9.261227525611466227e-01,2.762626924410598761e+00
-1.705490403793492038e-01,-2.808655939255354728e+00,4.694083496447148285e+00
3.818401168197813611e+00,-2.684524171259164316e+00,2.916376428929336129e+00
2.544648226722283635e+00,-1.763885839596269989e+00,-4.570688698915126302e+00
-4.221035637161441478e+00,3.057499639513376888e+00,-1.733757713639394682e+00
3.317261761960772493e+00,-4.372855172446935335e+00,-9.186102269432415701e-01
-4.367852519213166751e+00,-1.951880185494657027e+00,-2.787758604089979553e+00
7.266544687962513960e-01,-4.634460563329192873e+00,-2.700985433925240375e+00
2.826230148383215290e+00,-6.330482253705878026e-01,4.667877611791238834e+00
-2.037271486565715772e+00,-3.805288725141557027e+00,-3.409995378569129709e+00
-3.422007303746670281e-01,-4.480227290063536039e+00,3.308999039526630881e+00
6.180759926950429861e-01,-4.162444783702976103e+00,-3.486453019453411795e+00
-1.090446384508757083e+00,-1.977325419180613331e+00,-5.027829427240648741e+00
1.861004549626376348e-01,-3.666923126727546389e+00,-4.109233408097556328e+00
-1.948505156166199237e+00,-2.827524833703429330e+00,-4.330329031389878125e+00
-2.788449648691800675e+00,4.632106334650333501e+00,-3.651513170983428647e-01
-4.309020783909554453e+00,3.219316630842064431e+00,-1.142935273731314538e+00
-4.701008230067373894e+00,2.934932278755270296e+00,-3.871768961779331608e-01
-4.510890554489281890e+00,-2.524746984181351017e+00,1.834008675066610916e+00
2.082123720743985995e+00,5.066319337918919530e+00,1.713704668161962208e-01
3.853192487645263231e+00,-3.891318963919469631e+00,-1.821648906611040564e-01
2.360055162676403029e+00,-4.913615057707730216e+00,2.680162433639319275e-01
-3.706831025167869775e+00,3.885951937613589369e+00,-9.488534119536673472e-01
3.837009037404811806e+00,2.527872332979232084e+00,3.045159474163520397e+00
-3.694088231631281083e+00,3.746137247407402171e+00,1.682921617731349073e+00
2.288219930605105201e+00,-4.910640927199792394e+00,-1.198437489143259427e+00
5.506629337114368639e+00,2.879139660805914436e-01,-8.375000665412671852e-01
2.342067089763756549e+00,-3.071404181626987029e+00,3.856074529311607879e+00
-3.173974844405350382e+00,-2.569322598947274550e+00,3.766789888193398106e+00
6.298405573009092651e-01,2.344678546382870543e+00,-4.975618165764039702e+00
-3.320357308707442723e+00,4.279402849803229714e+00,9.619737448435878857e-01
-1.723014224562545160e-01,-1.136235160911786890e+00,-5.426900160295121900e+00
-3.979806913925267864e+00,-1.495282967934191243e+00,-3.553491176489017800e+00
-1.330604662363933377e+00,5.119070258531433382e+00,1.450853779181347392e+00
1.572827649405958317e+00,3.614411393169910891e+00,-3.798343308438140831e+00
5.172588130277839369e+00,-1.808571167336672003e+00,-1.651133259804740405e-01
1.494373310722376891e+00,4.987358481800921339e+00,1.806386146921090452e+00
5.460864589624308429e+00,1.671135242957487166e-01,6.965856719785644691e-01
-3.319574014145011187e+00,3.834278969771034884e+00,-2.024065097932223445e+00
5.141424394844130497e+00,1.474995363876693277e+00,-1.288871940916603620e+00
4.282394636711392977e+00,-5.047011815422712822e-01,-3.451053603792588298e+00
5.247116059814072919e+00,-1.569020464676604831e+00,2.102146693551191214e-01
-4.852594436301044034e+00,2.130154271933596188e+00,1.814122973523260463e+00
3.242457868959994910e-02,-4.224018636561658546e+00,-3.737202635168487941e+00
-2.552116869590011827e+00,3.431873172269751748e+00,-3.583104982950110706e+00
-4.705106550766535278e+00,-2.856162390860057965e+00,4.077683612848551076e-01
2.546547024093698042e+00,2.504468487178646452e+00,-4.268508205476258865e+00
4.912755947798966183e+00,1.807347338293274319e+00,-1.690552876590411646e+00
2.406912523134082438e+00,-4.317471549020805099e+00,-2.550865540027979605e+00
-1.750545755827575212e+00,-5.298993538207561471e+00,4.433976270619764959e-01
-5.479897692112938756e+00,2.361006584267171804e-01,-4.044990708213850872e-01
-2.459311315512402896e+00,4.837962310251668896e+00,-1.123193850379550218e+00
1.219992650286313873e+00,3.967924627248836877e+00,-3.643476979553716966e+00
3.655152484201369845e+00,-8.295462556489037187e-01,-4.032644778748800896e+00
-8.526956362457511762e-01,5.136748093026472617e+00,-1.417781264612504311e+00
-2.159581842258599504e+00,4.819074130851914717e+00,-1.380400638075957920e+00
-1.677882496206064555e+00,3.942768715418197623e+00,3.407373184878756511e+00
1.828363480726611145e+00,8.125386507238716027e-02,5.113245629945009085e+00
-2.068435662653882900e+00,-4.700161068764368899e+00,-2.097909976976978896e+00
-5.146425294004369766e-01,4.197241473659111044e+00,-3.411762954273195980e+00
4.473034006544705510e-01,5.294062075991875282e+00,-1.193432329986075846e+00
-1.014100789910157063e+00,5.400358792534818875e+00,8.177073332973033848e-01
6.471210974614889366e-01,2.514363741189234336e+00,4.899418830443470263e+00
-4.851192790461023918e+00,-2.243315963003249980e+00,1.191052607771763361e+00
4.155391069771208201e-01,2.122067991152942312e+00,-5.028510303036191509e+00
3.009131435505716379e+00,-1.244108583713108951e+00,4.435687668096542247e+00
1.501451176434692059e+00,-4.381728192652824205e+00,-3.181183376832281251e+00
-3.197432215916006015e+00,1.053470780669195195e+00,4.414842730901232137e+00
-3.529991633557004516e+00,-3.781933275438298381e+00,-2.134053761391267123e+00
-2.527838367614484438e-01,-4.948231816361939650e+00,2.321356289614146640e+00
-1.633294038686961658e+00,-5.274936901259052568e+00,-5.779082959518178075e-01
4.602740331431415477e+00,-2.911292251218249721e-02,2.921214485898903757e+00
-4.593274795567251489e-01,5.507039566975390876e+00,2.594067866550569534e-01
3.042742176725305558e+00,1.145678606192576110e-01,4.556194707717955872e+00
1.988464723748626595e+00,4.455729652489607062e+00,-2.614005344474349180e+00
-2.239231916481424278e+00,-1.340606611909322732e+00,4.890840198239526870e+00
5.032188459720631890e+00,2.445764502848354560e+00,-3.110863318973425273e-01
-2.939540249848737297e+00,-2.390256724661261156e+00,-4.045340094395320385e+00
-1.662055437065033114e+00,5.192941678666516125e+00,-6.136885589841182265e-01
3.665084344026672269e+00,-3.483487779888219560e+00,-2.292967806763722916e+00
5.077818444046374724e-01,-1.999888065915812030e+00,5.065584743293579884e+00
3.583859439618614751e+00,-1.909631647718288860e+00,3.706984921363826402e+00
9.682081165635516573e-01,-1.321227110217991774e+00,-5.237393468867363566e+00
1.860463145252667205e+00,-4.933053713678009267e+00,1.597397877231569119e+00
-4.743713226994278109e+00,2.676892727062318844e+00,8.124818627857850473e-01
-4.060425457542679695e+00,3.755834805452245018e+00,6.227259949684491591e-01
-4.866018435077371862e+00,1.598984856294318302e+00,1.982273706153310222e+00
2.976588268018137695e-01,-4.138278796905933810e+00,-3.524330922313698267e+00
1.421162446072901764e+00,5.266270146144222508e+00,-1.205407096606044171e+00
-4.297996913976070310e+00,3.258070848204444037e-01,3.390835976555830911e+00
-3.026966938879897651e+00,3.042141810626955323e+00,-3.398052163457562003e+00
2.619540200104045979e+00,3.868329873679648312e+00,3.036063907915763416e+00
1.415782985031951879e+00,4.717518963831147438e+00,-2.451370761373516061e+00
1.150097510242283683e+00,2.115025486044686875e+00,4.960838465210092529e+00
5.141812917772229596e+00,6.862959489192397289e-01,-1.571797082947020918e+00
-4.089209855978932495e+00,-1.168456280712472761e+00,3.532770625963487898e+00
