2.322424266618120292e+00,3.540114706826368529e+00,-3.549665637801241225e+00
-2.170727629443106821e+00,3.169993217845410438e+00,-4.002006959937965291e+00
4.834596074660456821e+00,3.663818507452239470e-01,2.862833563291335093e+00
4.643326929475785292e+00,2.644064709774575750e+00,-1.423869779596091067e+00
-1.085116593602476032e+00,5.024114916102823791e+00,-2.140213376629422015e+00
2.272823276275981463e+00,-3.324514102574184449e+00,3.848176018753281635e+00
-4.803049481048540237e+00,-5.745272114000900265e-02,-2.511136237311858199e+00
-4.370088226191555236e+00,-1.295288615394775356e+00,-3.114942175808547375e+00
-2.347871364490482282e+00,5.515858358315681720e-01,5.033011453104136557e+00
1.718958384358408198e+00,-5.228641004455407248e+00,4.174658523381269415e-01
-1.646800165604046740e+00,2.493534476420362633e-01,-5.320027545658018830e+00
3.654013209017904718e+00,-2.781104010846191077e+00,-3.257897367310363723e+00
3.634291931957208899e+00,-3.126796656675000285e+00,2.900419839121648913e+00
3.846566219866749847e+00,1.931306322364405359e+00,-3.441722641536011817e+00
-5.367170877930358408e+00,1.243122241771761116e+00,-3.298483544961264835e-01
4.177083858886473600e+00,-2.970696418409987771e+00,1.952047406634434434e+00
-1.605813877047197913e+00,1.087335259432147816e-01,5.303108083379916238e+00
-4.460181092207424314e+00,-3.220955154391212272e+00,6.769553051878285377e-01
4.318596048544449673e+00,3.366035440456658812e+00,6.792301746610769353e-01
-1.924656285776944475e-01,-2.126964394588640062e+00,-5.283714637571939043e+00
-1.476502894313438841e+00,3.015781093348541830e+00,4.606523534622553484e+00
4.047469436264533371e+00,3.788100734043211126e+00,-6.094701216566136143e-02
-2.449626036343323765e+00,-4.182481495686015904e+00,2.889121873735625901e+00
-2.974062038218212578e+00,3.542761722978984285e+00,-3.103922458444727361e+00
-1.983091469078301916e+00,-5.228258286506875407e+00,4.722434079446062305e-01
-4.685388804749460512e+00,-1.750545584595851967e+00,2.521636328543471084e+00
-4.348489179521499715e+00,-2.498725866545791874e+00,-2.357013195808572714e+00
-4.853797495597481415e+00,1.885233827605202084e+00,2.040969964805276149e+00
5.355611834259997650e+00,-3.053341661233925919e-01,-1.514456918196635415e+00
-3.732243169320573539e+00,-1.308991098544544762e+00,-3.919652863817096211e+00
4.873739900511169232e+00,-2.472099115209954068e+00,1.291081232213789454e+00
9.518326146423324863e-01,-2.949238153943449348e+00,-4.526172401656320510e+00
6.273863444418728008e-01,5.471436644797854854e+00,-8.638436686484263216e-01
3.562926493656936255e+00,-4.140622018063434773e+00,7.488804792840589863e-01
3.331010588969745445e+00,2.097098172607261279e+00,3.971391231428035518e+00
5.146280505901875912e+00,-1.676222957645778555e+00,-7.125938952378157998e-01
-2.965571717751433134e+00,-3.072009316411679514e+00,3.406714222075874154e+00
-4.307237580439104985e-01,-5.145551959005349119e+00,-2.211627665355015981e+00
-3.346869334537576068e-01,-5.447728161839085814e+00,6.355809594780820193e-01
-3.592902567108957168e+00,-1.704353810305677952e-01,-4.240539707337830144e+00
6.612048128004979208e-01,-2.079778009134829908e+00,5.088017863144224329e+00
6.382232394194611302e-01,-5.472412540393007951e+00,2.916906943045384781e-01
1.570326932090081451e+00,1.445395333731769982e+00,-5.103486362214533223e+00
1.289521567380115696e+00,4.698113607310480333e+00,-2.741348702584434527e+00
3.239552285128494358e+00,-4.548462811218036528e+00,2.502364180178290667e-02
-4.097205679119947597e+00,3.467071259809340056e+00,1.355692629828467055e+00
-4.463136155813114847e+00,-3.344231957822942469e+00,-1.194282031501613384e+00
-3.936762995618647842e+00,-4.903656262257395926e-01,-3.932409966293443304e+00
-5.461998621776255058e-01,5.145554260359025633e+00,-2.066221219106290530e+00
1.412788786744910929e+00,-1.167131540551134217e+00,5.284759568242039407e+00
-4.179151671935689150e-01,-3.453889132684344609e-01,-5.549671273141664862e+00
5.547601292860372624e+00,7.309025796336227065e-01,-5.975830759521594260e-01
-3.876533825311363923e+00,-3.902318263901540796e+00,-9.406863332338851746e-01
1.186200848014739018e+00,4.866967352546714309e+00,-2.382884422470319397e+00
2.619663848673013273e+00,7.315788850612096050e-01,-4.965380222027713231e+00
-1.557996415136479129e+00,5.160134351460587077e+00,-1.049205855458567038e+00
5.444662051538981196e+00,-1.274803385110010900e+00,2.526393157862275585e-01
3.007915963924724601e+00,-7.264743175021169674e-02,4.699811505773954678e+00
2.550327204786513313e+00,3.957119825170289484e+00,2.956226920993830110e+00
2.883569839835565141e+00,4.359497048749375381e+00,-2.219385374569228020e+00
4.697559083079763553e+00,-1.813522912121313668e+00,2.438306108053491350e+00
-1.200586145252618975e+00,-5.254641631231641519e+00,-1.565783420961122774e+00
-4.691934829949062191e+00,2.019394054519377590e+00,-2.328923297624793332e+00
-2.069854945301690882e-02,1.006330645730391327e+00,5.490277919965071085e+00
3.226064487938653524e-01,-5.568100723973660848e+00,9.692215925415954558e-01
1.064008533929420075e+00,5.164673239885073208e+00,-1.780666930308663076e+00
5.122798301177208025e+00,2.113667575612639737e+00,1.213929387739155069e-01
1.595255073235580523e-01,-1.460460377758085793e+00,-5.408927800771957450e+00
-5.187558074041318967e+00,1.246016566538103998e+00,-1.270994066473782214e+00
2.099356901384450858e+00,1.617574040090251852e+00,-4.917711731761467142e+00
-1.315661239502845525e+00,-3.881458569250775259e+00,3.714462518916585854e+00
3.638464253206529442e+00,-2.852941457465306030e+00,-3.090738943922274107e+00
-2.185901107944381749e+00,-3.241065763596278959e+00,3.959623017296807657e+00
2.677103684977293785e+00,3.882094052291809483e+00,2.861250972682325422e+00
2.697072858363902981e+00,4.748961028603051027e+00,-1.043126948294499368e+00
4.167103329678105261e+00,2.966011902958439972e+00,1.977891520876121634e+00
3.404783484326657561e+00,3.886482893980017561e+00,-1.970348763117372837e+00
-2.315342284121886696e+00,-1.512575606561212815e+00,4.806260666720873154e+00
5.088446056102591264e+00,1.904808028819920951e+00,9.193184426948881605e-01
2.893291153265018956e+00,-3.304579161872535087e-01,-4.808155906559952619e+00
-4.106859063403507371e+00,-1.402835472774748848e-01,-3.800817504988478035e+00
-2.645532571397676058e+00,-4.143857551094292546e+00,2.639466346949632669e+00
-1.465044401342441294e+00,-4.994101499263666533e+00,1.931507751008961105e+00
2.120590160578275096e+00,-2.561894683536637185e+00,-4.425693765272225910e+00
-2.458667314470219356e+00,4.267934570195524913e+00,2.622847873584435607e+00
-4.414189466303603204e+00,-3.015434851272833505e-01,3.339592555055595824e+00
2.558628659758206858e+00,-4.325937308819012728e+00,2.388593098184264463e+00
-3.916544845912893535e+00,-2.064000867429785835e+00,-3.491665190572941668e+00
7.114253089940365538e-01,-5.357677098986729725e+00,-1.248741317916499005e+00
-1.347548349555522273e+00,-4.572023522497726589e+00,2.923586344090242317e+00
-3.001147773319766010e+00,-3.541541748340585993e+00,3.139723694946987109e+00
4.919721638955574683e+00,-9.699029510335606119e-01,2.233289144061553433e+00
-8.623330142939025222e-01,2.041349251664377640e+00,-5.144834903931125858e+00
1.218659213351394710e+00,-5.341705358022132089e+00,-7.874438064484891309e-02
-1.781388504193186062e+00,-4.184174738718345665e+00,-3.361011337007020483e+00
4.845441485633044110e+00,2.689602760151536209e+00,7.027923564825500069e-01
-2.264091919647806428e+00,-5.567357406988729940e-01,-5.087808009383431695e+00
-4.800919019525056619e+00,2.810825527091510345e+00,-7.913788757028187293e-01
-8.126555400152682962e-01,-5.082498894303173920e+00,2.013434303763158351e+00
2.951012509214360868e+00,-4.675557123538467863e+00,1.734410749163511067e-01
-2.098621143186247817e+00,6.475247042834652439e-03,5.229398967660729092e+00
3.855776581730694375e+00,-3.808287423409808525e+00,3.064112165526873821e-01
-5.965885013503120504e-01,-1.817370571613427632e+00,-5.228342362529193821e+00
-2.427306943405647566e+00,1.757977181400132816e+00,-4.701331385017507358e+00
-4.725393096273125870e+00,-2.100707199008376769e+00,-2.265241837865351382e+00
1.722311711546850033e+00,4.183611651618093674e+00,-3.329245028286277996e+00
-9.794093429848944599e-01,-4.242751213016795475e+00,3.394091430127961218e+00
6.544778794605929928e-01,1.715800539676490821e+00,5.280849907908098828e+00
-5.295937170755002477e+00,1.743317486999963917e+00,-4.709865318356689090e-01
-3.800029615597783295e+00,-3.684113543797714829e+00,1.721514988466731788e+00
-5.429091323513414835e+00,-1.446895567835232710e-01,-1.204857086712570080e+00
-9.350917901280484390e-01,5.238681001559084116e+00,-1.600843941959805061e+00
-3.088964873072887474e-01,-3.926845661330946591e+00,3.880105051219475243e+00
2.056188652007377993e+00,-3.314673499206425067e+00,-3.995546962156315551e+00
3.378747814312806241e+00,2.585788776621954721e+00,3.564264162580947470e+00
4.530048685427591870e+00,-2.820079078023157937e+00,-2.016401629811541252e+00
-3.113098701613917996e+00,4.310077890288560809e+00,-1.718733015972564449e+00
4.045543747742498475e+00,-1.585550378267313265e+00,-3.501034841508652296e+00
-1.711611787138042906e-01,5.316733451525572640e+00,-1.711205882781499765e+00
3.019253352683767488e+00,3.671339951657341505e+00,-2.811956687645823738e+00
2.737059461328641863e+00,4.540346999932982186e+00,1.907280885252623293e+00
4.572318721920159312e+00,-2.149690240365932592e+00,2.164793428912680451e+00
4.066539386281263546e+00,-9.110142936096274902e-01,3.535238954827549129e+00
1.085819263515289013e+00,-4.021871756392473962e+00,3.587268141823378720e+00
-3.449826095393598302e-01,4.418087645909639094e-01,5.484102313771804127e+00
1.262460388784296894e+00,-5.289642420003028533e+00,-1.138918634880543568e+00
-2.281904372313848517e-01,4.856656258084488087e+00,-2.801249658315386526e+00
-1.412170030518737629e-01,1.788003042459491154e-01,-5.635162233259721987e+00
1.968632006755158814e+00,4.135834757361465996e+00,-3.020355543517728947e+00
-2.266355134573073915e+00,5.103144935245919278e+00,1.038022591055999033e+00
-1.184612583636031724e+00,3.181020751263583524e+00,4.484853382622639550e+00
3.711816568976287645e+00,2.507732349365350277e+00,-3.302042080696945714e+00
-3.505569366750586724e+00,5.720858318018349209e-01,4.259736378365421849e+00
-2.439296750282526904e+00,-2.653460048672824922e-01,-4.967531482381235541e+00
-3.465482635228950059e+00,-3.209402780406777733e+00,-2.617814778884976601e+00
2.692293724101564312e+00,3.801093967445466681e+00,3.066957384007473753e+00
4.988848517316737841e+00,-5.639820444010923417e-01,2.363423977475327398e+00
1.829390087914712248e+00,-2.049207607206511739e+00,-4.872842028940457482e+00
4.170116639009306070e+00,2.904282084637859640e+00,2.238448742349333109e+00
-3.924575309677721613e+00,3.714029970057428187e+00,-1.048737047564146874e+00
-4.721334970218173943e+00,-2.590910111882573919e+00,-1.579370458516679454e+00
5.116163454361987384e+00,-2.088405000780943599e+00,-6.865805941075242558e-01
5.506065367185038362e+00,-2.658698278788801383e-01,-3.343638874299380559e-01
-4.697360101662823695e+00,-3.077349573544823080e+00,-1.222019842986581950e-01
-2.582096607546563227e+00,4.112947824376226080e+00,2.875618890592235743e+00
1.381835409040091056e+00,-4.629407463426131741e+00,2.801032270213737352e+00
-2.845337341875930348e-01,-2.097441461042006239e+00,5.190637799508394323e+00
-4.612203468080865676e+00,2.686289743917591455e+00,-6.350166949095672475e-01
2.076875405316783940e+00,-4.792008302441919554e+00,2.008340631186152692e+00
-5.055304171962485604e+00,2.356589295571708487e+00,2.015188102425775341e-01
-6.545225689051070717e-01,-4.785234492855702015e+00,2.789051098505823667e+00
-5.422365578334382707e-01,6.319634452158906512e-01,-5.504517072967936464e+00
-3.307890771364735194e+00,2.978924747349193325e+00,3.393364047036963704e+00
-1.638376079466520752e+00,4.099013870546781568e+00,3.446828751612990072e+00
-4.672892142758866107e+00,-2.396522112838765928e+00,-1.741380682976999994e+00
-2.273222556726868238e+00,5.093074139992087801e+00,-9.883841509966306837e-01
-1.859569046282847360e+00,4.807846874912004687e+00,-1.888813142162873993e+00
1.685066860462475224e+00,3.187418279711045521e+00,-4.255666661075935941e+00
-4.157404178120234661e+00,-3.797709122733547549e+00,-2.290714730452006465e-01
-3.971520229413330050e+00,-4.097899201791440627e-01,-3.837925106273813114e+00
2.218229055804562755e+00,5.020448281304358495e+00,-3.345768668521620359e-01
3.948617384700895627e+00,-1.591561973694760823e+00,-3.475629339369280313e+00
-1.788888097513132047e+00,-2.006833811083127639e+00,-4.883676041618904229e+00
4.824826486776145895e-01,-3.180935721019086504e+00,4.495516959506412391e+00
-5.435250677053385715e+00,-7.034646985354224835e-01,-8.496267590524554381e-01
5.081375101293756025e+00,-2.211705737098764946e+00,-9.907459080300918819e-01
-5.023470666699529019e+00,4.882670604731277897e-01,2.502135744374064164e+00
5.395203497153237215e+00,4.360907140304489116e-01,-1.400740715195519348e+00
1.318325417065455696e+00,3.268508207956797751e+00,-4.243273500995903724e+00
4.079895461867756978e+00,1.481326629565969721e+00,3.333481628832989596e+00
3.599559228556063584e+00,2.685931007502960099e+00,3.335930395408714499e+00
4.743316540120948055e+00,-2.125368324801343967e+00,2.102004524077178971e+00
-1.983914255916151559e+00,2.971102278589591972e+00,-4.159410535794775932e+00
-3.352958491341535563e+00,4.474277081498612141e+00,5.769479695352340842e-01
1.723469234238918402e+00,4.576422318522348043e+00,2.678419019823694569e+00
4.287279848288017448e+00,-3.259577176384911734e+00,-1.608366276658079963e+00
-3.598928642842817549e+00,-3.973239533921935074e+00,1.439555299893565898e+00
3.847925655311352333e+00,-3.730047733908778085e+00,-1.487954677133263681e+00
3.062959665327203762e+00,-3.377432459635834938e+00,3.216754189091112437e+00
4.322310978151636118e-01,-3.320870540250701275e+00,4.415136530174398111e+00
4.888372336810317798e+00,2.063891147336180509e+00,1.666019236838850004e+00
-5.396544850496390211e+00,-1.070908952608903952e+00,2.600971317099408098e-01
5.017003422083708308e+00,-7.224768008694081312e-01,-2.315999359425853221e+00
-9.986884931904653762e-01,-2.538822911581520847e-01,5.551599487662201682e+00
-4.665740452005398886e+00,2.475253184287310171e-01,-3.118382508268405573e+00
5.159551224395760194e+00,8.794058544095585406e-01,1.786013554844690709e+00
-3.297927315542355409e+00,2.451270726561967095e+00,-3.721908522656116158e+00
-2.252090821055942271e+00,9.521519455402893684e-01,4.900047494600896059e+00
5.298132515485860949e+00,1.063458641199577670e+00,-9.506283075915868963e-01
7.373064399452526896e-01,4.507228558363640225e+00,-3.121691196432127668e+00
6.608206934661512433e-01,3.035455734346975021e+00,-4.588139219053479323e+00
-1.887923226727365345e+00,-5.016310047726063814e+00,-1.557098792393093234e+00
4.794128557502684629e+00,2.543980366091788792e+00,1.366515353071835692e+00
-2.960202481189818435e+00,-4.632123041617751902e+00,4.455810971269574816e-01
1.403499200629299670e+00,-9.624743887878983717e-01,5.313580601046773211e+00
-2.192138637228297160e+00,-5.092149174568178616e+00,-7.170838711134976950e-01
2.534740453249069159e+00,3.664002597752984425e+00,-3.318146490161877793e+00
5.318480133625520523e+00,1.443892256277437891e+00,-3.729223398375535736e-01
-1.102668060419131457e+00,1.599035430962123305e+00,5.246767706357686301e+00
-2.601443098557064459e+00,-1.287326218340316908e+00,4.768051085463483219e+00
-4.026182982230906704e-02,8.959246025753007103e-01,-5.565549044157544145e+00
-2.698670581563965554e-01,-2.216413222176065290e+00,-5.141228272187094994e+00
2.591479455935470799e+00,4.974608354404611354e+00,2.558215643275949525e-01
-3.891667967120395755e+00,-3.915175895332988709e+00,8.167818623763511976e-02
-2.659503916957890457e+00,5.349413097243853610e-01,4.784088598923270652e+00
-1.954191726607724888e+00,-2.668525949587874369e+00,-4.370063058207585449e+00
4.986547192162566589e+00,-2.357535464526777425e+00,1.000915008565157693e+00
2.281922964099054596e+00,4.940836082105581006e+00,-1.295026272564198999e+00
-2.922078584772497933e+00,1.072127705611819470e+00,4.614660307147798513e+00
3.609115137726275346e+00,6.684961065311640915e-01,-4.224324977051439944e+00
-1.712181093732828785e+00,-1.499147266436413162e+00,5.063888385764352407e+00
-2.926675177132084915e+00,2.690733362868685585e+00,3.868605030053863914e+00
-9.608801853499054912e-01,-5.537300408918008010e+00,-1.605323907825320362e-01
-1.781485787245806307e+00,2.530020082042690355e+00,4.584114826767504702e+00
-5.553961648685641350e+00,-5.557134212443901600e-01,-6.353804991558918702e-02
3.921848394655370829e+00,-4.001603673756619628e+00,3.313025917855992597e-02
-2.482113965422505064e+00,4.963093740847001278e+00,1.350656432278417134e-02
-4.428050768815690930e+00,-2.367565879413228380e+00,-2.314034684968171884e+00
-4.679421769664662278e+00,2.693391922261194171e+00,-1.373764318283557273e+00
-2.047955118188326651e+00,4.731245476815975515e+00,-1.929925230935960467e+00
5.047772243556042371e-01,5.455672970573026248e+00,1.070631806839462241e+00
-4.151196709768262494e+00,6.303765607014382155e-01,3.701432957441638472e+00
-3.977870572062708998e+00,-1.042394647660667806e+00,-3.573652129460300753e+00
-5.121033273349128168e-01,2.197469945527971147e-01,5.565006282822936967e+00
5.000795840248409618e+00,2.393201420037136096e+00,7.721867062932773473e-01
-4.973641270945308612e+00,2.444162044218639807e+00,3.965447947011523921e-01
1.838674849739252881e+00,5.316261102707652064e+00,4.002995341758545100e-01
-3.909159623703871933e+00,1.276495569503679928e+00,3.712012428292576605e+00
1.206547945752723283e+00,3.553772059028456720e+00,4.131743695303204511e+00
2.292880494284330162e+00,1.566253342998614961e+00,4.886128643615468725e+00
-4.249639263356176144e+00,3.577516243552262942e+00,-9.909385679335167008e-02
-4.745762473521679681e+00,-2.605442030087151473e+00,-7.300401540343630646e-01
5.157355089551487914e+00,-1.952588719615822699e+00,-7.951295786458995041e-01
-4.789758672290101771e+00,1.458562671861898918e+00,2.353963829088220550e+00
2.616257845054010378e+00,-1.214239597660536463e+00,4.755937437132168100e+00
3.312255790362364394e+00,4.271732842122059282e+00,1.395526755374053796e+00
5.522969469806226606e+00,5.847390116372727098e-01,1.151615094050086469e-01
2.317116135475492944e-01,-5.560635603957591933e+00,-6.485263155253481182e-01
4.717916557566764979e+00,-2.272762192852263663e+00,2.117692268444382186e+00
-2.340674273630030389e-01,-5.395148995841241302e+00,-1.244170545579762921e+00
-5.017803455147582525e+00,2.012942668510945943e+00,-1.704611235340316666e+00
4.054150364691547992e+00,-4.500787542870126057e-01,3.621117501076803080e+00
-2.991104201516880501e+00,-3.948699994635503696e+00,2.493972564577432216e+00
-1.492875055800613637e+00,2.516097352111697827e+00,4.653093047173852526e+00
3.167525827903041158e+00,-1.523524561705447589e+00,-4.300515919621354932e+00
2.466421038510714592e+00,-4.796220610357833536e+00,1.303960426651406657e+00
-1.995649482987683632e-01,4.338044364235793537e+00,3.443178272128820439e+00
-3.945118816651118632e+00,-1.690769659895902555e+00,-3.475508638932302663e+00
5.356183214035318052e+00,-1.128330772763894846e-01,1.749373594712987812e+00
1.156268189756461728e+00,-5.239363658490749920e+00,-1.148977556610012885e+00
-1.688018883761608580e+00,4.232416653721814193e+00,-3.306055879871331538e+00
4.566961158383269215e+00,-2.743613139281444013e+00,-1.270904484902663389e+00
-4.502868144307083043e+00,-2.005125222568653776e+00,2.746144140572543080e+00
4.549614988759569378e+00,2.967812203083305178e+00,-1.287422314831607073e+00
-2.962914076131645924e+00,-4.671082872685978771e+00,-7.916903533022108530e-02
-2.541240399364439906e+00,-2.144178176525220539e-02,5.104908733305870250e+00
2.740935158259281135e-01,5.472420679000182808e+00,9.764619339980594726e-01
4.285517424724871738e+00,2.649637421013088190e+00,-2.469869897379418422e+00
5.942018539840877578e-01,4.900468951163833964e+00,-2.479240230483517049e+00
-3.718051795215643551e+00,-3.867582483084506251e+00,1.219850249203159320e+00
-3.112179236984603303e+00,-2.894261729122432403e+00,-3.528691077754922301e+00
5.168729579911971683e+00,-1.428846728233446495e+00,1.455649533758039738e+00
-3.832519976741656453e+00,-1.666660165659132886e+00,-3.650471565138219354e+00
-8.794999883738372493e-01,-3.223927288758682064e+00,-4.535151240471164691e+00
-3.381008373314070337e+00,2.705009056653924659e+00,3.447486535926183926e+00
-4.786484468960493288e+00,-2.422055002182855521e+00,-1.236934447934793457e+00
-7.346439323632631968e-01,-3.568888123253269207e+00,4.127063355630660624e+00
3.764954819390987417e+00,2.957952460915373560e+00,2.810639769491657169e+00
5.327074199632441776e+00,-1.769232844931274418e-01,1.774909186963935959e+00
3.643566882373170834e+00,4.082433417916794482e+00,1.695979279443254439e+00
5.390649746137586185e+00,-5.001562625125297590e-01,-1.554369945670358133e+00
-4.771771947975370409e+00,-2.562404315910630892e+00,-1.235821401313206058e+00
-5.428131281602484925e+00,-1.076882913985977686e+00,-1.376682773773876489e+00
2.091164309121608778e+00,-3.375775804713531780e+00,4.104398214075869689e+00
-2.805456626030859102e+00,3.549360160003009579e+00,3.290958965861139340e+00
-4.031121791168174262e+00,-2.413611145765679478e+00,-2.896108409502606396e+00
-3.898969808796461489e+00,-9.364461898337226309e-01,-3.890810188052180152e+00
1.966268359803945209e+00,-1.467719187106191869e+00,-4.967986048408407740e+00
4.576843619734384028e+00,-2.297648397843896628e+00,2.043519799172660800e+00
-4.689703279073460074e+00,2.821046111018343794e+00,8.406650737010300523e-01
-3.147656599028823887e+00,4.574123443981069848e+00,-7.544598419425132541e-01
4.668406751466289251e+00,3.086875127801239849e+00,-9.929777067653473843e-02
-4.078016174179148301e+00,-3.311031683483099730e+00,1.913799260226465071e+00
-2.096744556333796972e+00,1.385180734257766444e+00,5.033533698424180969e+00
1.256674267424244151e+00,6.954181063504447646e-01,5.343456028657211476e+00
-2.774056481179668854e+00,-6.833801461796944199e-02,-4.781277190077365624e+00
3.262800064580452464e+00,-4.301214688221576488e+00,1.557881696693818929e+00
4.283596376541433770e+00,3.361021740524696266e+00,1.417225927261537732e+00
2.910524094233673420e+00,-6.402500135289328487e-01,4.684328254114103807e+00
-3.542755710187919238e+00,-3.053826462348509185e+00,3.111247812755921327e+00
-5.419477565681449782e+00,4.403396279706272565e-01,-1.193645636659017129e+00
-1.184312571184903184e+00,3.602786521556757382e+00,-4.125340130568964092e+00
-5.498452960567479231e+00,-3.185477151244178184e-01,-9.850347359010318549e-01
-2.826655260801531622e+00,4.799932415320130374e+00,-8.552357602634542699e-01
-2.066320791564575821e+00,-3.392509509998831163e+00,-3.802678077830178083e+00
4.434933609219665840e+00,6.297925836395057431e-01,-3.220189411027047033e+00
-7.082004595639311562e-02,1.237143903525008248e+00,-5.407273637237175024e+00
-2.783162147777315631e+00,3.913882009812628571e+00,-2.910227659849369264e+00
5.166511482921534615e+00,-1.164277153247966545e+00,1.697981554074191823e+00
4.290667821661841685e+00,-3.349557652506963024e+00,-1.018260499319310286e+00
-4.080938073069781069e+00,3.722897084874206897e+00,8.861245879347626753e-01
1.460102404131323084e+00,-3.991695031586785181e+00,3.637961865944951967e+00
-5.170438469558642502e-01,-5.547525165609177300e+00,3.283919024555910227e-01
-1.344188071981687216e+00,-2.677325607076183722e+00,-4.700105278163070999e+00
-4.037540732505325303e-01,3.195084413073631779e+00,4.503571784704158532e+00
-4.275722869072152044e+00,2.903708947602977819e+00,2.210992742425427426e+00
5.333187784444483270e+00,-1.220453888666602094e+00,1.290439677318315992e+00
1.351669961403626941e+00,5.475977243098845371e+00,4.116726579044506507e-02
2.387681505787723424e+00,-3.937671206498774445e+00,3.206852549418693687e+00
-1.248420583859527255e+00,4.626334432407416486e+00,3.033381659237607497e+00
1.989287839954120063e+00,1.076247456515840639e+00,5.145804784270776366e+00
2.301516487222338370e+00,5.080933677307717389e+00,8.721397603418202804e-01
-4.459896371484817656e+00,-3.324067235157247779e+00,1.829765965712855103e-01
2.586802986889855660e+00,-4.846686190952381956e+00,-8.375964395418047381e-01
-1.884359979970835930e+00,-4.991167365514050935e+00,-1.810723818761267756e+00
-3.472813482760703785e+00,-1.669900797223947686e+00,4.153745732846365613e+00
-1.176806509764972475e+00,5.147209359720580579e+00,-1.701143396521983542e+00
1.636730953437931513e+00,-4.510881566490117400e+00,-2.901389064332312362e+00
-3.749823045994522541e-01,4.542809178688660410e+00,3.073204702851699555e+00
1.314612928255906477e+00,-4.159260617916229030e+00,3.514498906104310816e+00
1.676043881373868283e+00,-1.920528419895521255e+00,5.005055440338987971e+00
-3.724741206849420672e-01,6.342880165909854373e-01,-5.530984659301753759e+00
-9.606789496875881573e-01,-1.035451697409430771e+00,-5.476315627886521042e+00
-4.500446905090162097e+00,-3.312455237692731647e+00,-4.606045540683310624e-01
2.782790877529248696e+00,4.800113199612898285e+00,8.295143982972652541e-01
2.939090366198049420e-01,5.520049001245180165e+00,4.682927797142488191e-01
-2.755098027532875360e+00,2.328631792822656088e+00,4.363978914591307934e+00
-1.140807010718301706e+00,-5.146054933566611034e+00,-1.955740133651020063e+00
-2.495727715707004801e+00,-3.742847637510701375e+00,-3.341305977069477962e+00
3.123207022853143222e+00,-4.063261342392302744e+00,1.920706753907566622e+00
3.719698548596834353e+00,2.563648476050765179e+00,3.269559361598605385e+00
-2.984226299183529107e+00,-1.082031360572266676e+00,-4.623822586346629571e+00
-1.363643176714271821e+00,-5.004980150345240686e-01,-5.402434298237841048e+00
-2.512252761507816512e+00,4.549021603999084284e+00,-1.934988382783774385e+00
-5.473755544241390325e+00,-2.290839697989090762e-01,1.909590032982720620e-01
1.535619128250464094e+00,-5.089251879361571973e+00,1.594823641150084903e+00
4.269278068010611271e+00,-2.845263575101194320e+00,-1.894424828181860310e+00
2.961365613942724462e+00,4.616694853812401078e+00,2.767484335467184642e-01
1.498416049445820297e+00,3.381733582789459458e+00,4.134672043335057445e+00
2.603340033190247649e+00,-2.670401127686000464e+00,-4.074879639787607921e+00
-1.278316578848830209e+00,-1.301054524325966799e+00,-5.179768880198563075e+00
-4.509050844955641013e-01,4.357408741803049601e+00,3.294099489631765021e+00
4.464889828277754269e+00,3.252353301133214192e+00,-4.999697280645875597e-01
-1.905079798546781111e+00,-1.053716284258668479e+00,-5.127892159308096609e+00
-6.281935662634563489e-02,5.332309723570035409e+00,1.499262362793129633e+00
-1.891044123394607590e+00,5.270872620207713410e+00,-5.718010199204525135e-01
7.821737039147358406e-02,-4.756570370283555782e+00,2.823397299203139976e+00
-1.658031497199621951e+00,-5.063251793800934486e+00,1.773573648180035267e+00
-4.444720165923439659e+00,2.679884177025435132e+00,-2.503141252868174682e+00
-4.650921389788453375e+00,2.341588797536196864e+00,-2.058804118164810237e+00
4.967885167082447317e+00,4.123945693512121591e-01,2.690291333552806030e+00
3.173737887787588668e-02,5.496068743909816590e+00,1.009128457295347836e+00
-1.020377739308557657e-01,-4.974334674235297626e+00,-2.669848078110851564e+00
-4.391588323671328453e+00,3.110868702258017038e+00,-1.157879879164928072e+00
2.302195075612427200e+00,4.960063207537408481e+00,-6.317864970377297107e-01
3.860855297916976347e+00,3.335591172159231288e+00,-2.135634342400288155e+00
1.802900310186613897e+00,-5.139986397256848250e+00,-1.227795033262206958e+00
6.344783533936264597e-01,5.524503226427995628e+00,2.487497114247264746e-02
-1.256211257103881485e+00,1.020190590124591123e+00,5.356347421236019812e+00
-2.681227740642313506e-01,-1.995317308017992453e+00,5.217335966072814912e+00
-3.323538951684553044e+00,-6.936296506772574033e-02,-4.491457653916006265e+00
-2.794328736019959347e+00,4.764419042079339306e+00,-1.240677176735435649e+00
3.572093150457135380e+00,2.809039950613974490e+00,3.136960636200134545e+00
-3.183935836201692737e+00,-2.749207482727333840e+00,3.653493161667533240e+00
-2.484108776117898820e+00,4.600549917291935742e+00,-1.721791331025441352e+00
7.235669152242428792e-01,-5.266164731108602837e+00,1.662557413541584594e+00
-1.798242824645914117e+00,3.049696434622322538e+00,4.280853768784968594e+00
1.317616397056755817e+00,4.930266849392999085e+00,-2.352548810719064853e+00
3.763137574334596280e+00,-8.095704931839329266e-01,4.145361893972978606e+00
4.623214947178990286e+00,-1.320831369235735686e-01,-3.000007622322255152e+00
2.788279655513088873e+00,1.553589779641999069e+00,-4.601293838354943766e+00
-4.902837077084933881e+00,-2.012204171365699956e+00,1.531790787184022173e+00
4.759120315210370933e+00,1.812973552526851773e+00,-2.057616884533038260e+00
1.382615616304691875e+00,3.479929314669017337e+00,4.112835063034540717e+00
-1.985353566621468557e+00,4.601918095100607786e+00,2.299773893269490443e+00
-3.251269493118377429e+00,4.616190673714598347e+00,-6.575476604719509011e-01
-5.313046357312040113e-01,-3.229798473632942368e+00,-4.540497472311625593e+00
-9.070268347207757209e-01,5.676327120640735080e-01,5.557585137321735758e+00
4.276205659614490173e+00,-1.556332235409074727e+00,-3.040489856640001154e+00
9.324937781719139229e-01,1.673493452527540448e+00,5.271901506706729634e+00
4.643080653835068183e+00,-1.168242453445257345e+00,2.768749429638619919e+00
-4.347079347028517837e+00,-3.058402547623110923e+00,-1.648990971420091656e+00
-2.828620773991689319e+00,2.006073057847335139e+00,-4.324983742265974485e+00
1.415884011877029058e+00,2.069608607476491446e+00,4.906626411608903560e+00
-3.901767529767573350e+00,2.835457405463453817e+00,2.698982009386612368e+00
5.389922816370366299e+00,-2.176119076927008622e-01,-1.374737591132062065e+00
1.472510844385736206e+00,1.156292954649747795e+00,5.168693574403577351e+00
2.223125755239010015e+00,-2.506570256070029590e+00,-4.521435289123539647e+00
-2.898722048197629686e+00,-9.067242093528356250e-02,-4.749132179802799669e+00
4.845747823983869829e+00,2.085136660299529598e+00,1.931044432155606394e+00
3.848685220289354891e+00,-4.055338700426807108e+00,6.644142906151243033e-02
4.912230123202173893e+00,-2.240645632021864841e+00,1.614553484149911622e+00
-3.159291492084610020e+00,-2.940549185883544747e-01,-4.645749948495692117e+00
3.358325688878508686e+00,4.461633729046829089e+00,-8.401695181771342558e-01
-1.519906526176299177e+00,-1.277558550723748299e-01,-5.413228862631102700e+00
-2.923420299767449659e+00,4.604073879608731268e+00,7.429858913995399661e-01
-5.675706358683023645e-01,-1.513050448125843550e+00,-5.405093931763181203e+00
1.170666053892567504e+00,-3.728699296796517793e+00,4.106408226004611528e+00
-1.132947487523149332e+00,3.140986125982655253e+00,-4.414573501320837146e+00
-1.237055549801438614e+00,-3.289010592264288935e+00,-4.339760951845978987e+00
5.391239393020056170e+00,1.532712763923719468e+00,-2.268067343267502756e-01
1.975391465016352877e+00,-9.251010858296881967e-01,-5.207402049655982523e+00
2.395056273219967835e+00,-4.731413768444627799e+00,-1.250757966083022588e+00
-5.291158707367704217e+00,-1.502853843618977336e+00,-1.031069988391863035e+00
1.765618296255714093e+00,4.146522760721352618e+00,3.436647158929114099e+00
-2.859984087617887916e+00,4.663306014107439168e+00,-8.308302794326519747e-01
-4.719329856676499624e+00,1.131294196318153089e+00,-2.722481286790328081e+00
1.181334148847733578e+00,-3.701490680532049105e+00,-4.007112605725706267e+00
4.222915357633416633e+00,-2.778882047492589602e-01,3.595851014192031680e+00
-1.713089606220189909e+00,-3.801210419607699009e-01,-5.345791893645570170e+00
5.264251482037551888e+00,1.520880533088040387e+00,-1.146295318246562278e+00
1.453788896525133101e+00,-1.502336287568320017e-03,-5.276154041054732069e+00
-5.222051746088988367e+00,1.890866156374225726e+00,3.690400833322622642e-02
3.989500184452500431e+00,6.772822454265295944e-01,-3.815088438278473326e+00
-1.732693494778410503e+00,4.628160937442280520e+00,-2.721651628224441843e+00
2.036573334232681276e+00,-7.051546618874029448e-01,-5.087301188438725141e+00
4.260228120455675338e+00,-1.850820614017616661e+00,-3.078388724052888659e+00
2.756231687808388564e+00,-1.126108815564521581e+00,-4.709052463819151768e+00
4.488581995947631853e+00,-4.759163246732153185e-01,-3.293435957814809356e+00
2.151746247582400073e+00,-9.209914498746927247e-01,4.953594831032232193e+00
3.889943234552783125e+00,9.628659925366306327e-02,3.970834521343620249e+00
3.699110823013387783e+00,9.719839749986531885e-01,4.113319574841105108e+00
2.328971522558453966e+00,5.032700460621479799e+00,-3.184288643411828379e-02
-1.929895577615043933e+00,-3.524528529216060413e+00,3.814620997098877364e+00
-2.632095810645323386e+00,-4.153581331486552730e-01,-4.856738613872045640e+00
-1.748418405943077847e+00,1.234171675473871410e+00,-5.085825180127507394e+00
3.272355071181110908e+00,-4.363670353492376530e-01,4.416141479904625022e+00
-5.057787214169104040e+00,-1.324597543386189846e+00,1.929708808763635153e+00
1.520721611549936458e+00,1.419437810999192084e+00,5.182782336532521406e+00
-7.197094054282902054e-01,2.731762702878908211e-01,-5.556676279337158242e+00
-3.646034280528843485e+00,-3.829856918554629619e+00,-1.958486406611670283e+00
-4.202736571249013231e+00,2.796387248079110766e+00,-2.228420287664085730e+00
2.995607255306641237e-02,5.615503634194876525e+00,1.176657371377648476e-01
2.718855469873882491e+00,-4.889964966821699122e+00,1.634454281949604681e-01
1.690917754946470009e+00,4.568687230617167194e-01,5.278880929166727576e+00
3.788327313000918739e+00,-3.051775924101056692e+00,-2.790974714372627563e+00
5.456820732167204646e+00,5.569180548250515228e-01,-1.138318686792843648e+00
-1.860369385311427537e-01,-7.446521380584770755e-01,5.491652780414439050e+00
1.161222882389303379e+00,-5.238118631359244048e+00,1.357678055961536678e+00
-3.742563018077097237e+00,-2.163173419856517565e+00,-3.469031011609220894e+00
-2.565317885514604601e+00,-2.038073887446563592e+00,4.506522813795793780e+00
-4.624810543935869767e+00,-2.698865381040311817e+00,-1.527770679600165993e+00
3.694398460929423589e+00,-1.363955188073125990e+00,3.869152147655978258e+00
-3.122718619744425439e+00,-4.507806829512811753e+00,-9.330499572704825662e-01
-9.421439642069894260e-01,-4.533946635386857160e+00,-3.120171804286866468e+00
-4.059571387885625882e+00,-2.065800168941327009e+00,-3.155417433365154789e+00
2.388923634471002977e+00,2.950407974584200232e+00,4.202397557132231398e+00
2.651511224484853102e+00,-5.145755123449389234e-01,-5.021964158569960368e+00
4.164683474358554349e+00,-2.666424585106383471e+00,2.713955717482476437e+00
3.439384461527313697e+00,4.330955627805881392e+00,-7.422174942607978609e-01
7.836375959444362715e-01,-5.570850054632992432e+00,-1.259391618848562933e-01
-2.697135078487991500e+00,-4.813798175442081551e+00,-6.952915130581820424e-01
6.127103328529923121e-02,-1.004782074614656739e+00,-5.532941393052745127e+00
1.279898841705637613e+00,3.869135827791307047e+00,-3.927713213200646702e+00
4.426782113509334593e+00,2.712910672768547027e+00,1.990751095463399789e+00
2.395505978401680558e+00,-1.724487730744607150e+00,4.762818178950288583e+00
1.310571911172198512e+00,-5.104464215100321667e+00,1.846904494879592518e+00
-6.372173539839903755e-02,-4.417523602610065048e+00,-3.385858770092858627e+00
1.355274350755259150e+00,-2.980537802045605922e+00,4.364490935739140376e+00
2.339217220856023349e+00,-2.060495497963743983e+00,4.553660093474952930e+00
-1.167720027528062809e+00,1.358201407339411748e+00,5.237098396347160012e+00
-4.791501228196424655e+00,2.412639117223024599e+00,1.170256890440504627e+00
3.182551385422097923e+00,2.024777680157315185e+00,-4.150316529220917872e+00
2.465774433984483593e+00,-4.075449134413673846e+00,2.736257667623545053e+00
2.100436285207474274e-01,-3.640225905308318577e+00,4.124752323364511142e+00
-1.909162628449773830e-02,-1.492463903715387952e+00,5.414556014328287148e+00
-3.862257188771182292e+00,1.753315733228786977e+00,3.665472643608976178e+00
3.002097932693809756e+00,4.650112293110321815e+00,1.178880111221677768e-01
2.927220921295198064e+00,-4.696483932381778637e+00,2.342295317673676394e-02
-5.178957888249405173e+00,1.925879813026982967e+00,-6.471235119628083732e-01
1.171785084997368998e+00,-8.906686344846110881e-01,-5.487036661851543151e+00
-5.486516134851328053e-01,4.310154991942120262e+00,3.553765632010988273e+00
4.276395319139669304e+00,2.381627543896795096e+00,-2.837742821654570147e+00
-1.123169957322715629e+00,4.131318619127357650e+00,-3.503159104727060491e+00
1.868071639235129533e+00,3.094429581618200142e+00,-4.294758242757195532e+00
-5.440864771566130464e+00,-6.001320431470086314e-01,-6.445097461126024774e-01
-7.513582209170803494e-02,-2.239311191996667727e+00,5.124865801307532998e+00
-5.346815553940836629e+00,1.328730839129521613e+00,5.850170868491779697e-01
1.970723002701619403e-02,-5.074581841871789400e+00,2.359702476005935079e+00
-1.484167782341084152e+00,5.255649788753441243e+00,1.260372398891069778e+00
-3.733644915863790104e+00,-4.250803824300958489e+00,2.971814628149505588e-01
5.033167752373027604e+00,6.723354118986547834e-02,-2.462288509924291713e+00
1.434252243691920725e+00,-2.001011649212537602e+00,4.971128700486435292e+00
-1.105420547186711566e+00,-1.946755781476515512e+00,-5.147517531849320704e+00
-3.659870906470331864e+00,4.139467745334213689e+00,-2.260217427470520291e-01
-5.101611102808319309e+00,1.426790125704433532e+00,-1.685433713506947484e+00
2.803254968339112807e+00,-3.478543237184993586e+00,-3.289770437299913919e+00
-2.250595211480813429e+00,2.433304276405998667e+00,-4.476026091390993500e+00
2.946459765342279713e+00,1.939835108146522824e+00,4.307739402087661595e+00
2.503281794610999089e+00,8.990660202276589130e-01,4.959170588213120290e+00
2.311759620198530651e+00,3.330847512586604608e+00,3.793992812931761716e+00
2.304389633705458795e+00,-5.612657701921832665e-01,-4.966563420013852870e+00
-5.215999364076436828e-01,-4.186434381348869138e+00,3.754993820646848501e+00
1.002211406560450158e+00,4.588651422484334219e+00,2.946772207838193935e+00
4.420846483344334388e+00,-2.081864767123550397e+00,2.598131724988069990e+00
-4.186943122486202817e+00,-1.292739162146029352e+00,3.539822674603215980e+00
3.353472512826497498e-01,-4.766540866396448806e+00,2.847358702286004295e+00
-4.267411923461556178e+00,1.704422674802259063e+00,3.156633537056595440e+00
-2.898935595320256908e+00,-4.317700416582443523e+00,-1.727683497485711595e+00
8.175277561186887754e-01,5.293417610019412578e+00,1.598929148438810399e+00
