1.046623522778235227e+00,1.768765836255882906e+00,1.833847178660166000e+00
-2.599949512261142126e-01,-2.892927042975618757e-01,-2.701550135157267718e+00
-2.572678156197940602e+00,-8.355057458057375541e-01,1.017391392934638983e-01
2.147337922842119440e+00,-1.690165236220190881e+00,7.946049592776681381e-02
-4.534454598524900737e-01,2.672725013743103784e+00,1.239534598971098051e-01
2.315222656761692477e+00,7.778209053799898243e-01,1.338997872258028909e+00
-7.405032789300280971e-01,-2.493792747878488925e+00,8.353484165278383111e-01
1.015532525511775086e+00,2.327090658569449744e+00,1.053054188978175709e+00
1.610443414611655299e+00,2.347578338192166658e-01,-2.197749174752692713e+00
2.278119294762399161e+00,1.514243828800683422e+00,7.566560847672208767e-02
-2.175542615385761991e+00,-8.443226855322100155e-01,-1.355696664603540214e+00
1.692595327929982352e+00,-1.345007676876158298e+00,1.690063621511595837e+00
-9.796051236790585814e-02,2.712504686841355817e+00,-2.693515777034933834e-01
-2.044092278016486297e+00,-1.210611901214649455e+00,-1.381872879961843825e+00
2.526813282355759860e+00,1.047075060073021507e-01,1.010124873296106562e+00
-1.630556579801341055e+00,-9.863593178233975856e-01,-1.956939571411472567e+00
-1.857689656587694138e+00,4.400344974017432742e-01,-1.918240314547694503e+00
-1.569824286700519655e+00,-1.923039317196421294e+00,1.196744645307186605e+00
-1.401667272529171671e+00,1.920124462845418156e+00,-1.460529704375972848e+00
-1.766955297136701519e+00,-1.497807767096470455e+00,-1.414478958520324348e+00
1.273331697798598006e+00,1.138091020959027672e-01,2.457253016456576677e+00
-2.699976057063417922e+00,-3.493376770181946256e-01,-4.144677300307894052e-01
1.827357751362426841e+00,1.229406369505679220e-01,2.036528605392501579e+00
-2.780461991965934784e-02,2.742895245944845684e+00,-1.164121509751378514e-02
-3.489618136849493291e-01,2.386540096571956315e+00,-1.344467934820789967e+00
1.854341547730844919e+00,1.835362880327030766e+00,-9.241423266468095088e-01
1.028208976239813666e+00,1.562771281335983975e+00,1.969004250942609557e+00
2.495396079020652191e+00,9.336065177579466745e-01,-9.538908330719257922e-01
-1.792130420939882507e+00,4.406875720049129308e-01,-2.027286246389230939e+00
-8.732006609142705100e-01,2.421278867941921487e+00,9.288022448127385422e-01
-1.235474196387583268e+00,-6.804665181673996699e-01,2.386647670267776800e+00
3.809084178445815150e-01,-1.587377130527598990e+00,-2.191338190749454462e+00
1.763585455534385726e+00,-7.029431163076327316e-01,-1.960517872766357250e+00
2.361311214321262231e+00,8.686422249970059406e-01,1.022830459435252859e+00
1.605040096778579617e+00,1.837100518351750811e+00,1.341542986087009171e+00
1.044147152415670243e+00,2.377210583023137591e+00,9.224827572380069896e-01
2.930777608882894070e-01,2.110446750388646375e+00,-1.670248138076820599e+00
1.646426112775777773e+00,-2.144539216714019148e+00,5.055811613472909194e-01
-2.448442166001404630e+00,-1.112051938786151162e+00,4.300803851144570089e-01
-3.715100277874352486e-01,5.859258885271956263e-01,-2.635597541847281011e+00
1.259762137966503825e+00,-6.870423115803206415e-02,-2.456524017755575606e+00
-1.649525244204838037e+00,5.902437115347488467e-02,-2.165509113753270043e+00
1.628569256112449404e+00,-5.000716777726174067e-01,-2.109491391171839147e+00
9.252502116305412194e-01,-1.382408293347161310e+00,2.191497449891672833e+00
2.475969844532190933e+00,3.203170919172622089e-01,-1.187907822683639036e+00
2.030648687622881088e+00,1.125018167225511290e+00,-1.402146665652573843e+00
3.624502567855301671e-01,-1.886124458299965667e+00,1.922751843726908216e+00
2.625333965031918737e+00,6.144335083583624124e-01,-4.060927121336015411e-01
-2.048308822170880727e+00,1.717619690346519956e+00,4.892090476398267690e-02
-1.952061143894000095e+00,-1.973153837075767081e+00,-3.575919080140983752e-02
1.674562943658444714e-02,1.826461953299600038e+00,-2.042568447848805313e+00
-2.609921705002594905e+00,-3.880450610775657561e-01,-6.387426719290046906e-01
1.417262065418899430e-01,-2.726758988865964461e+00,-4.503829633973196467e-01
5.524948591910160411e-01,2.343515638834781978e+00,-1.205134193913568019e+00
1.432981341898890815e+00,2.062606245045812692e+00,-1.026374453434303113e+00
-1.308021363022703776e+00,3.200564204591215267e-01,2.343446246979078218e+00
6.427092642524693256e-01,1.374233018924585492e+00,2.275103672281780121e+00
-1.788289306089446473e+00,-1.498328455125159386e-01,-1.983152292355214286e+00
6.823497463470815649e-01,2.605248335351747713e+00,2.359070837711416402e-01
6.631656536379603173e-01,-2.028589996345569746e-01,2.643546313001015946e+00
2.141278216760808650e+00,-3.578063895133350159e-02,-1.702581583563226753e+00
-2.030155330210519082e+00,-1.698780928813177882e+00,-5.202498485049599219e-01
-5.947502834445103082e-01,-2.395857961872650321e+00,-1.235692703057607922e+00
1.425019058397277716e+00,4.913974808884647993e-01,2.183815754684568677e+00
-1.747894055043884398e+00,2.046590668755650544e+00,-7.854488206271899309e-02
-2.009564826228648737e+00,-1.753217506062332731e+00,6.608284877322618822e-01
-1.460475197799599556e+00,3.407265796510886013e-01,2.254406856977719364e+00
-1.760765460230224511e+00,-3.905589221531847177e-01,-2.008373840988777470e+00
-1.271448019739773061e+00,9.956172744106320804e-01,2.232088946060384327e+00
-8.147222672499018215e-01,2.346917486718048007e+00,1.081459623755097965e+00
1.492586404730322336e+00,2.190038579848535782e+00,-6.428136595182699642e-01
5.672048547877611702e-01,1.894323734198600340e+00,-1.978969245358313422e+00
2.272373810679951145e+00,1.392444182554838372e+00,-4.692045666495790468e-01
-2.762197728266577279e+00,3.810052849672947439e-01,1.654576446006967849e-01
-2.059888335844629381e+00,-1.380952587737236170e+00,-1.168461019142112978e+00
-1.419833624893583446e+00,3.781718166293211447e-01,-2.313603623444036916e+00
-2.451161511235856683e+00,-5.588619281853355325e-01,1.018489729011345490e+00
-1.912077152379037859e+00,1.342953470648832193e+00,-1.307117185183815922e+00
-2.028848276429276343e+00,-9.058014251765613700e-01,-1.617102893039421341e+00
-1.953183074133896691e+00,1.919852933488678470e+00,8.259046811232569063e-02
-1.518528157489372754e+00,-7.357185155028382884e-01,2.141404117845049360e+00
2.581211108643587160e+00,-8.503504197516585927e-01,4.624195727429474823e-01
2.040146975226796666e+00,8.855607311111846069e-01,-1.573323214706216611e+00
-8.543442591848568468e-02,1.650637077318359180e+00,-2.187628002392548510e+00
-2.030845414531750048e+00,1.882987225151191213e+00,4.948469084005682750e-02
-2.138975916273019529e+00,1.661767504308371279e+00,-6.028759142606562316e-01
8.599499518653800356e-01,-1.061616595890362280e+00,-2.352378313979763380e+00
6.673239424183837754e-01,1.488377231673098322e+00,2.176370965594249363e+00
2.477241120607814595e-01,2.650094924172365030e+00,2.217471449040240572e-01
-1.727706489661527289e+00,6.097174330495439692e-02,-2.032965315305251597e+00
7.449243696007945559e-01,-2.191767879481058667e+00,-1.487658247861419758e+00
-2.336727400824978762e+00,-6.533148890386607510e-01,1.278249944472576116e+00
2.531091257350049251e+00,1.337910944006823477e-01,-1.059332703455399871e+00
-5.111652589061438379e-01,2.670443976609725656e+00,8.384918999689310037e-02
1.004092464409782393e+00,-2.440881515082837794e+00,7.178725858735147680e-01
-1.041219334969024191e+00,-3.804345531308468975e-01,-2.479196354314171291e+00
2.211373287194632553e+00,7.767450958644199766e-01,1.419526163263483021e+00
1.317509289525064187e+00,-1.232550466125526212e+00,-2.025054636764889615e+00
-1.521744178776268663e+00,1.241616411848120105e+00,-1.881254244747764481e+00
3.672005743694670143e-02,2.387204502087588942e+00,-1.408818837611730546e+00
-2.920429383283987268e-01,-1.368135884721941364e+00,-2.376816364138452986e+00
-1.275410831239712772e+00,-1.988418971811023006e+00,1.355035417369421236e+00
1.203150904638401686e+00,-1.440692194316942398e+00,1.966537384215898188e+00
6.438071528692833612e-01,-1.224228356465379974e+00,2.340519137770005642e+00
-1.390026703831959809e+00,-1.407639917914000005e+00,1.884808232652121829e+00
-1.658378439409129435e+00,-1.639383548195409324e+00,1.399052650292644806e+00
1.805668582762480490e-02,-9.260366139600779978e-02,-2.735187695983350764e+00
5.835881129620242858e-01,-2.509036666364796275e+00,7.915858318706637808e-01
-2.589593341961688999e+00,7.707336582697389415e-01,1.718186789481042365e-01
1.383780653029381691e+00,2.308495848585374155e+00,1.286054108528734800e-02
4.069221979104194475e-01,-9.552305342318928583e-01,-2.540512429700337638e+00
-1.704768008312614880e-01,3.721028274852979933e-01,-2.695447934552145153e+00
-2.051151305871150132e+00,-1.761625551268610090e+00,-4.232217669765285240e-01
2.632244402670959715e+00,4.590935277581009166e-01,-4.971780136339090106e-01
-1.212668196461657910e+00,1.103205289609538342e+00,2.196642708097022556e+00
-2.365351401545515486e+00,-1.150976807765452303e+00,5.819772147911123072e-01
8.408492867823830208e-01,-1.681904530875037107e+00,-1.997645393931532176e+00
-9.103212017805013545e-01,2.549396001285061608e+00,4.769873110390746573e-01
-1.258863771668912446e-01,6.937000899738378079e-01,2.644878807554942757e+00
-1.109837581428453790e+00,-2.437771447667946401e+00,6.288315956536330020e-01
9.635898058126475263e-01,1.500909992925395509e+00,2.018426956909139314e+00
-5.747640586390677375e-03,-2.446006197640928193e+00,-1.301823830016103800e+00
1.597777521251818822e+00,-2.855175328981217064e-01,-2.215616530417702013e+00
-8.369384972090755381e-01,2.542452103493054949e+00,4.026535254713987932e-02
1.909329842998220172e+00,1.555272409962393132e+00,-1.096431617644872070e+00
2.535952456194182858e+00,-2.330300718693968098e-01,1.012462379614551100e+00
-2.220833562668868222e+00,-1.097462437525057233e+00,1.067304671640413538e+00
1.076065906996313215e+00,2.266554238626296569e-01,2.483820237676253928e+00
2.422590708822954575e+00,1.201775655783792196e+00,1.176615412496967161e-01
-1.168906546725567708e+00,-2.444907764690456009e+00,1.499601171635348180e-02
-1.809075105827416596e+00,-1.950883796962756822e+00,6.244575313575492226e-01
-3.473243472758105049e-02,2.651478349955104008e+00,-7.872396359266545796e-01
-2.043417993544219602e+00,-9.375813308137229685e-01,-1.609621328391032336e+00
1.740046969111430641e+00,-1.870309591426217333e+00,-1.057985276213679882e+00
1.319660604244064617e+00,-2.389142976659240247e+00,2.499078279281268522e-01
-2.235603769579094457e+00,1.174963873450145524e+00,1.088802836990297118e+00
-2.062739074325689259e+00,-1.700706556432812322e+00,5.292214437008772032e-01
-2.273661697466230258e+00,-1.051667855245191685e+00,1.101158747234366020e+00
1.253637289355474582e+00,9.726931555505601290e-01,2.247797928293294945e+00
-8.667093187375835006e-01,2.558971093768261929e-01,2.590926952293821195e+00
1.037752624640691623e+00,1.557519361982991457e+00,2.003555712928041466e+00
-8.948908891292414181e-01,2.531224186176550983e+00,-3.399243307112315149e-01
-9.556577143892688309e-01,-1.935978989898983871e+00,1.760765603630391363e+00
-2.574655701941659380e+00,-2.109117130595195011e-01,-1.040092268553753474e+00
1.340061777338717564e+00,1.742111789645612863e+00,-1.601879686737450736e+00
1.477433322536495952e+00,2.220479118429567134e+00,-6.570602143006384344e-01
-1.776259302396150597e+00,9.760295830251922711e-01,1.883545473260368697e+00
1.502369714313568583e+00,1.138265179892272716e-01,-2.240211790892030930e+00
7.821994885697698408e-01,-1.351177684705669735e-01,2.636670756152443396e+00
-1.578508695628178193e+00,1.936296221780598348e+00,-1.005608410157135868e+00
2.037826524625951041e+00,-4.381180212997107803e-01,1.697315182460229055e+00
-1.055338291254845906e+00,1.390233468895038849e+00,-2.169913681248615056e+00
2.400683309384532116e+00,1.234750628149795748e+00,4.647634164142079305e-01
6.872551559342607863e-01,2.276341923928004718e+00,1.318434838473043991e+00
2.567261958417713430e+00,3.048873493670974377e-01,-9.033457975190504197e-01
5.381245606619530220e-01,-1.852658990886766333e+00,-1.937002555478782195e+00
-6.157202651951686478e-01,-2.647535242250922849e+00,5.621380921779947082e-01
1.958196538999301461e+00,1.710900146951170431e+00,-7.805911455906994201e-01
-1.705003260075930838e+00,1.975970379137839572e+00,-7.603495276771953248e-01
-4.301163581102930289e-01,-2.511170819512579921e+00,-1.021290244311836792e+00
7.483453223989177117e-01,-2.233287749771472264e+00,1.459016528872697949e+00
1.498819377547317311e+00,-1.974153731023809977e+00,-1.189031425315215440e+00
-2.512475601923060520e+00,-7.711908233677287061e-01,7.993013359817910946e-01
-1.622062231362246587e+00,1.446482982688508612e+00,1.700999120234911066e+00
1.559537325052996248e+00,1.740840897897641071e+00,1.492619987450708008e+00
2.291660840877972394e+00,1.322294559375500445e+00,-5.835452788680784986e-01
2.449532508450415147e+00,-9.330961278308810281e-01,7.309988197894369266e-01
-1.049042896228157939e+00,-1.961051445254514414e-01,2.490946390588729464e+00
1.070152159481305931e+00,4.574370831311226349e-01,-2.469588975415400789e+00
-1.167064457144217471e+00,2.483734693808965055e+00,-2.373842115128451669e-01
2.124924696958072623e+00,1.703033737985646390e+00,1.018954524769613481e-03
8.586531941100218335e-01,2.525844670758755850e+00,-5.051099810692214476e-01
2.304720701693780960e+00,1.343181275364543792e+00,-3.290931368425666914e-01
2.576576662895373016e+00,-8.818530286861137046e-01,-2.096177774868051014e-01
1.270915812922952970e+00,1.254487498705413762e+00,2.090308028523509165e+00
-2.374783036108530365e-01,-2.157450154208914839e+00,-1.597942225161424590e+00
-1.547119952925166020e+00,2.209872723284163953e+00,-3.966758766757714771e-01
2.614738758686709463e+00,1.640664193748107846e-01,-9.009018753819184600e-01
1.497506675074905758e+00,-2.149858353245207798e+00,9.010020375361219580e-01
1.399639466995064252e+00,-3.101385629686354561e-01,-2.398467955338478674e+00
6.843306248657314572e-02,2.187014715460413150e+00,1.737204997851129473e+00
1.869703912334343521e+00,5.529231504311209466e-01,-1.861143993271001884e+00
-1.771777819519425590e+00,2.061403035949366913e+00,-3.101108277287328852e-01
-1.133166036678009636e+00,1.104532889285524178e+00,2.231460885268798933e+00
-1.506074309216808071e+00,-2.711018878016682385e-02,-2.324185975104827495e+00
1.016676077504539144e+00,-2.114989532680962458e+00,1.369832699328518144e+00
9.419271241120906746e-01,-1.142636701877097982e+00,2.255344256953371040e+00
1.338342952187615120e+00,1.283580226962546922e+00,-2.025211238603994879e+00
-1.832823605054503258e+00,1.464211081371301182e+00,-1.428436368037544479e+00
1.303266504388241209e+00,-1.503878850251110011e+00,-1.856592000803702902e+00
5.634760800202154307e-01,-1.520258926073097427e+00,-2.161777596579774308e+00
1.516828339817386961e+00,-9.596889459253420407e-01,-2.096328935164216034e+00
-6.070703412972912050e-01,-1.050149650150879133e+00,-2.446128943901018093e+00
-1.292480023583375326e+00,2.054377087818912706e+00,1.360914530247814280e+00
-2.419381491614443380e+00,-1.284721141390762433e+00,-2.606699523605863766e-01
1.994479539782215483e+00,1.708204530319746395e+00,7.513093779074315748e-01
-2.367533929345326360e+00,-9.643731496863919839e-01,-8.765796416656018719e-01
2.228491007737264162e+00,-1.343729776603818760e+00,-7.815238577003835729e-01
6.900474473235251871e-01,-1.482350281121789237e+00,-2.201548678129504388e+00
-8.141784008185047883e-01,1.908119455722077529e+00,-1.810803752935032707e+00
-1.442037802859059137e-01,-7.449399918373621476e-01,-2.635435250467621060e+00
-1.509259532459544584e+00,-1.235295200862259302e+00,1.969160004399352903e+00
9.741366717971483569e-01,-2.312610527179754349e+00,9.610891719285435952e-01
-6.970603576562530712e-01,-2.489962218357770762e+00,8.509841355641477589e-01
-3.877218187482693867e-01,2.559352877066001231e+00,-8.378777209446808261e-01
1.658840262891841055e+00,-2.222157234494400946e+00,-2.121414777059193665e-02
2.072575227752272653e+00,1.195737585396750430e-01,1.774070177183001862e+00
-2.409652667156870987e+00,-1.237473731097543439e+00,-5.831322610392126737e-01
-1.348509158666166163e+00,-1.081430240636526596e+00,-2.102041159786683711e+00
1.992747841133806208e+00,1.335637816557936786e+00,1.287531963911961785e+00
-1.703496895233707065e+00,1.223453792031745646e+00,-1.721714130339109916e+00
2.037744089956486704e+00,-1.410976927465583675e+00,-1.268061973967568479e+00
-1.459665788755721616e+00,-2.049130275909967658e+00,9.434237360370947290e-01
2.468456883214654451e-01,6.664184999763592687e-01,-2.620023970109475631e+00
-2.624763003763988412e+00,-4.798135405982177915e-01,-1.260853057327732674e-01
2.178138059842065655e+00,1.581204734104163290e+00,-3.783359509440395452e-01
-2.621156757399220050e-01,-2.042474591543178342e+00,1.781049829517888483e+00
-1.010310978926841852e+00,-6.213203295565421502e-01,-2.467183482787253634e+00
2.634493626964378721e-01,5.309317317836421690e-01,2.648364465505619769e+00
-5.367167125485853285e-01,4.855930291416506450e-01,-2.629101411319698212e+00
-2.288467203001737504e-01,-2.354161683902544322e+00,1.355876698408327918e+00
5.890590887223774441e-01,-9.827789271652181968e-01,2.569141075428079901e+00
-2.450570603284198068e+00,-4.632414876137307957e-01,1.098953354765671131e+00
8.634628627631868447e-01,2.273711667281178794e+00,1.173536729563732450e+00
-2.595887055891864303e+00,-7.837912458507535485e-01,-4.199469172071307876e-01
2.051109418312973887e+00,-1.802870754114569207e+00,1.328918982804614402e-01
-9.644129051119803009e-01,1.786664055961235009e+00,1.861009232617099718e+00
-2.649413490540120097e+00,-4.903009175566334643e-01,-4.327933922266319344e-01
1.296327301039057467e+00,6.340230685256043053e-01,2.375419506572949313e+00
1.975713061095817125e+00,-1.091858944903508322e+00,1.564542997965758131e+00
3.019370346434134822e-01,-1.087945836994865578e+00,-2.486362399013486435e+00
1.351470453270317895e+00,1.514084742394750327e+00,1.792368623116800341e+00
-1.198081056845284875e+00,-1.964867191837637250e+00,1.467225029502978284e+00
1.394293465961947032e+00,9.004866013099340760e-01,2.167942620546168708e+00
-1.293138071266338507e+00,6.499812067103837299e-01,2.308404426873017279e+00
-6.076088938094805769e-01,-1.136142226970356495e+00,2.366459583689537016e+00
6.946672627877557016e-01,2.563989281579398316e+00,4.585533696953785210e-01
-1.381894973085848299e+00,-1.578969952335437021e+00,1.768838361227012657e+00
-1.339631370026775070e-01,2.109532346307504636e+00,-1.721318368553602651e+00
8.048447759817490832e-01,1.280002352353047934e-01,2.591235090187121060e+00
5.967951583021921524e-02,-1.284146687582709889e+00,2.400246880379700354e+00
-3.572247714770758753e-01,-2.650493965435276156e+00,7.557236332978352067e-01
-2.202839953153318930e+00,-2.822827865342732445e-01,-1.617816921845310230e+00
-1.526788385912580814e+00,1.507391110108950105e+00,-1.719350532920174146e+00
-2.496397572563679113e+00,-8.141725868906596331e-01,-5.858078595431520652e-01
1.044634536634966748e+00,-1.607810018567047639e+00,2.038093342887411286e+00
2.267732731904793742e+00,1.361598291392583482e+00,-7.777190023410803787e-01
-1.879686358889857578e+00,-1.309395723550961677e+00,1.428977292531079968e+00
2.198307061853837840e+00,-1.310538964165962827e+00,-9.507672928553790870e-01
1.732114926867330595e+00,1.533436770638693547e+00,-1.305602982629587627e+00
-1.836583065623277999e+00,-1.909017485159984151e+00,7.573433194566120408e-01
-1.266662070304245713e+00,-2.164377436242725050e+00,9.700432107877153820e-01
7.266470637948777012e-02,2.554020400964227999e+00,-9.720404799571910059e-01
2.763470248152020137e+00,2.818281784693604103e-02,-2.930446724420849858e-01
-8.711416312984133770e-01,-1.260841128408464407e+00,-2.294952095268937065e+00
6.636294901354957698e-01,2.641780050200810415e+00,-5.885162164092423015e-02
-1.642345098276864479e-01,2.285232652451801627e+00,-1.455758340962707287e+00
1.250271103826838814e+00,2.318830201220825948e+00,6.135386894599236252e-01
-2.164327387809551251e+00,1.357776134738344354e+00,-1.022534703445237669e+00
-1.095495911378117082e-01,-2.508505903247058022e+00,-1.221543111436051321e+00
1.344412565861006215e+00,1.449719737725764013e+00,-1.932587985999829616e+00
1.010449134600092558e+00,2.348793100809027035e+00,9.059634437765901049e-01
-1.770087216601059499e+00,-2.046349393946460538e+00,-8.943188764098038146e-02
-1.143628109255320657e+00,-2.461425100637852470e+00,-4.456399359657884918e-01
-8.546874940162499934e-01,-1.908122337145683467e+00,-1.797708404118598446e+00
-1.741546704211115681e+00,1.986379866957954876e+00,-6.459678564573122506e-01
-2.683941050331406508e+00,2.207819941078242587e-01,2.063692506879888089e-01
5.989259216042442935e-01,9.124686824059931034e-01,-2.497061126048396584e+00
-7.081776052695556434e-01,-1.560375381391786886e+00,-2.135983734464050876e+00
-5.106709707159849954e-01,-1.794232283905965675e+00,-1.996360578090990989e+00
-1.472272805455237643e+00,1.813083044054618842e+00,1.316086936282168329e+00
1.739448599150634545e+00,-1.050401768062086787e-02,2.128483386599484994e+00
-2.718182876700302453e-01,-1.886476556198730670e-01,-2.653682367878285930e+00
2.294582686287916395e+00,-1.203556068320073447e+00,7.724441736730817132e-01
1.020583323225855432e+00,9.697500699168726257e-02,-2.600072725792923478e+00
2.457809870691049614e+00,-5.858136258485996395e-01,-9.783561735850196950e-01
1.583680527575165531e+00,-1.554457868844065338e+00,-1.582918903230543517e+00
-2.352860546945769737e+00,-1.048042323885972404e+00,-8.666613404339075233e-01
-1.798766491793813760e+00,-1.100699453944645301e+00,-1.712616589283331603e+00
-9.202520866361746377e-01,-2.200885218328611614e+00,-1.265175132790766543e+00
1.348272618285838886e+00,3.377069681814247049e-01,-2.377029880256545713e+00
-9.713505838035940698e-02,2.675620433053675029e+00,5.511126623360560473e-01
-1.241303935601002939e+00,9.450893893163154758e-01,-2.236891970948824859e+00
-2.000548420411027539e+00,1.313392446394260782e+00,-1.290206168304053769e+00
6.191424372103174756e-01,1.594926806275067888e+00,2.140577312255553366e+00
2.234536509574447660e-01,-2.566533919355265425e+00,-9.270196889328770062e-01
1.335204486214923936e+00,-1.111188709096324390e+00,-2.180478945722407857e+00
-2.315105215036005859e+00,-3.120710808024709793e-01,-1.444689888931440125e+00
-7.073299993632060634e-01,7.571189107750152525e-01,-2.574955361014164001e+00
9.814260106549714535e-02,2.682066646374375640e+00,-6.114590285843437556e-01
-5.324618289935199034e-01,2.423848263022108096e+00,1.110965495385147550e+00
2.011645730821790323e+00,-1.893360073846960479e+00,8.984847209066397500e-02
2.686475142980123909e+00,-5.548156229195243781e-03,-4.507487990961707713e-01
1.090084183472502799e+00,1.644565685440332325e+00,-1.886367486880682343e+00
-1.692223819339778057e+00,-1.445030131536091167e+00,1.587818097468241874e+00
1.595045181719053407e+00,1.256602485880206066e+00,-1.806943314723429284e+00
-2.751756279108723113e+00,3.602416313192706165e-01,2.649243193614645442e-01
-1.219358422447955670e+00,-1.200561394810730764e+00,-2.104175167389607193e+00
-1.522029404610845793e+00,1.643263152141085204e+00,-1.574011158075723449e+00
1.020050954603573423e+00,-1.690714807649425611e+00,1.793894188153049241e+00
1.620121108782524466e+00,2.185015824099187487e+00,-2.209987583802040523e-01
1.030861680899568977e+00,2.518116645420205302e+00,3.558701318568481820e-01
2.537302523691939538e+00,-9.733272215554394924e-01,5.893197720081663066e-02
-2.091630953605466914e+00,-1.262483118723649878e-01,1.698980656334946993e+00
-1.062797248682379347e+00,-1.059984905254422571e+00,2.312929274758533271e+00
2.216934458844511013e+00,4.881749618764371634e-01,-1.551017291242945184e+00
-1.655571785540651097e+00,-4.523085771809828848e-02,2.103289168537929132e+00
-3.624834870140997700e-01,6.101260574975437834e-01,2.675872999143459552e+00
6.331652114067636283e-01,-3.281677763552292015e-01,-2.668365810849720798e+00
4.274265056001734231e-01,2.676191019531851012e+00,6.631138419914625604e-02
-2.529867288483429011e+00,-2.790713744872431734e-01,1.052316977589521363e+00
-1.948074026916218893e+00,-2.225212257507751812e-01,-1.907861074649030764e+00
3.050716694810421403e-01,-4.479202340582970066e-01,-2.697802402373010722e+00
2.579980034937444877e+00,5.675119827184722521e-01,-7.733894060871167042e-01
5.380765667147745512e-01,2.627948386994568786e+00,6.172580618029119837e-01
1.195248332981283301e+00,7.401412453847917572e-01,2.384690383592331209e+00
1.355064656105209875e-01,-2.385709525000955011e+00,-1.351354256446911872e+00
1.419514182367128674e+00,2.346650833240855771e+00,-1.223053023298513869e-01
2.322518173901891192e+00,1.211415205110002002e+00,-7.899559277210217445e-01
9.350156080169859107e-01,-1.326952998929725736e+00,2.226153312216065938e+00
-9.600289504748030778e-01,-1.938665512625598053e+00,1.619801557749382726e+00
1.368512057212523336e+00,-1.720439857538884398e+00,-1.671581848284474869e+00
-2.698440375921489220e+00,2.218930715459370429e-01,-6.399879977241342000e-02
1.477518875888113259e+00,-1.851172389361531501e+00,1.362493700950680564e+00
-1.962057529337088768e+00,1.780266586073579127e+00,-7.914893651322587598e-01
-2.704779024635425855e-01,-2.640981752204156319e+00,5.090293230934036517e-01
-8.704578503583505489e-01,5.133421535222086884e-01,2.556026958674430194e+00
-3.051303759876223404e-02,4.260235749141454420e-01,-2.662795976303033108e+00
5.232701678527607037e-01,-2.155367442186395088e+00,1.545548243787897569e+00
-2.391165308472592343e+00,2.368866034708409229e-01,-1.302977712895266427e+00
4.169621164944219416e-01,-6.884450838752097512e-01,2.573657190035094189e+00
-1.285242096031322223e+00,-1.571930324329270379e+00,1.913142351259648821e+00
-1.129656329345241961e+00,-5.368319242906923749e-01,-2.383366551993344018e+00
-4.364127815650079567e-01,-2.681568071759695027e+00,-1.982564614191663077e-01
-1.398063141298502732e+00,-6.313287693803275591e-01,2.233754230507700722e+00
-2.245349353869143361e+00,-1.487896613015712077e+00,2.024754934405828266e-01
9.528991389603251871e-01,-8.459298991283134006e-01,2.411423028189771500e+00
4.450599064669669147e-01,-7.145518106713537598e-01,-2.556378924667991104e+00
4.937125495556153321e-01,-2.646009734119469936e-01,2.668353380633307737e+00
-1.050921760764558455e+00,-2.047033194942007306e+00,-1.498830230461171809e+00
-1.399616932575096229e+00,-1.836891631089723420e+00,1.414403301299323346e+00
1.590032314143346559e+00,2.164590729383440770e+00,-4.855303469477307288e-01
2.380961785822468979e+00,-9.108760045196698796e-01,-8.779887775826209495e-01
-1.602051411085716692e+00,-6.526343130339071763e-01,-2.092383450618071183e+00
1.582843285734729433e+00,2.016623445582717888e+00,7.772417816049150829e-01
7.062214899515302235e-01,2.518555384258117869e+00,7.279435896316892585e-01
-2.442979193281368477e+00,9.988398548667605237e-01,-6.174480981984296069e-01
1.205967379942389783e+00,9.882291770369345807e-01,-2.284746825946868842e+00
9.065763644538825383e-02,2.415642285394694166e+00,-1.300850601252289351e+00
-1.644286721906409232e+00,-2.173076793949686447e+00,1.791848510903995273e-01
-2.181221482822238933e+00,-7.227831812435598913e-01,1.496272896454818202e+00
9.566876663471096665e-01,1.635581096991648664e+00,-1.978532784339502859e+00
-1.074255600972042535e+00,6.736450019940955214e-02,2.552672332137999600e+00
1.813856601685932546e+00,8.983122969440009431e-01,1.826971604217981104e+00
2.423419727063730100e+00,5.124379329069117528e-01,1.109766336669735898e+00
-2.717893090976573056e-01,8.165982790295205351e-01,2.634493469556541179e+00
-7.446726292653922386e-01,5.991683952223706422e-01,-2.575572097790913784e+00
-9.198819049294957306e-01,1.886498913112448994e+00,1.742459488267056988e+00
8.152861307550612890e-01,-1.911445356980687960e+00,1.775794629520395684e+00
2.118669308737361590e+00,-1.631109811142337218e+00,5.300647445531065927e-01
-2.245989227979697578e+00,-1.322767964302072219e+00,-9.227942771824475532e-01
-1.677103228770568277e+00,3.485419001079613777e-01,2.141820271260149067e+00
6.682920117732985554e-01,2.298802105801457607e+00,1.330310870834304549e+00
1.234801992612840849e+00,2.065531652748954450e+00,1.293657821312112599e+00
1.910087404119393817e+00,-1.821629314106610664e+00,-4.224238555427164421e-01
-7.886010958821785266e-01,2.095474615263448470e+00,-1.497591508202575250e+00
1.904389886510434726e-01,5.726908085686732708e-01,-2.675730625718201416e+00
2.233752488763832922e+00,-1.059103807351008175e+00,-1.237753335427738133e+00
-3.846215214652142222e-01,-2.531985122834233159e+00,1.006763896804996117e+00
-8.727931235841960289e-01,-1.195944543960144379e+00,-2.262359280602881828e+00
1.864379522422683788e+00,-1.971053734407001379e+00,-5.783650316974664474e-01
-1.769332152442516071e+00,1.391156212223067623e+00,1.579156362299752647e+00
-5.502482717330634543e-01,6.815607097882695475e-01,-2.534716979702224648e+00
2.124423968689964415e+00,1.312964399345416977e+00,-1.037183330933638681e+00
4.412359382661926177e-01,-2.314013685721605817e+00,1.341900454088779782e+00
-6.573530445314416104e-01,-1.681679284995160950e+00,2.036302304852970479e+00
2.622040685210177413e-01,-1.515553763188777658e+00,2.276036397545692758e+00
1.266464864684232472e-01,-2.729999422584970414e+00,4.570508362237619276e-02
1.104657310299296924e+00,2.441743722856819065e+00,-5.497728052163898260e-01
-1.927538927532592705e+00,-1.670176297970198620e+00,-7.949054626915178501e-01
2.339529286838620159e+00,1.366221494153197824e+00,5.101607567569574897e-01
-8.436809360650810996e-01,-1.683082658497614625e+00,-1.987511331974512352e+00
-2.564663745251855254e+00,2.055766399841303382e-01,-9.036376159025728549e-01
2.439633625647042781e+00,-8.010343060704328000e-01,9.825287502064929956e-01
-7.194382184507155387e-01,2.590298823848676602e+00,3.788025500583196981e-01
-9.446128532289704838e-01,2.521891187989243832e+00,4.407254418334426438e-01
2.237801430924883928e+00,6.262092187300681567e-02,1.535874230405359642e+00
9.624231035353112418e-01,2.332456096660844747e+00,1.017914939368871785e+00
6.074916121815038261e-01,5.998976940767334343e-01,-2.599776879479216873e+00
2.262405352036343409e+00,-1.264503582961371553e+00,9.056247768533733922e-01
-2.128697462204533153e+00,1.526668707757970811e+00,-6.752125112979968646e-01
-1.045217469972566038e+00,2.507321163374706785e+00,5.764449381665943256e-02
1.615010598031616729e+00,1.049546197799628988e+00,-2.015935168702260416e+00
-3.250399764823419524e-01,1.706365733372391391e+00,2.119987882193502760e+00
2.243551246710941083e+00,1.594688277113097685e+00,1.423786514836687112e-01
-1.599527023614557564e+00,-1.582996195502358372e+00,-1.540902509785686547e+00
-1.625477442714907017e+00,-1.858296862953357831e+00,1.157524551256213119e+00
1.703207764707901806e+00,3.473401888176416707e-02,-2.143131891844920034e+00
-3.962715439736522738e-01,-5.904739251574205872e-01,2.676418947512070989e+00
2.771280810477924073e-01,2.633993206272895904e+00,6.982612246143816703e-01
-2.065655259812809508e+00,-1.415660578974078820e+00,-1.108577288892705903e+00
-1.914845456611496965e+00,1.165953314856121414e+00,1.488182414024231237e+00
-2.156514865371560230e+00,2.164840775839847742e-01,1.723608686362007703e+00
-7.237295054904787639e-01,8.999337617985029292e-01,2.467514610688067656e+00
1.193564042757516708e+00,1.548926036392663352e+00,-1.864143657527567166e+00
-3.604932179107949719e-01,2.047838977531401650e+00,-1.774063700431973478e+00
-4.930824894402424108e-01,-8.282210581304993990e-01,2.570016655634656200e+00
2.153502226313016299e-01,-2.681936753359320580e+00,4.592099496809857670e-03
1.690687690953403433e+00,1.779589648929005730e+00,1.217767536433773445e+00
-1.914112814958083497e+00,1.693201469679207705e+00,-8.865830813105038954e-01
1.927970675746959461e+00,8.201584273149221671e-01,1.744978308568368996e+00
-2.105527635526593389e-01,-2.031118303255182944e+00,1.824335774014371969e+00
-8.594748750464295539e-02,2.110767972839879825e-01,-2.690227514560015187e+00
6.776062399893455490e-01,-2.173336943275162803e+00,-1.481994862794146828e+00
8.660258651423216048e-01,-1.713382927997835870e+00,1.978980088950317295e+00
1.115116218154441396e+00,-1.827379209199837762e+00,1.669884392444046739e+00
-1.096763385769896404e+00,2.553527108323293326e+00,6.157021045687010447e-02
-1.339251003031042497e+00,-1.986298997786579701e-01,2.363411175527192487e+00
-8.721877956691581613e-01,2.551638053244710047e+00,1.613369122476130402e-01
-5.079729414056970427e-01,-1.714152620598641708e+00,-2.048027113754750328e+00
-2.747280863942296869e-01,5.591580555814822384e-01,2.653365322159472850e+00
-5.822886759688253866e-01,-2.008725882001751728e+00,-1.751680449387702287e+00
2.646059617170922751e-01,2.341680202373392472e+00,1.429125451643072697e+00
2.444281021629989059e+00,1.183310370677333800e+00,1.455667868202484838e-01
1.253893133256579473e+00,-6.155367158142216466e-01,2.321985405541677316e+00
-2.260827468221862979e+00,-8.101374094336831755e-01,-1.281249975165577704e+00
-4.451512521781477161e-01,-2.197620630372131956e+00,1.544512199672774866e+00
1.784316055591671280e+00,-1.827889963689925068e+00,9.551726797253632384e-01
-1.574703059023133234e+00,-1.798887492182107195e+00,1.305165164372057207e+00
-3.391098218093289984e-02,1.366122515428987994e+00,2.375146932430906688e+00
8.399219342813675215e-01,-1.245944301783419972e+00,-2.284401428116753952e+00
-2.497589103476146377e+00,1.251689085554459624e-01,1.074864810957619321e+00
-2.567290784920591151e-01,3.098642475291233933e-01,-2.731089984633946255e+00
3.432950530827483804e-01,-7.566606644864518616e-01,2.629648371969560472e+00
-1.765407225074560049e-01,-2.355651857581346764e+00,-1.390565525416738613e+00
-1.675162446553710494e+00,-2.013788541406115407e+00,-6.934860781114993156e-01
1.554569312788218527e+00,-1.695222538316048633e+00,1.491250073891698502e+00
-2.167384166487211772e+00,2.458363065814181125e-01,-1.668223426372740459e+00
-1.213609812392065335e+00,6.778055551394032152e-01,-2.342214825903826458e+00
1.566385903432493176e+00,1.350585643845929606e+00,-1.748086509048373927e+00
-2.398260160390963236e+00,-9.442093758086738120e-01,-8.565835255015377125e-01
1.339123482977545299e-01,-4.545890257454293648e-01,-2.735497681771911882e+00
-2.919773966222562467e-01,-3.783775103039144772e-01,2.721614161086159278e+00
-1.086057280945023074e+00,-5.037249082892304719e-02,2.531743649342402147e+00
-1.819324497613329816e+00,1.826264601263011711e+00,7.918618405324002740e-01
-1.418391957574531015e-01,1.765345015895746883e+00,2.115419778274528539e+00
1.419430682032138957e+00,1.847498936358522137e+00,-1.512441641760247091e+00
2.228701148580581659e+00,1.306331940629799071e+00,-9.030767826647506658e-01
1.452609063604496820e+00,-1.381034630031089838e+00,-1.817923370915363934e+00
7.487423890431138540e-01,8.708824770374974655e-02,-2.632241186372601849e+00
-1.523705599838342639e+00,1.298315706100434896e+00,-1.907521120497065237e+00
-1.766619012138730682e-01,-1.390028741674086410e-01,2.767049858947690844e+00
-4.558364737117298615e-01,1.945087308302365647e+00,1.863199354901670324e+00
2.188820760470433946e+00,1.621807847384556522e+00,-4.482758150208827029e-03
2.634257698715790408e+00,-1.648439909039818296e-01,6.484371009560646604e-01
-4.316432618110537245e-01,-5.490828174785720162e-01,-2.685234653549026795e+00
2.735033472974746527e+00,-2.120114189919379000e-01,-2.023118172099018786e-01
1.608041778188348925e+00,2.015288031401062607e+00,-9.295073137893720139e-01
-4.711344986670928936e-01,-1.429361710420889553e+00,-2.292956403065881332e+00
2.057189329954713042e+00,1.539969852610489465e+00,1.010182384712794423e+00
-3.881927492888694875e-01,8.827588312085280497e-01,2.560926325014575067e+00
2.382479936751066507e+00,-1.236279570589134513e+00,-4.135228561318530227e-01
2.053883597011223472e-01,4.506299472308010201e-01,2.683998859711653306e+00
-2.668427938956095424e+00,1.435284088562709393e-01,5.622544987461490784e-01
2.287959890142231001e-01,1.923868476176846087e+00,-1.957924998590204524e+00
1.809199879953478085e+00,2.759113836096557248e-01,1.995097644287432415e+00
-1.428478692211196055e+00,5.988386228051334470e-01,-2.248891849635308748e+00
1.642916455468603099e+00,-5.744823062058741492e-01,2.080427797016900282e+00
-2.363328680231761236e+00,-1.928987890551620843e-01,-1.341788029857135633e+00
1.746969843542621748e-01,-2.732050729609030615e+00,3.136982634102532530e-01
2.688676106528694820e+00,-5.038508192774476813e-01,-6.201482535270236990e-02
-2.332520939615795097e+00,1.139405731651701725e-01,1.413955840061130953e+00
1.680861149399141219e+00,7.961518140090619866e-01,1.978284686596046837e+00
2.096683638888101164e+00,1.725821440181770638e+00,2.935691208412696818e-01
1.279221265667028762e+00,-1.574452520294105762e+00,-1.788193849040464967e+00
9.494342799061576688e-02,2.638563089156346742e+00,7.549283209470575295e-01
2.259942016415081412e+00,-4.901763155659203952e-01,1.530615654439280604e+00
-2.621070388215035241e+00,-3.173188792193757379e-01,7.410455541023353021e-01
-2.365625356393859846e+00,1.114867791108436812e+00,-6.358928383325069822e-01
1.758086003523946506e+00,1.576058355098295172e+00,1.294746328840700622e+00
1.098166933120095612e+00,1.626453793201514397e+00,-1.830242228552101613e+00
1.411955565563546511e+00,-2.201755535108966377e+00,7.244512233257305311e-01
2.051944063330648937e+00,1.735202556452721256e-01,1.865577475290367992e+00
2.583115298270914462e+00,-6.091902097785045767e-01,7.369753685001994015e-01
-1.773924728776879789e+00,2.806993395762201193e-01,2.087647892000175975e+00
-1.330813990117767354e-01,-5.560203103199696795e-01,2.663541699539383245e+00
1.390345938699747874e+00,1.839733539790283923e-01,2.344820449428770104e+00
-2.780127914349519447e+00,2.271575832080669488e-01,-1.707654857079268507e-01
7.616188717609362335e-01,1.066898163609523609e+00,2.432795352766641717e+00
1.939176928853286741e+00,-6.169721576180219325e-01,-1.831652114032267908e+00
-2.104625035600614424e+00,-1.736343554121053234e+00,4.178114933855545665e-01
1.892001047233217825e+00,-8.219455610115945499e-01,1.828095294567533502e+00
1.172340258843745237e-01,-2.578265975539289379e+00,8.724922057925217356e-01
-2.804084212904383033e-01,-4.186157076662983534e-01,-2.654460377727843490e+00
-1.195042060277569984e+00,-1.935682286910450633e+00,-1.590260941967643227e+00
-1.996343413861989546e-01,-2.598490662482650482e+00,7.856273265280869778e-01
-7.074899619927038641e-01,2.332567858355043988e+00,1.243083391690014805e+00
1.660926851342869215e+00,1.979987666160307747e+00,9.521715995173288816e-01
-1.710004537118902657e-01,-2.280714642912791135e+00,-1.434264310228069439e+00
-1.087045347660605676e+00,-1.753071499395162602e+00,-1.828815819300689816e+00
