3.642173782154929373e-01,5.347030572106103108e+00,-3.772876251706996253e+00
1.537531501333550876e+00,-6.307490825557141356e+00,-1.794557927973438605e-01
-5.536993728769493472e+00,-1.994856340469529199e+00,2.617042277762144487e+00
5.311472309152814653e+00,1.451126894447323235e+00,3.464265636740282872e+00
-2.015198355620897885e+00,5.714118354401788169e-01,-6.108237320728797215e+00
3.904583451940337291e+00,4.996238471497228772e+00,-1.928554271551205179e+00
-1.429244050738788463e+00,6.775641015231868014e-01,6.306071864881615419e+00
6.884309831979307237e-01,3.714843230398976459e+00,-5.339136335383400045e+00
5.159595317112517954e+00,-3.587176752119542567e+00,-1.689982272170079236e+00
4.515484940376144785e+00,2.325071393986917645e+00,-4.074914153080143819e+00
-3.557523128934971801e+00,-4.940108752067117415e+00,2.044693227121078039e+00
2.974342973849247507e+00,4.775076825642993406e+00,3.314938605034359220e+00
-9.408289017037556601e-01,-1.828984736580547416e-02,-6.421797381067866795e+00
-3.119698556914915155e+00,-4.984555313994156300e+00,2.861834694485935859e+00
4.852128079455286347e+00,4.264030866278124776e+00,-5.152912148944356341e-01
-1.842604863085752775e+00,-5.889722289129348809e+00,2.040133258778380920e+00
-2.864367928338557689e+00,-5.634412166769724450e+00,-1.232707201275208053e+00
-3.745786855816768846e+00,9.727700819029260204e-01,5.293793984700614352e+00
-2.692023503644255022e+00,-3.894241903381884473e+00,-4.654625400430181692e+00
-2.378642079739881510e+00,-4.909795625967133148e+00,3.456107112703384221e+00
9.678535599619666474e-01,6.514373055519278921e+00,2.610085911370510492e-01
-5.600871227451520440e+00,-3.129223752358506250e+00,1.333318975032933951e+00
2.516542211508972837e+00,6.011772319045071811e+00,-3.835490871521560208e-02
-9.871647766045383854e-01,6.196723515128635951e-01,-6.422245987293585756e+00
-5.866469568503294152e-01,-2.695510448643322565e+00,-5.963486802993144487e+00
4.207228827573229246e+00,-1.620772569752366443e-01,-5.064705026892982964e+00
2.921778684897640144e-01,5.584283484361650451e+00,-3.239831276866308230e+00
5.968075650358240836e+00,5.506987362022049137e-02,-3.118342279316846266e+00
-2.636659235742311314e+00,-5.826330385870469364e+00,-1.287317609426281484e+00
-3.468708640437427437e+00,1.978228173901130260e+00,-5.143049129300533373e+00
-4.311690783628201906e+00,4.194791477707439320e+00,2.707238700942263154e+00
3.029290757482493657e+00,-4.981074477277916301e+00,2.879253748618601616e+00
5.643467151707319829e+00,-3.165416718941425511e+00,5.501095279896062173e-01
4.212957063669994007e+00,4.348442679011155221e+00,-2.260201931948115917e+00
1.956069211701655375e+00,4.702430848330165780e+00,-4.236369948644179928e+00
8.328863119634603018e-01,3.457902462746673233e+00,-5.507972956763394379e+00
1.184715683753441162e+00,-2.986429747078136909e+00,-5.583779154424772351e+00
4.028940959365453267e+00,1.899106016756503479e+00,4.795507280084849278e+00
-5.410868522934610958e+00,-1.231419606816584578e+00,3.346488194555365503e+00
9.412334280750478399e-01,-6.034724502429605231e+00,-2.180023473288879909e+00
4.673213545372094657e+00,-4.514092065905889406e+00,-9.820658770354663281e-01
-2.084923721420391729e+00,-6.115986780761893726e+00,-4.750438971808333410e-01
5.384253716414106883e+00,-3.554678966638018078e+00,5.696387129455814796e-02
8.985504983698694437e-01,5.283649858418193901e+00,3.759860100779343739e+00
6.308427495859959322e+00,-6.320229985877343637e-01,-1.756752560528558327e+00
5.200142600654204195e+00,-1.264070277866314873e+00,-3.606457012356237168e+00
1.408744097014003917e-02,4.119289818970838013e+00,4.985014934107013573e+00
5.957380537056910619e+00,1.302696606847870253e+00,-2.215673038496858371e+00
-5.195642196836781856e+00,-1.080039142184964662e+00,-3.508910462861726920e+00
-3.660929439755203241e+00,-2.091776691786065179e+00,5.084226516655601991e+00
9.426279015800170802e-01,-4.103833411996492764e+00,-4.978236618175685635e+00
-5.218914831680965705e+00,-3.568827864243687920e+00,1.325701086037945231e+00
1.581492315188191444e+00,-1.558141413049382029e+00,6.199369794061608374e+00
1.336989544888546266e+00,-1.687463576906921725e+00,-6.034333188485755173e+00
3.265304133185304103e+00,-6.657154970912722014e-01,-5.529423663789561516e+00
-4.782019245409780517e+00,4.284866489919238575e+00,3.664998427281637716e-01
-7.333841188976869541e-01,5.919485684157039351e+00,-2.600226794994955792e+00
-2.460042616900548929e+00,-5.868460714101447984e+00,1.100355399970128489e-01
4.605623900590252173e-01,1.696244752123232447e+00,-6.188087584618056525e+00
-4.262522618382055817e-01,6.374552792762361975e+00,1.214539313870185655e+00
6.066982685711437284e+00,-2.130671610139931449e+00,-1.016599962874249474e+00
-3.566532780035300387e+00,-3.168247044888270914e+00,4.295464027339933821e+00
4.112211473475880785e-01,-3.809263686848888497e+00,5.335734200766695245e+00
1.382482883031801002e+00,6.114648624987819581e+00,-7.534794760923143597e-01
-4.541448173525844290e+00,-1.048908578064285724e+00,-4.395937115927672778e+00
-4.384989394336507473e+00,-5.277637695558142772e-01,4.820312354582294567e+00
-5.062954032410886818e+00,3.971426647729727755e+00,3.248026797309571667e-01
-2.297768857520884556e+00,-5.961768756861932417e+00,6.586380507359613778e-01
-4.847075884649308719e+00,4.229281505849773914e+00,-1.262776854640082380e+00
-3.426924502690602115e+00,2.346932335082258181e+00,-4.931072294020930613e+00
3.068284064894712060e+00,2.686309325114364377e-01,-5.711750026867123964e+00
2.101277879870732335e+00,-3.513353780115003655e+00,-5.249317972434648816e+00
4.951462565758857792e+00,1.074123751901453039e+00,-3.973822817037074628e+00
-6.422010577075793591e+00,-1.705234022842086361e+00,-1.647814017471366799e-01
-3.256531297188628216e+00,-4.561813414223813368e+00,3.337384393883914058e+00
-1.569904113280071956e+00,-6.188809943523108537e+00,-1.328898108982849546e+00
-6.045159595832638288e+00,2.150965252303257969e-01,2.251784549140012803e+00
-3.750085862936825887e+00,-4.092607942639736152e+00,-3.126331082590565469e+00
-3.013565511527003693e+00,-5.423731100143491801e+00,2.064000761589120714e+00
-5.077223337860701236e+00,-8.809912524443037629e-01,-3.994277507198980004e+00
-4.741660593942711444e+00,3.411562403483514139e+00,2.821913713517046229e+00
5.708207891023839409e+00,2.851170786362462017e+00,1.522065490642482199e+00
5.430845028427718546e+00,-1.697159338877747503e+00,-3.106165348747295329e+00
8.827398357236513338e-01,-4.550745309324641497e+00,-4.590960234445151222e+00
-5.213360640758482489e+00,-1.024834443208143764e+00,-3.900324517564504490e+00
-4.891826176141217175e+00,-2.620362573062029465e+00,-3.578081758846664684e+00
4.040504787400490017e+00,-4.836867358128900563e+00,1.476410274170594894e+00
-6.434601633798545661e-01,5.746088572399073335e+00,-2.907217639154576982e+00
-5.147355863378927365e-01,1.334492864758020092e+00,-6.192328478442227890e+00
-2.359272435104021071e+00,-5.880864797673045707e+00,-4.154525222840158571e-01
3.521905285681610209e+00,-3.271064816590920632e+00,4.446236080861178053e+00
-5.951643801936452149e+00,8.619999815064497417e-01,2.533709837520394359e+00
6.398903198999790654e+00,-3.470286987846723514e-01,-1.289425869854927242e+00
-2.113341211192621749e+00,4.360044812677866255e-01,-6.102527434764851932e+00
2.536641917477976627e+00,1.797049465027644732e+00,5.718100718594706144e+00
-3.423214698878147000e-01,-6.446125663411888418e+00,2.996543060062344943e-01
3.612827938785799109e+00,5.094322847595527115e+00,-1.873362132770494126e+00
4.875822619407340852e+00,-3.788448854096998275e+00,1.877108260533421946e+00
-2.414662392520848133e+00,-5.093138340374815165e+00,-3.179405872000818256e+00
3.225496868399256867e-01,-2.536418459802306291e+00,-6.080701776169104456e+00
1.590465305303621069e+00,-5.869983759891498565e+00,2.466068884336586997e+00
-3.184375943556141397e+00,1.541374725660678680e+00,5.429308439304149303e+00
1.707186654419924343e+00,4.985151666856802777e+00,3.752210694879074993e+00
1.047668587432570159e-01,5.434093349753268853e+00,3.508502356174197256e+00
-4.034112770234848711e+00,2.775854776011074776e+00,4.277200317360374981e+00
-4.191359196336422954e+00,1.424103527892062404e+00,4.719789875350590691e+00
2.116671052511841289e+00,-6.116562878335287223e+00,-7.192232223391896717e-01
1.565655705645555340e+00,1.615116791017937814e+00,6.005060666680096304e+00
-6.173978364912047212e+00,-1.460747901413554484e+00,-1.117475918795439727e+00
2.294788791652597748e+00,1.676325298156167376e+00,-5.739425390305005870e+00
3.133223397364167884e+00,-5.586600928975959945e+00,1.273225052607849017e+00
1.507722360979057319e+00,-6.062668551971816200e+00,-1.748406057790386159e+00
-3.664565091245629791e+00,-2.983333326867974034e+00,4.480829022872718781e+00
6.093791243225877174e+00,1.066906048353101433e+00,-1.884508213975950586e+00
-4.725934379862921197e+00,4.222428526428060103e+00,-1.541155089484308460e+00
-5.325614629834523051e+00,-8.364774560495433775e-01,3.469216558935686034e+00
3.943817939302451947e+00,-4.210616882427236973e+00,3.054874297013149054e+00
-3.257446554650798909e+00,9.712887525117844811e-01,-5.588045057697127227e+00
-2.494597650658174182e+00,5.976551337961248045e+00,-6.933594610350651832e-01
-2.118730438125301596e+00,-5.980503097553429431e-02,6.194259289917677158e+00
1.319800946843839862e-01,5.628894207238722913e+00,-3.062384314988516376e+00
1.793107951836043990e+00,-3.506970169816872041e+00,5.287522120578956653e+00
5.321786361887559380e+00,-3.763626392665035958e+00,-4.742822571279686206e-01
-2.764710072186697953e+00,5.189760582961402274e-02,-5.738385632032916739e+00
4.554185391614116618e+00,-5.718441329806701612e-01,-4.480668441400404767e+00
4.985767618920381672e+00,4.194233430325193801e+00,2.744102381291271819e-01
-5.383921802244159949e+00,3.737749747214288432e-01,3.474067550194094078e+00
4.690364696261754007e-01,6.446372847257412886e+00,5.366835513027638782e-02
4.913100642072919300e+00,2.456181102392503313e+00,-3.363786247814847918e+00
-1.789312966295455221e+00,-1.478704175965562362e+00,6.016226454415852132e+00
-3.842767722488222848e+00,-4.997684630715702458e-01,5.222214134607484404e+00
-3.916788818100044312e-01,-1.140069595267573233e+00,-6.470635200666055020e+00
-3.040877216141641970e+00,-5.426189635263760636e+00,2.144532633503696051e+00
5.313579605632159364e+00,-1.452439538212267234e+00,3.597754976374020863e+00
3.573612439291613985e+00,1.012206519550920447e+00,5.360796241153436448e+00
-6.206589300236151630e+00,9.631925331070341212e-01,-1.838017103290155330e+00
-4.423226752004294937e+00,-8.506137699721716405e-01,4.665400351771443077e+00
-5.542798146165916151e+00,4.190684031472623472e-01,3.391169008510672711e+00
7.880667312307761962e-01,6.240176555608475617e+00,-1.817431639271051891e+00
-3.959644466739951518e+00,5.168215141604743046e+00,4.938359528605498761e-01
2.894483022482637335e-01,5.667654177700132578e+00,-3.218078455691391060e+00
-2.606079345338736974e+00,-8.453451658979386218e-01,-5.827513184819495429e+00
-2.791470869711333069e+00,2.711114010000225782e+00,5.366971290512564607e+00
-4.900411895351659552e+00,-4.394339870580144414e+00,7.654863124648085826e-01
3.597147566638706717e+00,-2.101833775273224347e+00,-4.952152695780726255e+00
3.034731543762189787e+00,2.323330290497701567e-01,-5.784225128619398859e+00
-5.707194096242583115e+00,3.050033652474633872e+00,-1.212935912260747262e+00
4.991156532918012978e+00,-3.796236318080418393e+00,-1.394907719656594880e+00
-1.783442202934713006e-01,6.469087154151870855e+00,1.024587750114809959e+00
-3.432553797585494060e+00,-3.013144890599472436e+00,-4.494555850030933719e+00
3.431164770253292140e+00,5.282860944919583801e+00,1.109177996829297630e+00
-1.207866326698985526e+00,-5.335622870160984910e+00,-3.739220433811567545e+00
4.593458021780601364e+00,3.222160003150455143e+00,-3.317461761056128999e+00
-2.258075781462427767e-01,4.037545324934045610e+00,-5.050072569233037711e+00
6.304818069813840076e+00,7.133890054200371644e-02,-1.645860239519906898e+00
3.280559742906449028e+00,-4.354286235562952356e+00,3.549087873222033007e+00
-8.939849389949708902e-01,1.279349918801789832e-01,6.542805000986574804e+00
4.374213057394076287e+00,2.097050568372598178e-01,-4.749499842798960536e+00
-3.911906045360358242e+00,-2.555038396232163667e+00,-4.473197761615848478e+00
6.578551810972804725e-01,-3.229338085528126179e+00,5.638870315450990489e+00
1.340751451142030204e+00,3.302003103795504213e+00,5.546458085744095712e+00
4.908186111952087316e+00,-1.959648509088787627e+00,3.854989823844606978e+00
-5.945939015057632560e+00,-3.741756821807470934e-01,2.689384556410368443e+00
-5.386524268933335691e+00,2.877854132934970277e+00,-2.414601351766459736e+00
1.774276443265117909e+00,4.980684465093048630e+00,-3.948364507346791452e+00
5.103897020080653490e+00,8.168423146395266121e-01,-3.853140467217997855e+00
5.241520106418815494e+00,3.327497243095419055e+00,1.839387569053170690e+00
-4.138214247465929141e+00,4.691869971072170742e+00,1.562875389770196133e+00
4.080423031281166679e+00,-4.564015219051651862e+00,-2.172881941751934942e+00
-3.274395811122572830e+00,-8.414802091020832098e-01,-5.615191850084499947e+00
4.164902265999659292e+00,2.084104181680489276e+00,-4.505336959493385862e+00
1.435302174471143610e+00,1.604315416453245269e-01,-6.297369741438653357e+00
4.935724153295954153e+00,1.400413204003134293e+00,-3.818560129430425665e+00
6.210996500455134850e+00,1.339080276791799973e+00,1.368052387575064310e+00
8.484604285565844339e-01,5.970604736528278167e+00,-2.535363917036093540e+00
1.398744707047677949e+00,-4.279873796057707125e+00,4.567046641267230811e+00
-3.910827108184165901e+00,-1.562076828838124154e+00,-4.935583058015697411e+00
6.456957533271011407e+00,7.978194018501370832e-02,-1.326703543887314041e+00
3.402565349014170959e+00,2.664007313962805323e+00,4.978862444526674480e+00
5.024380793909869247e+00,-4.333435743018651642e+00,-4.307422148862760092e-01
-1.890438037591592124e+00,4.465421743218978889e+00,-4.547773878294775862e+00
5.378622670451218113e+00,-2.554609741088480934e+00,-2.383607612545904697e+00
-4.426710358283969526e+00,-1.581176138371883200e+00,-4.503713086272346899e+00
-4.574870166910569580e+00,4.362891262549667637e+00,-1.551726393124872594e+00
-1.616615958777564144e+00,-6.378739907121203423e+00,-3.621984077065427687e-01
1.966395245862343488e+00,3.342181298820748658e+00,5.173756162440181328e+00
8.064357277651093003e-01,5.497666804882007874e+00,3.215908563076035342e+00
4.065890452841744107e+00,-3.160146973098154177e+00,-4.021866718200852731e+00
-3.523677077990802431e+00,-4.271839700617688251e+00,-3.470958321301225613e+00
4.810442246987436832e+00,-3.489443821077494956e+00,2.573524859493072636e+00
3.392056604574530621e+00,-4.755468908099663494e+00,2.687732245538630327e+00
5.281340105274007435e+00,-3.724814407915510550e+00,1.165226493962212340e+00
8.305031222493284293e-01,-6.194586381779820350e+00,1.774162223811559080e+00
-4.603194206994748683e+00,2.524929830755542781e+00,-4.034504051703710736e+00
-4.770783496359200626e+00,-2.793212868751109301e+00,3.508583837854034382e+00
3.310912962325603281e+00,3.658546142792892031e+00,-4.230156080660276707e+00
-4.303600585836360182e+00,-4.050015784830857335e+00,2.535778141134959807e+00
6.018437324663690191e+00,-3.236305691901943393e-01,2.339743764551879490e+00
3.691546294294152375e+00,-4.735741758406825319e+00,2.554623473471989037e+00
-1.114077830262148128e+00,-4.218399415343045078e+00,-4.888611761989019477e+00
1.901809483305177295e+00,-6.179866631523858622e+00,8.822458048368377881e-01
-4.422119606687087590e+00,2.912608687266012186e+00,3.931208465502299632e+00
2.244247900909475124e+00,2.347907649871709079e+00,5.507768212746550596e+00
-1.345219527110745883e+00,7.475027512689719211e-01,6.291866991545219001e+00
-1.110763894103424798e+00,-1.552557873636701613e+00,-6.186296266875981331e+00
4.476919478844481937e+00,7.135242238632802936e-01,4.794849977971995969e+00
3.261527508297135558e+00,5.617251276959455808e+00,-1.794740902983646136e-01
-4.524069257117509402e+00,-3.494201013674751444e+00,3.285697574724631309e+00
-1.071886635684457190e+00,-6.015579553488454856e+00,2.144851113215718197e+00
3.033000961006454776e+00,4.764010130165235779e+00,-3.174357747816756614e+00
-2.933645733004902834e+00,-4.883893035294419427e+00,-3.038339546687323978e+00
5.979084770467936849e+00,-1.576203714667581579e+00,2.377884077355993497e+00
-3.267470372258156619e+00,4.628112577663129890e-01,5.476085146044436414e+00
2.283115424785727043e+00,-5.495144296700117614e+00,-2.513553535102378778e+00
-5.604079361347525712e+00,-2.457943771857707294e+00,1.718908032449691259e+00
4.608819334947027890e+00,1.249040627288701133e+00,-4.362122976071720615e+00
-1.221545533389302607e+00,3.274707632593024442e+00,5.454779085443758113e+00
-2.002713524557830915e-01,-6.453665229915906743e+00,8.604923690723571550e-01
-1.572317571003670977e+00,6.250230869172585635e+00,-4.055240085892139468e-01
6.015899896426492033e-01,-6.174268480086067434e+00,-1.902635592383392193e+00
-7.232811109664966098e-01,2.275470965539309276e+00,6.031961403926432652e+00
-2.706126830735348099e-01,5.960446939277115774e+00,3.034111221932400237e+00
-6.136546829351896548e+00,4.185202047443048468e-01,2.055067058576123706e+00
2.769247701060900679e-01,3.851587362860112940e+00,-5.136097521280798439e+00
-5.216418283314965265e+00,-3.165507770808804189e+00,2.323831120300628772e+00
5.094995986335279170e+00,1.467513470988366153e+00,3.769859613752291949e+00
-4.153277979503935846e+00,3.834017293710734187e+00,-3.316780438174752099e+00
-5.426264806793550832e+00,-3.164776442605443663e+00,1.644983810549478953e+00
9.032881533004423202e-01,6.476262234435715470e+00,-9.910216443771133754e-01
3.614267078219433937e+00,4.778527170311705596e+00,2.610386750424534608e+00
2.903466247773264897e+00,-5.580350130769152983e+00,1.628063583036419182e+00
1.162720319829619875e+00,5.431632375336215013e+00,-3.264524538705372514e+00
-3.103571747962317495e+00,1.858326300151200261e+00,5.393563425060473371e+00
1.186464768769351474e+00,6.154643408509558711e+00,-1.709681406395276770e+00
-4.834901806637284416e+00,4.298577724493371832e+00,-4.218800401594537397e-01
-2.739306674660244578e+00,4.531493807212170211e+00,3.615151416090744974e+00
3.356662075274262080e-01,2.193081329588226325e+00,-6.018589542884231314e+00
-3.870927434138421663e+00,2.481559348340773408e+00,4.637046860752453092e+00
2.695287698754023631e-01,-3.435793746189188536e+00,-5.495245209052205482e+00
-1.833788082822314369e-01,6.449420135208287164e+00,3.872708273852113470e-01
-1.223975445221078040e+00,5.094540342340504679e+00,3.811171409755895745e+00
-4.604233851262088395e-01,7.623655839802542244e-01,6.552855746234478751e+00
-3.613860896662229649e+00,-5.410119946329069229e+00,6.454966759880216287e-01
-2.637444784263144104e+00,-4.670857911663881090e+00,-3.745585221074774207e+00
-4.859895778667389088e+00,-3.465232522437590834e+00,2.314315875570347902e+00
1.356581441742078287e+00,4.979896279045172847e+00,4.206574477549269275e+00
5.182243767219348207e+00,3.740039369208894571e-01,-4.005537145355448914e+00
-4.820300028484623134e+00,1.397577298308397831e+00,4.010798018294708278e+00
6.066256591440446932e+00,-7.171912909208190134e-01,2.211679203792118464e+00
4.322234384667368978e+00,-1.183335067953066755e+00,-4.457704190313619641e+00
-4.017797031138506725e+00,-2.144059386419124302e-01,5.176098931424532701e+00
-2.817116391109201867e+00,6.456588899540847137e-01,5.708203295620215556e+00
1.949776471873692490e-02,-1.492208938768233129e+00,-6.331402087224457631e+00
6.380934825915219655e+00,1.520882823751255497e+00,-8.374850712228335547e-01
1.994795813178350530e-01,-6.115464019340341117e+00,2.383371752548005595e+00
6.266802671242632794e-01,1.032192843575517438e+00,-6.369521401207485667e+00
-5.642045640056794764e-02,-2.823744032147803118e+00,-5.808989458951320906e+00
1.544048009691914025e+00,2.915506461093035462e+00,-5.526561003582751042e+00
-4.531216723954759829e+00,-3.651410372667799997e+00,-3.002800362078614338e+00
1.522554180159087611e+00,-3.424349048677758578e+00,5.486499529443705114e+00
3.953640823356824985e+00,-2.908108565270946855e+00,-4.380959479452496197e+00
7.796551447555477576e-01,3.387653973963764997e+00,-5.438844316162198211e+00
-3.189496966819664436e+00,-2.086658391233003673e+00,5.193170636335926460e+00
-1.382866941441824205e+00,-2.491576155626638478e+00,5.891855993443405382e+00
8.484323221008201188e-02,-5.149629364365075901e+00,4.064971106556425795e+00
-4.082571016905182759e+00,-2.325744153078229015e+00,-4.449735067437581293e+00
-6.223285885384687965e+00,-1.591454430834435163e+00,2.054472830965725361e-01
2.893699103117203020e+00,-4.884396631584834836e+00,-3.133591542543181063e+00
5.465419362098599132e-01,-5.705474209895886162e+00,3.099555472763767305e+00
9.628493510987538029e-01,-5.295598253648856613e+00,3.646909289114976804e+00
-4.889054231780130877e+00,2.225021614399816716e+00,-3.440863143604730112e+00
2.296905166569278567e+00,6.115670117872264555e+00,3.269202059214355027e-01
1.441078527632651651e+00,-6.185378428803907092e+00,-3.960297819906075656e-01
4.956571552270547798e+00,3.232649291801935831e+00,2.524698831438964675e+00
4.189987499144648631e+00,-4.982025122303466169e+00,-1.360927461288891749e+00
6.419689153451871633e+00,-3.988121038274570207e-01,4.415927741844514753e-01
5.249291046537694960e+00,-2.670551778537547882e+00,2.717077767343389016e+00
-4.249762730806991406e+00,-4.036713370290815561e+00,2.731579707869431051e+00
-2.361985527465989332e+00,-5.503918763983841167e+00,2.432078738601666235e+00
-3.600317378097560583e-01,-4.083072563465092841e+00,4.948091963943923588e+00
4.673091621920974603e+00,-4.168213063102070848e+00,-1.928487228558130706e+00
-1.539806312604467875e+00,1.805635363450196262e+00,-6.056104950814382271e+00
-1.421554515961596765e+00,-5.739448741851435720e+00,-2.674120686024252347e+00
-3.950241146692460514e+00,-4.131458062242739260e+00,-3.029823351691980360e+00
-7.605740751213793116e-01,5.654276264047461531e+00,-3.157285549642775191e+00
2.065794740673340346e+00,-2.519441085802787139e+00,5.641822490299836623e+00
4.990219256278076720e+00,-4.092122342651311584e+00,1.535580348673350581e+00
-3.983862931773128224e+00,-5.118835929504891524e+00,8.015353198576354865e-01
8.765618862027825531e-02,-6.121151235912136279e+00,-2.478754341993360200e+00
-2.367656168585082488e-01,-6.358093953066450421e-01,-6.514700125448641188e+00
-2.844821920446025665e+00,2.653030866661828302e+00,-5.169827322481991061e+00
5.069849499916515789e+00,1.318402083426851723e+00,3.976752907331033704e+00
6.338369924586169546e+00,1.100074135778242201e+00,-7.934820481231933398e-01
3.284781970908689619e+00,-2.957040600192579749e+00,-4.759814412111870396e+00
-4.474228649556287074e+00,1.866391074623960478e+00,4.337060302027285985e+00
4.485171624913368404e+00,-2.477848111758886418e+00,-3.946709133863737229e+00
-6.465984923939700479e+00,-1.479965575178342041e+00,-8.479802780745580859e-02
-7.413124116999189051e-01,-5.947993487990382633e+00,2.391791277904082857e+00
-2.781727756858686451e+00,-4.309488396742587213e+00,-4.015502088384272028e+00
1.512467175419821119e+00,4.395087614404014964e+00,4.323560567759297868e+00
3.039459608428054960e+00,1.309476226205151139e+00,-5.587288123497420322e+00
1.178846209776296394e+00,2.216413060403473967e+00,-6.027825267574220547e+00
5.953662143938175610e+00,1.885725028960580918e+00,1.683352022695304040e+00
-5.898257050231212162e+00,2.122157472740608508e+00,1.382848230129275269e+00
-3.741751837213085352e+00,4.073304648777359205e+00,3.529153302273908999e+00
5.944258787466695892e+00,-1.605328108906545870e+00,-2.210685652340647067e+00
-5.254280340230131685e+00,3.386939680447743850e+00,1.224818707183617850e+00
-3.017691909485506585e+00,5.839775610782851345e+00,-4.295316469692300743e-01
3.520584540444510857e+00,-5.541996246557258310e+00,-2.941656188246731807e-01
-6.100306006830128261e-03,1.134735132816796499e+00,-6.350081928564889289e+00
-6.341466566491344103e+00,2.969675205357170666e-01,1.627047237768620036e+00
-2.848419776412831173e+00,-5.843390278944821326e+00,3.447857246279291688e-01
2.850652492788639414e+00,-5.894325251236953278e+00,5.605918332889101019e-02
6.146658988631578779e+00,4.354460586600981120e-01,-2.219860760019529256e+00
-1.544571279188892976e-01,2.440189628476344463e+00,-6.076287591618298123e+00
6.344990361515366883e-01,6.443474886024900705e+00,-1.211871274206547611e+00
2.125061924305445160e+00,-3.492068042990215115e+00,5.095077882569922778e+00
2.462650269105130629e+00,1.411798732280140189e+00,-5.883530289802784807e+00
5.364867634671812269e+00,3.531185171308417470e-01,-3.671227662011475879e+00
8.755713189366702842e-01,5.382200881380180491e+00,3.639392238237614485e+00
-2.694933791341150187e+00,2.392230571878038781e+00,5.326306734320129799e+00
4.891561633771607909e+00,-3.077784130457493994e+00,3.127970645721741771e+00
-6.053917752891634585e+00,-2.206344914638434851e+00,1.142667067744442128e-01
2.911235087600613447e+00,3.751607859741968642e+00,4.441278505686391931e+00
-4.396061714299047907e+00,-2.873910595997720474e+00,-3.962908142392575161e+00
-8.550823760451638222e-02,2.818337180347890714e-01,6.425453478215246150e+00
-4.029567561157710642e+00,5.149984977118772456e+00,-1.201886139371129425e-01
1.777525895741861595e+00,-5.866801567293277841e+00,-1.897605788137783911e+00
7.468904575570938231e-01,3.337594222517179965e+00,5.448115572846838894e+00
-4.446549600554964066e+00,-4.728459083712075461e+00,-4.175985536938651155e-01
-7.585212400911945929e-01,5.907117184444426350e+00,2.388020406614230318e+00
-3.765357766413502283e+00,2.881372724683570308e+00,4.646223936349458405e+00
-5.582203867223886062e-01,-6.339573965751408302e+00,7.201428645857328448e-01
8.650434728356200254e-02,-1.437753580770550377e+00,6.319913746732304105e+00
-4.577213708174543427e+00,3.737728122322069968e+00,2.579569363019929007e+00
-4.659209530850412229e+00,-1.671803541109095681e+00,4.099982995150004861e+00
6.132455418942359682e-01,5.927034061384703456e+00,2.571396028814227908e+00
3.148320095004642383e+00,-5.533538325857499274e+00,6.947780838965383898e-01
-8.022057642013894485e-01,6.281959683277690942e+00,1.408800528622239367e+00
-5.295427645594430466e-01,-4.669963242507781054e+00,4.539867321818085166e+00
-3.557724373721289801e+00,1.613366463602024403e+00,5.124777680468890928e+00
3.176981265586443115e+00,6.901460225337844312e-01,-5.622244615977992410e+00
6.283697817120888374e+00,-3.140783235977365195e-01,1.255896327146869274e+00
-1.791300051836281826e+00,-6.088614376339250178e+00,1.205338584144922232e+00
2.267253594391914540e+00,3.468508175878319832e+00,-4.843726300707347221e+00
1.755410113253261239e-01,2.792691143705844148e+00,-5.823203212652771299e+00
-5.334156756676577515e+00,-3.052775696611470746e+00,-1.956298846493597532e+00
4.064841806298657545e+00,-3.915486487076118571e+00,-3.386266619600796002e+00
3.526063901624507113e-01,-2.246060475314759053e+00,-6.123644626786818534e+00
-3.066231299968078083e+00,-1.418911642262228989e+00,5.550951004187929527e+00
-5.743708363410987339e+00,1.454004576220698119e+00,2.732910133692988186e+00
3.058838848909266162e+00,-3.269723752532999850e+00,-4.737744026044521384e+00
-4.330359998449438308e+00,4.874047485871692231e+00,9.728713347831390301e-01
2.379092936908018707e+00,5.721885122434363424e+00,-1.922713210213622625e+00
4.407930143031527415e+00,4.504639821100856700e+00,-1.411298572646838778e+00
-2.854506276053380365e+00,5.868778726262233292e+00,-9.493168982091471086e-01
5.849444863674579248e-02,-6.190268137920723390e+00,-2.099900662817213881e+00
-3.999189840188901002e+00,3.628510758890073351e+00,-3.601843901200272757e+00
1.143856641347303027e+00,4.140277212198147261e+00,4.884207232033331181e+00
4.890473541596644047e+00,2.449287660119566556e+00,3.486400254861944603e+00
-3.875604358729386689e+00,-4.145063640492293366e+00,3.330008862843497841e+00
-5.465224152041638916e+00,3.551916752721819392e+00,3.207927117505080528e-01
-2.846812369192179282e-01,4.054652424073223571e+00,-5.094029481471278764e+00
1.087277609158548319e+00,4.360563461978348876e+00,-4.697782218060953419e+00
5.201601188930345288e+00,1.121647966957172865e-01,3.658904177736154395e+00
-1.354896827913711688e+00,-3.453273446651374368e+00,-5.226997399234987185e+00
2.230700844139973604e+00,-5.686618056082807016e+00,-2.299270482689698802e+00
6.274367416241693363e+00,-1.269085406678651662e+00,1.516332475642375499e+00
-7.496280885035373487e-01,1.330327941696020533e+00,6.367433583638947958e+00
1.493321237789070610e-01,-6.028181268124694014e+00,2.242860345425237156e+00
5.266975643591341516e+00,-3.083104765623435606e-01,3.966907330515121455e+00
-5.605486568258543301e+00,2.476731882421651321e+00,-2.290715590207163199e+00
4.340953739390818744e-01,-5.926419012944970532e+00,-2.326234851837963191e+00
5.072734761405673254e+00,-3.297165852777364514e-01,-3.945173026425121243e+00
7.699448111263599293e-01,2.779832146242790181e+00,5.770297616526955053e+00
-2.417852433946495960e+00,3.622398974341943578e+00,4.792654003634510218e+00
-6.000543786970070625e-01,4.919759046423387794e+00,4.261691167246156375e+00
1.178044604693407216e+00,-4.629034411947812178e-01,6.379619600077502284e+00
2.046705235022693525e+00,2.332601927989556567e-01,-6.175373354337623688e+00
-3.141773284742944927e+00,-3.694123117185193816e+00,4.109957017419630709e+00
4.378191290970660177e+00,3.307547998587213822e+00,-3.595095130600266753e+00
1.747085752294862127e-01,-5.510095176508876591e+00,3.470499415539584742e+00
-5.121897485316215359e+00,-3.980417052975472103e+00,-1.660528651153066471e-01
4.986412105614718371e+00,3.913581541946626885e+00,1.618132584800613172e+00
-2.771683951008515390e+00,9.117598955939586469e-01,-5.763696809600586946e+00
-3.297554645844500421e+00,8.567076514765430417e-01,-5.527635378461411619e+00
3.827978208540272931e+00,5.201104950686749717e+00,-1.673655311106119481e-01
5.942691780473384755e-01,3.596002180966650030e+00,-5.350766943224106065e+00
3.096027985738669219e+00,-5.183123736983339391e+00,-2.438488460732437968e+00
4.805895362273814975e+00,3.489986331664081121e+00,2.720653032141270078e+00
-4.768801207761387495e+00,-2.806715148446178532e+00,-3.288762230602100711e+00
-3.230876644563966504e+00,-8.127366534604452131e-02,-5.599552878315368964e+00
4.756489709812870892e+00,-2.979287725020883126e+00,-3.537740758433183696e+00
-2.891690352032733280e+00,4.894530687235896238e+00,-3.195860322227148664e+00
4.361026190519035950e+00,2.466505649496897767e+00,-4.232222007039917244e+00
-1.881222143334192465e+00,-5.081476090104775523e+00,3.571896046404488434e+00
-3.862792491602029088e+00,8.572691780982274468e-01,5.142304998219763945e+00
5.394021997504547805e+00,-3.441091347964489344e+00,-1.225380771460462981e+00
-2.684831775191505177e+00,5.522314276975486713e+00,2.391186810633463722e+00
-7.998293571760052290e-01,2.417794231110036662e+00,-5.999431419185025760e+00
-3.302363326738563920e+00,-4.441053054831614055e+00,3.440486641230100506e+00
-5.785771864450684809e+00,2.104584383708805628e+00,-1.758818373267444946e+00
-6.178246890948356551e+00,2.209647624668555466e+00,6.041810646240456384e-01
-3.767327342769579257e+00,5.161532882876490369e+00,-1.091565473022890753e+00
3.531820192653124302e+00,-2.849485654993339168e+00,-4.553364719428822482e+00
-1.759289611042879065e-01,-3.746351700877151636e+00,-5.313644212895974661e+00
-2.740549089394636706e+00,5.150875616347679653e+00,2.935375521596389259e+00
1.390513803740405674e+00,-4.734161220814621096e-01,6.231472081771905813e+00
2.259452440711985588e+00,4.479227530872704754e+00,-4.164635433639028328e+00
-4.188258630663126425e+00,-3.069839014778902087e+00,-3.803010931891118496e+00
2.721839521417044772e+00,5.609303005836297373e+00,-1.795309254079713090e+00
-1.142620523054574955e+00,3.414597541355298027e+00,5.430391303391522762e+00
1.747411196951823120e+00,-6.023867508953220096e+00,-1.389979872444369047e+00
3.361060340508022382e+00,-3.306755621597906369e+00,4.421353368743541346e+00
1.037841695493874505e+00,4.682042527537241483e+00,4.477143974778351243e+00
1.864003895192826166e+00,4.159488728168764027e+00,4.578337903186964652e+00
-3.364655164102446250e+00,-1.017097359524809369e-01,-5.693921852734234790e+00
-4.690109522398246078e+00,4.178723597334318640e+00,1.595877129923637172e+00
-2.937069740010662677e+00,2.968493924492672242e-01,-5.710092483278397246e+00
9.802386483269587281e-01,-5.389374901894647074e+00,3.441072201738677894e+00
-2.787536477999670304e+00,5.845968744007496554e+00,-3.391383679445732491e-01
6.930093771105261258e-01,-4.857575330583956408e+00,4.250102775129724009e+00
-1.274673565463118274e+00,3.968992955389611055e+00,-5.062693765742217522e+00
4.946964277356840078e+00,2.531025320906723053e+00,-3.316298272648994239e+00
1.273862523682633530e+00,6.019554249441085858e+00,1.928094550471325830e+00
-3.815277373335062006e+00,-4.832457653226939875e+00,2.010705070984972309e+00
-1.400653072898586871e+00,2.565093962618382406e+00,5.782105764244414914e+00
3.892968363575918911e+00,3.088386698950050580e+00,4.173420701500455188e+00
-3.880002675374851773e+00,1.241278026146839908e+00,5.041096734870084362e+00
-2.316460117219405923e+00,5.609995015709935196e+00,-2.382700598140750081e+00
4.007709687740693916e+00,-4.745634038041293579e+00,1.936209142061759092e+00
-6.423855832351372364e+00,4.710217081218441848e-01,6.799789909397384591e-01
1.362935690636047470e+00,-6.225090627647736241e+00,-1.593795178477443120e+00
-9.416723557329673699e-01,5.957750511587720510e+00,2.584788451838487600e+00
1.447272113968802065e+00,-3.817177967054004473e+00,5.087153329315655448e+00
-2.537003708161236659e+00,-3.353217130654476019e+00,4.888054963579050671e+00
2.933957426534296697e+00,4.137556231100540494e+00,4.101111797586823648e+00
-3.676785855110530132e+00,-5.366347240999555623e+00,-6.173733894568094183e-01
-1.189975754093281823e+00,-6.017967549775305791e+00,-2.090636709439626539e+00
4.345172760516618382e+00,-2.346027157801285679e+00,-4.139842799845758314e+00
-4.394032643328333876e+00,-4.024564120842609505e+00,2.502825475513502873e+00
2.498866495061395465e+00,-6.114434744659843268e+00,1.004383843457792164e-01
-2.557912130913355231e+00,5.756695651326914742e+00,1.884413926308071918e+00
-4.300987926653339066e+00,4.789397703940909246e+00,1.244400786665492697e+00
-5.276676367658205358e+00,7.852089201900382953e-01,-3.565970827448280200e+00
-2.499225297853195027e+00,5.042436536447789663e+00,-3.380096923580568902e+00
3.671655115141329251e+00,-1.814175977097919334e+00,-5.187837272598896377e+00
5.207609235042841789e+00,4.997949951443158428e-02,-3.909296885784875109e+00
5.073228819478802443e+00,-3.256008454830615850e+00,2.262646921674307698e+00
3.610320517803157436e+00,-5.269578460320458291e+00,-1.282657708353146075e+00
-2.418707966967115208e+00,-5.139538535175995015e+00,-3.320691160398812958e+00
-2.415845550977888667e+00,6.006900533482085081e+00,1.311146999015792680e+00
-3.073082545048535508e+00,4.276532245345840089e+00,-3.810735553356683791e+00
4.339361617063055121e+00,2.102189557329407155e+00,-4.332474725411287864e+00
5.454237056964267083e+00,3.475027134403643636e+00,-3.320984109837536030e-02
1.230446148868884704e+00,-6.468965090213157687e+00,4.763600166065558028e-01
6.331367609410055941e+00,1.642741161346484402e+00,-2.370272087827947349e-01
3.599944420740421869e+00,-3.235406101265280721e-01,-5.428133140944035873e+00
1.148663423087555202e+00,-5.838138012852669867e+00,2.681580212818802433e+00
3.314697787586209365e+00,4.244926198016422347e+00,-3.763133338447126164e+00
-3.081985917180848134e+00,5.629249656745229480e+00,-1.101063203926381462e+00
6.050632681676691327e+00,6.451666473625252696e-01,2.175984286280436386e+00
-1.701283604301231822e+00,6.264708224521564617e+00,-1.911724468646371633e-01
-6.428401027887477248e+00,-8.033215948603891210e-01,5.038716660451481033e-01
1.319744234381364789e+00,-3.724712022939397293e+00,-5.229107740709095786e+00
2.454888928125153580e+00,5.942226527177105311e+00,-4.063785346153133693e-01
-1.712711286775217223e+00,-5.997380273249230953e+00,-1.821649055156961072e+00
2.309250652154494876e+00,5.795360767863289908e+00,1.655090588541040075e+00
-4.209056243103789008e+00,-4.897875843616192881e+00,5.691569446714607183e-01
1.085699308016469633e+00,1.727817444773094291e-01,6.464039212264556689e+00
6.222307386369458015e+00,1.848655770715047497e+00,5.056454829584039468e-01
-6.304902850963842731e+00,1.355070545137977867e+00,7.816745771846554947e-01
2.003741725394606821e+00,5.930575916961325689e+00,-1.599540513020625498e+00
3.875366004885765214e+00,2.720809696838640601e+00,-4.452193411017159264e+00
4.729635154339550951e+00,-3.372739783541112590e+00,2.767982808622246882e+00
-1.250608548468754577e+00,2.402497493759361724e+00,-5.946553483050387889e+00
4.069545175088088662e+00,5.072210948099469263e+00,1.120350424692541313e+00
-6.299416917668889226e+00,-4.790341475391167170e-01,1.632769777942402856e+00
-5.187118828594010189e+00,-3.005032498678337660e+00,-2.253169657236805179e+00
2.421707706201157162e+00,4.654492597803232101e+00,-3.678035340481473181e+00
3.267039328565301215e+00,-2.829767334515448152e+00,-4.700233756382750094e+00
3.361167103840030812e+00,2.189975848217622367e+00,5.061077804473057995e+00
3.128677605479880608e+00,5.818543568025119406e+00,-2.696533713772404917e-01
5.425103949346721244e+00,3.524487153317827026e+00,1.050230445369395360e+00
-5.617853247523266980e+00,3.338455684023171166e+00,4.847868665063511662e-01
-2.099171247901851611e+00,5.708462192455705519e+00,2.242128456266872405e+00
1.289340732991660854e+00,6.372183359520110280e+00,2.991371979864390976e-02
-6.158318017751205353e+00,-2.507593041277916601e+00,8.541806090293711795e-02
-4.810951415250625529e-01,6.290157365032602144e+00,-1.855498504910817248e+00
5.909995142711935934e+00,-2.718930010591491531e+00,3.499509812929242347e-01
-4.421345613531523888e+00,-1.140952993118405256e+00,4.721105358734676294e+00
3.138400577281892811e+00,5.367086132769540718e+00,2.088259461489145430e+00
4.872648499913344033e-01,1.413008821380365765e+00,6.308130576292587222e+00
1.500765326278518330e+00,-6.249819441994157287e+00,1.444768514487312083e-01
-8.209499246676758011e-01,-4.960136893870163100e+00,4.282916899426234991e+00
-1.485481851937319464e-01,9.654599081394531490e-01,6.402927249404687160e+00
-3.303395206612005364e+00,2.788520480290036296e+00,-4.868463605241631242e+00
2.323326587743626881e+00,3.911515374968925318e+00,-4.717296726256831718e+00
1.466802757499202636e+00,-3.892182269769894898e+00,4.895385522708343373e+00
-4.635927039888930179e-01,-5.363693682674224306e+00,3.747651570160584811e+00
