1.600640028169002305e+00,1.388647876625356270e-01,-9.426185101737497574e-01
-1.598598123163664120e+00,9.003915916026022925e-01,2.021198577891064052e-01
-5.042000910606712211e-02,-1.754807842318341915e-01,1.821450550880171049e+00
-7.529478390632272644e-01,-1.218715016319383171e+00,-1.168769890713936999e+00
1.098108951924229748e+00,1.467526312070961625e+00,-9.284158050320008571e-02
8.554684461621955283e-01,-3.712327049753175734e-01,-1.636622115934294630e+00
-4.006229143910335355e-01,-1.586150625671454151e+00,8.589451755447446990e-01
1.373631205810810441e+00,7.439006952571045606e-01,-1.007603292269844353e+00
-1.269634835810457663e+00,7.630422166369714709e-01,-1.107324229433100271e+00
4.250975749145575189e-01,5.149875244160777576e-01,-1.725952033022793763e+00
-9.005433809454325145e-01,3.239656373730972483e-01,1.554115932602405437e+00
3.123826533111410675e-01,-1.585663856427755869e+00,-9.121474974226125854e-01
8.647577031972196737e-01,1.594516846495030116e+00,-3.350920318698101252e-01
-1.061647824354316594e+00,1.177400469283343964e-01,1.521048979941874713e+00
4.046755886876451935e-01,-6.398561250326501026e-01,-1.678852858038783369e+00
-1.332750192335578898e+00,4.072185717303513641e-01,1.212565629380488064e+00
-7.632400237271668164e-01,1.198998408870153520e+00,1.153083580327277646e+00
7.909602514274348406e-02,-1.309123775987306892e+00,1.324126719751797854e+00
6.755210037204332704e-03,1.776223053434857313e+00,6.366212027837827581e-01
-1.208464345121852190e+00,-6.095374928306988849e-02,1.380163671740916254e+00
1.316726835796813821e+00,-1.029032980589192681e+00,-8.463287564493651161e-01
-1.485946933572198925e-01,3.016289215696200676e-01,1.831750866481315576e+00
1.040976425697082819e+00,-9.329741953861396819e-01,-1.215255567687580252e+00
1.014711873179189539e+00,1.504525246213439971e+00,-3.847218554686269165e-01
1.618902746766273659e-01,1.856092683136910004e+00,-1.262897279129589490e-01
1.840790592978949411e-02,1.122469448671834735e+00,-1.497843021753318071e+00
1.601189676301361553e+00,-2.258233919297368553e-02,-8.995945523117632181e-01
-3.838524017880142747e-01,5.622253900553223493e-01,-1.788639211720894906e+00
-8.291880904464001834e-01,1.232638137330330341e+00,1.109226932294071322e+00
1.488173039410012777e+00,1.076713849057592487e+00,2.247645120801695373e-01
1.180148495329580660e+00,-1.124484372079649130e+00,9.261351688082363198e-01
-1.845956161219125757e+00,-8.115674906495075336e-02,-2.794198743295067330e-02
-1.497351643478255889e+00,1.422992684288256204e-01,-1.069579189945358166e+00
7.086621343232207826e-01,-2.073171470116627613e-01,-1.681795688628386021e+00
1.306485843325901008e+00,2.938678966841127282e-01,-1.323460695024758493e+00
1.316932350483196235e+00,8.172886007258565177e-01,-1.034436720934470921e+00
-1.736469828867008014e-01,1.749545926040792843e+00,-5.109833017600345917e-01
-6.437851377433427835e-01,-1.566355906897731076e+00,-7.694588277312180979e-01
2.075486508548699330e-02,-4.664829584833150578e-01,1.781535655562695775e+00
-1.227734702141160206e+00,1.366734971800169784e+00,1.474253822276005432e-01
-1.499493903509997450e+00,7.392264014907101721e-01,-8.323998779184028640e-01
-1.059579927189354454e+00,1.059193708418127322e+00,1.070557447429108855e+00
-1.494682529183086528e+00,3.263171939089469786e-01,-1.010925489095767071e+00
6.396281341846031809e-01,-1.701344889446376962e+00,-3.978954937629989863e-01
-7.411096325436036247e-01,3.188697078833111487e-01,-1.686743335391502452e+00
-5.268780126939542896e-01,8.945439180855204730e-01,-1.511975480732284272e+00
3.465343586624560768e-01,-1.804336428043502583e+00,4.642893624979194805e-02
-2.061678871527078127e-01,1.639110533096817812e-01,-1.825078961038510084e+00
8.271667681414246465e-01,1.172657457216615295e+00,1.099937195997309880e+00
-5.989959143029062183e-01,-8.209827365358393081e-01,1.578326673024566418e+00
-4.656720850543626944e-01,1.770259991170667124e+00,-2.885037639921746444e-01
-2.955751247940588966e-01,3.545158457047778433e-01,1.776995996454830307e+00
-1.276232446500535467e+00,-1.334379968698012231e+00,3.050967597940856257e-01
1.527194059277111604e-01,1.667906037128717989e+00,-7.144033518778755143e-01
7.888613819739950794e-02,1.337545221093974002e+00,-1.253545857376578532e+00
1.533412188985616709e+00,-5.531467514425514320e-01,8.268211100214336584e-01
1.732848080507785049e+00,-1.939013264015974347e-01,-6.160612818084657549e-01
-1.024184413599382504e+00,8.931840751259151334e-01,1.193655021489006263e+00
1.046037352286662170e+00,1.247334388836548902e+00,-8.321717913462113314e-01
1.351478300162300972e+00,-1.196903615425740419e+00,-3.961984567184462791e-01
-1.134973010177672048e+00,3.615362139561197341e-01,-1.415777533593739701e+00
-7.619928853256768830e-01,-4.775859237163009863e-01,1.587408311251653492e+00
-1.534585604210290555e+00,-7.642438347709616941e-01,7.391356670650570670e-01
1.292034028492871078e+00,-7.379674452766089576e-01,-1.003154286497432990e+00
8.543508008977693802e-01,1.363313239857244508e+00,8.527286683547434798e-01
-1.229743087779107541e-01,-9.583951010290304717e-01,1.587065891152830144e+00
1.503302733754342535e+00,-4.891460168476150505e-01,9.240234412396828301e-01
-1.129903170450631267e+00,7.679976464212519005e-01,1.210745098176435608e+00
1.719198045813047804e+00,-1.467722914810596357e-01,7.029211118363719590e-01
1.541349814755951897e+00,9.709099648239629676e-01,1.977676012155990259e-01
3.361448193314560129e-01,1.254017010010930466e+00,-1.309910247640879932e+00
-4.483202974464495782e-01,1.714869724505023285e+00,-6.615523371363054572e-01
7.542045559020116308e-02,6.561722353687168274e-01,-1.706685332771040953e+00
4.521458849973719607e-01,4.876103888734201197e-01,1.768089797828717336e+00
-1.004271678911402343e+00,-5.429711014968336552e-02,1.557453612853232361e+00
-1.042006181518353003e+00,1.261094434332837189e+00,8.713852239073800465e-01
5.557309510780923389e-01,-3.877659141000244780e-01,1.704664360573491022e+00
-8.154634577529905337e-02,1.466325768382245043e+00,1.059032594183864751e+00
-1.081230901690389823e+00,3.715050138215805209e-01,1.465153603936383053e+00
9.136313580264732170e-01,1.258421570372585618e+00,1.007579133594574516e+00
1.044737275795647458e+00,-1.026390532877015316e+00,1.120008192097532440e+00
-2.609041887864061993e-01,-9.597192499792446263e-01,-1.576865771625889590e+00
-7.123712848711698520e-01,8.277162554510776316e-01,-1.483821964785307479e+00
-6.040965862887416327e-01,1.742084321704019834e+00,-1.958646304512747238e-01
8.875406632256189754e-01,1.260510123145565764e+00,1.064113962783400202e+00
4.488625307353578675e-01,1.400966646071011734e+00,1.165095670786735926e+00
-1.778546597382835381e+00,2.074754773569765232e-01,-4.221269967287208935e-01
1.718066255093384953e+00,-9.717440684100807358e-02,-6.495201124295409967e-01
1.089079623510148531e+00,1.331082550896395045e+00,-5.519262634650377031e-01
-9.785213797710232697e-01,1.019614155609178008e+00,1.122468303978637616e+00
-1.705487024693825848e+00,-7.233299118305182018e-01,-1.762963671486206529e-01
6.569558748623350874e-01,-5.521478116564069172e-01,1.644159170943558124e+00
-7.428140493988815152e-01,1.614257260838972419e-01,-1.695150582928488081e+00
1.079377030722565856e+00,1.488670661643891835e+00,-5.458366670864955861e-02
-5.843962210338778940e-01,-1.729020168300353877e+00,-3.009655399324710490e-01
-1.446381104749697499e+00,8.630975953764908892e-01,7.321892776570005923e-01
9.083246896998764530e-01,-3.895240649609847949e-01,-1.567554681895350965e+00
-1.695012934554477768e+00,-6.685009196923490105e-02,-6.975923890757650403e-01
-4.712591513845062474e-01,1.580671304696312340e+00,8.137097039588850889e-01
9.568869021765086247e-02,1.833064278794529711e+00,-3.812634492161433575e-01
-1.815173252280408045e+00,1.923690657540678417e-01,3.832370934832041720e-01
1.201399075238245573e-01,-1.441425697142568740e+00,1.140093543164991674e+00
4.701649960295298802e-01,-1.682175384726477541e+00,-5.737750098522657050e-01
8.039928726322659314e-01,-1.636726955494970159e+00,-2.346933627746235207e-01
6.413877129981634395e-01,-1.311508810432093330e+00,1.132771101383269308e+00
3.046689239785808634e-01,-1.220198444537570426e+00,1.341802443601174621e+00
-1.566292723630852590e+00,9.860070471312485374e-01,-1.047285420209875459e-02
-5.352814347693255481e-01,-1.742055117703952050e+00,-1.304707747362056532e-02
5.868724064853979572e-01,6.764436814732253112e-01,1.596917023092251364e+00
7.556214628050007542e-01,1.083133197535965042e+00,-1.252577536865143504e+00
-1.808535528077261700e+00,3.931569597374632852e-01,-1.395498511503962258e-01
-1.356529737599153185e+00,1.247861811339568305e+00,4.587436964722298866e-02
-7.293918443562298348e-01,-5.461226991208828485e-01,1.610933200804475218e+00
-3.153911253041709051e-01,1.128856397264924039e-01,-1.807220821570424851e+00
1.734695595531102974e+00,-8.189480188356114410e-02,6.481544326856942817e-01
8.472872373004769475e-02,-5.557144276214257550e-01,1.733081826506841505e+00
-1.808996841186103710e+00,-2.633359900838385670e-01,-3.168002305931149065e-01
1.285889225887298482e+00,1.322815463376243006e+00,2.284344860680045941e-01
1.747588820291245071e+00,-6.103496670372545729e-01,-7.071257226801227168e-03
-4.662149235643670009e-01,-1.431348389786193609e+00,1.093594529301613383e+00
1.610961731697259758e+00,-6.709296838110413719e-02,-8.476299637862744207e-01
-1.636708760015804121e+00,-8.395367533248100367e-01,3.574073456408112248e-01
-1.471923684836403234e+00,4.875113438271756472e-01,-1.022596823893644036e+00
1.033151407147610445e+00,1.475785185739230565e+00,1.790729980364645924e-01
-1.863942813881298566e-01,1.028251608346793633e+00,-1.493752205944048894e+00
2.797870787359508782e-01,-8.261631725467899479e-01,-1.635250200820446143e+00
3.647667980584684000e-01,-7.287554441752742695e-01,1.631979689168416847e+00
1.389086509857387020e+00,-9.530844637800770514e-01,-7.325757171003244306e-01
3.211062768362986652e-01,3.106239219214601555e-01,-1.775219294475075316e+00
-8.076733231855961481e-01,-1.194793106806012251e+00,1.130905725708461818e+00
-2.325861098441926733e-01,-1.077302015583041062e+00,1.483604059107579864e+00
5.473126670914274516e-01,1.750061338648146503e+00,-3.701647259350711039e-01
-1.087701423840683690e+00,3.531298605834666815e-01,1.479473931317526247e+00
-1.424181175273781186e+00,-8.345188003125453280e-01,-8.785032470446929587e-01
-8.519295557482340353e-01,-1.562199599003754935e+00,-5.189558474936509791e-01
1.222205885723958607e+00,5.048570562495570124e-01,1.307928892421175160e+00
-1.729088941441882521e-01,-8.731661993549156842e-01,1.613865669481462373e+00
4.048927853186874981e-01,-7.100734135400142977e-01,1.660273470197348944e+00
1.520171168972270337e+00,-4.783947225030641959e-01,-9.604587082995014180e-01
1.613220912346503555e+00,-7.368731340712411093e-01,5.460368547175391551e-01
1.617818377001517982e+00,-3.975362058695452311e-02,-9.049690548990031447e-01
8.208204455458885107e-01,1.621234888392614648e+00,2.172870845592613787e-01
3.414095017030207013e-01,-1.606555099021411248e+00,9.231219501694237772e-01
-4.571242454638062558e-01,5.992202359849471138e-01,1.725905571208181000e+00
-3.548706480727327750e-01,1.392757983924738374e+00,-1.147676444042283528e+00
3.406783831121009687e-01,1.277916629091742751e+00,-1.304443724896444889e+00
1.556738510349769067e+00,3.751436401119222913e-02,1.037477402881364252e+00
-1.329792572475720469e+00,7.265855380566579313e-01,-1.018404270526825695e+00
1.363402990658188374e+00,-1.172091475581594544e+00,-4.847571679799108635e-01
2.812704966197125400e-01,1.634207126680230937e+00,7.530011932477165271e-01
6.261163654314502169e-01,-1.136388909890796217e+00,-1.273256372075358689e+00
-6.143762370769773051e-01,1.713550399795591650e+00,4.827132827564163953e-01
5.293056531130820863e-01,1.995104147097130354e-01,-1.764060122818905452e+00
1.529180225792158287e+00,6.561341642680237340e-01,-7.822696660394404811e-01
-5.948219616092926820e-01,1.910573557479007534e-01,-1.743473326441849824e+00
-1.814609014534952935e+00,-3.419965797317371936e-01,-9.161132890252721150e-02
-6.204634692713776323e-01,-1.581754490703901395e+00,7.979507776870660152e-01
4.429437262750276355e-02,9.871588519676606222e-01,-1.547472091943907779e+00
4.432277388637563265e-01,1.578397520805202126e+00,8.317616192250590901e-01
-1.470452410506378982e+00,-9.290073530593556672e-01,6.483567683188828923e-01
-7.238182538925511111e-02,-1.865503782359076324e+00,-1.593534640587991325e-01
-1.517047738866771134e+00,-8.114963974870615937e-01,-7.045924317820516647e-01
3.590406232908603945e-01,-4.127751142100243298e-01,1.775361832549073871e+00
1.617206171072927745e+00,3.444215508595727671e-01,8.657542786158960446e-01
1.358849796921592024e+00,1.896106789631284983e-01,-1.278608695302194675e+00
-1.614248694738645851e-02,6.589278980244474004e-01,-1.709617759858263808e+00
-1.309699721385066407e-01,-1.090540799019702689e+00,-1.476592049989359001e+00
1.403742070713491774e+00,-9.229244736889632428e-01,7.323658255785444604e-01
-1.296368572159664279e+00,1.054790758253183691e+00,-7.846036712552547643e-01
8.820353719202286280e-01,1.590132976716107427e+00,4.043835334053283992e-01
4.655592640042470753e-01,6.653482649056835507e-01,-1.652899208106043849e+00
5.879890374437157785e-01,1.463568711846539250e+00,-9.401776909821282224e-01
1.329642018605695641e-01,5.720687090974519995e-01,-1.720176335191234696e+00
-6.482780556153393547e-01,-7.211060869312506671e-01,-1.572165522551297379e+00
1.535375816588992803e+00,-2.669650832385726535e-01,-1.013969612410730248e+00
-1.676907257307528543e+00,-5.408881580418851698e-01,4.666584693767659719e-01
7.211571099554039410e-01,1.548329306815363404e+00,6.947909444993799477e-01
-6.495190387485707539e-01,1.074026809707810531e-01,-1.754110714683218886e+00
-4.127511335423161842e-01,-1.700963847425858821e+00,-6.686170309926969813e-01
-1.567745964738753273e+00,5.680926732504441024e-01,-8.890004390179485627e-01
1.779157343966049520e+00,5.250946090917149034e-01,-3.587959863510436498e-01
-9.835479349928296644e-01,7.766597935906268679e-01,-1.323715776861958293e+00
7.321671067702599789e-01,1.462302126481398901e+00,8.652884878767951315e-01
1.748396246562412548e+00,-1.042531644320381784e-01,5.956344945503092569e-01
-1.191689676840107515e+00,1.054667133964479309e+00,9.878155922255295041e-01
-9.951336913459297995e-02,-1.800361129627682910e+00,-3.542580736008397735e-01
7.631162184949770166e-01,-1.596830004173678708e+00,-4.438506841826050930e-01
-7.619606103755468540e-01,1.303547959967405134e+00,-1.081050114709620091e+00
-1.106361415751356408e-01,1.568736012511115385e+00,9.883608332525711804e-01
-1.700429157342858710e+00,-2.771127246438969127e-01,-6.475744071856404105e-01
-1.818889829207643416e+00,-7.840149565525986186e-02,-1.581860763082515720e-01
-1.649253476779043215e+00,8.438650634252985172e-02,-8.695730728050927727e-01
-1.710955173974631593e+00,4.312694286414529010e-01,5.441567480078769448e-01
1.626742612022098911e+00,7.644028685007822066e-01,5.573637145355708755e-01
-4.321950045988666167e-01,-3.019689329715235515e-01,1.784652583193338415e+00
8.975982009496844549e-01,3.993999443217818301e-01,-1.564215986673195724e+00
-6.619025326334511128e-01,1.003100012514148848e-01,1.700619640526405574e+00
-1.112407052998738877e+00,-7.127608454893572532e-01,-1.277070206436343724e+00
-1.837049926640317521e+00,-5.830908727464732821e-02,-2.474831726119963715e-01
-2.400687023676024989e-01,1.829843049745804695e+00,2.490243465129497458e-01
-1.740023495836699574e+00,6.122993865532794233e-01,1.929296096695559681e-01
7.620261608040436174e-01,-1.234717880095771214e+00,1.186528873605045442e+00
-3.982861630255287166e-01,-1.747683678675689745e+00,-2.989576570197226002e-01
-3.938797682291791391e-01,-1.595386235411193621e+00,8.297750248303247256e-01
5.126129469766366187e-01,1.762800582329668408e+00,-1.238439330984355963e-01
-9.683676318533364080e-01,-1.410180142701912942e+00,-7.685907849411268700e-01
8.735134313234866887e-01,-8.655449046841966476e-01,-1.377796652066457961e+00
-5.958422284356882370e-01,-1.549295678275220411e-01,1.769854696633395008e+00
-1.471523109247925509e+00,3.754722260634029696e-01,1.039709137211667578e+00
1.059361447245979804e+00,-7.323415099107912635e-03,-1.505946287516249482e+00
-3.743914196877826672e-01,1.532710447085150918e+00,9.370633234791453381e-01
-1.394575731507569305e+00,-5.410202198648735861e-01,-1.143439658832742456e+00
-1.181881950061007963e-01,-1.295379617322891086e+00,1.268811497548191669e+00
-1.237921846543371895e+00,1.328055801730562813e+00,-2.725113209178380291e-01
-4.164178701417490386e-02,1.115849792296399329e-01,1.802555870739162236e+00
2.038311624303918435e-01,7.363454485024305551e-01,-1.671811290649943160e+00
2.584546506018592371e-01,-1.758377295174247124e+00,4.810503144574477807e-01
-1.531591949064095015e+00,7.232633306040251453e-01,7.472342300596526155e-01
1.658338545431339517e+00,-7.487711159331066346e-01,-2.401415231744867540e-01
-1.248335696458358290e+00,1.330009483508633350e+00,2.712500844670024946e-01
-9.787212016370339107e-02,-1.771101497337858044e+00,5.029964787883526300e-01
1.025941026533467193e+00,-1.585017454729575892e+00,-2.330146355333731489e-01
6.362320045497185106e-01,-3.662227171999219988e-01,1.690582152626959767e+00
1.433218130082377861e+00,6.878763170528429116e-01,-8.988427322684492404e-01
-3.212828055700693297e-01,5.374242181692488046e-02,1.826852894400165184e+00
-7.573273446656972885e-01,-1.288571115462089578e+00,-1.088451307885295982e+00
1.781215142004903607e+00,3.877135265683372967e-01,3.823648474550329079e-01
-2.152097357426175361e-01,2.254018312863284856e-01,1.819005124919830019e+00
1.462390334065488018e+00,-7.169520420305550701e-01,-9.383090722977920350e-01
3.138510931287194494e-01,-1.434973998480984836e+00,-1.136788691169916765e+00
-1.819255749033610092e+00,3.131955899388495501e-01,-5.050765737283106904e-02
1.458751631895740752e+00,-2.215421637314342329e-02,-1.106612221445220534e+00
1.855615611636543538e-01,-1.480772354302290594e+00,1.086086101393595849e+00
1.437560786377668709e+00,-5.049099302245868559e-01,-1.043051800995406619e+00
1.635202497662291865e+00,-3.616613675357718272e-01,7.683637013600704835e-01
9.500050501084604804e-01,-1.443320528400317215e+00,5.785434134831861641e-01
1.154317603687204263e+00,1.138736827596884327e+00,-8.332504315507942572e-01
5.122034448622239111e-01,-1.361959912408706952e+00,1.152061907702782939e+00
-1.688573401206257263e-01,1.821401932385770417e+00,-2.291847460589750418e-01
1.433944995170671755e+00,-1.014074299874884844e+00,-5.385683327820746102e-01
8.612567083304378812e-01,-1.619664346367088781e+00,1.599609805561599540e-01
-5.336451876708007136e-01,-1.688946504480729915e+00,6.286123478094831629e-01
-8.362500858180628160e-01,7.335755729218955690e-01,1.488387002334808251e+00
-2.815287118648561737e-01,1.664828220703086448e+00,7.787079124302876965e-01
-4.332293418432181520e-01,8.781774844410594749e-02,1.764906181460941026e+00
4.606282015777818928e-01,-1.780880228275318000e+00,-4.442643961953141596e-01
-1.083010585510781054e-01,7.570850566769473655e-01,-1.700461038311112727e+00
4.614765006872337261e-01,-1.024060559777751012e+00,1.439535279042907234e+00
-1.192393267731616247e+00,-6.266314518755640162e-01,-1.262774953874995942e+00
-2.975603862744465311e-01,1.117753845123243606e+00,-1.374493542596529227e+00
-1.405051990202234591e-01,-1.101513988277517564e+00,1.496201374458939748e+00
-1.613430123223943691e-01,-1.392308943289275458e+00,1.158461090974861829e+00
3.992241725606746616e-01,1.753748802219360803e+00,-4.275596949469488428e-01
-3.716169816920992797e-01,-2.160401647857419227e-01,-1.829620587333377735e+00
-1.683797496236900892e+00,2.916404798925019137e-01,7.501009728442292745e-01
8.961559450954639239e-01,1.381533527584582810e+00,-8.264926729958171903e-01
4.740059160558304785e-02,1.820171642709673909e+00,-2.338381824965646838e-01
1.106105642005669631e+00,8.772024606265237390e-01,-1.163295351359270535e+00
1.031071741288029919e-01,1.397617153194059103e+00,1.224631145969351520e+00
-1.606814784168614230e+00,-8.912558105873532588e-01,4.354676242323597402e-01
-6.488891031957746414e-01,1.358272313353173999e+00,-1.109056411787695762e+00
1.299791185153307715e+00,8.122354444010280172e-01,-1.008090490234575753e+00
-6.705844785715417977e-01,-8.631052914905011919e-01,1.468721304315392828e+00
-1.073552037169603901e+00,-1.031999367846426763e+00,1.114598383339813426e+00
-1.647341107391760540e+00,-2.524321831238935943e-01,8.365576877382422394e-01
5.139811633950641667e-01,1.545169254147690907e+00,8.548630952644968861e-01
4.093355572241206275e-01,3.749423516657168776e-01,1.740156383948375352e+00
-1.105495744222589227e+00,1.371950401608768910e+00,-5.405271795274403379e-01
-1.718991742500102671e+00,4.761685442279930958e-02,6.872462804573230555e-01
-1.743336678852798416e+00,-1.575068728446994137e-01,5.918536582758795461e-01
1.526205458153979233e+00,6.720628838769997504e-01,7.113005389175272031e-01
1.049790964618972922e+00,-1.029808780840419491e+00,-1.137210070930503747e+00
-1.533489399300944411e+00,9.385953310528377669e-01,1.953491372624910904e-01
-1.960298514191921582e-01,-1.234640920692700927e+00,-1.334385142613072173e+00
-1.499385523912880158e+00,9.138079280291142581e-01,-6.994991469683570218e-01
-9.590650823407073089e-01,-2.528907776464635604e-01,-1.540683006863370785e+00
-1.588219908878818920e+00,-4.434227118121474853e-01,-8.240282512463295017e-01
-6.885954137802720032e-01,4.906955450471516683e-02,1.703271612571000793e+00
-1.225242984125782364e+00,2.729000976531639755e-01,1.341488252936754222e+00
-1.452955548142021991e+00,-6.062933635748007921e-01,9.252214294223600755e-01
-1.311010719979857519e+00,9.198168924915467448e-01,-9.501880935215895052e-01
1.310077046782434973e+00,1.262691006071398725e+00,-3.265697291270004410e-01
-8.025541868632479758e-01,1.519157968233108003e+00,6.705788189856253245e-01
-7.608339686230221333e-02,1.454745092183319821e+00,1.121851496907569024e+00
1.741425862196299468e+00,-1.946681120233887188e-02,-6.335301925194423145e-01
-1.489857007913301779e+00,-1.076070751735523245e+00,2.254866522141592555e-01
-1.738288749070271200e+00,5.620364252351776196e-02,-7.277961872701516066e-01
-7.415834872085683704e-01,6.654936455807699547e-01,1.567640310294587724e+00
-1.103695935220035285e+00,1.478761970499907541e+00,3.442169285874661089e-01
6.465465202050115767e-01,1.683514987421769638e+00,-4.615889839777684300e-01
1.564162502783937425e+00,9.666768342028750904e-01,2.739068185186433022e-04
-8.119156198485120157e-01,-1.316705248114680815e+00,-1.049296608188204472e+00
-4.663142610812887057e-01,-1.650036722344481177e-01,-1.774540744001845249e+00
-5.305644515128649097e-01,1.478576423068133749e+00,-9.695972901983805903e-01
4.851687733986759232e-01,-1.181642259568656428e+00,1.336426034144094110e+00
-6.701133214146091088e-01,1.174098475351253779e+00,-1.245565865055862753e+00
4.992639147432861857e-01,4.372101797532542689e-01,1.764690453794957703e+00
-1.527170003049361791e+00,2.952623785326095596e-01,9.719511731285307432e-01
-1.501015226811547865e-01,1.683179080762972957e+00,7.562484497453371146e-01
2.951273338932792201e-01,-1.730325880452210807e+00,-4.169408362123283029e-01
5.602376196738964031e-01,1.075262406949583527e+00,-1.391483039402782174e+00
1.053283974074766594e+00,1.111010680403526241e+00,-1.048889859797464297e+00
-5.288964231768479296e-01,-8.681386378181288332e-01,-1.531605943019334282e+00
1.068843118704654982e+00,-4.547364516006903723e-01,1.406796715710952217e+00
9.842732148727730834e-01,-1.324985476381804528e+00,8.675868289055566063e-01
-8.614789928785223649e-01,5.804877595129751544e-01,-1.542031454199765284e+00
1.290754414772296021e+00,-6.181563509832572745e-01,1.108845758491008526e+00
1.752556511886750101e+00,-6.383811876257371454e-01,1.615250000374872374e-01
-1.664968096285428745e+00,7.558115904695749121e-01,-3.815988168590908614e-01
9.976177129722687553e-01,1.382067805643575342e+00,-6.750739058568593354e-01
6.848177863506192953e-01,-2.381849968448163102e-01,1.715658030045544180e+00
-9.964489439850542363e-01,8.447432005248851627e-01,1.310144608401974553e+00
-1.700033466221335443e+00,7.423368180054534804e-01,-1.475582636624840904e-01
-4.255397662466970377e-01,2.834256793533250218e-01,-1.789879247276676910e+00
1.279241472409784919e+00,1.132782359684684437e+00,-7.385765247021562896e-01
1.514980448416060277e+00,-6.500344724602402646e-01,-8.871376088197465704e-01
-1.653171017577357071e+00,-8.053428094664427661e-01,2.550851735958650779e-01
6.913447672370760522e-01,1.150854480938284796e+00,-1.282372550750890516e+00
-1.752678007677124783e-01,6.729910815024705562e-01,-1.714612538827027466e+00
6.788514869797859230e-01,-1.685458536495691328e+00,-4.123358506778353472e-01
2.618805378193879707e-01,-1.553943274007302255e+00,9.257754578649277644e-01
-1.682513151877970348e+00,-4.736338157986816899e-01,-6.580005775594041095e-01
2.596093426143932237e-01,4.800276899363995486e-01,1.748362176333962958e+00
-4.198085872443506339e-02,-1.710773876870748778e+00,-6.972583635599113316e-01
3.733851505999745135e-01,1.515316978158925076e+00,1.030061136659372600e+00
-6.749948564703986964e-01,-1.600823990485013892e+00,5.688559978328679989e-01
1.689633726094296406e+00,-5.826794345894387162e-01,5.105287350921162703e-01
-1.329274075903131846e+00,1.247525364663423453e+00,-5.429383449601891953e-02
2.275009555500064756e-02,-1.827937253070810009e+00,-2.184495862662043028e-02
-4.523388185620678681e-01,9.206442614470857766e-01,1.537817441987339384e+00
1.151401188974614742e+00,-1.404787282951463601e+00,-1.626403120762028309e-01
5.879349015285182389e-01,-1.424909213022574228e+00,1.087868183999790128e+00
-1.443883966238962646e+00,7.523326972934346601e-01,8.139729625699447801e-01
-1.072735467870473247e+00,-1.333776973058542259e+00,6.812092446768918119e-01
1.125685878912184190e+00,-1.019442817953287506e+00,1.025560987609451358e+00
-2.622628318803379432e-01,-6.103081861057200186e-01,1.701685747288190331e+00
9.598149957581625369e-01,-1.495569080317268096e+00,-4.939957104969133761e-01
-1.731007559485856717e+00,5.257790502294037438e-01,-2.001590711656002775e-01
1.355795436330328174e+00,-1.218999602877834931e+00,-2.751595759540941266e-01
-1.516224274656094773e+00,-4.174012794101539248e-01,9.878321023750931129e-01
2.194572470404699271e-01,-1.365888538218024584e+00,1.200081892947751916e+00
4.070065760380446873e-01,1.168313311958343759e+00,-1.369796242248886076e+00
-1.017605490396227275e+00,-4.588479317373402866e-01,-1.441746438776186023e+00
-1.286802773450442583e+00,6.372191302105034705e-01,1.144111619230237409e+00
1.059180974512266005e+00,6.088885019391166997e-01,-1.337695272933681956e+00
1.287262464720889232e+00,1.010203419417723847e+00,-8.330039805220436078e-01
2.184144865727716822e-01,1.082476506121835325e+00,1.463111034122159371e+00
-1.006462418846034712e+00,1.257373685859478174e+00,-9.514253163272058389e-01
1.624098212385059192e-01,1.800887842028401131e+00,-4.205663043878733465e-01
-5.772915377282993310e-01,-1.049870828598503003e+00,1.405494703814822222e+00
7.408673744441016673e-01,-6.921393145731477015e-01,1.552685682728235594e+00
-5.749443842612687039e-01,1.525219871507248248e+00,-8.806313759952703046e-01
1.538153919226698418e+00,-7.994783885372792609e-01,7.105706495893383545e-01
1.212848671774468423e+00,-4.286336779699365662e-01,-1.321203371625496281e+00
6.200688591836258645e-01,-4.423984543388090329e-01,-1.670068789985996283e+00
1.798952296747855062e+00,-5.212521999347091706e-01,7.113572847548388367e-02
-1.159774884455187172e+00,1.397441815391918585e+00,3.920724623899204953e-01
1.748456649683274522e+00,4.816888094601319281e-01,3.377736051751522028e-01
2.191564236228339957e-01,-1.818499357857930709e+00,-2.494225203446601147e-01
-4.766111375229943325e-01,-1.354067630286523549e+00,-1.156519562887273977e+00
-8.305046632586113864e-01,-9.276934422630352117e-02,1.672842392407169365e+00
1.460306894721440596e+00,-4.152581487226236212e-01,1.065371516075489300e+00
1.545666468503293922e+00,6.662309284996980052e-01,-7.729993868100091259e-01
1.393780016802368182e+00,4.826118724374734437e-01,-1.112842321896124531e+00
-1.063890659516840920e+00,-1.070418883106405206e+00,-9.950747365615758566e-01
2.774787673516896681e-03,1.809948688109302539e+00,2.060043566546127802e-01
-1.299461612732726534e+00,1.305065109525281208e+00,-2.217529496106783460e-01
-1.262360508404427151e+00,-3.848398947350626376e-01,-1.324392823958310927e+00
-3.469862003242017434e-01,-1.716225364076129356e+00,6.304001692644330967e-01
-1.641319804998825793e+00,3.148778277444345131e-01,7.418005290127133167e-01
-1.203052961961849743e+00,-1.087059930396259588e+00,-9.436405872518507376e-01
1.540098440692305948e+00,3.787699457341218157e-01,9.705553693155399841e-01
-1.121649985631321567e+00,1.402771496136214324e+00,2.518076562620296110e-01
-2.602405401777842520e-01,8.468603777690175693e-01,-1.599869974449189769e+00
-1.436651510572053425e-01,-1.826987048743919706e+00,5.471124700716834682e-02
5.665169539798673437e-01,-1.609435018478723167e+00,6.900697200315650814e-01
6.897987714803369697e-01,-1.723874328578531623e+00,5.972309058636322138e-02
-9.986619511117815762e-01,-1.522683364808367967e+00,3.177325899916791929e-01
5.123366003625989817e-01,1.404133170354989080e+00,-1.090407193096643912e+00
-9.131475956565081598e-01,-3.703945196394196615e-01,1.514246791708105500e+00
6.083779372123079288e-01,2.615901656940062825e-01,-1.742807815888501199e+00
-1.670807355958941809e+00,-5.892089944014131109e-02,7.953824514282128444e-01
-2.268278802755341050e-01,7.734141817423413334e-01,1.658720280576793549e+00
5.961709040379761099e-02,-1.112780460659443360e+00,-1.488343848044332285e+00
1.231080374503205732e+00,1.358750518329485457e+00,9.598541517413260171e-02
1.258087115482696028e+00,1.325831792154480437e+00,2.549507025313553776e-01
7.060318983060520637e-01,-8.266490524685405905e-01,-1.479553750819511793e+00
1.360154346928550861e+00,7.667599496327809350e-01,-9.734901571903344930e-01
-1.279771331700803483e+00,1.239343928694471408e+00,-5.007108355430812674e-01
-1.416124761247450070e-01,-1.314485969812784871e+00,-1.303597418941646602e+00
3.573841627971343637e-01,1.353447692248693324e+00,1.177839809756502820e+00
1.046263166880194717e+00,1.475845437414949668e+00,3.217978921060318243e-01
-8.655545878489582234e-01,1.138013939456136603e+00,-1.229250683125260091e+00
1.845829023680308767e+00,1.662517274209483475e-01,-2.673763302244574341e-02
4.950414379652365859e-01,5.378324240945531187e-01,-1.714656952842275706e+00
-1.324067860527781582e+00,-8.018684376387581747e-02,1.281598662265196253e+00
8.559606438946013030e-02,-1.252000265445441629e+00,1.351176349346353778e+00
-1.320707822536201226e+00,6.216527569956347143e-01,-1.138925234931071229e+00
1.309486002036831298e+00,-1.289503565881688907e+00,3.602397684040915538e-01
1.347408388996583994e+00,1.137678624975576369e+00,-5.668515431705511975e-01
-9.832033907873347633e-01,-9.526304996274057024e-02,1.566626390346941289e+00
1.417012787129485751e+00,3.084844643078596960e-01,1.099294693736907247e+00
1.215075570186845866e+00,-2.690318501876139967e-01,1.399377340066971342e+00
1.772151197177746607e+00,-3.563174865431839033e-01,3.564759352532798631e-01
-5.618283748409251821e-01,1.405117571433811774e+00,-1.023753220547934051e+00
-2.034113179328789489e-01,1.835863870002843790e+00,-7.082107197196459147e-02
1.169263103753616528e+00,-1.366814191311878535e+00,4.586050693466783845e-01
-1.010811697736804904e+00,-1.491844653961410527e+00,2.519341193196098505e-01
1.209101525920168285e+00,2.988733257912545849e-01,-1.372096976914686239e+00
2.840455087119915234e-01,1.497979090206546404e+00,1.010782694737193621e+00
1.128927376591742471e+00,-4.542904448489312741e-01,-1.385411569447901670e+00
2.828244231369950734e-01,-1.775014548062707531e+00,4.455372680675542818e-01
-1.420104249109448880e+00,1.147532735372934098e+00,1.375963896553493437e-02
-1.690157411267748877e+00,-7.070755124568373073e-01,-1.345423743027354957e-01
4.024267559851996134e-01,-1.793885625194527655e+00,-3.111147414782781673e-01
1.674617198385817685e-01,-1.769589365959778782e+00,-4.601644681990600949e-01
1.069694481083545812e+00,1.505959168689425143e+00,3.490517762478164143e-01
1.354347806635229912e+00,-8.398764095298634214e-01,9.237372234223716339e-01
1.107091423921326978e+00,1.439188104495871867e+00,2.015297250199624690e-01
-1.742708516298709487e+00,-9.452411565938860505e-02,5.780765691928001493e-01
1.714100605681571299e+00,-6.685267424806907721e-01,1.109861983085019960e-01
-1.680462139508800634e+00,-3.585884067497956962e-01,6.717329321104201778e-01
1.648749868439641775e+00,7.021623180791486396e-01,-5.123856873807904888e-01
3.281484153873623910e-01,2.872605389233561790e-01,-1.786699912230222731e+00
9.716085372342153637e-01,-1.373216346459914528e+00,-7.269331109802427138e-01
-8.394552569551897436e-01,3.249218351264139271e-01,1.605720778500794754e+00
8.290824511391735319e-02,-1.730500576029570414e+00,6.236173551258513692e-01
-2.854608672558906490e-01,-1.581424012893543729e+00,-9.050081518670409775e-01
1.862718447488561357e-01,-1.281951686446270333e+00,1.309587134376061002e+00
1.839218038939995692e+00,-1.524105283804853828e-01,-1.677853161840451302e-01
-1.807410421838223868e+00,8.356475587206764477e-02,-3.815202449680653585e-01
8.450686591841364281e-01,-3.017823812633241287e-02,1.635054764324164633e+00
-1.392788049897798253e+00,1.238134211972820919e+00,1.117963043326843375e-01
1.163202017453592418e+00,-1.454137637537853411e+00,-1.037403138686525811e-01
-1.639315330479698130e+00,-7.353516898828373893e-01,4.564778422923589929e-01
-1.003976006716778890e+00,-6.277016179274881313e-01,1.398591306770974541e+00
8.192079043544508998e-02,-1.684134878333090057e+00,-7.704615128068351693e-01
-6.710483000229455763e-01,1.036489268227235971e+00,1.387159862911978125e+00
-9.629734086950062499e-01,1.409880272723534222e+00,6.911026105444859624e-01
-6.000018981354243719e-01,1.206581631551324474e+00,-1.240195406864244454e+00
-6.407974443306319046e-01,1.075286687285799681e-01,1.718028296620647266e+00
-1.710094008198660864e+00,7.742402845869591488e-01,-3.376308969436640772e-02
1.405340413146304535e+00,-1.203871883509430640e+00,2.604316200424685590e-01
1.483633592883284225e+00,-8.543094470002099428e-01,7.355674799750140380e-01
1.265166607929425036e+00,9.213862369554862708e-01,9.361231901480679962e-01
1.850725058648011512e+00,1.774489455479250077e-01,-1.563554933731620411e-01
-2.719372939619555951e-01,1.406452405760331148e+00,-1.215155454425076220e+00
-1.958962013594726104e-01,7.793782068799003371e-01,-1.667132972541626401e+00
-1.644940926358542610e+00,-2.432893341040345270e-01,-7.640340275508076262e-01
-1.499602479591638504e+00,9.543425388892734507e-01,-5.187462749129462258e-01
-4.647371406377162062e-01,1.621828109109706428e+00,8.065566241111556955e-01
1.510593804605616652e+00,-1.104814029815213816e+00,1.493412161265019189e-01
1.801156532476900995e+00,4.102541229496246000e-01,2.338370301895627279e-02
4.272608430677011793e-01,6.151928963387888194e-01,-1.683166862424194665e+00
9.367135377368687732e-02,-6.628985724565429338e-01,-1.711779083198067486e+00
-1.672437328516352739e+00,7.737281779618985222e-01,3.536700166077731966e-01
-4.078394475651638262e-01,-3.780338598354692214e-01,-1.775153333085643270e+00
1.016910909076974151e-01,1.253227630394026626e+00,-1.361720587556233264e+00
-1.776860794648102537e+00,1.493227920096195926e-01,5.108250537465609531e-01
9.749980585282995715e-01,2.015107104617327449e-01,-1.579740680658403118e+00
1.791555325137308419e+00,-4.427765772881779305e-01,1.379257737367876879e-01
-8.787280217820002681e-01,-8.129879347067384687e-01,-1.392870855716307421e+00
1.653026830256832502e+00,-7.989205247938550025e-01,-1.898577730473547109e-01
5.785443691116793907e-01,1.957063621778414864e-01,1.742849491057730127e+00
-3.988587526629835955e-01,1.764966238076831395e+00,-4.424149773901959737e-01
1.076058227579088644e+00,-8.315193954788833164e-01,-1.225930259426637470e+00
-9.231332384370465327e-01,1.357996628540700579e+00,8.449561486262522347e-01
8.209934452499699775e-01,-1.307320468477931374e+00,-9.908350240373047235e-01
-6.359244792545803993e-01,6.974199331470356533e-01,1.582419840920591847e+00
-8.532620261077584756e-01,-1.631540646019224994e+00,2.875071401025192652e-01
-4.341010893832159545e-01,-5.848088010980200258e-01,-1.701047857418726439e+00
1.017605716316611453e+00,-1.855565619834794733e-01,1.529250032542505577e+00
1.270058082859386372e+00,-5.253499634093631299e-01,-1.217729049810410524e+00
6.399496050237888367e-01,5.701793224746977140e-01,-1.636304838622462343e+00
-1.686478680406395814e+00,-3.386155521845665706e-01,-6.210283134366511026e-01
1.395193513339154867e+00,1.141244616110238752e+00,-4.470103297280775267e-01
4.959686208369892824e-01,-1.129030533820707616e+00,-1.412967609790056311e+00
5.036359604722099315e-01,-1.295288269883109744e-01,1.780097519203033052e+00
2.450947188241001939e-01,1.143198906420775041e+00,1.394919057160264986e+00
1.171239841295724338e+00,1.502232790642663574e-01,-1.386338986197110934e+00
-5.065266035563312785e-01,1.446375951289425421e+00,-9.720219700577953370e-01
-5.240677432641716038e-01,-1.651621008029342974e+00,-6.053038972632425185e-01
9.463863845433760913e-01,-8.683033595802029936e-01,-1.371697683619436781e+00
-1.783282369816590815e-02,-9.326381366012495011e-01,-1.612336692747538880e+00
1.412432244490796629e+00,-4.196953226345256915e-01,1.139011264329823803e+00
1.294307589450213403e+00,-1.298452935189297497e+00,1.813873466738964435e-01
1.270647102593911670e+00,-9.625595996924150022e-01,-9.343796384854913262e-01
2.082717469039659652e-01,5.335788024609845470e-01,1.801036216049576533e+00
1.697518549281840317e+00,-4.362330767181391011e-01,-6.486949961884141969e-01
-1.407164760726539399e+00,1.184923190510733665e-01,-1.197546884253429367e+00
-2.451816614010356443e-01,-8.451054786670143537e-01,1.646255714674884185e+00
5.682052948360317712e-01,-1.377407158582248492e+00,-1.120017778167328615e+00
-4.789219982244326546e-01,-1.752721955254175512e+00,3.053267715980317876e-01
-1.618683677063566195e+00,8.144744483218608888e-01,2.348061373628678450e-01
-1.514640131257967148e+00,-3.040460552183602005e-01,1.066198737940809105e+00
-5.100309081663605415e-01,-1.691471426909069597e+00,5.170782359175356557e-01
1.617991009008268311e+00,8.883999068339578642e-01,1.298101640902608322e-01
1.137288496324180054e+00,5.127795202226876903e-01,-1.383077775730189973e+00
-1.636363681069929576e+00,-6.785533897101223566e-01,4.416156033984380280e-01
-1.588803627543596164e+00,-1.271991165217579434e-01,9.670174436107413785e-01
