8.998684163263844127e+00,3.853484418520880528e+00,1.086220853758947946e+00
4.312221830117698218e+00,7.898153503712488366e+00,-4.101997082594825095e+00
1.989510294741217100e+00,-5.073330540131725463e+00,8.429087380823235165e+00
8.436068009918104238e+00,-3.541429765214351710e-01,5.087296236707812724e+00
4.122573645099592454e+00,8.989053058953029307e+00,8.435746421602542400e-01
-4.080734566165436839e+00,-8.180352451596652585e+00,3.876220995112770851e+00
-2.242706425581084240e+00,5.391353540755874363e+00,-7.698158580615669599e+00
-1.625991550612733150e+00,3.333763719527312652e+00,-9.115675496533178546e+00
-8.795410179910602366e+00,1.699951180907654402e+00,4.328079479140103381e+00
-1.311861512610310587e+00,-9.425448369257539483e+00,-2.501971578467772073e+00
5.069311612135763312e+00,3.506369487147229513e+00,-7.795047339847743118e+00
6.842054189549307885e+00,-6.740904810152320792e+00,-2.912545080203455594e+00
-1.229871621137441196e+00,-8.973351484173145209e+00,4.211926491507437476e+00
9.744705685807630857e+00,-2.745990141734856727e-02,1.246522528842029853e+00
-4.990771684850173529e+00,7.222095390196733078e+00,-4.441944748015819400e+00
6.759804359397140194e-01,-9.015081673193359180e+00,3.724283102088989938e+00
-8.533183881226037215e+00,2.436442583789764915e-01,4.972514549373631354e+00
-7.574792413792843071e+00,-4.540839455010453052e-01,-6.329053647429541130e+00
5.757291758498205958e+00,4.201615532544580311e-01,7.963320446460929070e+00
5.428977992598844615e+00,-1.401026051871490985e+00,-8.471916753156035540e+00
-5.985409253115162365e+00,4.540338221065850277e+00,6.842686073666638613e+00
6.616594864471212922e+00,1.512910233589369824e+00,7.183468615471291230e+00
-8.632165008983381682e+00,-4.473784509150929622e+00,-2.579571296829135107e+00
2.451525276569935130e+00,8.981467092947360342e+00,-3.454202200637733533e+00
-5.560700640304299114e+00,-5.770368667061261725e+00,-5.987559549818582738e+00
-9.421805344894359280e+00,1.383237060289530529e+00,-3.003671983960568781e+00
-3.195957991975873380e+00,1.347185297554956751e+00,-9.249638491409237773e+00
-7.107110306973304148e+00,6.973364227810994187e+00,-5.089332795390948405e-01
7.822253470238098139e+00,-5.323141938937894224e+00,3.034501041663614451e+00
1.152762159561376981e-01,2.910089408665008204e+00,-9.489510604227696433e+00
2.566328095074961624e+00,-8.792977859053317857e+00,4.037040724242865863e+00
5.325056370095339275e+00,-3.946265734540869374e+00,-7.189638000815460117e+00
4.657208288645736438e+00,7.579201509385505631e+00,4.429477799263069393e+00
9.119165643257260978e-01,-9.765593677180017806e+00,6.373121887981317846e-01
-2.245209988758069264e-01,-1.381064930074292096e+00,9.868982962657529612e+00
5.848386041789620293e+00,-7.336748230376343827e+00,2.582985547660007875e+00
-9.298608216399992799e+00,-2.494631076568299299e+00,-1.459420327227539671e+00
-3.355098941717327143e-01,-6.426687889868742509e+00,-7.671719896736736821e+00
-4.022764185076789900e+00,-7.770059375788214595e+00,-4.403698082593539453e+00
1.274671059660944072e+00,4.518629530900139635e+00,-8.730104326831597206e+00
-6.837191878047550020e+00,-5.124922882830625248e+00,4.938504586568552845e+00
-2.497867690660950935e+00,-8.672775213700630204e+00,-3.908240378705621243e+00
9.046142239237791927e+00,1.994624812104093481e+00,-3.380973391618397716e+00
7.401864108609673032e+00,6.331654006596139084e+00,2.104427126740645360e+00
1.259846979751282570e+00,-9.832416052253575955e+00,-9.120145155287098238e-01
-4.554770108411220875e+00,8.718049557779067982e+00,7.966192350555418855e-01
-5.250916390710210990e+00,-9.885961535833581726e-02,-8.705779843386444838e+00
3.263792707834771156e-01,4.306795903874271580e+00,-8.972145138320554381e+00
4.699515934629471481e+00,8.610351285862513748e+00,1.558355342044589253e+00
-5.765632811350097420e+00,-4.598862985405642867e+00,6.710490274239924169e+00
6.440743993853070393e+00,1.488538750506052333e+00,-7.423419039248935647e+00
7.406102810048753149e+00,-4.267173870822872139e+00,5.250931982313928437e+00
-5.203007336171364905e+00,-1.563923331475310707e+00,-8.333096941476638264e+00
6.914939324688361921e+00,6.577779814672067182e+00,2.589388305612854602e+00
9.683017135557070887e+00,-1.228123866477823095e-01,-2.842710497539652881e+00
2.265260775589321707e+00,9.345716615378290015e+00,1.831034568951737329e+00
5.160441348360888192e+00,-7.323051549008360084e+00,4.394666061844034743e+00
-2.648346528077302864e+00,-4.422612073377353070e+00,8.508009423524738324e+00
1.158699670053046971e+00,2.385825682981808971e+00,9.548077973552045350e+00
8.358187308878434862e+00,4.110732267765794923e+00,3.963943435845278529e+00
1.243820735992347215e+00,-7.986592744984467807e+00,5.842583763332071634e+00
-2.086633960757685369e+00,-6.005555265540593268e+00,-7.726134052502899863e+00
-1.270206117168323212e+00,8.249294182176448942e+00,-5.521496879539670388e+00
-6.516291294274488166e+00,-7.579344884369360047e-02,7.519309883348700652e+00
-3.769744252148007568e+00,-8.691480283059883405e+00,-3.476520599211232021e+00
6.162212398430495064e+00,6.960731851907489443e+00,3.465922762532832380e+00
6.726778502144025396e+00,-2.039651938090341510e+00,6.944696422682723025e+00
6.332905626393375620e+00,-7.452741349195648457e-01,-7.692106413139463861e+00
-3.583791861601111517e+00,7.315585240452772808e+00,-5.405763847884108131e+00
9.495457146913446778e+00,1.667749310874419022e+00,-2.495241126110647745e+00
-8.250298089189717743e+00,-5.394700439671424874e+00,-2.248015387544433918e-01
6.573530536808724456e+00,-6.877429189520600339e+00,-2.789187515556823538e+00
-9.212968048334738924e+00,-3.670447330227036176e+00,-1.928717045904830840e-01
1.384171177918418261e+00,2.178031078341004179e+00,9.487991266138516622e+00
6.846997945326026347e+00,4.527792394581000579e+00,5.555053945985054753e+00
3.718674106060032791e+00,-3.802108599716049753e-01,9.033026540414626382e+00
8.382345018994648456e+00,2.835487516147045639e+00,4.344130676043508110e+00
-9.542246660657708546e+00,-1.269296162565130448e+00,2.246656020223947170e+00
5.559702415945762866e+00,-2.535950074495156414e+00,7.691180933388595875e+00
9.238736646143497211e+00,-1.983001369145359405e+00,-3.335742151749706785e+00
1.482378989891507404e-01,4.947082501888115047e+00,-8.664363778446420028e+00
-8.514186368139069927e+00,-4.152490623208190179e+00,-3.035221871219495604e+00
-6.718989146024735071e+00,-6.357985719737778929e+00,-3.516310590290653071e+00
6.717408280821704381e+00,-4.570253559684843481e+00,-5.601656348404826957e+00
-3.908018864041925777e+00,7.898211325055375376e+00,4.615255802929570272e+00
-9.407499506625192964e+00,2.988962625037660192e+00,-4.633265030766813841e-01
-2.413580516899572537e+00,-9.505206067675313619e+00,1.492598679581961907e+00
-1.032302857361166115e+00,1.873396939788381177e+00,-9.820897214170086542e+00
-3.870064845008494570e-01,-8.140935865482578748e+00,-5.599667557147609109e+00
-7.634689862929874060e+00,-6.142552676091484365e+00,-1.827314791360180823e+00
-9.241721209235448597e+00,-3.066247849600706399e+00,-2.234752839327573515e+00
2.195273263279547749e+00,-6.921927265709571842e+00,6.558995801611399834e+00
6.662775550965079674e+00,5.284576274700584442e+00,-5.234461257074530138e+00
-1.301289856940922807e+00,-8.952917100371697856e+00,-3.683102174541238227e+00
1.085342269507437729e-01,-3.363292100278612029e+00,-9.502239734900559398e+00
5.970173656445222576e+00,-1.092400086641697632e+00,7.894940386338500815e+00
3.656572255810051075e+00,2.880266060496211811e+00,-8.824257946516178563e+00
-2.946578254607242542e+00,9.071367417916405884e+00,-3.060892963687762425e+00
-6.133205686061707240e+00,-7.156548443262460424e+00,-2.869924544741932149e+00
6.783764013485347188e-01,-9.773329922693445582e+00,-1.122484019219987861e+00
-9.048463666163778285e+00,6.044446909263335721e-01,4.319401537167607330e+00
1.980752439572560197e+00,-9.446992851422796988e+00,6.789101225693797703e-01
5.063007900138631889e+00,-5.659544757258088143e-01,-8.516970042548608788e+00
4.182048489290734139e+00,6.298015311649692194e+00,-6.451837057805520637e+00
-3.531738266527780112e+00,2.273508217476189142e+00,-9.145785000264165632e+00
8.374175746299227896e+00,5.321483956303405094e+00,1.350174833522738371e+00
-7.649175829144116534e+00,-6.162384223858032861e+00,-6.115488819292210776e-01
-5.117575579069713498e+00,3.459608812674060951e-01,8.545592683229747522e+00
-4.469901988723405495e+00,7.918881547518305197e+00,-4.098905948169503155e+00
-8.405294975564101989e+00,-2.078713414663500014e+00,-4.844231541150362474e+00
-4.664107211162482614e+00,5.514078673175942136e+00,-6.796018534813700107e+00
3.714221584039681723e+00,8.999101141222672240e+00,1.831223269659950192e+00
-7.349098275901543076e+00,-6.505820100664363004e+00,9.012126277997324353e-01
5.703578609996242221e+00,-5.723180273196896373e+00,-5.813396570974742161e+00
6.037582794757055948e-01,-6.021564021501130126e-01,9.857397292895630159e+00
6.224148205230514819e+00,-8.018708984807938478e+00,-6.045295558443630757e-01
9.233883120563634028e-01,9.841546431501200232e+00,-1.228252669969761124e+00
8.216411642682110994e+00,-5.321584343926341276e+00,-1.766322956495822050e+00
4.758200920809971812e+00,8.386609273070414261e+00,2.500211929499199126e+00
8.910788558498440537e+00,3.143926742206579306e+00,2.764301667069314572e+00
3.013240894451326923e+00,3.346717051592166481e+00,8.977483719469418588e+00
1.277173190773523093e+00,-8.273546167761134384e+00,5.092095548995103194e+00
-4.010182072723951774e-01,-6.360318304941492862e+00,7.368085681373627516e+00
-5.449868354754259236e+00,-7.943482531207096464e+00,1.800530902954661672e+00
-7.168007109659049192e+00,-5.734027793596210287e-01,6.697933428198398431e+00
1.300570448086509345e-01,-8.619482895315824678e+00,-4.877466404316525228e+00
5.847593079747388956e+00,8.083806624600278212e+00,7.168615525759988172e-01
7.134914084761103226e+00,2.000715991170183283e+00,-6.794533430518210793e+00
8.232650032487736524e+00,4.920076619714491173e+00,1.917717448375317213e+00
-1.231334692284728805e+00,9.372191743731713487e+00,3.626036838288066555e+00
-5.414502715257532905e+00,4.525798158456643350e+00,7.122704450273142029e+00
9.713823854633739430e+00,9.046051829188928028e-01,1.799580795639172281e+00
-9.103417989847697456e+00,3.097118517095329260e+00,2.299872315724876604e+00
3.456605862571028975e+00,3.443489662338503621e+00,-8.587339883489738313e+00
-2.235434748622852297e+00,-4.874783853419072943e-01,-9.350836190650884561e+00
1.096320935467165469e+00,1.986760124885153411e+00,9.679324830848010208e+00
2.318075227225464996e+00,-6.437191026195945298e+00,7.144282085961783046e+00
7.226702393198009666e+00,-3.409073649450189869e+00,-5.965513741036932771e+00
3.357002853822033117e+00,-5.469711442905533794e-01,9.296204498597697707e+00
-1.158785956344405399e+00,9.589007873039825824e+00,-1.727044341213874956e+00
-4.658551270160284474e+00,1.361872082156619701e+00,-8.748580479115824815e+00
5.566817732191766233e+00,-7.913617175784571245e+00,2.218485650797436648e+00
6.504534406360948040e+00,-5.750131842632156598e+00,4.641864531504893421e+00
-6.746589522580333842e+00,2.168676843579379621e-01,-7.395682580104546489e+00
-4.450965843244168774e+00,7.723412622892432466e+00,4.664636333966272197e+00
-4.426864757893935298e+00,-8.896995442618788275e+00,5.922066343277966327e-01
-8.045108978810331379e+00,-4.242184647717620827e+00,4.139479932232134729e+00
-2.998124552844122714e+00,8.658782676560221603e+00,-2.801533068725333031e+00
-2.713816968531175267e+00,-9.597291808941376345e+00,1.551896172424228060e-01
-4.738789973910678022e+00,8.381026254972850253e+00,-2.508153660095067572e+00
-6.791311187199153387e+00,-7.101399142777611750e+00,-1.514999787121151797e+00
6.750907139678600011e+00,3.020087025284721616e+00,-6.617674138856388666e+00
-6.521589773620563690e+00,6.646933017634444774e+00,3.584739000509429729e+00
-4.122865397192628123e+00,6.605321452301839535e+00,6.248885549231816050e+00
-4.295750421668405039e+00,1.642519818866962966e+00,-8.725006754342199855e+00
1.345285998560700191e+00,9.939980389968487984e+00,1.158627158136093849e+00
2.814609722944818593e+00,9.370938896125023732e+00,2.120487916756075286e-01
8.998032199644534046e+00,4.173045013449323548e+00,-6.936658448858181725e-01
-6.375066378706178760e+00,-1.335512837593738844e+00,-7.648418569502637432e+00
2.082965699388654168e-01,4.431575253296654360e+00,-8.819415317161478640e+00
5.542148146428933053e+00,5.195987903444934553e+00,6.194680260346385303e+00
8.071404489482723932e+00,-5.241452852276960783e+00,-1.833940507354493876e+00
3.178110149892726444e+00,2.426529135525692382e-01,-9.412711532914997292e+00
-6.854348797793156756e+00,-6.380584378377632149e+00,3.069462461475156889e+00
-5.415573835399471569e+00,4.606786176176276726e+00,-6.869745498208901680e+00
5.852135354686250679e+00,-7.972013984993594704e+00,1.707272616425858702e+00
-8.614382136404159951e+00,4.979302286033391312e+00,-1.357846787615990758e+00
8.107153025927203771e+00,-4.316619403156659374e+00,3.870371364538116588e+00
8.610366149565004790e+00,4.651008752216764464e+00,-9.583518800667309989e-01
1.115867321399257817e+00,-2.837645296835966224e+00,9.267330093092210674e+00
1.196887114572219968e+00,-6.105877284410876626e-01,9.882182296456832660e+00
1.563089942344431105e+00,-8.389866072737849123e+00,5.201861011909383770e+00
4.620836088861881130e+00,7.468466568001542072e+00,-4.290321766432436235e+00
-2.195718845862088653e+00,9.665975740288020646e+00,1.465486712983640860e+00
9.023524349873340844e-01,4.184960115925377089e+00,8.970085629741662459e+00
5.200127233340537281e+00,-8.532999215425661532e+00,-7.351731519930431169e-01
-7.968298721884686131e+00,-2.618389979557491198e+00,-5.249914195936225880e+00
4.305650479669853148e+00,-8.815734493531321547e+00,-1.430038753131231521e+00
-2.409396593769949302e+00,-8.861249926759599660e+00,3.823259584438220671e+00
-6.881117966869859437e+00,-6.511407090830644506e+00,2.799366901831636945e+00
4.462338264740237648e+00,-2.318396794423545515e+00,8.544350727853617045e+00
-6.981097181008359520e+00,3.718899556849189381e+00,-5.817130097219586737e+00
8.247426951768215275e+00,-5.366319585676557757e+00,1.368277093142505008e+00
-8.353943242174858952e+00,-9.560899519905243782e-01,5.532793885978994908e+00
-1.153103282521639406e+00,5.871181140479554195e+00,-8.029540978578767252e+00
3.999200163196423130e+00,-4.343630094020394239e+00,7.894874448726816318e+00
2.308119272208324801e+00,7.890990745073237278e+00,-5.484739573648401034e+00
-8.309082485469680535e+00,2.225213944451643666e+00,4.615835319475240617e+00
7.748582724807756783e+00,-3.436016888006488745e+00,4.880557633023036246e+00
7.165294255254588407e+00,6.709583591013599246e+00,9.443713960962970555e-01
8.187677543192450003e+00,5.061927315935449201e+00,-2.214063416424369546e+00
-2.749700189473035739e+00,-4.980072241574254654e+00,-8.162891959724627000e+00
4.988335498773173171e+00,-1.441811749843916024e+00,8.519089406515462315e+00
-6.319653601369888740e+00,-3.927305899647911325e+00,-6.426481696050176495e+00
-5.706532386381416799e+00,-4.300257204093065333e+00,6.918710075180311669e+00
-4.206028699279043437e+00,-5.027374011792065112e+00,-7.505957723604983478e+00
9.006909896448370034e+00,3.757376043505240126e+00,1.680400814710419022e+00
7.231102186854075242e+00,-3.067120292123068914e+00,5.937879667915900939e+00
-7.118280078972184732e+00,1.927832428641812923e+00,6.714343204865908632e+00
-9.699254720234298688e+00,-6.472862438212639846e-01,2.126503810909083469e+00
7.532808215595365731e+00,2.923598390756813714e+00,-5.974787132818841329e+00
5.113004145264645750e+00,-1.494831628526197997e+00,-8.453444261191899400e+00
5.185164659421980460e+00,4.591597100292473144e+00,7.226352242548164106e+00
-6.533289280770204321e+00,-1.858029961200648561e+00,-7.122058855201787608e+00
-8.837743108808739478e+00,2.055400131617600046e+00,3.713053071381723136e+00
1.991077177455240488e+00,-7.015071685380226407e-01,-9.539160870187382457e+00
3.124053696014234216e+00,-8.655803859406409728e+00,3.896222216485556444e+00
6.800040456477275619e+00,5.289909883309632299e+00,5.022799875192730745e+00
-8.638303334732778893e+00,3.144935702737204242e+00,3.734508160254998543e+00
9.820133103786060857e+00,-1.405951206828592870e+00,-1.052847460141925096e+00
-9.183620011377747971e+00,-1.920905697519185829e+00,3.149079468480150634e+00
-6.848437064762046056e+00,5.714964532792224716e+00,4.268888232395894988e+00
-3.758836066310772939e+00,-7.053371297281611163e+00,-6.047573637282210868e+00
-6.553637958459755275e+00,4.142728450442517918e+00,6.090330320755023230e+00
-6.477319583197698627e+00,4.716013517614556783e+00,-5.900940536430685945e+00
2.304050463890757960e+00,-9.715958587645358691e+00,2.394897449109976151e-01
-2.384553602964428198e-01,9.673470502241722002e+00,2.054672209699297536e+00
-3.272493248683348011e+00,1.604565569042919027e+00,-9.157170857766590899e+00
-2.126241439378369513e+00,8.945597263316022563e+00,-3.753553604695712753e+00
2.614658290451803868e+00,9.457993782040496455e+00,-8.667466382772576194e-02
2.038477204800713150e+00,7.128320715618519543e+00,6.638411936749348818e+00
-9.088446564543456674e+00,3.980521575290133285e+00,1.056769697450287371e+00
-4.655384879342439053e-01,3.442957079255048125e+00,-9.069129773920483473e+00
-7.575518390759881981e+00,-7.535974906611975221e-01,6.437705430365493697e+00
5.902739571700104548e+00,-1.697109965007990384e+00,7.864004465403641397e+00
-4.850298878731310381e+00,8.372004981346213626e+00,-2.115834769889935352e+00
4.328386437063481473e+00,5.793643654800565201e+00,6.983094501224038630e+00
-8.492773461699645310e+00,4.677063675715612767e+00,1.877224530034052208e+00
-2.070181473189464771e+00,2.797591661251862760e+00,9.321796846542314441e+00
-2.841410032080457615e+00,-1.383619648410114200e+00,9.506904610478343898e+00
-2.810296423141922961e+00,9.443009075109076278e+00,-1.011504963175978489e+00
-5.779068646387067076e+00,1.123696408119024825e+00,-7.757313471042754927e+00
5.822657004342520537e+00,-7.726133807388325891e+00,2.247624953201344145e+00
-7.656667011902643871e+00,6.200564299910904964e+00,-4.487596577946701415e-01
-3.755800962018286171e+00,-5.710220192359490632e+00,7.183446631084683176e+00
4.176859808088474679e+00,2.531276503416219903e+00,8.670982013179004966e+00
6.391455805824923786e+00,-4.657748295105106351e+00,5.959513906156504781e+00
-1.801097123649282317e+00,-8.130975768885511101e+00,-5.514482794247252961e+00
1.437727162239868628e+00,-8.583460919229432662e+00,5.065206054573264005e+00
-1.479646014256548847e+00,-7.259391956872895513e+00,-6.534731759395074668e+00
-2.439243743206426895e+00,8.385625317381972366e+00,-5.084534583966295429e+00
-2.850717771783223831e-01,-5.702204070975789740e+00,7.870601907641401773e+00
-8.616873040663520555e+00,-3.484803367708414701e+00,-3.369045188869548291e+00
-6.323230555876734549e+00,3.816771305144539994e+00,6.438320405787615996e+00
8.279201173216790721e+00,-4.133857045207581571e+00,-3.520896617427787145e+00
-1.376121259910455308e+00,-9.789511469898314999e+00,-3.270482715732417334e-01
-2.369715475012161399e+00,5.527535308920005441e+00,7.837916154877829555e+00
-8.911315122195448968e-01,2.439834521538234213e+00,-9.496377771393909484e+00
3.752043008985760597e+00,-5.970929087497706789e+00,7.155557610896512877e+00
4.918135040194462904e-02,-8.438242060962409141e+00,-4.946754479996656073e+00
4.520188696774071424e+00,8.766745192118039043e+00,-1.850598416055281747e+00
5.352883112435784518e+00,-8.155883823651508990e+00,4.010015814901269349e-01
-9.635050763716929367e+00,7.683448736994024086e-01,-2.783616468367096086e+00
8.324254490163950138e+00,1.707479236704110281e-01,5.450791566092849649e+00
-5.672378144615195517e+00,-3.832206285052501826e+00,-7.098701554454899032e+00
-9.403538036991937688e+00,1.038011918987852056e+00,3.719208542984567156e+00
1.907122518906314568e+00,7.408114685903390395e+00,6.318039431072743461e+00
9.371771466104799941e+00,3.058082730985953734e-01,3.483324019821322004e+00
6.387221319518631368e+00,7.240751252610238886e+00,1.934600616923954464e+00
-7.767062225386163199e+00,-2.284254223682735230e+00,-5.535953034486478685e+00
-5.087046377565855870e-01,-1.207528925571645234e-01,-9.833293117732321065e+00
3.231491773633794029e+00,-7.615218472283643791e+00,5.448298469983572367e+00
-5.278977956761956580e-01,2.412964773991843170e+00,-9.578561718042955420e+00
3.126408525787262693e+00,-2.527609690205393722e+00,-9.202339848398773725e+00
-6.815724467175469314e+00,6.305755870323437762e+00,3.336125512136067783e+00
-5.081902962442166327e+00,1.574711267928992742e+00,-8.246385279764808729e+00
-7.959164701925413254e+00,-5.633409238630369131e+00,1.110290849801788937e+00
2.196325013116173785e+00,-2.298053935556605976e-01,9.647561774423422776e+00
3.653224917179875408e+00,-6.042515974675037427e+00,7.101446833047906360e+00
4.068467988020881165e+00,1.842226907536593128e+00,9.183831448647367779e+00
7.811507757764466042e+00,-5.629822166094137437e+00,2.846325421376568077e+00
-5.139696472553434425e+00,1.355733581120370790e+00,-8.355912310431872214e+00
-4.928166625001662027e+00,4.206472837014765709e+00,-7.833180639144974755e+00
-4.639888869579962716e+00,-8.147582406151277823e+00,3.966278825905096728e+00
-5.526936685784719749e+00,7.007372758062452966e+00,4.450943970189769061e+00
-2.104514660588309383e+00,1.309456216238214177e+00,-9.521594630205564513e+00
8.392590774959048094e-02,3.608885181653669338e+00,-9.282813625965470550e+00
7.805168220775747123e+00,-2.672225411431886410e+00,-5.431439535723578516e+00
1.360324799455582045e+00,-8.458722561964769682e+00,4.817935245741836070e+00
-4.901359355502739490e+00,8.512372549154077817e+00,-9.703845216372084526e-01
-2.105983058657921458e-01,9.985830619802984032e+00,1.404616714208376527e-01
7.001920414255256908e+00,-1.113940907144122389e-01,7.108380602875497445e+00
-8.770828361993348921e+00,-1.315265127940103307e+00,-4.546056759387898438e+00
-8.079139484836140639e+00,2.662939720221120243e+00,5.312047641343681015e+00
-5.048377724621877505e+00,-1.752514811286070673e+00,8.290443845363501651e+00
2.943134921460268671e+00,4.008912175139428768e+00,-8.507742293001644640e+00
-5.442331241539174469e-01,-9.931375884817221333e+00,1.185165961364012865e+00
4.772067328423095667e+00,2.379326546030669509e-01,8.818210557537263128e+00
-3.033643868908262764e+00,-5.146989999905452251e+00,7.890336180941470268e+00
-9.563118118791924971e+00,-1.812061410970430719e+00,-2.354548999522458885e+00
-4.363377043207198547e+00,6.352029509607336699e+00,-6.252219597650523042e+00
5.808386907871874172e+00,7.584596672944629248e+00,-2.919302427452158177e+00
-5.113726915323013600e+00,5.267598497341358765e+00,-6.751431320918117152e+00
3.979636413521743243e-01,1.002456694129271852e+01,5.276349404022526723e-01
7.629625622936010432e-01,-1.804232550355063802e+00,-9.605001299469357434e+00
9.449011268459463153e+00,-2.566152274071964445e+00,9.200314400628010203e-01
7.473475809678389759e+00,3.405085429434492550e+00,-5.508723687513216838e+00
2.612468925749862336e+00,9.276824752733574542e+00,-2.706159709664723412e+00
3.056875767608601802e+00,-7.297157226689175324e+00,5.974997386046850600e+00
4.403048484324328271e+00,-8.834821062942399550e+00,-9.805748201723925306e-02
-3.803305528003899649e+00,9.207294167501752113e+00,4.719050119437526170e-01
-5.076452877442135581e+00,-8.285055239512196579e+00,2.247876035996207111e+00
-3.887942744575256349e+00,-7.647127131873972417e+00,-5.039233619338202352e+00
3.096871813048898137e+00,-1.225286504036713131e+00,-9.361018911493056649e+00
-4.549643376016496710e+00,3.766814406126016923e+00,7.907130195639254566e+00
-6.142242135839390826e+00,7.832906061042972823e+00,1.158485135114018405e+00
3.736627055118306728e+00,-7.428311601828657018e+00,5.591792657113690446e+00
4.320630181819828053e+00,6.610695507636824786e+00,6.223507540873839616e+00
-3.450341161138962942e+00,-9.003609573210743733e+00,2.664401861234638513e+00
-2.880111655490407152e+00,7.102932167050283851e+00,6.592422376444258880e+00
-3.770761831160167610e+00,-1.868909379395840897e+00,9.093411122021578308e+00
4.125516494641366272e+00,4.858587233672262862e+00,7.788530177898529416e+00
-6.996816441544408960e+00,-4.639768363927481709e-01,-7.018298595186759137e+00
1.470293501906595024e+00,-9.373900067777855227e+00,-2.847659367036960987e+00
-2.408488592082948188e+00,-4.875000710714913588e+00,-8.443955319157245398e+00
-1.009678773305205013e+01,-1.652250944254336495e-01,2.064146072622753125e-01
3.521975578867318379e+00,9.134214846102452157e+00,1.396472924918348069e+00
3.209809412851567068e+00,-7.357508408590003768e+00,-5.957305871899092331e+00
-1.988459079853291511e+00,6.104273102361221781e+00,7.404306543063771784e+00
-5.170041784017065822e+00,-8.349401036878798976e+00,1.809662536428178869e+00
-5.502769662545852647e+00,-5.875874467330115536e+00,5.953709748586744510e+00
6.977574927605849631e+00,2.862688934965365029e+00,-6.484737221693782416e+00
5.375484046865969034e+00,1.002387106417975682e+00,-8.470006110536855815e+00
-6.214100813647998045e+00,-2.240753350657928300e-01,-7.825567748634707499e+00
4.577250565952724060e+00,3.985247531874393179e+00,7.948660014044950373e+00
2.603662576340498802e+00,7.602075875615048162e+00,5.764609795406805404e+00
-7.476093933303176620e+00,4.877635634648944674e+00,4.710421946525851666e+00
-1.464351344245743425e+00,-5.796155200847155520e+00,-8.043898792018218558e+00
-4.935427232621210636e-01,-2.019003428011552082e+00,-9.770790738715952273e+00
-1.041745856620017285e+00,-9.550054865412704430e+00,1.702137267623689887e+00
1.353738466710604937e+00,-8.886421013257401746e-01,9.808252181476937892e+00
1.977566512755892347e+00,2.698571592982127232e+00,-9.421657227923921241e+00
5.104351861303555005e+00,2.158738621992169815e+00,-8.290854052631885907e+00
2.002255812580630678e+00,9.654756488874035369e+00,-7.005886927089712835e-01
-6.542167541691398469e+00,5.039145316367150684e+00,-5.225165889843136569e+00
-2.950925869967329973e+00,-9.375454312301274129e+00,-1.129209956949884353e+00
5.760805360545070641e+00,-7.831458694037162438e+00,-7.295879784141940938e-01
5.389856337230898298e+00,3.698533355894268571e+00,7.287840725466245395e+00
-1.833907268100654520e+00,2.257258039225804147e+00,9.452182373136050586e+00
6.757619476226426336e+00,-5.306262409609958652e+00,-4.810610937824470135e+00
4.499845310292893252e+00,8.468426036097974618e-01,-8.652518025968062076e+00
-2.452857577793573274e+00,5.847209635920092019e+00,7.433616576567918521e+00
7.370258848599099188e+00,4.447958123913330342e-01,6.575677773649411861e+00
3.854644272403180860e+00,1.813101800735218871e+00,-8.970872501426349288e+00
7.858419071138698087e-01,7.389881489461629371e+00,6.502547366347629421e+00
1.336793123164978780e+00,9.701296070098623048e+00,2.187723417464622511e+00
-5.993149470087984376e+00,-7.795889157669869896e+00,-7.448334003936423198e-01
-6.770969404530255531e+00,-6.222350571609074343e+00,-3.954161949498370632e+00
-4.250570990449370479e-01,9.014093669024507705e+00,-4.906871267247027824e+00
-1.401566457568865998e+00,8.600394257660239461e+00,-4.868375966510111397e+00
2.384395893695101520e+00,-5.089550953623236396e+00,8.389191495646308283e+00
1.604091290111234969e+00,7.673484482649884697e+00,6.146077929366152048e+00
7.101297515168887298e-01,-6.373413131086920203e+00,-7.758280780143238964e+00
-1.860127204079205621e+00,9.205960173958800397e+00,-2.844368977995827219e+00
5.985347093563965437e+00,5.109369317486876838e+00,5.861861723253474210e+00
8.821948263051577754e+00,1.629276578659269115e+00,4.091148111122890008e+00
9.315258738115317350e-01,-8.912401342423343920e+00,-4.333158121169487842e+00
3.557085981761247684e+00,7.396881914352649190e+00,5.558847620840047909e+00
-7.732631221978671476e+00,1.207248509926850843e+00,6.184099363304916608e+00
-8.007599184224584832e+00,-4.117543388492571843e+00,4.278478733803605216e+00
1.951952468786563033e+00,4.469833079681326815e+00,-8.685229645457420489e+00
9.085567271553864899e-01,1.005037009636172662e+01,6.066094508364031773e-02
1.484166532866344701e+00,-3.478316412607517782e-01,9.724721442481847333e+00
-9.692622403729325598e+00,-1.878880307906705793e+00,-1.082878368359282195e+00
1.788368533299771634e+00,9.641219609206126862e+00,-3.697364817858229680e-01
-4.046156812783332946e+00,-8.846896094046595493e+00,-1.983992464894547725e+00
-5.914784246280968105e+00,5.001125089504287580e+00,6.170128504154522631e+00
7.057434774202358874e+00,6.530922969445432713e+00,2.808561891895673401e+00
-1.470457920227556725e+00,-6.085343552804472367e+00,7.905525432738853553e+00
8.984011800863944686e+00,-3.923164428411929361e+00,6.885978984806166991e-01
9.835512143510040772e+00,8.018563183269710182e-01,-1.508335462175474984e+00
-8.538373415085688478e+00,1.499517931302403628e+00,-4.643007912767918910e+00
8.944512990084772852e+00,-1.497368069815135261e+00,3.691456065063873471e+00
-1.885661595059750173e+00,2.521043885439224752e+00,9.402097477871661724e+00
-2.787189309403470094e+00,8.006388801069171279e+00,4.975943856540623322e+00
-4.295339969500400201e-01,1.012218801118790878e+01,1.957652841400195076e-01
3.523245906634294045e+00,-2.879816830765518976e+00,-8.879935305362335995e+00
-7.830946995945097022e+00,1.458699777058526936e-01,6.359603820795315166e+00
7.903440782827978239e+00,-5.638592741930130714e+00,-9.617399082188933246e-01
-4.814302563631741805e+00,1.137053423807597372e-02,8.763851192010383429e+00
1.095573914599635046e+00,-7.088175771381107104e+00,6.764797323630990178e+00
-4.390192949734614380e+00,3.308635038955891616e-01,-8.890044852361207006e+00
3.377086858952874859e+00,6.949703795455040023e+00,-6.160598935204022020e+00
-3.595860695541781560e+00,2.118892318113289597e-01,9.138479146255102492e+00
-6.379211588782987441e+00,7.224319114921419427e+00,2.046964427372523154e+00
7.728047521473095038e+00,-5.269292282601450772e+00,3.314599454447145988e+00
-4.341750374471234686e+00,-1.246705680966815777e+00,8.696531376773201316e+00
6.984273850344226986e+00,-4.564262381669719204e+00,-5.569843203024901435e+00
2.749714323747727285e+00,4.090894601341813264e+00,-8.608358408668431494e+00
4.086585030588271827e+00,-2.320531571111280833e+00,8.843039390320765136e+00
2.150949964799880210e+00,-9.731023423181637710e+00,1.617379965027869460e-01
2.316753940629228570e+00,-8.586474952775901670e+00,4.671483739553581316e+00
2.217701241802416234e+00,4.024117241452890958e+00,-8.914419967155129854e+00
7.184678077561150289e+00,3.396806429536006533e+00,6.179225677383504589e+00
5.135569229783356171e+00,2.858707680122543504e+00,-8.121900718375066219e+00
-1.855530320894387852e+00,9.381713613921533579e+00,2.194129735234461087e+00
5.479882264119978252e+00,-1.020143831444412230e-01,-8.431969166188144627e+00
-5.865070509357954265e+00,-7.748774634906377301e+00,2.771167551670590701e+00
5.995862248015961349e+00,6.944350643074264084e+00,-3.631239622474961681e+00
2.439246466084852738e+00,-2.323279291297990490e+00,-9.366971758550370453e+00
7.172695402239235740e+00,-3.051606938127552571e+00,6.263587384568618965e+00
8.403576263556420400e+00,-1.824262733230598510e+00,-5.229128162955949399e+00
1.841773347337021915e+00,-8.898833005496774362e+00,-3.428891850037041333e+00
-5.436713165147001980e+00,3.353121317624049080e+00,-7.662934434655801930e+00
-2.425721365228786786e-01,3.302692757234180210e+00,9.545091729359647559e+00
2.581086610216764554e-01,9.852012622694495292e+00,4.035092669550476296e-01
-1.259987351413150325e+00,7.096898675808407830e+00,-6.814883117071774521e+00
4.529646259259088481e+00,-5.415049196450868685e+00,-7.011322100538869506e+00
2.726254235468968112e-02,-5.611959544211139850e+00,8.155312441033762738e+00
4.700090258840690538e+00,2.664112820018752714e+00,-8.450417879411489253e+00
8.198237008408961302e+00,-2.681729028419352456e+00,5.018666468542571479e+00
8.382884382800890322e+00,5.533177378462850876e-02,-4.990276365213561327e+00
-4.958823552560863490e+00,7.915906295985369212e+00,-3.282086456278021647e+00
9.731120681872486244e+00,-1.886524476188630173e+00,-1.848782054300743827e-01
3.928709553145917965e+00,9.220462438150832440e+00,-8.339269909622025745e-01
8.433528723565709484e+00,-1.599217493727906447e+00,-4.829229072508543830e+00
7.780707865709826088e+00,-6.040190718878403864e+00,-1.285188788372011670e+00
8.543645567368510996e+00,-3.032199347828655078e+00,-4.055926030795599324e+00
9.028226222176980897e+00,-4.206295697727195915e+00,-1.018266681228494480e-01
-4.380270642149984184e+00,-4.879466612039497164e+00,7.238049859659437146e+00
-6.332498070446304084e-01,-4.844309088987747813e+00,8.622757575415242570e+00
-5.754082664760047372e-01,-3.422284279343999813e+00,9.391918227284188347e+00
5.286656646546778582e+00,5.018021999766349772e+00,6.678144842185140817e+00
-8.886070900355122149e+00,-4.295224100664611022e+00,-3.751166322491887306e-01
3.019376353925392831e+00,3.385025634662996552e+00,-8.771877596790691456e+00
5.167394535107962206e+00,4.972565158787743300e+00,-6.732130452840123347e+00
-2.176453124993485755e+00,-5.133057454663072505e+00,8.094601048308540214e+00
-8.864256281491062595e+00,2.539916800429987909e+00,-3.697863981535002065e+00
-4.168501583706016866e+00,-9.158743684388163109e-01,8.994186201935628233e+00
6.430660701374571353e+00,2.689146515648094482e+00,-7.170598530429878714e+00
-3.604451619438208798e+00,-1.397951798571426485e+00,-9.278882694301717748e+00
-4.423904513760624768e-01,8.865564131139624493e+00,-4.238529346932264907e+00
2.803413123774090021e+00,8.102145851592805315e+00,5.172108162559736044e+00
3.175926890701018523e-01,-9.852099558218897712e+00,-1.548283617441511772e+00
-4.599703682253280412e+00,-2.511530018550211629e+00,8.416533630971700930e+00
6.256233758026620073e+00,-7.400266506386241616e+00,-2.459766300596950561e+00
7.904179969181162946e+00,-4.276558615956277620e+00,4.354617332481324432e+00
-7.615170697841073810e+00,-2.458303660780982725e+00,5.802955755480565969e+00
-3.147913057507734091e+00,-9.153387863518274159e+00,-1.907962794764440639e+00
-9.163975172132542424e-01,1.550285276412959767e+00,-9.714891210340736549e+00
-9.714635698269136199e+00,-1.700440019827174742e+00,1.176137824556378941e+00
-4.671666164047493019e+00,1.094550402048140914e+00,-8.689671417746922089e+00
-1.483347023801134812e+00,-6.744844904891925452e+00,7.011650545812320168e+00
-4.676670190303457098e+00,-3.193814141992419309e+00,-8.139782771624131996e+00
5.662583340490089379e-01,-4.772291758675036633e+00,-8.717056402820693606e+00
-1.624394789401446104e+00,1.917057161499656104e+00,-9.552893983973969938e+00
-1.139493821881087277e+00,7.280291809662640112e-01,1.000446525424107413e+01
9.143299212659913522e+00,-1.950292128370340494e+00,-3.990402710240598783e+00
-1.534683400406048892e-01,-8.776788274509312870e+00,4.905230973729836741e+00
7.083054383432120460e+00,3.098609660162308543e+00,6.259142725633339843e+00
-1.851200953860224541e+00,-8.841435250698397752e+00,-4.361688565517210847e+00
-4.659202190414899469e+00,-4.128190005672500718e+00,-7.716255586428872881e+00
6.617417531330128000e+00,4.994206045769406660e-02,-7.530621170704893785e+00
8.476040151225499031e+00,5.472812358478211792e+00,-7.851035218407446947e-02
3.863768915354567568e+00,-1.009324128825704214e+00,9.072349925586916441e+00
-4.279108797204586701e+00,-6.235259368440222438e+00,6.525543898909718976e+00
-3.535021323675627158e+00,-9.246076403314482661e+00,-1.053690568083597290e+00
1.957927662443204264e+00,-5.398371729999129620e+00,-8.091974151731792020e+00
-5.597457442894508084e+00,-6.917230075486688889e+00,3.926860586516180973e+00
-4.250078561325816295e+00,-6.608617660029249663e+00,5.919224387453906111e+00
-7.304586460038241746e+00,1.644882742837907141e+00,6.425745497667576522e+00
-5.649833876708398428e+00,7.925819737557796785e+00,-1.032987119975275592e+00
9.949274796262850273e+00,9.680182764477673896e-01,-1.647365464595605400e-01
-2.832440458719413634e+00,-9.147687406979873259e+00,2.047236713150674792e+00
-6.926901061714739072e+00,-6.673012405228980093e+00,1.950414085159762001e+00
-7.717040476266574522e+00,-3.689268838526692296e+00,5.203882422080234882e+00
-8.132414908781797180e+00,5.337110530334594927e+00,2.290559108341361227e+00
5.656226045827028592e+00,3.751869767265252786e+00,7.164471702049871382e+00
8.323507557819974645e-01,-9.737558197003636451e+00,-1.345463873407037880e+00
-4.017830303821688709e+00,8.118402280809586813e+00,-4.037194080155384057e+00
7.871688401670892787e+00,-8.980951392562982472e-01,-6.307887546748800922e+00
-2.919604905202346057e+00,5.801641312336484724e+00,7.611926797814770218e+00
9.692229967058338502e+00,2.964824267171424152e-02,2.790781819503439731e+00
5.357130145853291836e+00,8.115760652142959941e+00,-1.637132035540860953e+00
9.206219852518312763e+00,3.867513902122172720e+00,-6.481800531890727912e-01
-5.630305601707132013e+00,4.704337623918428690e+00,-6.534926077709380721e+00
-7.798449151826003956e+00,-4.637377968311962029e+00,4.134476654227264625e+00
-6.092414315490593424e+00,7.066517683596328148e+00,-3.239231203346407462e+00
-5.631988474561430813e+00,-8.068573515921936945e+00,-1.645234241749456094e+00
-5.532152832999865932e-01,8.755348302813333206e+00,4.781412992682034790e+00
-6.804825222622103098e+00,-2.563927138890033763e+00,-7.008583548435585620e+00
8.863257429550793987e+00,-4.192504650678706035e+00,1.910076308057876648e+00
-5.774208510567382824e+00,-5.743560650019627900e+00,5.608979228691353569e+00
4.318049258092589326e+00,-2.726089004317809872e-01,-9.022639234044472545e+00
-1.690129666415520537e+00,9.711498602985528805e+00,-9.872757771763643331e-02
-2.863146386368169427e+00,7.610961958342532974e+00,-5.663755645994881682e+00
5.559756092536024319e+00,-6.902555818573334001e+00,-4.388551079645740316e+00
4.444762222391683615e+00,7.040793615062085564e+00,-5.408244091310089985e+00
-1.170222955956632838e+00,-1.324047780222754156e+00,9.766908014566547891e+00
-3.044168480249303421e+00,-2.583081590693323548e+00,9.202990385864634248e+00
-5.068644652897620340e-01,1.473720069450117798e+00,9.775082810548301637e+00
8.656376641907955971e+00,-1.689795416154646013e+00,-4.298023091214135505e+00
-7.564305345355120558e+00,-6.636871060503454878e+00,3.145583859016441997e-01
-2.484131597503041744e-01,4.841543056986028049e+00,8.613606080285343580e+00
5.876759970028908597e-01,-8.147854400351688398e+00,5.531475339844442729e+00
-9.922259164343133264e+00,1.265544919977144689e+00,-8.857380043942971737e-01
-5.738695515755946275e+00,-8.072102963785130925e+00,-4.779983320845215267e-01
-7.964933224036602866e+00,5.812215072306041286e+00,1.242590587285639092e+00
-3.309714551643017977e+00,-2.913514351285299231e+00,-8.717221691393623573e+00
1.632025729091462818e+00,6.432273118544497237e+00,7.433217583872790080e+00
