2.307527743204820680e+00,-1.138870312678837982e+00,-1.148092334523215019e+00
2.331548780614303595e+00,-1.103604648005018563e+00,1.162321447290490806e+00
-1.193105195389495554e+00,-3.473023670421479525e-01,-2.588800794022625862e+00
1.217081363440579711e+00,-8.840313434670651338e-01,-2.385530188774739546e+00
1.714965317405843903e+00,-2.214976525897933701e+00,4.645031984979530182e-01
-2.274574898919337951e+00,1.204942598773182549e+00,-1.201831074756898765e+00
1.065229490802120482e+00,1.495533988118822044e-01,2.546409977432583904e+00
1.201594983061086808e+00,8.576138928952764529e-01,2.397506860130572903e+00
-2.461917719500328339e+00,-1.066588897285426496e+00,9.502072209603933395e-01
-8.799774271263984815e-01,2.579902885458006612e+00,-7.031175261030092605e-01
2.584989198123778920e+00,5.294642858063067781e-01,1.058556585740037415e+00
1.323685131936762405e+00,1.974748741606737967e+00,-1.610410238034845509e+00
-1.739005908991523075e+00,1.300755743776229822e+00,-1.857501302073923277e+00
2.079045650350551000e+00,-2.962601438173879664e-01,-1.867988739983403867e+00
1.614177575870428538e-01,-8.109837576474268062e-01,2.690545433161330546e+00
-1.235480223735660799e+00,1.379177466261047647e+00,-2.096700907006325831e+00
-2.631999141917591434e+00,-8.526155014953535893e-01,5.780569919543926405e-01
-9.263244757046145139e-01,1.276820782924677378e+00,2.345944695935922031e+00
2.783541372116363766e-01,-1.539792692961261311e+00,-2.338682980161588265e+00
2.281941260320355713e+00,1.754066675276543030e+00,4.045425581722167929e-01
-1.880289331638181016e+00,-2.173343114303535106e+00,4.393363604835209268e-01
6.908285968126832710e-01,-1.657550268652170811e+00,-2.183925671355578579e+00
-2.078251487079386006e+00,1.537533838220539462e+00,1.264367682999394171e+00
1.918168657859553594e+00,-1.445882246089771117e+00,1.516924385749421456e+00
-1.026669641351251050e+00,2.401146382225387121e+00,1.170917418922405639e+00
-1.630674516907075766e+00,2.949042550470760693e-01,2.326966493472320430e+00
6.630521984161295013e-01,1.343615921984464556e+00,2.396310058070619586e+00
-8.923404728082162674e-01,-1.425563813013295711e+00,2.303720982579226639e+00
8.719320101642082932e-01,6.039527181606538786e-01,-2.637439229828310250e+00
1.614144719701842146e+00,1.003839793694750293e+00,2.109897468556026112e+00
-8.197098334018760868e-01,1.257875249745935120e+00,-2.438674257663166589e+00
1.833277484762727338e+00,2.105559769442289397e+00,-1.792863664438621996e-01
1.208400295263776014e+00,-2.529192137492592529e+00,-4.752948449691407617e-01
-8.302307371783697043e-01,2.087595933205472321e+00,-1.691055318749364655e+00
-1.542224083804140333e+00,-1.414954523031074940e+00,-1.936889652510818571e+00
2.809846923517836936e-01,1.155182758669772713e+00,-2.517536669809409045e+00
-2.192930556994024727e+00,8.997277105216310300e-01,1.463645654651840600e+00
3.485995397647614347e-01,2.799459079051044519e+00,4.985388120731094053e-01
-1.083896121830097758e+00,2.562337294959129874e+00,3.360759860563685697e-01
1.934950703747275957e+00,4.972441671741898994e-01,2.012713085578392125e+00
-2.759418464467731535e+00,3.520585817071533730e-01,-4.835773249064803658e-01
-8.875388587463831636e-01,2.666399795129739125e+00,-1.411350021463967652e-01
2.750549275072768030e+00,6.348411793592013963e-02,-6.242155877299920830e-01
2.040476256455526105e+00,-1.863571107084392997e+00,-7.011993126816419286e-01
-5.435214752808521510e-01,2.371135386445719195e+00,-1.480938992310722124e+00
-3.112094233533578835e-01,-2.070631755869956070e+00,1.893808646605183332e+00
-2.793606773154136760e-02,1.592883648440744260e+00,2.433700496286280046e+00
1.728269491197245600e+00,5.957076431111029136e-01,2.184931579295181781e+00
1.713202333450080106e+00,-2.259592257763717082e+00,1.837774356169362688e-01
-2.703688777270026211e+00,-8.652992638570415618e-02,-9.056776317223833583e-01
2.653991998771402905e+00,9.085724393025532697e-01,4.669280166446670433e-01
5.744082619900029441e-01,-1.943005825926759703e-02,-2.811810663911706420e+00
-2.110975966516822067e-01,1.858295743896933860e+00,2.145175843045625363e+00
1.885326071252113378e+00,-1.999960944372438432e+00,-6.705320365741331834e-01
2.617113349568828795e+00,4.422480849377012357e-01,-1.136679894140881109e+00
1.184764458685933164e+00,-2.452561923890343110e+00,6.516111523873164835e-01
-1.255548888659663020e-01,8.406200452348334684e-01,-2.725315789447620762e+00
-2.212659081951612094e+00,-4.681822897495591662e-01,-1.727627956915367635e+00
-8.105489874343376755e-01,-2.222021335884456050e+00,-1.563095589274968278e+00
1.789321926445077704e+00,-1.695655780030163262e+00,-1.519930272322633780e+00
-1.294715011525302328e+00,7.707075172284050257e-01,-2.423044320036490618e+00
-7.658738845796817137e-03,2.728921072546138582e+00,8.643915964769548488e-01
1.270165421249096038e+00,-8.861067346921671639e-01,2.408067946630936262e+00
-2.546685542324561347e+00,-1.244014770834032779e+00,-2.655770851539023258e-01
-1.242712389619376134e+00,2.605964744318522097e+00,-7.388139472663247248e-03
1.628302520151311272e+00,-2.233584335772420992e+00,-6.455572940228374579e-01
4.022186967852298678e-01,-8.137546840334891618e-01,-2.677248606182935031e+00
2.447850081464704619e+00,1.461439957944733914e+00,2.078435366089835257e-01
6.282104309849689816e-01,-6.753937540874804801e-01,2.640575582555499956e+00
2.700860293793529987e+00,-2.169404909744009416e-02,-9.066294403962187332e-01
-2.403303833732026717e+00,1.329824168151491515e+00,6.427590714708386610e-01
1.231330522316011811e+00,1.986309436215930369e+00,-1.607280430975343011e+00
-2.461895170372512709e+00,9.428380273355607688e-01,1.050295945986003954e+00
-7.704577427403394019e-01,-2.166476036343457867e+00,-1.620524292216005247e+00
1.262131430870454096e+00,-2.055636141258097460e+00,-1.490746329179083229e+00
-4.180347417316748748e-01,-1.528721677700467962e+00,-2.304447072527403773e+00
1.618172753067226743e+00,-1.474254446394480000e+00,-1.778145404159281684e+00
-2.638629972353979003e+00,-2.440495267471924981e-02,1.017237194050490290e+00
-1.859015470104444928e-02,-8.222993963967319964e-01,-2.687297169889198312e+00
2.400481627544097663e+00,9.528804571251412447e-01,-1.244383520468543169e+00
1.707330129196404700e+00,3.986109445579559818e-01,2.252908458185706841e+00
-1.957021842844418824e+00,1.543729404957432605e+00,1.373210876932179803e+00
-1.691253044641511050e+00,2.110989566552598173e+00,8.361482149060377456e-01
1.876152622923359825e+00,1.956362621424959869e+00,-7.898969095371828342e-01
-7.662087037400432399e-01,-2.559937932192529075e+00,9.792982940610732712e-01
-1.819487798431912218e+00,-5.131922890462787823e-01,2.102056436139524198e+00
-1.691116189790878632e+00,1.907593975178268009e+00,-1.247136784590107572e+00
1.293119847287770519e+00,1.306102118827662917e+00,2.211510291581546994e+00
-1.152766636567480463e-01,2.824320839934313376e+00,-1.149390730033715002e-01
-2.113900635989601540e+00,1.774291671327153042e+00,7.181428839587478130e-01
-2.129103290117528413e+00,1.164264567442959919e+00,1.510099471975054675e+00
-1.069184116347361213e+00,3.963595350632465042e-01,-2.556761443820796398e+00
2.775331523922768273e+00,-3.347859220954029214e-01,5.893782735502925973e-01
-6.691708645822868062e-01,2.679946675061326555e+00,-4.237932087602574449e-01
1.001790526413057103e+00,2.423973756734612017e+00,1.199150444757848266e+00
1.892740807180071094e-01,-1.187795659202194098e+00,-2.582635746081707318e+00
2.338594490472478693e+00,8.634746467746321485e-01,1.390023237662078470e+00
6.249100674680977408e-01,-1.488532306646120240e+00,2.367825566144727834e+00
-1.722574197316663280e+00,2.173172845572392209e+00,5.050418846639727066e-01
-6.432784072217981874e-01,2.399672150633966883e+00,-1.336649218379160731e+00
-2.626197799654744980e+00,-8.152899749496832493e-01,8.347151257566517435e-01
-5.577252970487692751e-01,1.999079148167105524e+00,-1.831983600862690187e+00
2.285056349967167222e+00,1.576383184091108669e+00,5.959178619041507474e-01
2.467954392658128437e+00,-3.291473709738639841e-01,1.373312479228525396e+00
6.616052107115489855e-01,1.118960085358026602e+00,2.569143802618380157e+00
2.270229175183459791e+00,-1.511508483863821084e+00,-8.765023040829921230e-01
-2.286166814271785697e+00,1.565899046081855595e+00,4.992217368537117950e-01
-2.323083911891379749e+00,-1.531206291229596728e+00,-6.239356404882975271e-01
3.027608358444440206e-01,-1.033058067094919430e+00,2.642779393761575335e+00
-1.480899051237207553e+00,1.391030763237282919e+00,1.982152838175573972e+00
3.934902589512009885e-01,-1.534475597146128453e-02,2.809693205396113669e+00
1.485887595925827531e+00,-2.386758243625418885e+00,3.572140362148656934e-01
-2.458095799676423443e+00,1.375897059236800279e+00,1.268355500112780809e-01
1.558267731457805061e+00,2.262779217918341246e+00,-7.492314651739535591e-01
-1.273084444042436925e+00,-1.596112155831227231e+00,-1.960699483248270480e+00
7.390641399708183235e-01,1.864516680579376917e+00,-2.107366307196105293e+00
1.343124450847007934e+00,-2.017065579737094438e+00,1.499439627882029891e+00
1.622586119574202179e+00,1.441294539800502150e+00,-1.840854881530993747e+00
1.575563155723862740e+00,-2.374542084584400303e+00,-2.795166678805379584e-02
1.987446394270181438e+00,-1.271741330780317814e+00,-1.538243646643445040e+00
-2.095954619393528562e-01,-2.355226368772055157e+00,-1.632649890275454263e+00
-1.211946074382168836e+00,9.667580556310457762e-01,-2.335612496978188624e+00
-1.725723833877583102e+00,1.500805083599686396e-01,-2.183369085050280489e+00
-2.282896120583720379e+00,1.526877392633172237e+00,-5.638999743080570504e-01
-2.633133873535531411e+00,-9.820236318386444951e-01,-8.081007193255382304e-02
-1.416515792181174960e-01,2.801487704617111163e+00,-4.014705749091366238e-01
2.042795737306226211e+00,-2.003065694993857893e+00,6.504570331844949926e-02
2.778115868692502488e+00,6.766465190296407917e-01,3.117289779557216867e-01
2.120365203913330721e+00,-1.518997719726838280e+00,-1.013163548872425990e+00
1.324159214047445354e-01,-2.742857428128834041e+00,9.213747534490412949e-01
-1.788177469630538585e+00,-2.224041400857492690e+00,2.908180992545678634e-01
2.086953956259258725e+00,-6.035442253015319558e-01,-1.826351943393595523e+00
-2.118139571025198453e+00,-1.024367080640399053e+00,1.570103690416825737e+00
2.314817515784386881e+00,6.963983550216112928e-01,1.463177309883198829e+00
7.198802164538627979e-01,1.767710046277670477e+00,1.985492438311837970e+00
-8.819623605255383358e-01,-2.154284586419902503e+00,-1.634334745775615438e+00
-1.073849163062168932e+00,1.832038744790757678e-01,-2.611965833080095223e+00
2.157253116891124645e+00,1.753277437010453355e+00,-6.410155430478674532e-01
-5.540807261996609778e-01,-1.534019938240903658e+00,-2.315172236929796679e+00
9.055839655722390802e-01,-1.854636926987158319e+00,1.902691259773832799e+00
2.575229276256282285e-01,1.265131585952633309e+00,2.554559776203785937e+00
2.096235334165265640e-01,1.351849832510744198e+00,-2.488712950220115960e+00
3.048241913196181319e-01,4.302191652474043337e-01,-2.766732667995095873e+00
-5.228375199038293175e-01,1.304904577580018099e+00,2.496003880705292666e+00
-9.155854593930725649e-01,-2.524398491706869141e+00,1.036328367667899153e+00
-1.973526336187239272e+00,1.945250067421152584e+00,-6.578827565657127119e-01
-2.842748437080168333e+00,3.029606088353594684e-01,-8.073757282748840816e-03
5.370852427059303880e-01,-1.440278698302953631e+00,2.269771820823108133e+00
-1.585832995827698433e+00,2.165308089895602084e+00,-9.696991568713001497e-01
6.723613735785911871e-02,-1.413883903278126741e+00,2.469523650839009488e+00
-2.055433966889862685e+00,1.929006666537190551e+00,3.803590385708909283e-01
2.764577409217953363e+00,4.185865317454207646e-01,4.931193021708032420e-01
-1.351093986893701748e+00,-2.074042208316380531e+00,1.421992674023796921e+00
-1.166492912734801157e+00,-2.552087079338900111e+00,5.334957037865690754e-01
3.655660122649214694e-01,1.194442103829745250e+00,2.530162385073434272e+00
1.122447921973024565e+00,-2.461129318429767565e+00,1.013865538451901527e+00
1.536595574725414748e+00,-2.179359190996056572e+00,8.537600549412656115e-01
2.583039949179867012e+00,-8.992559523512196895e-01,-7.815757833527247067e-01
-5.538078547153717501e-01,1.696831086110455633e+00,2.252678167588992419e+00
1.692176130540055778e+00,5.417671583647458711e-01,2.195542410688569479e+00
9.378496408149374908e-01,-2.307457761393340245e+00,-1.288713888378806516e+00
1.606172305006994927e+00,1.436281629841348328e+00,-1.792623247251657892e+00
2.051256929178592259e+00,1.566825147571617061e+00,1.191931514229382705e+00
-2.629284377106793968e+00,9.634508222556219526e-01,-3.278064731203874094e-01
1.412910827993089091e-01,2.091127668919949278e-01,2.817197850930133196e+00
3.400988271974043076e-01,1.452149832288645026e+00,-2.453377027235994934e+00
-1.318923588270896508e+00,-8.131534813574101683e-01,2.419356722430479945e+00
9.212745664682168156e-01,2.275678337874460777e-01,-2.688917380143463376e+00
2.576436107714921597e+00,-9.575631654789128477e-01,-5.991202864318074806e-01
-1.291920707738610341e+00,-9.919097022660815499e-01,-2.266611712087748920e+00
-1.140183112389548281e+00,-1.603666440221350742e+00,-2.066202875652638937e+00
-1.172276948093784688e+00,9.713498927754828927e-01,-2.420405885035179061e+00
2.386809289530345435e+00,-9.761598356118933451e-01,1.081609560365267564e+00
2.348833676475247101e-01,-2.422410679289709989e+00,1.514730966439460147e+00
-6.147597327981089155e-01,-2.525168464051407380e+00,-1.153916847590057415e+00
4.700423265316103771e-01,2.012475141887909214e+00,-1.986495191881081146e+00
-1.376843513598721147e+00,1.580307297075003614e+00,1.902865448346097166e+00
3.310736647220378637e-01,2.205832754894289760e+00,-1.752294313089606481e+00
-1.947379076867166381e+00,1.353690389836067487e+00,-1.572814596476032500e+00
-2.611150472036997794e+00,1.040569200707242903e+00,-2.938297794695035048e-01
-3.682330479087724262e-01,-1.011474048547191584e+00,-2.624225162195453986e+00
-4.519182296895685180e-01,2.388752085916061585e-01,2.762132469528900458e+00
1.194863611798134162e+00,9.019619331129135054e-01,-2.415870962944200340e+00
-2.784655810648184460e+00,-6.811701301545021181e-01,2.723836591860654410e-01
1.409506081791153553e+00,8.976400371087535357e-02,2.492504279541791323e+00
-5.838527173278726945e-01,-4.359685561422032007e-01,-2.724693115756093409e+00
2.057424231943885573e+00,-8.424405378955808210e-01,1.747033668247971905e+00
-2.337715536635796898e+00,-1.239913745281070900e+00,8.931939025414591393e-01
7.856131395309767784e-01,-1.453457839979821475e-01,-2.681775691440029696e+00
2.182013197902010759e+00,-1.743706326853015298e+00,-3.978547860879117493e-01
2.691302287415217709e+00,-8.267896656630925323e-01,-2.424565368972628476e-01
-8.397304707347390696e-04,2.579391957717726669e+00,1.203902039219136855e+00
-1.575640491483357164e-01,-1.209703470173231654e+00,-2.580471174528199629e+00
-9.618920681893357028e-01,2.068042725306125984e+00,1.646093355667037628e+00
-2.689466820522984136e+00,-1.910073705735570448e-01,-9.095269940637711326e-01
-4.323822752522707979e-01,2.487554389328848536e+00,1.324053883944834142e+00
2.218437010035059664e+00,-1.221318981586781760e+00,-1.270253991040593666e+00
5.567746239211412984e-01,-4.094958520930995771e-01,-2.730927008769412634e+00
-2.379666115240738566e+00,-1.550631299419273690e+00,2.723570430583454605e-01
-2.597692969280501085e+00,-1.425801843441578121e-01,1.155892387856336079e+00
2.847630064777717518e+00,3.210150950276409731e-01,2.319435722943606337e-01
2.197193073061625146e+00,1.774757559365770732e+00,4.407305961637301706e-01
6.546067946857984099e-01,-2.348526287235049193e+00,-1.502096209853738262e+00
-7.137011979026044450e-01,1.724073074321322618e+00,2.108579071686896622e+00
-2.352526777285771420e+00,-1.038807203853354677e+00,1.119646608157602863e+00
1.701998180852048348e+00,1.812610061458217237e+00,1.276841688661310981e+00
-6.580314187988635100e-01,1.246731598552789588e+00,-2.487243144347389467e+00
1.398792554629403107e+00,-2.134227166534205189e+00,-1.276142057836630039e+00
-2.202979846978825318e+00,-1.290532586911731894e+00,1.240995550368960032e+00
2.277695356094567192e+00,4.174865856362572902e-01,-1.668369900749150814e+00
-2.743285727845194533e+00,-3.833184286335613450e-02,6.997655664360225014e-01
-1.611623836497607432e+00,-1.980449701751239022e+00,1.218252030145854370e+00
-7.271185857368632766e-01,2.686085257065894183e+00,6.914942808668710361e-01
-1.947151415381933814e+00,-1.946765476876831880e+00,6.122221894097921169e-01
-2.265761666369130456e-01,2.385447142480634150e-02,2.837710712847749228e+00
-4.488898598841310483e-01,2.134064161487988276e+00,-1.846625023243528618e+00
6.072033075203785435e-01,-2.544216109069956655e+00,1.080549547508466768e+00
6.577885775244382005e-01,1.269905668875483506e+00,2.430080414084274665e+00
8.974220501277635487e-01,-1.345832205422048844e+00,2.335907881069219094e+00
1.539896397281685481e+00,-2.144973503740279064e+00,9.537764399792201253e-01
2.555482531117564959e-01,-2.791694841367416302e+00,-4.972153870789178254e-01
-1.857685957330291959e+00,-1.006364928555389282e+00,1.919696733311902825e+00
1.474155437569099947e+00,8.147679233083655603e-01,2.209755452819148314e+00
-2.709201861006350853e+00,-8.921904008576779788e-01,8.276097531236231708e-03
1.188876395243649159e-01,-1.045123565245817954e+00,-2.653847271899237636e+00
-1.330853800633816433e-02,-1.479616377464735288e+00,2.416477083922448532e+00
6.073039408335164646e-01,-2.570189965468285820e+00,-1.139027067043361763e+00
-1.764643728368569420e+00,-1.312671814759412525e+00,1.773515935765616280e+00
-1.485767337118436338e+00,-2.247581432993953410e+00,-9.190237660479116943e-01
-2.097756392685705684e+00,-1.328363002041049290e+00,-1.431786692708403530e+00
4.112300998030328780e-01,-1.932751457071333778e+00,2.030777899414304422e+00
-1.609381595034465040e-01,1.154961556321783878e+00,2.530303062030027750e+00
2.830764456201561030e-01,1.302164205507888584e+00,-2.509685382326203307e+00
-1.103117625383098321e+00,-1.256704136007676054e+00,2.272782087654479533e+00
-2.412498283497676255e+00,6.444569575212628909e-02,-1.490861308390563522e+00
2.190376239188087520e-02,-2.127270135223125358e+00,-1.892232028492363938e+00
2.043691425693007768e-01,-4.654407902862214841e-02,-2.825295141408058708e+00
-4.529352981537026479e-01,2.819346451530567066e+00,1.091901526773687153e-01
-1.201394165117146695e+00,1.040127537763266830e+00,-2.402962436299981519e+00
-1.533870983929026544e-01,2.798332026676781936e+00,3.654356104148716589e-01
9.531857500249505399e-01,-9.833872674455317320e-01,2.546157574698132198e+00
-1.703676778721849194e+00,-8.769998001354431527e-02,-2.197281237492329176e+00
-1.869719074265338232e+00,1.452196705614847483e+00,1.547776211358885767e+00
-1.973504362597950923e+00,-1.936051103978091437e+00,4.634138547331545510e-01
1.994058356982134628e+00,1.479712549021565682e+00,-1.363053026853509264e+00
-1.229098964521663229e+00,2.281696973847183063e+00,-1.136181504897343375e+00
-1.084656624763087107e+00,-2.602018131295705583e+00,-2.041524059513805944e-01
1.336494485956389866e+00,1.120008486771663536e+00,2.211979044240991676e+00
-6.983443275793360661e-01,6.347626836953630669e-02,-2.787377916285254553e+00
-1.331365601552438327e-01,2.773362433856971787e+00,-3.489979504884780925e-01
2.155219749189639433e+00,-1.696149739192305272e+00,8.493253452845829221e-01
3.861318265566223151e-01,1.726869857037617528e+00,-2.161416270744838553e+00
-1.770238791307501280e+00,3.971625290325164204e-01,2.233708244722892200e+00
1.192557170013702761e+00,-1.065380741131666031e+00,-2.355543295353913269e+00
-7.106324461036098716e-01,2.158736098732187081e+00,1.671813557043904996e+00
-2.583520972844244312e+00,-8.050642028502876801e-01,1.065505552013078727e+00
2.965011218650624447e-01,-2.797669063645700671e+00,-3.767669644075251068e-01
1.718149870218180775e+00,-7.602474190881788330e-01,-2.158607032417264371e+00
1.917986260782974739e+00,-2.030528307165553770e+00,-3.674467388581802996e-01
-1.258406637202896583e+00,1.553166485772134120e+00,1.969089374901391798e+00
1.221163693503645842e+00,1.754453604530287647e+00,1.835027216936581773e+00
-7.447592871022483685e-01,7.387014936209530536e-01,-2.632591480667930472e+00
1.429136514417148618e+00,1.137345764431697770e+00,2.161701081822423820e+00
1.739916807214862304e+00,2.156521024285508403e+00,7.591416409818662059e-01
-1.418263629824318084e+00,-1.950838430926746581e+00,1.466452305998967143e+00
1.114533651557558791e-01,1.132696971914883832e+00,2.566580492895354837e+00
-2.542672777393819583e+00,1.147357278521256019e+00,3.190657403347111898e-01
-8.397131343267327797e-01,-1.657245167643320416e+00,-2.136755017103482590e+00
-7.207485863274495363e-01,8.998831585719389847e-02,-2.771455511430289231e+00
-1.408737932650329372e-01,-2.060453149984892818e+00,-2.066557151326845254e+00
8.653480515052692779e-01,7.063261577667800939e-01,-2.646506250968495344e+00
9.175351871715363428e-02,1.201875636234805311e+00,2.564078694274215309e+00
3.472141977721343031e-01,4.641740073802786970e-01,2.849961100259145397e+00
-2.413018213055859729e+00,1.186582726209974181e+00,-1.119135646474575196e+00
-1.204910605605628016e+00,-2.315844432412805354e+00,1.151466672227909882e+00
9.490571424081706287e-01,1.390372168691975663e+00,2.255996617628061696e+00
1.646739269588534116e+00,8.099627029411913259e-01,2.179860658558494091e+00
2.289585923575777837e+00,1.488182742985942886e+00,-7.269652773242680777e-01
-1.173147892997299380e+00,1.055924628027416823e+00,-2.327325088055341329e+00
-1.687308786586081688e-01,-1.711580842232724553e+00,2.239691281082698548e+00
9.070524575758446284e-01,-2.279687082657521735e+00,1.465356446108048827e+00
6.316272957582971248e-01,-1.280610931777165229e+00,-2.471977905521089980e+00
-1.531817454220913755e+00,1.169398203288554150e+00,2.101340596212652123e+00
-2.337435501073049426e+00,-1.462803020233724105e+00,7.931746449550198808e-01
-2.476940763839705184e+00,-1.012825711134549111e+00,-8.955257778637312205e-01
2.240381765650541812e+00,5.590922602334680303e-01,1.617683228026555842e+00
-1.258318797317801163e+00,2.041645238637835647e+00,-1.568597358345393378e+00
-8.463425866674985365e-02,-1.639881603168577007e+00,-2.353049748005989539e+00
-2.287632583941568765e+00,-1.929262990485867968e-01,-1.657347958287626932e+00
-2.064494343786183350e+00,9.045672308775944970e-01,1.768478568405374540e+00
4.701480149714610812e-01,-3.025970550579233920e-01,2.783470523061497115e+00
2.484400657363288634e+00,-1.252852485653016101e+00,6.523049529658664358e-01
2.593495881176614559e-01,3.642994388635646674e-02,2.841432491517724923e+00
9.983547716253704518e-01,-2.361524568897171328e+00,1.299009094811430787e+00
1.319434556695040728e+00,2.083968183703388988e+00,1.334668063230099788e+00
1.807642420368638314e+00,3.372610571446656991e-01,-2.129498349179995920e+00
2.816913909412722905e+00,1.310528568520501203e-01,2.283420746897589504e-01
1.881476616014189140e+00,-1.645080141254495087e+00,1.398457551290100520e+00
-8.264137105132552952e-01,5.760465497277500457e-01,-2.651501968024940314e+00
1.687855692179254796e-01,1.975945716207084146e+00,-2.010820004259458837e+00
-4.510529359709423980e-02,-2.130800251098405429e+00,1.896984199534363702e+00
-2.291357006121931494e+00,1.522480346343886293e+00,-7.569052486661638213e-01
-9.534343733580650238e-01,2.644734697494841580e+00,4.455037188126232950e-01
1.882043081015631891e+00,1.890238323760562444e+00,9.824036570048768624e-01
-1.770072196122194352e+00,-2.197395523558542951e+00,-1.062932387260967504e-01
-8.143535809865728448e-01,-1.920281992247051539e+00,1.966962304367396719e+00
-6.294327522208873482e-01,6.669604692716613048e-01,-2.716152546018915093e+00
7.896153834112998871e-01,-2.621706662842401947e+00,-8.821640703843712794e-01
-2.042776409672641957e+00,1.597875955271699677e+00,-1.210130148655153670e+00
-8.777697430023451153e-01,-2.735461515617590766e+00,3.351260314994307654e-01
-2.303211134168913876e+00,-1.138221020410967732e+00,-1.271794769777952805e+00
3.584773624218736132e-01,-2.498218382274808302e+00,-1.385877314124108528e+00
-6.989999004941848115e-01,1.394824174026771946e+00,2.371087342441369650e+00
-1.842436362570721020e-01,2.604811606796639811e+00,-1.101711312940425902e+00
1.269091682612084326e-01,2.601942494641384496e+00,1.212295019980356825e+00
-2.378814766337767672e+00,8.829497709414224627e-02,1.638076100566265847e+00
1.514345186523391895e+00,-2.339469166633695085e+00,4.873804436367083492e-01
8.419063382134089890e-01,2.678882450095510848e+00,-5.418384202669641603e-01
-8.806436115647965357e-01,-2.659688504145251819e+00,-1.063546207477735484e-01
-2.259090258927694439e+00,1.614604740961095297e+00,-6.717856972018976247e-01
-2.663664754813135804e+00,3.324055951356600924e-01,-1.000013881545009919e+00
2.783354989515556710e+00,4.289140540260764634e-01,4.081474284985749934e-01
2.503984681760345943e+00,1.210998567256329483e+00,7.634319429217120145e-01
-3.837399242853296588e-01,1.475282677840427326e+00,2.419382282460759370e+00
3.556486366567386814e-01,-2.332787077350489735e+00,-1.617941704121867996e+00
5.524881378597744641e-01,-2.750556241090146514e+00,-3.662776995527435298e-01
-1.899136433524319933e+00,-1.863145509821959145e+00,1.122524597314555894e+00
2.003001173884137176e-01,2.731897242866448305e+00,8.472796292106407057e-01
1.030736151010411827e+00,2.172395711671027296e+00,1.544627389923727945e+00
-1.407112641168825728e+00,1.869183203152215755e+00,-1.522199390126005358e+00
-1.120915484134026530e+00,-1.529224347396982875e+00,-2.119833879027483992e+00
2.014725454368968549e+00,1.023689124417118901e+00,1.753466378980036655e+00
2.529602463807243407e+00,9.206040686358007985e-01,9.453749936294494338e-01
1.501842658824166898e+00,-2.076603444569551371e+00,1.195832078188746816e+00
-3.028325859951321308e-01,-1.670113221782594526e-01,2.774277211565027823e+00
-1.442583638540317903e+00,2.342240652598135409e+00,-6.666657616145413856e-01
6.674010966434749115e-01,1.848104023944709962e+00,-1.979628681103615451e+00
6.062851000850419947e-01,-2.159223887348833415e+00,-1.677733144053456638e+00
-1.501808857752836790e+00,-2.150342615811129843e+00,-1.060955973089461768e+00
1.704937098745827662e+00,1.983771325336929792e+00,-1.046065171234636937e+00
2.311420631849923080e+00,1.285683950707241285e+00,9.209286557977000021e-01
-1.017136182311041415e+00,-2.602717833102142553e+00,-7.092508605646662134e-02
8.442574700449050340e-01,-1.316164891061017528e+00,-2.357193632817385698e+00
2.300325025958512626e+00,1.128641816117511576e+00,1.227525545259446016e+00
1.014434981880434072e-02,-2.816199099988758281e+00,-2.238728121073101651e-01
9.558365054653515935e-01,-2.587406635964510038e+00,7.955880685163858601e-01
-2.044493135170931897e+00,1.944150010812229379e+00,6.433127728423753897e-03
-1.629889820891250451e+00,2.157493859411426129e+00,9.433417408748889788e-01
1.455819962309586879e+00,-1.173932093182781244e+00,2.266834885261767241e+00
1.184373912556482500e+00,-1.078750870110164906e+00,2.363974579824287492e+00
-1.097913675713738657e+00,-3.400538213125669507e-01,-2.650452815278895979e+00
2.759710770594512308e-01,-2.824903350741372332e+00,-2.561970260468442451e-01
6.074373357639535342e-01,2.793561889530625564e+00,3.458802584826652926e-01
8.594957812913146533e-01,-1.566260142083187423e+00,2.165685079618217657e+00
1.077568972148294391e+00,-2.233395932732149980e+00,-1.316118141157572197e+00
1.636776690001754408e+00,-1.161109856140255081e+00,-1.982439901885465261e+00
-5.971528997033859198e-02,2.765413291019741315e+00,-6.768493206733774414e-01
7.811404573112690208e-01,-2.676357492870276023e+00,-5.196611325261399905e-01
-2.519233453936096545e+00,-1.289573951450111222e+00,3.660278819286992835e-01
-2.840997097854848441e+00,2.501145159931691397e-01,-2.120116297981423925e-02
2.080607170823203234e+00,4.945670501054458268e-01,1.883555052051596457e+00
1.183058103921361681e+00,-2.289948871401561892e+00,1.300752313376336122e+00
-1.026482819622448917e+00,-1.637943736119180649e+00,-2.047966221578731094e+00
-2.275618458192837146e+00,6.979921997871061379e-01,1.552021517008820295e+00
1.405629863187623618e+00,-2.129663180324576466e+00,1.170402681961458358e+00
-1.526785704183952763e+00,2.381987231173365860e+00,-2.517190586119787410e-01
-1.726595969356001348e+00,-2.160264088953724126e+00,6.154536269113790592e-01
1.883592555188158268e+00,-2.028999071028301682e+00,-7.407262443311617428e-01
-2.019939702870130915e+00,3.002373485539646270e-03,-2.059893409731399672e+00
1.599422136555893381e+00,6.885178403760257027e-01,-2.207399510746905769e+00
2.559384547878009286e+00,-1.831654833393700889e-03,-1.267382511805808853e+00
-1.189918794733269669e+00,5.482096647560639191e-01,2.489816783348304696e+00
1.414718275871394981e+00,-3.854897953183530901e-01,-2.386864235830757242e+00
-1.481138755014899999e+00,-2.200739487876080869e+00,-1.004806480323620965e+00
-5.460544406478452517e-01,-2.657249530078882760e+00,7.416169572492748996e-01
8.621539510439710785e-01,-2.318305275226779205e+00,1.512134740107781816e+00
1.752992697909635300e+00,2.176214717153379663e+00,5.830963112230520551e-01
-2.669703295835699208e+00,-1.079591756448782913e+00,1.963703215096617993e-01
1.408769085306564195e+00,1.374680553910492042e+00,-1.978959282630656791e+00
-2.315615494025917709e+00,-1.496440710114598227e+00,-7.629526420173338153e-01
-1.367928458632097444e+00,4.073656101966453003e-01,-2.432894783310219911e+00
2.383262843493211824e-01,1.520618479680894586e+00,2.384576411034851962e+00
2.305482470382962834e+00,-5.205144091590995226e-01,1.551414726139134226e+00
-2.065791940564460027e+00,-1.617906778140044910e+00,-1.006110519482808385e+00
-1.050592486793044067e+00,-1.936350569080405926e+00,1.758501938723420199e+00
8.169395703689271704e-01,5.435223079251213507e-01,-2.664070482194957901e+00
-2.319958178945885408e+00,-1.204386084525565170e+00,-1.013713201646901929e+00
1.934066313349128485e+00,1.947132419639659995e+00,-8.396528862524283987e-01
2.217487934156275653e+00,5.598600180953020589e-01,1.680262088968158318e+00
-4.963376615050784646e-01,-1.060079189753342144e+00,-2.614972007687956790e+00
-4.750780602459254709e-01,2.152411875031130073e+00,-1.809082421422565590e+00
-9.443852215345973633e-01,1.102203779495951830e+00,-2.480587374863131078e+00
2.130005019490413432e+00,6.331639757375954192e-01,1.815064898352773959e+00
1.144042582476878733e+00,-1.912289394426453182e+00,-1.824547463940091152e+00
2.581960881346986980e+00,7.325345752259464494e-01,1.011761701771259236e+00
1.857012978504543887e-01,-2.488756616521353937e+00,1.285120732957906409e+00
2.415061188588456975e+00,1.453039370237093841e+00,5.780915859114286182e-01
-2.493190521635148649e+00,1.316400315562117562e+00,-6.400703202402835412e-01
2.563011178119078526e+00,-9.850382029118897043e-01,6.553886093100613763e-01
1.623610768768459112e+00,2.145112421597867414e+00,9.341472311546279439e-01
5.000513065615423969e-01,-4.695614186298248116e-01,-2.777365385606200832e+00
2.482945015509769426e+00,1.255927213120259456e+00,-7.404626895755889171e-01
2.785720271809186827e-02,2.596067397328537751e+00,-9.905564792004771801e-01
1.229351741709794055e-01,6.316007995794571395e-01,2.780602558704392990e+00
-1.044582063309166031e+00,-2.416628804543214493e+00,-1.193123468329234438e+00
9.662206085858489057e-01,-2.299572354704812582e+00,1.319706111284457473e+00
1.337647623197280478e+00,-3.991435694708507786e-01,2.470836215325848961e+00
1.481476725141412487e+00,2.413141497290979487e+00,-2.914990366980506065e-01
-1.661758745935934423e+00,-1.606716843918497006e-01,-2.287856685735280227e+00
2.507400085139550150e+00,8.378278120832869380e-01,1.115727634235885501e+00
9.442524323477105019e-01,-3.438982725845104449e-01,-2.672351984165043159e+00
2.628882628226666629e+00,7.894526201553487832e-01,-5.060031510842324387e-01
7.724690389235396026e-02,-1.171272303514566460e+00,2.577849380389738876e+00
2.090979896169529173e+00,3.748023956953414615e-01,-1.879390802270640259e+00
1.923138327498176592e+00,-1.971709734243606071e+00,8.322926768748720727e-01
2.456919114416172611e+00,1.134744838051586546e+00,-7.845701041586646829e-01
1.385605513056532567e+00,1.523172171848129031e+00,-1.958702778481355100e+00
2.236248660912047548e+00,1.322181543994396469e+00,-1.150879161939942774e+00
1.690560614977852261e+00,8.906075850940827765e-01,-2.114062304867306619e+00
-2.483256179786810680e+00,-1.274911514627563025e-01,-1.274518837707593777e+00
-1.803713266390968073e+00,-4.103646973734524361e-01,-2.148830247265075766e+00
-1.757132825992512526e+00,-8.670106909261910966e-01,-2.089560239921021800e+00
7.950022910720899727e-01,-2.349733341970811296e+00,-1.358526333071469416e+00
-2.422291678302446183e+00,1.113152146177677881e+00,9.369857558413353660e-01
2.233369036926703632e+00,7.457148851358478270e-01,1.561402454696417808e+00
2.604839910948270720e+00,1.102253885323658741e-02,1.064703766591708289e+00
-2.116148544912871632e+00,-2.392578953891223714e-01,-1.836284852822884561e+00
-1.293486932310754733e+00,1.502937620705118993e-01,2.526431044654523284e+00
-2.288482631354308516e+00,-1.332800531754007478e+00,-1.048148450330221415e+00
2.734166286595822726e+00,5.930166795270332969e-01,5.981488082505204140e-01
3.045869834263668086e-01,1.972691838647490981e+00,2.070286245091254695e+00
1.345515735922818923e+00,-1.257305565601616326e+00,2.128009136368835374e+00
7.288750410385712586e-01,-2.761495327229901875e+00,-2.205530772850052557e-01
-6.758992600537685469e-01,2.495186962120733210e+00,-1.210894560921500940e+00
-2.464638845896058861e+00,-8.672427115056322577e-01,-1.104298709802453038e+00
1.061677488129600722e+00,2.049499521559340121e+00,-1.689265542975497025e+00
8.117504244481327236e-01,1.354260546074261273e-01,-2.735937597791287867e+00
-2.797639350667670222e+00,-3.953611209975199103e-01,-1.194011575875176534e-01
-1.359484572617223996e+00,2.430187008006279292e+00,-4.612143857396615587e-01
1.273807947776540050e+00,1.359556441094829982e+00,2.125870552930037238e+00
-2.573551671419059605e+00,2.620777981204853169e-01,1.175791050450729180e+00
2.202981447077914101e-01,1.315341311950926517e+00,2.507226566137372714e+00
-1.964544226415893213e+00,3.087724251692575694e-01,-1.993201607567026246e+00
-2.751071205774554551e-01,2.188257500741175310e+00,1.784346903483811309e+00
8.621952515691698737e-01,2.600909664718287662e+00,7.757004921332057990e-01
1.123684731928640934e+00,1.254389473201687144e+00,2.269359705620073164e+00
-1.566434046048481132e+00,-1.907472216569459755e+00,-1.499908275693716542e+00
2.471525783359207029e+00,1.061006499818888837e+00,-1.105914993054990303e+00
-1.566176232317992412e+00,1.125577690304477407e+00,-2.134596246029029309e+00
1.080454903335883010e+00,-1.858018491572043684e+00,-1.865259275011378115e+00
-6.922213516169724024e-01,2.778382330020148672e+00,-1.930604707155834932e-01
-4.204724718333111011e-01,2.325083774987370511e+00,1.569141634305719402e+00
2.569094858098191381e+00,1.250966627138120346e+00,2.468234716245795157e-01
2.504780064093690584e+00,-1.296286316367660563e+00,-6.148636918853889188e-01
-4.513180942489266601e-01,-1.394677183848246127e+00,-2.427607755382338084e+00
-2.494390045471648332e+00,3.028880674173469179e-01,-1.361077620114518716e+00
-1.575363477445138161e+00,2.304808756500109634e+00,-5.630824553478310790e-01
1.036958773131365863e+00,2.620889284771465988e+00,3.379298446886950802e-01
-2.508856075427392973e+00,9.236790230320395256e-01,-7.716084544030236136e-01
-2.440858114538969392e+00,4.932461790557527426e-01,-1.311416115130306759e+00
-2.410729233979260311e+00,-1.434512695719621256e+00,3.143396936945346276e-01
-3.904486070905261452e-01,-1.561588412644096646e+00,2.291432151995760336e+00
2.417372232069093130e+00,-2.757632588491322756e-01,-1.503755187510771529e+00
-1.829223345389590749e+00,1.733233748558905551e+00,-1.224212849023987193e+00
-2.520914382184242797e+00,1.226223426457037080e+00,-1.571200578050340746e-01
-2.859104358373273147e+00,-1.131555179142654591e-02,-1.739839718748208697e-01
-1.673652240087762255e+00,-1.537373457248773612e+00,1.734777573383119442e+00
6.900206849455732261e-01,-2.151962694328139580e+00,-1.692620701173546127e+00
-5.735620073337179825e-01,2.429324507645321596e+00,-1.317280947745608222e+00
4.182834287467597223e-01,-1.092864013586754224e+00,2.584682831606927245e+00
2.598570936238052465e+00,1.240189904606330495e+00,-3.221358450636958026e-01
-1.153985636063606934e+00,-2.619631402635457018e+00,-3.105562950851156398e-02
1.860391653432832193e+00,-5.792654923216341567e-01,-2.128333773175158594e+00
2.255834801827749203e+00,-1.593640934771471063e+00,5.752498571452536735e-01
2.595092113310916382e+00,-8.399682072941778710e-01,-8.693090733637827139e-01
5.518502039715264540e-02,1.302582201158542230e-01,2.807385685309751189e+00
-2.823621976135266110e+00,3.910265336338020203e-01,-1.062747708631224114e-01
-2.736559223809028607e-01,-9.770295966628922413e-01,2.637152259568221080e+00
-1.863953175691814623e+00,2.160411631875021943e+00,6.771433931083446767e-02
7.027800160460358214e-02,-2.811715209756955769e+00,5.097452993726591108e-01
-8.609894859991176208e-01,1.866074940810487970e+00,2.031021559093593609e+00
1.377440137403615372e+00,5.364326937190058153e-01,-2.445821546891917997e+00
-2.666153448742103471e+00,3.652394647052148446e-01,-8.731039410976697557e-01
2.210919737507622607e+00,1.605103997089552426e+00,8.549051140896491985e-01
5.710569571367272168e-01,-2.163014367910034874e+00,1.717360427083181262e+00
8.590956636056080731e-01,-7.031699311835946098e-01,2.608697255785625391e+00
1.214163390510946794e+00,2.280940500193555209e+00,-1.152927710596206357e+00
2.457885351877040048e+00,-6.821246423553316562e-01,1.249807711932109822e+00
-1.741279251163520225e+00,-1.401798038578650374e+00,-1.751080981441607731e+00
-2.220009325873436801e+00,-1.002278277551892804e+00,-1.517838807703901338e+00
-1.315857674186004189e+00,-2.041276698390144251e+00,-1.456494248867139962e+00
2.426637293067444467e+00,1.060227369152342058e+00,-9.307296047761179913e-01
-2.440072072141879378e+00,1.510153324149961396e+00,2.493768202833034631e-01
-7.677405706761223358e-01,-2.601179242796890279e+00,-8.005113224098955316e-01
-1.419429046028069852e+00,8.673210698660717144e-01,-2.280212223281280259e+00
-2.048758804746638074e+00,-4.523597369572722460e-02,2.013454502575188432e+00
-2.049283278321085255e+00,1.957632621417884522e+00,-1.245901496579158024e-01
-1.444606820809729797e+00,-1.462594812116552401e+00,1.964140812030734207e+00
1.476047770828518291e-01,2.214278931407906548e+00,1.698903984290294211e+00
-1.554822895493342648e-02,-2.770122715868305718e+00,-6.730647548741583996e-01
