-1.599383819354564418e+00,-2.849460775492205777e-01,9.667210109903323634e-01
1.696302737204203215e+00,-1.403054766751473226e+00,8.799971506544298494e-01
1.363482862653529137e+00,-1.016308999791274204e+00,1.745167764363743546e+00
1.739748930432465146e+00,-3.789889031303314004e-01,7.300447152729780953e-01
-2.083318495894928013e+00,1.318266990064639987e+00,-9.148692443288212184e-01
1.699690828304709855e+00,-6.860905651310498232e-01,3.448878643106423891e-01
1.312492507920404838e+00,1.221116592076032070e+00,-9.542525235297447672e-01
-1.342320211713101674e+00,-1.173001501064425911e+00,1.972341943536027875e+00
1.804947312831654438e+00,7.577748706082209074e-01,-5.148985708945768014e-01
-2.523152511954655619e+00,2.623626948918075796e-02,-3.780874331464635363e-01
7.339652419874092004e-01,-1.544179578632143501e+00,1.991217118423516563e+00
1.126143325698597542e+00,7.789510865769287973e-01,-1.162203001164476612e+00
7.809676233693070291e-01,-1.696393659540053500e+00,1.952796569648822089e+00
1.556888553411261977e+00,-9.587809064024239714e-01,5.701654011414148959e-01
-9.810827522646770049e-01,1.053761405523991002e+00,-1.018892406032024578e+00
-1.662732255139504511e+00,-1.359236834638912095e+00,1.506743442409288480e+00
-1.103681631841280320e+00,8.695233982950331120e-01,-1.636751080340632880e+00
-1.903400853430794681e+00,-1.040862745238443354e+00,7.589224005667757345e-01
-2.336182353700616776e+00,-8.372687051985114870e-01,1.046040385873711731e+00
-1.687186871393950627e+00,-1.446248539586521831e-01,7.484819910645018615e-01
1.727087423658337784e+00,-6.061458534921578822e-01,2.215043901570249163e-01
2.360883484485920558e+00,-9.412822534732918633e-01,2.900816699329133441e-01
-2.304149419071205518e+00,-1.305397168354034132e-01,-3.380783907044226377e-01
1.880294803886302102e+00,-1.029974839222991823e-01,-6.644284081794564756e-01
1.261944411358274287e+00,7.583203246855885205e-01,-1.017038240413610906e+00
-2.202541368781841147e+00,1.153578035379324842e-03,-4.417951507627873031e-01
-2.337382250824438401e+00,1.017477856350489818e+00,-6.707303174091956421e-01
4.408998329365110269e-01,9.118363283645297690e-01,-1.769747988152392315e+00
2.567840743001292836e+00,-5.257065602554387984e-02,-6.242673300475355402e-01
3.652272998750871191e-01,-9.634424065075661847e-01,1.620112294322826996e+00
-9.091330837322646463e-01,8.844504823821610628e-01,-1.315395515787951775e+00
1.170807463303543461e+00,1.234197054680788996e+00,-1.986917798190942053e+00
-1.106351509946347900e+00,-8.614642629381263905e-01,1.078128455824877596e+00
-8.154691916402013740e-01,-1.240984549394503977e+00,1.176479891602135064e+00
1.695396561294615356e+00,-9.764444473235689426e-01,4.435747165154876881e-01
-1.206612944079544336e+00,1.027911897135695307e+00,-9.366346080032458277e-01
5.793428762626989803e-01,1.609615491531988241e+00,-1.354733721480215980e+00
-2.126170333890083697e+00,-5.278048902560469324e-01,1.663002233840899791e-01
6.618107461849571660e-01,-1.844367779360079229e+00,1.707789975691082818e+00
1.655739476415773126e+00,1.155746579604726598e+00,-1.692584375556595910e+00
2.607792225443796297e-01,1.023859101070174304e+00,-1.908876937831809562e+00
-2.421524874152790330e-01,-1.309861704706855479e+00,1.295023852922989160e+00
-4.791636315901451337e-01,-9.758443586796464730e-01,1.921979488143195525e+00
6.784741549971801122e-01,9.828791407817241144e-01,-1.919532509596676650e+00
-1.814946919093170186e+00,1.019935884969633166e+00,-3.904184271017174246e-01
-5.904356566466910650e-01,9.732279547421328614e-01,-1.541329649132793023e+00
-8.452121676337729372e-01,-8.382616251486700865e-01,1.654636857880775969e+00
2.366033672824549239e+00,7.161927529987159868e-01,-6.202371539963009717e-01
-1.873346008743978608e+00,1.189880878779276951e+00,-4.937510240168061504e-01
-1.457703840916976246e+00,-4.527834784065764007e-01,9.233042550935507409e-01
-4.851937886796841570e-01,1.413749020023099989e+00,-1.217184895769489072e+00
-1.691672884818259615e+00,-3.448277472904380248e-01,1.277957180022899486e+00
2.375603842982830116e+00,4.978674355410446783e-01,-2.279708925323322422e-01
1.788968301152277451e+00,-4.852474606758452880e-01,3.180553856155433901e-02
7.116635193960493266e-01,-1.147901279306684508e+00,1.121291234581200502e+00
4.773055700842983584e-01,1.016458336350424929e+00,-1.344902592053904833e+00
-2.065402359437474189e+00,-3.777897852394905831e-01,1.237396983872719458e+00
5.607970315999297739e-01,-9.926124485213975168e-01,1.727129695916288732e+00
-1.408709137714777349e+00,-1.120469361858392743e+00,9.236192669067423422e-01
-9.536078826791644092e-01,8.431009895561533130e-01,-1.478937422752338859e+00
-1.576134049478609134e+00,-1.076167168924040851e+00,8.277394002129696560e-01
2.567468703232027583e+00,-5.707166793854406839e-01,4.065257228702923720e-01
2.024677559674091132e+00,-3.965142933841495076e-01,1.008811992257732326e+00
-4.053441813285731943e-01,-1.839815250704270877e+00,1.788620488238501727e+00
2.412803758228876383e+00,-2.128341698605540344e-01,-5.559524161778336415e-01
1.935967524018149311e+00,1.123603617343611250e+00,-9.253559788816105858e-01
1.176698609878012780e+00,1.559737580484787056e+00,-1.856760584467481268e+00
3.902972005164366265e-01,1.159939359110690793e+00,-1.269811011680888724e+00
-1.383239081507990687e+00,1.617137816511337478e+00,-1.406081827306999932e+00
1.258290220695618578e+00,-1.526077862390242679e+00,1.847488357067290421e+00
3.212822938314078419e-02,-1.277566465028982190e+00,2.152283028345395532e+00
2.290966602400005492e+00,5.130511934024784004e-01,-1.149108015811493466e+00
1.765333759232652122e+00,1.288103261841835989e+00,-1.369973626861789917e+00
2.224470500639235127e+00,3.868129691785778257e-01,-1.190042037493078242e+00
8.023405738123571274e-01,-1.048403890674770356e+00,1.856041726160524874e+00
1.981286771862861729e+00,4.327303791579970027e-01,-1.408544193046086801e-01
1.732537826964618777e+00,-5.914866789864453578e-01,2.572840076490370831e-01
-3.590120476489618295e-01,1.150739897195824923e+00,-2.036787532539483525e+00
9.881241604244146437e-01,-1.284999928260244006e+00,1.956879259045827713e+00
2.558003510680134873e+00,-4.244316030739426343e-02,-5.279074144238802280e-01
-2.503195471955070417e+00,5.337480820650514213e-01,-6.294132085294441570e-01
-1.727354961409673928e+00,5.661613266334871719e-01,-1.128175747806392099e-01
2.595481175906541704e+00,-5.118881194573299265e-01,2.570248507749025579e-01
-1.524343873835959595e+00,-4.054601569915448067e-01,1.111706547476018381e+00
-8.621073890841133291e-01,-1.727912440860828402e+00,1.475090839825259792e+00
1.544974061186411562e-01,1.578003234240772157e+00,-2.091245190235131890e+00
9.722552711820998950e-02,1.397606634274842108e+00,-1.273194109066815072e+00
-2.379002569151268620e+00,5.638507144516019531e-02,8.055567211050657095e-01
-1.968351171586588677e-01,1.083168788045218323e+00,-1.364745321989483839e+00
1.713565126062832844e+00,-1.519698322393922441e+00,1.268265060633585906e+00
-1.555705242447738446e+00,-6.849331298133363166e-01,1.689328775616880440e+00
-7.624830507881014130e-01,1.506176797041690385e+00,-2.025019475009318448e+00
1.034321510770149333e+00,-1.782401120659934612e+00,1.467520432008224240e+00
-1.163200924508904777e+00,1.221375580268273309e+00,-9.029308737442534039e-01
-7.637779562245078369e-01,-1.143179584787808789e+00,2.061661197231106524e+00
1.086346588060284724e+00,9.446422709109136839e-01,-1.022388498878516794e+00
1.692326271677228267e+00,-3.595171003648784391e-01,4.678357784802770758e-01
-1.997471284206318254e+00,2.146735770056445725e-01,5.774659575938573264e-01
-1.734472623903726696e+00,7.277622433419528303e-01,-3.181321686089635947e-01
1.542939941059189524e+00,-1.114343397543879011e+00,1.740208049407443891e+00
-3.607616349986812465e-01,-1.856398549029525835e+00,1.688772835482448054e+00
2.021751513165106040e+00,-1.315745969262775761e+00,8.621274505508813579e-01
2.397722931093040355e+00,7.833059778789169814e-02,-8.475995977334123133e-01
-1.018831277595816376e+00,-1.030677171807278691e+00,1.147309689710310332e+00
-2.160077143455585436e+00,-9.245462592802092816e-01,6.941957965631855298e-01
7.636635586060029901e-01,-1.532969788617471796e+00,2.028594143388794624e+00
-1.279971516549694099e+00,8.012111214074918442e-01,-1.507549117660417659e+00
1.710069646219532391e+00,-5.290040866868944702e-01,3.094192766519257010e-01
-1.798054851459506498e+00,3.488084369604243506e-01,-3.349576439742460443e-02
1.827245247341501511e+00,6.040603001518483062e-01,-1.573331381131451101e+00
1.028165006723948727e+00,-1.462705076477779809e+00,1.047561106758945870e+00
-1.155138713405287509e+00,1.452089350300845405e+00,-1.012459307193321001e+00
-1.920871080927702756e+00,-1.042850989559266361e+00,7.777962243757183813e-01
-2.315495748497517603e+00,-6.386500140930742031e-01,3.819448606291404591e-01
-9.524651801256356354e-01,-1.386104843700265210e+00,2.011948476691184151e+00
2.286304252790105185e+00,4.304517284146301970e-01,-4.399305835373317625e-02
4.880223609120276640e-01,-1.387402381348011859e+00,2.109078706165435246e+00
-1.750234693317355594e+00,2.171546479249814865e-01,-1.169188360236182028e-01
1.511108225666291993e+00,-1.394196065782780103e+00,1.676754235269854121e+00
-2.282367461599784875e+00,6.315203396726670748e-02,8.676317774686933548e-01
-1.608814378167175319e+00,-3.917976993532265029e-01,6.251743866448191689e-01
7.117406304571652353e-02,1.757800094315365547e+00,-1.454466324006061351e+00
1.606705703619249581e+00,8.178523130487799220e-01,-1.738298005763905030e+00
-2.334452039246884603e+00,-2.348808820512702511e-01,-9.031074180675099927e-02
2.096617819686898976e+00,5.083405181129176942e-01,-1.402685593842817102e+00
-1.934059267175618935e+00,-2.292401892870737923e-01,-6.780623996067151882e-02
2.932386871095296610e-01,-1.684937828278891159e+00,2.013268799455947278e+00
-1.431724370784242861e+00,7.072349421033373718e-01,-8.498367558094573893e-01
1.706441578809214876e+00,2.013956944970204388e-01,-2.749211083422391511e-01
2.588925016688121250e+00,-4.089865111372092965e-02,-4.560212543811912878e-01
2.128573905824062251e+00,-8.318303286414847619e-01,1.237344810905757431e+00
7.523544932253656281e-01,-1.804498863878541748e+00,1.560110689528922734e+00
-2.044986146789171677e+00,1.290099091813224241e+00,-1.116104395865183951e+00
1.789946520850788314e+00,-4.409590016939225476e-01,9.244773244646232735e-01
-1.950710535029789083e+00,-5.372398832301377575e-02,-2.705284929184523790e-01
-1.811172501229236786e+00,6.903873512502550769e-01,-1.064372501824300543e-01
2.456578955423773802e+00,2.054739427139606334e-01,-8.725296886146305386e-01
-2.455900624651165653e+00,8.201794630049215051e-01,-5.509136613002586502e-01
-2.481834030834872085e+00,2.223735894966373527e-02,6.033595236340983936e-01
2.608093237756449412e+00,-2.301472657169189306e-01,-2.402769549268964078e-01
-1.783956694989936809e+00,-6.275194350410583100e-02,7.051223451655712349e-02
2.282396730307333588e+00,-9.804315924724879006e-01,3.092904071487062034e-01
-1.445030331983471195e+00,6.838125689381643335e-01,-1.301907110703138137e+00
1.010196932859756203e+00,-1.639931194250432211e+00,1.179442779892094117e+00
1.904168216656505264e+00,8.434693405868652905e-01,-5.283884743013883556e-01
-8.838411851856760038e-01,-7.351144613355147239e-01,1.599396391702976095e+00
-4.978876002629831210e-02,1.466467429032540570e+00,-2.187360968900648572e+00
3.354515870609920958e-01,1.401711745661714748e+00,-1.296246085254259439e+00
4.085327580775901524e-01,1.843368419791294954e+00,-1.642229205958828375e+00
2.467549412426882860e+00,-6.810513253201833095e-01,6.826879480479653983e-01
-1.930180332543974808e+00,1.452646627048080341e-01,5.712696827310705938e-01
-2.178872838811802826e+00,-7.759549611585213613e-01,5.199887900699293741e-01
1.266686038398127323e+00,-7.465999272208332371e-01,1.365472580573449557e+00
1.285721754204323108e+00,5.748589666585834923e-01,-1.403429445336551007e+00
-2.581685185420255380e+00,-4.390452885998623045e-01,4.366142532840702750e-01
-5.294373758586201628e-01,1.655626217996041927e+00,-1.286918893328752311e+00
1.681452029249830282e+00,-1.491230061214878999e+00,9.625899394800109254e-01
-6.218095657748130556e-01,-1.026352023696354143e+00,2.018145697573559438e+00
-2.329258008074607034e+00,-3.738699702003724368e-01,5.881221561781445339e-02
1.151071138420787454e+00,-1.616605035377688182e+00,1.743327018299253517e+00
1.375086171950022917e+00,1.198521820531410098e+00,-1.014984348422858673e+00
-2.551874868328927737e-01,-1.677038486352472324e+00,2.064928679031380110e+00
-3.949563489860445364e-01,-9.870657794142198016e-01,1.946776811868849766e+00
1.668056044990532671e-01,-1.839899419384693369e+00,1.737171930617674054e+00
-1.599181180590134144e+00,-4.152543156352945242e-01,6.362762544707930568e-01
-1.538370395676446734e+00,-1.341515640947565036e+00,1.760879562105124529e+00
2.423344047899192333e+00,-5.260837002747323909e-01,-2.616613739143341388e-01
1.984780006419212928e+00,2.233208345235732084e-02,-8.956764741276395103e-01
-6.411496772916476239e-01,-8.891691177986015271e-01,1.771991066322705421e+00
-2.495017086441011500e+00,-5.719049070318626971e-01,7.769353735770111458e-01
1.823075936744790182e+00,-1.191183425525687456e+00,1.513315473931770239e+00
1.886811669377191025e+00,1.057660195270489156e+00,-1.597269021690642221e+00
1.475264741982094785e+00,4.737061900477753662e-01,-8.675877215012594013e-01
2.151210482831755755e+00,4.030759185452662541e-01,-9.409924641636820131e-02
-1.929410634723731865e+00,-8.805817160179468805e-01,1.591088413791451162e+00
-1.115396787202011797e-01,-1.537441671521713404e+00,1.291215865087803616e+00
-2.078511217270148093e-01,-1.839200240835121791e+00,1.608984736914126357e+00
1.626819550662266314e-02,1.755527959303748498e+00,-1.434799674891774401e+00
-1.651272548019626196e+00,-2.830424845147716528e-01,5.076784848517954529e-01
-1.454837208003671334e+00,1.183801644895097427e+00,-1.782074254459079743e+00
9.825620735726606769e-01,-1.122086168741145418e+00,1.925259249483956658e+00
1.959500800236109619e+00,-9.259842017322872376e-01,2.341454253194205082e-01
-1.259365049550896787e+00,-6.835509371850911897e-01,1.685199286235662619e+00
5.461832604816031500e-01,1.087296104887647941e+00,-1.331978317758105268e+00
-1.367912770231404451e+00,-6.674646693885001314e-01,1.700829242566109567e+00
1.937019681859685427e+00,4.751738926828498744e-01,-1.638078019159756316e-01
-1.572932410392697267e-01,-1.225242900877973495e+00,2.099644888821353028e+00
-2.148952885755651909e+00,-7.313917757535823849e-01,1.359664779282347524e+00
-1.394757635139364460e+00,-1.332790103321146225e+00,1.895105881817980231e+00
2.192554706477239712e+00,7.070147512344190366e-01,-1.341819914328848951e+00
-1.986663995001914707e+00,-5.749479457716143160e-02,9.981633498443769348e-01
-9.020558201789494746e-01,-1.675999658242453894e+00,1.845425421737117544e+00
1.162004589830734291e+00,1.200682809829397346e+00,-1.068354601888899191e+00
-2.432168112292481865e+00,-1.587780433275199354e-01,-2.234708085547928713e-01
-2.197351397832788322e+00,-6.715813908872620974e-01,3.284929708135577719e-01
1.561039813081130045e+00,6.123407659963208127e-01,-6.219249812544411782e-01
-6.260562592470203525e-01,1.061921126945472915e+00,-1.942792583039919529e+00
-9.488536457214941100e-01,1.023136043681542429e+00,-1.769688899642024360e+00
2.206871056257858399e+00,-1.176168717907726480e+00,9.296574829138410934e-01
1.792603817634154106e+00,4.630318215767329632e-02,-9.837918890069427547e-02
4.382676534931230217e-01,-1.349142898420106373e+00,2.125689301498389749e+00
-1.597499367120749802e+00,-5.621636804166878498e-01,6.371399807800092185e-01
-7.543076500442201793e-01,9.488333163714101071e-01,-1.459486592716513931e+00
-2.189226456114677255e+00,-7.678604809030383782e-01,4.099186251224198885e-01
9.127139167631127536e-01,1.179526637669432443e+00,-1.137593853222160334e+00
8.497562729066221454e-01,-1.055676947324109882e+00,1.131688269519051326e+00
1.985021314030064543e+00,4.111593469859941008e-01,-6.968439221609350198e-02
1.920845526599750386e+00,-3.729242402304256548e-02,4.386583211591695841e-01
1.950131280632462438e+00,3.426751722304512415e-01,-6.984937470322656605e-02
1.805394036433016547e+00,7.374566819227400538e-01,-5.134016809957577809e-01
-1.062116998088397102e+00,-1.212011878927826691e+00,2.014367228954840883e+00
-7.460996058410114262e-01,-9.057541850522170535e-01,1.362346158239543303e+00
-6.871780655949847327e-01,-1.463739116087834802e+00,1.282638891581650009e+00
-1.207803014547007114e+00,1.272880445839934760e+00,-1.883854172484481726e+00
8.401029852871839676e-01,-1.219387472772914149e+00,2.019700680756815636e+00
1.326971298100662278e+00,1.122882776120688320e+00,-1.921230723397531648e+00
5.532745745370356572e-01,-1.054468502733057589e+00,1.944063530547238239e+00
1.737560015782620981e+00,7.575805773556363309e-01,-5.577950612270807795e-01
-1.241870925169482609e+00,-1.425328291981852180e+00,1.937400396409010073e+00
-1.891415937070093811e+00,2.300170296716700369e-01,-5.366155888598037604e-01
1.807046922870231054e+00,-1.159856188846749570e+00,4.929292788786470703e-01
6.442464631259015029e-01,-9.450604424250952373e-01,1.457257074628131033e+00
2.592259644421965881e+00,3.253890267180339357e-01,-3.617369060897423494e-01
-2.349079336622442504e+00,-5.728380978459206574e-01,2.446927989407687298e-01
1.839187759049273119e+00,-5.730208719942803119e-01,4.773874141601319211e-03
-2.191070600704622784e+00,-8.834189645922861656e-02,-3.918370767432049484e-01
-1.891055471815451305e+00,-1.025094550958720818e+00,7.624564602757162302e-01
2.542200179329946241e+00,3.309729698340858062e-01,-1.814170462952574836e-01
-2.187972887850031967e+00,-7.914022205226005635e-01,1.333561770915762779e+00
2.157775403240511203e+00,-1.147449999552908162e+00,1.080691709131932576e+00
-5.103174131251896339e-01,-1.401846540568191912e+00,1.220063869381562194e+00
1.054294870429314912e+00,-9.138522626779310709e-01,1.696233318353938646e+00
5.756218182005955475e-01,1.153049796129561377e+00,-2.105081606856018972e+00
-1.432079129880392987e+00,-7.728134001052252566e-01,8.292779631499470616e-01
-2.469025243182349172e+00,-2.291640682675778751e-01,8.281945269641594054e-01
-6.356080778420316602e-01,-1.696454989142471392e+00,1.948253955655935510e+00
8.419114153684317259e-01,8.263150311303687490e-01,-1.734246982983922214e+00
-1.992374539312935955e+00,5.855403032884374248e-01,-1.152024210838280549e+00
-7.939663013553943660e-01,-8.127110385400796444e-01,1.642435811172947568e+00
2.238952049669308053e+00,9.241751652028277197e-01,-9.873489633761883821e-01
-9.089213716790530695e-01,1.023123160576298041e+00,-1.102312142553245167e+00
-2.410652159333443123e+00,-2.374252796512201988e-02,-3.180617698016665607e-01
-2.651406260706222540e+00,-1.077055236581061642e-01,1.802554322691860555e-01
-9.020296155529057280e-01,-1.649341785061426924e+00,1.898346880967369366e+00
-8.312563030436888045e-01,1.011756050776529969e+00,-1.251724018386156656e+00
-4.840011695846621609e-01,1.286868520366761137e+00,-1.219182214485943883e+00
1.550365179703733665e+00,-6.730888010421818279e-01,6.499723894485669451e-01
-2.029983752015230181e+00,7.224414345771392743e-01,5.099092128544455843e-02
-2.235235008914700394e+00,8.512415115819735867e-01,-1.060273480939035062e+00
1.084132065893094465e-01,-1.010487750126481288e+00,1.854647864376778310e+00
-2.405671594725549589e+00,-3.094206325210590025e-01,9.953232555627811173e-01
-1.131976910649783230e+00,1.606723201578707627e+00,-1.839529849421368990e+00
-9.136373108488582417e-01,1.002106110629591207e+00,-1.189215007643725563e+00
1.910762662330900419e+00,6.124937264689295224e-01,-3.542614756393062114e-01
-1.634249066223495195e+00,9.880127945498151654e-01,-4.276172027199028891e-01
6.125327065317109909e-01,-1.757285794716190175e+00,1.924961111050643714e+00
-1.569473273529153223e+00,-5.911745252474410739e-01,6.584873980159392515e-01
1.918620119923397427e+00,2.420244025503438812e-01,1.385843969308465408e-02
1.859788434036752980e+00,-7.278201630467827643e-01,1.700924846844696914e-01
-2.257003595545213681e+00,1.076185830504538421e+00,-7.812942496866608355e-01
7.464179013373933858e-02,1.343701149624758173e+00,-2.178079634161405931e+00
-1.439154615748279964e+00,-5.437333905937714595e-01,9.499636060818797967e-01
-1.486785661097459688e+00,1.071467155896751011e+00,-6.358281540372171525e-01
1.354308941768858299e+00,-1.668192034850861205e+00,1.373098820010707488e+00
-4.074386510122398608e-01,1.176232225560990274e+00,-1.992967481862878643e+00
-2.395715900835883261e+00,8.991429642558871338e-01,-3.020188726035829552e-01
-5.799296430900328092e-01,1.028047412606200472e+00,-1.729288872960511148e+00
-2.662870310277933861e+00,9.963222355138644237e-02,4.114776309324481018e-01
9.327518725955333823e-01,7.628857983452187463e-01,-1.480607461904004385e+00
2.160128765407301810e+00,-1.032891188131706439e+00,1.221387467533058713e+00
1.775396720915201287e+00,-1.206977799153778008e+00,1.534872004599322715e+00
-2.102768156281662471e+00,7.414478205410089950e-01,4.017068822937161499e-02
2.776327599883353647e-01,-1.860994859511139632e+00,1.661279090814893999e+00
-7.733853002152490941e-01,-1.260652227365419709e+00,1.201879789117907604e+00
1.251820606213770670e+00,6.110034149737639808e-01,-1.106313527179742184e+00
-1.144427353896931399e+00,8.473236827403708427e-01,-9.741102143010458292e-01
9.515142628753301413e-01,-1.149922109240494539e+00,1.054350514390289373e+00
-4.816126522677061650e-01,1.163205057152411070e+00,-1.225985449677827965e+00
1.273664061936544412e-01,-1.485808017830310579e+00,2.155849227771363452e+00
-1.008349201202146661e-01,-1.139812031210465149e+00,2.045335699377616834e+00
2.451039400390560452e+00,6.360909008880761828e-01,-7.337280914777439822e-01
-1.820025763999612911e+00,-2.916060721568116132e-01,1.832350253163373688e-01
-1.029774537007167146e+00,8.452804808941013492e-01,-1.188011583663060700e+00
-4.148439364740496571e-01,1.738594241327781731e+00,-1.990424349199424681e+00
2.355985586583279279e+00,-7.240778784071862928e-01,9.244575565728427868e-01
-2.466509528405546714e+00,-6.190764087530190585e-01,6.322877903789391185e-01
-2.212957077024969355e+00,7.137991924503926666e-02,-6.001110264287529139e-01
1.042137222018320042e+00,7.220217911182912340e-01,-1.476461664917955163e+00
-4.622376479216294687e-01,-1.796502433056843318e+00,1.832114584413792269e+00
1.947011028562353419e+00,8.433452272434315278e-01,-5.555015887518475193e-01
-1.943142598050439762e+00,-1.179674812686958951e+00,1.074701282282231718e+00
1.376455699132694166e+00,1.507647917104390167e+00,-1.623013053757200952e+00
1.814727667280300549e+00,-2.471139121028156360e-01,-1.813419997990827759e-01
-2.646035422105240453e+00,2.232186183328550011e-01,1.966641008532384050e-01
1.610095571451783059e+00,-5.917506121032753974e-01,4.354615000452375928e-01
-1.090192009882992252e+00,9.042747927571211930e-01,-1.069975001763677103e+00
-7.894062401878959578e-01,9.397001436850861422e-01,-1.706758008298705720e+00
-3.860502479261305186e-01,1.348827108728892554e+00,-1.209173514548067541e+00
1.886756273873510859e+00,-9.281266618962602521e-01,2.503137381789006244e-01
1.701318079720732568e+00,4.313117942906748437e-01,-1.350283808628323978e+00
1.666520733570626245e+00,-8.664322953064046429e-01,3.887857012320162786e-01
1.915689891680729118e-01,-1.143772093020730019e+00,1.363960386156870985e+00
9.385324031906145947e-01,-1.257411285923385913e+00,1.053057117330973513e+00
2.270827650325502489e+00,-1.060209087894394608e+00,6.520868106242956319e-01
-2.030040635520509174e+00,5.217402747376478356e-01,2.056922593951978906e-01
-2.166896984718679753e-01,1.836117992777527741e+00,-1.681903651050344894e+00
1.932120216032117699e-01,-1.764076881208477054e+00,2.019877765774812151e+00
-1.900359059003494222e+00,6.408461541460655671e-03,-2.355776887901276095e-01
5.272443919270800583e-01,-1.101521275541395450e+00,1.346408829393557660e+00
1.906438759449423870e+00,-4.289262956043550234e-01,-2.647332587226315925e-01
-2.338260234183515696e+00,-7.859377067293561447e-01,6.798068282077470714e-01
-1.753427660426427837e+00,3.316288028309498648e-01,-5.833620498211572469e-02
1.043674993648522786e+00,8.258478114958744953e-01,-1.260534577461289718e+00
-1.982645387161540151e+00,-5.890894836981713789e-01,1.453728757872106092e+00
-9.262756100822250316e-01,1.784915036303111657e+00,-1.661300995418134141e+00
-8.299676189180441588e-01,8.936354435784347183e-01,-1.493745470518238472e+00
2.104809335442852980e+00,-2.041725441429877996e-01,7.923638392272581710e-01
1.876831169614894268e+00,6.486365161670544222e-01,-3.684937454460011086e-01
1.960402127017253138e+00,-1.264477552077487355e+00,6.470108988514139403e-01
1.530725829284108164e+00,5.594984221065829599e-01,-1.547263871574122929e+00
-6.545888480057584502e-01,9.450525534854889997e-01,-1.487429492729740454e+00
-2.206277547520486770e+00,5.201734474915530315e-01,-9.611351796060730868e-01
2.335948534987873693e+00,-6.891681931145109997e-03,-8.261743921919333378e-01
9.633424359159495909e-01,-1.609997880092101985e+00,1.174757221047102229e+00
6.854058278764790790e-01,1.387545258327439246e+00,-1.202695875443031470e+00
7.553605531690456981e-03,1.336548067392608008e+00,-1.260802197112864009e+00
-3.576969188143335199e-01,1.686254106475698178e+00,-1.993335700983352998e+00
-1.677435375081397284e+00,1.491813256995608405e+00,-1.037074077593032273e+00
7.785726499727163574e-01,1.569466798476865543e+00,-1.308190311251120619e+00
2.274424417664232312e+00,-8.586131248558326323e-01,1.877031853440055686e-01
1.812436572371397769e+00,-3.295709475317836201e-01,-1.345042588670045391e-01
8.480726482075554573e-01,1.145634074566453942e+00,-1.194172343133367509e+00
-2.327261148068639152e+00,-1.590701027032033754e-01,-2.746619928478638561e-01
1.679526848780223736e+00,2.569799587595517631e-01,-7.147067178494711515e-01
1.762054369279924648e+00,1.548642546237639361e-01,-1.890021687932934569e-01
1.071623758432393103e+00,1.196460043549508967e+00,-1.998835268612994875e+00
-2.323357384886815424e+00,9.187392985656526179e-01,-3.757793020728763533e-01
1.447009483042759337e+00,-7.572321471672290860e-01,7.839523842542158727e-01
6.500385263654577805e-01,1.138626445988805802e+00,-2.053591103841995835e+00
1.941661235066525659e+00,-2.118341228560577105e-01,-4.925375326504743412e-01
-4.555459305034358919e-01,1.110021318076797492e+00,-1.945872872687685939e+00
1.288971410995071398e+00,-1.119818686816098197e+00,1.787002415815976519e+00
-1.085836067489055035e+00,-1.038408398015092216e+00,1.993812702821975202e+00
-7.726499724762031507e-01,1.355139946043639076e+00,-1.102515739579575271e+00
-8.071025491470410484e-01,-1.717787279764162234e+00,1.717005111920355764e+00
-1.766573558605885053e+00,-4.095443649105783013e-02,2.113210417428551535e-01
1.275272818761699289e+00,-7.232205386435749395e-01,1.249115497885757042e+00
1.937567033831804730e+00,-5.409042881741499276e-01,-1.012245452802578854e-01
1.779634990037113118e+00,-2.548723011604426825e-01,1.089066704101748773e-01
-1.609393876949982483e+00,1.151175110891290210e+00,-5.775225979756505312e-01
-1.505690787201342751e+00,-1.407489751263444111e+00,1.169498284426607970e+00
2.566198139827231550e+00,2.536602400389335044e-01,-1.765739912876579665e-01
1.884269922066784897e+00,8.273480317787748062e-01,-5.287923094953266290e-01
-6.716174437013727738e-01,9.192470454704170235e-01,-1.729854450951617162e+00
2.582104632051375859e+00,2.051426011594763288e-02,2.227735212733039649e-01
-8.815681029767475918e-01,-8.548941496442989951e-01,1.820779036758223501e+00
5.906842575592543554e-01,-9.882134880201735028e-01,1.315946773453582130e+00
-1.299158880536151750e-01,-1.789764649001029717e+00,1.942700971455584735e+00
1.234021560418556263e+00,-1.565739049272088845e+00,1.783969543618244558e+00
-1.006449585273262004e+00,8.894638043122152782e-01,-1.309220459291472238e+00
-1.599589281833985854e+00,5.173565068762068231e-01,-9.857954855707886654e-01
1.412427916391533866e+00,1.509030229294517467e+00,-1.345361989879823028e+00
-2.683745107976909683e+00,-5.480445777877884089e-02,1.981328601865069844e-02
-1.214122502132619630e+00,-7.612925877806399066e-01,1.759450712554165630e+00
-1.781249206138872054e+00,-1.042469393812728296e+00,7.271401077027468407e-01
-2.086390513416075621e+00,-2.287532312624118713e-01,-1.436358420802371083e-01
1.188197202980204592e+00,-9.143043252511527941e-01,1.019422480307828005e+00
2.248790156371992754e+00,8.960945562725510793e-01,-8.914455934521959835e-01
1.394786126609122379e+00,-1.309656788137663508e+00,8.205260368286829697e-01
-5.727122527244613570e-01,1.312478349613791062e+00,-2.060460612667397218e+00
9.783303993347128857e-01,1.024987919962922378e+00,-1.159179108262472946e+00
2.185060960638617544e+00,9.162237245250737239e-01,-7.998551269029905431e-01
-1.438843521720464480e+00,-1.478878570484952082e+00,1.265078738982501338e+00
-2.201005540048876163e+00,-4.905255268610282937e-01,1.305928101657767515e+00
-8.342569064943746726e-01,-8.904091206421421711e-01,1.857498902179517408e+00
1.255840220206868585e+00,1.401820478576416562e+00,-1.109596481929974621e+00
1.275567474534796020e+00,-1.259825710763802231e+00,8.640588056366483860e-01
-1.011282399907208251e+00,-1.136106308191507042e+00,1.095233753227486728e+00
5.219636219523362541e-01,-9.599512340294800161e-01,1.700424426704825187e+00
1.759711106620128973e+00,1.330960218558105534e+00,-1.279450347703664725e+00
-5.744892615798148361e-01,1.032428595788634773e+00,-1.897702820430080761e+00
-8.759232044205406131e-01,1.841313342945299025e+00,-1.545303526726924170e+00
-1.142167770122932913e+00,-1.218826251102067104e+00,1.999025565444009667e+00
1.511687357984540014e+00,-9.424093371312164402e-01,5.964424787597539801e-01
2.292373898472748639e+00,-6.023760305009387972e-01,-2.001767655246849131e-01
-1.489791968390654642e+00,1.520974079075606555e+00,-1.639295962737064460e+00
1.585865249534101684e+00,1.295144851797577212e+00,-1.036264304855637031e+00
1.646984852572603408e+00,1.414918632227315731e+00,-1.512117848639074724e+00
-1.785943482435048413e+00,-1.429599523751714889e-02,2.268614717787313384e-01
-2.804673389619923851e-01,-1.585266185150830953e+00,1.299284579883945412e+00
5.137557757465245345e-01,1.818660495371676511e+00,-1.591317914103631548e+00
-1.215499903332646792e+00,7.682530420115926129e-01,-1.461441020817328740e+00
-2.139813170036637402e+00,-9.075977015558842620e-01,1.351629225491867370e+00
1.734792162360220713e+00,-4.233475845802658344e-01,8.100674951726281880e-02
6.282288953769549211e-01,-1.793518425810153971e+00,1.827245235017497471e+00
5.192493553125120398e-01,-1.344105021926428112e+00,2.110296407664858709e+00
-9.188374574555758789e-01,1.092307959164995790e+00,-1.921256707058587976e+00
-2.084955914740711069e+00,-8.364808614533100761e-02,-3.132462024012260815e-01
3.319461697551432389e-01,-1.370716058527467140e+00,2.106191044594283301e+00
1.603016238163616825e+00,1.418359187484857342e+00,-1.538575021415024890e+00
-1.606075609228815981e+00,-1.465966488622967523e+00,1.458615509505746699e+00
6.680929714072363357e-01,1.044301828229291518e+00,-1.311144135133773370e+00
1.311161443105991919e+00,-7.543823072848986344e-01,9.614476477707181168e-01
-6.529523043931955151e-01,-1.762913367124311348e+00,1.618200728518959686e+00
-1.685043274930184243e+00,3.832596419618972128e-01,-5.366187337741542551e-01
-2.013765669117166812e+00,2.930503502460685694e-01,6.197216620039400770e-01
-1.916261011495660638e+00,-2.569028201009116996e-01,-1.209206903779068074e-02
-1.211558547010927356e+00,-6.393097110537273586e-01,1.091777950432281097e+00
1.023367926215244417e+00,1.010790970903799879e+00,-1.961298462466154247e+00
2.216185766258776724e+00,-9.314712543329553007e-01,1.054512665414678807e+00
-1.592180413854304311e+00,1.499572281809212981e+00,-9.146719708540621552e-01
-8.209462401161423672e-01,-1.589984171494271070e+00,1.326729800874341336e+00
1.790999089431071001e+00,1.284488532826180363e+00,-1.536519321391229598e+00
1.405806252006719159e+00,-7.026521918127904831e-01,8.193253671015044981e-01
8.942470644020599213e-01,-1.394103234892209997e+00,1.070908597593779099e+00
-1.519700474925568534e-01,9.975349889266931225e-01,-1.898195799950724405e+00
-2.075261185336295888e+00,1.192005603348740062e+00,-5.736491701518555697e-01
2.323480887289179453e+00,-6.651882717445700699e-01,-7.410316138035666356e-02
-9.002839144972251129e-01,1.205887350301559025e+00,-1.065587109530968357e+00
3.618892924994796534e-01,-1.657659980272205402e+00,2.064235336804395526e+00
-2.333686945039838090e+00,2.310483701279605340e-01,-6.879773530934166770e-01
-4.155500623619030609e-01,-1.377008468713013967e+00,2.131472251834582998e+00
1.580110290216758751e+00,-7.573705499554849174e-01,1.422301950586301489e+00
-2.385425422635873538e+00,9.087023531115344666e-01,-4.068966873068189383e-01
-5.783585342353249059e-01,1.789629477890228637e+00,-1.511936667119634814e+00
1.926547168743616423e+00,-1.346837221628002901e+00,8.061850938426508018e-01
6.416494847642323363e-01,9.196572331692948188e-01,-1.920228147892963699e+00
9.415008388646849413e-01,-1.258947982872534732e+00,9.856077231612739853e-01
8.503303046959435896e-02,-1.857340521770170172e+00,1.537168632129304990e+00
-5.894499999696810599e-01,9.109065166179294293e-01,-1.721404699680363803e+00
-1.431740935977925400e+00,6.707209715666355709e-01,-8.916807067928399499e-01
-1.818097860315978975e+00,-2.486111833310202801e-01,1.799475792818922559e-01
6.176586833481109151e-01,1.146766570977340916e+00,-2.073551904038049010e+00
-1.127388655426919239e+00,-1.642322108075948028e+00,1.657514318570595613e+00
-2.658232057323424602e+00,-1.910958437761331730e-01,3.788001661210350091e-01
-2.102377533478234639e+00,-7.854198276410779833e-01,1.388272555308155853e+00
1.913008718295570176e+00,-7.699731250068850286e-02,4.354719992735988088e-01
-6.442707853475166946e-01,1.312161459017294307e+00,-2.038627543068050496e+00
-2.828229798999180589e-01,-9.674274347756265380e-01,1.624529467010837447e+00
8.690787444184994159e-01,1.420148931672965409e+00,-1.179355105169486384e+00
-1.657452032374195694e+00,6.592392588747812976e-01,-3.133232984437953061e-01
1.730929221582873545e+00,-5.017361074196928783e-01,1.128569469793029967e+00
-1.582346047550847956e+00,9.712805313721912803e-01,-5.398777658623296061e-01
1.584424200110572389e+00,1.451192669972736438e+00,-1.413498870192279266e+00
1.784958083803950046e+00,6.820003990697259821e-01,-4.982869676418535398e-01
-1.901578120775710978e+00,1.411830603062677714e+00,-1.154866863228431573e+00
-1.137302647026373403e+00,-7.012347198144894822e-01,1.501008128185008061e+00
2.327445078828905167e+00,-6.531157117211345842e-01,-6.028548649945546234e-02
1.972532482359761419e+00,-1.277164098224849109e+00,6.438193295962711948e-01
1.513755139348950562e+00,1.012039484021002078e+00,-1.847485219881405127e+00
-1.715701037817682906e+00,-1.040558879800085101e+00,1.758098926840064635e+00
-2.542035477385288011e+00,3.542104484371346174e-01,-4.839832150242530662e-01
1.290255344181496566e+00,-8.243294013515505281e-01,1.619631734907941212e+00
-1.104332074643641137e+00,8.219446048383090009e-01,-1.454885608631822480e+00
-2.664969113629386932e+00,2.803234242198524018e-01,-1.247570765055118491e-01
1.217535354269244197e+00,1.140423713758518476e+00,-1.978885895405132933e+00
7.795150309933093213e-01,8.161724452048191303e-01,-1.586232365440411352e+00
2.283779839673499179e+00,1.314998419922520922e-01,2.906117350720965886e-01
1.792506385313095141e+00,-2.426766602419703489e-01,-6.043733653945412843e-02
2.165773905174335656e+00,-1.197554973675142520e+00,7.718413821502992933e-01
-1.317892457252820559e-01,1.777010158573465670e+00,-1.417149656103977584e+00
8.811613042040007393e-01,-1.093280456535961731e+00,1.081532569818053124e+00
1.600362847991802395e+00,-6.620617882014573352e-01,1.287631831055161102e+00
1.744981640645745680e+00,9.998238425854623079e-01,-7.389401359898083443e-01
-1.636201872036251448e+00,4.709116787166481299e-01,-8.248841722918307529e-01
-1.488330259511230880e+00,8.358273905381438107e-01,-5.679592026441342423e-01
1.736240679965545874e+00,-6.035505861241950987e-01,2.973068936160848108e-01
-2.544947811279015149e+00,-4.749870286399446306e-01,5.166646110078954024e-01
-1.208770922105255163e+00,-8.892943494705287666e-01,1.025432706219177925e+00
-2.237986410552108119e+00,2.535135899171357329e-02,-4.806185397059518083e-01
-1.568382377343648382e-01,-1.378096870834809584e+00,2.185676673756717037e+00
-1.219729802665908913e+00,-6.818050478100931011e-01,1.443382890709166810e+00
-2.516132728615347869e+00,6.293240856604473965e-01,-6.290001115903175455e-01
1.981507158580879668e+00,6.837191614116258087e-01,-4.354933504263789334e-01
-2.593569335005699195e+00,-8.454748032886097442e-02,4.185095515062861593e-01
3.758222710953733059e-01,1.827906583141839292e+00,-1.751695833802519253e+00
1.316803285358477460e+00,-1.580359025371585124e+00,1.709770852373089012e+00
1.745364175298790510e+00,5.089114967774908127e-01,-3.968358083957986282e-01
2.092997431754934912e+00,-4.755771300948031383e-02,5.241791947482052905e-01
-1.000566395526137908e+00,-1.651036491184602939e+00,1.436524816720740283e+00
-1.549458423875684998e+00,-8.152018326626591094e-01,7.928527106882552467e-01
-1.105413420136884817e+00,9.972488654516846740e-01,-9.949879230704201660e-01
-1.816770151572141057e+00,-1.042877206432497456e-01,5.191519738922100585e-02
8.306283417534067182e-01,7.891913825124206028e-01,-1.449764353756719748e+00
1.788754558228350833e+00,1.165616510261081873e-01,-8.079461376752939961e-01
1.951698883504192850e+00,-9.554320593843029785e-01,1.367746779154299430e+00
-2.040842552842141000e+00,5.116132709752356789e-01,2.605347577101991274e-01
-7.392160160330659702e-01,1.558671576231958289e+00,-1.160362742693903826e+00
1.587261146030219283e+00,1.406210246852025225e+00,-1.285608668142006916e+00
-1.614425338975595148e+00,1.104871801474333726e+00,-5.414499623286025409e-01
6.544214372184749273e-02,-1.481368143687833205e+00,2.193612458462891102e+00
2.429409256062441180e+00,5.922943799025610634e-01,-8.218571334185179600e-01
-2.216408160083194190e+00,2.985393831743167747e-01,5.397193465731329187e-01
1.227853098429048773e+00,6.538049434864732223e-01,-1.556481651001685895e+00
-1.796585824742684689e+00,2.383823818264416972e-01,-3.733725601315820430e-01
1.231502544317303105e+00,-1.717985772024119617e+00,1.366717231442935443e+00
2.837810560161938001e-01,-1.885582885622558269e+00,1.531165273523279691e+00
-3.936582465390812968e-02,1.098502478779481262e+00,-1.994089099625850015e+00
1.740092669244018619e+00,-1.716525862451296347e-01,4.839300782823860447e-02
-1.042737906609921827e-01,1.574576074702550343e+00,-1.279553578207214271e+00
