1.041202375309506212e-01,3.242133586624302399e+00,-4.785035723425455245e+00
-1.830550075905803986e+00,-6.785343790497649685e+00,-1.779139418634495762e+00
-4.062831488243393352e+00,-5.310860119896877229e+00,-3.288053260176805992e+00
-3.161949130993267687e+00,-4.944572267631968110e+00,4.284599528000864188e-01
2.506202762208456836e+00,7.557414753674450481e+00,1.125977042094887359e+00
-1.730028215057025198e+00,-5.403670207309390072e+00,5.799792508435690497e-01
-1.281185728671590862e+00,-7.841971470136199773e-01,6.025865793861683528e+00
-1.128165858919576658e+00,8.806161508750198763e-01,-8.002784478826924897e+00
-2.151264899773982275e+00,-2.871885410072675615e+00,5.043571212462873987e+00
3.834745617815749075e+00,6.137622996360199146e+00,-2.915412244315207513e+00
-3.047961038448301352e+00,-4.811694081151896896e+00,-5.654156958713012493e+00
1.270808393099298328e-01,-1.158524236111343919e+00,5.367070402880615099e+00
-2.772344870429860997e+00,-5.209824945677298480e+00,-5.783182417658152552e+00
-1.650776151497659328e+00,-5.590515501942157073e+00,-5.686815761431666116e-01
1.859610601454118939e+00,4.415465214004696826e+00,2.477425356645202914e+00
6.316596757729735501e-01,1.328905230794673820e+00,-7.886319028359716654e+00
3.735484513534260920e+00,4.402058936611261686e+00,3.190637715936937902e+00
2.150768377274804966e+00,2.557594851170218675e+00,-6.182908408454212967e+00
1.673148959785859091e+00,3.963736900606777080e+00,-7.022311569867005332e+00
4.929171511642537196e-01,3.732524646000326296e+00,-4.228306118373133415e+00
-1.602696250880546014e+00,-5.310394239272064887e+00,1.009195216316640442e+00
-1.982054612170921493e+00,-7.471334692368286845e+00,1.201587818138722730e+00
3.730874891910565427e+00,5.312431450478285022e+00,-2.955159741173099430e+00
-5.240091333228658055e-01,-4.670045225451525894e+00,3.899297654877404540e+00
-3.390918171585008412e-01,-1.533300978574624107e+00,5.241717455987100927e+00
3.642013294573775539e+00,5.323891168309389244e+00,-2.362466771047181169e+00
2.718421413306061574e+00,7.583613341566571187e+00,-2.744789854257744244e-01
2.142932534206274831e+00,7.788506879402286032e-01,5.803604365655139041e+00
-1.514285542186893263e+00,-6.229612448503271338e+00,4.922248479255306286e+00
-2.670289599222643417e+00,-2.803879647798103392e+00,-4.413572626920100106e+00
2.733131458046488049e+00,3.941851155732477352e+00,2.866292784437648677e+00
1.268471098943004804e+00,-3.518453490254472293e-01,7.889645135168906975e+00
1.762072181827904205e-01,9.604830955682486238e-01,-5.319907333435369701e+00
2.054829169078807860e-01,-4.622112461367545166e-01,-5.771192060849874572e+00
-1.492730307683048263e+00,-5.948520042033206501e+00,-1.455713118161624242e-01
1.977255472457830843e+00,4.903240296970414747e+00,1.935768991346545898e+00
-9.661188055893242532e-02,1.737934928974236515e+00,6.441935314239295884e+00
2.977982923604933774e+00,4.101121333230323351e+00,-4.410080726885936997e+00
-1.825552974751757596e+00,-5.187208672538229592e+00,-5.739223332171207836e+00
1.325643859554996862e-01,-1.684602857592519154e+00,7.877864477078915684e+00
2.502362802111710582e+00,1.432466307772795711e+00,6.016528336238617491e+00
-6.417125885161172327e-01,-1.977845567305847707e+00,-5.286911333930168766e+00
-2.349807035260318866e+00,-8.177676193341738564e-01,-6.277311810401428716e+00
2.096188613365060238e+00,3.519354565721156680e-01,6.578422847491271597e+00
1.441913482033137850e+00,6.314554924959993265e+00,-5.739540285082306292e-02
2.738964251983375675e+00,3.358455578382300910e+00,3.943526834018288962e+00
-1.511934448580814605e+00,3.392996498451638643e-01,-6.037538602860979431e+00
-2.506550134247484962e+00,-4.291985816176132396e+00,6.003219008826843783e+00
1.481379661783829738e+00,6.782800690090978968e+00,3.680466264854933556e-01
3.037479503041493611e-01,2.587278104721879579e+00,-4.792997878960671976e+00
1.159362147886680905e+00,3.917031017642382817e+00,4.249493376915505216e+00
-4.150198186760951091e-01,3.330506406145968601e+00,-5.646248269911191997e+00
-3.083189147167706423e+00,-4.753111982139974323e+00,4.845495673387531177e+00
-1.427192854802548094e+00,-5.218276360947778691e+00,1.694547401225948491e+00
-1.628081800011423441e+00,-3.952593819928467589e+00,-3.246734929087475408e+00
9.450381599516519682e-01,8.614697381133680221e-01,5.202943952472618427e+00
1.756627007380180405e-01,4.168966392300398560e+00,-6.175144315370175718e+00
-3.105136685743969061e+00,-3.335946462488510900e+00,-4.390691372197537135e+00
1.306666091543397856e+00,1.207627397439407169e+00,-5.925228436287648393e+00
3.232145999919483703e+00,3.981214857397258555e+00,3.050751769511817368e+00
1.658109934026350540e+00,1.699933427401571606e+00,-5.901510279977231654e+00
-3.087628606599857939e+00,-7.275007610459979901e+00,1.942618259367457911e+00
-4.120976038683624054e+00,-5.680539154301706972e+00,2.630933091583354533e-01
-7.532658361152402282e-01,-2.619351839184613784e+00,-7.461681202811119462e+00
-1.234174261011919072e+00,-6.164370014277391618e+00,4.269662242683567754e+00
-1.933881827265747866e+00,-2.468659543364093878e+00,6.710179311044093708e+00
4.409848269408453980e-01,2.407884923527392473e-01,8.226980191272248888e+00
6.455256390635427666e-01,1.336850723287669629e+00,5.184606121578212878e+00
2.342001174740128810e+00,6.471823185563249758e+00,3.669446940216327668e+00
-3.365196475902009432e+00,-6.028156949004182863e+00,-4.564843839056569763e+00
-3.013001135099410810e+00,-2.631679145013073207e+00,-6.525789496947806967e+00
-8.640727415789712929e-01,-4.461129665781688125e+00,6.575753370194499681e+00
-9.585535619758773773e-01,-1.718800888544757433e+00,7.637721619409259866e+00
-4.891080478112923013e-01,-4.537252938675838898e+00,6.331531697251930879e+00
-3.603184774511987154e+00,-4.030230728017279773e+00,-4.391589437170916987e+00
-2.713882950002405536e+00,-3.934287887402395878e+00,3.975004803576744017e+00
-1.715713119357912708e+00,-5.298113582927127752e+00,9.726603767420730629e-01
3.334303333827833171e+00,3.170017611169525740e+00,5.587011756814988850e+00
-3.682155054670301020e+00,-4.930402157068344060e+00,-4.744794812111308602e+00
-1.742857842422954606e+00,-6.193097192154240815e+00,4.734864203110527470e+00
3.588555070938185931e+00,7.065174301708043281e+00,-1.472505244996626272e+00
1.413777624366640007e+00,5.228401841728173238e+00,-1.297294608611604172e+00
-2.866692533827554623e+00,-7.221421904564410355e+00,2.386486221876220615e+00
-1.306159299714894639e-01,2.824611207677713676e+00,-5.179511620076098666e+00
3.406357078204456657e-01,-1.289816326241062905e+00,-7.310059703967256794e+00
2.171548336066119411e+00,2.747034513794083921e+00,7.220941154024994368e+00
6.235310213036675542e-01,2.490537149298151842e+00,5.188531364831011850e+00
8.622075152080220795e-01,5.771232112375683343e+00,-4.997155280195855198e+00
1.685839930107746021e+00,2.608884399197117787e+00,4.370584112689178902e+00
-2.568733288962422368e+00,-7.072522399930534220e+00,-2.734300105931543712e+00
-9.925632367518293364e-01,2.334231244338839772e+00,-6.875426311694146086e+00
3.220901848024239733e+00,4.810600620473325151e+00,5.610741969308803867e+00
-1.807653980987211861e+00,-5.949663399771753625e+00,-4.602698177572629668e+00
1.539617534644138530e+00,5.162360086118324531e+00,2.281560445786071867e+00
-2.070551104837413003e+00,-4.591398166735565223e-01,-7.274901845652202326e+00
-4.143880473835236944e-01,-7.588310388690022723e-01,5.329841713198071318e+00
-2.526642102519289335e+00,-4.776760290491552929e+00,9.139732590157901848e-01
6.878776916670145125e-01,5.168351090483347399e+00,-3.697869242828782710e+00
1.642830938315495981e+00,5.564272812977616667e+00,-6.091149342689469171e-01
-4.108543402519334364e+00,-5.927075357784741705e+00,-3.190880542337950931e+00
-5.475835789430513190e-01,-2.751338825354666007e+00,-7.227888802411386315e+00
-2.314396508801909391e+00,-7.401267667142667150e+00,-1.107393817936765279e+00
-1.000887397548864355e+00,-5.558880669330075186e+00,5.350974931323716710e+00
1.804293227477919703e-01,4.258596425088937987e-01,-5.633425845134572896e+00
2.421228698293184323e+00,3.398460740890457021e+00,-6.222500077027736332e+00
-3.188009457694471305e+00,-4.864307239903010505e+00,-5.664398856622750777e+00
3.752971826702785396e+00,4.688198737857423026e+00,2.551754583975164525e+00
-1.909670253322669486e+00,-5.129420830719752189e+00,9.488117805217853862e-01
1.658901685731575260e+00,4.982360106579912795e+00,-1.950536546391223203e+00
5.288153905259651566e-01,-3.147163552361846861e+00,6.899072229441690851e+00
-1.331864290403301343e+00,-5.303354995616425427e+00,-3.202261259249130187e+00
1.417911536951704576e+00,5.586143442449952090e+00,2.926645017054636533e+00
2.130777332356714293e+00,2.594593180224246343e+00,-6.249643494279913725e+00
2.877513887448055474e+00,4.332581954856488338e+00,-5.316315563865656735e+00
-1.344456601183903866e+00,-4.615836759808606415e-01,-7.891873339169755752e+00
-3.297872348064872838e+00,-4.677887899123605031e+00,4.227565291344014042e+00
-3.279329307802815840e+00,-3.932025189921210195e+00,-5.967245574242219242e+00
2.005532755055485339e+00,4.624047886608426694e+00,-1.952012972611951502e+00
-3.478068622825236211e+00,-6.375360199833648878e+00,-3.616352691210744208e+00
5.922658678192347370e-01,5.547758819389469132e+00,-4.965907898010437194e+00
1.079751555524425033e+00,3.085059879000684457e+00,-4.313956090009783750e+00
5.033174578688444090e-01,3.245674250059317423e+00,6.159174562716149381e+00
8.345104229775909266e-01,-2.202397877763778933e+00,7.287248151799572859e+00
3.356453043633309985e+00,5.171943674140597302e+00,-3.679397210594933743e+00
-3.586844247049664897e-02,-3.986500381827381201e+00,6.784346823607614319e+00
2.819551187821137894e+00,4.218946534964819861e+00,-3.124700830548551522e+00
-2.351914411690241291e+00,-4.020031558557056961e+00,-6.600187529217559579e+00
2.552717237858153965e+00,4.832506115233937471e+00,8.542084494603799927e-01
-1.707661300095377088e+00,-3.702293041304028254e+00,3.419496530705844251e+00
-1.949262617785714413e+00,-6.269160446774400874e+00,4.640535646059435138e+00
-4.083692163662113295e+00,-6.767797771614201707e+00,-8.221920468783443514e-01
-1.652975888983418074e+00,-5.319844661687969989e+00,-5.241135438572039007e+00
2.973578135160092284e+00,7.425145684154931480e+00,1.530828510827986655e+00
-3.575305459627769356e+00,-5.194965427687230353e+00,4.874442944322055112e-03
3.031768140581435400e+00,4.603858539080824208e+00,-2.430606246530404579e+00
1.300931918299209178e+00,5.664191536373089697e+00,-1.209334965168999965e+00
-1.215004832675714130e+00,-5.458404245380424236e+00,5.716252681623267939e+00
2.894251879904263358e+00,7.487754421784647008e+00,-1.042268151708872770e+00
1.509003370798311261e+00,5.966958577534272834e+00,-4.808896628844395948e+00
-2.172921648426659580e+00,-6.686921204234709926e+00,3.899553802022778015e+00
2.054734639318399836e+00,4.163891328616625032e+00,-2.878089855078649340e+00
-1.871251335187261944e+00,-7.357960136473412405e+00,9.774093068423052033e-01
3.657369323681266327e+00,4.849608394732681127e+00,1.689257334492423324e+00
-1.335453379280262309e+00,-5.603697972267069005e+00,-3.809841115251197952e+00
-2.374021487124037044e+00,-2.947490839005420415e+00,5.370825640644704357e+00
-1.501590843970221023e+00,6.306642644133695352e-01,-5.798837029754351668e+00
2.815159393567379542e+00,3.033412860765814845e+00,6.909942426455580211e+00
3.876635739313830098e-01,1.927307037933930989e+00,5.592211513139997869e+00
4.032949731325657927e-01,2.608886297643536967e+00,7.182355777295313715e+00
-3.435879910601992382e+00,-7.261371266415024728e+00,1.048804107146986908e+00
7.327476121603054837e-01,4.875866248439674422e+00,-3.711688701586808303e+00
2.612480818150660689e+00,3.735785437846390167e+00,-5.636671957520299259e+00
-3.493545866375862285e+00,-4.543822145633265919e+00,-2.190988160167897991e+00
8.232475898748533583e-01,-1.912049912062165236e+00,5.712516859329419106e+00
2.749080534944400522e+00,5.345956287939219287e+00,-5.456621660061036216e+00
9.894616178535147188e-01,4.485022682017575590e+00,4.758788441396060165e+00
-1.864807925162372149e+00,-6.921672276074628094e+00,-2.123808397108665869e+00
-2.323749773775760197e+00,-5.766807811387439919e-01,-6.769051133320223457e+00
3.224436120416351859e+00,4.887084100215496107e+00,-4.218165424466421953e+00
-2.851575912440051930e+00,-5.934814807991374508e+00,-4.679173701866970347e+00
-1.178327120355474600e+00,-9.733717740730466472e-01,6.197722722042677823e+00
-1.833233359089275538e+00,-2.690523622610525134e+00,-7.495436929757336664e+00
-2.489664661636959320e+00,-1.042948556892094425e+00,-6.222826586681653893e+00
-1.313045847567511304e+00,-3.991114107803698463e+00,-6.517852845874549494e+00
1.079788342946099489e+00,3.016856528316997910e+00,-4.364093209671032092e+00
-1.354053958379907163e-01,1.047016232781100120e+00,-8.175550266626141038e+00
-1.433095793019116382e+00,-6.800858767515705061e+00,3.136608794333315409e+00
-3.095066673858257733e-01,-4.669234747647538875e+00,4.737758878468373069e+00
-1.946344531462826044e+00,-2.549310235905911104e-01,-6.061855517509007640e+00
2.065780042380149784e+00,4.864456976530793675e+00,-6.243766062619108048e+00
-3.791290493303939524e+00,-6.730748622592093611e+00,-2.467062192146158850e+00
-2.076307226061015199e-01,-2.431473831895627935e+00,7.851960662100570865e+00
-4.874875582745128444e-01,-2.593559052804852438e+00,4.746022892390275416e+00
-2.977316701141783373e+00,-4.401721374893424965e+00,4.078828053839103518e+00
-9.008157818344873780e-03,2.868915024856935059e+00,-7.583146782321259494e+00
-4.260657575794647434e-01,-2.721590758218333406e+00,-5.497441429458306494e+00
-5.709583143960853535e-01,-3.081110502433734855e+00,-6.813587442826110063e+00
5.263992384646097866e-01,3.372047073416699181e+00,6.035268668219881505e+00
1.230542159852048734e+00,3.400273155685913817e+00,-3.947271473910221928e+00
3.990822368373874163e+00,5.849347740865471934e+00,3.528799352541925671e+00
-3.861082519262391433e+00,-4.607081759095186690e+00,-4.396548882856910367e+00
-1.399508312370913332e+00,-6.474211874514208986e+00,7.495076872391679412e-01
-1.337144734252774469e+00,1.624969018681836852e+00,-6.428680687887371015e+00
7.205058648728406290e-01,8.289871037849572133e-01,5.406362472837245470e+00
-1.270153794224524679e+00,1.915208844047372905e+00,-6.590415231128045725e+00
-2.675408823323135454e+00,-3.746200134526791903e+00,4.031920014144666276e+00
-2.748774867123175980e+00,-2.074164202219261011e+00,-6.605764631589989833e+00
5.528325354824488169e-01,3.693510699000915665e+00,-7.178124789608800960e+00
-6.320982985901740792e-01,7.096600567842048513e-01,-8.214784452250917468e+00
-6.073649453301239731e-01,-3.845522897732172929e+00,7.162935514735835341e+00
1.292619130256071336e-01,4.600642970470498305e+00,-5.007244167140885160e+00
-5.559385508172167700e-01,-1.119781830823159741e+00,-8.009955362170899207e+00
-8.045191794715885747e-01,-4.537555057621221466e-01,5.993951575778159402e+00
3.661244328858336061e+00,5.559255959244178591e+00,-3.421813690077543768e+00
2.913894305644369798e+00,3.989903041474067269e+00,-5.095793712074828008e+00
-1.381302233648622257e+00,-2.553648509492253638e+00,4.634803839674979997e+00
3.574097713107151630e+00,3.637784538509098997e+00,4.847462165154956537e+00
3.616523248654286427e+00,4.328950722291085462e+00,3.959130474042448888e+00
-2.913341411731194874e+00,-7.586730765582128555e+00,-7.173348446037157711e-01
-1.974022888024001610e+00,-4.213946822388829005e+00,2.916445004406408525e+00
-3.319716047434420503e+00,-3.741230015231530981e+00,-6.004438543295771424e+00
1.309417065595527729e+00,2.735108105058558614e+00,-4.628179442033699686e+00
2.782023291920538988e+00,3.700834797423596445e+00,3.496045472831544654e+00
2.867948999610328453e+00,3.783121318405530342e+00,-5.418948295337722598e+00
-3.137061738490483087e-01,1.098394267033928340e-01,5.726345298331745326e+00
-1.962959953521601353e+00,-4.110825258067571042e+00,-2.897897856004707506e+00
-2.849567999989489397e+00,-3.988657971489368403e+00,3.800419063026563737e+00
-3.242648572151591413e+00,-4.715036890090003929e+00,1.889026548324996835e+00
-2.698829276756948836e+00,-4.034233417732439264e+00,3.625943131899725280e+00
-2.122964763541272948e+00,-2.911456534252796047e+00,5.004629379174289738e+00
-1.496706616249761090e+00,1.307924240114611836e-01,-7.744169393851673355e+00
-8.424017918174647734e-01,-7.433037388233846958e-03,-5.433500556593584996e+00
1.604101660955931374e-01,-1.198407392665926885e+00,-6.194600798302051459e+00
3.792491363229351986e+00,5.430665038050041638e+00,4.254817658841641759e+00
-3.756817340973118036e+00,-4.454769206064868037e+00,-4.968950847403581506e+00
1.107208823158843725e+00,-9.417756382754588484e-01,7.788446304996136327e+00
-3.502457157191814385e+00,-3.448878522922376177e+00,-4.943645484376406607e+00
-1.971129048442237020e+00,-2.707523302782206542e+00,5.029162832826687968e+00
-7.649130212319931177e-01,1.646118666467100700e-01,-8.240548017682137072e+00
3.129061635187718959e+00,5.014921940462195415e+00,-1.303942613338767931e+00
-1.448468287920709807e+00,-6.566677146250866848e+00,-4.098464086663671790e-01
-2.652107828453390326e+00,-3.429068347643593029e+00,-3.646774502157944742e+00
-2.755067216865037860e+00,-5.591040646767910793e+00,5.118735104128123048e+00
3.132014154821396446e+00,4.546592540918315883e+00,-4.974796173242725494e+00
-1.284372954800209854e+00,-5.503089430423456108e+00,1.663834952387284849e+00
3.654504934874403421e+00,5.123935668103391627e+00,-2.606040575219766620e+00
2.102807057979615202e+00,2.557498577528524830e+00,-6.143326647654514083e+00
-3.123944365836353487e+00,-5.471912370476506027e+00,4.697406537920556957e+00
7.553372604116761480e-01,3.675561452449855437e+00,-7.291943546400920795e+00
-3.252031762511859991e+00,-7.424291057265441474e+00,-1.037438675279534817e+00
-2.531994828031284249e-03,-1.502383753176613546e+00,-5.698631175642743685e+00
-3.744692152993176038e+00,-4.371022927337355313e+00,-3.461231394487929602e+00
2.379347488742018957e+00,9.327801619323056181e-01,7.101967053163845911e+00
1.000989244648915477e+00,1.926973195266527217e+00,-5.145702683447765935e+00
1.370595345570462475e+00,5.446423858875205859e+00,-5.689319974774691424e+00
-1.079088946458705456e+00,-1.805434791359617153e+00,-7.858756823394183577e+00
1.720041807023259706e+00,-3.487697249588142534e-01,6.169081408681789114e+00
4.115129346328100901e+00,5.969471296045756326e+00,4.093315168559018002e-01
-1.585055880310953125e+00,2.652318618994535804e-01,-5.891862957607448159e+00
-1.832397561487244975e+00,-3.569647808791244881e+00,6.919475909179168660e+00
2.016672845788568313e+00,4.189571584766606627e+00,2.693870480173961468e+00
3.640971624167567811e+00,5.768910383311035339e+00,-2.959054545233584577e+00
2.901289447730571069e+00,6.156387179236349816e+00,-4.453292161745281419e+00
-7.214696525211490297e-01,-1.072903808548384630e+00,-8.066848047085812823e+00
2.290059986390660995e+00,3.991164060209213549e+00,3.084076739455791305e+00
1.364374575968110070e+00,3.674497672161372908e+00,4.026471214167029800e+00
-2.283020360050151520e+00,-5.040085584497203897e+00,-2.215639850889823403e-01
1.143649858574087519e+00,6.240367233201791208e+00,-1.785845318656556602e+00
3.767612440846966670e+00,7.049290891730535691e+00,3.489471601517166177e-01
-2.836003364266257876e+00,-2.290885377183296434e+00,-5.341575779628650267e+00
1.034207868348592907e+00,5.131629891280521605e+00,-6.072345561704667993e+00
3.068396773091154550e+00,5.876507893943796468e+00,4.880310787860048016e+00
2.257850477506861520e+00,4.166833888024487287e+00,2.821446615902043042e+00
-2.419576089688427967e+00,-3.411191031863875178e+00,4.618680205160096364e+00
1.364582390431331893e+00,5.822400865620255495e+00,2.247467264487131577e-01
-2.410690498550496663e+00,-4.918327475686147032e+00,-6.085586354709218604e+00
1.272607081909004068e+00,2.611540949349552942e+00,-4.681590709544818374e+00
-2.696051572417132114e+00,-4.154175189909627086e+00,3.232055673366417636e+00
-1.447220173589481185e+00,-5.855906569773993375e+00,1.087104630132387229e+00
2.786774931694213198e+00,7.508596923144419399e+00,1.689815672968518201e-01
2.841012099576873950e+00,2.501765487666786747e+00,6.853305127955903409e+00
3.643420034901371785e-01,2.369078239155451904e+00,-4.982555947729383483e+00
1.541043077601355060e+00,5.639289575962770584e+00,1.005254583051347739e+00
-2.149720363292940473e+00,-6.496645537124730474e+00,-3.738623227601549637e+00
3.249349033214990801e+00,3.331722816556526023e+00,5.474776169477830301e+00
2.118211953135757941e+00,7.476176599365820685e+00,-1.305129843148000957e+00
3.076531238730431106e+00,3.449035079488180333e+00,4.430703470143288136e+00
2.047304285466623686e+00,6.560759784343796142e+00,-4.555091466197288774e+00
1.123004836016082697e+00,-7.034401236761547160e-01,5.685211396939385153e+00
-3.764298233313638331e+00,-7.222584568003305172e+00,-1.106573443649064403e+00
-3.759683720621703529e+00,-6.647421527465403379e+00,-2.608461272988846780e+00
1.225045545388080415e+00,6.451901923272825634e+00,-1.837216101046439398e+00
-1.234595558849001851e+00,-4.292380504378555450e+00,-6.242240205245556339e+00
1.276896513257094745e-01,-6.021664857699763340e-01,-5.795113258236511022e+00
1.148873628591478846e-01,-1.781588453165368291e+00,5.138349821129438944e+00
2.277763563561671756e+00,4.414935261992058990e+00,1.776058059296570235e+00
-1.754043501864468446e+00,-4.528452322359067139e+00,-2.764637807551943549e+00
1.574029791899301811e+00,3.435482932698667113e+00,3.820542830806045398e+00
-2.803245061830623719e+00,-3.254345540496910161e+00,-6.768139301580041511e+00
-2.825366273688792340e+00,-2.044849873949533325e+00,-6.260929456489056300e+00
-2.216129308251785002e+00,-4.640274332030038806e+00,6.209049417160079187e+00
2.199318728234927800e+00,3.810718921603745812e+00,-3.567370890940828154e+00
2.642403241212472498e+00,4.149456244674779803e+00,2.365440025541571512e+00
2.357883470288267613e+00,4.412186712404480460e+00,6.472657540358670580e+00
-3.797339107764652777e+00,-7.090306832058548281e+00,3.274287323182051845e-01
2.443414351056086620e+00,4.716203060212857068e+00,-5.999894323038701849e+00
3.910972872962694247e+00,5.491938986014957891e+00,-1.937109672352035128e+00
1.048421949198499181e+00,-1.043807256362215607e+00,5.764276557148344082e+00
-8.557456709687527585e-01,-2.403598747657837542e+00,-7.553602343348376991e+00
-2.361642237830836155e+00,-3.048919225813331302e+00,5.487433842307615883e+00
1.684172084468429365e+00,2.370220314193131728e+00,-7.118105673343213979e+00
-2.571833565200208893e-01,-3.528978269421619851e-01,7.963286106903151307e+00
-1.340682374458413317e+00,-4.816261274106253154e+00,2.584617553089047171e+00
2.330459243633285826e+00,6.767841995949595457e+00,-3.881353495258275998e+00
-1.984331231177202559e+00,-5.015953170009630036e+00,4.385289976502628195e-01
2.345770911336751308e+00,4.398468421942994588e+00,2.148720378261961272e+00
3.413436127055982539e+00,3.783997411197698391e+00,3.918490327393242989e+00
1.126212503602094905e+00,3.555556788168350302e+00,4.262447493860522130e+00
-1.347306449017884544e+00,-6.304497957854703571e+00,6.065264620688616271e-01
4.342694108883323190e-01,-3.185532279181538140e+00,5.959841570028954649e+00
-1.505939232241787717e+00,-5.667648478447468996e+00,1.189625161309931511e-01
-1.581379244859789646e+00,-2.710715118316550765e+00,-4.486031279784041814e+00
-1.564671007397630875e+00,-4.700319831474565113e+00,-2.974955479685672088e+00
-2.528043374135309218e+00,-7.503221709256842509e+00,1.364954736821470949e-01
1.103036631709782167e+00,5.851131132831091541e+00,-2.454661261067346167e+00
1.249747237138811862e+00,4.100251696217551256e+00,6.327986062812717805e+00
-2.122619766991301393e+00,-3.929653008263179981e+00,-6.903158587139868629e+00
2.795028415451946913e+00,4.594232123544338187e+00,-2.317446379997861516e+00
-2.006455382717864833e+00,-3.436392673560506594e+00,-3.881098769106211321e+00
-9.664893078857874631e-01,-5.374848028739831918e+00,2.557237385305438870e+00
2.445909324831728071e+00,4.089555396628889561e+00,-6.206265748515538583e+00
1.690998860786822267e+00,4.844261862639529070e+00,-1.866558974681339800e+00
3.791912265199033905e-01,-8.653166879254210464e-01,5.525342560726921981e+00
-8.982417378485840764e-02,3.556680279190240324e+00,-6.863475062878963584e+00
2.126089259234402284e+00,5.707366096736594230e+00,5.150656383657540083e+00
3.039366945989116164e+00,3.780561816292157928e+00,3.353167763169805138e+00
-4.018546178290894666e+00,-5.495517238364925561e+00,1.157166676595959398e+00
-2.403645075538303200e+00,-3.260416092499596630e+00,4.662143564026999698e+00
-1.822660306489374715e+00,-7.142956063273941503e+00,-6.784764935740839054e-01
8.912482355786478516e-01,-2.520504264919875670e+00,6.330696314300535477e+00
2.734591470721948081e+00,3.455869292393991099e+00,3.691400086906376998e+00
4.029113506030968850e+00,6.347556018029125724e+00,-4.019687894202402245e-01
-8.418192173848539905e-01,-5.572887473418884241e+00,5.063931194834231597e+00
-1.316504800002683551e+00,-5.434223708825938637e+00,-3.815527776406026028e+00
-2.230931441591088304e-01,1.053466233756710002e+00,5.896033558155214571e+00
7.983201585361818786e-01,2.589827063727692558e+00,4.921919929805805616e+00
2.380015775037453096e+00,4.176124502085551526e+00,6.468166003391250030e+00
2.032373177325353719e+00,6.917964874698335542e+00,2.278537977308604745e+00
-3.776730425961860593e-01,1.180255507576875695e+00,6.570383281520582486e+00
-1.772680446078402472e+00,-7.100665891772918847e+00,1.426506552386172633e+00
-1.315779594488887039e+00,-4.969640128972938165e+00,2.339672551406502876e+00
-5.141356132097031628e-02,2.048041918149991480e-01,5.682370068308547850e+00
3.656181594918760602e+00,5.309927693417500372e+00,-3.166413483311438792e+00
-7.410686951483153040e-01,-3.503967697680731685e+00,4.352581547905201909e+00
-1.899579874761214704e+00,-3.929465892232249402e+00,3.246990472977087983e+00
1.474017109247896640e+00,-1.840403692868423091e-01,7.699308142420663970e+00
2.172680775824047394e+00,7.344121789492993102e+00,-1.016994912136124363e+00
-2.338101212662688777e+00,-4.959446387318289240e+00,-7.911444711032957766e-01
2.194117943955294692e+00,7.233401664600593861e-01,7.083317014272680012e+00
-8.236618598587639450e-01,-5.034388066550921081e+00,3.452376345608231478e+00
3.302237364851794421e+00,3.319133642804143136e+00,5.191191989167387888e+00
-3.907027315569957082e+00,-5.330147376897229172e+00,-3.667297813907179460e+00
-1.696808035949696425e+00,5.172298653353067932e-01,-7.425322504310119420e+00
1.327266024282097279e+00,4.489600943278583500e+00,3.493354493886891454e+00
-3.035374354021728727e-01,-1.418593055420509064e+00,-7.690796435022908106e+00
1.671874839834667004e+00,4.154158232705094989e+00,-3.092562366423938780e+00
-3.270258515019393020e+00,-4.512706026297906625e+00,-1.905365848245023308e+00
-1.205731269532170691e+00,-5.671916734444645058e+00,2.076786957828173907e+00
-1.961832498248008649e+00,-4.765463873001775319e+00,1.943173184732050363e+00
1.424283703465743178e+00,6.080785310563491919e+00,8.528636835380911663e-01
1.306359797661213573e+00,8.822468370222344980e-01,-7.073169752081782669e+00
-3.040761308038622879e+00,-5.676014224917047102e+00,4.583732223945490958e+00
-2.323808809944714948e+00,-2.930114852162529537e+00,5.313283261028103333e+00
3.359781891892038796e+00,3.463782507653843545e+00,4.100763140947121244e+00
-3.617828943884104476e+00,-6.180838034328208330e+00,3.394565735500056913e+00
-1.828776924840113116e+00,3.844305278922808822e-01,-6.450627465478497413e+00
-2.191145878597242636e+00,-3.372720560777584531e+00,-3.523043854424548371e+00
-1.518432848426053416e+00,-3.196666223472190982e+00,-7.271837951150697421e+00
-3.125539440484833786e+00,-6.040663798413680396e+00,-4.546042075760892587e+00
2.826385636808391943e+00,4.184788431260862751e+00,2.719880011986172796e+00
3.370340788369911689e+00,4.885886863673871261e+00,5.346112121257089456e-01
-9.479759793745976548e-01,-4.547838476044123168e-01,7.467883937664362648e+00
3.228788200934191721e+00,6.344513502293351870e+00,-4.087210375831152653e+00
-1.439970116328475935e+00,1.364490200883048399e+00,-6.649565090396581724e+00
2.082164644540096088e+00,2.263078971929842087e+00,-5.943007720277177164e+00
3.176107425150678676e+00,4.590868524440836929e+00,-3.197539753084730929e+00
-2.328635577736830164e+00,-4.649655674612128919e+00,-1.922297752926744874e+00
-2.022514181839094594e+00,-3.652596423289804939e+00,6.693068033832226149e+00
-1.482606019550628762e+00,-5.880377367881720829e+00,-1.936456777724043787e+00
3.385982933506145098e+00,3.990782280051837105e+00,5.611100084820988876e+00
-9.566460907660280510e-02,-3.385115370071620222e-01,5.587120209913480906e+00
-2.191885694494452252e+00,-3.467359237414359363e+00,6.453875304582553873e+00
1.118154242072382010e+00,5.804688485575651979e-01,-7.293124465793398237e+00
3.566025932389267350e-01,4.277317764447186477e+00,-6.713880010745779003e+00
-1.913908873676248845e+00,2.012268784115930076e-01,-6.517883640509698040e+00
-1.139916760424997344e+00,-2.964336991266020016e-01,6.576458700978611738e+00
-1.521512950473155934e+00,-5.502532327742213347e+00,-2.108414391565704982e+00
4.602689266414519143e-01,2.118493898571800205e-01,-5.709072366953483524e+00
-3.048831885666577257e+00,-3.179160595004854262e+00,-4.335972739692953937e+00
-1.230605715463995331e+00,-1.630177416906094523e+00,7.527122758735514729e+00
3.454863155867722746e+00,3.455191535345902842e+00,4.780720692538358740e+00
1.706757684947640463e+00,5.685410510129996098e+00,5.096298711280384808e+00
-1.355098622848340151e+00,3.112832777785883298e-01,-7.843812108130006955e+00
-1.684248314098886201e+00,-5.452658460491726977e+00,-6.578106826548093533e-01
-1.299224837126014220e+00,-6.634306943800701184e+00,2.684369997575982492e+00
3.163994778686560316e+00,6.561302520556238527e+00,3.801961315683596077e+00
-1.532850178766212546e+00,-1.295904727040027682e+00,6.724290299725098841e+00
-6.890061331808231548e-01,-1.185477240360804707e+00,7.974191950400661533e+00
1.616336399329439732e+00,4.250079174805613924e+00,-3.103835673082544933e+00
-1.681276891320298839e-01,-2.406546544599752480e+00,-5.848241830260693774e+00
1.991773672867502287e-01,2.306015219159724960e+00,7.191644997464660349e+00
3.621551885829375816e+00,4.467978402273551808e+00,2.495734185833216490e+00
8.408956318958166198e-01,3.339049723298022521e+00,-7.466397372899566065e+00
-1.575735791824756538e+00,-4.974295903110834693e+00,1.628811193885910669e+00
-2.144407196391882486e+00,-5.018171658458480344e+00,-5.933952830101773657e+00
-3.388110384331428193e+00,-3.925317146132690116e+00,-5.845654901002178327e+00
3.823437968790328600e+00,4.397404012563346676e+00,4.428694387933915344e+00
3.338181772903095368e+00,4.872689754565392661e+00,-2.597346996814144937e+00
-3.113763567098712937e+00,-3.525230357575817486e+00,-6.161099205202929419e+00
-5.807081919459144981e-01,-1.071592402587108639e+00,7.968183131458997259e+00
8.460541555660368029e-01,9.941681914272630927e-01,-7.899880938969692679e+00
5.956143189361364776e-01,4.534111827227177427e-01,5.466908870206740545e+00
-2.594161059239602718e+00,-4.639140959071136550e+00,-1.338035361241354915e+00
-1.850325144118426801e-01,-1.867897229733613829e+00,-7.349302870532048892e+00
2.640234455904730826e+00,4.808602661832900971e+00,-7.239962110769985193e-01
4.842919436188087845e-01,5.352888925396722009e+00,-3.664379325313817937e+00
2.712802265116504241e+00,4.120271710970031975e+00,-3.258911278697816272e+00
-8.388117295641772664e-02,1.632281375052997197e+00,-5.101298217568754900e+00
1.739293938774502557e+00,-4.214204985357571376e-01,7.219108335285794098e+00
-3.603992867450317661e+00,-7.154768405251452634e+00,-5.101869182931066948e-01
1.634039314818352295e+00,6.719792024503955297e+00,2.175146337818997910e+00
4.175072094715455706e-01,-1.118408546287315009e+00,-6.706504338078524974e+00
-5.958742870963588123e-01,-1.776480853198654675e+00,7.999378251509882354e+00
-2.458245088383726351e+00,-4.759576614095770708e+00,-8.235539297706595541e-01
-1.336208811236666127e+00,-4.853397548195492739e+00,-3.321963671781817506e+00
3.009639345302856039e+00,2.373909433090723109e+00,5.340525146844909088e+00
1.903690662003441281e+00,7.277238963658828830e+00,2.332695540180988736e-01
-1.529550799929477956e+00,-6.835969909448224691e+00,2.366790856727900128e+00
1.630327431563256546e+00,4.511841148951248215e+00,2.963208648047499949e+00
-2.595395209929288072e+00,-4.136767830644589417e+00,-6.551104127591739434e+00
4.004840612249059184e+00,6.089545788796114856e+00,-1.652596464724112924e+00
-2.274698236871536494e+00,-1.742438382654220685e+00,-7.322530696270082906e+00
-3.980893921249913259e+00,-5.321071195152757838e+00,-1.861947741824412805e+00
2.334751276616562343e+00,7.476333098699145197e+00,-1.064688697117700977e+00
1.357891402796306268e+00,4.870475775241522420e+00,5.374790586882856047e+00
-2.021736237866747832e+00,-7.227602999533121242e+00,-1.192554108232724230e+00
2.242090893393776430e+00,3.209890871682669622e-01,6.411639666627858780e+00
-1.408853443014288720e+00,-4.705972107590001841e+00,-2.839546175027938268e+00
-7.229360486465583602e-01,-3.814562883104268387e+00,-6.272840111643552596e+00
3.255792998868371591e+00,3.250011199399182260e+00,4.189872074671496804e+00
2.708143115452358529e+00,4.766257190301439017e+00,8.713703271663504335e-01
2.136299580135587295e+00,3.887557658188684595e+00,-3.480501125144599861e+00
2.266065233567164494e+00,8.178352585243625628e-01,7.089945272173255653e+00
9.526580275062863923e-02,-5.024119024296549441e-01,-7.908023037604154482e+00
2.580164648562615959e+00,6.002278021901235050e+00,-5.007561208552802512e+00
5.168868660378348467e-01,3.477614111032405031e+00,-7.263745614100542980e+00
-3.162783948742023732e+00,-4.771036939576372760e+00,1.812236280521574594e+00
3.420695559886387738e+00,4.160728010686577605e+00,5.461916955920316674e+00
-1.904480940281562784e+00,-1.254351489356910987e+00,-5.383118955303205055e+00
-5.474033483880219597e-01,6.721785204658713431e-01,6.178778679928850437e+00
1.649135212052408095e+00,5.249365225067238683e+00,-6.288530912949154006e-01
-3.883304767739005570e+00,-5.181274751286523816e+00,-5.964322554763332729e-01
1.590681072875829383e+00,5.673347403253854893e+00,4.936683181927182251e-01
-9.017910248582368116e-01,-9.729922828295108905e-01,7.751880872696570002e+00
-2.045656527613129327e+00,-2.968138441504016622e+00,4.844595978302619343e+00
2.699814127966129185e+00,7.313104250816033769e+00,2.038208993482764964e+00
-1.025543622362840690e+00,1.310192246091491208e+00,-5.915533908465521407e+00
-1.585601296522439085e+00,-6.823578304045692988e+00,2.366975837617011358e+00
-1.809468528045617974e+00,-7.195876205778584556e+00,-6.771663523840200094e-01
8.900820752159767091e-01,-1.604923494710132958e+00,7.717166604784583939e+00
-3.969289181077934603e-01,2.042136801919683275e+00,-7.888410588775388810e+00
3.581917641398170815e+00,6.809739675436885520e+00,-2.141843379997338648e+00
-3.989145523713369723e+00,-4.763891912175614252e+00,-2.800658239938100813e+00
3.388871272294525117e+00,4.301875923253322576e+00,2.743106164153459758e+00
3.009816677487392678e+00,6.942165642100968093e+00,-3.168604297425166916e+00
1.343415915853461984e+00,-6.418870940083385435e-01,7.773416263225439771e+00
1.465976671927645469e+00,-2.276160791355895385e-01,5.765337276487014329e+00
-3.597790994582755530e+00,-5.258579932445224259e+00,3.021085273497949863e+00
-1.602591190574276903e+00,-4.762335714649509555e+00,2.320058057356133130e+00
-2.463406360971789333e+00,-7.518126843395672942e+00,-5.032753861101481041e-01
6.270389576734438641e-01,3.767300429581635690e+00,5.821116190772028354e+00
-1.823788891987774941e+00,-4.254102999351170311e+00,-2.819974125238544627e+00
-3.843255596872424018e+00,-5.180856135669689166e+00,-1.393154545795467492e+00
-1.943816615699595740e+00,-2.255753946372085483e+00,5.836169064387140004e+00
3.113382748496573704e+00,4.875631002736754205e+00,7.777663162849345058e-02
1.759749070095953272e+00,5.193242387303151908e+00,4.435275416414045657e-01
-1.794026151519094503e+00,-5.332414397816192420e+00,8.769596535775201485e-01
2.576392138502876517e+00,5.184538976278389555e+00,-5.626169057632706583e+00
4.646989040521150582e-01,1.157438816318033359e+00,-5.416246189591596760e+00
3.735942104678667608e+00,5.457326846731502812e+00,-2.293979109080446666e+00
-2.706351430361739308e+00,-2.369737005285913689e+00,-7.051336377675411882e+00
-8.244906000041537508e-01,1.548742912023903129e+00,-5.887475195662172034e+00
3.450962698747275681e+00,7.276870719936575860e+00,-1.320057870405767719e+00
-2.427917932609520602e+00,-3.441305186120754200e+00,5.012339274534350686e+00
2.241539881362676567e+00,6.045674004338948748e+00,-4.799104582887342652e+00
7.213769419992356324e-01,2.665389175250678644e+00,7.323516989881457384e+00
-3.028016203829337005e+00,-6.262405355944416385e+00,-4.303385039764260789e+00
-1.959351368687316075e+00,-3.206714113897811025e+00,4.273023037724212436e+00
-3.629740358094784458e+00,-5.153701062914104902e+00,1.954176691877451688e+00
4.725484830200565867e-01,-8.092829322183153762e-01,-7.298698621882913962e+00
1.292554649537134726e+00,2.131307029834303979e+00,-5.322579303000976481e+00
2.041556922310074906e+00,4.605887682982645615e+00,2.145169923741561124e+00
2.203026083405301261e+00,4.165455043408831770e+00,-2.964360668884606476e+00
1.130724473724585621e+00,-4.103136423529129551e-01,5.521172215636274139e+00
-4.306036108033495236e-01,-4.025776242386781334e+00,4.445139515432711796e+00
-3.980372343228176124e+00,-6.584823874078418626e+00,-1.563992424120225655e+00
1.004398742881263962e+00,5.854384194909488137e+00,-2.597614118314026666e+00
1.098432150341607016e+00,4.797679729646379343e+00,4.024239633122380866e+00
-1.131119348125082302e+00,-1.073139491730598083e+00,7.421242260582681105e+00
1.419986408541064060e+00,6.003020408242875305e+00,6.904207162417833610e-01
-2.824597222916560568e+00,-3.099597926169802342e+00,-6.926173792649687577e+00
-1.915781819829329935e+00,-4.665337280279013399e+00,6.273102355657956153e+00
9.023587683605615029e-01,5.855440159036427339e+00,-3.793954815081582055e+00
1.122459781565003922e+00,-1.613829262577459733e+00,6.073324674020971869e+00
2.623386840020184074e+00,4.792229260775607180e+00,-1.473175003943357320e+00
-1.909818804516143720e+00,-6.295218729185281248e+00,-3.996439099045506094e+00
-9.001267343263130716e-01,-4.345165729721071735e+00,-6.019389776203154518e+00
2.938382249779647015e+00,2.300365190573276930e+00,5.878485716222249025e+00
-1.906446289234403402e+00,-4.509223401777244788e+00,2.155067135253578847e+00
5.962215252472279348e-01,3.309641553180158624e+00,5.223683356447479831e+00
