-3.493370131014768010e+00,-3.867816158101435420e+00,-2.148005588466308513e+00
3.158127613927574906e+00,-2.673370284550019349e+00,5.731951181920921456e+00
3.327118267656827832e-01,-3.394470959685168765e+00,6.415850269717229715e+00
1.627716000156793186e+00,2.416319404408613324e-05,5.502732507066810719e+00
-3.456048302590849275e+00,2.090687807974588086e+00,-6.721040545742653194e+00
2.879762765377015921e+00,-2.071840122151206998e-01,4.753471759870748770e+00
1.366523232080136596e+00,5.728197311848566287e+00,1.411983267362257211e+00
-3.458194733065119930e+00,-7.127484135895553408e+00,2.944438036580812601e-01
2.031495460933554487e+00,4.553313567617145452e+00,3.401762580038158568e+00
-2.713455915533315999e+00,-2.218997846714871880e+00,-6.752688499791318577e+00
-2.061833257369216632e-02,-5.698581065055723371e+00,5.364167386435206630e+00
2.327726083238649935e+00,4.782059258321978312e+00,6.292561499727212793e-01
3.958511093629853983e-01,-5.947798982102606047e+00,5.421005734514271701e+00
2.753303901276475063e+00,-1.335491604831940959e+00,4.822182148230008458e+00
-1.287509313055317017e+00,2.856365688978291573e+00,-4.224551712306602980e+00
-2.649845462924797168e+00,-7.248205869870528950e+00,-1.280635611128348783e+00
7.692129519656004666e-02,3.183378127538691871e+00,-5.588859060130709544e+00
-2.115373724928751642e+00,-5.683549776686113830e+00,-3.192489304933349370e+00
-3.624659462253084996e+00,-6.107519585138973639e+00,-3.748677515298194596e+00
-3.447971521953415941e+00,-3.319476632853980647e+00,-2.751661253362652992e+00
3.007944912415215999e+00,1.906671408934597356e-01,4.598060567798516907e+00
4.342964891282264261e+00,1.423014158088382539e-02,6.271069727147886574e+00
-2.208469327557729844e+00,-2.399957075208947632e+00,-6.143178545778203770e+00
3.999787271911565245e+00,2.831979192464590067e+00,3.382115931098869321e+00
2.268318178084703263e+00,4.675009205433473092e+00,1.212485161138650014e+00
-2.113276190877064309e+00,-1.825817860440930529e+00,-6.088695052571563515e+00
-3.717032102767225954e+00,7.441542049300294837e-01,-6.885863724048570056e+00
2.333757584969064602e+00,5.208373773794678030e+00,-2.097021173057764365e+00
4.754832976647000109e+00,3.663285684254866670e+00,5.108138465217214375e+00
-8.660558673255294160e-01,-4.208169942275752362e+00,3.784187721636558255e+00
-3.084319244685261308e-01,2.969846415577969800e+00,-4.557986690268239549e+00
3.143336811741026970e+00,7.100121106102037061e+00,-7.381477778790591637e-01
-1.987647817022641261e+00,-4.831660330415051163e+00,-7.228608551767935486e-01
-1.089978926768357725e+00,-5.540263739847433477e+00,1.778031806369704815e-01
3.216155125276721538e+00,-1.037769173522571142e+00,4.936132240227097512e+00
-1.702142437819922804e+00,2.423173955678898928e+00,-4.623057564556468435e+00
4.400299403905937878e-01,6.400756070561495648e+00,-1.085400746622060764e+00
-2.213140871925381337e+00,-3.866705588437099994e+00,-4.803148703320878177e+00
9.793921080930642065e-01,-6.073315537387512286e+00,4.715003372016237648e+00
3.371997912745231751e+00,7.032064144940384232e+00,9.527505102073493548e-01
2.154298243859678053e+00,5.471745304550225342e+00,-2.783036552750528969e+00
-4.209722603939556329e-01,-5.231332648897680571e+00,1.773679458054336910e+00
-2.561417020140405398e+00,-5.622863371051321835e+00,2.275579074153356807e+00
2.811934021819351592e+00,5.859382636684091317e+00,-1.790790058608552116e+00
-3.559255464506854594e+00,9.286854695199511234e-01,-5.134657094121970466e+00
3.932062181972287851e-01,3.864139613688473585e+00,-4.190491487604079524e+00
-2.790633682684714678e+00,-5.321701226676942120e+00,9.146845356310080444e-01
3.065731959227968151e+00,5.237899067774824502e+00,4.574393122229976960e+00
-3.750214030367943430e+00,1.412710010832004315e+00,-5.468324228460223146e+00
-2.911242445649955268e+00,-4.040308249108252703e+00,-1.870331699443684936e+00
-8.981679034434556508e-01,4.546657076510632223e+00,-3.400032988467814654e+00
-4.107906295635445737e+00,-4.564177090007953019e+00,-1.821839300713795629e+00
2.722538594713153959e+00,4.165685932420000626e+00,5.299272934618162623e+00
3.235298656828877739e+00,8.197796194707955841e-01,4.406946299457473515e+00
9.002284478139681578e-01,-3.528540952893001847e+00,3.760153975720754271e+00
1.371587982535248829e+00,4.877948888216936396e+00,-1.272951627112353989e+00
-4.472026705441713545e+00,-5.001890433838975802e+00,-2.792444772132256947e+00
-7.558313306374420115e-01,-4.212840765812813082e+00,4.445492115421257218e+00
-1.621468519094453553e+00,-5.555062647708082224e+00,-1.704836161249510429e+00
2.294360681790270570e-02,3.060349556874720101e+00,-4.948643465846061851e+00
-1.743057884401570501e+00,-5.499439573950589022e+00,-2.279784804890427896e+00
3.716755944927223609e+00,9.477103509120921032e-01,6.947494136821217303e+00
1.505595804874894306e+00,-1.265471313911343820e-01,6.679455804729305335e+00
-6.204993147125915653e-01,-7.376919397063804062e+00,2.280769391628123088e+00
4.708425249827008052e+00,3.013500482580674156e+00,4.864755343431607315e+00
2.328402160133379084e+00,6.156307553673027400e+00,2.974016780204845389e+00
2.303256254952439797e+00,7.682767751422106883e+00,-5.189117507803708840e-01
8.465959284738935331e-01,5.008502494610686639e+00,-1.361547431554407606e+00
-2.115049601844523508e+00,4.291858345323211310e+00,-5.912115943054123690e+00
9.287406472363941567e-01,-4.859185215018261950e+00,6.376719003526771345e+00
-1.764359456321151542e+00,-6.093094128049457936e+00,3.933649959050251610e+00
4.357169347019601346e+00,5.444525804369677147e+00,3.481856338582226762e+00
2.654579413422699208e+00,6.997419422653332610e+00,1.772584188244092473e+00
4.578156721514502259e+00,5.132713373014416547e+00,3.258571479214415145e+00
-5.771583457813034279e-01,-4.260321572848625671e+00,5.257926032131549299e+00
2.143512505782848798e+00,3.443793794376136752e+00,4.504683000032876805e+00
2.919395850463681885e+00,1.792583888515465462e-01,4.672807225441143686e+00
1.334458371979245550e+00,5.260620905118925883e+00,-4.511520557454425706e+00
-8.778383915708683205e-02,-4.754499913648256637e+00,5.899307370529256467e+00
4.537203409058137460e+00,3.536078781107296010e+00,5.252330921660644414e+00
-3.132670098942147874e+00,-6.387349294725304105e-01,-7.179876111039331654e+00
-3.144571281950282238e+00,-4.428247298246032471e-01,-4.405694580449099895e+00
3.934856861759010282e+00,1.334562582233743910e+00,6.749337806157519104e+00
-3.450999923260857027e+00,-4.277507160303577471e+00,-1.704739018138482720e+00
-8.355940485083704905e-01,-7.170761734741501137e+00,6.219155881636514449e-01
1.346754039075453768e+00,6.919851370129581625e+00,-3.397456142704882165e+00
2.298660967867431626e-02,5.243301579470196927e+00,-2.091366664376173023e+00
-4.857382378364328623e+00,-3.705874172891463036e+00,-4.335401968718545440e+00
3.805765121852985877e-01,4.307467260223853955e+00,-2.939257361990029516e+00
2.646519299751568965e+00,-3.492167476610899879e+00,6.461284487431671941e+00
-4.094565260348225877e+00,-5.808597174210560432e+00,-7.499677640339661444e-01
1.171311005561045254e-01,5.626381950697422418e+00,-5.489489577592345348e+00
1.830239537908363801e+00,-5.160855755164205583e+00,5.189153744463970597e+00
-2.063526927983117432e+00,2.877597576722065398e+00,-4.472838093349133182e+00
-2.906804483587368981e+00,-6.538268985787099474e+00,1.844880282019059292e+00
1.700704648787838558e+00,4.923744871250186783e+00,7.663158993430057020e-01
2.033857279494260428e+00,3.734956783899574528e-01,4.928028254477910153e+00
-4.194529695170833072e+00,-2.574605500090247023e+00,-3.824905685186125393e+00
-3.054573348785455611e+00,2.272475520200998578e-01,-4.793500427561204980e+00
7.634889219845137909e-01,-3.416401226316808426e+00,6.847113730682649724e+00
-3.375609935859576471e-01,-7.220849797199434761e+00,2.214775873123943306e+00
3.470305982570297321e+00,-2.077199403588708471e+00,6.479979478391527437e+00
4.716588899574075455e+00,4.104562776185025186e+00,4.297576697450661953e+00
-1.692996278678774225e+00,-5.231693330755397220e+00,-3.787354138961847583e-01
-2.549178434552755057e+00,-5.604028950851911439e+00,-3.933344956031235018e+00
-7.330079333711987666e-02,-5.693221623392295427e+00,5.500468774834296859e+00
-2.841235009540943879e-01,2.637420436300776494e+00,-5.783404570667155298e+00
2.674043442116103897e+00,2.251765447502760142e-01,4.705456674259120398e+00
-2.994048288487054510e+00,-1.148185186170210148e+00,-4.422289156394534793e+00
4.384494717847069012e+00,5.754571484973697970e+00,1.613944835454424798e+00
2.045525718581935326e+00,-3.806336504836023149e+00,4.416955162166161131e+00
-2.264569174869580426e+00,3.587986787450424764e+00,-4.661207557886068997e+00
-2.171627259878294414e+00,-5.735233600447521951e+00,-3.201479934450143450e+00
-2.680419664527785351e+00,-4.652817573819602259e+00,-4.874892991923270635e+00
-2.619282404430581579e+00,-7.248621695453038249e+00,1.319508560956167864e+00
2.371248594093724904e+00,3.639831296991572263e+00,5.410463704862092271e+00
-8.662909451978330067e-01,-5.777162886591355573e+00,4.965935399267206840e+00
-2.527400319501713621e+00,-1.282791061270611266e+00,-4.443675163028584230e+00
1.356251922926259956e+00,-4.017658775081498490e+00,6.678817930882007481e+00
-4.859493806881902245e+00,-3.671759838482841598e+00,-3.994025941090701082e+00
-2.651456474377816619e+00,-3.633380096073432597e+00,-2.761036981059295403e+00
-3.230498081655260867e-01,6.323961169049208131e+00,-2.496680269650231043e+00
4.013850417448709962e+00,6.249329330930161852e+00,7.780481937751982935e-01
-2.535685518618669754e+00,-3.039091351475973646e+00,-5.775387021524203135e+00
4.593350942654837787e+00,5.583835990341657229e+00,2.569370879181772427e+00
-2.050770836291563981e+00,-2.609457677915115514e+00,-4.770123137283050596e+00
-3.979262446062453162e-01,-6.555739721789065833e+00,4.348995526210759799e+00
-1.584283891644723719e+00,1.290930279329308927e+00,-4.991983966681434737e+00
2.456538424423642564e+00,2.786586113506306361e+00,3.622945031802321303e+00
4.437343514471676187e+00,3.469964679293362497e+00,5.452655383447591930e+00
2.002987445218937790e+00,-1.365110032933842144e+00,7.360599895507408341e+00
1.312875005719113863e+00,-5.663536828050581562e+00,4.672268772927159475e+00
-2.964755711131163096e+00,2.359799842982132301e+00,-6.978747454839242081e+00
1.433946756577925141e+00,-3.717633321045371031e-01,5.968489747696694714e+00
-2.004117010696543577e+00,-1.921138921148989764e+00,-5.177373028344786299e+00
-3.497454682490360955e+00,-2.541343138585142603e-01,-4.605495810127934853e+00
4.610677026716902382e+00,4.505610444221204602e+00,4.387090400067942930e+00
-3.745709406274362330e+00,-2.652865938200860835e-02,-6.948391318091997171e+00
-4.543179002173862280e+00,-3.607743561007749733e+00,-4.935046687028796342e+00
4.394147652887984812e+00,2.733277521649972286e+00,5.889730167049274989e+00
-2.420893263215258440e+00,-2.250740720713716669e+00,-4.177450968719115032e+00
4.272128265248052337e+00,-1.937132411217459549e-01,6.118012704791061296e+00
-6.874482923360301090e-01,1.877652907477739053e+00,-5.813633336731313328e+00
2.092044028324290927e+00,-4.434596136119956178e+00,4.616798016614166222e+00
2.033838860012310956e+00,4.885598300767041380e+00,3.611610382673011710e+00
-2.925236626766555492e+00,-5.042357240724857803e+00,7.175681691123130257e-01
1.461820323422185819e+00,6.568212097178113495e+00,-4.050874506127299490e+00
3.804029960407284139e-01,5.553622482078198530e+00,-1.557083534799129199e+00
3.359687415045049530e-01,7.176192777561594127e+00,-2.017120931470667067e+00
3.252117620706885592e+00,1.751628688451328242e-01,7.197391966918629258e+00
-3.964763790063727367e+00,-2.653263487709522028e+00,-3.668500632808473938e+00
-2.511021444832552962e+00,-5.022818702239959521e+00,-4.293981584157526399e+00
4.400823374745796990e-01,-2.317583497961374306e+00,5.498871839803390671e+00
3.381880848148052454e+00,4.831778968393102502e+00,6.064703815179053326e-01
-3.510010549240883737e+00,-4.561655179112872993e+00,-5.435575815778997288e+00
-1.266791334329578689e+00,5.166812012238659158e+00,-3.645768632273044485e+00
3.140579408823829244e+00,-3.017240381386895542e+00,5.846826752499098667e+00
-2.846144846927225025e+00,-6.041252277387730629e+00,2.103165043109166188e+00
-2.561377984365141192e+00,-3.576550834300638471e+00,-5.492147174531784692e+00
1.151380982334476277e+00,-5.040893798497183553e+00,5.942003624334161849e+00
1.609284937485231604e+00,5.833517759011191295e+00,1.458334011587198109e+00
-1.249844778874912521e+00,-7.227314064686033213e+00,3.115330035793575814e+00
-2.475371840918592969e+00,-5.590814277814501132e+00,2.522980745206215403e+00
2.485953746462988834e-01,-6.660676571409404723e+00,3.571510539816268981e+00
-2.616888760063462716e+00,-3.693832405833533450e+00,-2.716718695971228392e+00
-3.005119088942768357e+00,-7.436244114460738963e+00,-5.369830493707196117e-01
4.729555836396778012e+00,1.861599755548698276e+00,5.427148151893879557e+00
4.356455636278504073e+00,3.579645808348036695e+00,3.220793241485207403e+00
-2.649053103851628954e+00,-5.382951563384627214e+00,1.616095776224940606e+00
-3.806045597468578290e+00,-5.271072062760253196e+00,-4.621523044424790783e+00
1.718823379525939332e+00,-2.953212213803347197e+00,7.131455719296019069e+00
3.678936715121157164e+00,6.922237989669439706e+00,1.684074185741911256e+00
2.789052441658036230e+00,4.028242137933001565e+00,2.008758588420137770e+00
2.336334228390541945e+00,3.496760010071260805e+00,4.998663421469567325e+00
-4.049071084704053192e+00,-6.544853687500790329e+00,-1.810082254707389815e+00
1.794458840597530358e-01,-5.614186232761634976e+00,2.098143810901359707e+00
-9.521940913966603359e-03,-6.893026225289644593e+00,2.442955156672425687e+00
-4.306746169827346260e-01,6.228471847472845546e+00,-2.594607405458554616e+00
-2.681440738516173372e+00,-3.254715576298589763e+00,-3.076740911774441312e+00
-6.916060023269349211e-01,3.739277078352153172e+00,-6.712623691684546756e+00
-3.330571351391691803e-01,-4.331913016969884289e+00,5.819149744167802396e+00
3.882789428015138267e+00,-3.187376378349691119e-01,5.203442723756818822e+00
-3.690463612733394960e+00,-5.466984534344729418e+00,-4.213001748479864444e-02
1.309417988770980701e+00,5.102914007095301407e+00,-1.089064336634024022e+00
-3.896136990961294178e+00,-5.573625584061754346e+00,-2.778605733205238848e-01
2.050385729993128070e+00,3.527242337401201411e+00,4.354712624694600187e+00
-2.013639930690048541e+00,-6.106103859249879307e+00,3.380733758859227223e+00
-4.171742977293849464e+00,-6.104272083620744027e+00,-2.755360784165579169e+00
-3.086760305942286564e+00,-7.449647763313699933e+00,4.390093999711706940e-02
4.240694030278489457e+00,6.069959508235616141e+00,2.893521396910406107e+00
-4.492143274250613771e+00,-3.813277469334750425e+00,-3.043516165859251554e+00
-1.698701451247843996e+00,-7.631519739258020074e+00,1.170005332977463786e+00
1.421578853472541537e+00,5.677139108136613821e+00,8.505461572168162565e-01
-2.549921233388594555e+00,-2.776390070734227500e+00,-6.249575641743219556e+00
-2.358006889211695434e+00,-4.520062318478577090e+00,-4.681017285593102706e+00
2.176464600116319925e+00,4.093415082687247519e+00,2.636001852719666250e+00
9.568205356110771609e-01,4.615823268070114338e+00,-4.985266614357968251e+00
2.598650613767279904e-01,3.911171316232340711e+00,-5.458612778235880647e+00
3.333154630823588871e+00,-1.639626799613746355e+00,7.035152866577249142e+00
2.516431010723843453e+00,2.262260521480529363e+00,4.150699321611861947e+00
-1.035423273065265271e+00,-5.767174908774937769e+00,4.872255978542417765e+00
-2.346875032046571441e+00,-4.038478716136634894e+00,-2.700872006607220488e+00
5.965495255170464445e-02,3.504123513412651381e+00,-4.441024447228368643e+00
-2.327533180993970774e+00,-4.855514429282547617e+00,-4.512170051443189500e+00
1.258523283216246291e+00,5.448399642361438033e+00,1.292328711622959536e-01
8.968278265613053302e-01,-3.172010944850761849e+00,4.105159892013053202e+00
2.050849932986370305e+00,3.293900012824704682e+00,4.639760436761561024e+00
1.806628592807420608e+00,1.429497377440406058e+00,5.405913020295390226e+00
2.129822735027838476e+00,3.094051284725684248e+00,4.560061615535147439e+00
2.066471297081671654e+00,4.503886758517963607e+00,3.406881656590951213e+00
-3.090732529612584489e+00,-6.965950234235976701e+00,1.046939726792965208e+00
-1.969861234012575846e+00,-4.944573111905913976e+00,6.470521189829242514e-01
-7.135961815425760912e-01,-6.074122603612770455e+00,6.887822205238562923e-01
-3.263522579181611927e-01,4.373552032475722662e+00,-6.300810864104549935e+00
-5.283927385728729442e-01,-4.857564957211550016e+00,5.647441285743391326e+00
3.430894149919781366e+00,6.918230168132245339e+00,-2.385290701386151013e-01
-1.070853628967650240e+00,-4.681783306551156265e+00,4.811324652980224492e+00
2.023916657127639240e+00,4.539590677917263228e+00,3.164075650944984996e+00
-2.792934473889525204e+00,-7.557104223193634063e+00,4.933577983402065437e-01
-1.931570665679039456e+00,-8.012370573568277088e-01,-5.519808073355312317e+00
3.607542850875359086e+00,-1.415308814465504383e+00,5.304785427873481396e+00
-2.103423301246149513e-01,-3.615458541810256055e+00,4.171246565346910629e+00
3.588275502319168808e+00,4.197621505937775943e+00,5.600089727715758414e+00
-2.581612929201709150e+00,-4.336429739397299699e+00,-5.200751499409832057e+00
3.515955926088214056e+00,7.090794349796264440e-01,4.486972715384180077e+00
-2.030058969860068618e+00,-2.095862967610669259e+00,-5.967319776892717087e+00
-2.134497623341145012e+00,-5.637777671135853375e+00,-3.157614006238004034e+00
3.162956325752726894e+00,3.892660521086878767e+00,5.794470967930362981e+00
-4.063846824431341709e+00,-6.251158624451566226e+00,-2.891013847027679162e+00
2.923180320009384214e+00,-1.846592175827209692e+00,7.178988501463634542e+00
-4.684952623613013456e-01,-5.639397768285357770e+00,1.001759217773777078e+00
-1.767746154078803367e-01,-3.429360116755573173e+00,5.576875091540760998e+00
2.719305735570849425e+00,6.413511176905239530e+00,-2.375641111105317727e+00
-2.108544434149787872e+00,-4.627141492730918237e+00,-1.950662212141525576e+00
-4.498479146788469940e+00,-4.510845173808315955e+00,-4.493061807057887158e+00
-1.501027138771062530e+00,-7.530129199056005085e+00,1.994419916995631148e+00
2.961623812854586646e+00,5.405566202528992115e+00,-1.061141705164788451e+00
-1.532618722926830213e+00,8.150765970546567374e-01,-6.865359143714667489e+00
-2.745019886143588383e+00,-5.186450831461061561e+00,1.015216297005809398e+00
3.221294000188937634e+00,6.117466154158728742e+00,3.610668177618524322e+00
-9.733731816506419054e-01,2.986469928757584213e+00,-4.194254950718074859e+00
-2.586205453645667784e+00,-2.297480873514825106e+00,-6.372641983503929630e+00
-3.717083314569303631e+00,-3.488714437587033590e+00,-6.075669922718443416e+00
-1.849608891691976842e+00,-7.645712729767890181e+00,1.260822633769266954e+00
-5.599134543609483039e-01,3.263902243766691136e+00,-4.267518097403068644e+00
-6.600258925892557027e-01,4.252691576209910451e+00,-3.391775064710284671e+00
2.066696202862754905e+00,-7.872828306002717103e-01,4.926126638082896747e+00
-4.154198101253912867e+00,-6.528962008771411751e-01,-4.860280119386451325e+00
-2.523547275657464173e+00,1.033883311560284124e+00,-7.309468628188781736e+00
-1.577560642915177613e+00,-4.947469491925051699e+00,3.578170708448688231e+00
-4.588360353234236300e+00,-4.871192854149256846e+00,-4.042060749897897765e+00
-9.220512168948866716e-01,5.178832230926725622e+00,-6.063598324667830219e+00
-7.735891677000635847e-01,3.058023303672903648e+00,-4.356256082566822840e+00
2.130505970506899605e+00,4.097193681825249456e+00,3.948424349294150648e+00
-3.185880019641714966e+00,1.110358519697706381e+00,-4.761445899432477979e+00
3.346003236684497173e-01,-6.239388639899126510e+00,4.970063708917227707e+00
-2.297134794743942443e+00,-4.106239229511311706e+00,-2.593846477608552803e+00
2.110589360878665222e+00,2.700554801342374134e+00,4.637554392176559404e+00
3.508752614095956179e+00,1.282147162118437433e-01,4.836843834392400510e+00
-3.503347483368683513e+00,1.132893882671125896e+00,-6.889491424043277412e+00
1.836462006687320070e+00,6.405751964419668987e+00,-3.725753748910929364e+00
-2.770905371686104512e+00,-4.271988078940130329e+00,-1.772547663207486357e+00
-2.739022536927761209e+00,1.774345067048073377e+00,-4.775801914222546962e+00
2.233362603531741097e+00,-4.396384644442138168e+00,5.788145575457394720e+00
1.138055132947584314e+00,5.202566544826848549e+00,-4.553482035126592109e+00
-4.289526604183558689e+00,-1.349956430958416109e-01,-6.373075098602517308e+00
6.692715000488201893e-01,4.277800789648672719e+00,-4.497922581213142479e+00
-4.558636259086275899e+00,-3.350153227417159929e+00,-5.713173495272878100e+00
2.711032346877296995e+00,4.989926743617988159e+00,-3.935793914512714098e-01
2.444936470242717430e+00,-1.779087847741593897e+00,7.422888634683225462e+00
1.642074662843320487e+00,-3.075122700560727118e+00,7.055222150263769976e+00
-4.266106380871054427e+00,-6.741406073621249995e-01,-5.056197819666681248e+00
5.827338742327993204e-01,-6.475711686626880237e+00,3.707625338338026211e+00
-1.046275725319247174e+00,-5.576185238604068672e+00,3.251933323105855589e-01
2.697022945846585529e+00,4.447103747148247521e+00,1.042115829074085509e+00
-1.215033670985776082e+00,2.122925256369635250e+00,-4.525938853196576517e+00
1.355700902809421127e+00,-3.167041002464598076e+00,4.221976017670215242e+00
-4.169068972692192010e-01,3.974609551224690840e+00,-3.389267016146111366e+00
-1.261216808466041561e+00,-6.480884119671993737e+00,4.184297238321867063e+00
-1.989625783068430298e+00,-5.763104063763831775e+00,3.415961965496900010e+00
3.545849030085812537e+00,5.309838476979758859e+00,4.586519152024995272e+00
-2.267099724738185440e+00,-2.992811079755184789e+00,-4.051210388256281547e+00
-6.445496767296234886e-01,2.557435581169694494e+00,-4.623455412229614758e+00
9.187388748664900018e-02,6.512274014873462136e+00,-4.606239802704028108e+00
2.714700933798857463e+00,-4.022919174936733788e-01,7.354288559176619167e+00
-3.402244527387005224e+00,-5.139844285273703406e+00,-4.802576037503567541e+00
-1.950776885724679444e+00,-1.442472436204191188e+00,-6.395815166320633516e+00
2.925136463291498234e+00,5.010545626228638305e+00,-1.194842745775448190e-01
-8.603455933347345930e-01,-7.402113309628417959e+00,2.216557722404584041e+00
2.143989370025591867e+00,4.972743273829946631e+00,3.667561021374789565e+00
-2.523226784271673573e+00,-6.513082682533983814e+00,-2.726038434159339552e+00
2.216757284456252197e+00,7.444832650508940830e+00,3.758939159172740019e-01
3.244278973209232309e+00,1.717977128166726430e+00,4.079420959844751060e+00
-4.348381722655120463e+00,-2.728762726683230166e+00,-6.057139486545671581e+00
2.411554291348470436e+00,-2.175168094367081473e-01,4.689165829470382185e+00
-1.061644466176955959e+00,2.456861775420223548e+00,-4.566810409716883790e+00
5.060288436936701828e-01,3.802488813045969973e+00,-4.957843528663141264e+00
-6.611770558115687146e-01,4.493631011796788144e+00,-3.142206477396286335e+00
3.757674330963316489e+00,-4.288476207987488298e-01,5.056333756797777745e+00
4.101755499975507924e+00,4.883320922028198119e+00,1.712486491365218466e+00
3.081213089354275514e+00,-7.320074921724163408e-01,4.762863255248853456e+00
-2.750071905860092536e-01,-4.454667981352403494e+00,2.929414026191438314e+00
1.537854508072978410e+00,-3.432351671908274060e+00,4.195902013816902532e+00
3.741811972462067093e+00,-8.921476549584759219e-01,6.695607390653404600e+00
-4.084538569635219218e+00,-1.349388857358127414e+00,-4.575632782586886549e+00
-4.153513405162779226e-01,6.515555916482201226e+00,-3.594905947951866132e+00
-4.001062717475484809e-01,-6.863525595287947922e+00,4.124702166966135231e+00
-2.114054703588805317e+00,-1.774109282392547948e+00,-4.998897427009326044e+00
1.329475069164048062e-01,-3.953388191990731215e+00,3.705830968616868670e+00
3.861898784512993732e+00,1.514665016222454197e+00,4.167521772393039114e+00
-3.015338047320709869e+00,-5.457202603656011064e+00,-4.398234525602102707e+00
-2.854601802834329405e+00,-1.102425508453886316e+00,-4.356861770906152564e+00
2.320400516605519048e+00,4.942626168559434596e+00,2.548620230844687584e-01
-4.390368668026347621e+00,-5.719938106171175818e+00,-2.199339828428020560e+00
-1.315802656687485417e+00,5.569438196340517067e+00,-5.267719850134082726e+00
1.251607310902892456e-01,3.339301208932590193e+00,-4.679711575082674990e+00
1.678066993786031080e+00,7.298038193468907586e-01,6.480574763690094997e+00
2.046020806890378907e+00,4.164757204350598485e+00,3.839100711225910345e+00
3.708585616488048409e+00,-1.713025014500195731e+00,5.951858718635235412e+00
4.017033340548028519e+00,5.279405519170428107e+00,9.470891030691275247e-01
2.546280951541929349e-01,3.647669967160882099e+00,-4.249010703887837082e+00
-2.068625557609394594e+00,1.442467468527735830e-01,-7.042923282198096935e+00
4.748454564637902386e+00,3.803859463406400909e+00,4.191953706837038496e+00
1.983150721779650905e+00,-4.409988556508248614e+00,4.493429350669124744e+00
6.967798801735556324e-01,5.776929765461491506e+00,-5.478197296071842803e-01
-9.572671881652540515e-03,4.981222886230268543e+00,-2.281814685982890722e+00
2.703558177432598408e-01,6.457583496677778534e+00,-4.469760195021287075e+00
-2.992608427423619322e+00,3.131314602426060745e+00,-5.967530112417466448e+00
6.919314794219817433e-01,6.462234253127987493e+00,-5.203321714590990466e-01
4.272471709164951115e+00,2.602749780471423358e-01,5.877459860666317759e+00
3.302091592507537587e+00,1.453572176527055726e+00,4.161631268431220221e+00
1.342822620164871861e+00,5.378431308328852190e+00,-1.234149447869813954e-01
-2.309533777046822056e+00,-2.585053944180364383e+00,-6.085972509852659584e+00
3.166485571694986678e+00,3.525887873019333707e+00,2.784426676209156515e+00
2.451001533050607417e+00,2.614788516390261108e+00,3.910779214798917547e+00
3.102090498640617700e+00,6.917499224386689072e+00,-9.957263312387942822e-01
-4.085877566299220831e+00,9.936344853953427148e-02,-6.328911577581981973e+00
1.823589896918609288e+00,-1.295588105003569135e+00,4.917063626472779170e+00
2.746575749680448819e+00,6.388278491069423914e+00,-2.104926976313220344e+00
3.950462130521281701e+00,2.395313901922311750e+00,3.838654708454016795e+00
1.103941130087700673e+00,4.924585448150386568e+00,-4.582527371043899400e+00
3.416212725155430285e-01,-3.782087800399810185e+00,6.316486920619513334e+00
-3.401375591080013194e+00,-6.554677951726143981e+00,9.415817766979673875e-01
-1.398536501850632163e+00,3.919935065551948927e+00,-3.888970391763127310e+00
-1.246675994214235361e+00,-7.436687390271011111e+00,1.177329651927175203e+00
-2.709020468072792287e+00,-2.384558592034760505e+00,-3.890592780463915989e+00
6.331444052217521934e-01,-2.083979882456361121e+00,5.314320446164283673e+00
3.793818841201272551e+00,1.048878804951250299e+00,4.536636392626806291e+00
2.651574349447312073e+00,1.238757275791621426e+00,4.503243390689898540e+00
-3.162584031839104526e+00,1.739470636938452719e+00,-4.975227861954206077e+00
-1.699732368679296890e+00,-6.695585455309691625e+00,-1.488488875894203423e+00
3.327685517274900473e+00,3.730834201426334040e+00,5.866269498085729062e+00
2.037412840558898264e+00,4.825978090502576201e+00,3.564010505560216480e+00
7.465413001356774325e-01,3.920077196478874537e+00,-4.712573137617596331e+00
3.006540493070712028e+00,2.620608490491633358e+00,6.619870566031414327e+00
-3.129433918842508877e+00,-5.642912604657873032e+00,1.118878110997573394e+00
6.924333736185198096e-02,-3.571680897442480074e+00,3.797693121995474819e+00
-6.388793067142161108e-01,-7.174198606920731081e+00,3.211621898198991243e+00
1.091317087683741249e+00,-4.887349038721988670e+00,6.209760044960533243e+00
-4.604560101274362549e-01,2.863511989376874123e+00,-4.782385437093341629e+00
-1.199712897258367494e+00,8.538903519042615464e-01,-5.621756234459297730e+00
1.727188225019159251e+00,7.085099825995948564e+00,9.485314659472301457e-01
-3.548204564116208992e+00,-3.167587801466054565e+00,-6.438206743249003772e+00
-3.630215600226203598e+00,-5.706817046892019185e+00,2.024411633751350414e-01
-1.886804312898295866e+00,-5.504156351867950825e+00,-2.953209562182892434e+00
-2.110367050535169042e+00,-2.669009846553528131e+00,-5.270490844842403710e+00
1.309372736708753315e+00,-2.297079967815566448e+00,4.715556282700378077e+00
3.101084279075996264e+00,5.923189982626896999e+00,3.804217029881565182e+00
2.695893626340543303e+00,-2.705640095338079032e+00,4.893682698123476449e+00
7.960026008277361065e-01,5.435460591032436284e+00,-5.079990253908049702e+00
1.671832294633679217e+00,5.190139534733814841e+00,2.606192182081151776e-01
2.801808116190827480e+00,5.765974624651074798e+00,3.809304616417632516e+00
-1.663200847898338663e+00,-6.927239291584971426e+00,-1.154894828216838976e+00
-4.579867717158134788e+00,-5.518489892010608244e+00,-2.991874239544897840e+00
-3.071465659062607489e+00,-5.726660711110236335e+00,1.299803179666814801e+00
1.258483791534541929e+00,6.315021159175174148e+00,9.907531229007905393e-01
2.360171489672848288e+00,-2.785472345158712226e+00,4.678672601773974371e+00
-1.389069981704424750e+00,-5.395367007738058440e+00,-4.442818508427242019e-01
-8.164730992150746047e-01,-4.140838971685875336e+00,4.302752939105111807e+00
2.393852818801210258e+00,6.960341324993260415e+00,1.914443513195262847e+00
9.933289904321538355e-01,4.538844295177367982e+00,-4.779843932215051439e+00
-1.575183186944125513e+00,5.589961015740291472e+00,-4.947139600536219817e+00
-3.156344557890521152e+00,-7.049462319977874536e+00,8.273791388262203839e-01
2.611796661538141606e+00,-1.385881160067041762e+00,4.757940318802426738e+00
4.574702888793130029e+00,1.446084750603531477e+00,5.224018195991044777e+00
-1.632307955844595870e+00,4.285116639388793836e+00,-6.570686888149053217e+00
1.756690668388996457e+00,6.327923781087887889e+00,1.923008597811646903e+00
2.536909520669638596e+00,7.369218895656218571e+00,1.229331415179732101e+00
-2.813936615195183677e+00,-2.366203149573573583e+00,-3.912005641059168592e+00
2.432913832574851859e-02,-5.927771808298104794e+00,1.707935088844648508e+00
4.246609912712850377e-01,7.162181211411619230e+00,-1.672355822253696722e+00
-2.258624957786092013e-01,2.565290581653302482e+00,-5.544814396925560551e+00
-3.820807503315481579e+00,-6.496481481576237726e+00,-2.735041335351831471e+00
2.954015569816612619e+00,8.330277527060961917e-01,4.357980347556843270e+00
6.106010917870864363e-01,-6.164995135146176253e+00,4.839463712700249332e+00
-9.060317532762999226e-01,-5.642147750017267427e+00,5.040398364761502492e+00
4.656788857271507154e-01,4.327583125403472231e+00,-5.656274415638348430e+00
-2.047464818699904932e+00,-2.079980663120324369e+00,-5.574016920818696263e+00
-1.101296100063272387e+00,-5.908800590805625141e+00,4.583053801934730664e+00
2.522468517989233661e+00,7.366424136105164777e+00,1.076677570522236671e+00
-2.285081791483339231e+00,-7.365593488549821544e+00,-1.220669209697093027e+00
1.512095863249149907e+00,5.108330868690939219e+00,-7.553883688272686747e-01
1.293318520920809345e+00,-1.699089525742575768e+00,4.899658092378827767e+00
-7.660011138546489740e-01,-7.226329245032506954e+00,1.379579656493151507e+00
-1.934958173566813322e+00,-2.096088897303449439e-01,-5.032491166386479975e+00
-4.441672699541097558e+00,-2.470055822685417013e+00,-3.795759137350206203e+00
-2.083536408211884350e+00,-2.735443224587600586e+00,-4.627729022719726082e+00
-2.562915927499294977e+00,-4.447359862684466592e+00,-9.684098356702705024e-01
3.305282194757781511e+00,6.372475623016126356e+00,-1.033501340626794329e+00
2.656162342624712291e+00,-1.235442153845492053e+00,7.259026824272971190e+00
-3.128185138071278626e+00,3.067363504166385368e+00,-5.548107892420484077e+00
-7.470627945929213531e-01,-6.584911814144189357e+00,4.519529331794460147e-01
3.016906884618121065e+00,7.259640050383507237e+00,1.543300938271814138e+00
1.599850190016464779e+00,-1.264906404455287126e+00,4.875716359027803648e+00
1.694530357585181779e+00,-3.829216544457729299e+00,4.129831454498299692e+00
1.626695470257047083e+00,4.931434424969514119e+00,-3.758594947002334763e+00
-3.871674237951387543e+00,1.307305466739832944e+00,-6.095588453015473362e+00
4.488620008828287489e+00,1.150207583677828937e+00,5.524126451319281372e+00
-1.367745222794915394e+00,3.372355895663204706e+00,-4.121921310270596273e+00
-4.538788098031303342e-01,-6.488668924520873738e+00,4.601960247848084329e+00
-2.236569790560665627e+00,-1.074975703075000677e+00,-6.852119315556474355e+00
-2.144132589175776094e+00,-6.798681249160900997e+00,2.823796963969287255e+00
7.719002007474449201e-01,-2.073923683152983699e+00,6.355474029757712806e+00
-4.090964911881526334e+00,5.136270030138562204e-02,-6.532458156461933285e+00
-1.144425254395365465e+00,5.753758306999920080e+00,-4.167011807836991544e+00
3.507124083073307030e+00,-2.175786493663753429e+00,6.154490762145647942e+00
2.879676981286724669e+00,5.670502727286999445e+00,-1.876454569539003359e+00
1.674737013610666070e+00,-3.334654383185901683e+00,4.085128891497003423e+00
5.562607617375904256e-01,-6.502848762544070738e+00,3.025358452903111228e+00
8.560839863725672183e-01,3.980356500492503891e+00,-4.498905929791863656e+00
-1.436650511217779869e+00,1.265877883208669230e+00,-5.062701626393528720e+00
-2.337014727874947795e+00,-2.884823377416122270e+00,-4.055318668290492923e+00
2.726579103675336846e+00,6.400089726923998690e+00,-2.218572811704844217e+00
-1.701236114423454682e+00,-7.532126951927383907e+00,2.949844677548930649e-01
-3.956214798955662193e+00,-3.980774410850044465e+00,-5.738832892137889274e+00
-4.065170037858387708e+00,-6.220572439875848403e+00,-2.589113656822997100e+00
1.875044843266964856e+00,1.332018908893311426e+00,5.384201274722685504e+00
6.582111009979901839e-01,5.322742526932756846e+00,-5.214450755042083330e+00
-1.739102356470853650e+00,-4.950784371023879693e+00,2.228249136692289412e+00
8.390764897685470958e-01,6.025653267473424890e+00,-6.599109996417822088e-02
-2.834565205245309638e+00,1.455976827544830099e-01,-4.594416384559857569e+00
1.072432809409228360e+00,-8.772706249659190103e-01,6.187499193242969930e+00
-2.868882795441742406e+00,1.292319896354424236e+00,-4.831486463641437190e+00
2.196043449785453738e+00,7.241049180151521547e+00,1.248410449639258513e+00
2.111531978826031608e+00,4.328672535561370438e+00,3.387895014271905314e+00
-2.920318493990052833e+00,2.863052404684508279e+00,-6.709013069025026255e+00
-3.138621918338484473e+00,-5.104081805558575269e+00,-6.867450359653608227e-02
4.445166980950829405e+00,1.162955466629189916e+00,5.557031365127419242e+00
3.754325374188381303e+00,-1.724600720441227919e+00,5.976434861504701601e+00
3.743241475960403797e+00,6.760082582749119773e+00,3.490555382756206360e-01
-3.790247680568761268e+00,-6.923760938037629487e+00,-9.908557186941427952e-01
-3.136119050301266586e+00,-1.315517365692192575e+00,-7.006530906299594186e+00
1.242126060309472063e-01,-2.843036461368739776e+00,6.005997558340832931e+00
-1.874123851506646621e-01,2.806640238123189413e+00,-5.268814661943072686e+00
-3.858742533343647363e+00,-2.148876849441793802e+00,-6.669351777214141741e+00
3.362682721950678744e+00,6.920468667515350170e+00,-6.047625396491562721e-01
2.610846474685434959e+00,5.096734684287721251e+00,-9.519712113011938870e-01
2.270840624197208335e+00,2.448319723060786046e+00,6.010880988637650191e+00
2.973091576933756475e+00,1.527852354381609823e+00,4.237081063231682876e+00
3.621421880987933495e+00,-1.506733768338638146e+00,6.661271815405033436e+00
-7.032924200751827781e-01,6.087265508951456461e+00,-2.922529366920315397e+00
1.104760036645243915e+00,-3.152308653317812404e+00,4.095802042150417321e+00
8.840606248500816333e-01,-1.631579827649631831e+00,6.161994367168858844e+00
1.938975764751576625e+00,5.380392112582842223e+00,2.848016211602199199e+00
-1.474098382519090533e+00,4.699224694330583763e-01,-5.425251304221580639e+00
-2.439841189970415769e+00,1.120204546127342660e+00,-4.644267835285425861e+00
2.869320363584054956e+00,9.691902302742047559e-02,4.752631999388352568e+00
-3.549044287241908791e+00,-4.721209148613426443e+00,-5.204305372398839502e+00
-1.972777779509084173e+00,-4.935391106254196636e+00,-1.060307959725065752e+00
-2.130469597942338034e+00,-1.752303948941746015e+00,-6.243873155601252556e+00
-1.898614768831178523e+00,-6.589816082208642456e+00,3.543089723229380539e+00
-3.174019295272695551e+00,-5.067155567639455960e+00,-3.698070522728264531e-01
-3.326148135140365003e+00,-4.292148046478795886e-01,-7.217060338561513966e+00
2.251709227987646944e+00,4.461938614066906617e+00,3.972005366787952685e+00
-4.141197850408379288e+00,-3.715515935496471744e+00,-5.520738500368437940e+00
5.314158175305772058e-01,7.262181695967744766e+00,-2.286559486479648129e+00
1.372583073573673262e+00,-4.721080833646238872e+00,6.280704452355790224e+00
2.180052196860160052e+00,3.730086251529942665e+00,3.482001590145361369e+00
1.892133585221306369e+00,1.474220024246912786e+00,5.971759034739258176e+00
-1.088477125903293707e+00,-7.089350410319949169e+00,2.148981627391402249e-01
-2.118478113694755027e+00,-4.805502113255735175e+00,-2.294718545521421849e+00
-1.397233814532374163e+00,2.549375695243814022e+00,-4.478811764169417842e+00
-2.353002636631948974e+00,-2.358149063221188779e+00,-4.286281668914707410e+00
2.465923023191858743e+00,4.892409866994313461e+00,-5.878964051230647359e-01
3.750749773847003699e+00,3.453815250757435784e+00,2.894669601680927684e+00
1.740236547175600945e+00,-2.043412775213298893e+00,7.170609918892353996e+00
-4.186258187791652041e+00,-1.464971590202921004e+00,-4.505011974634935967e+00
-1.615259884563555959e+00,4.519820313040828985e+00,-3.923759924682281408e+00
2.035727020078430982e+00,6.952731433118268356e+00,1.482226316576240821e+00
-3.154000671694090929e+00,1.572601314763713010e+00,-4.921000073847841882e+00
-1.425490595420616735e+00,-6.594757762494381836e+00,4.100634163297003809e+00
3.767017797459037087e+00,5.310664530154637575e+00,4.383146228157647428e+00
-4.570080295051138997e+00,-2.568217717318642013e+00,-4.425196241091897242e+00
3.454399152157123787e+00,5.174750078248084861e+00,1.934335738159511375e-01
-2.134136164558908089e+00,-9.123510785559082459e-01,-5.005844013257608083e+00
2.171771448049288900e+00,-4.641879265945426880e+00,5.484089894239648544e+00
8.870115176767534582e-01,-6.337596193664649213e+00,3.496468540716231921e+00
1.777943062933119656e+00,5.434327725509413121e+00,-3.661733002380121338e+00
2.562456569845373622e+00,1.477901933155755909e+00,4.296088150734900246e+00
-5.603750519498312821e-01,5.442472006138006968e+00,-2.601156358061750051e+00
