3.171861949380803569e+00,-2.173427409326607940e+00,-6.953423118305546602e+00
-2.515645919300727673e+00,5.196794281588389630e+00,3.421775871417428672e+00
-3.847140209242023268e+00,8.606120280308838133e+00,3.120079038952091821e+00
3.409905495569498957e+00,-4.040809317910407650e+00,5.040186991498247338e+00
-2.932623414479517132e-01,1.761817634811773781e+00,-6.614873803276327457e+00
-1.269161748034987269e+00,-8.615677265434442678e-01,7.617993256949269210e+00
-5.250204938139776623e+00,6.402930934252374584e+00,-3.882714781058860254e+00
-6.889265112054272500e-01,-2.553623614437516842e+00,8.353082898423366487e+00
-4.604701752132594472e-01,3.980857506729944983e+00,-6.246895240067888544e+00
3.514727591885837832e+00,-4.854331984056534210e+00,3.516058983874471355e+00
-1.228847587107694928e+00,2.419599379199978362e+00,-9.561678983233873552e+00
-2.877916839499168322e+00,5.357938907713363008e+00,-2.630239000227512669e+00
-2.368218096647753956e+00,7.392858650231421080e+00,5.070257375347194895e+00
5.444733307085099838e+00,-7.492390438031987010e+00,-3.546683844374395100e+00
3.743698148436175099e+00,-3.578760083742631437e+00,-6.195446775483574697e+00
-5.083108727304710861e+00,5.621354998985243157e+00,3.678283069167136876e+00
-5.479538745563460544e+00,6.468201631563291087e+00,2.012239770990945864e+00
-5.719318573973112052e+00,7.137819494575626145e+00,1.204830630553026749e+00
-2.749620834691431259e+00,4.945855654352115494e+00,3.679600923213834474e+00
-5.640445731047053490e-01,-6.761134487610667154e-01,9.954693140105948856e+00
1.637915382678826859e+00,-3.092747970493590071e+00,-5.814447020918333209e+00
-3.469903819394016153e+00,5.599876733746058655e+00,-8.183754622484127328e-01
-2.213345366195493380e+00,6.707113636026785564e+00,-2.064227568816877856e+00
3.812297799589478675e+00,-7.289692042522616156e+00,-5.771622279751408513e+00
3.821037517524279004e+00,-5.147994935045172582e+00,7.198416165162058178e+00
4.278376389706431304e+00,-4.746057424705359296e+00,6.663824695559978473e+00
5.441101739691140082e+00,-6.304174267526993169e+00,6.395237983636857804e-01
1.067273581542919958e+00,-1.536435548706686305e+00,-6.412461022010551126e+00
2.724007428746033188e+00,-7.477473530772737575e+00,-5.552680252089271740e+00
4.805531752220160158e-01,2.549103099010413764e+00,7.934755951554829601e+00
-4.075135800134640718e+00,8.264351070269563948e+00,3.977690583443363348e+00
4.953134155375845005e+00,-5.747056344160118790e+00,4.888082758375034587e+00
5.098207039618769087e+00,-8.350536497491519938e+00,2.048430367871537872e+00
-4.720617812358074872e+00,8.953130705445579096e+00,1.752402828490704056e+00
-1.750875867019872301e+00,3.221394099540284994e+00,-9.364708655239413204e+00
-2.829881140347973112e+00,1.903486304188956924e+00,6.629600275257796937e+00
-2.196048472753671543e+00,6.411983000225457197e+00,-3.069631495571855329e+00
-2.124426714988457476e+00,5.665804437675650895e+00,7.681422909125489085e+00
3.896494783316253319e+00,-3.342432758323507613e+00,-6.934350525116954600e+00
1.186441893942651538e+00,-4.398212170800598897e-01,6.961397627256420861e+00
-1.279996404570590274e+00,-6.057790255937776924e-02,7.069961965560981554e+00
2.236686876769968357e+00,-7.154859488427481651e+00,2.775407810730031510e+00
1.984997480440239270e+00,1.871436249311474731e-01,-8.607516625908615993e+00
1.605014927261613433e+00,-9.486680773792514065e-01,9.575178028429952803e+00
4.696306687555651393e+00,-5.756650527515191129e+00,5.490603141599748049e+00
2.034804061388735708e+00,-4.660755282898841334e-01,7.991513226274045145e+00
2.405134778708054366e+00,-7.645508843176389568e+00,-2.364215301619602805e+00
2.057298925984785587e+00,-7.392465427986149251e+00,4.098595772416593341e+00
2.055094002143230458e+00,-6.423026073105248202e+00,-6.466040442724315440e+00
-2.691536373016261585e+00,1.206887760406941901e+00,8.660343522899081492e+00
4.682953276068172244e+00,-8.347826724944816590e+00,-3.151727643264008893e+00
-5.193927290339899194e+00,7.289852292197313233e+00,4.297076928957491049e+00
-2.599832482582871140e+00,7.968837137732050380e+00,-4.263296353866968147e+00
2.108488826657581416e+00,-5.204483683096460034e+00,8.254735550503525587e+00
4.244143345079149476e+00,-4.606493512291726766e+00,4.396794255036261312e+00
4.336725347878562786e+00,-4.790509562040083047e+00,-6.514785110621697406e+00
2.224090534206878633e+00,-6.119547599754293188e+00,-7.224804346090129670e+00
1.722979614460422804e+00,-8.457778152963247864e-01,-6.826733677277761814e+00
-4.541477627652231064e+00,7.664394298999352095e+00,4.698406359500679308e+00
-5.703936451458323731e+00,7.344120741542773168e+00,-1.638128582255254706e+00
3.796876535424095422e+00,-3.714784900362713138e+00,-5.529633852334689514e+00
7.973789423016065525e-01,-3.730879914197618441e-01,1.001011384247313352e+01
2.640250091368155985e-02,6.908478840736153037e-01,6.787956790782822658e+00
-1.009854979147130960e+00,5.130696507225285252e+00,6.379267478545929571e+00
1.459113076172741330e+00,2.792255268841339899e-01,-9.613863701346845758e+00
5.436479915759304671e-01,-1.213720516532014626e+00,-6.500534093623781651e+00
5.064217088452808824e+00,-8.444581834883575056e+00,-2.349738561055345620e+00
-7.673779110878439225e-01,1.988038921676541948e+00,9.770105104554698272e+00
1.953803676663532052e+00,-7.088296034716072391e+00,4.098158812433556619e+00
-3.972364924503369643e+00,9.010366237584088722e+00,-8.197439787092503094e-01
-6.801842182445179130e-01,-9.577691573307667294e-01,-7.214346480234669734e+00
5.723277977136115996e-02,-2.148078043528337533e-01,-6.551336562714565659e+00
5.183307365415839030e+00,-5.955439561905971679e+00,3.433178764207858613e+00
6.247380257225703115e-01,2.842318708868597721e+00,-8.105675541845702270e+00
-1.270726893640734767e+00,5.830545822662034361e+00,-5.202957105364895085e+00
2.354584016978309435e+00,-4.150569207899120094e+00,8.750081036911268484e+00
2.339936703389912331e+00,-7.611272600431441937e+00,4.430662074150018448e+00
-3.759258119535677345e+00,3.563311167669178658e+00,6.899101388967438631e+00
-1.197620347376978867e+00,2.434164092219562037e-01,-9.769725439390402499e+00
4.077206957153933775e-01,-3.535415835583555211e+00,8.954008097629492013e+00
4.791187661985140345e+00,-5.439882201063370282e+00,-4.596391654541432281e+00
1.794501117929181211e+00,-5.385618629158990256e-01,-7.269297331787051952e+00
3.066267295523855907e+00,-4.417447447527862892e+00,-8.668690081870634501e+00
3.345766006206934318e+00,-3.197723564849082933e+00,6.646569250292736264e+00
2.146353190147513246e+00,-1.740409429963569732e-01,-8.097919414494787915e+00
-3.820123171381292426e+00,5.187645844827880381e+00,2.829416054279832338e+00
2.357373852515264545e+00,-7.113530285099998185e-01,-8.595824746145883211e+00
5.426006640806247283e+00,-6.456388278193506025e+00,-1.614923637872655859e-01
-5.663393343394024448e+00,7.683240164683687645e+00,3.637574780982940070e-01
-1.786886896766570310e+00,3.445969786880122676e+00,5.348699858654887507e+00
-2.122418067937451358e+00,7.225305215833881078e+00,-9.939058973086060123e-01
2.217097811136733654e+00,-7.441228730914495770e+00,-1.384151072406855310e+00
-4.909634949711597862e+00,5.077685029497052582e+00,4.947518765905239313e+00
-6.930460061867910193e-01,4.882076115648141368e+00,-7.253279553871505136e+00
-4.167286674027947946e+00,8.964456513512859104e+00,-1.094303891192098394e-01
-2.110855172705035976e+00,6.643149191793067843e+00,6.023296540312277791e+00
-2.069010140810177756e+00,5.887810036853531770e+00,3.745297140426276705e+00
2.024047799346889942e+00,-5.855732204663914864e+00,3.447985282846814048e+00
-1.303054000006586222e+00,5.029249706538162279e+00,5.619246325030260891e+00
-1.904279608936285895e+00,6.466058615677963139e+00,-3.645977661643326151e+00
-4.481490122624138372e+00,6.718522624391442655e+00,-5.786190359185918730e+00
-3.558118345860687981e+00,3.520894896250647665e+00,-6.954190529969711321e+00
-4.731353282416772998e+00,5.358982824604196615e+00,5.087136193838312614e+00
8.627907310570409605e-01,2.129736620639298472e+00,-8.000020857601578328e+00
5.106659357075573169e+00,-7.291350026257835459e+00,-4.135982489529304473e+00
5.172219644861022481e-01,-2.891528075026875033e+00,9.389413707518983188e+00
3.589984497380682704e+00,-4.898300414307369621e+00,7.684374912294797078e+00
2.300442866432959477e+00,-2.281255758956769686e+00,6.323313923698536065e+00
1.452702377130542510e+00,-4.350664521517708216e+00,-8.881213983095994635e+00
-1.275549122344709740e+00,3.675177123226744058e+00,-5.463341603367847021e+00
5.727165476140439360e+00,-7.881194840755965103e+00,2.295531190691322276e-01
1.453380560203604954e+00,-5.307136290042367976e-01,6.892650554258342943e+00
-4.848044476249349977e+00,5.206892691409690244e+00,-5.564037755441598065e+00
-1.484199501242530861e+00,2.135951055319693204e+00,9.650234041593739320e+00
-5.701779557970181322e+00,7.058356810643030776e+00,-1.259497260513157690e-01
3.499132353076979118e+00,-5.527544100671923033e+00,7.489130589496786783e+00
4.720792202830875084e+00,-6.184276349713791809e+00,5.615761461443483427e+00
-3.241346672476240531e+00,3.361137312636106156e+00,5.635779280626932675e+00
-4.634377919471950769e+00,4.888816760887634949e+00,4.833810282637496236e+00
4.233911107324399570e-01,-3.686074770494694341e+00,-8.535893227676741191e+00
-1.790336311319409734e+00,6.332716537950430435e+00,-3.967046372948694888e+00
3.630651363568997869e+00,-7.217544939613294019e+00,6.226417646513522364e+00
3.519578543462370313e+00,-4.295657026151677549e+00,7.859926212911685361e+00
1.011437668056743622e+00,1.987046914433800771e+00,-8.465876446918084497e+00
-5.226681908578588498e+00,6.403002360251657699e+00,-4.090285282960129720e+00
1.389856695857012658e+00,-8.731665538121052839e-01,-9.869716806068632664e+00
-2.492574415709726487e+00,1.583720289543075532e+00,-7.493759894881880435e+00
-3.519297538657786273e+00,8.806387905512870873e+00,-2.408295135995297986e+00
-5.159079056220221560e-01,-6.479023211329378862e-01,-9.814314505546420264e+00
-3.718415107717909507e+00,3.972075383443836039e+00,7.810856314556561486e+00
2.319393369123189608e+00,-6.554775056271665790e+00,1.698808834439486271e+00
-3.611840854305087500e+00,5.030766876626652895e+00,7.568152003635308489e+00
4.958310682961834637e+00,-5.916517820800198280e+00,-1.022706265545673399e-01
-4.643357931418695017e+00,7.291447364821890709e+00,4.831780579006682785e+00
2.302452270174125903e+00,-6.447313545883831765e+00,1.723595104775256237e+00
-1.805849956343192675e+00,4.116712030923492804e+00,5.231862792813081420e+00
2.360150835393164837e+00,-7.415496268320352691e+00,-1.171942733898096556e+00
4.011520446805166173e+00,-7.005335348870188383e+00,-6.078818935556784098e+00
4.394259553136498297e+00,-8.894991528128617375e+00,1.338512779251865625e+00
1.082971695282604507e+00,2.031467414002706029e+00,-8.164049433092424479e+00
-4.298152038990552981e+00,8.457571123792959611e+00,3.468111394012225457e+00
-2.605842342600686243e-02,5.004175900562533863e-02,1.015860437754578172e+01
-2.227962591988299046e+00,2.064534955453079856e+00,6.527279470725010135e+00
3.556776290140446495e+00,-3.786580736998474084e+00,5.849606318236129532e+00
-4.282994668828078666e+00,6.287112834691803265e+00,6.547539136159384654e+00
-5.337052644632635179e+00,8.314549572113110187e+00,6.175070730012792442e-02
-2.035734191216546751e+00,7.026458776900353698e+00,3.648377679137889462e+00
2.537591217969172863e+00,-7.651202070630400698e+00,-3.876269894556203077e+00
7.487480266339715529e-01,1.567634295727021954e+00,7.591976834950818542e+00
-5.682791434068492187e+00,7.489921311616385857e+00,5.965185911291471799e-01
-1.377352763322185369e+00,-2.982368954870784350e-01,-9.100248655601617997e+00
1.124058757764544447e+00,-9.838524348146002740e-01,6.743419914052275033e+00
-3.643866192649405811e+00,8.780654996711815485e+00,1.950911359062335038e+00
2.492258952445877807e+00,-8.260209164459608289e+00,1.968164751960933545e+00
-8.533195622463614072e-01,-1.007508876978359780e+00,7.103865472334196518e+00
3.693192428468842770e-01,-3.688044246226948708e+00,-8.222552405637005180e+00
5.569006284240541227e+00,-8.205107763625443695e+00,-9.701047005894398723e-01
1.702501985090451475e+00,-6.386370421867023417e+00,4.484328919980859141e+00
3.105560113311208958e+00,-2.423335791575177200e+00,7.778895325625343915e+00
3.294022711193893005e-01,2.075851203264657219e+00,-7.005499173725884710e+00
4.477033997258587084e-01,-1.133068428111795756e+00,9.887836764874576190e+00
1.130466515390879056e+00,1.526739858972685937e+00,-7.475274396997475534e+00
-4.493684294128507339e+00,4.482937523484262776e+00,5.342496878429782825e+00
-1.608784260445024650e+00,-5.978633069936014482e-02,-8.926329414150528052e+00
8.501477726572778115e-01,1.919419142489078967e+00,-7.479223313687201724e+00
-3.419902243254802965e+00,5.976276115553927681e+00,2.771509708011679618e-01
-7.635953416481068290e-01,3.566537313141127097e+00,-9.028579405146560433e+00
3.916820299364754732e+00,-9.094915219505018911e+00,-3.207753047329974794e-01
8.332695851892574224e-02,1.011596149637958575e-01,6.714950587869381593e+00
-3.139715636895383799e+00,5.393979822091892196e+00,2.301860413783241466e+00
4.335116269411967593e+00,-6.235769808249275847e+00,6.472031514751874326e+00
-1.484058856926441461e+00,-2.841393118341946633e-01,-7.999267612990162313e+00
1.928940472033480180e+00,-3.027595692767228286e+00,9.627702233890817141e+00
-2.106270163644110127e+00,3.099310565384733263e+00,5.790374857621711335e+00
-2.149864991963441163e+00,6.816140956728236944e+00,2.729859061225082595e+00
-3.044422010563809344e+00,5.616905829211238377e+00,2.238332495046914339e+00
-3.418659732489433001e+00,3.327566353467672933e+00,-6.259657812403799149e+00
-1.556549592325943365e+00,8.160444498560797122e-01,9.798328725791227711e+00
2.216093737209979597e+00,-6.942013140590086451e+00,-7.621789934343425887e-01
1.711621789583559705e+00,-3.594627560186375859e-01,-9.324406836995171588e+00
-3.207135984962836250e+00,3.137009325666152204e+00,-8.285360122223567103e+00
2.899823334098630578e+00,-8.133215433915193415e+00,-3.336221436530603324e+00
2.860369899985241160e-01,1.738744288258940729e-02,-1.010992266795284955e+01
4.497733532191549588e-01,2.569647576459967553e+00,8.289795192464088913e+00
-4.991794388528843385e+00,5.510593962033881077e+00,3.085626696751520903e+00
-4.291774438874524478e+00,8.759485182017646920e+00,-2.688112504870183272e+00
3.441779782981684743e+00,-3.961482009931457604e+00,-8.198097021505034832e+00
4.723518912582131968e+00,-5.813319984092856885e+00,3.247403995771060981e-01
3.189607534918863507e+00,-5.684316138280410158e+00,-7.656645805149639550e+00
-3.914807319517332296e+00,3.943080346365914757e+00,-6.325936109481992808e+00
3.529390576766614634e-02,-3.304387911517484344e+00,-8.514187560145350275e+00
1.901877556306290351e-01,-1.801615686209327549e+00,-9.844857808394406717e+00
2.866291576308912514e+00,-5.823634461229416637e+00,1.627228807653575027e+00
2.960582583659780997e+00,-3.391859890662178412e+00,-5.455088487255299157e+00
1.897163332408282610e+00,-6.344159023325460112e+00,-6.389725632147916556e+00
2.819283766506841094e+00,-6.401943177689273234e+00,5.041851667544932081e-01
4.580777980055677823e+00,-5.209787898969002740e+00,-3.086373743328478803e+00
-3.818009909438743410e+00,3.753754881668953214e+00,5.527389819787005720e+00
-3.050625783426972326e+00,3.652605964355580603e+00,-5.121392227720598100e+00
-2.171702851915314536e+00,7.346163035108057571e+00,-4.983820643292853347e+00
-3.578506271394804816e+00,5.028037453435160842e+00,-3.187137214878233760e+00
-1.263698554407004515e+00,4.748247258233971202e+00,-8.420118891168039355e+00
1.362581688709872951e+00,1.295900570818005804e+00,-8.426781323870310203e+00
2.904220825829598951e+00,-5.416565944333892269e+00,2.431652755111311404e+00
-4.093849730085458383e+00,4.248507954403000220e+00,4.771424303385906285e+00
-4.069862938701989563e+00,8.777011416248686970e+00,-2.411937141170164445e+00
-3.972983142392660483e+00,3.671668511671511315e+00,7.423088223564137778e+00
3.255934842943689622e-01,-3.792062118000694149e+00,-7.514576831861286443e+00
4.888330373962322284e+00,-5.936258542444203812e+00,-5.156909071949294265e+00
5.301870942728534430e+00,-6.274808865707291794e+00,2.562299095860419484e+00
2.686679127095323416e+00,-3.263469428772103331e+00,-8.987096368324278828e+00
-2.745993449530286679e+00,4.694116968732811479e+00,4.075198358521443076e+00
4.791623332970372573e+00,-5.718645043821638296e+00,1.335246837862280878e-01
5.140028593852751015e+00,-6.093082333596694156e+00,1.405902729380675620e+00
2.891534081567439962e+00,-8.425921585071533215e+00,2.980813323738171317e+00
2.560180285200841066e+00,-7.973433001276467813e+00,3.356873400080404135e+00
6.892712545987612627e-01,-3.880084593221838851e+00,-6.797265490331390936e+00
-1.606193142975011590e+00,3.060919617119281178e+00,5.842470308318422845e+00
-3.570837619333246948e+00,4.443349561989856866e+00,8.113673346360153360e+00
-2.640282853334759761e+00,4.074910435006860787e+00,4.739270919683840511e+00
-1.293661497182792885e+00,4.289867524231837592e+00,-5.322971524348977468e+00
3.210958818135865478e+00,-2.395137674301413444e+00,-6.746272738457210316e+00
-4.618081200831226640e-01,2.631367771151464918e+00,9.475213167334310072e+00
-3.624952567351851673e+00,3.798811998290028136e+00,-5.160246189901185332e+00
4.989165456566031054e+00,-8.863879061275893534e+00,2.751056626217764922e-01
-5.609281394808964372e+00,7.260672821576495295e+00,2.980704912969374121e-01
-1.812637487435817985e+00,6.263131567634638408e+00,6.838059549738385812e+00
-4.358258444590447311e+00,8.016857778338380314e+00,-4.273033391461003028e+00
2.733715804766626789e+00,-1.501053653034324142e+00,-8.361173840150494030e+00
7.869985466707979382e-01,-4.659779085039084556e+00,-7.619186180794444319e+00
2.246599354118005820e+00,-6.705773186400660890e+00,-2.195206182198548905e+00
-2.334699126972207051e+00,4.377458902402540097e+00,4.439958217721151179e+00
-2.528661626263390971e+00,8.145952464733277054e+00,1.195573498245261490e+00
3.380051154139708469e+00,-4.968332321111562422e+00,3.183368662099498536e+00
-2.221284336684152816e+00,3.678522903470505145e+00,5.126453869712346290e+00
1.590670151153335876e+00,-6.412106351698809270e+00,6.681944107395622723e+00
3.577055871627315309e+00,-5.178173024899495047e+00,7.733420582301047119e+00
-3.329709141116969473e+00,8.692112736758536684e+00,2.416684321923166845e+00
-5.183712948548188315e+00,8.580727697661668429e+00,1.182598971681425803e+00
3.580592761169925087e+00,-4.081465594069189073e+00,-8.070785755136755668e+00
-2.576492985474320818e+00,6.361553886090604237e+00,1.052847302877835345e+00
4.853737929549583718e+00,-7.045852301690027630e+00,-4.729591048855563251e+00
2.601846338495915401e+00,-7.425275145649131936e+00,5.853775887809034018e+00
-2.711171904474381833e+00,6.020925418491385628e+00,-7.522269401090075913e-01
1.154685950314175535e+00,-7.636563617445255581e-01,-6.779571048144077849e+00
1.290482049731289216e+00,-2.625494960616791662e+00,9.662113287690477392e+00
3.596645004176229676e+00,-4.063423745949587662e+00,5.121631370631332558e+00
2.264634710668251394e+00,-2.046547812265883337e+00,9.133551680958378327e+00
-1.698628983581697227e+00,5.614844401096289239e+00,4.435105000593168256e+00
1.637817930118993237e+00,-3.421571483771436384e+00,-5.837661313187310519e+00
-4.763662370173192606e+00,5.875362100447063973e+00,-9.019948916192399579e-01
-2.466761085438479828e+00,4.476608200996929021e+00,4.384412358582784996e+00
5.587266712108517552e+00,-7.456100388456482264e+00,1.895284193344107804e+00
2.543356449436967370e+00,-5.642158113398753727e+00,7.821546619579798687e+00
-1.731777043039086195e+00,5.835962564101862426e+00,-7.379406120139984537e+00
-3.235565318582572125e+00,4.769791029529026893e+00,-3.673739102424452785e+00
4.268656660715898221e-01,-1.074102684386091244e+00,6.671676621105678606e+00
-1.172894788571931635e+00,-9.391637654941603630e-01,-8.758972956031357171e+00
2.595607527599986142e+00,-4.728303103669668772e+00,3.946184402922301881e+00
6.054389601854467395e-01,-1.985270128132533785e+00,-9.678859264166286280e+00
9.951317654676232749e-01,-9.962803648245253108e-01,6.662152881124468351e+00
-1.923067193979712819e+00,2.967442396935284332e+00,5.586672284618751760e+00
2.108900184375161468e-01,2.683754813989389643e+00,7.108572504068599862e+00
-2.231581929354103933e-01,4.063450814614337325e+00,-7.275670285967420270e+00
2.091166825824383846e+00,-1.183808655558871825e+00,7.168351365101628403e+00
3.782754824224517698e+00,-3.569459546172876863e+00,-6.000928552657431858e+00
3.923023740421011318e+00,-5.377261677816299823e+00,-2.130634919434620134e+00
-1.845061419946636638e+00,4.112406122065579872e+00,-5.012294764400547997e+00
2.132912669098382175e+00,-6.978389628378161014e+00,5.598487534779213348e+00
-5.065143965932044523e+00,5.789220416414049275e+00,-3.634347267686175886e+00
-3.944766720840919394e+00,3.391406223520567753e+00,7.479547388178417577e+00
5.404964341523079696e+00,-6.441358748928118771e+00,-1.944288180080271822e+00
5.434193315614223252e+00,-7.010537534179103858e+00,-3.478355301857829485e+00
-4.712101161692996421e+00,8.446248330383742342e+00,2.401450614233053393e+00
2.539197963695082105e+00,-8.067476715397981835e+00,-3.202466351213627771e+00
2.579427041084607186e+00,-2.720543449259141155e+00,-5.922820293861394525e+00
4.885891553740090210e+00,-6.636435995472369065e+00,5.300288481262535711e+00
1.247660659521186322e+00,-5.934126311688028288e+00,6.124739324143638974e+00
4.624180308604509904e+00,-5.473318216870839414e+00,-3.043539588901909010e+00
3.236839171495670353e+00,-5.328857489020251137e+00,2.606859825370351214e+00
-2.244877363824982208e-01,-3.225278783798138704e+00,8.080607372964468738e+00
-5.191866807514658788e+00,7.940595676846998074e+00,-3.398744394143336400e+00
-3.743180280095812940e+00,5.565143781692801106e+00,-1.977899373658495552e+00
-4.191294824776195860e+00,5.539500277148771801e+00,1.405779514636481320e+00
-4.665497683256871753e+00,8.479969717422342512e+00,-2.884488301247230435e+00
-5.335272100148485741e+00,6.062636297736573532e+00,2.078580142405901832e+00
1.301906419944038440e+00,-3.882262128911037058e-01,7.051134796974317887e+00
2.591475033648498627e+00,-5.522497566284045867e+00,-2.943746713280422256e+00
4.831972584665997217e-01,-3.636114771383748501e+00,-7.275399147896165708e+00
-4.164098163184886126e+00,8.706057003194155541e+00,2.607484229040936796e+00
2.531335563302588021e+00,-7.470193442785845406e+00,5.548542796179717129e+00
-4.126222986736582499e+00,4.755600674432193919e+00,-4.398854070462669519e+00
2.233568080324369376e+00,-5.921706833362878619e+00,3.174044413238692020e+00
3.555339053416632367e-01,-3.687552598784308522e+00,-6.975954761060471299e+00
3.033742866388965620e+00,-7.951452612378971274e+00,-4.979842529432907838e+00
2.445603522623157833e+00,-2.674712746878152636e+00,9.056673934251286084e+00
-1.794403940886150961e+00,5.628070176236666278e+00,7.461500042539137567e+00
-3.440589023742558261e+00,8.358020140996625713e+00,3.897723095438539787e+00
4.426076924121925771e+00,-5.045855550992990324e+00,-6.449990629883044058e+00
3.131984796440990815e-01,2.474902733106084884e+00,-9.061208449332191606e+00
-3.857924123383728254e+00,6.829789372095659949e+00,6.144629442584726320e+00
2.630391987836356638e+00,-5.931657511678492867e+00,2.013396861646491232e+00
2.224180236013963530e+00,-6.580269696943449986e+00,-1.420029700188344846e+00
4.051919149721823210e+00,-5.719372468371675566e+00,-7.733155439876965298e-01
3.738757806141874251e+00,-4.183765896182612742e+00,7.673177206431658348e+00
-2.796287607153786325e+00,3.002615551486860657e+00,8.852204133116474694e+00
-1.617729324704824778e+00,4.184708009664438677e+00,5.168284652365979781e+00
3.075304048118929323e+00,-7.464850607678238603e+00,5.619985018714747760e+00
-3.655373944227056082e+00,3.565454730468356370e+00,-6.335496021091931773e+00
1.809571973655361710e+00,-3.840041047433910837e+00,-9.184392027666625324e+00
-3.958772022545985703e+00,4.677317515956302074e+00,-4.180595002772042434e+00
-1.020430531783202088e+00,5.062613407788389530e+00,6.716254565511416530e+00
2.514421800079991609e+00,-4.467911559881800443e+00,4.550687312114064298e+00
2.855910695089254325e+00,-8.710271721977534298e+00,-2.250708300940604256e-01
-3.658185444138878584e+00,4.540525377942242535e+00,-7.684002629458043465e+00
1.512782131204003955e+00,-4.155846491800916809e+00,-5.596796536548545475e+00
2.642739261189449351e+00,-2.061138926381923753e+00,-6.625614856949481712e+00
-2.378954364406449695e+00,7.708573568128100462e+00,2.396670137675749601e-01
-1.460014699041015440e+00,3.918296817659164155e+00,5.462802530024537084e+00
-5.377961927642166629e+00,6.664783943233588026e+00,-2.819472246487503053e+00
-2.182676583877201093e+00,1.977496645286446642e+00,6.511554621541121080e+00
-5.739656373756164776e+00,7.732049221027481600e+00,1.960727869278311664e+00
-1.491206623258494846e+00,5.069016619043257954e+00,-4.887973016896666856e+00
-1.606253889924478040e+00,6.312700341437350815e+00,6.254374790290184727e+00
1.978443641862393410e+00,-6.288501389359219651e+00,7.535027688742130358e+00
-2.715900231948379151e+00,5.874580000899595866e+00,-2.424230352511939746e+00
-8.390889347427661349e-01,2.482284638101840191e+00,6.170920974423365735e+00
-4.377020278339294634e+00,8.082844447345783223e+00,3.797882120166997666e+00
5.036851044776935460e+00,-6.113087725683501894e+00,4.065568390633474749e+00
1.666309153997537651e+00,-3.511767074799798660e+00,5.448439197479503449e+00
-4.735940310896193495e+00,6.000313899332942569e+00,-5.745244643965583542e+00
1.029710173039976917e+00,-1.438612963368367748e+00,-6.588561266589454846e+00
3.162032698276995735e+00,-4.054273254622299483e+00,-4.637061337822442120e+00
1.071200852875214604e+00,-2.051902099075706420e+00,9.665718618183809951e+00
-3.988624111410166595e+00,3.646175822912551823e+00,6.950277381823109835e+00
3.645810376502236050e+00,-5.658524412048628882e+00,1.030731518691945681e+00
3.029002200453300819e+00,-5.538372329797873306e+00,-7.682785186985786829e+00
-2.468325880202930200e+00,6.800154261043766191e+00,-8.118301069644169310e-01
2.449943796873299995e+00,-8.127665737817643787e+00,1.823442419891485033e-01
-1.427686854059742272e+00,5.501906639644177588e+00,7.138551484432725580e+00
-9.465521342804605887e-01,8.516976711383229537e-01,-1.000092519785987655e+01
5.464919074693500356e+00,-8.214578479823067880e+00,1.409196409042743348e+00
-3.275920116952113492e-02,-1.379212341541616871e+00,6.695019248277869650e+00
1.391138209237772649e+00,1.400438751596073894e+00,-8.465171435861561733e+00
-9.803645084202595728e-01,-1.417971218958531621e+00,9.333415119742999977e+00
2.249941606650860848e+00,-5.574966059984257427e+00,7.964044078735454057e+00
-2.502207558266547061e+00,7.794385969190897434e+00,1.218574299539967598e-01
2.082232227110126122e+00,-7.211100514306066245e+00,-3.523394373168206695e+00
4.281497729146196640e+00,-4.490686469745156728e+00,5.304520091824793226e+00
-1.122462828839025928e-01,1.607979282010192079e-01,9.998896876995477356e+00
5.189682424141378370e+00,-6.195972241792136792e+00,6.798260755166210534e-02
-4.238540302636659263e+00,5.820536945180701416e+00,-9.225726818260368001e-01
-1.368557709986252702e+00,8.916997891464715220e-01,6.714007218993830683e+00
-2.927881438892916965e-01,-2.806940756711598706e+00,7.229068671893642772e+00
3.693984847774975044e+00,-5.333778150805198237e+00,2.721887327213147412e+00
-6.277288731917606279e-01,3.192689774870829833e+00,-9.417165275076632369e+00
4.836495010972827885e-02,2.293691476063688395e+00,-6.686228945937436663e+00
2.763338500416293808e+00,-8.410582252579278162e+00,-7.684333145363858586e-01
-6.935745701126508900e-01,-1.387249695441983843e-01,6.606617213219350582e+00
-1.517504592038448230e+00,5.364107325189825914e+00,7.658082958328348511e+00
-2.113619085067431236e+00,7.029539195518202277e+00,-6.549755426847243989e+00
-5.169896215191899458e+00,6.342638776750553653e+00,5.281241448045647102e-01
1.092375030758687027e+00,-4.934663416487130583e+00,8.038340831178839352e+00
1.820223925549931732e+00,-7.120725987493376152e+00,3.988524121896070973e+00
-1.540677133804974730e+00,4.064675340222264843e+00,-5.160862256188861963e+00
4.253205064547499248e+00,-5.819573602338591556e+00,-5.155636623174573163e-01
-1.608030299818140385e+00,6.161621350122588048e+00,-4.459497428865837776e+00
-4.232262882823662586e+00,8.721101117937944736e+00,2.598618065476540284e+00
3.036010550510338302e+00,-4.685853930713894222e+00,-8.402282968372031036e+00
-3.174919896030704014e-01,-2.954154372237785875e+00,7.969518278961852609e+00
3.576340944552478529e+00,-5.132702827614595620e+00,2.730494243328065895e+00
-2.556238262935922378e+00,5.019963505064662712e+00,-8.234493841658592217e+00
5.650950806337394994e+00,-7.436099345556728579e+00,-2.029622317332801629e+00
4.666581993331798905e+00,-5.469708204360502535e+00,-4.080870462332762294e+00
-5.367772643441600877e+00,6.181085582940696987e+00,-5.480007560316917381e-01
-2.427350896645634748e+00,5.550960854723282267e+00,-3.127192209923095323e+00
5.500191075180581812e+00,-6.490605538845176881e+00,-4.271461534873117194e-01
-3.982701238342361894e+00,7.841136718701680941e+00,-5.070660036927232106e+00
-4.565297966552093634e+00,5.743963967323403530e+00,4.320944594424021568e-01
3.972930667625942380e+00,-3.770070491922032030e+00,-6.838172122322906610e+00
5.244177200958960228e+00,-8.204185756646754868e+00,1.006623930377117393e+00
-5.314517729008270130e-01,1.157850398117026947e+00,9.935442337411060976e+00
-2.121157833835719764e+00,7.224154414998752216e+00,-5.437653235913550098e+00
6.109988292936893162e-01,1.497405313071165756e+00,7.464639421002668307e+00
-3.640151861560641411e+00,4.958887979580773653e+00,-3.274378577597885975e+00
-9.984830651685394631e-01,-1.339508145134803652e+00,7.468942208364931723e+00
-4.079444198343957773e-01,-2.207526718133010046e+00,-7.791782173959877156e+00
-1.613556491626015665e+00,-1.030405871671013357e-01,-7.850241684326999980e+00
-2.323823161820978367e+00,1.979028609312865505e+00,6.395371002287446593e+00
1.229573383096174366e+00,-2.181745577497621102e+00,-6.189458814130246012e+00
-3.036994775779279454e+00,8.098387896500522487e+00,3.827806364873097333e+00
5.381633741367163992e+00,-7.999714885218696558e+00,2.187551320387562726e+00
-3.010836417447229962e+00,3.779645669414170239e+00,4.885026783007620388e+00
-1.602327396870487419e+00,4.403662951632338007e+00,-8.866074870314479384e+00
3.905561564359297133e+00,-5.568900984680785982e+00,7.999735127583288419e-01
1.912782983816712745e+00,-6.345126362776249529e+00,-3.873216070971891689e+00
-4.093815291916227395e+00,4.674673064386067445e+00,4.023548384948594681e+00
-3.812422259513750245e-01,4.198042981961505049e+00,7.734009981875215267e+00
-2.936614188531587732e+00,3.397490073625085483e+00,-8.795828053963855808e+00
6.644580499641123961e-01,-4.580993088020649751e+00,-7.092385215604286586e+00
-5.669396268173142239e+00,7.180036232777805338e+00,1.856509707183596758e-01
-5.422549939262937713e+00,8.138462790837847294e+00,-2.914118247776032455e-01
1.325765500214203474e+00,-5.292171416655049754e+00,5.209085328687451444e+00
1.695584057443795922e+00,-1.523486061440822104e+00,-6.465627222262360974e+00
1.239379587087514833e+00,-2.893933372122957870e+00,5.827816735275074045e+00
-2.036922039774633042e+00,3.236573220398143658e+00,5.664051250705268714e+00
1.385604454928691442e+00,-6.184412866110971407e+00,5.404604045240230192e+00
-5.581971785746007164e+00,7.643305918195675730e+00,7.402868526332248011e-01
2.325278436730821241e+00,-4.357572050381198103e+00,8.757799753367244477e+00
-4.373424111451838847e+00,4.609098628184516322e+00,-4.826467030194556251e+00
-2.172804666884318614e+00,7.572824144663284684e+00,3.661758262861712243e+00
2.220944774383676101e+00,-3.496848288707040897e+00,-5.345209555997356254e+00
-2.476450523877217202e-01,2.394755879593633896e+00,-6.477468678482114051e+00
2.123200682640877801e+00,-7.062814843998762804e+00,-5.301478302676018828e+00
-4.248617571749932154e+00,5.071042307728353293e+00,-6.229850637171464811e+00
5.265935227683080200e+00,-6.242007224749635874e+00,1.285311628335859435e+00
1.709330256503420298e+00,-6.688209459832869186e+00,-3.740751977043256460e+00
-1.053977098448336092e+00,3.319643184206939157e+00,5.981728191320534016e+00
5.599949104284880796e+00,-7.752628850182238907e+00,-2.417310779529112885e+00
3.113569375195478911e-02,2.060936005158067630e+00,-6.734810893823409472e+00
1.338251964127965266e-01,-3.124426305776802693e+00,-7.208970130665607989e+00
-3.504202346129481338e+00,3.350191730251347977e+00,-7.916271052135158470e+00
3.604657645337665084e+00,-4.956583973881266481e+00,-7.833199322498988870e+00
7.638849188010551350e-01,-2.266703686892398650e+00,6.279988465212787752e+00
2.712896371293343378e+00,-6.133992766946470887e+00,1.526284078400965916e+00
2.487930759361486999e+00,-6.319445060928290836e+00,8.815031423210034633e-01
-2.414225352796633306e+00,7.865100941796428380e+00,1.009916649000258904e+00
2.609474267078519372e+00,-8.251891898504126743e-01,-7.972482851460591213e+00
-2.540517625694101778e+00,5.493013399935130714e+00,-8.116689842419924972e+00
-3.541655070831988272e+00,5.082861940233507347e+00,-2.983659652255811423e+00
-1.730209070828733875e+00,1.619567639814045376e-02,-7.806995234477522416e+00
2.245412496522507961e+00,-7.333470183732134551e+00,-6.985647910368175673e-01
-1.981226978572245834e-01,4.087827642126392824e+00,-7.547598001698872849e+00
-3.196248575159768013e+00,6.589608966538390789e+00,-7.020621176440883460e+00
2.594780374708171244e+00,-4.604068455003631044e+00,8.642991644977094268e+00
-2.716630949891937874e+00,8.326029740574844240e+00,2.122088173603533079e+00
3.333292950553234046e+00,-3.140041771773891544e+00,-6.137480809609001220e+00
4.253174228168286497e+00,-5.544898104704067521e+00,2.501284547862836050e+00
2.604374459043334422e+00,-8.039681149508217217e+00,-3.383596360936021785e+00
-1.549286256141775286e+00,5.888549715132359808e+00,4.781595405079979599e+00
7.719199205789013807e-02,1.657804906905132603e+00,6.778286502560207261e+00
-2.366810360911492772e+00,7.795371439885411924e+00,-1.525369261508069618e+00
3.604208219005709424e+00,-8.999661204623846444e+00,-5.543396653253694906e-01
9.591072505547794114e-01,1.078491637533895986e+00,9.080010506233563206e+00
-3.075262811417029507e+00,8.925231890939905099e+00,-1.068394779873562461e+00
4.596326910980199187e+00,-6.673322057599696322e+00,6.050323988597371638e+00
-5.106691216538367328e+00,6.073375646701795638e+00,1.336301691788308155e+00
-2.874334919136756650e+00,2.090798278006575917e+00,6.951701106420642873e+00
2.744104125463660893e+00,-1.838678318450857940e+00,-9.134404547481183911e+00
-3.526766072385841611e+00,8.688785273348219818e+00,-2.259912267726587043e+00
-1.851446128935552160e+00,6.469072982347165990e+00,-4.073886484067471336e+00
-1.467420468190953509e+00,5.327928917549002996e+00,-8.093457875379902688e+00
1.298496909769012997e-01,-3.254096025378239165e+00,-7.753225768792120220e+00
5.501887432093723440e+00,-7.454581058392240500e+00,-2.062310272214913809e+00
-4.805746537943005769e+00,5.600558611852425983e+00,2.435164782378632875e+00
4.270706140537206430e+00,-8.314249094246312310e+00,3.837973322751190075e+00
-1.226256199403101377e+00,1.420125715521525889e+00,6.492082224311956473e+00
5.692102950342465828e-01,2.686519366847444523e+00,-7.759332101964694139e+00
4.241358503560043403e+00,-9.164975242040640069e+00,-1.078989914846474107e+00
9.122133767734365017e-01,-5.149745031025982911e+00,6.225151934715190905e+00
-2.597989643799345050e+00,6.425523791026799714e+00,1.064096135288144618e+00
-4.035614375059222603e+00,5.900138228001433838e+00,-6.712868943336594896e+00
-2.503678002350016030e+00,6.332200072262633483e+00,-1.146901452682628664e+00
5.400792307117823654e+00,-6.237853239816835149e+00,-3.240698831239971156e+00
2.207428389817304382e+00,-2.640457511186434125e+00,9.362332171034422501e+00
5.476202324678488331e+00,-6.660271064145828923e+00,3.023983232392125853e+00
1.217475761011155067e+00,4.788396761889802677e-01,7.224092061858805813e+00
-1.489345271954848782e+00,1.217040768532251072e+00,-9.723826167660439168e+00
-8.544392640716250709e-01,4.152156084291791949e+00,-6.189972950039883237e+00
-1.820790336412182464e-01,-2.280010715837734736e+00,-7.087528480229122962e+00
-3.937999419059374784e+00,5.657713912933051148e+00,7.093877625744521076e+00
8.235640371959304096e-01,1.202147351326704028e+00,-7.148445115905975200e+00
5.112059843433057971e+00,-8.360404399877690906e+00,-1.747287234526980315e+00
3.041480128085234380e+00,-1.677528568063504810e+00,-7.903130485581739251e+00
2.311949697238091961e+00,-3.995546220438514595e+00,4.945389170130341405e+00
3.351912450851759484e+00,-3.014993661145913162e+00,6.149382477973563077e+00
1.515563822482995482e+00,-4.491160625044449795e+00,5.060996130657986924e+00
2.328699744702990987e-02,-1.257449503664659796e+00,9.857579965616578122e+00
-4.231154998969610226e+00,5.241775975670720733e+00,6.837498331491328685e+00
-1.720855994689826973e+00,6.267656601511275127e+00,4.610364977136163667e+00
5.158059791361276680e+00,-6.072487848087581241e+00,2.164853560528007037e+00
1.179982886436780731e+00,-4.600507432265390939e+00,8.374532111370028176e+00
5.231947931798553775e+00,-6.179677728083161625e+00,4.342306498815162286e+00
1.972551417772720139e+00,-5.674977304104880993e+00,3.596947989190353745e+00
-5.090452213977957108e+00,8.458905253370080146e+00,1.889544319395346728e+00
-5.881303654559081329e-01,1.050225220898080236e+00,-6.488688909524024773e+00
3.034141995351757326e-01,-5.005903846243010547e-01,-1.003694074798984204e+01
-1.181159480759373936e+00,-1.306974751851237349e+00,7.539138104670215945e+00
4.221070449124689539e+00,-4.143461456299210255e+00,-6.884929531421717819e+00
-3.349947554628121882e+00,3.526270942794675456e+00,-5.548517383521955892e+00
-1.187097195196757937e+00,2.329598396395709869e+00,6.251203365002515611e+00
-3.135622902568885539e+00,2.493486793116488798e+00,6.332506667739229655e+00
-5.054083454542457332e+00,6.004908502607279708e+00,-5.113075720157786441e-02
-8.123910988677246481e-01,-2.227404836322742998e+00,8.573838046950561065e+00
1.808194114241643558e+00,-6.438981417733355528e+00,6.644617770014554559e+00
1.695868378399594478e+00,-5.081846060992093683e+00,-8.201896508613588210e+00
-7.029638315255005709e-01,4.364115554878035041e+00,-8.149719090486916784e+00
-3.187139022333549399e+00,7.983784071543118976e+00,-4.616728423669533399e+00
-3.098658737136221308e+00,7.489182890752357658e+00,5.751433810520110157e+00
-3.524704648782186034e+00,8.870763129842510253e+00,7.015511364872285549e-01
