4.490878845874813230e+00,1.001413508220311055e+00,-9.785590524291869485e-01
-3.759002364357455939e+00,1.033067094997017543e+00,-7.683057429276758388e-01
-5.045818925361807317e+00,2.133964736085487868e+00,-2.131905182728327741e+00
-3.127144547982699946e-02,-1.209601872762732455e+00,4.151868489779228177e+00
2.221278005779655285e+00,1.492683208374493864e+00,-3.048341626064329901e+00
-3.334616612079445819e+00,-1.770241462801975585e+00,2.629053294414110287e+00
-1.682061850784734025e+00,1.475614620828409551e+00,-4.930300566209923296e+00
-2.968880022557144116e+00,-2.416521211887062037e+00,3.500513028953824435e+00
1.317284706021912388e+00,2.393571855706790430e+00,-3.441208141431984391e+00
9.104546173730773129e-01,-1.356136218948917449e+00,3.775457592701130682e+00
3.047351702320269418e+00,1.809342301371862805e+00,-4.697390409369106123e+00
-1.290950898082690701e+00,1.707244856037001268e+00,-3.287605480640714450e+00
-5.128485053500578594e+00,1.882300317016693869e+00,-5.364824504126880500e-01
5.281379933615348854e+00,-1.000594522757015215e+00,2.362327480317853556e+00
4.753790353867457519e+00,4.792899359230429202e-01,-1.621890731200515690e-01
-4.653934374520040329e+00,2.672307980093091007e-01,-1.772920275458833350e+00
-4.303807884924844451e+00,7.093964282020250867e-01,-2.753334666620025573e+00
-4.228300983597454099e+00,1.023958184088827883e+00,-3.302106641079449734e+00
-3.849950680828474692e+00,8.036451326008686724e-01,-7.078810972801681256e-01
-4.222939411737665516e+00,-1.714146561082463771e+00,3.772652149442246472e+00
3.902531761602537230e+00,-1.070136655474685505e-01,-9.492629313875434738e-01
-2.299034892421247367e+00,1.383966293967181072e+00,-2.871397901121233165e+00
-1.794312299099649399e+00,2.490313734592753736e+00,-3.091355089189682381e+00
5.763842595887125775e+00,-1.229179192343379468e+00,8.136270614314535798e-01
-5.075330394247232757e-01,-1.823985215061295850e+00,5.383616496377581662e+00
-2.884925005894706240e-01,-1.411980349604884388e+00,5.272378616020937159e+00
3.098174212793979088e+00,-9.696556363484438723e-01,3.729702155125374841e+00
3.523089889426098242e+00,4.646260063793953843e-01,-1.735181241039254640e+00
5.453446695382409004e+00,-1.733810309084449441e+00,5.082079754526155346e-01
-4.108847518091369722e+00,3.692505826197133301e-01,2.721542271878926389e+00
-5.365223599840772906e+00,1.792990717384311594e+00,-1.817794359951221850e+00
9.654074395137198783e-01,-1.407222947613389286e+00,5.063351528085429543e+00
3.051836431475024369e+00,-2.191411802414132470e+00,4.572228142020319908e+00
-4.786804241583261899e+00,2.141205628346024792e+00,-3.079584002419586852e+00
2.576275469229655446e+00,1.960401874828344715e+00,-4.996900193776196097e+00
-4.179124107289807988e+00,-9.610919976636211892e-01,1.045397142405029234e+00
-1.262723194563409868e+00,2.484392994393182175e+00,-3.411207784915244012e+00
-5.646132800456729051e+00,8.717440979464344819e-01,9.355304491313209958e-01
5.036355003528298901e+00,7.309566718976956423e-01,-4.377659439512306405e-01
-2.563487722407995495e+00,-6.128242019491839665e-01,3.255693756368835956e+00
-3.354675361356381114e+00,-1.344822162522554931e+00,2.243310971054882419e+00
1.635257097580932850e+00,-2.770840360949285763e+00,3.470480492674634654e+00
4.156295136573048055e+00,1.842763764713001295e+00,-2.586644484795250332e+00
-3.423924515544123803e+00,-1.008420162642157170e+00,4.540156933196563216e+00
6.435255840069147304e-01,-1.577198453624291563e+00,5.197113274037174158e+00
-2.784845242528353637e+00,-4.429255716580668412e-01,3.994990308189855455e+00
4.050499440131431150e+00,-2.310769724999747421e+00,1.651728364064041665e+00
1.094312789543388842e+00,-3.103357637172760253e+00,3.961942934256885263e+00
5.344148618086025593e+00,-1.386992253410193499e+00,-3.324427090059127732e-01
-4.799491024892838631e+00,-1.472475015692731981e+00,2.033240163336338391e+00
5.189183477736224681e+00,-1.711209309180856897e+00,2.395172200459422474e+00
-5.477458509774257855e+00,9.086151862093817533e-01,-1.930032544901528313e+00
-1.343149101085074681e+00,3.188581528185853387e+00,-4.361851717834666964e+00
-1.378746581493724310e+00,-2.595838463652107020e+00,5.127928181919679140e+00
6.366094673134933268e-01,-1.086895404395319842e+00,4.352003275011595562e+00
5.425486586467947348e+00,1.828594303343468175e-01,2.046951863100935909e-01
5.618109014468603668e+00,-1.096636532778265005e+00,-6.235063048250866213e-01
3.648970961155040271e+00,1.064582147604391960e+00,-1.782555513869923169e+00
-5.604107722868231001e+00,1.265470783153605394e+00,-1.596209858808114612e+00
-3.063332397117980221e+00,1.466867451565138758e+00,-4.439881598261841589e+00
4.523112534486882552e+00,3.563138898692962409e-01,1.452488574342388483e-01
-3.998281246455388072e+00,-1.091821719460081441e+00,4.267763956034986705e+00
-3.140422029675278726e+00,-4.983209899276673238e-01,2.491287828038759145e+00
-4.632805050480899745e+00,1.189227964100712409e+00,9.849855472305660831e-01
4.428161150970741033e+00,1.816290404790792845e+00,-3.203288682310692970e+00
3.326334205430188984e+00,4.324405282495155656e-01,-2.044329477559858610e+00
4.970354586856926105e+00,-1.714367632611381254e+00,2.876595078529819993e+00
-5.038703237657437661e+00,-5.577256895610340770e-01,3.057551172536969286e+00
9.719553612382862973e-01,-3.002817246358555625e+00,3.856576313555156066e+00
-3.505962600796046935e+00,2.748474682094310229e+00,-3.791561223249233059e+00
3.243453494596780118e+00,1.927944918378362849e-01,-2.858092074557270212e+00
2.908716277934912497e+00,7.156731798401596567e-01,-2.467342736321817220e+00
1.717303354653683556e+00,-1.242578824727142761e+00,4.635281497673088502e+00
2.754454663972938366e+00,2.494267532469282678e+00,-3.491166063990180479e+00
7.594309723815183266e-02,2.813057593916588939e+00,-3.748370238740903471e+00
-1.864003025179360229e+00,-2.089183420897239518e+00,5.193973988852256696e+00
1.091906276468936898e+00,-3.140619393976184615e+00,4.248358376960899463e+00
-5.056384652356064713e+00,-5.770166907846113746e-01,4.316246674381984949e-01
3.834361123197838506e+00,8.594255581715003478e-01,-4.305402603381361715e+00
-2.639562404262938422e+00,-2.538143061561114244e+00,4.373835804420883377e+00
4.918631188393502995e+00,-1.793634390454711680e-01,1.263933950567996733e+00
3.760672039698059965e+00,1.283185045449398931e+00,-1.990540818449022309e+00
5.914950615961132918e+00,1.536299836558376319e-01,-1.209564393422391859e+00
-1.007549854882659135e+00,-1.044923825417462204e+00,4.569929512461354371e+00
4.091710071042491847e+00,1.675696159642122263e+00,-2.249322356868304063e+00
-3.830710112024640956e+00,6.294498255188288871e-01,-1.510862601020258378e+00
4.530114294636996775e+00,1.568589719402142979e+00,-2.245044184272529719e+00
3.488122190371171438e+00,-9.472178239340905970e-01,3.445932703622156090e+00
-4.024090703791282309e+00,1.393093559604809295e+00,-3.720845537328266950e+00
-3.851206553786565401e+00,2.696411888050321282e-01,6.354861334304228171e-01
-2.397176124887145487e+00,2.628570875553754682e+00,-2.750800001283077556e+00
3.515408841051685496e+00,-2.404625482381969270e+00,1.913545888541527518e+00
-4.985347033218705981e+00,-7.004812035393397085e-02,-1.098243455018237169e+00
1.407085924556895407e+00,2.839774100277904001e+00,-4.113111607057777341e+00
-3.847174211699640800e+00,2.571359234200634614e+00,-3.583952517080558842e+00
-5.236994486556564965e+00,1.520173606962548218e+00,9.252934928646298907e-02
-4.004424840100048399e+00,1.468445259134359304e+00,-6.128084448888896363e-01
8.797685165508156713e-01,-2.340150991248354906e+00,3.372070656121989085e+00
-4.347007715561947983e+00,1.129279970178054704e+00,5.964995207052457005e-01
-9.573800294902584662e-01,2.683983223848580124e+00,-3.530444677920700158e+00
-7.663405510555587608e-01,2.126499879705987972e+00,-5.430050521548153597e+00
9.841394442913776741e-01,1.151915935453381667e+00,-4.841191549310779330e+00
-5.089563863285143874e+00,1.049508987170731794e-01,-1.033275203024865307e+00
2.994850968885933273e+00,2.244483623370928882e+00,-3.205570620680499250e+00
5.386352049867523029e+00,-9.602949579464227226e-01,1.958223452421243183e+00
-3.003645712383199662e+00,-2.259414697588037590e+00,4.449435160037129577e+00
-8.547439142113237853e-01,-1.853031556433796023e+00,5.427621078612746786e+00
-1.422969275337845341e+00,-9.679579006164947819e-01,3.838150596787512026e+00
5.577106516184634266e+00,-3.731390961478270318e-01,-1.943265393831659305e+00
8.698136602451312926e-01,1.865885727465450117e+00,-3.395277561948275569e+00
3.846988575590629456e+00,-1.531544474635954778e+00,4.017504844796784269e+00
-2.437480262100851114e+00,-5.493010097448594031e-01,3.353744895016167682e+00
-4.761005303017172841e-01,1.282101408778711704e+00,-5.169216754155938176e+00
-5.215263755655416666e+00,-7.350680619624954115e-01,2.696750928430618810e+00
-3.624604091051249810e+00,1.155229948263056361e+00,-3.793388930922808822e+00
-5.941829977715668010e-01,-2.147434120776099853e+00,5.449233812552629175e+00
7.311908673653564339e-01,-1.777314832329873973e+00,5.345645192661116596e+00
-4.316279977564332349e+00,-3.288121223958486161e-01,1.900359563880129610e-01
-4.806802230443036450e+00,-4.249043592163610078e-02,-9.935891738359289294e-01
4.957110196713495398e+00,-4.854167834152343652e-01,-2.356719316084550986e+00
-7.477973287202536179e-01,2.703529009570219355e+00,-3.581496651189149727e+00
5.191726179604947422e-01,-2.713208840664209642e+00,5.369872412298473563e+00
-1.139195262267238773e+00,-1.626542521297757560e+00,5.340317553332075917e+00
3.278637460010536131e+00,2.289837441582724953e+00,-3.296971203857238297e+00
-1.586587141393634770e+00,1.509247445018227163e+00,-5.001354358287427360e+00
4.886053221233917832e+00,1.299900114034017617e+00,-3.085978565201140444e+00
2.100223849053334479e+00,7.239725574650369699e-01,-4.219504517865940052e+00
-2.641396599607761075e+00,3.011778305012656531e+00,-4.184244577956231836e+00
4.308474061508078101e+00,7.070293615949494459e-01,-3.864918058629207565e+00
-5.568856174121181724e+00,-4.872674777171650540e-01,7.141709404590644850e-01
1.930532964380392125e+00,-2.338770295532281995e+00,2.959612132928001849e+00
-5.772548710785645021e+00,6.042944479046463702e-02,4.384723470636319731e-01
3.173190796924586721e+00,-8.785931522107723879e-01,3.169960074244495551e+00
-5.569288878616659666e+00,1.043506672112043177e+00,-1.505973064947807361e+00
1.881511898674800731e+00,-2.299179400943859530e+00,2.939789554484413703e+00
-4.018076718141499803e+00,5.809383496196428576e-01,4.409473226345609342e-01
3.451917410166005507e+00,-2.366964277672490180e+00,2.046733019598526937e+00
5.856708115558981298e+00,-9.911899651259578059e-01,7.133025209557246615e-01
3.352398304219199598e+00,-2.606556358849604127e+00,4.134570013594631277e+00
3.152465065305865011e+00,2.299300648030626171e+00,-3.161302159425150915e+00
-5.263044999942282587e+00,1.861657213978347158e+00,-2.143947281925680848e+00
-4.404775014596837401e+00,-1.215383519835047554e+00,3.910511774973794097e+00
-4.033662931045243205e+00,-6.583368643300677725e-01,1.209492415057617842e+00
-4.238094573433339729e-01,-1.139226721599277070e+00,4.469367646655991955e+00
-5.900102063649396378e+00,5.109209829171165174e-01,-4.872628207311447968e-01
-4.011197716873570407e+00,1.833620731981924434e+00,-3.842317328029270840e+00
-4.314886683851065996e+00,2.008278777564542761e+00,-8.779473409076687940e-01
4.738112094458217349e+00,-2.082634592253409522e+00,1.120084368601266922e+00
-3.582196306398886421e+00,6.271617711949351026e-02,2.902357024814448572e+00
-4.068172797997156920e+00,1.270314141150490572e+00,-3.597550287876766006e+00
3.671648726777030802e+00,4.680385830720143470e-01,-4.002770106369439418e+00
-2.312907783821097407e+00,-8.555729424024688390e-01,3.261734743970461814e+00
-4.545293039806756141e+00,2.427893113931287594e+00,-2.540990256837345029e+00
2.398321291398169741e+00,-3.081907066809340012e+00,3.492757015413973321e+00
-2.961352726240503497e+00,-1.624024806456935588e+00,2.625196749276463404e+00
4.808876931645399644e+00,-5.437352990174515455e-01,-2.256397295745463438e+00
4.427089087290889680e+00,-1.590382733745068000e+00,3.559259610912867799e+00
5.194129454031146675e-01,-2.822133089230534964e+00,3.758337604837339363e+00
-1.802122965039989033e+00,-9.176342621431083924e-01,4.749513699700582237e+00
2.447900080514166188e+00,1.907141006932213223e+00,-3.019975659121159062e+00
-3.793288247460285589e+00,-1.547780690033702555e+00,4.243029049874687431e+00
3.027238404455378173e+00,2.004379874928858829e+00,-2.769258270270507083e+00
-4.862065655186534663e+00,-2.371679682589298011e-01,-6.553296785590267959e-01
3.462514812246181961e+00,4.714994987863473375e-01,-4.077296889755202436e+00
2.833606957438468577e+00,2.081602015567157959e+00,-2.964542460541641944e+00
-2.878213525955058749e+00,1.440127114977763467e+00,-2.507270706889978662e+00
2.571806606139027451e+00,2.432743145086906367e+00,-4.549840597450281798e+00
4.010697417445464374e+00,-2.668914140698403603e+00,3.346118740009312198e+00
-2.907723498452000843e+00,-7.362095115804213608e-01,2.610211950402670844e+00
-3.496287318221460438e+00,1.032507984610109064e+00,-1.489907437793652090e+00
2.805066458629322801e-01,-2.043505437494507859e+00,5.535574990010769802e+00
3.165224167974450165e+00,3.027306914798600368e-01,-3.621818003104427586e+00
-2.706053085363729238e+00,-1.840062425411837177e+00,5.128031654039543419e+00
-4.012759914422201035e+00,-5.624777376913035060e-02,7.535666067022968040e-01
-3.880907989742697239e+00,1.982825592232138501e+00,-1.234021421719330824e+00
-3.515381560780109105e+00,1.175648454844018698e+00,-1.523992429806544591e+00
7.810607432540503936e-01,1.030653641835562073e+00,-4.476442490055399404e+00
-4.879349853851773666e+00,-1.377358104290787200e+00,3.004589124925470145e+00
3.088703480148021097e+00,-2.253943861661474202e+00,2.048290575777435230e+00
4.569517905016338588e+00,1.582989414497839364e+00,-2.856477102671626689e+00
1.768827008069546736e+00,1.265678619607435884e+00,-5.136547517712073407e+00
4.749504900767870907e+00,-2.235603988811988518e+00,1.574084142172823331e+00
4.428211201959409316e+00,1.333949816118860321e+00,-3.803242860759114663e+00
-4.276306038885576477e+00,3.245052112907370057e-01,2.842440875205662021e+00
-4.340071400233312282e+00,3.216867085734246845e-01,-1.942789821312787213e+00
-2.701331140564424693e+00,2.745380902207985141e+00,-4.587732267811725606e+00
5.662540148641954652e+00,4.389971025802196780e-01,-9.755399140705879324e-01
2.896869457856182439e+00,-9.682599662583143418e-01,3.220652755851866278e+00
5.910890026771109085e+00,-4.984387737416728914e-01,-5.012978161802745802e-01
4.891063485394089860e-01,1.138467319892798590e+00,-4.828216953525977573e+00
4.728616540511556110e+00,-4.552042567664898454e-01,-2.582321525329933642e+00
4.865818474600296817e+00,4.428097899668737569e-01,-3.353881806871024995e+00
1.868218022884319485e+00,-1.801209137559916407e+00,2.993322400492925528e+00
4.177006413399968032e+00,1.916344583550694813e-01,-2.245093702182161255e-01
5.246274164674799678e+00,-1.417512761933390708e+00,-3.819658668987556127e-01
2.523984516696228031e+00,-1.944476237954290587e+00,2.662423525558776038e+00
4.141084006328641820e+00,-3.336952169076226049e-01,1.716548433293706655e+00
-4.539837684766037107e+00,-3.460116631893229711e-01,-1.627050945674463900e-01
2.802036287046433816e-01,1.173224536268269835e+00,-3.959297146677669854e+00
-7.267215635928770956e-01,3.148119189046441058e+00,-4.339922293936147035e+00
-1.123515166956799982e+00,1.372052443605487948e+00,-3.710087350343904244e+00
1.808419175823108294e+00,2.714149417288537869e+00,-4.761778853210794082e+00
3.569578443190520201e+00,2.098662680149415483e+00,-2.996997806277295506e+00
1.401847815145189191e+00,-1.700299441009551771e+00,3.233539196121026915e+00
-4.440256829996475751e+00,-1.299526588129317761e-01,-6.688352123527340209e-01
-2.769859903075085228e+00,2.800065917131840276e+00,-4.396906757871971827e+00
-5.370843165935094810e+00,-6.684655935145653594e-01,5.270770653824692342e-01
4.525346549980086230e+00,-6.923007697303892316e-01,-1.977686059010630437e+00
5.342257472979178523e+00,-3.014702424464871244e-01,1.190345108826965426e+00
2.224167232287144191e+00,-1.239183392881797685e+00,4.412613919133031359e+00
5.590690311186243378e+00,5.780928857924233499e-01,-1.726735051019064215e+00
-3.939945595750789842e+00,6.430079845663466687e-01,-5.001201526069729564e-01
2.966603887840120635e+00,-8.776253956346979912e-01,3.153532704185876945e+00
2.624499855492013367e+00,-1.075402581745370512e+00,3.862735445757674135e+00
2.115018089198948292e+00,-3.135294191900607874e+00,4.077400886961432214e+00
1.725592042891014755e+00,-3.095355844428506309e+00,3.996375320286842836e+00
4.335829815395752185e+00,-6.876107280742214112e-01,-1.537826295593451187e+00
-3.896509933321083530e+00,1.006546554709646657e-01,9.793680468090121272e-01
-5.811426058861641764e+00,-2.569888754755153548e-01,7.899981693505613300e-01
-4.003518369476977590e+00,3.202119514959722579e-01,-7.043452785937241722e-02
6.099577395500288546e-01,2.120976096643814035e+00,-3.478088527421884457e+00
4.481642856627747307e+00,8.899887862178200715e-01,-8.360670512284881228e-01
-5.037943779764037622e+00,-1.201126723089091797e-01,2.928087061928541512e+00
1.052968986734448414e-01,1.036772412817839051e+00,-4.232099778402257151e+00
3.951848770899930141e+00,-2.248986945300439633e+00,3.951430242574428320e+00
-3.848200888691447386e+00,1.229051786032098192e+00,-3.635538546643057867e+00
-5.392621664979857066e+00,1.357088991336019568e+00,6.059914968248262257e-01
-1.799192417787675913e+00,2.576465038909730332e+00,-5.070324480115771415e+00
4.774290927808157114e+00,1.318193511560586950e+00,-1.838597871950585994e+00
4.962118668201257243e+00,-9.063046769068169306e-01,-1.652438049140185328e+00
3.639784163572294506e+00,-1.962530177155905164e+00,1.455802981480686764e+00
-3.892898137826254157e+00,6.039056243566179871e-01,-1.295438063542226625e-01
-3.736148255560236553e+00,2.634328163481737484e+00,-2.258606559859836160e+00
1.056001772896628887e+00,-1.416207755603133167e+00,3.617617279164316191e+00
-3.938938029982910205e+00,2.450425088969713505e-01,3.287219017360487605e-01
-4.487685071539982418e-01,-3.139981475411628420e+00,4.570086252787209702e+00
-7.905176047776375503e-01,-1.990485238086708186e+00,5.500676014606418640e+00
-4.638666763092876621e+00,2.444885884092181438e+00,-2.217925982828726550e+00
-4.540231409160908171e+00,1.874081852054635622e+00,-3.404266676213327791e+00
5.680758408031714168e+00,4.193491144064760978e-01,-8.460701729069821653e-01
-3.121432862002812225e+00,1.825535604138743828e+00,-1.955411947610255385e+00
5.500651397031203871e+00,-8.685707706750156465e-01,1.576684595679615830e+00
4.853546016220104398e-01,-3.133848110363230521e+00,4.863224087425019881e+00
-2.268923739653324390e+00,1.840824334192342038e+00,-2.635144764664198558e+00
3.458784655436988764e+00,8.908590387528148025e-01,-2.006135596379061692e+00
-3.009857095457751264e+00,-1.892552496373963722e+00,4.804141100239823992e+00
-1.198108578257801524e-02,-1.162260947534094369e+00,4.261928610279759333e+00
-2.718691655105197835e+00,-1.214398643876282602e+00,4.861940190390799721e+00
-4.121795217823156499e+00,1.395057034923885109e+00,-1.418374137468104146e-01
4.016684080575756433e+00,-2.532807519322114453e-01,-8.887535578416624338e-01
-2.677660222486349273e+00,1.051699985338523380e+00,-3.473025820302022559e+00
-3.933766997800261844e+00,6.078687782753113833e-01,-2.241682044919217076e-01
2.958342598299225745e+00,-1.590860114621969634e+00,4.516997091560063460e+00
-9.431705561464002185e-01,-2.584768455229192963e+00,5.224598613770019995e+00
8.964421115529871420e-01,2.912238660303660520e+00,-4.773910205257089423e+00
-7.450006177577005451e-01,1.437708995055936079e+00,-3.708338522555399752e+00
-2.429818974307616397e+00,-1.139594696056726031e+00,2.977673862334117239e+00
3.779199493368788687e+00,2.101019777973553160e-01,-3.654410519165919968e+00
4.523639184351998521e-01,-1.682978245412283469e+00,3.552228998522356740e+00
4.957479143518913389e+00,4.894601037762267293e-01,-3.086787762586279182e+00
-2.306542651286653367e+00,-8.979391791223390040e-01,3.181988208104235660e+00
-3.836746157995590600e+00,-2.521574447404790337e-02,7.749802006335245741e-01
-3.863341530741550400e+00,4.328166519142319646e-01,2.266823164841766491e+00
1.794985616784706917e+00,2.641140500820207127e+00,-3.763075134035181790e+00
-2.188117436344236388e+00,-6.483242465734300186e-01,3.850457768763172695e+00
4.676815504398587287e+00,4.740844031424447658e-01,-7.345029482641145246e-02
3.615370284105676735e+00,-7.627461848387675492e-01,1.862030879010755591e+00
3.925983836855928555e-01,1.803826731794072380e+00,-3.538125285747355964e+00
3.352418677534223512e-01,-3.069776870488746479e+00,4.484709238658634689e+00
-1.547961868098065796e+00,1.234245560601083369e+00,-4.631313080562026840e+00
-5.299278315051834554e+00,-7.921329097444059775e-01,6.193350666028405449e-01
4.247117383566483717e+00,-7.323811301302007859e-01,2.744500174334919329e+00
5.096597916217689317e+00,-7.942648848062069389e-01,2.282716695868762358e+00
-4.904075153496490813e+00,1.836036022271975598e+00,-2.717854689297821480e+00
4.579710859244827681e+00,-2.352225817665297480e+00,1.469505295100374864e+00
4.069661441644713662e+00,4.148249387954120460e-01,-6.980263405641357055e-01
1.052299410912948652e+00,-1.884475096514108161e+00,5.384380587833052623e+00
-4.466176159530528267e-01,-2.979822883795778310e+00,4.117892473193696112e+00
4.217069650130360614e+00,-4.426464197456336236e-01,1.805993657816965969e+00
1.382662276995508366e+00,-1.561610407894850061e+00,3.414176881706176836e+00
-2.521031365270905766e+00,-2.520261346460588303e+00,3.720536487536711512e+00
-2.363169002315868017e+00,2.135096859676229641e+00,-5.045110031299085307e+00
-1.856986820806837191e+00,1.409770206062970876e+00,-3.420729709458823375e+00
-3.421962757100108110e+00,8.270634528613879377e-01,-2.282819546472844241e+00
-2.622657299657204621e+00,2.507470314610892537e+00,-4.752239238868772198e+00
-4.167442390609977565e+00,5.696520790740788875e-01,-2.584918520556681365e+00
-2.589321037154499017e+00,-5.585918880468321301e-01,3.325118655030864900e+00
3.675150396193243907e+00,-1.211122832757907997e+00,1.052126630032697241e+00
4.412654761238319345e+00,-5.936263639749090881e-01,-1.855849220876871097e+00
-4.936565020578030705e+00,2.126787933097609162e+00,-2.476605283158701099e+00
6.134130061323690430e-01,-3.142755438953920066e+00,4.726746319509984140e+00
-6.531101354683080951e-01,1.197314713813233844e+00,-4.337753413222452004e+00
1.071869632967559660e+00,-2.261252970948556928e+00,3.362763299756923452e+00
4.267461611136063482e+00,-6.992634599478384505e-01,-1.779512198520162292e+00
5.434863320452527624e+00,-1.906063221957722931e+00,9.524629626815857009e-01
-2.440740762405267716e+00,-1.424459598917356962e+00,5.036497701902000301e+00
-5.455782915316182979e+00,1.000428522810705267e+00,9.887530545934609671e-01
-5.199803645634523797e+00,2.074286177053779934e+00,-1.617912871324884705e+00
5.501035258919634963e+00,9.155642068929821520e-02,3.190576635581032217e-01
3.204204210112931328e+00,2.330791599366952127e+00,-3.906318610070073749e+00
-5.790616856624221320e+00,9.591356444482388444e-01,-5.900454059242867810e-01
1.676144756576710693e+00,-1.982072285461824235e+00,3.072435248613179848e+00
3.259950064190997310e+00,-2.007497670996757577e+00,1.720403051270484207e+00
3.170828409038165319e+00,-1.035421246613076773e+00,2.510567428319880001e+00
-1.038606508165138109e+00,-1.474083905726117472e+00,5.330957805788818504e+00
-5.477607787309231036e+00,-7.195956979706565892e-01,1.686397271242142004e+00
-3.964578409846239548e+00,6.873873859564159083e-01,4.762690178660482498e-01
7.185715614150015584e-01,-2.952519061376990273e+00,4.968123616519255492e+00
6.785109936664160957e-01,1.062159325089527595e+00,-4.649593268810892077e+00
5.636461298106658191e+00,2.385429726257695324e-02,-2.027612236012834135e+00
-6.800876452450814735e-01,1.195910285700943820e+00,-4.170593087754048689e+00
-4.759287769733197671e+00,1.113792227245807176e+00,1.125619182177220345e+00
8.855489369580453463e-02,-1.667388809423053120e+00,3.699043484717480457e+00
3.579065709202258638e+00,-2.889299194908049095e+00,2.882778730079766927e+00
9.506562685473005647e-01,1.666193701561456297e+00,-5.378761499277880276e+00
4.113731303667165662e+00,-6.603805145145881239e-01,-6.896587988807859615e-01
4.179982099297760101e+00,8.215670429801108510e-01,-1.084436201619284112e+00
-3.147340276366272338e+00,2.605766988408042106e+00,-2.476924434005774334e+00
-3.967323429990810002e+00,5.879741503121221902e-01,7.088767127825197356e-01
-2.256016377770075021e+00,1.419563913216539408e+00,-4.624657508449638854e+00
-3.987846720243484189e+00,-6.795300465542740698e-01,1.239698941956056677e+00
-4.747771460891662798e+00,1.194524777314293296e+00,-3.143260689123874574e+00
1.254938633610575005e-01,2.350170528102093925e+00,-3.552527021785464534e+00
-5.104294824028821509e+00,1.524686987617361655e+00,4.511417433151505008e-01
-7.577958033388341175e-01,-3.047090118482544518e+00,5.027257421834137929e+00
-1.502475241339152223e+00,1.975009474777518870e+00,-3.253133054178215744e+00
-3.660761375692198616e+00,7.570403903403449819e-02,1.531828626963897877e+00
-5.306561999789283668e+00,1.623443700879321883e+00,-1.968239183561342420e+00
1.457369087883820580e+00,-1.443411754996898111e+00,4.855504454879085330e+00
-8.162531614184365125e-01,-1.648893673515573477e+00,3.509300224059922257e+00
-6.208923688393312990e-01,1.704123508035804813e+00,-5.362838501351919973e+00
3.558563558622119594e+00,5.166968994150508143e-01,-1.838854295399538596e+00
4.084936112240391992e+00,-1.347889324409259904e-01,3.117087167084692245e-01
-3.248608271133363701e+00,-1.712200906937111355e+00,4.597633946946555028e+00
-5.162760031713935938e+00,-6.284838430260932807e-01,3.433116380734136941e-01
2.270523876811873176e+00,-1.372703211713069082e+00,3.035461535764042207e+00
5.835288312053073412e+00,-4.871310947538852743e-01,-6.057110636883044075e-01
-2.428589667049470435e+00,2.288923831037246615e+00,-2.727063779681857980e+00
3.116012177829175833e+00,-2.821123991840925438e+00,2.756902431702649370e+00
-5.183689855096655030e+00,1.114745184121913146e+00,1.035297253251840299e+00
3.804952948535681667e+00,1.253766465447366141e+00,-4.424334023432208163e+00
3.377337670591701091e+00,-1.920036295395562309e+00,4.440940442506168040e+00
-2.459562527497628270e+00,-1.446703755686914894e+00,2.869680335734109189e+00
3.560251906461463278e+00,2.161001143474131858e+00,-3.022680691431703259e+00
-3.825289523652540158e+00,-2.125607462805568559e+00,3.524647948056981228e+00
-1.100186344583567344e+00,-2.677515687633310826e+00,5.149642842029066081e+00
-3.154894995184117423e+00,2.614397103563365299e+00,-2.589345438465041838e+00
4.331227614967279038e+00,-2.090291332254904155e+00,9.837256030852763455e-01
2.177941841626489794e-01,-1.130701948263663104e+00,4.693559982425353105e+00
-4.392776183174713189e+00,-1.176993953628709511e+00,3.791241950599709032e+00
3.246825692931779805e+00,-9.422873581636382889e-01,3.386328737383928367e+00
-2.518515218041427417e+00,1.218988288636974282e+00,-3.261981457013402697e+00
-3.525189622721470517e+00,-9.021337437733406572e-01,1.869210822732642940e+00
-2.303489648271056733e+00,-2.252324904101582703e+00,3.275552697059207041e+00
1.450296154116168967e+00,-1.412653740743410991e+00,3.640298362826896117e+00
2.892249761517887041e+00,2.359363194564829680e+00,-4.567506048527112839e+00
2.170037370785463882e+00,1.865765246819103940e+00,-3.053486856212730416e+00
3.695104925446088817e+00,-2.721179169620587146e+00,2.572561341495463783e+00
-2.981622934380929291e+00,-1.112414599666631698e+00,2.312148247747325858e+00
-5.386891340970296760e+00,9.570137872820918545e-01,1.230018210240203524e+00
6.380641790500521382e-02,3.214981497559528112e+00,-4.856045733401581188e+00
-3.545433098767594604e+00,9.438125547583487984e-01,-3.178833389728964676e+00
-1.628031461699147364e+00,-2.814341657193594859e+00,4.585779322966459404e+00
9.957166027749800863e-01,-3.052498788325409329e+00,3.768243265450815116e+00
5.488441215359192160e-01,1.910090597931927814e+00,-3.465301073805836740e+00
3.142320231843304335e+00,-1.039316991728442385e+00,2.711010458094448961e+00
-4.350210732917713097e-01,2.751380711113816435e+00,-3.663888378991875694e+00
-4.954757317765408509e+00,2.110061185912316173e+00,-2.510141645882498551e+00
5.877391545884258051e+00,-1.117399448376601122e-02,-1.061659362684244323e+00
-2.582531593741736575e+00,-2.417526723187750193e+00,3.583478770280057901e+00
1.353113923967608212e+00,-1.365044491898626200e+00,3.554643127664302238e+00
1.315146692580476229e+00,2.348050594703637195e+00,-5.257930567508122266e+00
4.661292739618990488e+00,-1.084088827866418026e+00,3.018980736686222244e+00
4.674152304101676592e+00,-3.002345311731065003e-01,1.420530608078055756e+00
-3.080106652075626172e+00,9.292790870213634147e-01,-3.639290975979804887e+00
-1.023682388022195910e+00,2.017560231167907059e+00,-3.342776013894474652e+00
3.632336905686955220e+00,-9.038048933167491805e-01,3.379661651568751868e+00
-1.304391802160646874e+00,2.728923279105034183e+00,-5.193510032479879968e+00
-3.161347454927569522e+00,9.024291413899323544e-01,-2.850596681749534067e+00
5.149673614024618651e+00,5.531019264959167181e-01,-2.799271836044695538e-01
3.491845012774255075e+00,-1.946357234134275860e+00,4.195757515807669868e+00
-4.787337042641246043e+00,-8.688012824275345158e-01,3.390272462729363667e+00
-4.795010743888528659e-01,3.165962851295070823e+00,-4.469791812334428016e+00
-3.539879771612237658e+00,-3.462525353613383518e-03,2.813518990964785971e+00
-1.079576938233730354e+00,1.328998519585643523e+00,-3.753576743900980617e+00
-3.050413690497155716e+00,-1.871084924499789581e+00,2.779347740869827277e+00
3.957343853297732750e+00,-2.055001878234852530e-01,-2.709760516140910624e+00
3.010794520674961561e+00,3.200212492992061675e-01,-3.653588851967483730e+00
-3.973933618338132412e+00,-7.157590178333875786e-01,1.138661216294092338e+00
3.672381593682764400e+00,2.037820473335214266e-01,-1.448318527650807486e+00
-4.985253763797067528e+00,2.110822810725645926e+00,-1.430656507604434191e+00
2.952421162522330444e+00,-1.946867625178554162e+00,4.663833621324671164e+00
-4.066645806514422645e+00,3.492787565823104318e-02,-9.795407564338468043e-02
2.024253567066913284e+00,2.489606738438073563e+00,-4.995252559066190479e+00
2.407419689463319745e+00,-1.210362049722142563e+00,3.029804189528423120e+00
4.164934716710882334e+00,-1.716674719619026623e+00,5.982989301886023625e-01
-4.252619133000588469e+00,1.536729877823214130e-01,-1.048365353046237125e+00
-4.762695824115409593e+00,8.296745327742378606e-01,1.954779234262743248e+00
1.974989925130270496e+00,1.543180976307082730e+00,-5.282327417534234293e+00
4.678891063440778098e+00,-9.785656835316509650e-01,-1.513627096791237525e+00
-3.789374820194742810e+00,1.184389362987805061e+00,-3.685738270782930481e+00
-3.824705174881938508e+00,1.765645666076257614e+00,-3.975526849801629403e+00
-2.351999888241310954e-01,-2.549902717229888705e+00,3.658638565841587642e+00
3.700939517532955580e+00,7.038414397215670970e-01,-1.510322210806736232e+00
-1.283676112188658625e+00,-1.568931127838879114e+00,3.356844338672762884e+00
-3.984195233945415193e+00,4.629037472506959683e-02,7.030456422187868482e-01
-2.176220274698750443e-02,-2.956348514884021395e+00,3.946609958601329016e+00
-4.153265274265481644e+00,1.358858760201337113e+00,-3.534523872291514213e+00
-1.809176625706993446e+00,-2.194525004390271761e+00,5.229157959178397874e+00
-4.847969199554932884e-01,1.093353815739910306e+00,-4.569901613136358343e+00
-4.528423525093880464e+00,2.204797779033241145e+00,-1.042442113740427834e+00
3.975671583863852998e+00,-1.363630679017223957e-01,-4.519308533213727830e-01
1.973049761069921360e+00,1.779419148000078721e+00,-3.110986450134569203e+00
5.061672162287407239e+00,-1.793230719661177197e+00,2.804319839872985165e-01
5.865049892798747042e-03,1.517539632329784949e+00,-5.161396240149148440e+00
2.755562334972488259e+00,-1.082846325370813156e+00,3.897288841542821736e+00
4.164979602607528975e+00,-1.961676052152274474e+00,6.417491177966647697e-01
-3.898783372890780807e+00,4.005126246545026025e-01,1.196668742610615510e+00
4.915898306361682124e+00,-1.199085727448813810e+00,2.915732370560248032e+00
2.260365447786004456e+00,1.759922053407292575e+00,-3.029875765539126853e+00
4.133487582781939729e+00,-4.959139627986638432e-01,-2.076337313440547394e+00
1.466891681054133700e+00,1.210377305958968419e+00,-5.156125072418062949e+00
5.861570537753473253e+00,2.656509006569054802e-03,-5.595695179528139551e-01
-1.797769325927518258e+00,-1.511053488848481674e+00,3.211390568358562181e+00
1.971255808342108340e+00,-1.985069411430380182e+00,2.959295291488457824e+00
2.251219172605185115e+00,-2.072388301495429186e+00,2.660121902054906506e+00
-3.538129143779755292e+00,2.570815507307026682e+00,-2.225867537515129779e+00
4.361073590005617007e+00,1.532648598043705679e+00,-1.880163465707678006e+00
1.118456163898060574e+00,2.553890432023198098e+00,-5.306160337970217356e+00
-1.219333944132555247e+00,1.385600568502425745e+00,-3.628378756594190957e+00
2.924844444801268484e+00,3.267053279608142513e-01,-3.708141622647185276e+00
3.192684243240843323e+00,-2.428477583469783152e+00,2.167265820860322378e+00
1.910906911574359768e+00,2.694119823071899678e+00,-3.863577338112633708e+00
1.322939294315340353e-01,2.681538410562712471e+00,-5.372866446171365773e+00
-1.613358923042153670e+00,-2.195032799664406564e+00,5.343299348703975049e+00
-4.240454136516686567e+00,2.536003539854142286e+00,-2.012368184277237404e+00
4.485942461338620291e+00,5.229098655050586908e-01,-3.946294881355655315e-01
1.753862073701554891e+00,-1.279710280131171052e+00,3.820438502962221428e+00
4.665539002082023323e+00,-2.294181655656804875e+00,1.419274000645920575e+00
-4.320174069279812734e+00,1.531142699203556612e+00,-6.634136086278642763e-03
-3.429702563544087202e+00,-4.053439809691271323e-02,2.303137284390421424e+00
-2.410341716834890846e+00,2.862970100547418628e+00,-3.173551818748480358e+00
4.002163398533475913e+00,-2.710391792811571943e+00,3.112110332555532821e+00
-4.015934022070970499e+00,-2.629899032041081997e-01,3.664747813924218445e+00
-3.144685101883704981e+00,3.063951531926981886e+00,-3.515445989232949930e+00
6.671409308410540806e-01,-2.096485309440014877e+00,5.568071154214491614e+00
-3.792781754658316018e+00,7.468486497335661278e-01,-2.784165827230346668e+00
-4.388661494094069582e+00,-9.312044060810996671e-01,1.112883524332923812e+00
5.217435169599567324e+00,1.262436580071976566e+00,-2.062342535275407673e+00
-2.670044387236746530e+00,2.937831033405019276e+00,-4.104902449262305630e+00
-7.603675988881999359e-01,2.756184760363826314e+00,-3.675814676504022938e+00
1.432313820847061603e+00,2.863807376602194310e+00,-4.838405105193547051e+00
4.408344217234704487e+00,-4.902965066471430822e-01,-2.261115356246768293e+00
4.643522757703317794e+00,-1.142346747815273345e+00,2.951360894050979233e+00
-4.040880534282752734e+00,5.083263798877443174e-01,-2.140056634087861287e+00
2.058920760870079025e+00,-2.690258409123118089e+00,4.930259476615388436e+00
-3.560830072221679465e+00,-5.843904483105720749e-01,1.727793541990614967e+00
2.640345130680196828e+00,2.361708113238915718e+00,-3.346118755182250659e+00
4.442113266212283307e+00,-2.491757329112653796e+00,3.195691281548458385e+00
-8.233026807414858261e-01,-2.757593437732245079e+00,3.858393498095213481e+00
-3.151989963109643078e+00,1.845405947603862451e+00,-1.973076321225591956e+00
5.507150792590584029e-03,2.028674469072079933e+00,-5.439509322643929501e+00
-2.144754640278761393e+00,2.104581531749353474e+00,-2.771748247894124439e+00
4.740855945931137683e+00,-4.848516561090185917e-01,2.198108048639689116e+00
-2.643728724861849066e+00,-1.531919355982636732e+00,5.053468754712501010e+00
2.191225887544346662e+00,-1.406773716632384374e+00,4.741652500282619975e+00
-2.959964813766954972e+00,-2.170043976877005509e-01,3.175357891439826385e+00
3.432310925634844079e+00,1.189813283777473085e+00,-4.608745284110528750e+00
1.138758252553157435e+00,2.322045685745286026e+00,-3.611012864577486159e+00
3.733659573817690536e+00,-2.419592883871543587e-01,-2.332673476966930171e+00
-5.849097291280117794e+00,2.841630366431374677e-01,-6.471480608516684031e-03
2.911396983930638616e+00,1.706890397099191548e+00,-2.695359593168275669e+00
4.695905781836180459e+00,-1.731800356505370564e+00,3.110841384477648131e+00
4.710488507889611931e+00,1.293956841508828726e+00,-1.502456071003490656e+00
-2.825913846438434240e-01,-1.574150053409136385e+00,3.671935449943763530e+00
-8.493964751701762461e-01,-8.997481995109719577e-01,4.341306282880475820e+00
-3.770194067099024160e-01,-2.100386698124584228e+00,3.506916474405661344e+00
-3.848248763339614076e+00,-1.753776021685789610e+00,4.089983094294725063e+00
-5.680932973224878779e+00,2.077327072878848088e-02,-1.335295029212310858e-01
-4.409819645953279021e+00,1.661720305672797382e+00,-2.208322789541703191e-01
2.295135125386126518e+00,-1.151349018895330145e+00,4.159217081550265149e+00
-1.856740733246739383e+00,-2.671906705760035194e+00,4.679829865502663111e+00
1.408456961333146573e+00,-1.436604731393655854e+00,5.053743312159603818e+00
7.452160436220729434e-01,-2.294838294429540237e+00,3.371157296896605704e+00
-4.783008049615122381e+00,1.767044029034282371e+00,-3.068081764676055645e+00
2.317629753714417706e+00,1.048399259488488111e+00,-2.965505454189524936e+00
4.565207007643691028e+00,1.096624703197642603e+00,-3.658605405446235803e+00
-3.137234019178885003e+00,-1.930803127802309227e+00,2.727479928481619798e+00
5.350925246058479523e+00,4.791335147514927395e-01,-1.210551866351702865e-01
4.287270524491195722e-01,1.059521873479130516e+00,-4.216107836477030801e+00
-3.735103359510480558e+00,-1.288950594012079065e-01,1.457726710892102373e+00
-4.315235954481416059e+00,-7.681603949859751035e-01,6.848992737685037913e-01
-3.159253376256655255e+00,9.026212188244101542e-01,-3.285845991516747056e+00
-3.198696292884751546e+00,-2.339951435541001601e+00,3.468197836510461762e+00
-3.691008011941580014e-01,-3.069088836458277125e+00,4.647242341799081800e+00
5.577215904625911769e+00,-6.988894090929366198e-01,-1.429709459131978555e+00
1.955367745925970402e+00,2.709847882093558535e+00,-4.354425601402923895e+00
-1.344055333808235941e+00,3.025995731151067236e+00,-4.733767499084208907e+00
-5.637715174368767457e+00,1.579772740632369610e+00,-5.817475465038429716e-01
-4.004716381378016443e+00,2.662876701792330714e+00,-2.996480446332852932e+00
