7.014891207855044719e+00,-5.601809121385551649e+00,1.541707022621301881e+00
-3.071919498890089084e+00,6.785990073558881619e+00,1.925108314949948385e+00
-2.297450675769113992e+00,1.049675796568568664e+01,3.756592937859486003e+00
-6.589140644146568526e+00,-4.993365373587601574e+00,-1.330133550228372208e+00
7.568836786079551793e+00,3.730126416405604717e-01,2.065559956423779653e+00
-8.309846673864230482e+00,1.792651629629020915e+00,-2.662310380715593006e+00
5.795840327054464503e+00,8.566661077731533069e+00,1.711627044811506959e+00
-9.333857034238342010e+00,1.272535639801030682e-01,-3.707649642807855805e+00
7.282274435036352855e+00,2.328913977813982239e+00,3.732255853674794732e+00
-4.932959221387013038e+00,-6.009114306318076970e+00,-1.732742438851397226e+00
1.111568437922292674e+01,1.090729538368549800e+00,2.252365679561851852e+00
3.815438834466839957e+00,6.058766006005111393e+00,2.536501333966829641e+00
-4.868555596528242546e+00,8.711823651060115026e+00,3.657294416131329218e+00
2.464027108878020567e+00,-1.099263200778355376e+01,-1.531836221607396187e+00
5.978604567998226038e+00,-7.029854329637694299e+00,7.251192349066641896e-01
-2.768260653898954260e+00,9.248601239473581259e+00,2.431122375009987235e-01
-7.734905205109139370e-01,9.921784470544954715e+00,8.466252610790045985e-01
2.143463290181169822e-01,1.049112666433566687e+01,1.317257178083981461e+00
-3.319338461166227550e+00,6.826366812834560704e+00,1.501791365524895339e+00
-1.108562479451639149e+01,1.811130350938824130e+00,-2.251779338455453860e+00
6.041516183101522941e+00,-4.868998262234661034e+00,-5.613843534596349993e-01
1.921985290507845390e+00,7.072609837218569950e+00,2.048208894887517673e+00
3.085111545761280549e+00,6.692403856206945001e+00,4.104477171972511940e+00
5.337468470093342354e+00,-9.932783716273522856e+00,-2.357220170149261218e+00
-9.150693762205802884e+00,-5.790510542582115505e+00,-2.200253835345442610e+00
-8.636227484037380719e+00,-5.945111708879075252e+00,-1.442535341502640733e+00
-2.190692676165161945e+00,-9.258367211733785851e+00,-1.073387286157549747e+00
6.903895199678718342e+00,-3.292468725567144983e+00,3.614616506110006067e-01
5.327526990236293614e+00,-9.158169106372865187e+00,-3.389501585211749823e+00
-8.919946246654372857e+00,3.126750602608513230e+00,1.495764618369254340e+00
-3.223762112620397247e+00,1.057437580343974481e+01,3.187159905098937429e+00
-6.832485525268470639e+00,-7.617993604621267956e+00,-1.524763901900978880e+00
-3.779406057950687181e+00,-1.032800724968512185e+01,-3.217651366355922971e+00
-5.512703895759437644e-01,1.121846615158416505e+01,3.535360733495646723e+00
1.104355802534664832e+01,2.183375837720721524e+00,2.486517714592729522e+00
-6.738494997399855357e+00,5.050508300618894886e+00,-1.458550395443267922e+00
4.198968251865230705e+00,6.254887450666232418e+00,3.999077225537436941e+00
-7.926534100541339889e+00,7.647030240512003196e+00,2.084858919086756135e+00
6.784124763813022874e+00,-7.107256628988552372e+00,1.133404258900772898e+00
-8.104828958385445148e+00,1.244311208824037951e-02,-3.142952696885685238e-01
-7.659390122673018553e+00,2.329440120531446112e+00,-1.936562803347458450e+00
-3.907435027358413748e+00,-6.929686793602119366e+00,-4.547525972708647224e+00
9.234198436798861209e+00,-3.092044760460995079e+00,2.784658417616045600e+00
-1.115576482097663025e+01,-2.322744596825961350e-01,-7.387945495300437537e-01
-7.452343874292107984e+00,-7.303333945952211081e+00,-1.808714027709401595e+00
-9.453189528399615682e+00,-4.998812251956352148e-01,1.961903647227637437e-01
1.809722605217583880e+00,-8.427870247868439080e+00,-4.178229920617282822e+00
-5.363528992489873026e+00,-6.720956726178507701e+00,-5.050993705179974924e+00
6.545982791862088312e+00,-7.957814897636827922e+00,-2.920587913600439123e+00
-9.079194474195789510e+00,4.774010968882478778e+00,-2.184347826186612274e+00
2.156319044257553497e+00,-1.097577931453886357e+01,-2.886176846481188552e+00
-3.371443366319248458e+00,1.077205323879505983e+01,1.464960682962696215e+00
5.693262755639897144e+00,7.583771209568580751e+00,5.127320254245035791e+00
-9.956436925304577912e+00,-4.248016627086122377e+00,-3.715521388537378122e+00
-6.075807105306672007e+00,-6.237203533734088978e+00,-1.068581876346241133e+00
6.155798870826643565e+00,-8.526633620502588329e+00,2.211670823582545520e-01
7.372897387411074810e+00,-7.999122215776348632e+00,-2.441392315474964381e+00
7.250409418006038997e+00,-3.357093704540925483e+00,1.498618302672060754e+00
-3.953316004732887023e+00,1.061533578997757310e+01,2.234552522442583733e+00
3.413437321310365480e+00,1.010229192461467207e+01,1.857676665704529384e+00
5.213140189987206519e+00,-7.053967631584853848e+00,5.699809020906588808e-01
-1.144044184747179393e+01,9.582982415759047079e-01,-9.451977123787269619e-01
-7.604698051634613876e+00,1.810941854867073708e+00,-2.580398299071757218e-01
-6.734567211644923113e+00,6.075386112331231381e+00,2.673187264417035358e+00
1.048631846619304220e+01,-2.784404982813626361e+00,2.577381690801817005e+00
7.133076085598539784e+00,-2.630556783061638093e+00,2.322027549154342119e-01
1.165992196634896061e+00,-1.120875386223623771e+01,-2.769911307734962858e+00
-1.072531902778958113e+01,4.042668521992482944e+00,-1.741133305379775342e-01
-5.327608670237848898e+00,-6.397258410934171025e+00,-4.878989679645520106e+00
2.173481135736248682e+00,1.016993897745120812e+01,4.489534323173656638e+00
8.219363690197585726e+00,-1.572990398240986520e+00,-4.200446881978128211e-01
7.339309567490857944e+00,-1.458219027703861581e+00,6.889917155506696256e-01
-5.257748200639079883e+00,-8.244690869205376416e+00,-1.335620840693266365e+00
9.081888009405139073e+00,1.994089228458980623e-01,3.866329064856152353e+00
6.365297131602265068e+00,4.642313516074296764e+00,4.505705343249660544e+00
-1.052559052382153126e+01,-3.521864746543063696e+00,-2.710323442750844691e+00
-5.808714083335990708e+00,-7.059478696055630387e+00,-5.054018699127722059e+00
-6.766338087916810018e+00,7.163707233315085965e+00,-8.384611428783474985e-01
1.125472214833909312e+01,-6.909194542140277839e-01,4.951280784829621417e-01
-1.029409762305982312e+01,-1.421387695907685877e+00,-3.743365554298446529e+00
3.872469067211611549e+00,-9.043154787228690594e+00,-2.047388518674206903e-01
7.744027068845618977e+00,-3.256557239553834027e+00,1.865182246620875617e+00
8.875266612615313022e+00,-7.612017265072555716e+00,-1.893002373185897758e-01
-8.345654538013951296e+00,-3.971636573054471597e+00,-8.815676489900181600e-01
8.610958287333639660e+00,-3.411020460510288732e+00,2.546474094612161565e+00
-2.114723799386372782e+00,7.722739726968371521e+00,9.744951743434737690e-01
9.101484026171359432e+00,-4.100232645375443852e+00,2.327252470927636985e+00
-1.293464440261847592e+00,-9.518139202116058684e+00,-1.111001617165918054e+00
1.168804436546249992e+00,1.071665115176143779e+01,1.919579371328426598e+00
-5.470637203553108563e+00,5.179979351578000824e+00,7.971058353227588045e-01
1.883081234649259139e+00,7.230581425756904324e+00,4.471425260941613189e+00
7.588955218246383749e-01,-7.928579075541924759e+00,-4.278282013050121790e+00
-4.255064487631738501e+00,8.919898800825249552e+00,-2.326126188844631348e-01
8.501393940495070467e+00,3.037411263024789143e+00,4.425883167821996089e+00
1.417189373327871316e+00,1.042626106207945647e+01,4.210162047336201141e+00
-6.027180282958856772e+00,8.092672320387377383e+00,3.115555461036930485e+00
-3.507540362850201987e+00,7.030858482748190141e+00,2.806840372241855341e+00
-4.563142834847823792e+00,-5.605001862656386002e+00,-3.718675764950837070e+00
-5.819097146623247063e+00,6.088636641066766053e+00,2.455692553713759718e+00
4.783389654616402531e+00,5.951991440234358777e+00,4.343942194064254636e+00
7.775137549956361305e+00,7.832203372281600906e+00,2.812392778641074731e+00
8.751847427731393125e+00,4.340219084107665104e+00,1.023034412617995770e+00
-4.440502508776443591e+00,9.023943105973565082e+00,1.225707010699193938e-01
8.881164917101584066e+00,-5.355128588027693315e-01,3.446794685640099942e+00
3.209920214571946318e+00,-1.067201941460144532e+01,-1.554500314302034170e+00
-1.078185646240674522e+01,-9.194879472062539305e-01,-3.177777093576518830e+00
-9.634906521834473381e+00,-5.314259746378096949e+00,-2.234075267141642840e+00
-7.711513563792163239e+00,-2.463435487541219882e+00,-8.949591685869344726e-01
9.477948383435245816e+00,-6.293044498502859518e+00,-1.365611119289192210e+00
6.572048475768278664e+00,2.896351723501311870e+00,2.744214759352170852e+00
-1.857676447027196032e+00,-1.081195198305820071e+01,-2.108793773360016388e+00
-8.091007895281160600e+00,-2.884581894200956009e-01,-1.729690442456456034e-01
7.546658114219793489e+00,6.978543989357326005e+00,1.242915624257922014e+00
-1.042420953357142466e+01,4.717079630630236942e+00,-5.952652930484391147e-01
1.702420534526720264e+00,1.016186165378531570e+01,1.432062591265426343e+00
-9.420566286422081603e+00,-5.774162761301750990e+00,-2.803116179876189662e+00
-7.615685110809398140e+00,-7.636803169512622169e+00,-2.160557882047745348e+00
-5.471015246062709281e+00,6.345244031915485472e+00,-4.438036405627507897e-01
-4.196538439349509098e+00,8.526436709242961598e+00,-1.605388715176478132e-01
9.347170288608049660e+00,-4.869739942653599662e+00,-1.659713009478532841e+00
5.113245605864611854e+00,5.693637100196408340e+00,4.362368938293201381e+00
-8.099406456238083862e+00,-7.453455674766092720e+00,-3.945811582372064308e+00
-9.792094120181371153e+00,-4.748498691321690224e+00,-1.810428558126743193e+00
9.365551290286145303e+00,-8.568008977827255013e-01,3.502707103888972107e+00
6.023794086436111250e+00,8.508305760205026047e+00,1.756101902070830834e+00
1.074283315859503674e+01,-3.686029203188063263e+00,1.598224716965555681e+00
9.041464744708806123e+00,1.846726492765105032e+00,3.126747661500183240e-01
3.848659434326262563e+00,9.340883010731049652e+00,4.872964609233357614e+00
1.111628475621926171e+01,-1.954602936167100014e+00,2.920155041626812387e-01
-7.783409463252890070e+00,7.626036743249109406e+00,-5.815606109382956967e-01
-2.692142574204060335e+00,-6.727386605585535584e+00,-3.849327748766562696e+00
-7.491898955214514544e+00,8.328970414994016025e+00,4.114807944271837714e-01
-1.233543798521341106e+00,-8.702257600063640908e+00,-1.034750259350996515e+00
-4.095396250380604286e+00,1.042888873860016119e+01,1.828540463085543299e+00
-2.711867068752623400e+00,-6.624185824500776754e+00,-3.776387043355450057e+00
-5.308081417540758018e+00,5.702362513324946924e+00,1.354164843917898375e+00
4.894818749382701673e-01,-7.983871432149507896e+00,-4.171985764631346960e+00
5.649485733549124866e+00,-9.928017291174604964e+00,-1.927047249957235531e+00
-2.846139105487410337e+00,-1.032216384874262260e+01,-4.129796343456173524e+00
9.012209566489268298e+00,-8.224412402947571810e-01,3.557491633994656954e+00
-2.593509826982797417e+00,1.081076835508409317e+01,3.237725152916041793e+00
-1.140589024423483622e+01,1.987068086168296555e+00,-1.254588034942714314e+00
-6.751783694131376024e+00,4.670759383911241791e+00,-8.424611190022670559e-01
-7.521196919013592996e+00,-4.758220607051169004e+00,-1.106056023252062870e+00
-6.144298802061938680e+00,9.670087948982811099e+00,1.059831093522613843e+00
1.460520202333219109e+00,1.089319748264558463e+01,2.736452727987761069e+00
-3.360195554417415131e+00,7.883874964682910935e+00,3.790823716297551993e+00
3.478716841726980480e+00,-8.826366150326041549e+00,-3.889750623887017422e+00
-8.634416248689019469e+00,2.070240496504837324e+00,9.326985489667112272e-01
9.038343498852356994e-01,1.062398010380561253e+01,1.714630316749542915e+00
1.052092878755781946e+01,-8.457602396241110654e-01,-1.790752977867449414e-01
-7.867884549066885391e+00,-4.075951873379561885e-01,-7.874923704232171806e-01
-1.022296316844274466e+00,1.024813434784971555e+01,4.206954363892691617e+00
-3.102222715077572524e+00,-8.161793256212547476e+00,-5.165010272023612181e+00
-7.831168446976283448e+00,1.243282098869492591e+00,-2.394641084248641860e+00
9.007139917013130770e+00,-4.768086742760577756e+00,-1.742874530042045178e+00
-4.874481753292552177e-01,-1.116693886546850045e+01,-2.350550652366787396e+00
-5.676940993280218173e+00,-5.566745625873981140e+00,-4.540409783423639212e+00
-9.532896278524885858e+00,-2.951437643949195611e+00,-5.678512878502620653e-01
7.880996607814491739e+00,4.248831427184937559e-02,2.861120619455499892e+00
-1.125541492873228755e+01,6.186702461954370902e-01,-1.833869410335413397e+00
8.207355692876816988e+00,-1.128487259797312570e+00,3.088760949627681995e+00
-4.815931781718191473e+00,8.188757437568874309e+00,-4.518511093541054957e-01
1.038694074395104572e+01,-4.372493799512100487e-01,-1.833426293671432394e-01
8.290372932183441179e+00,-5.924415444298393174e-01,3.196818816538799624e+00
6.950818452157603300e-01,7.536839400798394983e+00,2.262287437291109704e+00
1.045880203295905275e+01,1.719969530701828786e+00,3.501023700680305772e+00
-8.830202793329673394e-01,-1.040795594839473281e+01,-4.459849741565904857e+00
-7.559185255917005186e+00,1.285765203935844259e+00,-6.943184065650084280e-01
-1.665983007531523841e+00,7.234520342802498227e+00,1.742824496966634662e+00
-8.493490290169582124e+00,-7.202743514609926123e+00,-2.611675434892698711e+00
9.308372284468497071e+00,-5.394414236314385436e-01,-3.888623093104096040e-01
-1.137109437849261617e+01,-2.124791610063565983e+00,-2.219683064176168230e+00
-5.909360819616511051e+00,5.248861973747802168e+00,2.045722346652274481e-01
-2.311119336409167779e+00,7.636172816690233844e+00,3.642459216330154792e+00
-1.606951813822661057e+00,7.321187050750140202e+00,2.010307201159077906e+00
7.932490438566634161e+00,4.206476636527660240e+00,8.839808652174417913e-01
-1.062761206615796716e+01,3.762404280918240751e+00,-1.766719257254692810e+00
8.042473684595893846e-02,-7.415956491648041826e+00,-3.942488746405043987e+00
1.007882632126136535e+01,-3.437877315981298754e+00,2.207420553621750159e+00
1.015344390202377056e+01,3.500698167396071536e+00,1.145073820963886879e+00
2.771424823017569317e+00,-9.397555487008563802e+00,-4.075459211381625479e+00
1.129571383103015059e+01,-2.135155644271525599e+00,1.507253112755440272e+00
-9.311133578655526932e+00,3.235213224244360752e+00,1.444234438984417945e+00
-2.127285389869958632e+00,8.974882027903561266e+00,2.967566284296625501e-01
4.334082965862622316e+00,9.876328769767070526e+00,4.266663231759020292e+00
8.280849066473109588e+00,-7.467109731955827279e+00,4.232365662582798227e-01
-1.656594032604828293e+00,-8.349737406095536940e+00,-1.185776892801174043e+00
7.659501400603254240e+00,-8.519468604000950407e+00,-1.272575074177377363e+00
8.142835477938250577e+00,5.081276345210193668e+00,1.016639410942126398e+00
9.425047056976881166e+00,-4.250227769898126340e+00,-1.648068692923163825e+00
1.094603055459782581e+01,-3.442384459960342813e+00,-1.118109264878427572e-01
-2.704672767303422987e+00,-6.606976587340072093e+00,-2.806444999557846653e+00
5.329611909086567678e+00,-6.107867112982154012e+00,1.766116030606067200e-01
6.498772025982002098e+00,-7.753235339376022495e+00,-2.987834588451150353e+00
-1.455661513120293238e+00,-7.238145951747043227e+00,-3.182455647698008594e+00
2.232259264131584153e+00,-8.404880176742318909e+00,-3.673543920219330405e-01
-5.204317143631318920e+00,7.101400389934177326e+00,-5.538099896032592229e-01
6.584303166132588814e+00,4.380763456104955544e+00,1.298072910127875401e+00
6.381870587532655570e+00,6.609190247393485151e+00,5.034479868328931573e+00
4.584677312439179531e+00,6.260181875318319378e+00,1.785983865196793419e+00
9.934750756713063069e+00,3.172633010861467984e+00,4.016186000441365422e+00
9.215159278025877754e+00,-1.679009184719215675e+00,3.197542378521331496e+00
-3.600568079243115616e+00,-6.163979821487391320e+00,-2.539745762444940880e+00
-4.273256610841504433e+00,7.571737745673532416e+00,-2.630209285681173181e-01
3.974815099241870264e+00,9.762837034017046278e+00,4.419613561765045162e+00
-7.302853835528966719e+00,7.521629779018678796e+00,-9.809504599424000437e-01
8.217286403084944624e+00,-4.680483951747568483e+00,-1.952299497057369271e+00
4.460485375097102967e+00,-9.619731466799539277e+00,-4.709097747642723708e-01
-4.318683086456547748e+00,-8.757820068204694053e+00,-1.399069014697057467e+00
9.364504244965745627e+00,-6.454592120207640171e+00,5.132260888241474417e-01
-3.774773302460859625e+00,6.699840694325454038e+00,1.245821419249435014e+00
-1.453182086557771591e+00,-8.366453221078351987e+00,-1.029999734539457146e+00
-2.975854267045395574e+00,-8.702694026098358293e+00,-1.229104874578866413e+00
-4.336048547275235698e+00,-8.423807009348280417e+00,-5.118435846873399697e+00
-4.666156443844792001e+00,-7.727183529245456484e+00,-5.048225248078216154e+00
7.326388346068507751e+00,-4.908386879922267632e+00,-1.831861089391845221e+00
-6.081386122239863745e+00,4.823514366630305084e+00,5.561668684702403276e-01
-8.137679652709271849e+00,7.935775785873270927e+00,-1.130105945130714801e-01
-4.569519329440582034e+00,6.251651074334217739e+00,7.305018150760113071e-01
6.443168224667894961e+00,3.422600694787584441e+00,3.223072846695088423e+00
6.764457188979990043e+00,-5.769102939740202274e+00,1.362012479335293236e+00
-1.043646294018018850e+01,4.246866187460661024e+00,6.356508482252107850e-01
6.762418352551623713e+00,4.953807238448793449e+00,9.764655176609772225e-01
-1.783263385987164718e+00,-1.098100919785446727e+01,-3.506408323200270516e+00
1.213460041084179819e+00,1.032699070443343281e+01,1.619012767464903302e+00
-7.024687360563089733e+00,7.705885860334995563e+00,2.930144218604810558e+00
6.099774354100516049e+00,9.043699581345405747e+00,3.796973186860752580e+00
8.721761014918824273e+00,-4.983514445322957620e+00,1.935312880288492021e+00
8.196553767420505565e+00,-5.758534696283834187e+00,-2.300094108033761575e+00
1.693202280231693058e+00,-7.526036507246045559e+00,-3.542479571089559354e+00
-4.289436453386163528e+00,6.186139004647897899e+00,1.257751054922368716e+00
-4.488648893694926478e-01,8.701101170485902259e+00,4.644369006204335903e+00
-4.533610844697170350e+00,-6.053092520007068877e+00,-1.890696751823766730e+00
-5.114314613412540567e+00,5.673060341364313253e+00,6.793940440495196409e-01
-8.122083481704404306e+00,-5.079736393562154007e+00,-4.925011416892948191e+00
-9.698399651216394801e+00,-5.515296357911829261e+00,-2.482804351896782613e+00
-1.619512815258494998e+00,1.001221887428238055e+01,4.319929045740320106e+00
1.775902768145989075e-01,1.119159134111057519e+01,2.936389100704612787e+00
8.101897129476054005e+00,-7.650031936031377100e+00,4.158441122492238518e-01
-3.497270878067870736e-01,7.304957340195458393e+00,3.142716348184302344e+00
3.943385863410201697e+00,-1.038610179633135822e+01,-1.473279583659163672e+00
-7.458791942358509175e+00,-6.854936526368292427e+00,-4.873971500502133125e+00
1.694789207360393846e+00,6.802957765739055418e+00,2.981422315376459409e+00
7.327946474201437077e+00,-2.823182786401956079e+00,1.117679342350828220e+00
-1.125062481869004927e+01,-1.284033886350699261e+00,-2.387942706455643993e+00
-6.723362330964912204e+00,-5.146974616093957344e+00,-1.213502826634161647e+00
-1.085149038166478697e+01,-1.716330023986614828e+00,-1.080860576949798091e+00
-4.376492540981464785e+00,6.646400017703308016e+00,2.782331757079641310e+00
6.054365438454121673e+00,-5.132748400578502235e+00,-8.316934761056749004e-01
2.316657983626668749e+00,8.321720988986159639e+00,1.278503173187721442e+00
-4.193467933125929470e+00,6.360766915870511795e+00,1.244089037071518078e+00
-3.680762183665025944e+00,-1.004739796935257345e+01,-2.073987906765341283e+00
-9.584716790430066524e+00,-5.027606906602810177e+00,-3.685517032421965489e+00
8.914082783116397124e+00,4.607179643046656281e+00,4.423958486711919491e+00
5.044221057936590924e+00,5.686460583788690570e+00,1.900047578194852482e+00
-7.634843646538688411e+00,7.214950058886686335e-02,-1.397217615683416847e+00
1.006588163207720754e+01,-1.452262567645320912e+00,-5.948805011240517748e-01
-5.205396706440992283e+00,-5.083854688184982429e+00,-2.398927186608578843e+00
1.065916215865820149e+01,-3.892049751115303380e+00,3.865159381664193955e-02
-7.748216428802662037e+00,-3.284129232697692857e-01,-8.881644435924227476e-01
-5.726816905947765157e+00,4.957844743541000021e+00,2.635012799350717749e-01
-7.925890663759374455e+00,3.294666746216555531e+00,1.501059194419771758e+00
8.388364239162520164e+00,2.006814677719203743e+00,4.115158303308449561e+00
-8.569872150636467012e+00,-1.267884736787864730e+00,-2.526781120090086930e-01
5.751684640387201064e+00,-7.017254245839897209e+00,7.388769511417890845e-01
1.298926915608139998e+00,-7.823144396023982594e+00,-1.139511135503759931e+00
6.210387199250559931e+00,3.788005953489617106e+00,2.606583342698650441e+00
-7.048973431496025732e+00,-6.171057505673046784e+00,-4.836426883719529890e+00
5.450619797984907144e+00,7.979718774531814773e+00,1.314970089362623051e+00
-7.383902737133041683e+00,7.288374349576320022e+00,-1.198843805305437327e+00
7.149192840470701693e-01,-9.827333500201273608e+00,-8.910246981651316345e-01
2.409039527147239124e+00,-1.059097950160684753e+01,-1.148370427495612578e+00
-1.302849881461046966e+00,1.093474881577623314e+01,3.039428989993391284e+00
2.704522200182034375e+00,-9.028308129871872367e+00,-4.318914314759136452e+00
5.967519322353166622e+00,-5.358288855162671283e+00,4.957299318634744711e-01
-7.316419626789743447e+00,-8.187052483702094818e+00,-2.367772304443790610e+00
-7.399981107401134572e+00,-4.530548261841973456e+00,-4.725506142948798782e+00
2.163793803277601846e+00,-8.639815525380058148e+00,-5.577935258338400093e-01
-3.868346016801269549e+00,-6.330893800967109186e+00,-2.229471125331562664e+00
-9.158758701640886457e+00,-8.304042558939567220e-01,-3.869130091399410887e+00
5.300998240320351940e+00,9.824349193512825096e+00,2.973658988413124593e+00
3.284547758860383304e+00,7.046600150693823394e+00,1.951844774931435822e+00
-4.179184439820713415e-01,8.030914031101517025e+00,1.156081511557027541e+00
4.627114870957986348e+00,9.921186130892163391e+00,3.767656877834902662e+00
-8.966711745122898369e-01,9.497572671543840883e+00,6.139153742212136722e-01
-8.229421220982112928e+00,-2.333058438001639825e-02,-1.926513510506734916e-01
2.504723752116591928e+00,-7.013703935142518553e+00,-2.196559489975169033e+00
7.919562993450476540e+00,-4.639710744293421563e+00,-1.729874210271529877e+00
-1.646540983853509665e+00,1.073505184828953674e+01,3.656779355890704686e+00
-7.101872434678832668e+00,-6.891163435182432018e+00,-4.927943698161191932e+00
6.057734732788368603e+00,6.258965382847987868e+00,1.284671945106291568e+00
-4.304917504169369913e+00,-5.878662657376592549e+00,-3.575662824341572232e+00
7.609625879971771312e+00,-4.520130289596131945e+00,-1.909779715859664773e+00
4.595470071290342240e+00,-9.674292291492440299e+00,-3.613598324209707613e+00
-1.083094689822602241e+01,-2.373042358607696745e+00,-1.451868219581071262e+00
-7.754837842001312431e+00,7.308316694335761809e+00,2.338530752701490023e+00
-3.272186132766109701e+00,1.011928581925852377e+01,3.769918551868469248e+00
6.052703656409152089e+00,-8.788154825865481357e+00,7.060599614723250816e-02
1.021041036932733803e+01,-1.940377356658235311e-02,3.438148005338604651e+00
-5.764887351811884386e+00,9.677625007436892801e+00,1.892754001617585669e+00
-3.090100162703431241e+00,-6.427948425697152857e+00,-3.128664075008230405e+00
8.323274199001334805e-01,-7.261860942710965716e+00,-3.553066711727916438e+00
-2.687395442501137044e-01,-7.940024200426120338e+00,-1.493634715257392553e+00
-9.626825913101001220e+00,-4.873117797705814880e+00,-1.523082426477628815e+00
-9.198924092856495704e+00,6.311964971938640367e+00,-7.984597036158478378e-01
-5.276019083558895595e+00,5.591620162517084047e+00,1.565355002369265502e+00
-7.303697352526680397e+00,-7.313879352311045245e+00,-4.508217332078152673e+00
8.080278292751039260e+00,4.571457424022185023e+00,9.064937333268433539e-01
9.759281112614235809e+00,-6.236656789857443428e+00,-6.250320170082660498e-01
5.771868186194513584e+00,6.103000657790931704e+00,1.322832934084719803e+00
-7.113567468777150182e+00,6.094141767818346267e+00,2.566060755897243695e+00
-5.855917859161480443e+00,-4.698038943804805356e+00,-2.321863971677141869e+00
-7.375522921264737741e-01,-9.227266781645454330e+00,-4.979793710040627097e+00
9.635333369237034873e+00,5.087288099006582520e+00,1.883637913066320557e+00
5.782131912364917525e+00,-5.565131921903519796e+00,-1.569414898193934427e+00
6.769555092959540943e+00,-5.022594692249588988e+00,1.181131539514646001e+00
5.740036807823828413e-01,8.053524596386422374e+00,4.517860799642246405e+00
-5.652970529399843791e+00,5.309576852608142161e+00,1.430069759105618621e+00
4.640384633275781212e+00,9.078336802487754653e+00,1.695967927627276106e+00
-6.747762127673504473e+00,4.562437641888666739e+00,-8.774674035614389300e-01
-6.064385438065702516e-01,1.111976425009506819e+01,1.700078309040490065e+00
6.030053703345777727e+00,4.279769642863545442e+00,3.661595363299307682e+00
-6.413088244860719378e+00,7.467183346075076500e+00,3.205592031895927896e+00
-9.162392150059433860e+00,-5.134438569280293407e+00,-4.627036053045936903e+00
3.568534565395944380e+00,6.374246532840526669e+00,3.066156836572261568e+00
-6.645464873514296045e+00,3.808121455971972047e+00,6.325454267100517614e-01
-2.961475309432440639e+00,1.064152790936666371e+01,2.823516923353463604e+00
-5.941841744034232597e+00,-8.130547832293490984e+00,-1.660226001318496181e+00
-6.636191987442535911e+00,-3.086673487026924345e+00,-2.301833062184388101e+00
7.757141833938422160e+00,7.479376139101527876e+00,2.012190519778638720e+00
7.114105452410004915e+00,-3.218269952702891956e+00,4.355409775445941989e-01
4.338715941069942517e+00,-6.638474118963736181e+00,-3.192639069190982282e-01
-1.118246612547846830e+01,-6.532483316000404772e-01,-2.082946075375502026e+00
-6.769151598991286711e+00,7.424518262162146165e+00,-9.549448394442789922e-01
-2.202320809922739819e+00,-7.221049453833992438e+00,-1.986400824993822090e+00
7.730706100968072647e+00,-8.279232246518922977e+00,-1.273320823376160149e+00
1.738805007559128812e+00,7.209785352156798055e+00,3.825605754525755131e+00
-1.080941453382608941e+00,-8.361622347400899713e+00,-4.863627961506162833e+00
-7.479165564800863919e+00,6.850585332822191731e+00,2.560304107241341498e+00
1.148280439699498245e+01,-4.581613295635000305e-01,1.225271827295761895e+00
-3.137802639657412129e+00,-1.063891327372606632e+01,-2.738418894775628054e+00
-7.570479306970852029e+00,2.080408160800300832e-01,-2.012077189738549876e+00
9.256114065159032123e+00,-1.626937386256069651e+00,3.311474365316772861e+00
-1.032429401704533234e+01,1.445134761404685664e+00,-3.114704974591356645e+00
-9.676428897566882625e+00,-4.709978878425868487e+00,-3.876442919919774077e+00
7.374193384373992632e-01,8.198689645952528693e+00,4.507810086729530319e+00
3.201918134084723810e+00,-8.043498759565752110e+00,-3.923634091174954097e+00
-7.099379906373409099e+00,-6.003942955311515561e+00,-1.057251246587491478e+00
-1.120269184608880231e+01,2.113953341152875254e+00,-1.209747732910162465e+00
-1.487891637453364169e+00,-9.077801066586703271e+00,-1.107815898678521149e+00
2.220016014164748697e+00,7.849345454356053686e+00,1.645106833405024060e+00
-7.201243796096551186e+00,3.084952668614060034e+00,-1.169887702401158247e+00
-8.169855996637259921e+00,-6.065348904911987971e-01,-3.467947175847026831e+00
-4.100119194175805504e+00,-6.683136658773585204e+00,-1.891460669489436253e+00
1.084991458824500832e+01,1.241311069088051999e+00,3.345244506910390658e+00
7.593972671188911505e+00,5.024714982683092801e-01,2.782788431048614175e+00
-9.425160221586355302e-02,-9.018908754469810773e+00,-4.734805042421450949e+00
-7.273221986066896072e+00,1.705060350089034005e+00,-1.485914682767178308e+00
-8.048335695041455295e+00,6.913122481306934297e+00,2.310535567958950764e+00
8.115517166188984888e+00,6.015389880526044841e+00,5.013434843680268038e+00
8.196164338806999350e-01,9.290538518790762978e+00,1.170215646934941622e+00
-9.474965076396223651e+00,-3.253377979088466265e+00,-4.256712411832504372e+00
-5.175832695464115396e+00,-6.335468912349145221e+00,-4.996343246985529341e+00
6.307248225918375084e+00,3.475698321814012282e+00,2.822993217966538460e+00
-6.074361143817813558e-01,-8.133189668194184208e+00,-1.452251506867596964e+00
5.618833564871895447e+00,5.317639350683560195e+00,4.424277450065249973e+00
-1.620713790633383056e+00,1.080043609169059415e+01,3.617225655547134266e+00
8.571897384320440239e+00,-7.748755536486570783e+00,-4.693181346543459642e-01
-9.002195273732821690e+00,-5.622561871792916000e-01,-3.702496763276738712e+00
-4.075348664940230847e+00,-6.427602848499772037e+00,-1.817266180311559065e+00
1.002648795075113775e+01,4.468843297306656304e+00,3.210485164869697261e+00
7.156324463014795967e-01,-1.082750906862735896e+01,-1.514769433199035120e+00
3.319944691561955707e+00,-8.868022566948738472e+00,-3.914443313771880928e-01
2.066484592073279281e+00,9.119234016097641060e+00,1.016836918819294944e+00
4.280711150503428541e+00,5.751962186097729024e+00,3.110667392316712299e+00
-1.012974071190590353e+00,-9.655584856856728848e+00,-1.048202423691521945e+00
6.904796491008675652e+00,8.449692937467590426e+00,4.044090070131224124e+00
7.680345506217400864e-01,8.310425793278158224e+00,1.156514224384429523e+00
6.641714101389902147e+00,-7.488297938740077875e+00,8.257081078912067440e-01
-2.635657185187578744e+00,-1.052831192709199470e+01,-2.851390755794447784e+00
-1.099736342637850051e+01,3.228000898612875869e+00,-7.004957648420878646e-01
6.875542931939904179e+00,6.385936907337523394e+00,5.029548529560154968e+00
-8.463340649932387549e+00,2.102227351261750421e+00,7.829173168644825154e-01
4.693710030232383090e+00,6.238999219736955482e+00,1.691419600240411381e+00
-8.222239119956523012e+00,1.168129799348630371e+00,-2.829496515808483714e+00
8.756822660609897113e+00,-2.888943911480541971e+00,-1.173348456994518951e+00
9.177222738176341821e+00,-2.634404677078392987e-01,-3.581426428674019946e-01
-6.585565166280232141e+00,4.655906843483061941e+00,-9.716884822109547182e-01
6.590995411454676933e+00,-3.890720990337997343e+00,-7.601112831411629966e-02
-3.294444193034118396e+00,9.574377591379372276e+00,3.877804722113393776e+00
-3.985021156279551224e+00,-1.025434738849699734e+01,-2.722646916078510060e+00
-4.662235245418798968e+00,6.346398450171320427e+00,1.779161233764598171e-01
1.049772039270415114e+01,3.090405676713127381e+00,3.521844470820504114e+00
-1.997586043869870709e+00,-7.404435856330470855e+00,-1.680381469721344834e+00
3.667802024324236410e+00,-7.289413505725630849e+00,-3.292507696787024596e+00
-3.415806354061992955e+00,7.766106747188086246e+00,1.849414892587856463e-01
-8.435008716925752381e+00,5.087459405035155591e+00,2.218580176192589626e+00
1.067692416578262993e+01,3.390344400447530937e+00,1.636551262189223754e+00
7.635271868868114709e+00,-5.497245759712775737e+00,-2.396383210733007640e+00
1.349976065481920395e+00,1.029073093329713551e+01,1.519262353667631071e+00
1.869358381630998656e+00,1.075653063757009598e+01,2.567851885684252267e+00
-6.362801100203985705e+00,-4.260966256223148285e+00,-4.016329065224578443e+00
6.823500669249020767e+00,-3.801110283370338294e+00,8.689378553611307732e-01
-6.941966776102255210e+00,-2.181578499233899571e+00,-2.169232460767763548e+00
-5.777420339012295791e+00,5.277045017321644771e+00,3.885464723778569995e-01
-6.631839087037564084e+00,-4.976280211658464125e+00,-4.735385202424677864e+00
7.259167930081632525e-01,1.069061895689328878e+01,1.902621382887296431e+00
-1.053604707043576028e+01,-3.659986461650558187e+00,-2.906103402853367879e+00
6.587613084633357374e+00,6.262460682702068127e+00,1.023878356511113141e+00
-3.322520879285388862e+00,8.428462772296466454e+00,4.136094312758330283e+00
5.367497869978517855e+00,-5.570937459381756440e+00,-5.012707486519893951e-01
7.429757078202138487e+00,8.614908295353137513e-01,2.609653687597595528e+00
5.196497898579356622e+00,-8.296879836001544106e+00,-3.545190690518424503e+00
8.155072802502788321e+00,6.259711835404776714e+00,1.681201861973967482e+00
-2.874551969041143185e+00,-8.945011077504974040e+00,-1.239470153138497066e+00
3.550685869995127142e+00,-7.370223489459464261e+00,-3.752818026681608909e+00
-6.351037943176542910e+00,4.606886370427696775e+00,1.184288216291641938e+00
1.149878967373947791e+00,-1.110945918207523953e+01,-1.768793365546015295e+00
7.643031490376625214e+00,3.235764067066095317e-01,2.582105798020316811e+00
7.943762214369704644e+00,-3.940509650298118061e+00,-1.585653288496279290e+00
9.813846254383975065e+00,3.979433741904117028e+00,1.044113968692722771e+00
7.794292304367232305e+00,-8.314890693573451230e+00,-3.221729873032470048e-01
-7.318279381896458879e+00,-1.215940073249017095e+00,-2.075846761491281445e+00
-2.569428064906433384e+00,-6.746766239451565284e+00,-3.171215544161480437e+00
-1.802097440046474652e+00,-6.833190072369990986e+00,-3.419747800077278743e+00
-2.772080300593836033e-01,8.351649078159377737e+00,4.523639853345438944e+00
8.340102514168101777e+00,-4.275971855819231671e+00,2.351026386069376972e+00
9.909678543338767298e+00,4.851668606801357697e+00,3.600906357974053229e+00
4.350019890876526851e+00,6.312183212164192980e+00,1.834712279666871559e+00
9.159552984015501664e+00,-6.670757756932683968e-02,-3.555078577990690714e-01
-1.339232890641554354e-02,-7.736475215940952666e+00,-4.252788720977235037e+00
8.689267994415418528e+00,1.954205727424691785e+00,4.189085620670402577e+00
8.869180496474401210e+00,6.455671041195787829e+00,3.862746380926780354e+00
-1.047732024132232809e+01,-4.094462846483278184e+00,-2.886250961994369479e+00
-1.440516929411865599e+00,9.171087456010425853e+00,4.530990109950803202e+00
6.023033702063872674e+00,-6.340406580921116309e+00,7.621859110158073491e-01
-3.985948821539574638e+00,-7.344340607439257873e+00,-1.602996951400972758e+00
2.894561799412049830e+00,-9.093505149110558961e+00,-4.222243095483653619e+00
-4.788191403460204221e+00,6.807119137378650819e+00,3.082656134083910704e+00
-7.566223924879015961e+00,2.530865830599196897e+00,5.860235484463516276e-01
2.557897643354551054e+00,7.777447491092817522e+00,4.821107327852438118e+00
-5.467779877478063932e-01,-1.012396000998336909e+01,-4.595207489689486557e+00
-1.037311045990337988e+01,1.796182582533349059e+00,5.035578459130807261e-01
2.248599436933715445e+00,9.329187354112280062e+00,5.149725288663789868e+00
-8.095790896593078045e+00,-7.839440978454025988e+00,-2.718452906400198099e+00
-1.134177317937059282e-01,9.180185380781665572e+00,8.943386467792441286e-01
-7.082890740119739625e+00,5.295368873250916764e+00,-1.378077415856031385e+00
9.574592138332803870e+00,-5.404932929921618445e+00,1.760066599161790757e+00
3.678874516404270878e+00,9.282287043117921854e+00,4.750813325844668533e+00
5.252462705772002138e+00,5.830438623068219250e+00,4.441394578173880170e+00
9.636701325422301068e+00,3.856887749506508367e+00,4.297802743017863136e+00
8.550925706760059697e+00,-4.142807052029537473e+00,-1.628114757272077329e+00
7.849829842839939342e-01,-1.072758490866150183e+01,-1.642276495632886801e+00
-1.434477854213978221e+00,8.771853239961364679e+00,5.982867244798948381e-01
-5.603349698029356674e+00,-9.289937213484519063e+00,-4.057656990998497193e+00
-6.962453085769687355e+00,3.344541518001334257e+00,-5.920744642707491678e-01
8.698902345219570620e+00,1.871349457542079153e-01,3.650103118354866893e+00
-1.065994787818063810e-01,-1.086981401118815249e+01,-4.169703236504358479e+00
-7.406089037618127868e+00,-3.621035981240744661e+00,-4.348171104874603898e+00
-3.549749186559245095e-01,7.374966860620677522e+00,3.177676386421123045e+00
8.683509080016774462e+00,6.649750731200500198e+00,2.596710902806998789e+00
2.104326070279246341e+00,6.805674185349753103e+00,3.451393085252961956e+00
2.180644053287007722e+00,-9.909251117366780548e+00,-5.624117342872330116e-01
-1.111967244593865978e+01,-2.095188479436073337e+00,-1.647562353905698718e+00
-4.891973647282513049e+00,-9.115543058305169311e+00,-1.641282727137700181e+00
-8.369895724774570667e+00,7.619122943684538685e-01,4.400344732015123439e-01
1.130770384922101535e+01,3.221547155321027311e-01,1.070611481160520961e+00
7.313417010354168468e+00,2.793872725216209219e+00,3.560131265156867730e+00
7.912072193526113573e+00,-2.995470112200248725e+00,-1.145847406661379297e+00
-6.860740619296485931e+00,8.997768598737032164e+00,7.374579626699708790e-01
7.895763056949626879e+00,-1.074080797068312831e+00,2.538715677779992852e+00
4.817888972286604732e-01,-1.106683309607682730e+01,-2.738334802343021401e+00
8.131115587598545247e+00,-5.285094076749438763e+00,1.971228111491638346e+00
-6.235020615979234293e+00,-4.086560572321083384e+00,-2.136963813928348443e+00
-7.781048312674944789e+00,-3.926735086633279526e+00,-6.625405283522037836e-01
-6.206613326700751720e+00,-3.810778799419951124e+00,-3.184312434445220497e+00
-1.113142511880626984e+01,8.584733597981506481e-01,-2.264408553953995540e+00
-6.523826440789161296e+00,8.858375947330774380e+00,1.955011157577847547e-01
-4.542115674691432403e+00,7.212673725679405123e+00,3.285266012762319665e+00
-3.831782758389435717e+00,-8.557118622529491958e+00,-1.293251844989693922e+00
-9.858835737343801142e+00,-2.996929255802688541e+00,-3.953028370288572457e+00
-6.299130024095646263e+00,-8.288583516888426317e+00,-1.598134096020793482e+00
-4.711696325274285613e+00,-5.392445823530384708e+00,-3.627397771227301781e+00
-6.424888059450744038e-01,1.115402668980455303e+01,2.819144253943336675e+00
7.464384766633511248e+00,7.429862730122147041e-02,1.228625129211142752e+00
1.118894469861182550e+01,-2.544047270021831064e+00,1.081364119479047758e+00
-8.258903186614180214e+00,1.355031746904456602e+00,-2.953763464605975830e+00
6.623649164271825818e+00,-7.992685070424474958e+00,7.149434928206183093e-01
7.126113954592341315e+00,4.442466915591348986e+00,1.013319718549161585e+00
-6.663917302235950579e+00,3.984684198859761661e+00,2.242043203429441578e-01
-6.312468608075358922e+00,5.707225522926245631e+00,-1.169592728948426918e+00
1.430901016300555995e+00,8.820454809812460439e+00,1.052744282056810698e+00
-9.541098897489971975e+00,5.264651070302159841e-01,-3.560684161507973844e+00
-8.129922913331506962e+00,-5.284158637737330189e+00,-4.772993453928733310e+00
8.630789753912058160e+00,-6.937990984748449996e+00,-1.868654828142359614e+00
9.489933063156327009e+00,2.466793538663810015e+00,4.100471102999050821e+00
6.222437915720528068e+00,8.004111097787575346e+00,4.726062862890065830e+00
-5.466497061739667984e+00,9.508473674863081371e+00,3.082062542110457048e+00
3.583845668894428682e-01,9.985804481745482519e+00,4.531653060654034171e+00
