4.770516415089200990e+00,-1.855065596958168417e+00,4.069108818551829820e+00
2.724731508855682716e+00,-4.914679162026191483e-01,-7.718612160327697147e+00
5.395566718486823454e+00,1.259808790170381387e+00,-6.351233219664594642e+00
1.189034430665794506e+00,2.325084569393343070e+00,-6.122653305702517201e+00
-2.413539763223220724e+00,-3.485156366361093494e-01,8.762706536044902350e+00
2.987618494584173834e-01,8.890627223449016903e-01,-6.382680158118065883e+00
-5.411039369584866421e+00,4.157006095848611693e+00,-1.668516566015818103e+00
8.642478583739764630e+00,-2.752329288751829584e+00,1.514174491329870031e+00
-3.976723759351382004e+00,4.089457061005773220e+00,-4.059654634452830813e+00
9.712466369140414502e-01,-4.003550348759131516e+00,7.804702842750135261e+00
7.257092007190276028e+00,-8.396725745981521438e-01,-5.388834300192971050e+00
-5.472852372852949010e+00,2.351707759907298190e+00,-1.763378105063682533e+00
7.244633061721416745e+00,-1.260223740317895524e+00,-5.768662637629913270e+00
1.414665927090074549e+00,1.904335481336349167e-01,-6.469122608484308756e+00
-3.446319319022968397e+00,3.261040346295626668e-01,5.023702941534817334e+00
7.620002331721914324e+00,-4.343112852938717516e+00,2.327050489285520829e+00
-5.130226013064414836e+00,-1.172955373207421603e+00,5.289165339213715455e+00
5.124106472793920730e+00,-4.730761052940914091e+00,3.815885239830013820e+00
6.217364334902411471e+00,-4.392013607869144742e+00,5.369297962522816547e+00
4.010333087022090126e+00,-1.856760264896114343e+00,4.634575392804199723e+00
-1.989624165010136225e-01,9.995717170375406635e-01,-6.295292964158353932e+00
-2.004964774352488155e-01,1.025691945973715047e+00,-8.786329027265157521e+00
1.063594563213614563e+00,-4.091481341276620221e+00,6.871549570026538767e+00
-3.664251482414434324e+00,1.527098018132893253e+00,-5.652327788392317309e+00
-5.107174028391619380e+00,2.672311938052249314e+00,-2.254642137638962041e+00
5.123750607198443996e-01,-3.701071375553773191e+00,6.812820888894960625e+00
-1.112164149529420554e+00,-1.262213622545099723e+00,8.961136440283503646e+00
-6.947412488063807956e+00,9.774132995145082825e-01,7.230102051540538977e-01
-4.187060211652917197e+00,2.702949629141494281e+00,-7.664638917312484701e+00
5.815955749685099541e+00,-1.703335865221987100e-01,-3.201496824838430566e+00
-4.288261942135406457e+00,-4.398725192035714548e-01,4.622307709437592393e+00
-8.600001628562466749e+00,2.665483879424928926e+00,-8.897219187766012283e-01
5.268968378605447533e+00,-2.669081193825978193e+00,1.594806765734336773e+00
5.706461713071877107e+00,-3.220755003541324601e+00,6.003031853828117576e-02
9.066541268182753965e-01,1.741136476918247744e-01,-6.877338505266531676e+00
-2.960624443889620760e+00,3.627695950308056083e-02,5.638182424579868623e+00
-6.436308224313055604e+00,3.716354143065107696e+00,1.316449461880855099e+00
2.914853515631658176e+00,-4.333092199948996637e+00,5.520539637219764373e+00
6.713067756754286464e+00,-2.170737695751373320e+00,-5.572650138507647455e+00
-8.005333610369319786e+00,3.508592436748148025e+00,-2.580606918210989864e+00
-7.345964763863984004e+00,8.644966793329523780e-01,1.496498712981213730e+00
5.652629603957835869e+00,-2.450192447608467106e+00,-1.826952384536690843e+00
7.530966348021546963e+00,-1.020447393737020647e+00,-7.605125509202437240e-01
-7.704361694803966820e+00,1.327665659518493690e+00,1.676531504903563952e-01
-6.755559796619451385e-01,-1.508540932620367481e-01,7.293849729207355637e+00
-5.377090219494268908e+00,-2.093847948948381055e-02,3.874561851121614886e+00
6.859814767710354033e+00,-1.489374402221338878e+00,6.587493839556824993e-01
-4.762412327383056976e+00,4.633380518649707014e+00,-5.793660325622594698e+00
-1.123731560092464443e+00,1.222884374658107925e-01,7.782336190580349644e+00
4.674874032297608117e+00,-2.192181116526883855e+00,3.378504470272859717e+00
-4.871456139950909758e+00,1.813485120301597364e+00,4.175430333365272695e+00
5.905276318079303977e+00,-1.758770048491560267e+00,4.151453057926312695e+00
-3.300170770424538436e+00,4.522857205552233140e+00,-6.305467946968085435e+00
-9.794683850762058164e-01,1.191816338376462614e+00,-6.224084112020683790e+00
4.102659880756084121e+00,-8.490923446058882273e-01,-4.394728635590127830e+00
-5.725734831541221759e+00,1.876479652549679411e+00,6.493361972846288799e-01
6.135131549601791079e+00,-2.437981774805625612e+00,5.242132066888742337e+00
6.015986801897507341e+00,1.617706150049314506e-01,-3.875655551379363128e+00
5.297150221137936654e+00,-4.043718888209061113e+00,2.134751578039694397e+00
-4.730844373804975689e+00,-8.324366282993633792e-01,4.741154750203401491e+00
5.093056067023996825e+00,-4.277874556037451370e+00,2.744954988822365660e+00
-3.775583045541617278e-01,2.536106538571242908e+00,-8.841119858293941647e+00
1.848187713850581559e+00,3.038724603128253321e+00,-7.102929387986547383e+00
7.899628241966158981e+00,-3.573402090474962378e+00,-2.358944809190537839e+00
-3.673845587181685080e+00,2.108718825797573082e+00,-7.479712011126553151e+00
-5.766694191499141198e+00,4.801342924922292532e+00,-3.725885372552701913e+00
-8.513034314697282667e+00,3.778140079738947499e+00,-4.149189038605758939e-01
-5.552441168414286032e+00,2.262063144613866594e+00,1.124342838862337990e+00
-4.892374158305067944e+00,8.772113795044209628e-01,7.288883624620241974e+00
6.321500928156253529e+00,-2.256658922568346715e-01,-6.901398703745545760e+00
8.120061996624764689e+00,-8.647200581117150398e-01,-2.877131536384518018e+00
-6.184711281164644525e+00,3.261986973290077252e+00,-5.731444815782677615e+00
-7.201898306811393979e+00,4.460292954463409565e+00,-2.797944290743752838e+00
-6.131828890111803432e+00,2.751341805148116659e+00,-5.724127930405378706e+00
6.272272899419845338e+00,5.108660569462077916e-01,-4.739677140056354432e+00
-2.612337311660974937e+00,3.885840558176638204e+00,-5.245800858692479807e+00
-1.039760737086836834e-01,1.095516598309656642e+00,-6.299125625747747037e+00
-7.339131290506694327e+00,1.826568831884139155e-01,3.622358092772091531e+00
6.667421474413291804e+00,2.240835984263430114e-01,-5.722494751422079418e+00
-3.880624129897712216e+00,2.841952340946364952e+00,-7.648861731220266691e+00
-3.540722638065857963e-01,-2.837484257146464905e+00,8.656667970515785626e+00
5.862658231941557663e-01,-9.753270832651633748e-01,6.195966094276209368e+00
-9.382743465996932208e-01,2.553144966492862711e+00,-8.781935212562315130e+00
5.288079702340810151e+00,-1.908699007963762684e+00,3.598071471439137525e+00
7.185725373140805949e+00,-4.304790892408229652e+00,-6.923936607932071885e-01
-8.386971513854422966e+00,2.073648817926931009e+00,2.785361300719492395e+00
-5.543466764101001587e+00,2.524416150717265772e+00,2.402868452263828836e+00
4.597498408459637531e+00,-2.190026106221538260e+00,7.041366938344052251e+00
-5.266225454208121270e+00,1.082976077529359538e+00,2.806742245753103049e+00
4.066337833197982476e+00,-3.035194534480949446e-01,-8.085646675443397768e+00
7.439208577495432628e+00,-2.015243988867302605e+00,3.051004264513522468e+00
-7.302378836141590668e+00,6.462336039730735004e-01,5.423606436296910083e+00
5.558060194901361939e+00,-1.770764501110137612e+00,-6.522796064921816850e+00
-3.083296826582793582e+00,6.982418527810274611e-01,5.813351412709197419e+00
8.392525211282928055e+00,-1.727818650866282058e+00,-2.174391644194693662e-01
-5.156100272311558541e+00,2.951642900163442107e+00,-1.415493153005915827e+00
3.732518614673872026e-01,1.976548327921068271e+00,-5.863745671939328830e+00
3.377718368568388918e+00,-1.484321971241797211e+00,6.218036926196384151e+00
-2.243109880117831190e-01,-7.842629290354555804e-01,6.547872163236144516e+00
5.320362040679555093e+00,1.226827444121497246e+00,-7.053966433737012487e+00
7.558097555943806611e+00,-3.685990273319360355e+00,-2.489431326354493379e+00
2.296315877119834870e+00,2.003027069802799653e-01,-8.555348279580755388e+00
-4.882197876154344307e+00,2.550376473856679205e+00,-6.863711733695145867e+00
5.581833047978469686e+00,-2.942545805767674771e+00,1.030181613796600892e+00
5.025947695280050809e+00,-4.844699748699322406e+00,4.804620540623488090e+00
7.339418452187086217e+00,-7.170723425259643014e-01,-5.472269030694627112e+00
-4.495331361421928129e+00,-1.454534641471155743e+00,5.669940970795579460e+00
2.011081966827376472e-02,1.310372097598260455e+00,-6.145154847666597142e+00
1.117715392235898886e+00,-1.599623168709209731e+00,6.028326236717020947e+00
-7.225463568296794037e+00,2.318266340328013264e+00,-4.042910031175613206e+00
3.903518099936718500e+00,-1.399215021521442726e+00,-5.846236280441054589e+00
-3.669806628964903616e+00,1.232966333533531245e+00,6.202210944204287202e+00
5.201664560788053393e+00,-4.737101079958929262e+00,3.859534014696579973e+00
3.879667336226230834e+00,-4.644536416898735531e+00,5.843547022777032751e+00
8.640222984956469787e+00,-2.759597833621695528e+00,-2.868333948879508988e-02
-2.567174255680626960e+00,4.438145648407986421e+00,-6.204086623255865796e+00
7.692753921452937682e+00,-5.871718034908774975e-01,-4.424270533420142648e+00
9.402899263631515625e-01,-2.017680786905191592e+00,5.694052531221278635e+00
5.423772565787159827e+00,2.944699637257939262e-01,-7.396462960229434280e+00
4.704654862867327481e+00,-1.953145344941659367e+00,6.740072547389745594e+00
3.793651907815650759e+00,-2.615061864259156099e+00,4.030952846613678808e+00
-6.458192788816626617e+00,3.291005293850127966e+00,3.130245085408478900e+00
-7.772469890793200165e+00,2.407488574733133824e+00,-2.971856260246273695e+00
1.985583933904601750e+00,-4.116460244158503201e+00,6.713407439892412398e+00
-6.820432318998771670e+00,2.645716105058132150e+00,-5.069976772910277596e+00
1.701901210155803312e+00,-3.501123539387872352e+00,5.502898593131988925e+00
7.852797305372828163e+00,-1.844064015484608854e+00,-4.291981500930375226e+00
-2.167545996619763216e+00,-1.095681203971672568e+00,5.766316502080914397e+00
-2.570403380695846618e+00,2.656298859058605188e+00,-4.750286050124759463e+00
-3.679482386265299887e+00,2.982834746336185727e+00,-7.762824740001055268e+00
2.920605588688468757e+00,2.227523548713188362e+00,-8.204315828646592479e+00
6.122371505228922040e+00,-2.116879979851193472e+00,-5.734524792688202588e+00
-3.062060463426719448e+00,-6.336719603272148449e-01,8.664372194296092289e+00
1.828087397912570022e+00,2.468134302483671050e+00,-6.438136004800123935e+00
8.941008844090146956e-01,-3.280252811713614491e+00,5.905680245460683153e+00
5.563605349328567540e-01,-7.289414733307383321e-01,6.651563511846674714e+00
-5.139765817678466853e+00,2.968084145361486570e+00,-6.825470300921044675e+00
-4.294650327462050110e-01,-1.844832017015988423e+00,8.958343005750572630e+00
4.075242647406611241e+00,-2.694652484828381045e+00,7.361050470169102411e+00
-2.818612647303614605e+00,2.742762799644853366e+00,-8.199894835830207285e+00
1.847088935530681875e+00,-2.630393672994834287e+00,5.277447419859034206e+00
-3.157230900525150041e-02,8.259367033927856872e-01,-8.618954187490139418e+00
-3.577173408802705179e+00,-1.763141745415685246e+00,5.911884958603625506e+00
4.516914549747648167e+00,-1.765366074713526467e+00,-6.124459528485973081e+00
-4.191792461727319008e+00,4.460054351333129219e+00,-4.215289100403700751e+00
6.614471375285097210e+00,-1.318515583968234761e+00,9.624999601790292791e-01
-8.404598951693317943e+00,1.338169977947180289e+00,3.251639574624341389e+00
-5.829444165768629560e+00,2.845842713785038836e+00,1.695450628816285832e+00
-7.438167829805005127e+00,3.776343169895544527e+00,2.308585495981763547e+00
7.019769113503011582e-01,2.431239524085502701e+00,-8.807281610925318915e+00
3.368135306107410187e+00,-1.596232555127450548e+00,5.902354396968136463e+00
4.337920135833170932e+00,-4.667723217129449154e+00,5.160665456172854881e+00
3.998632454167549977e+00,1.410168326359462210e+00,-5.494961520337067640e+00
-6.180165032313471585e+00,1.681465194730783708e+00,-2.504786151430367092e+00
4.088503931128775193e+00,-4.378830924652747036e+00,6.959768543016812359e+00
-5.296188868939131211e+00,2.357006871524619740e+00,4.728364080603820518e+00
3.089332365052950724e+00,-6.602331417555257209e-01,-7.844531085191051467e+00
8.013180807412140894e+00,-1.245336451657373722e+00,-4.419220285396717740e-01
2.595796069979577680e+00,-4.317412721912411655e+00,6.422280335989852595e+00
6.172422445564330395e+00,-7.727930997176023498e-01,-6.692072917701864299e+00
-5.637342944913764420e+00,4.103044516210749393e+00,-1.875844969180627819e+00
8.489395268434975605e+00,-2.535903131379698028e+00,-2.634508884233118131e+00
7.547759631871367780e+00,-9.009553497038147452e-01,-1.041827866380554912e+00
7.235195557115050136e+00,-2.825014642471788129e+00,-4.075512701559466322e+00
3.844037146264152494e+00,-2.654585417816010651e+00,3.959771301161904677e+00
8.305743214811368347e+00,-3.788341529197079893e+00,1.898706071802736872e+00
-2.431110146417951423e+00,1.600430061847986307e+00,-8.119029197343309079e+00
-4.619172466004343391e+00,1.739358394462943158e+00,-5.689672671480680677e+00
7.107073303921187524e+00,-1.194453154188491517e+00,-8.007372156251525708e-02
5.232361408021736437e+00,-4.200350333322570684e+00,6.371174848312118222e+00
4.426904739006690903e+00,1.112941381740418567e+00,-7.956300968559401277e+00
-7.805182451397743471e+00,3.677858556688025526e+00,-3.471617160697450188e+00
-4.532996528320706098e+00,2.349026561960595227e+00,-3.415076709058643800e+00
-2.581970359020018257e+00,4.102567557315832225e+00,-5.823929388118889605e+00
7.646542234917701464e+00,-3.236803890346637846e+00,3.893073717511311038e+00
5.752649035266365729e+00,-2.924103469466772243e+00,-2.594630644677202280e+00
7.152376020668940626e+00,-3.521301341807128615e+00,-2.898955048834281456e+00
-6.345096399216849647e+00,3.231557551008352291e+00,3.286551789837306004e+00
3.347145425939915153e+00,-2.513539160610720025e+00,4.375287809956208029e+00
-5.600237613639010625e+00,-9.552688115800943569e-01,6.914389570008899533e+00
6.409206277913324534e+00,6.444114613126359359e-01,-5.428355882538246746e+00
-4.360308852101395932e-02,4.262370977794049387e-01,-7.527847890958048183e+00
7.165607127458618386e+00,-1.594574482444178765e+00,2.157103739771988771e+00
-5.815099293476747810e+00,2.195060205718970092e+00,5.528308432132272854e-01
7.294433287662319465e+00,-1.682760458031233641e+00,2.507265513991822736e+00
-2.689204408360434062e+00,3.915457531031635074e+00,-5.034815802867589341e+00
8.065392287334599786e+00,-1.051529138012732734e+00,-2.200896850185624753e+00
6.950560850978041216e+00,-3.417522125622029172e+00,4.876257765748127859e+00
8.600441996725141536e+00,-3.386181293117900282e+00,1.435416831186199893e+00
-6.907405450869243069e+00,3.432389623334584972e+00,-5.053968039636227871e+00
4.983281513299744780e+00,-1.711507151244233693e+00,5.605121672879288752e+00
8.352385160519565588e+00,-3.736230894122430701e+00,-6.039629557209229560e-01
-5.623777876477186410e+00,3.737225107525711465e+00,-1.210008337688992297e+00
1.569801664829306942e+00,-4.207740890613030693e+00,7.176509673203736561e+00
3.638350331666325488e+00,-4.639784505113200730e+00,5.448710609485436507e+00
-3.960866165328153166e+00,3.185966219732544236e+00,-3.525519931448179101e+00
-6.717013152639480289e+00,-3.324367586951493814e-01,4.255539468674329306e+00
-5.843140160334729494e+00,-6.812318815215537837e-01,5.114502027703058396e+00
2.211462741128189080e+00,9.524509947763029061e-01,-8.908494297791534677e+00
-1.927333693042686535e+00,2.559544527953134807e+00,-5.321760500391378379e+00
7.751268612284571979e+00,-5.265555499155537555e-01,-4.216105035543243673e+00
3.991446510915651835e+00,-3.073910219029857505e+00,3.713413618590796439e+00
-4.948063153761503408e+00,-2.193077445679789406e-01,4.304824923422476246e+00
3.987198889936315105e+00,-4.800655901826668348e+00,5.240286367554032765e+00
-5.606078728419878310e+00,3.232333596588302438e+00,-4.677161093408256920e-01
3.923447303826472332e+00,-3.736413786171915996e-01,-4.664969367759122854e+00
-2.366728508201368708e+00,3.920556748344570686e+00,-5.315117887117357220e+00
-2.402234155451727915e-01,3.191880189671650214e+00,-6.017976558794043029e+00
-2.268642333003469513e+00,3.673550929187649583e+00,-5.321740550957279936e+00
-3.952122106071660479e+00,4.033538153723232433e+00,-4.094813248854705989e+00
8.570641757565722330e+00,-2.411567973250979158e+00,5.882152117721740625e-01
5.906318541294991675e+00,-1.918204804264719732e+00,3.407736399705462715e-01
6.155101773900762296e+00,-3.542730461803168307e+00,-7.276545716857916180e-01
-6.229999851970311475e+00,-4.779286950119706612e-01,6.344710533866422253e+00
6.932288066430090545e+00,2.828914078755447870e-01,-5.186543150986498318e+00
-8.415891025360119571e+00,2.651920911893429267e+00,-1.566150125570854978e+00
6.777280348098855711e+00,2.518765484485783746e-01,-4.023295369423189882e+00
-4.054699510391693629e+00,3.937795972212141393e+00,-3.842252847351697476e+00
8.693992949971709905e+00,-3.380439432367779773e+00,8.071492327262183020e-01
-2.902039924532125448e-01,-2.721193242760418851e+00,6.276128699125328225e+00
1.149194576656251465e+00,-1.313409432970968904e-01,-7.532032629338666574e+00
5.033390904393171716e+00,7.056963798624973916e-02,-3.964601680682610763e+00
-3.745437349651689729e+00,4.163015986382297307e+00,-7.202035316380887231e+00
3.404986751623976016e+00,-4.679368959087774726e+00,6.096840419249653920e+00
-1.022441301325919261e+00,9.759570245336591787e-01,-6.511567245374203061e+00
7.509997554519874940e-01,-3.878102752481158877e+00,6.615393594599715321e+00
5.108924755206108337e+00,-4.663254499945526099e+00,3.803239443092969907e+00
-3.131036578641996027e+00,4.339587150338307886e+00,-7.098583471882938589e+00
6.960945982978206104e+00,-3.679361517406833038e+00,4.904287716097682548e+00
2.708430761644839979e+00,1.159336217468547536e+00,-8.760702609215499592e+00
5.738994448536750781e+00,-3.193172000978931724e+00,-1.141867349387051922e+00
5.407556272689284071e+00,1.051500282469921776e+00,-5.231218820980997108e+00
-8.376621339246444364e+00,1.432472141605658722e+00,8.172714764482980065e-01
4.670331169128582260e+00,-3.197653822376400168e+00,2.805809367018071931e+00
5.032538421967919007e+00,-3.110981471051535774e+00,6.838395407924410030e+00
8.468408632683811277e+00,-3.283495801214693977e+00,-1.477152089292544712e+00
-7.099434993781560621e+00,1.347957501060403018e+00,-6.430455993325829844e-01
-2.522056651064941590e+00,-2.632762440245745239e+00,7.360696541034191576e+00
6.750620033608486281e+00,-1.358542903439242000e+00,5.493400948534974404e-01
-6.031270684064186760e+00,4.579128482063977934e+00,-4.950925582079165110e+00
-3.745483222520426647e+00,2.334533393331463536e-01,4.781415221472738786e+00
1.114427247434839341e+00,-3.910035114254024169e+00,7.362925629604878175e+00
3.000714875905097223e+00,-3.853992327700600296e+00,7.795935799874264660e+00
8.494953997604797635e+00,-3.591441577311078603e+00,-5.771341579035635938e-01
-4.279498018404976456e+00,1.192782874837955143e-01,4.575047547246847479e+00
-4.752682585315814556e+00,1.447432516396729429e+00,3.964318887628778487e+00
1.391228838804805967e+00,1.105999489857259599e+00,-6.006084798791776258e+00
1.218791024608541163e+00,-7.459189337467385661e-01,7.316785982315678005e+00
-2.280862584717887831e+00,-2.095933797070878679e+00,8.502903165144422459e+00
6.836669203786192028e+00,-3.699749014441136019e-01,-2.575444348708490594e+00
5.591032447778125913e+00,-3.036925431224810623e+00,6.461750561317712638e+00
-6.486692465719773537e+00,6.478816687456616652e-01,6.648613531190698644e+00
-3.998148112361740836e+00,5.454064215470012800e-02,4.788843850085969578e+00
-3.411414080423731843e+00,4.028483939926521096e+00,-4.669499506880982587e+00
-9.206183990859645450e-01,-3.322962791164008750e-02,6.706054903223748198e+00
7.363480934219413854e+00,-1.711119350239208137e+00,-5.349589083264302047e+00
4.064017699186922350e+00,-3.090057814741222764e+00,3.574160571153746524e+00
-1.873507186951796744e+00,3.446587343917828505e+00,-5.418021646910738731e+00
-3.582190192669841844e-01,7.722579036927349483e-01,-6.880436982579238858e+00
-1.594113710964024655e+00,-1.120900678156401709e+00,8.849153497725822604e+00
-8.361599852149987910e+00,1.173951955524192403e+00,2.670460141805246934e+00
4.834308855785815595e+00,-2.393267194334332437e+00,3.164659484555778057e+00
-1.797843361194039868e+00,1.493216677342142085e-01,6.462534056804852156e+00
4.863047175772573283e+00,-1.107748563142428200e+00,-7.274532697123568425e+00
-7.182133353066165071e+00,2.433938643075582164e-01,3.796909506572530457e+00
2.347118671269251555e-01,-1.211922886183090409e+00,8.826489796387688713e+00
-6.041406885220780509e+00,-8.980378290336435421e-02,3.992413296026824376e+00
3.543364678346857310e+00,-2.976347547960203066e+00,8.097276380172711896e+00
-6.305265761468360708e+00,1.620790106259618391e+00,-1.102829921948860425e+00
3.042012851662555306e+00,1.673259823407868163e+00,-8.624628756131818008e+00
4.553172803802378432e+00,1.027294653437582861e+00,-7.844663072801120407e+00
1.228932558242985529e+00,-8.087715410829432461e-01,7.571834313871544708e+00
6.916793963855622174e+00,-2.825462832399015412e+00,-4.421640041046618563e+00
5.770401412267593955e+00,-3.184783431767165496e+00,-1.077590386020774588e-01
-5.237072002891730804e+00,2.119136317420109883e+00,-2.437263361817670226e+00
-2.955113985114560027e+00,-4.431036664137346648e-01,5.165525813426540935e+00
3.681112380027399489e+00,-5.993989942437044638e-01,-5.103165621311726241e+00
-4.653511026771844250e+00,1.086164485760823473e+00,3.756390407433150891e+00
8.255331614630518899e+00,-1.323867737031977798e+00,-3.508297274878139138e+00
7.757529822845194545e+00,-7.950558335519948283e-01,-2.214480593890062021e+00
-5.119695945878312671e+00,4.378001992550959010e+00,-6.146429446737094793e+00
2.466437228738784349e+00,-3.195542516174146197e+00,4.975443205625754928e+00
-3.736804591777554307e+00,-5.606668814222979247e-01,4.882932177543239050e+00
-7.726872350209507800e+00,1.854690501857750196e+00,4.741025420056887540e+00
1.614845580238250644e+00,2.459305496190564710e+00,-8.616833477931773899e+00
4.792151034005409649e+00,-4.481454503169030268e+00,6.253435273607963474e+00
-5.425500892730208968e-02,-3.717282313743555111e+00,7.009885896123994264e+00
-6.346987742368852992e+00,1.664274453379234631e+00,-1.502459642958403618e+00
8.045260837766800677e+00,-3.473850840284199659e+00,-2.129414810685131609e+00
-4.315755742319032251e+00,4.485855235542734576e+00,-4.336626168306596973e+00
6.305956597875294278e+00,-4.780971932229195254e+00,3.608166289456114395e+00
-7.888911072234952471e+00,4.213141714975509267e+00,-1.179638295800059522e+00
-1.919933719833651908e+00,1.639903870551562948e+00,-5.843714053499158290e+00
2.719307958333745390e+00,-2.872796391582512765e+00,8.317301375721768864e+00
5.726652316593260350e-01,1.149426968941397620e+00,-5.985370915950394277e+00
-3.365494296405136865e+00,-3.251817932995753058e-01,5.125164991650072110e+00
-5.698435376492153814e+00,-6.134230752271915277e-01,4.474737046206866076e+00
-4.867945030742587775e+00,1.778110918953219155e+00,3.766125210265701462e+00
7.377845839100995173e-02,3.372628486262614356e-01,-7.316191274082689766e+00
-6.230840183912396135e+00,1.928451028042555082e+00,-4.015806452963521345e+00
6.473999603737363717e-01,3.792002707660971361e-01,-6.592008120225704815e+00
5.328597838668062359e+00,-1.265910776991045816e+00,-2.889957513186733884e+00
3.795238124085037246e+00,-9.289202402602327879e-01,-5.239763255724835922e+00
1.153267231787973746e+00,1.020485008546215377e+00,-8.823742909134830725e+00
1.912798520483047104e+00,-1.124796151273736333e+00,6.938556108701467551e+00
-7.011225369952742703e+00,2.814137026980724876e+00,4.202818739784154545e+00
8.040062671300802322e+00,-2.205786012442254584e+00,-4.120966121789978232e+00
9.019619739942612568e-01,-2.990552724190913114e+00,5.840720207263727204e+00
4.937075419456735226e+00,-6.888526027165886578e-01,-3.831679562257056304e+00
-2.085733732098054016e+00,1.140024540983695767e+00,-6.393203674742914622e+00
4.997855613775985972e+00,-4.717996034304628772e+00,5.576203217313923766e+00
1.016418349129598386e+00,-1.617448604569531989e+00,5.872884884898782687e+00
-5.761621975325892819e+00,2.242849449340031054e+00,-1.405434408983880612e+00
6.964228051065291858e+00,-2.650212580484041514e+00,4.576121131993466484e+00
-6.274213881571903073e+00,1.682772568425447313e+00,6.261291779183080664e+00
-4.936499116331284576e+00,-5.299561039247042693e-01,4.454307676307334596e+00
8.951941444720886709e-01,3.428201251819027462e+00,-6.961296389631113968e+00
-3.463181068511721694e+00,4.065894902009295819e+00,-4.502924037736850238e+00
1.611560964809003904e+00,-1.601633347019862721e-02,-8.217072351125500163e+00
-6.838656752012173712e+00,1.801262666924496214e+00,-3.226271647486497418e+00
-5.120756314521249131e+00,-1.241044152519805016e-01,4.005501593300583529e+00
-1.660097832103859972e+00,-2.880133181503724327e+00,7.840609448527983361e+00
-4.674974229964746542e+00,2.244663614532817153e+00,-6.823233501277138124e+00
4.513125410461471532e+00,-1.751958369774582192e+00,-5.931966595815679533e+00
-5.822316972586384587e+00,3.423668003775127033e+00,5.826234306177511257e-01
-5.364756821871907277e+00,2.236911887432393886e+00,2.570345033689620085e+00
-7.734068887084224464e+00,1.781683910391956172e+00,4.483019727391559961e+00
-3.331431482446475467e+00,5.718883840916307859e-01,7.856998265543516879e+00
-6.421796591153457356e+00,3.944337683348887680e+00,6.324187215076242374e-01
-5.342894109301200567e-01,1.008907749085041106e+00,-8.356331925080057843e+00
-1.686251137542256862e+00,1.459521980182066025e+00,-5.986925240091116152e+00
-5.696657436079651582e+00,2.970006559323357553e+00,-3.095604552318664826e-01
1.314815551128695414e+00,-4.124992080546094897e+00,6.874586182305571391e+00
-4.007462274927426016e+00,2.212644416333717778e+00,-4.437805294979575876e+00
-2.298186231812764824e+00,2.712009822386250324e+00,-5.022351826065654556e+00
-8.513852273430920548e+00,2.400310180708657537e+00,-6.474549825781925616e-01
-8.372329164811929958e-02,-1.147292997720957830e+00,8.662939442120526579e+00
1.993385417787278291e+00,8.888584792513758437e-01,-5.873681803622802455e+00
-8.262789475824693142e+00,1.563118209102552614e+00,5.518703945578098402e-01
-3.060376962127023592e+00,1.522187238464517867e+00,-6.071350594016943880e+00
-6.923740776295021604e+00,4.485731447997505505e-02,3.819023280019973043e+00
5.697329666703624618e+00,9.095582812836808806e-01,-6.308666053853597688e+00
8.353024216579459704e+00,-1.972105742657597638e+00,9.513615418324299355e-01
-4.195480373658022621e+00,1.382847662128843025e+00,4.913414845596111746e+00
7.900592546940775840e+00,-3.886359374408671297e+00,-9.192627647660333023e-01
2.260157275345813233e+00,-2.361904528409643600e+00,5.215801578465875998e+00
3.596063321859712225e+00,1.340118714710889725e+00,-5.445630863776588448e+00
-1.479088075031550265e+00,1.072237584466088967e+00,-6.723137533562160151e+00
-9.540761310755665470e-01,1.940691139902417817e+00,-5.842417958680309553e+00
-1.583640058940720463e+00,2.790829384401778968e-01,6.946078899952514263e+00
6.453085828000665991e+00,-4.691860606073339213e+00,1.879483924832737962e+00
-3.059640584567727473e+00,4.157467360569496506e+00,-7.299625405930115996e+00
-4.159655138336598057e+00,4.384799489484144885e+00,-4.181343150250045326e+00
-5.854854377381457198e+00,-5.342434881261999280e-01,4.091798154271270249e+00
-1.565569066408705412e+00,4.022413189314091753e+00,-7.857185462165688250e+00
7.439030642557038497e+00,-1.375455885236724018e+00,6.887620481824129337e-01
4.671584954042680593e+00,-3.115493272369725397e-01,-3.828257958469409861e+00
8.101446463836138534e+00,-2.839070239465896872e+00,-3.159964921451668740e+00
6.179192845798535672e+00,-4.560251200170998831e-01,-6.872770243427368975e+00
-4.188451966422531036e+00,-5.560881204898612262e-01,4.923296456262623799e+00
-2.266402843530308520e+00,-2.055992968694115852e+00,6.006442513991919085e+00
-7.034517569330108522e+00,4.625243343516146410e+00,-1.374567044338004029e+00
2.463685636848627958e+00,-3.954020848097649310e+00,8.031651596599443721e+00
7.440648713069114351e+00,-1.658457015508568722e+00,1.868956177364572646e+00
4.917373844326111687e+00,-4.602290270056398569e+00,3.453409744939668791e+00
1.592262334937018187e+00,-3.814119982487393923e+00,5.989142661528215505e+00
3.128266940403440444e+00,3.708970773735912885e-01,-5.422362462920579773e+00
-5.705489019994858246e+00,4.635593364246661352e+00,-5.057267448669673371e+00
2.705356475301366359e+00,-7.284687409466321650e-01,-6.633341738751165728e+00
-7.388850001289534397e+00,3.134207216025091114e-01,4.542399267766094262e+00
-5.578700306721189328e+00,2.853239272428332196e+00,-9.130826479161703313e-01
-5.377134211742840009e+00,4.720507695794116998e+00,-4.860353167601680902e+00
6.771079236730946249e+00,-4.679276004586533588e+00,1.529547073512016908e+00
6.584777702499474472e+00,-2.867467235496882427e+00,5.446098464226008851e+00
7.550335286365238652e+00,-1.363100751945473421e+00,4.755475891812814826e-01
-6.037641014945224427e+00,4.396745776289370689e+00,-1.151139463676445152e+00
2.899107935926751090e+00,-6.988605037612458659e-01,-6.204376693351478345e+00
5.513692355140333845e+00,-3.302178101510938379e+00,8.509264146573232157e-01
5.932110969261838562e+00,1.661475004152095369e-01,-3.695980956022467456e+00
-6.950350180464735850e+00,4.691995801770789676e+00,-2.739386646557173233e+00
-6.588673231394586161e+00,-2.859287994181217152e-01,4.036654893307599856e+00
-6.003661415172328653e+00,2.065905223515228872e+00,6.164442380813325961e+00
8.598368887794391568e+00,-2.564896592234135575e+00,8.243509479637385340e-01
1.521859086617712631e+00,2.069625103117240517e-01,-6.313725046029787791e+00
-2.044277751218654515e+00,1.273374813952066420e+00,-7.867072725041422743e+00
-5.448806577716551303e+00,1.489232466042267056e-01,7.527965646469470862e+00
-5.985687041719982560e+00,4.653945572081981119e+00,-2.348935414681085465e+00
-7.678793408093397055e+00,4.474041252121439882e+00,-2.186310189686586636e+00
2.300231637149801944e+00,-2.292784584559992123e+00,5.313255148454541832e+00
5.973659164588854154e+00,-3.291938112204867650e+00,-2.164041017329125349e+00
-7.342885336076354186e+00,3.920513292848734288e+00,1.933199351956466527e+00
-4.371570456217659384e+00,-1.398315480993650217e+00,5.405965592521218888e+00
7.092153360759858138e+00,-3.921986341486164207e+00,4.562084155300357047e+00
-8.364615005964990413e-01,1.356069884981640383e+00,-5.974107548162971959e+00
7.073555445107692741e+00,-1.918656662204542229e+00,-5.425502188355314281e+00
7.626284883640605194e+00,-4.165210222806584039e-01,-4.448205170425010735e+00
-6.422500120270039581e+00,-6.342270337178653739e-01,5.185242520216115203e+00
9.047070802256811373e-01,-3.612459893489705642e+00,6.276739423085087921e+00
7.803356368461520809e+00,-7.651158818751820911e-01,-3.923296271940905022e+00
-7.728324233905650154e+00,4.387322320124827257e+00,-2.039095723328869347e+00
7.522845547479322548e+00,-4.631482143337901647e+00,1.995681808469410567e+00
-5.812323615474733529e+00,2.271699963040001879e+00,1.064715240556073084e-01
2.676467692938412579e+00,9.317635323753439280e-01,-5.514002360766107280e+00
7.495011639904964440e+00,-3.923729028200662050e+00,-1.428733412335455810e+00
-6.230232429754855028e-01,-1.986256779941944606e+00,5.902498952404878096e+00
3.449030662082736232e+00,-1.227627972619741659e+00,6.382523102570601736e+00
1.891887804162072362e+00,-3.483779967193926019e+00,5.385909012454245470e+00
5.183585729159135624e+00,-2.161956234657211873e+00,2.273514427033154650e+00
-8.167055170943086750e+00,1.845455510170484370e+00,-8.178121403193794325e-01
2.358903689026297545e+00,1.830487142083258023e+00,-8.574989154508298128e+00
-3.022544103357748480e+00,8.729641184837071410e-01,7.572621328678105890e+00
6.538483895722187356e+00,-4.039900750322966694e+00,-5.436377803986586210e-01
-7.752920526488203734e+00,4.272356910881704550e+00,-2.828665221820190201e+00
2.088146239925805503e+00,1.032742921469439912e+00,-5.670606519884088925e+00
4.026947946432251513e+00,-1.362460177626586777e+00,-5.335546238570358923e+00
-6.924866950691181522e+00,2.146908583810678561e-01,2.699952571243225741e+00
-1.204658743100552876e+00,-2.618333686858919651e-01,8.422727356965767243e+00
-1.606135780938892310e+00,1.298945182564694489e+00,-8.104391838186314700e+00
-3.817462844924942811e+00,8.189866399453618051e-01,5.043388883242815091e+00
7.928518052659905280e+00,-1.602279501017189967e+00,-4.471346596846212051e+00
-3.883046822101990370e-01,-3.542598152490035179e+00,7.665370462600900936e+00
8.543786165999106785e+00,-1.815192003012219724e+00,-1.677825985354236327e+00
3.916974436839073093e+00,1.898545846365909284e+00,-6.479913440133890923e+00
-1.189196946721148701e-01,-1.304567023604121578e+00,8.844341695777705681e+00
-6.105735867475741152e+00,2.383783771244627481e+00,5.167865670300937353e+00
2.231698846206142672e+00,-9.666694237506835707e-02,-8.300237824520756647e+00
-7.611514093179288842e+00,1.092368427223544325e+00,1.756905058698856048e-01
3.578642710757317325e+00,-1.015816532345318324e+00,-5.229834988101556448e+00
6.684925848341399579e+00,-3.248747857443774478e+00,-3.792898885229438743e+00
-5.891380828681926474e+00,-4.303779993892609679e-01,3.826582548503415282e+00
-2.264922865722530432e+00,-1.254585095466149047e+00,5.719769559031554707e+00
2.411483559478813099e+00,-3.073276281583395608e+00,5.041178076804779806e+00
-8.306365720651482931e+00,1.514778820956085292e+00,6.696319700132471464e-01
7.915397449438816402e+00,-4.201727607474819770e+00,1.934413035978878592e-01
3.724057053965276864e+00,-3.848511243679110017e+00,7.616706428798559969e+00
7.055000705951054663e+00,-3.469926057249867579e+00,4.637481508725740831e+00
-2.040634849150576580e-01,3.062347143614190248e+00,-6.058361404943481965e+00
-7.256219610213155313e+00,2.386712429139593861e-01,4.751658135008815620e+00
6.400495421681351438e+00,-1.098972923149360570e+00,-1.246786606161210065e+00
-5.940710449082988731e+00,3.809066562780317966e+00,7.242521367600522619e-02
-2.081138448146339359e-01,-8.656220908072019826e-01,6.200678193425925855e+00
2.592284896660366655e+00,2.471508142631883231e+00,-6.423969534531146941e+00
-1.308064213547408983e+00,-1.517776952915736721e-01,6.557099126451113591e+00
-7.345059040609175582e+00,4.616121866273261709e+00,-1.968684947182065326e+00
-3.830803056580311061e+00,3.864252736827206824e+00,-4.128696595856244045e+00
-3.432352903045453818e+00,-1.289156408350922156e-01,8.442062976571572008e+00
6.487932880635668198e+00,-1.708412407704253511e+00,1.816969524898923938e+00
-1.577455260315824059e+00,1.357098680053784090e+00,-8.100985803422334541e+00
1.603377739991024953e+00,-3.935878050760054786e-02,-8.273606230039550979e+00
-8.233263788798740990e+00,2.693675988351522221e+00,-2.337101291393884672e+00
8.152524201338836818e+00,-3.178236730995743997e+00,2.930332827974500454e+00
3.231600204676718380e-01,-3.222595411733302662e+00,8.433558163682329578e+00
4.867487261240201590e+00,1.546713744891674347e+00,-5.774635185225309719e+00
-4.501197940781318962e+00,-1.077048524603358537e+00,5.155280319589803817e+00
1.651984525286267269e+00,-3.148561539760037498e+00,8.570482769290801883e+00
-8.521912073440466528e+00,2.472454928311585309e+00,-1.187618062911508954e+00
-6.561837352195163398e+00,1.420171122445894829e+00,-5.177601821606134802e-01
-1.198420353211536060e+00,4.004223272589821470e+00,-6.793196836244202785e+00
-1.518582305229873031e+00,1.776443980708275028e+00,-5.807567104650928513e+00
1.764368359443081458e+00,6.295144035851066855e-01,-8.768948964369332799e+00
-6.180646726944871716e+00,3.105235292557187332e+00,3.764580026079739294e+00
3.773128941538829828e+00,-5.016196878083527544e-01,-4.805823465832777863e+00
3.374147768044458484e+00,2.028593759721620593e+00,-6.342099530178355593e+00
-4.880962119718083692e+00,4.412734842691677706e+00,-3.409776630241365680e+00
-1.674025427772742880e+00,-2.034968635277885518e+00,5.989991109826855897e+00
-1.345250638005403010e+00,-4.438491346622186473e-01,6.059096699470917891e+00
3.267622743899906146e-02,1.117513719927265781e+00,-6.342850955335403995e+00
4.347934754049139094e+00,-4.327063880037704813e+00,6.764104537289721719e+00
5.217788686584576396e+00,-2.962765937198875488e+00,1.876086055884458537e+00
3.952328996505632963e-01,-3.731805356564616094e+00,6.972202060459073536e+00
8.491934358717189824e+00,-1.380234093361393022e+00,-2.480361664194508098e+00
6.356520500091851211e+00,-1.843942298645257383e+00,2.116792940242345100e+00
-4.365058937746040812e-01,-2.580292475914318207e+00,8.852500361843238963e+00
-3.803664332355726430e+00,4.229808772641401760e+00,-4.741094665875314362e+00
3.688447987892585100e+00,-3.398721795498008458e+00,7.583032087419750766e+00
-7.743988700096472222e+00,3.544550202784586102e+00,2.417081706247564910e+00
5.884278658173475840e+00,-4.755958760083028314e-01,-7.123876816155339853e+00
-3.299856684700136267e+00,3.440097406367967015e+00,-4.324965809939231853e+00
-1.072163596214032455e-01,3.517415618230178787e+00,-6.583369202722097135e+00
7.107055273922163963e+00,-4.330273076703364588e+00,-1.346984620570468860e-01
4.698699063361166495e+00,-3.533629007064034155e+00,3.103342251961869636e+00
-3.205048220272809445e+00,1.712711593878531516e-02,5.299943157383585124e+00
1.857658316006527421e+00,-2.820573192378966532e+00,5.314600532208578976e+00
-6.143606953435042151e+00,1.590720577624628929e+00,-7.601959498824578665e-01
-4.261214098279689999e+00,1.844189564622891631e+00,-4.969311824397196986e+00
3.614838408081724630e+00,1.787521124819407170e+00,-7.912846165017205280e+00
2.107557849646339410e+00,-1.098830247516478176e+00,6.937225976214676848e+00
-4.611987783315702139e+00,1.941899827572709070e+00,5.164418142480848850e+00
-6.894135358423282511e+00,4.655086963604568417e+00,-2.091716316325003877e+00
-1.417920487511751482e+00,1.850175589431016510e-01,6.873895252037863557e+00
8.425713045969246195e+00,-1.350729987552211186e+00,-3.325476750001551629e+00
-5.338837271527551387e+00,4.107863518222456101e+00,-6.124752970102607996e+00
3.365060141258779947e+00,-1.603236353578859630e+00,7.030668887578624293e+00
-6.697169553242257045e+00,1.629542094025510091e+00,-2.151377040906563121e+00
1.402145652523638930e-01,-2.352239419934780251e+00,5.950766095817971113e+00
4.999526515444245867e+00,-1.434147235881491511e+00,-6.982260730963602668e+00
6.520107275938271663e+00,-3.054726410633978428e+00,-4.439237280818498554e+00
-7.430138376570949887e+00,5.423821222864227964e-01,2.555032211287542765e+00
-1.195650976789755404e+00,2.046116555082440502e+00,-5.566914218043223173e+00
-5.563675119815137293e+00,2.738647072264915217e+00,3.305440311088026384e+00
