2.942175676798327366e+00,1.519430530015137837e+00,-1.073440705898580649e+00
9.390464924169382721e-01,-3.951473057502572939e+00,1.600235746484987009e+00
1.873660592482524923e+00,-4.076941470021163916e+00,9.188625423866851952e-03
-3.553501459266557028e-01,-3.515408425028671235e+00,2.687639906899963460e-01
-5.305720378826828121e-01,4.557121174022415566e+00,-1.548370213037740806e+00
-4.541841317492530394e-01,-3.214041574875837526e+00,1.121765551976363184e+00
-3.642752850298365264e+00,-7.462138419967986325e-01,-3.971123558055874581e-01
4.832441100877288953e+00,-1.128253030904837056e-01,-7.741983976320592209e-01
-3.092339951141784837e+00,-2.080191256217323037e+00,-4.748852590642078236e-02
1.875565063424357248e+00,4.293239112442674532e+00,-3.509202387887145891e-01
3.308104607572244227e+00,-3.506394486578875203e+00,3.417358983522481020e-01
-3.252292798908527072e+00,-4.255213697856907729e-01,4.226230227304361153e-01
3.378342052540164620e+00,-3.599678474417837837e+00,6.199776081962862229e-01
2.336137860911055852e-01,-3.293197948403054909e+00,1.240143960453545136e+00
-1.404769751738181860e+00,2.834722104004668619e+00,-7.344993636714708396e-01
4.772387335453387891e+00,7.427981084696093639e-01,-9.227155162758408913e-02
-1.832741049151297652e+00,3.520113606321633171e+00,1.641124606796855456e-01
3.772015302231389366e+00,1.911033685830858753e+00,1.736540535064946267e-01
4.303806546430076096e+00,2.399903613804036162e+00,-5.566368093555713603e-01
2.616838493861697756e+00,1.904837085371459571e+00,-1.070493304041971072e+00
-7.106127443927542364e-01,-3.116256804427733673e+00,1.144452032607377712e+00
-8.681883718594670674e-01,-4.288817567071585124e+00,1.743658053229152349e+00
1.883564367882011759e+00,3.858559312198899249e+00,-1.011665729115478474e-01
-2.436844534966925213e+00,-2.371641917000003374e+00,1.399114411429876581e+00
-3.184423026727498662e+00,-7.766457729404627752e-01,3.358567314605767073e-01
1.527000633105634275e+00,3.841195859777080113e+00,-1.544962067806215367e-01
3.129658347577129462e-01,4.624555621792723059e+00,-1.440597416682851462e+00
-3.476190232857807594e+00,1.243305902821408848e+00,6.841139258990476257e-01
-3.083246691173818999e+00,-3.463848580128991106e+00,1.477577533813311472e+00
2.600305489852338781e+00,-2.385342037096307877e+00,-2.183898371004124317e-01
-1.647185752973898243e+00,2.930284852773993087e+00,-1.471873732521145617e-01
-4.754085190772183722e+00,4.159251395354784386e-01,6.511144556196540867e-01
3.220354415774015600e+00,4.411720530500458648e-01,-2.055636249659313630e-01
3.464677487201899719e+00,-2.387105263752440643e-01,3.293428839451115753e-01
-2.777644426875395048e-02,-3.401132389232532471e+00,1.441305995831954734e+00
-1.069317019365354060e+00,3.103134402301254813e+00,-8.489313154261676209e-01
-3.843789265652539644e+00,9.015864605972766510e-01,-7.469557255791875461e-01
2.735342509202463024e+00,2.980578877722404041e+00,-7.867210192834551627e-03
3.353092415158934525e+00,-3.244630039920239906e+00,1.066318751601405879e+00
-4.773501932386417401e+00,-6.365299008962377325e-01,5.886318270084778259e-01
-3.591499868536297768e+00,1.691025205135472165e+00,6.175094423117712950e-01
3.143432915868155320e+00,-1.266422244664237695e+00,4.665165311579452245e-01
3.760374326541412682e+00,-1.344541102762465412e+00,-7.642547787277004234e-01
-3.950745175361107808e+00,1.033535380869670783e+00,8.080064471380142832e-01
1.569153697677306281e-01,3.555306552683011212e+00,-1.596248773328559301e+00
-2.306709319662605395e+00,2.669207149410165236e+00,5.541765115953989351e-02
3.638958854769183571e+00,-4.809964216807981474e-01,-7.837827754175378248e-01
-3.697448102562995498e+00,-2.876037297690403616e+00,2.862632099715294309e-01
-9.011687096528725460e-02,3.801265342797313540e+00,-1.751724297206807002e+00
2.934562066170804506e+00,1.277178800894963606e+00,-7.399435003450098858e-01
-2.481423618174124268e+00,2.369277803782412928e+00,-9.096243631888757397e-01
3.461767099305550488e+00,1.359922546124145537e+00,-1.345584950157026283e+00
-3.009995670236630616e+00,-3.325036549645945527e+00,1.889859966542842551e-01
-1.121179350343009196e+00,-2.997502502355988252e+00,1.187914309709907190e+00
1.876850134374511647e+00,-2.540554732033554863e+00,6.863143728789383724e-01
-3.114076195614669640e+00,8.389057704509434998e-01,8.500791199557643230e-02
3.796656928612864856e+00,1.968597598461154119e+00,-1.359986255941628031e+00
2.575967507599339790e+00,-2.798309947954047860e+00,-2.346806789888944145e-01
3.590332121177389091e+00,9.604370795176091491e-01,2.547111860089281699e-01
-1.757039129412875544e+00,3.133148180950005468e+00,7.634849974300350617e-02
3.585793118505504307e+00,1.324785094746569358e+00,2.448289174266213564e-01
-1.311310649014714835e+00,-4.583894463301382949e+00,1.133045644841291777e+00
-2.707328829717801644e-01,-4.219461822329943601e+00,7.655023769189449323e-02
4.439910543892716888e+00,-1.649413586761153905e+00,6.692662648979729179e-01
-2.689008028512752446e+00,-3.341205202631032378e+00,1.595659598392673795e+00
-4.087468287159607527e+00,-1.781293801298325041e+00,-1.074241602143457125e-01
-4.946410844531124340e+00,4.057139815470804933e-01,3.484163041810280775e-02
-3.094160179005612132e+00,9.582963784060125612e-01,-2.311233965864899487e-01
-2.082324284216166888e+00,4.016315335152103039e+00,-1.261371175709154802e+00
2.628897095885390556e+00,-4.188572213258689558e+00,6.185140108045974472e-01
3.874564414133372825e+00,-2.460355945937144018e+00,-4.224907258275456545e-01
-4.043932226881120862e+00,-2.352350773738035361e+00,1.130716450510607762e+00
-4.630519585356535295e+00,-1.052603687960457224e+00,7.926921974532115389e-02
-3.898102779275109064e+00,-2.256741728936815239e+00,1.341191751790773878e+00
2.562776035701103350e+00,-3.312501327025479281e+00,-2.222610549938210389e-01
-2.470075255300091310e+00,-2.811507821741020763e+00,7.904080471778021644e-02
-6.884808885776253495e-01,-3.151937400665865585e+00,1.086082182933469920e+00
-3.298968210883590491e+00,2.820662662247223729e+00,3.919329019673350456e-01
2.758010610479863622e+00,-3.779118577624965614e+00,7.007015334940941420e-02
-2.969955598982138678e+00,-3.532196172249937760e+00,1.356530394131609807e+00
1.024755679465942260e+00,4.672269757546832381e+00,-8.213416581338749412e-01
8.822769011897341196e-01,3.003779722974576405e+00,-1.202368351685224601e+00
-1.577242890295986966e+00,-4.470983662159583538e+00,1.214950675173980477e+00
3.171385117737497428e+00,1.227482785380415553e+00,-1.030542456336429380e+00
4.375068209143869957e+00,-6.115345056652438105e-01,7.112038771897308820e-01
-4.291413083262441752e+00,2.221481707821497675e+00,-3.132325901722364525e-02
-3.074397906667892144e+00,1.504534022421952999e+00,-6.600984743937241550e-01
3.118999171181195074e+00,3.005918777078997906e+00,-1.623922049875945017e+00
-2.578979192145431920e+00,1.933847422654607406e+00,-1.835501280808619351e-01
1.507793657966282064e+00,-4.372324034216474864e+00,1.360032307976071220e+00
4.181952591509628725e+00,6.524150965363799681e-01,-1.248455781908492490e+00
-3.281855173203304776e+00,3.567924693616711718e+00,-2.577513591458588382e-01
2.654457790539329842e+00,-3.586401051354724867e+00,1.339008001310842078e+00
-1.272814973374807979e+00,3.074293214274469221e+00,-1.156995445369731534e+00
4.367883094561661572e+00,-1.086739512165659560e+00,-7.492094428956900254e-01
-3.222657564328950563e+00,-4.305650912567835498e-01,1.786185363738209547e-02
-6.438159187931313809e-01,-3.196641277628446076e+00,5.079367109705761330e-01
2.325312968249293899e+00,2.673630338453213628e+00,-1.503259131966570683e+00
4.747306328830466216e-01,3.259089253630994776e+00,-1.221593459371042245e+00
1.803313078244562107e+00,-4.387978439289963895e+00,2.096177648366210344e-01
4.296837740069946676e+00,-1.634494985013144275e+00,8.134271249176134866e-01
5.225412757236327366e-01,-4.412238493664514039e+00,1.583724616542710351e+00
-3.327982426008588845e+00,-2.948637398420903111e+00,1.476407285469933273e+00
3.398787386596707094e+00,1.809491285250053594e-01,-6.242569012530801813e-03
3.812202966982719765e+00,2.412425702458782517e+00,-8.559252182041800954e-04
3.313144534705826150e+00,-3.582636987356677238e+00,2.936204090335211569e-01
-1.442724316803907225e+00,3.653799895541794296e+00,7.572547602483824247e-02
-6.710482981937615499e-01,-3.141651955091933068e+00,9.319547367419409589e-01
1.270907174997190081e+00,2.964199148197741884e+00,-9.882126652366550745e-01
-4.212165013304664640e+00,-1.210765243089779952e+00,1.320117439897378508e+00
1.824400507206923816e+00,-3.081202620501898082e+00,1.318016385272549718e+00
-1.653023607025313924e+00,3.243895495361042158e+00,-1.376202691301290137e+00
3.812873471577008733e+00,1.920497544768935416e+00,1.513580014385275119e-01
3.285118598380178501e+00,3.040980242475134432e+00,-1.301975020556216389e-01
4.739752103908391412e+00,-8.342452367328593299e-01,-3.926341990348774513e-01
-2.636826951292209120e+00,-3.376559022988572245e+00,6.527514105972005709e-02
3.513230927089073585e+00,-3.172748262962492571e+00,-8.503637702111499497e-02
1.265201693074778699e+00,2.917821722651653182e+00,-6.916729538362144103e-01
2.051293509497765122e+00,-4.381299476508624835e+00,6.798245617562096443e-01
3.095683499111610004e+00,2.801137812831085760e+00,-1.672957068493744481e+00
2.656439120458903069e+00,1.805383247678876701e+00,-5.527393565189681057e-01
-3.644182508274593335e+00,1.838985379409042054e+00,-1.002300015258420496e+00
-4.427405547719676093e+00,-6.399206686872188632e-01,1.120195871667284848e+00
2.316443246326237215e+00,3.643790167798705681e+00,-2.222630730880817140e-01
-4.159688104955723276e+00,-1.820604968976586635e+00,1.354354939922667977e+00
1.963871138429488905e+00,3.000018184591853210e+00,-1.407620095727230014e-01
3.893233894779771109e+00,-2.888567326936631652e+00,3.994940145422320454e-01
-4.192696503784942852e-01,3.260832747570248991e+00,-5.349153079686060908e-01
-2.130469498975388731e+00,-2.343804530477903825e+00,4.845580713404614159e-01
-2.914812527633376504e+00,-3.645105630368724370e+00,1.285945760737888133e+00
3.616067900038710814e-01,-4.745341370864472275e+00,5.005846689064226140e-01
3.050914389577603636e+00,-3.237855010813762924e+00,1.191920740180607785e+00
-7.763881772458559594e-01,4.669549321012474330e+00,-1.280205662863097782e+00
-1.055592689363636372e-01,-3.792340763256989433e+00,1.655300408151311187e-01
1.553692488850854758e+00,3.272869192596465915e+00,-1.859268807194321971e-01
8.376105116968469710e-01,3.173555373093875254e+00,-1.415591720689722388e+00
-3.546070514845286237e+00,-2.972280533374720424e+00,1.333081959180402176e+00
7.733620155351849101e-01,4.630162729210865358e+00,-1.312954668383420787e+00
3.009980685205285500e+00,3.337562686836969661e+00,-1.386106768268349887e+00
-2.477054675753213253e+00,-3.938627419826254528e+00,1.338035248312120951e+00
1.813767709982783582e+00,2.700001628934351139e+00,-4.910544115152241096e-01
-7.310005103076318012e-01,-4.197705424236863436e+00,1.758242659342749148e+00
-9.206121216272524777e-01,3.683010421730541495e+00,-1.934066116629347756e-02
2.184303889244030294e+00,-3.236375570706445881e+00,1.431835107474408675e+00
-3.290930357067832990e+00,-2.192147912286408484e+00,-1.306982176234840476e-01
3.500897356037043551e+00,-3.335175556591438162e-01,-8.870741655319711594e-01
-4.098217193861286134e+00,2.587620137972351575e+00,1.775363700545765366e-01
-3.328354639418800165e+00,1.154806288787501689e+00,-5.736156126544197376e-01
-4.272285658454887169e+00,1.513003293858644405e+00,-8.306168257339093808e-01
-7.733929074345736732e-01,-4.717819015513528669e+00,9.704869305441166105e-01
2.328053173123421082e+00,2.549199889832851174e+00,-1.375480234369916843e+00
3.466253825976745695e+00,2.653101296998393810e+00,-3.765831688374664254e-02
1.228580545468813900e+00,-3.484629071973793568e+00,-7.339152178504036901e-03
-3.474093092926874515e+00,-5.294391811191655473e-01,1.026678039681238275e+00
3.388906326959549187e+00,3.478925591559500319e+00,-5.578710289095625274e-01
-2.777179162847659644e+00,2.588516771759555191e+00,-1.202806130425339903e+00
1.143840345982842788e+00,-4.034834042360443185e+00,1.636969641635291683e+00
4.060975136573847344e+00,-1.227059828390001162e+00,-8.337912106899065812e-01
2.635124793662741993e+00,3.450549537438186931e+00,-1.765316036382840459e-01
2.699917146162732262e+00,-3.959206071740567268e+00,8.327557095945630206e-01
-3.749731454665737651e+00,-7.970473870435743624e-01,-2.809540517532574944e-01
4.457978659152511902e+00,-2.075938849931576957e+00,1.764181200501527547e-01
3.723146432656929239e+00,-1.502581262433902776e+00,-7.504065763034797332e-01
3.845084088635834618e+00,-2.496480673951005258e+00,8.873828552406232140e-01
2.685305057661456107e+00,1.771843521532415533e+00,-5.274419547600993630e-01
4.940424077612659559e+00,3.245381018202012080e-01,-3.555404551063549579e-01
-2.019460466668117959e+00,-3.737013581930784145e+00,1.743233612871638805e+00
-2.941280140739464422e+00,-2.280176418061990340e+00,1.492759454821371179e+00
3.641834250426156050e+00,-9.244114232195440595e-01,-7.768060483889519530e-01
3.852848435213497513e+00,2.987303166631647855e+00,-7.030650375514072570e-01
1.352518549798037206e+00,-4.647469324833805260e+00,6.456253046361526415e-01
-4.772524160113416514e+00,-1.119107761538435275e+00,6.962570041384986697e-01
-2.906560819098098936e+00,-1.347597989559844445e+00,6.544296785480196998e-01
-2.541747574065695403e+00,-3.129962773109330243e+00,1.208088497427902558e-01
4.618957952052924476e+00,1.254880485124497902e+00,-9.619351428975491114e-01
3.256041456851761495e+00,-1.548761709216543103e+00,8.421570256943347044e-01
4.041142888004708666e+00,-1.794825714761405067e+00,9.172576103779519485e-01
-3.567165672427218936e+00,1.906101544673882486e+00,-1.035681581156292941e+00
2.441923661620175601e+00,2.017294131507083588e+00,-5.985776532943624106e-01
-2.008276799817947822e+00,4.313277257411717081e+00,-2.416948385009323463e-01
2.554478850525136568e+00,-3.683224697378274293e+00,-1.369672383055860476e-01
-5.764914910518275093e-01,-3.605668633223517716e+00,1.666972323834323477e+00
3.899185443096643500e+00,1.937832381048486541e-01,-1.161734465452218590e+00
-3.237309993686238840e+00,7.450604083191316729e-01,-1.334146955500965445e-02
4.002150316154094334e+00,3.549422279285946447e-01,-1.233023924613848576e+00
-2.500688198794780437e+00,-2.706304836301577588e+00,2.870381075543941216e-02
3.933613364675976332e+00,-2.097967228441920629e+00,-4.968044053513642200e-01
4.391481350193935818e+00,1.861197644716344524e+00,-9.953612636931622459e-01
4.957156730966056912e+00,-1.832293557218520746e-02,-4.714841761692354360e-01
-4.385301795931026092e+00,-1.954238462197153137e+00,1.024443327980915530e+00
3.102005713612977278e+00,2.177577227934323290e+00,-1.551569761749893805e+00
4.798830552372837843e+00,-8.661978962189675890e-01,2.262937938544449801e-01
-3.616814032966670478e+00,-4.150643820397807437e-01,-2.875093568961375468e-01
2.169099594597966085e+00,3.944478252456263601e+00,-2.190443613492514818e-01
3.145850630561807915e+00,2.893064860890901535e+00,9.146077139349699167e-03
-2.839587574000571379e+00,-1.654456234888720401e+00,2.116088912697105806e-01
-2.844698107977692736e+00,3.120650730701852726e+00,3.456202751286243657e-01
-2.296757231403482979e+00,3.453988706931960806e+00,1.250656321308087904e-01
2.837364547358484645e-01,-4.712449335797219696e+00,1.358873588725969306e+00
-1.837746500373647951e+00,-2.694156892260886504e+00,5.475770670405762930e-01
3.539244391366100473e+00,-3.096342880365233974e+00,-1.732282562575487017e-01
2.839024746661920062e+00,1.715642742372452068e+00,-3.120315011911838354e-01
-2.030787100579010573e+00,2.842210477834782534e+00,-4.316248855774596632e-02
3.336334340117587338e+00,2.771962781348694449e+00,6.557676775303004912e-02
-3.444537954347888675e+00,2.948254040160394607e-02,-2.530841785206842665e-01
1.663592880669320095e+00,-2.732535258188656169e+00,5.789469520901896482e-01
-2.366155458622483998e+00,-2.889609507082145257e+00,3.545281449263065071e-02
-1.230049788386836873e+00,-3.411340412889978690e+00,1.308056360963617826e-01
-2.261899112997946659e+00,-2.859572369518242674e+00,1.263278742300955049e-01
-3.069639264359691477e+00,-2.089547183159849553e+00,-1.911302031477070743e-02
4.662101902729887115e+00,-6.026068496621065362e-01,-6.822299706956481691e-01
3.269311513417651582e+00,-3.950919789784778091e-01,-3.428652804780779051e-01
3.705338663334222904e+00,-6.153769413695682200e-01,5.792686912985727243e-01
-2.453427202510222394e+00,4.051694741194849847e+00,-1.931069505742424031e-01
2.901986328836914986e+00,-3.581286693782408381e+00,-1.358449675737445628e-01
-4.704633020294565426e+00,7.245654202655903153e-02,7.886438007475145007e-01
2.906270004834796694e+00,-3.005442623705384619e+00,-3.786437560230470623e-01
-3.080366637186581880e+00,-1.936118164839751410e+00,-2.036184417943781577e-02
4.962092975907089532e+00,-3.287199016001303709e-01,-3.373819064703589277e-01
8.835810794247820343e-01,3.523427028906967795e+00,-3.005268728864555761e-01
1.194489048625025224e-01,-3.686174622093256303e+00,1.689624461568496550e+00
2.126825140755678856e+00,-2.666922269260575185e+00,8.693068414140244643e-03
-3.190258724726523720e+00,-3.604161916617267369e+00,6.475560417020789217e-01
3.083891076521801722e+00,3.241507351998618169e+00,-8.921980779605337419e-02
-1.108044919320650301e+00,-3.082979385186245924e+00,1.360169671273329550e+00
1.669767527242950855e+00,3.745831372766393219e+00,-7.332489883133393171e-02
3.748152090664934821e+00,1.894213168597695063e+00,1.502071290942554871e-01
-2.934697670023716398e+00,-3.687428010937238820e+00,4.316741690113990448e-01
4.459803782085397295e+00,1.924243957501883262e+00,-8.902878033513320633e-01
4.792315144175324226e-01,-4.762359525319594056e+00,1.140688658758133744e+00
3.400873065107270499e+00,-8.126602955555862762e-01,6.057785977221139539e-01
1.996185492487535962e+00,-3.512824506741401009e+00,-1.768393824115983837e-01
-4.254459963264834776e+00,1.423540450854146711e+00,7.277457656314748613e-01
3.134732832333857910e+00,1.207390183547876417e+00,-1.615582799636932076e-01
3.529758205380713942e+00,3.023398996911552228e+00,-1.254255590823508903e+00
4.694245196066287207e+00,-1.382945674124766100e+00,2.218597037604107258e-01
-3.718139496320738147e+00,5.540273363073696666e-01,8.857965502646970579e-01
-1.284240313928337873e-01,4.366755715284428518e+00,-1.914734317332394409e-01
3.549802969732415825e+00,-5.407985745866362715e-01,-7.936549038935777345e-01
-4.234481387931019469e+00,-2.270009339431291906e+00,3.383164333342160712e-01
-1.539244168715094618e+00,2.786620838201570916e+00,-5.794622708391735655e-01
1.894596220075769777e+00,4.045143863777992621e+00,-3.098641505470279278e-01
2.800733199700161435e+00,3.939286359488320954e+00,-7.895559467637451867e-01
4.833835889769725114e+00,-9.046338798869862918e-01,1.303620315130150364e-01
-1.777673884087516365e+00,2.796671184416069877e+00,-3.803836084570795806e-01
-2.351685705841207508e+00,2.323631957136880199e+00,-7.207130295682924181e-01
3.474991504372441919e-02,-3.252693856864568023e+00,7.329009097475862600e-01
1.195512261229624285e+00,3.384136731761996586e+00,-1.693828225222659078e+00
-7.164063399537021204e-02,4.758398443608653494e+00,-7.494043323930732470e-01
3.168532988265668315e+00,-2.213724950098503452e+00,-4.739314487867155035e-01
3.753964968732222740e+00,2.744097807184603610e+00,-1.297587711532405930e+00
-2.821913180706271174e+00,4.013040468947412620e+00,-7.096039952218364810e-01
-1.616265122764543927e+00,2.865213831396133060e+00,-4.567006034968167927e-01
-2.847190023287004657e+00,-2.443297329476499247e+00,2.376798683333233159e-02
-2.240034777843076877e-02,3.295313545129622934e+00,-1.458022415356777568e+00
3.566233239093002272e+00,-3.333237360775159086e+00,6.913805010343184732e-01
2.868768547035962069e+00,1.642090346781618582e+00,-2.843300968493889247e-01
-2.027138465459205730e+00,-2.922404135868426067e+00,1.754555905299123308e-01
-7.678454252810045233e-01,-3.320647576884343533e+00,1.416142030752557401e+00
4.468596824901323317e-02,4.620331998911410665e+00,-1.385383109985344197e+00
-4.074312911079250199e+00,2.340735462378790821e+00,3.833705622315755623e-01
3.044508802069680442e+00,1.191356158254334829e+00,-6.296279543323825001e-01
-4.955178871294348975e-01,3.283717563887126545e+00,-1.315331978569653337e+00
2.123638469086502223e+00,-3.959573783420268889e+00,1.363536330719722800e+00
-3.228385197985071287e+00,2.865739885580719459e+00,2.936899334473185297e-01
9.307090340508291648e-01,4.338903317953881178e+00,-1.678847633780093274e+00
-2.597901563871686470e+00,2.842885000047264299e+00,1.794870860387103306e-01
2.869064801895984118e+00,3.822090541739701752e+00,-1.345502737140376714e+00
-3.434217854251486735e+00,1.594158045466778362e-01,7.327587891830326106e-01
5.242932568417029149e-01,-4.852413026281745978e+00,8.221061550840711440e-01
1.439244412527072026e+00,-4.598213251132055923e+00,6.321413772968682565e-01
1.230556093395334560e+00,3.514461751402413903e+00,-1.730858307195936918e+00
3.673489009326724286e+00,-2.608370539344089245e+00,1.031326340445452239e+00
3.476324750119398566e+00,-3.345369155863052724e-01,3.429689941559730948e-01
-3.126606140170669068e+00,-7.328402347143565532e-01,6.452008196693213016e-01
-9.823219657721731224e-01,2.975082166727915034e+00,-5.256919589899975431e-01
1.575545649638131263e+00,-2.855235437491837835e+00,8.293409651375411862e-01
-2.232164329126261837e+00,2.281630843920114060e+00,-5.310328882619170798e-01
4.008642634447032727e+00,-2.687177318143390004e+00,-9.324091645518563232e-02
3.726575070397070810e+00,-2.106221584170715033e+00,-5.480069776803628834e-01
-3.827774313807032147e+00,-2.934715192747534118e+00,5.498915306409090098e-01
2.221949811003063768e+00,2.571917484382601149e+00,-2.859754895169744904e-01
-1.341837998181430791e+00,2.989170585242234335e+00,-2.606092173115965860e-01
-3.808948732687301053e+00,3.077082162554390710e+00,-5.374410517062052639e-01
-3.362463906195410912e-01,-4.778190948422950335e+00,7.426106634209920232e-01
3.703537575623081057e+00,3.056950668555688200e+00,-4.704762165281528574e-01
1.274445191238214870e+00,4.026216697798017385e+00,-9.081682825665472747e-02
-3.488396605470232448e+00,-2.988236006391105370e-02,8.194794092482551306e-01
4.499290375165165834e+00,-1.584412293963531226e+00,5.427795507717881884e-01
-3.363047382298919974e+00,-2.234532751225959846e+00,-8.924028141490178423e-02
4.330884782773725128e+00,1.636967649462484076e+00,2.756373021262007242e-02
-4.799671646673029812e+00,-1.369138599446322879e-01,-8.252734790353842553e-02
-1.649079892200391528e+00,-2.758943432612493751e+00,1.073995053112091425e+00
2.467782580577141616e+00,4.034937830084984078e+00,-1.291866624978318612e+00
-3.618187574469138301e-01,-3.122303649377302204e+00,8.604947029182907769e-01
-1.206868594868131250e+00,2.997737002708836140e+00,-4.911033018795808447e-01
-2.282923095387871193e+00,3.117907736960955134e+00,2.255233643576452507e-01
-2.496184844443229967e+00,2.183827679000951871e+00,-7.946156876369115940e-01
-4.871385867901645850e-01,-3.507471257153559119e+00,1.632077043882475653e+00
-3.647704433045650507e+00,-1.278344970166714667e+00,1.298842117898638460e+00
-1.816056574811696078e-01,-3.266829994611746724e+00,1.330218618138446329e+00
2.646591702664603751e+00,-1.946687751753235940e+00,2.719399856676874006e-01
1.698980904633240696e+00,-2.872411273661077402e+00,9.849716294088537438e-01
-2.282223415879083006e-01,-4.519054346743864414e+00,1.504445170587648706e+00
1.590534117572357298e+00,3.171865106602454798e+00,-1.564899490837659446e+00
-3.728770135601988223e+00,2.522937068403613203e+00,-9.553084817531266593e-01
4.077498278084252803e+00,-2.766758749239175419e+00,4.802236837555235449e-01
1.485209400693091153e+00,3.184146687970365264e+00,-2.974465019091553919e-01
2.268239302624425413e+00,-2.439906463734210718e+00,3.242025952412341261e-01
-1.643016610794111765e+00,-2.891929795644362589e+00,1.456689191045156706e+00
3.815716652463124081e+00,2.753592767879616598e+00,-2.397836585275172905e-01
1.217741128004816709e+00,2.910838169016968902e+00,-9.236247370979514537e-01
-3.341715252724950957e+00,-1.907174192187875150e-01,4.357325869282950848e-01
4.198959156821354455e+00,1.567296158325740096e+00,-1.258032704669841406e+00
-2.988635809156369838e+00,3.594206869546759275e+00,-1.104085165247365330e+00
-1.943056127434924285e+00,2.971609837717402058e+00,5.316293194605171274e-02
-8.051944915196963537e-01,-4.079293261980899921e+00,4.892637021683603898e-02
-2.870441542651463340e+00,-2.364408137401069698e+00,-2.372553247337795546e-02
2.697574255801298837e-01,-4.102982640678011883e+00,1.721697786216566994e+00
-3.857765725051877315e+00,-7.872570236327172122e-01,1.273256976402056262e+00
-2.153101233433997397e+00,2.710425751290285845e+00,2.074224047933605208e-02
3.670418386660586063e-01,4.504330098045756792e+00,-3.610639238559193998e-01
-3.155364666494429482e+00,-2.902194583894720292e+00,1.561066058995215000e+00
2.190994574069388801e+00,-3.148186761285178381e+00,1.379547209524887963e+00
-3.528479562293967309e+00,5.182954072432361947e-01,-5.535755939746077603e-01
-2.911889957193907197e+00,1.611423627945696824e+00,-6.091921071847933300e-01
-3.810758167267639163e+00,2.971651848099881033e+00,-4.411520592501421700e-01
-1.236898400235094009e+00,4.096291131338531066e+00,-1.556782889078482723e+00
-3.932028399124142481e+00,5.337775013927334999e-01,-6.812020969086656219e-01
-9.962701223167663711e-01,-4.031257071351012300e+00,1.707411784764269136e+00
-1.504583670177270349e+00,-2.827454558244452798e+00,1.144255931626882994e+00
-3.416034752120694407e+00,1.695602101305664633e-01,-1.609852480524979201e-01
2.010597993346314727e+00,3.826918498265072355e+00,-1.338504859388051083e-01
-2.687449341250653934e+00,-1.883116363014265771e+00,8.669954095946935668e-01
-2.031163858098462782e+00,-2.525277586492348014e+00,4.765854475738364182e-01
-4.636142752851909243e+00,5.680891733696451507e-01,6.911244025490790310e-01
7.548055263046837826e-01,4.299789225747482568e+00,-1.607927402207071754e+00
3.790535762037420264e-01,-3.242948138026390925e+00,6.834026360365180741e-01
-4.247406466791727730e+00,1.255444293226261054e+00,7.148784446289974115e-01
-2.175103250475071359e+00,-2.662426184821476305e+00,1.392101959304995695e+00
-3.057909044806514487e+00,2.874396959123951323e+00,3.267675165529011494e-01
2.101665225522925784e+00,-4.035676893662823339e+00,9.519971762310630581e-02
4.477458013140373616e+00,-4.845422671700332362e-01,-9.220107772434249505e-01
-2.015216497717952748e+00,2.693262647483487537e+00,-1.028310835486092367e+00
4.601216362917721625e+00,-9.131117394628740502e-01,4.524714324575316859e-01
1.942348199451074509e+00,2.553036582418138245e+00,-6.691844914352030882e-01
1.057458809003311462e+00,-3.384160017076539351e+00,8.557087425584347651e-02
-1.359755381737966839e+00,-3.129013447175055251e+00,1.454680004619200329e+00
-1.262559993714243545e+00,-2.970034245184334232e+00,7.640532190197965035e-01
-3.954234410291967428e-01,3.451014225023703474e+00,-1.529882626848383165e+00
4.274973150954917145e+00,7.858855842944625358e-01,3.850835990984760038e-01
-2.870132402610326761e+00,-3.757084027095310308e+00,5.469054103409025647e-01
-3.255924094894507181e+00,-2.166494536171487351e+00,-1.122394616899775738e-01
-2.398813308570050484e+00,2.947513872333860085e+00,3.138681132791654171e-01
-2.164595004710159198e+00,-4.227725371267525567e+00,4.656114160604838959e-01
3.888183114543573016e+00,-5.807978824604955737e-01,-9.479133223465443514e-01
2.053815905624928106e+00,-2.470666256368739599e+00,2.084448497379206844e-01
4.313948688637753826e+00,-2.201313751606356117e+00,5.088119559613255571e-01
2.617536908640887283e+00,-4.107336378998773796e+00,7.380218565573392064e-01
-1.554328691312443000e+00,3.078493181189274619e+00,-1.888687401202906180e-01
-2.252286046271613218e-01,3.578049135220470856e+00,-1.578405346181500357e-01
-4.504034267494221311e+00,-4.443006763498537071e-01,-3.721649386869653187e-01
2.584285649719004763e+00,4.154252088453692870e+00,-7.043772552815064092e-01
4.027040996710010035e+00,2.786976725060400645e-02,-1.114283787808267867e+00
3.621922897417648723e+00,1.748471456552565195e+00,2.448660657915627537e-01
2.015138479933590521e+00,3.306869800283593008e+00,-1.034787165260204200e-01
1.065789539217072868e+00,-3.108594509866823064e+00,5.879557664996192257e-01
-4.099965483439481417e+00,-2.382405006433304440e+00,2.794979201444233174e-01
1.051380675933458297e+00,-3.393041997165365586e+00,1.441003821820587838e+00
-3.297670649221400296e+00,3.234033902198752752e+00,1.188727098406075489e-01
-3.369172758162378045e+00,-1.089728362069387751e-01,1.581017821249413452e-02
-3.952590829471946954e+00,-2.358657786232603915e+00,1.335365629937198262e-01
4.401406814577715210e+00,5.691740227482839920e-01,4.064672958208166986e-01
4.123121281929110538e+00,2.077768903351464580e+00,-1.306440320573711844e+00
3.925075395564229019e+00,-7.007455172143330913e-01,-9.216580623776219339e-01
-3.964649192101028508e+00,-4.519680020481198768e-01,-5.121054991500210152e-01
1.162093228422862667e+00,-3.228383923040651471e+00,1.287163760213893227e+00
3.440436083391867239e+00,1.784807314574979042e-01,2.066786767721893181e-01
2.546090352693716419e+00,-2.701708202981548457e+00,-2.650733792078230899e-01
-4.562477037060249430e+00,-1.110482156739315274e+00,-8.240799402282879271e-02
-2.808131721640375389e+00,2.988632338545688771e+00,3.552589819659620618e-01
-2.956684491486457844e+00,3.430670629792408555e+00,-1.297058331019084187e+00
4.725651441177046053e+00,-4.661117852498917746e-01,-6.785382006744474781e-01
2.898745225092826394e-01,-3.240533109516200660e+00,1.175038904696300568e+00
-1.743975497134610420e+00,-3.615595402075902687e+00,1.752109378278244201e+00
-2.159689343309253218e+00,4.359604421009361630e+00,-9.002202257346008096e-01
-4.073124939984269055e+00,-1.072264684101754240e+00,-3.401214221776444058e-01
-4.822567500424577602e+00,-6.933203925325568395e-01,1.174095810577404676e-02
1.950928679206006100e+00,2.578783471762594814e+00,-7.305367455583946512e-01
3.473427217544346579e+00,-1.309403050805655777e+00,8.557038739247073700e-01
-4.283855989068013237e+00,1.293618239268442771e+00,-8.189855611101238830e-01
-1.413342516043195829e+00,3.499456527814509332e+00,9.303578719774864558e-02
4.558409688053055575e+00,1.790887769477191860e+00,-7.252359083806299012e-01
-1.077054711990353963e+00,-2.935240055432271955e+00,1.028768120235249661e+00
3.473273988492953546e+00,-3.282192728349414335e+00,8.539064278951400411e-01
3.440091748480575085e+00,-3.207068893501975992e+00,-1.410752535500946481e-01
-2.577880626685341348e+00,3.569360313395891104e+00,1.945602480029072490e-01
1.659454913893026573e+00,3.510526774179087983e+00,-1.343332681708112319e-01
3.637844123105865357e+00,-2.920349405070822524e+00,-1.508673055244955652e-01
-4.816676903053041414e+00,-5.994228013937322741e-01,2.255572876504440341e-02
4.774299995311078071e+00,6.595789852455838931e-01,1.322988962113527123e-01
-3.281060095964497769e+00,5.203058143005466762e-01,6.217098774658670612e-02
7.141373623511374502e-01,-3.190637698943802114e+00,4.501572727904682436e-01
4.387162397362574850e+00,-1.080536075603273138e+00,6.686290033451052217e-01
5.301824832639088214e-01,3.256150378057571793e+00,-4.669650525943911945e-01
2.308532736317294276e+00,2.688940041676575188e+00,-1.668385635501679731e+00
2.042664428566254742e+00,2.911771591659162439e+00,-1.548178239155612590e-01
3.101466376329307106e+00,6.729575667766320990e-01,-5.765604756490549931e-01
-4.351474860007951584e+00,5.427161561129688616e-01,9.099361244639719848e-01
1.667916338759670436e-01,-4.752251965750891927e+00,8.680477200533787130e-01
-1.178801066744275428e+00,3.854954315348577243e+00,-1.675227875139901679e+00
4.015172143216863887e+00,-4.917707796866889192e-01,6.794039570063435951e-01
-4.848992887094019544e+00,-9.430138279285810166e-01,2.705405683817040385e-01
4.022971466120269790e-01,-3.191043668869632199e+00,5.535370577367422218e-01
1.905075632912139216e+00,-2.868541311085577750e+00,1.154066421090628847e+00
-3.166165431361523730e+00,2.316581664731665935e+00,5.272842197714863177e-01
8.329585399899702355e-04,4.189841892042246663e+00,-1.726591920158862425e+00
-1.556899645356071504e+00,-3.801042747666651955e+00,1.718010834854472479e+00
-1.695474952345890518e+00,2.805512524084916581e+00,-8.849412822635203124e-01
3.861253848474205608e+00,-3.032197030312297592e+00,3.242751910195051379e-01
1.114757925332363842e+00,4.351820478753964494e+00,-2.655196879123492559e-01
4.371751490303072529e+00,-1.777968045792512664e+00,-3.814384466516282934e-01
1.015232625641619091e+00,-4.029573046772279454e+00,3.670799014968997853e-02
7.861797807359122148e-01,4.421338951623904556e+00,-1.577460734886263927e+00
-3.140220106821020707e+00,2.917066062962948791e+00,-1.172240147459183923e+00
5.773669027870045323e-01,-4.223992508639693888e+00,1.662328499814611504e+00
-3.850841870434108749e+00,1.068966356510637983e+00,8.911682489626842063e-01
1.617503802384276046e+00,-2.816455814446121586e+00,1.060428617867809953e+00
3.701493957404680124e+00,-2.193715347256584902e+00,1.104289381958069693e+00
-2.456631147881326527e+00,2.808514497125920606e+00,3.404392974169929698e-01
-4.307431119683856613e-01,3.285669968495469551e+00,-4.363820178224953605e-01
2.171090719126394397e+00,2.587336225687284053e+00,-3.450741077046994842e-01
-4.249523293585012240e+00,1.327040332793266275e+00,7.151167334377966922e-01
4.749863576330742632e+00,-3.317896378099123300e-01,3.142690566875545599e-01
3.131098986267307982e+00,3.739997429787474292e+00,-8.819534501578040198e-01
4.438839043696904518e+00,1.743100596092548082e+00,-9.334115346030051885e-01
-1.184843314527395997e+00,-3.410478831236241959e+00,1.903333506115426899e-01
-3.204594970451112079e+00,3.325899590564108887e+00,7.555582789838136137e-02
3.214190312670925920e+00,-1.378548625871524713e+00,-4.016730367199265461e-01
-3.706231978197465526e+00,2.219623856959258013e-01,-5.742559207177591052e-01
4.805711508482144456e-01,3.109803446722283038e+00,-1.104153211152099523e+00
2.563473257532103977e-01,-3.907011507843495046e+00,1.910453559693203046e-02
-1.869264756697091023e-01,3.309996875513017578e+00,-1.298244069474489004e+00
-4.684865515092133670e+00,-6.719683332346200189e-01,-1.651496827990410476e-01
-2.974348243824236349e+00,-2.091256635968417488e+00,4.034175081922107553e-02
-1.084128062423953098e+00,4.524433829789844985e+00,-1.376681992523838716e+00
3.584561941756560621e+00,1.637449247284363807e-01,-9.034329530698536059e-01
-1.556818905314072854e+00,-3.815422474013799636e+00,1.686577729800155856e+00
2.679639967718638882e-01,-4.123595390584529063e+00,1.747213827116776974e+00
-4.674638490062462459e+00,-3.259752134189390915e-01,9.255494621576428882e-01
4.786495382589933456e+00,7.121891935628760217e-01,-8.452213411919580199e-01
1.422687598091071148e+00,4.536585508891316287e+00,-7.245991544827816710e-01
1.590880915079878610e+00,-3.779775398576558754e+00,-1.590642899704572399e-01
-1.565600828372273989e+00,3.339167725079156934e+00,3.874535778746325543e-02
2.042716262183653431e+00,4.376406560546735491e+00,-1.036364564759450824e+00
-4.689638632197229207e+00,3.019600824334595091e-01,7.935787436670388439e-01
-3.473028991815964250e+00,5.136651737539006390e-01,7.241662562578958795e-01
-1.922099302254207887e+00,-3.783368311137662587e+00,1.448782512826807256e-01
-1.489034103357826044e+00,-2.832242675738271487e+00,9.314552525852443088e-01
1.565892260189925278e-01,-4.512878671956585208e+00,1.547895765664971224e+00
-3.430610176259896615e+00,2.129080964473001547e+00,-1.128308746199558676e+00
1.614058333982913540e+00,-2.749634114277800023e+00,6.969382166968794978e-01
7.358938456926997773e-01,-3.904877025711481764e+00,4.689422026009992112e-02
-3.557368717367991096e+00,-1.696450330916603688e+00,-1.798672959236896352e-01
4.930978872791862144e-02,3.472677599753277722e+00,-2.726287169721072212e-01
-1.658259389765511516e-01,3.139930064621622829e+00,-1.042343233317535756e+00
-6.316058609598902418e-01,-3.198337754145105460e+00,1.061928273349669771e+00
3.487709045646260275e+00,3.336060535179193209e+00,-5.804789942550427906e-01
3.282351461707274876e+00,6.389164591777776181e-01,-1.372871968099932949e-01
1.488419172507078780e+00,3.940449149011690189e+00,-1.584898100975306312e-01
4.196141594506910266e+00,-2.231594501801332342e+00,-3.643700533155698751e-01
3.572417490721081279e+00,3.517133421611158828e-01,-8.936200537508830477e-01
9.369562606111641045e-01,4.726447351915211037e+00,-9.658987961173357562e-01
-3.084697771676304434e+00,-2.454564807461093512e+00,2.638351366854669450e-02
3.006196199971779670e+00,3.641286795436934121e+00,-1.062705821883398238e+00
-4.355899119433289890e+00,1.657773432012584092e+00,-6.997787072893266735e-01
2.467317983717334240e+00,-4.174629225192912685e+00,8.626531785117673712e-01
-2.634856667527162521e+00,-2.183578305046913748e+00,1.745714569656802440e-01
-1.277995561268328917e+00,-3.761450246708707645e+00,1.031337990569431012e-01
4.377561106590011519e+00,-3.326811292449188273e-01,6.002203284737391842e-01
3.245345494432573030e+00,1.408520374218593441e+00,-9.360131431474420782e-02
-1.200999143000651248e+00,2.986944545101021031e+00,-7.124844040201950834e-01
1.865840715118879389e+00,2.753187985009529992e+00,-4.194121162468854025e-01
-3.329858926161433974e+00,3.004216666719618511e-01,6.319622773383978265e-01
-2.752916744562841522e+00,-2.019660777054263612e+00,1.204416579455423131e+00
8.116540887989048825e-01,-4.631696831943802550e+00,4.919824051618400529e-01
1.676551927311063617e+00,3.135382381388660100e+00,-1.611923943580722884e+00
-2.329002593259509535e+00,2.766617257724833578e+00,-1.255798881977722381e+00
-4.487980645594501716e+00,-8.084987178479851044e-01,-2.354389569882325561e-01
-2.991534966490383973e-01,3.409533825579317057e+00,-1.501975328015755951e+00
4.106708019645031627e+00,-2.623091693347649578e+00,-1.578942920287075558e-01
-3.866560273791220137e+00,-2.836776951812319147e+00,7.026262503616165223e-01
2.396504249694711319e+00,3.079956000606810740e+00,-1.648291749735314005e+00
-3.685276573842142245e+00,-2.719369433621064425e-01,1.058396390623177474e+00
9.807463002085752279e-01,3.230328950247816078e+00,-4.609491186605731983e-01
2.282866291451671970e+00,-3.779862900952750238e+00,1.408601392528768814e+00
3.538626868529425540e+00,-2.508858665913701991e+00,1.208779645402101588e+00
-3.491405678146572988e+00,2.263909381616953986e+00,5.138374770316682660e-01
-1.385124737662709382e+00,-2.823509366256101938e+00,6.954386355082207150e-01
-3.079855343596063388e+00,1.888625955768326703e+00,-9.706389936032261412e-01
