2.841896398483947372e+00,1.692523892587695533e+00,-3.885754265229901527e+00
-5.172853295145375618e+00,-2.960465065097946269e+00,-2.330231656668412921e+00
-5.318060988279555090e+00,-6.921412939422365573e-01,-3.808283382301803410e+00
-5.096199934713978585e+00,-9.092350478762077914e-01,-4.314032184132046699e-01
6.161202324292607280e+00,2.962053524731061316e+00,1.910971554218014790e+00
-4.571282490818606270e+00,-2.103911809045489800e+00,-1.538963544807356587e-01
-2.137019801674183039e+00,5.918200162669805531e-01,5.013464083422031869e+00
1.071284491194870236e+00,9.453181722513829266e-01,-7.032674547812701960e+00
-3.845452987438660486e+00,-1.377832780057861028e-01,3.879094338171414247e+00
6.621060863664465224e+00,1.093883598108248423e+00,-1.548959215781973153e+00
-4.055265871142255563e+00,-1.140317192390960965e+00,-5.696012824079198289e+00
-1.453202444721478859e+00,-5.682875017659341221e-01,4.590096931186746332e+00
-4.130006552247682983e+00,-1.562403104344427973e+00,-5.805242347882225040e+00
-4.476849209444459632e+00,-2.312075301295241747e+00,-1.157861614068038003e+00
3.566323198416386120e+00,1.546181483178092453e+00,2.749429779612282854e+00
2.376693082689874892e+00,8.220510501663373659e-02,-6.670336039857861721e+00
4.556342060709690500e+00,3.542020751258211919e-01,3.608202699336618746e+00
3.809812877409934906e+00,-9.501303099441350819e-02,-4.895451110726090960e+00
4.554476618255848486e+00,1.024945296165318487e+00,-5.572663894126966611e+00
3.303996535789615052e+00,1.757491555083446899e+00,-3.312231930910015887e+00
-4.499239666398851867e+00,-2.113426398772360493e+00,2.431958358940636278e-01
-6.137821416656112028e+00,-3.158181159200296850e+00,1.871744798736396376e-01
6.035980438054113328e+00,6.640305322330831705e-01,-1.663577502309478540e+00
-3.876154582464571341e+00,-2.313074428731404453e+00,2.946254090173743290e+00
-1.949579753906901081e+00,-4.970410309421415818e-01,4.391207885705135539e+00
5.904510760863509233e+00,7.514267708528438172e-01,-1.158547251874163742e+00
6.507377548203550077e+00,2.786078239069925910e+00,7.222502360172566860e-01
9.120457824078107567e-01,-6.903362073208562100e-01,5.384006713255848453e+00
-5.609111135836119644e+00,-2.569775053213717797e+00,3.583193334757096338e+00
-2.725334431232635524e+00,-1.305149233431787126e-01,-4.406370096919310697e+00
3.718965129268821279e+00,7.127527920736707046e-01,3.160857906089337810e+00
-6.327689157308691303e-01,-7.229177954819365759e-01,6.994994130099512653e+00
1.497460171964547726e+00,2.553207934677365065e-01,-4.526371125657298045e+00
6.671449859176351582e-01,-6.352978411998577712e-01,-5.030245565614067438e+00
-4.675606678829110407e+00,-2.612592063377733087e+00,-7.986793942428920268e-01
4.027796896116075942e+00,1.741895848355318410e+00,2.332865123800391238e+00
1.179617240643102555e-01,1.357004511124246138e+00,5.730728369994511517e+00
5.028173558914645902e+00,3.664253242966218349e-01,-3.123086211860856665e+00
-3.565292140901461071e+00,-2.158704286495242375e+00,-5.644254569969672453e+00
-2.154552495214670849e+00,-7.897370990646276345e-01,6.731805137219324386e+00
1.511907549005057527e+00,-5.218161670991715573e-01,5.667987823753643184e+00
-8.747933822919884417e-01,-9.790568250740100398e-01,-4.839945962450694417e+00
-9.894499098012764504e-01,7.821313888128642589e-01,-5.825552247918730053e+00
4.972676292252678487e-01,-8.862197533664261107e-01,6.017328669914999040e+00
4.910399022614537756e+00,2.857249375538760017e+00,6.452968600327984028e-01
3.190447289898689309e+00,4.007586454353515570e-01,4.051235306047678897e+00
2.110097116973851661e-01,9.448868843318291022e-01,-5.416367692170069859e+00
-5.106306769873153684e+00,-7.234057435312517548e-01,4.553370548878010737e+00
5.172090060052643601e+00,3.129456950544441618e+00,1.058231350398345816e+00
2.539963912258877965e+00,1.170121901668020437e+00,-3.920180211836246542e+00
2.575745303018712740e+00,1.768394906023799118e+00,4.160782729646900435e+00
2.719250447329748077e+00,2.047336299174707719e+00,-4.693886486303839867e+00
-5.572250019345310612e+00,-6.729040256999718750e-01,3.435553442987593797e+00
-4.437039361495746626e+00,-2.144763895334518278e+00,8.691031233032524561e-01
-3.020629516968488026e+00,-1.447861304094946622e+00,-3.351449482040583572e+00
3.486045959354135415e-01,1.096341380771384683e-01,4.715312923696376224e+00
3.682117545246786250e+00,2.148515117869053803e+00,-5.010554482461267334e+00
-3.325940539365080717e+00,-1.681507913223900252e-01,-4.485071746720056929e+00
2.409164898188341564e+00,-3.501503004885981873e-01,-4.888418608471509330e+00
4.010660238556991608e+00,4.212332549108824820e-01,3.388199375482953357e+00
2.928402098012786503e+00,-2.806917740846289755e-01,-4.783060859639918228e+00
-6.769987174134729280e+00,-2.297256283018118683e+00,7.063146968137019588e-01
-6.108384310974146025e+00,-7.380218789962411652e-01,-7.572718479275162284e-01
-1.034549581241033245e+00,-1.376938833737681556e+00,-6.797463090538604646e+00
-5.307209397993831956e+00,-2.736999727662827731e+00,3.056709798607611273e+00
-3.702232988614007070e+00,2.886769299226512805e-02,5.388906480490652129e+00
-7.880199396916951482e-01,1.805491367325070817e-01,7.230640992320036098e+00
4.804240588107102083e-01,5.877857650484064056e-01,4.699583588098194653e+00
4.996080948818755196e+00,2.515587915288696408e+00,4.014142267180780266e+00
-5.181945663237120137e+00,-1.623208702985447838e+00,-4.887628898018457235e+00
-2.507678038798666798e+00,1.118672940720245174e-01,-6.273155878492049808e+00
-4.332942044906003431e+00,-1.863602212937460978e+00,5.247384609540834965e+00
-2.782891473018107131e+00,-1.148107713490205684e-01,6.380829415493979084e+00
-4.125699202298151569e+00,-2.161040677869713544e+00,5.076721064149320561e+00
-4.064381595815671488e+00,-2.632749411477701695e-01,-4.605654501915340759e+00
-4.702233283374821049e+00,-4.538346931060304734e-01,2.791943676513852779e+00
-4.552459597417439774e+00,-2.034473840887750296e+00,1.979812994534706216e-01
3.179360981371828654e+00,-3.284046478176663036e-02,5.541327114068967497e+00
-4.637171833874631055e+00,-7.664514805167015332e-01,-4.995768317431595662e+00
-5.692668130026076412e+00,-2.407511909413670992e+00,3.393990506834154264e+00
6.861076042553491128e+00,1.866038071626649364e+00,-2.504697037401696358e-01
4.377619376647274407e+00,2.175001331506965396e+00,-5.245147818717613708e-01
-6.670538849944695592e+00,-2.390492146446868027e+00,1.124892621955155825e+00
2.493450474820140705e+00,1.578112847698355692e+00,-4.292593518852962475e+00
4.400413560492781317e-01,-1.279466218093844532e+00,-6.418283281339641988e+00
1.985501891395994090e+00,5.280446468490950229e-01,6.779577482764930885e+00
1.207655163959802103e+00,1.294756457782693104e+00,4.793557727723997353e+00
4.942392656035858423e+00,2.712886042921520247e+00,-3.768721006938879459e+00
2.027661843707194045e+00,6.476926540189470449e-01,4.227465737633418819e+00
-5.651675357943958922e+00,-2.693283151945869758e+00,-3.278439400502656920e+00
1.919616882014307579e+00,1.774361461418307861e+00,-5.917272194300186250e+00
4.162577517674837857e+00,1.026254071047258964e+00,5.680255759217834211e+00
-4.210344694401162435e+00,-2.583677666418913166e+00,-4.715263364361947929e+00
3.886365046802965573e+00,2.193641228732785109e+00,2.598667127473033744e+00
-4.492788645565896077e-01,7.781364941154050863e-01,-6.628443357912176204e+00
-1.509464509779473662e+00,1.998361370144333474e-02,4.520909686564532848e+00
-4.685888392480993758e+00,-1.199940145868987340e+00,8.556200051545145846e-02
4.263007665924551937e+00,2.514232462882187047e+00,-2.709817618584610344e+00
4.627392348895398300e+00,2.255518758384858824e+00,1.304183919393104296e-01
-5.754777465147816962e+00,-1.028765052236409794e+00,-3.779484069503598942e+00
-1.032527798562106192e+00,-1.579921895736271509e+00,-6.578550366966368301e+00
-5.950899275083349593e+00,-2.991486522789379432e+00,-1.857674814920066142e+00
-4.939269080113138699e+00,-2.482020744627431164e+00,4.075903754079777563e+00
1.202484072252781200e+00,-8.059230939269977634e-02,-4.841760164239235387e+00
4.514485156915492681e+00,2.335449881216408174e-01,-4.827286532361497962e+00
-4.169884343150031647e+00,-1.081836485193908182e+00,-5.727065458450143254e+00
4.843675491900571117e+00,4.897719938677947416e-01,3.077970905539005653e+00
-4.554691488705274516e+00,-1.808840827399642803e+00,1.661204604940268448e-01
4.459185156758983304e+00,1.843473660747361853e+00,-1.081229958735559382e+00
-2.717657647304555280e+00,-1.961914863147886656e+00,5.812813376774764507e+00
-3.720250259124542769e+00,-2.448395298386218055e+00,-3.384257108571593786e+00
3.992668643552278240e+00,2.551833471785846630e+00,3.178436253858748284e+00
3.831564620472519778e+00,-6.249045614299614942e-02,-4.953048179156633424e+00
5.250110845174210006e+00,5.349376395711473720e-01,-3.905319110843227914e+00
6.615317645202105357e-02,2.835767157229209245e-01,-7.072469141197888831e+00
-5.559890125233365232e+00,-5.131654304925020726e-01,2.876820548549309020e+00
-3.580747917895990895e+00,-4.749673635754577128e-01,-5.926657401194838748e+00
4.433126250073384789e+00,1.404394054073587972e+00,-1.067239978107340281e+00
-5.609792249834415045e+00,-1.721747875431248742e+00,-4.105262398837573379e+00
4.635646969346761459e+00,2.754316113414866596e+00,-3.794109632587727265e+00
3.245796034704453881e+00,9.863752579007500909e-01,-3.364167966318774017e+00
1.480024278380687397e+00,1.863608030711481733e+00,5.683465865294974328e+00
-1.988053457591921092e+00,-1.577058486706080842e+00,6.265907387413491847e+00
5.831461108584357511e+00,7.933069630656177651e-01,-2.352623613138919989e+00
-3.571776996719114194e+00,-2.105515605013807523e+00,5.572987153175181341e+00
4.822902662934572149e+00,5.896321982114317573e-01,-2.015918257739885533e+00
-2.999563470521217745e+00,-1.151562674393277641e+00,-6.365783813985824047e+00
4.478697570525368654e+00,1.285522566384633691e+00,1.460030014586908287e+00
-3.880571121110095945e+00,-9.862052497324633737e-01,2.456123329022013024e+00
-5.849069444064150858e+00,-2.323524944547930016e+00,3.279436405785236985e+00
-6.626001190341587410e+00,-1.457162437540615807e+00,-1.784352979776703707e+00
-3.621760204129258920e+00,-2.330384682942447494e+00,-5.199770495027531858e+00
6.291901486995257642e+00,2.596528195243952730e+00,2.312052118211133322e+00
-5.438096504173865142e+00,-8.090640460424848301e-01,-8.728463602010507749e-01
5.093400748132143718e+00,7.106975238711344955e-01,-1.354022435815115832e+00
4.578230674743365647e+00,2.512950159373806169e+00,-4.271620000419525942e-01
-5.053999257743664764e+00,-2.269142270490233315e+00,4.374362032487000285e+00
6.661366282556012486e+00,2.585005860910578157e+00,6.921991496955759438e-02
5.420806915944568871e+00,2.419924939052807478e+00,-3.506545287520297816e+00
-6.140535404210317516e+00,-2.458748297063888089e+00,2.572643813000362822e+00
4.301893975838726902e+00,1.060241632196140316e+00,-1.903586326032556286e+00
-5.967137320880190998e+00,-3.170435187933423826e+00,1.553890792801728912e-02
5.017107328166561686e+00,6.147917295204571309e-01,2.328727889612912438e+00
-3.826437357650680493e+00,-2.650081965260685735e+00,-3.937422025183221486e+00
-4.072762280032856452e+00,-2.651700024081438470e-02,4.129130541947163557e+00
3.692922921726042862e-01,1.122433970689576288e+00,-5.183872297927999639e+00
2.593183862745946477e+00,2.720921181214377427e-01,6.614489506373933736e+00
6.483891067097279359e-01,1.124729443472764823e+00,5.068920963005789204e+00
8.628899908936376040e-01,1.585830635013707912e+00,6.508993378925591600e+00
-6.835390777318619548e+00,-2.098970936262532394e+00,-1.143925594126226353e-01
4.103612785893595571e+00,2.309117350229257237e+00,-2.739776444509240516e+00
4.757920794774769924e+00,3.353616276474469804e-01,-4.266076759348076841e+00
-4.651165730623874062e+00,-5.566060399869520170e-01,-2.719400726811865621e+00
-1.578202838959958054e+00,-1.456888849881890380e+00,4.918456871637499006e+00
5.845748991980944886e+00,1.220803184464108515e+00,-3.961730255103324883e+00
2.766143194524824711e+00,2.238997997250459449e+00,4.627974064061958437e+00
-5.230171878256947515e+00,-3.033621993287751728e+00,-2.645391731190926077e+00
-7.475010475386444364e-01,8.908567359010852726e-01,-6.230367828221384130e+00
5.649660390265421661e+00,6.865590552591870344e-01,-2.861094603659656066e+00
-4.803356518028395250e+00,-1.903410311061750848e+00,-4.913903649060433310e+00
-2.223117400189750015e+00,4.185094899080332720e-01,5.160751610839566794e+00
-1.710223558400024491e+00,-7.233631619695058967e-01,-6.970516492498543215e+00
-1.224210901476030955e+00,7.394130115220729493e-01,-5.814254894648748007e+00
-2.382278068423799855e+00,-1.802062505186901475e+00,-6.159151319949369707e+00
3.209351563105130811e+00,9.434506003746725433e-01,-3.413286258782297633e+00
1.787002564499058366e+00,3.971905634485906056e-01,-7.042659887995560197e+00
-5.667291154580549772e+00,-3.034805701295049563e+00,1.994398418156793307e+00
-3.872019228740859020e+00,-2.418448579572847645e+00,3.702908479467114766e+00
-4.223572196731441020e-01,8.678082319037364600e-01,-5.541091789463989059e+00
5.249881479316415245e+00,1.342426045442003613e+00,-4.772534702930204098e+00
-6.190013682711715148e+00,-1.687951137314110506e+00,-3.174516686661815523e+00
-2.830303094364416960e+00,-1.019373932698782959e+00,6.605380948272505215e+00
-2.645153931297302474e+00,-1.057035557558375194e+00,3.855350959476835815e+00
-5.172392470503116790e+00,-5.602383045473515732e-01,2.810759865342405295e+00
2.944534269637254287e+00,1.432414183392186402e+00,-6.363866203801093135e+00
-1.194787745791310973e+00,-1.573071249197959043e+00,-5.055688911650556783e+00
-1.318527681560648590e+00,-1.746641646430036054e+00,-6.247915719513516208e+00
1.592834140672452214e+00,1.919732988966714515e+00,5.588883170677962475e+00
3.483262177744591348e+00,1.092507464392535654e+00,-3.000500016264292302e+00
5.586297654466106266e+00,1.071324046768987959e+00,4.052038566147833087e+00
-4.585646749232513919e+00,-4.431854245843949713e-01,-4.689592568464989064e+00
-5.089088608408364856e+00,-2.953498370507931181e+00,-5.088669917415873656e-02
1.196385564453157579e+00,1.588569680633506565e+00,-5.630159727251380808e+00
1.660298631498485777e-01,2.431063987285406458e-01,4.860914869308995634e+00
1.445748148009899259e+00,1.713232332322218721e+00,-5.738770967987908200e+00
-4.567165702748717138e+00,-3.635503381765058384e-01,2.861577894292904212e+00
-1.982699252714346105e+00,2.727689993926834533e-01,-6.263840211814813763e+00
3.745108228273520634e+00,1.580323310315794538e+00,-5.873131372515140391e+00
1.284127711310814934e+00,5.139758956974608273e-01,-7.167522911414389242e+00
-3.872549480524834387e+00,-1.636949502997022909e+00,5.840653952357665268e+00
3.761382947207732030e+00,2.483191453724761910e+00,-3.965846748953317569e+00
1.243682322093443149e-01,-6.255284769427862379e-01,-7.127719666301205237e+00
-1.639963887123932373e+00,4.810450786076788110e-01,5.073333422813952609e+00
6.221694010257262875e+00,8.389896508988359258e-01,-2.058334046168651454e+00
5.019262691775173479e+00,3.143120139692872073e-01,-3.736622873541998846e+00
-3.128751350231381956e+00,-4.600412187275778608e-01,3.647695423225030265e+00
3.728709572776899961e+00,6.424010289056159007e-02,4.966640941754284277e+00
4.327196808675862982e+00,4.171278806832941499e-01,4.255433649651415351e+00
-6.479078465335468273e+00,-2.700719382919653633e+00,-1.609957698100900725e+00
-4.292185714308161870e+00,-1.140933201064412206e+00,1.943200662787788469e+00
-3.476555819311799134e+00,-3.357865971161382856e-01,-5.948720298100968584e+00
3.202030398279521961e+00,6.156731391501174544e-01,-3.636429906009730040e+00
3.500961533631291811e+00,5.610379018702654763e-01,3.695279204084014335e+00
4.906694918161556451e+00,2.072475726691757614e-01,-4.040266984897527891e+00
-9.504609995305789427e-01,4.919124416568455560e-01,4.948902682379935136e+00
-3.370058444917003015e+00,-1.312930955535095201e+00,-3.103650869708873827e+00
-4.791405721125462591e+00,-4.056367533401581404e-01,2.618379809788426105e+00
-5.209640653385458009e+00,-6.623434646332310161e-01,8.470899659786914615e-01
-4.706560068833675281e+00,-5.371740628875211199e-01,2.482206116834642984e+00
-3.848533467488205240e+00,-1.813392001723670155e-01,3.845639479724685561e+00
3.354085844147952078e-01,7.433151960611966702e-01,-6.915518064135061316e+00
2.937589909249574971e-01,3.277914327694659846e-01,-4.833595536544284421e+00
2.298207913002210390e-01,-1.064667149689006553e+00,-5.463813479577448895e+00
5.094816982463640009e+00,9.763993936152740583e-01,4.624225158540920866e+00
-4.342934154936298086e+00,-4.414206003723775140e-01,-5.161754423336956776e+00
-1.091560557802361719e+00,-9.768566941170119255e-01,6.838642767421021063e+00
-3.551252144274607669e+00,-8.596756958863342995e-04,-5.025850918937797118e+00
-3.631916672872450125e+00,-1.560324499542146137e-01,3.902873256876016494e+00
8.598569623840111031e-01,2.715476392692019458e-01,-7.251004042375096326e+00
5.249932806901464133e+00,9.385693288285672509e-01,-3.284924106488281148e-01
-5.007870956817134456e+00,-3.022598008034538264e+00,-1.072888973076606467e+00
-3.228074651007391438e+00,-4.876833881400677861e-01,-3.787777352288305366e+00
-5.957265621414697065e+00,-1.377248789490719716e+00,3.647277804248949540e+00
5.487245748730875228e+00,5.123391960978400661e-01,-3.558481203184684194e+00
-4.531456201099942405e+00,-2.409204253369397364e+00,8.375841796055749633e-01
5.819054786873820717e+00,6.138159338527549025e-01,-1.384965451777573575e+00
3.775772314239609795e+00,-6.254586598946172693e-02,-4.867161251661662469e+00
-6.036088091627275887e+00,-1.083881351464891285e+00,3.243384445173259856e+00
3.869263211622266496e+00,1.434297932403879372e+00,-5.947705268940162604e+00
-6.527133573843200587e+00,-2.396901941701776728e+00,-1.918457246174572139e+00
-1.335989895499187230e-01,-1.122560254640594612e+00,-5.077891999128236300e+00
-4.502297398974167919e+00,-3.401751449764450208e-01,-3.842196500532577108e+00
9.601881991796326066e-01,-7.000045967087367149e-01,6.555818514295852495e+00
2.577440923858403732e+00,3.095630822451919117e-01,-4.191305825993404177e+00
5.133843633153827746e+00,2.162494466703709595e+00,-4.332036330646583444e+00
-6.455082516276076099e-01,-6.933239034773807097e-01,-7.118534837804445736e+00
-1.139615283166190013e-01,-1.079871803490813464e+00,5.556581345896217883e+00
6.192224560784067577e+00,9.414822409294055783e-01,1.364702392346862192e+00
9.918433437585284784e-02,9.533358117375284602e-01,-5.305010395178000770e+00
-4.380046515088181103e+00,-6.894976706931853494e-01,5.494784444523279632e+00
3.482002077804493112e+00,1.317552252717429928e+00,2.939446037895264485e+00
6.276782178105141163e+00,9.959977258454471016e-01,-1.641503889476608080e+00
6.309001023477720516e+00,1.648149857985010236e+00,-3.004125900841795982e+00
6.546300575843277958e-02,-4.926772351528362348e-01,-7.194546245310458943e+00
3.458330990849428410e+00,1.037059215792411671e+00,3.297660521473685602e+00
2.573131695912938444e+00,1.481662755894603389e+00,3.973381300666712246e+00
-4.545844707994644907e+00,-1.559683041937992343e+00,-8.921858121598135183e-01
4.939926100049443214e+00,2.937968888526907740e+00,-9.019985266867657225e-01
6.690050403208362084e+00,1.811874837771889180e+00,1.355192990378159212e+00
-2.357812860129040011e+00,2.483114691691553633e-01,-5.193082729962429589e+00
4.789922252668000091e+00,2.175865525914355558e+00,-4.733586734295259113e+00
4.864004210638359638e+00,1.736192018428625472e+00,5.111802440610372145e+00
3.590553038021091936e+00,1.153085287846533413e+00,3.079360028879283728e+00
-4.287386280798188842e+00,-3.048042328545233492e-01,3.431659296779165036e+00
4.507726332823615678e+00,2.622743793273371260e+00,8.409621051071677345e-01
-3.686054676413975439e+00,-1.632813422803017556e+00,-5.998453680113392750e+00
3.108855321606166289e+00,5.631850807660792047e-01,-3.697582516188258062e+00
-4.724394055307578277e+00,-6.263364574564121989e-01,2.130298272555472217e+00
-4.769468862486116123e+00,-2.538315422060577475e+00,2.866606995177463646e-01
6.434612494610046696e+00,2.714183628804574866e+00,1.110577567684950973e+00
2.275307536120215524e+00,-6.598849664272529725e-02,6.525508179741957626e+00
2.463182079778682532e+00,9.925923600454128470e-01,-4.094954835056864084e+00
4.379874754823513072e+00,2.429266546784369485e+00,1.527471794604027266e+00
-4.888871293411672703e+00,-2.657394189635132520e+00,-4.051753637880143977e+00
3.249637417461011868e+00,1.147386382467227295e-01,5.445954647461220155e+00
6.236102975372662449e+00,3.069097129139311431e+00,-2.594404859591036838e-01
3.375887763788929519e+00,2.560815332463806104e-01,4.525368282757453287e+00
6.081449354868204260e+00,2.438586128562074240e+00,-3.169005648186947965e+00
-6.219885027239321351e-01,-9.260032033841113508e-01,5.030810486608412013e+00
-6.688685718697087168e+00,-1.947599197624584333e+00,-2.027686083748855950e+00
-6.097274352477951354e+00,-1.663857538317026652e+00,-3.286707754113109559e+00
5.131100851966992060e+00,3.010380561287907764e+00,-9.191586646763418855e-01
-2.569852387223925838e+00,-2.022853393798600408e+00,-5.933818924058679833e+00
5.350456876230142989e-01,-6.700005771495165519e-01,-5.072312111254293931e+00
-1.827001486901364435e+00,-9.433845781221871230e-01,4.339200550726206806e+00
3.914275737263663846e+00,1.248398308932495038e+00,2.192830430917148465e+00
-3.534846458336577069e+00,-1.693406556859487155e+00,-2.994873214271291051e+00
2.573009501735638693e+00,1.194710570378032077e+00,3.801723725269694043e+00
-2.748747271483960475e+00,-4.068938367220646390e-01,-6.507525039812817269e+00
-2.059282241862826712e+00,3.532915853639689852e-01,-5.971354426155015105e+00
-5.189260963068632826e+00,-1.112072905443049819e+00,4.741282765888249706e+00
4.260833369145097471e+00,7.279382373551079866e-01,-2.513155463320563054e+00
3.872090357609614397e+00,8.764612881851017168e-01,2.730490639040388690e+00
3.273490285500218810e+00,1.378161583816319036e+00,6.287373815262316867e+00
-6.832672541733377791e+00,-1.790917471264978245e+00,-7.740795276800105373e-01
5.341076405496873569e+00,1.018995532019805195e+00,-4.524210464412631971e+00
6.108387624297328067e+00,6.951642994065155845e-01,-7.406705249637928201e-01
-8.959219547650014714e-01,-1.079079527054509935e+00,5.062499375012422753e+00
-9.428421159847948374e-01,-1.184799228277272798e+00,-6.873032748626155097e+00
-4.147642814802973810e+00,-9.085783807046268756e-02,4.223914570872497443e+00
3.551819428027400249e+00,5.742905334148593055e-02,-5.783531886838415126e+00
-1.541129311128953017e+00,2.648396963538572901e-01,6.864091734837442615e+00
-4.258092375447310118e+00,-1.924585937498096255e+00,1.686763296563119630e+00
6.282448237153213100e+00,2.406274942659107907e+00,-2.530145167964207520e+00
-4.451184576612206456e+00,-1.712393890654832385e+00,-2.780144316764860957e-01
3.889242336413204715e+00,1.209116120291883201e+00,2.524280340134621881e+00
3.863847409410436029e+00,2.195698121086685217e-01,4.150046947717867418e+00
2.322276405619530415e+00,1.573304335202366566e+00,4.138559998449487409e+00
-4.928544906144383120e+00,-2.890908258590976665e+00,-1.548318351715203545e-01
-2.660664323394588138e+00,-1.960506169614466110e+00,4.980803509703472187e+00
-4.541681518013679586e+00,-2.425122889026505746e+00,-5.475756568395022672e-01
-2.014765566351532033e+00,-7.808064765496187665e-01,-4.322766968861817993e+00
-3.503139056246879601e+00,-1.927116519750591062e+00,-3.167504300278184637e+00
-6.323680910131762367e+00,-2.866174191310855601e+00,-8.114296807359955288e-01
4.763843931174411850e+00,2.704443712291685564e+00,-1.520342260492636433e+00
2.442875362462328059e+00,1.901066487765948887e+00,5.994776203937814074e+00
-2.762472799303389071e+00,-1.257236275847609441e+00,-6.592670614725064659e+00
4.931510184283830256e+00,8.622568599982343152e-01,-1.286625901780018344e+00
-2.818968404386154258e+00,-9.182871998443985495e-01,-3.909692268424683093e+00
-4.392751555435073563e+00,-2.502713658240213412e+00,1.665537112519539065e+00
4.970346890002299567e+00,6.331305659465241709e-01,-4.754084219689173274e+00
4.377119479087130394e+00,1.743108595648790171e+00,-1.015273410736315496e+00
-1.139852937812094069e+00,-5.489433312409737198e-01,4.783672910236614229e+00
3.233472579483446907e+00,1.925582105325678972e+00,-5.692643158455485519e+00
4.161931526160984163e+00,2.253888503757879747e+00,5.212872976283994042e+00
3.724315272132375565e+00,4.370947243276870897e-01,3.610342642281487269e+00
-6.059985690957164550e+00,-6.582419027348878071e-01,4.834150932059691486e-02
-4.187563577983434371e+00,-2.228830314031531035e-01,3.483695665990125701e+00
-5.558618284884322414e+00,-3.137326335123891585e+00,-1.400942940717050389e+00
-2.019198690746364377e+00,-1.841988260438084390e+00,5.415516474761003174e+00
3.287254947809563177e+00,4.522321687956297742e-01,3.839291377163498886e+00
6.502931274066755307e+00,1.192385820514002548e+00,6.787445605712929542e-01
-4.812812680057410475e+00,-2.604376660907384622e+00,3.845450998458777025e+00
-3.705654273062985116e+00,-2.560800811639114105e+00,-3.926231604686775345e+00
-3.161152175873019332e-01,1.006499219224326946e+00,5.184419525625809655e+00
1.413112125951974329e+00,1.231059355691919155e+00,4.592051720037808593e+00
3.135592012809242934e+00,1.221970979795350409e+00,6.267189539818475374e+00
5.303698149384649341e+00,2.929189680648933258e+00,2.801058651181102643e+00
-4.241011995648246158e-01,1.208769237528517948e+00,5.761404979724662923e+00
-5.809598006779578050e+00,-3.062128242978275239e+00,4.395222304438290428e-01
-4.306146601997469681e+00,-2.042305340143082404e+00,1.464507304874648419e+00
-7.288628440395643615e-01,3.777775293349784902e-01,4.951844814194842570e+00
6.021322881132931570e+00,7.025376502806059964e-01,-1.857043075370591545e+00
-3.321292086785343045e+00,-1.455134897555676599e+00,3.407114436126245760e+00
-4.114056477465046768e+00,-1.005342666749934111e+00,2.263200602402851480e+00
-3.763822493720238027e-01,-7.623753308759365632e-01,6.869295775462378906e+00
6.141244542934809481e+00,2.965871097793821853e+00,-1.258614584983047159e-02
-4.443241774799823851e+00,-1.497905175684692392e+00,-1.388046681869592458e+00
7.195441254498171624e-01,-7.068166509248071661e-01,6.498990585774536477e+00
-4.220958575687646430e+00,-2.355671042526671144e+00,2.489816741063811900e+00
3.314075884739809297e+00,6.195703588472598750e-02,5.205063713788270263e+00
-5.183444297310488835e+00,-8.191547156378743422e-01,-4.119765471840875826e+00
4.193053503113141067e-01,1.117004293466862919e+00,-6.632506274647003153e+00
3.152542996792837116e+00,1.974185098450742970e+00,3.570969002527467850e+00
3.427366622199679025e-02,-9.555130179481278185e-01,-6.842099764401632811e+00
4.101895061078571381e+00,1.293347482187809483e+00,-2.139796234121662977e+00
-4.541643909927984168e+00,-6.710218459449798223e-01,-2.439963864684471240e+00
-4.653948059216606481e+00,-2.545253378947374134e+00,1.193100649807500302e+00
-4.496941084560515556e+00,-1.517865965764093605e+00,1.053688713290545031e+00
4.616961479784947642e+00,2.763795356736048259e+00,1.415758754754450566e+00
2.367773154087474463e+00,-5.900628789126131091e-01,-5.913131435710875294e+00
-6.101623978924749281e+00,-1.264579423747555387e+00,3.138630419693968943e+00
-4.023679697442315017e+00,-5.076513723084578183e-02,4.086906739346709116e+00
3.600079225187339471e+00,6.909774007762631287e-02,4.275797359342005777e+00
-6.591282184279588563e+00,-1.241260779545701354e+00,1.989876608356082155e+00
1.140637789114432032e-01,1.160539195618662589e+00,-5.812437856349149001e+00
-2.938973966849740549e+00,-7.467944348688044798e-01,-3.616735669631724104e+00
-1.882792507689591277e+00,-1.221852649568388349e+00,-6.776812860305135189e+00
-5.051829073752930555e+00,-1.784793592402700968e+00,-4.841679881689032960e+00
3.951158383031250665e+00,7.926500471607422771e-01,3.065097834025826362e+00
5.040338704713724916e+00,7.769500033631168145e-01,1.290832636920481891e+00
-1.940287594259514581e+00,6.305791239220835953e-01,6.336775085488310033e+00
6.568843926086573859e+00,1.563815493566590442e+00,-2.628697867097070873e+00
1.000960911772045492e+00,1.489999467180276760e+00,-5.856472323501279220e+00
3.545337421925673915e+00,-2.181524964631753605e-01,-4.719412494868893582e+00
5.281957683783652158e+00,5.797506090625549335e-01,-2.003624045933975140e+00
-4.073523570903660129e+00,-1.362153428217004691e+00,-2.345505801931455636e+00
-4.511997519128665424e+00,-6.253169615391557246e-01,5.266886899114053833e+00
-4.364273814480916336e+00,-2.648067603443383877e+00,-2.349366393179200152e+00
3.733203760676456096e+00,4.274578091784233536e-01,5.635302671833787080e+00
-1.089803796953329629e+00,7.647045871269550488e-02,4.819384763570025321e+00
-4.457693636490683176e+00,-4.140314429359302495e-01,5.052224965034168847e+00
2.095501486299209404e+00,-6.582380958933735648e-01,-6.152882922371159857e+00
3.936762947678886793e+00,2.075671975920962087e+00,-5.447202220175409337e+00
-4.378717070594123628e-02,1.102922946566087692e+00,-5.896629391016666943e+00
-1.821230983834887018e+00,8.148649309298674481e-01,5.549821787193186751e+00
-4.119426965107253480e+00,-2.402804123194559160e+00,-2.473303989564026306e+00
1.240644592122772449e+00,-3.927887331787869307e-01,-4.889126560888190198e+00
-3.200167143218870525e+00,-1.082620007907387771e-01,-4.417603769452730589e+00
-2.869771071767681203e+00,1.098163241175692806e-01,6.257069051634691625e+00
3.551126707283369210e+00,2.903957148881791336e-02,4.878590765064448220e+00
3.909252365116705263e+00,2.509460580126157137e+00,5.110264067156760959e+00
5.491019525233720167e-01,7.563122841093021798e-01,-6.969481203086925092e+00
-4.394994163960878275e+00,-2.211167759348592554e+00,-1.228493480777987701e+00
-5.415585532039657757e+00,-3.038930281612590711e+00,1.631673660520295499e+00
5.517419986873879800e+00,2.043496465790484606e+00,4.241616414612614072e+00
-2.715551332505214521e+00,4.744236486807814068e-01,5.547312375812349039e+00
-2.331154866932557468e+00,4.437195393790722975e-02,6.751040641040115808e+00
4.132478063873294971e+00,1.386369294799038698e+00,-2.148930893997619940e+00
-7.896216815764607322e-01,-1.564235902232201214e+00,-5.302330904087799723e+00
5.470717754984558701e-01,1.536218331984794405e+00,6.466489664835957107e+00
4.633203672693172237e+00,4.402715194712234492e-01,2.994643025981554629e+00
3.728988007573852848e+00,1.170203479072820851e+00,-6.115730700982153323e+00
-4.358113915321736975e+00,-1.904901826125727782e+00,8.127071110586768787e-01
-3.615765650578910417e+00,-1.858849991393634049e+00,-5.840651266798270846e+00
-3.658156035329104938e+00,-3.959295509259296852e-01,-5.834263534615069524e+00
4.424193999989010528e+00,3.428771265025178372e-01,4.695771204575630797e+00
5.470504783298451024e+00,6.676540223574241040e-01,-1.438140310127480781e+00
-3.193906101267130815e+00,-3.452598825479921696e-01,-6.041178677384715812e+00
-2.193488274031774043e+00,4.255126844966122118e-02,6.768863918913101685e+00
2.289795008875093352e+00,-2.577725636236305462e-01,-6.681838228807329472e+00
-1.573805961609559545e-01,1.006679865562954274e-01,4.867223306743984068e+00
-4.308228407706621965e+00,-1.161534861328971990e+00,-1.870447972600788544e+00
-2.344262147757529835e-01,-1.288482120594173441e+00,-6.566337161829361335e+00
4.745359984824784938e+00,1.153089148113847662e+00,9.674240956699638183e-02
4.256912088384170012e+00,2.757833935830296124e+00,-2.691759799983833190e+00
4.716396996864075319e+00,5.941149628494005741e-01,-2.154258434046987691e+00
1.743953068648218530e+00,8.351649642038714294e-01,-4.315101011625017691e+00
-3.026870714760985237e-01,-1.094972343366504175e+00,6.466346628934238616e+00
-6.638026490115836786e+00,-1.987178403139690186e+00,-1.483058252644595898e+00
4.957384869309843012e+00,3.063494513991292578e+00,2.644226294610658723e+00
5.071148012832269458e-01,-1.202679883733423161e+00,-5.869693455076657962e+00
-2.659541819048797606e+00,-3.696116329954104995e-01,6.737008860039626512e+00
-4.380810984211414905e+00,-1.301569750358542166e+00,-1.415401862745434336e+00
-3.416417783717321299e+00,-2.180127596836285431e+00,-3.452498881637302564e+00
2.513352649743254563e+00,-3.106719004268476692e-01,5.221065597371136846e+00
5.757513277059302048e+00,3.148236618662689779e+00,1.034973103604911904e+00
-5.634077963129116462e+00,-3.023601055745264610e+00,1.309743006560306400e+00
3.422439815972630583e+00,1.771094492231645390e+00,3.150420291399572026e+00
-3.224827079156037168e+00,-1.062450706697437353e+00,-6.363642778092277297e+00
6.505706781826834373e+00,1.004395457115541790e+00,-4.328811091149549761e-01
-1.386291899206107070e+00,1.377287072586231564e-01,-6.799798818302535963e+00
-5.484785068998573543e+00,-6.955818791144716684e-01,-2.558390830705167929e+00
6.328380228898858206e+00,2.938691780232037587e+00,-2.266421211477088679e-02
3.140234093610994925e+00,2.256434736500275484e+00,5.241950320008771591e+00
-5.654901387672213176e+00,-3.079596967381538430e+00,-1.880302497828283625e+00
5.875388611483859380e-01,-1.005550385028540772e+00,5.888411427292934874e+00
-3.434945445795119401e+00,-2.025881341724265372e+00,-3.030297664986927320e+00
-1.957792132220052661e+00,-2.067704820741810057e+00,-5.856409778877845973e+00
3.388672831342253389e+00,1.140950702084415729e-02,4.322710879166875131e+00
4.525028951468512695e+00,1.146020201585476572e+00,1.489445168203450409e+00
4.260428932481775455e+00,8.181639991615400342e-01,-2.439436992122276493e+00
8.215447996137504871e-01,-6.963038260542755431e-01,6.521592002735161486e+00
8.887056885870120437e-01,-6.715724992762853729e-01,-6.905932781338623094e+00
6.102238526187910850e+00,1.741449591214088377e+00,-3.539649229181711654e+00
3.597865779947419185e+00,1.470591246505014382e+00,-5.969657922737058975e+00
-5.187425659502464370e+00,-7.505472880559439508e-01,7.859754826147109519e-01
3.884520476732090888e+00,5.012426260456546157e-01,5.523748854881979753e+00
-1.138589119077925371e+00,2.672395893545591594e-01,-5.026346764759230368e+00
-7.928913163592928859e-01,9.981147423699532339e-01,5.358036848734236912e+00
4.431792797037706677e+00,2.061623438667704811e+00,8.857177081411563013e-02
-5.522533434505134231e+00,-6.253395845421678700e-01,-1.434020601587665089e+00
4.505661166205805479e+00,2.397696731097946010e+00,1.091652370025233854e+00
-2.287345089149753097e+00,3.007173876528692613e-01,6.547720637152487200e+00
-3.816098226576421393e+00,-2.715475315149346036e-01,3.711748520748786806e+00
5.984896561439903451e+00,2.725894175451926582e+00,2.709276475094809289e+00
1.102504075307412235e+00,1.218324804015334051e+00,-5.169563630607118654e+00
-5.659100716392583053e+00,-2.979948019141524629e+00,1.303747813611739970e+00
-5.585032155238809359e+00,-3.177566992209627017e+00,-1.402401555354024554e+00
-1.634575595999620656e+00,-1.237498125265430904e+00,6.695250643325660000e+00
2.230232252963110007e+00,1.174739398099421850e+00,-6.745806519379573096e+00
6.790952883360397152e+00,1.690872446172868804e+00,-8.540993218143162480e-01
-4.994758461569947627e+00,-3.923616575804643181e-01,-3.330727907860510317e+00
4.353625581258431687e+00,5.005034810461606032e-01,3.166615566869793064e+00
6.689640992379955797e+00,2.099886356557151057e+00,-1.809404476726423239e+00
-7.579533456818016157e-01,-9.499874756547836974e-01,6.880010996239080967e+00
-1.265549400252440615e-01,-8.587670387744374967e-01,5.182808849211472335e+00
-5.932796064985548234e+00,-7.150973006299177204e-01,1.742267701691973203e+00
-4.338794860830825328e+00,-1.733346269507034298e+00,1.427594024238244108e+00
-6.201787360186457043e+00,-2.941826710276680412e+00,-1.360775450619251759e+00
1.937061326930336946e+00,2.083659795605087961e+00,5.447481801706439697e+00
-3.391616932727195444e+00,-1.485807446042191504e+00,-3.029702602522188482e+00
-5.382327304150530622e+00,-6.820308374885256653e-01,-2.121763950669186549e+00
-3.443692054255524937e+00,1.290155205005534544e-01,4.644760243003016598e+00
4.949427816108507017e+00,9.189619049720929578e-01,8.598838378295666773e-01
4.304124744852471096e+00,1.998300804459905544e+00,1.030784224765391999e+00
-4.606541838650886511e+00,-2.008211129760607783e+00,1.019740197156300543e-01
5.665355711308012410e+00,1.228835168814906176e+00,-4.144302062083176530e+00
1.807594669961344103e+00,1.834498054623173724e-01,-4.557368012236256760e+00
6.035399456462623213e+00,7.735306424626989807e-01,-1.076188957699244719e+00
-2.082440677809117346e+00,5.054199721753075553e-02,-6.669847204495159332e+00
1.369766981677635220e+00,1.232758851699398805e+00,-5.100176183697092469e+00
6.893836730849494998e+00,2.087954095869885673e+00,-1.183302544119859273e-01
-4.369134867535183098e+00,-3.021418401807494103e-01,3.770513584956828534e+00
5.900571818490186082e+00,1.994371277994090308e+00,-3.398097010430436438e+00
1.065545233096909516e+00,1.419787765631477239e+00,6.676957541329055168e+00
-5.172316355403183685e+00,-1.971447844554200746e+00,-4.636136149175252186e+00
-3.835038789855412578e+00,-4.928166493682211713e-01,3.206378543088364896e+00
-5.728376598688084798e+00,-6.731052204261890326e-01,8.188073440277814363e-01
8.244635775987270154e-01,-1.075748170486890976e+00,-6.352664167247273674e+00
2.905885341328473981e+00,2.369950155234807343e-01,-4.291354985301401470e+00
3.844090230765532468e+00,1.530011951338627663e+00,2.499124221438162152e+00
4.402681195033566475e+00,9.620249453098803638e-01,-1.959547431982386456e+00
-4.052812064007208503e-01,-7.614103359812326444e-01,4.912858262704600243e+00
-3.487324592668336720e+00,-1.965339442427538774e+00,3.485032884971497324e+00
-6.339410672310921591e+00,-1.442986118363825732e+00,-2.401476304159156250e+00
4.728827630343178434e+00,2.764537986225298560e+00,-1.657000374012231214e+00
3.138260640169772575e+00,2.327661605268002365e+00,4.028374462450669213e+00
-2.438164027523620270e+00,3.758373313701304785e-01,6.222775690312568386e+00
4.588236616636299559e+00,2.713550188608588876e+00,1.267643061817551375e+00
-2.638855834530437150e+00,-3.063625218866384836e-01,-6.635167469941277929e+00
-5.038137158074443178e+00,-1.318634812371886511e+00,4.833321150250248444e+00
4.844289276552824930e+00,2.784428624436441790e+00,-2.710379825247939856e+00
-1.263531942495269123e+00,-1.457062229935778053e+00,5.294595506672268748e+00
4.834389642977908963e+00,1.124924350099026471e+00,-5.582794051297292892e-01
-4.580841980852396134e+00,-2.701491147969535156e+00,-4.229027875966180794e+00
-2.439666737020875775e+00,-2.261906254714699305e+00,-5.701563267022929260e+00
2.345650827578800612e+00,-2.878138029938011044e-01,5.673865238979259651e+00
-4.330813603328506289e+00,-1.391546869286107935e+00,1.265780413891354650e+00
1.712378281211371256e+00,1.805513569414906039e+00,4.886932024236405603e+00
