-7.057795227937778693e-01,3.475183232753953799e+00,-7.174817418669080737e+00
6.800818468843887743e+00,-7.358517506274313114e+00,-5.796636114109983140e-01
4.484736017501244731e+00,-8.387731762578738426e+00,-3.994102357636358125e+00
2.702643787786215057e+00,-7.625720797529575989e+00,9.586947956179122654e-01
-6.770924387255955246e+00,8.834018601799749959e+00,-2.310078095643879337e-01
4.125028704358882692e+00,-6.446972802240618527e+00,1.941192088300357055e+00
-3.399945761515740905e+00,-2.924497512506328611e+00,7.335457982313044134e+00
2.662752779601423203e+00,6.308357307709897555e-01,-1.091742506167292781e+01
-1.287934525643380956e+00,-5.464507201629176691e+00,6.474137727548812116e+00
-2.110321735910219321e+00,9.708450117417250169e+00,-4.239185922272826978e+00
5.984405768672719006e+00,-6.517304399982709384e+00,-6.720742103792422206e+00
-1.638613075627465498e+00,-1.585613792827116564e+00,7.253613171101495283e+00
6.670626386735312607e+00,-6.523144464039304147e+00,-6.618847752851589661e+00
5.008768216784972083e+00,-6.348763292078253073e+00,5.931517415576512686e-01
-4.672624043098338120e+00,5.336109831778276913e+00,2.335088275750945908e+00
3.384950533906892378e+00,2.924454994587297740e+00,-1.016587109984616433e+01
-3.709924728674721006e+00,7.291324912414220094e+00,4.058526011996852034e+00
2.243528726455256805e+00,5.368342103819345290e+00,-7.798876603971922172e+00
8.852811616653982751e-01,6.121647771826959961e+00,-9.577957013526999575e+00
-1.249127795866271873e+00,4.228397989242776767e+00,-6.480434295996378324e+00
3.882280620121660419e+00,-6.291252188666252465e+00,2.504821459076325585e+00
5.776859346488934399e+00,-8.519138941953654509e+00,3.367431340236182624e+00
-1.295389422014685099e+00,8.919152211009699016e+00,-4.034873047491761788e+00
2.392955186786550392e+00,-4.988542687958529953e+00,6.392024974471294918e+00
-1.508933416334434119e+00,-2.390742398398308488e+00,7.028211748718914187e+00
-1.696371723135139176e+00,8.745529088316711608e+00,-3.329356528700954332e+00
-5.877844067936452532e+00,9.290680992683963524e+00,-1.916425481213941628e+00
-2.474350546067558554e+00,2.172307589716895304e+00,7.979981232039432548e+00
2.762921837499530131e+00,-7.513456792247393601e+00,7.818562174231060702e+00
3.462712948360385568e+00,-4.623246342199971437e+00,-5.718955023015044326e+00
-3.764264717300960239e+00,5.853032629668888376e+00,3.379088256814286151e+00
-3.056150204923513414e+00,-2.384315344554560276e-02,1.064363121185203731e+01
2.037553997135644224e+00,1.749993313300812314e+00,-6.989863104891598233e+00
3.801596205912463056e+00,6.738949033047786363e-01,-7.030089054163213724e+00
5.265635363502680910e+00,-6.530424929937794332e+00,1.326415852172704746e+00
-4.803822770002331488e+00,5.945820359742878480e+00,1.525194853969229269e+00
-5.432969906513110736e+00,4.018513768123871954e-01,7.461070155715588292e+00
2.387499649274729407e-01,7.298883980833973162e+00,-5.760299551181254252e+00
7.299161837540961706e+00,-5.466715434198145651e+00,-6.158716859781679709e+00
-2.460444760760672978e+00,-2.373791868114369485e+00,1.061765289911293664e+01
-3.021452662584222626e+00,3.077086177752019758e+00,8.168116271857746469e+00
4.523398064896960058e+00,-1.579682585270838935e+00,-6.237333316542519768e+00
2.627565015860437558e+00,-2.364533543190894704e+00,-8.654225025911783220e+00
-2.484492808498967253e+00,1.657499898737393229e+00,9.093106549573366948e+00
-5.575213535330171055e+00,6.805355966396811951e+00,-1.737853699623092218e+00
-3.738431582150069765e+00,5.223759125109705082e+00,4.953866358587212027e+00
1.878394241526521569e+00,-5.208496764724659389e-01,-8.406472924203995944e+00
-5.761192826742295159e-01,-7.165082536202539210e+00,8.046950360100652233e+00
-6.272778190894775285e+00,7.173925537828624854e+00,-1.353531048209392518e+00
1.295048142066015096e-01,3.156470580487455546e+00,-6.859914229955148102e+00
-5.622091517271803340e+00,3.898512417068361380e+00,4.448526999246801061e+00
-6.966738582212420594e-01,3.099190723166657779e+00,-8.520790663161351475e+00
1.322720701699391377e-01,-8.015040199974903246e+00,6.501119929675520659e+00
3.534521085703724808e+00,-6.120132347474130263e+00,3.413313885516743529e+00
4.773970887435192267e+00,-4.588668794589389144e+00,-3.373746872564871602e+00
-3.087209769118645752e+00,1.005661949741900152e+00,6.669149173938648367e+00
-8.655007774425278466e-01,4.517896387792962543e+00,-9.235713669604404430e+00
3.698697455560155500e+00,-5.544811214962846790e+00,-5.686369347118763073e+00
2.917843445743411923e+00,3.287313598058864805e+00,-7.351101255475661844e+00
-3.550399337949559975e+00,6.409309807740599219e+00,3.815303676273452904e+00
2.638473430788272456e+00,4.077428008881513577e+00,-7.346764975555962529e+00
4.373719749597126949e+00,-9.682808248965599773e+00,3.749772902693603527e+00
2.881799937349957652e+00,-9.266448159970293474e+00,5.990843737390751933e-01
6.312126387455323062e+00,-1.919508149333400748e+00,-8.799117696808197664e+00
3.252813992137185917e+00,-7.057083452143406710e+00,7.092941040756783444e+00
-2.471573710731686191e+00,-5.131518596802862042e+00,8.526951740154460779e+00
-4.455475570435770472e+00,-4.961003357541583503e-01,1.049348064928465796e+01
-3.790779524132906086e+00,1.070004471578546168e+00,6.342685788286894777e+00
-7.143855063323181653e+00,7.392648934040966680e+00,3.303577920305850402e+00
6.438173012069505319e+00,-8.026611926454080503e+00,-5.041585010426881119e+00
4.196692833405655243e+00,-4.555976613099323558e+00,-8.598167608592227396e+00
4.607625233341828275e-01,-5.575477473936520489e+00,9.547556304361448198e+00
-3.072197181937012189e+00,-3.570767513097523160e+00,9.851065615629309491e+00
9.427718834044304108e-01,-5.189693690384013181e+00,9.430318807936663106e+00
4.073083496544165349e+00,-6.666424131572973977e+00,-5.652434887532566954e+00
1.348985487825269877e-02,-6.807617709436527775e+00,5.265450970560337396e+00
3.808688455500305103e+00,-6.400512141879851846e+00,2.404945505067578537e+00
-4.017470772256256595e+00,5.488973995476783330e+00,7.357239090693751926e+00
5.156734531025484181e+00,-7.445095623368594318e+00,-5.805844928824552831e+00
2.664130105847135166e+00,-7.708509309207777882e+00,7.469008915396508463e+00
-4.053423170319548241e+00,9.994699503626375048e+00,-2.861477853593843435e+00
-3.772880860835323702e+00,6.056663545085251954e+00,-2.921208480312460054e+00
4.231519026789063886e+00,-9.458696334982231946e+00,4.387138846997976849e+00
-2.180438030310782871e-01,2.928658346649446909e+00,-7.623610686340343889e+00
5.613009396273197282e+00,3.613880768942124844e-01,-8.613699746231526788e+00
-5.300830989390773240e+00,3.623387071431143802e+00,9.067159884090134625e+00
-5.021232221206133772e+00,1.996523638252203581e+00,5.918912246363262852e+00
-2.705892527683678495e+00,6.427136626938245278e+00,-8.030950742840246903e+00
-3.937507228497481027e+00,3.383005430975888572e+00,5.306255567044052768e+00
7.099737546086713813e+00,-8.272259547525349532e+00,-2.003342189480180391e+00
6.127761298256330091e-01,1.817205390129309706e+00,-9.962823224654341558e+00
-5.835857992561603425e+00,6.713348026585900463e+00,6.741725675193391609e+00
7.489259120248064505e+00,-6.238847183895331661e+00,-4.438754167148982077e+00
-5.578720541034980940e+00,5.627242770574323316e+00,1.676878819861610470e+00
2.997925780684236319e+00,-1.617651626264476450e+00,-9.922463234638586371e+00
-2.425126090267606838e+00,-1.847793398082898220e+00,6.825290626870469168e+00
2.713569086672877884e+00,-6.856441096914190680e+00,1.787831490054436312e+00
-2.910227512675148898e+00,5.551243208193326950e+00,-6.247253732986383312e+00
-4.340130625995803015e+00,6.487430954230444691e+00,-2.074352425507816733e+00
5.046392404659783892e+00,-8.960225361182478920e+00,-3.667455152111335437e+00
6.469426907958674811e+00,-1.835086366236292399e+00,-8.366257889617639165e+00
6.733639538237929933e+00,-8.496408866990460496e+00,2.813798740979449597e-01
2.189335751994038404e+00,-6.455751419278088044e+00,8.340120794009914462e+00
2.774640930822592111e+00,1.358799905744886738e+00,-7.189688487421422636e+00
1.574708765630582930e+00,6.365663389655269455e+00,-8.036430595578876179e+00
5.945269820466328348e+00,-6.713659971182158515e+00,-6.775627046315251256e+00
-3.647365515413939718e+00,7.638271932799121977e+00,3.155441318351195346e+00
3.505904638643137616e+00,-6.471872863734482451e+00,2.228970859823426576e+00
-2.980450123159340770e+00,6.217861294591813248e+00,-3.549822392895870315e+00
-1.026560119528303200e-01,-3.002354359235337888e+00,1.008581238063362306e+01
6.380904293579283681e+00,-5.382241020117452202e+00,-2.697687324694377331e+00
-6.465310325120695367e+00,5.749884132484470278e+00,2.284432649274172444e+00
2.227003255020469918e+00,5.386385360754549545e+00,-7.905305310240722250e+00
4.213084039300573069e-01,7.509041520020745430e+00,-7.032552710106251048e+00
3.858040411537179804e+00,-7.303902148674060735e-01,-1.038405494452564959e+01
2.391327962704929977e-01,-8.101053093496295432e+00,5.599884806713506968e+00
5.066443748553694171e+00,-6.002125602052773345e+00,-7.536570153932616201e+00
-2.355381230451827346e+00,6.304859460432014728e+00,-3.270365712404748049e+00
6.201639273061178237e+00,-8.573542736914911089e+00,-3.766947579417487812e+00
-2.681031121486296076e+00,5.940691175295462756e+00,-8.028009005578377710e+00
-1.023093924665860327e-01,4.353929917682119566e+00,-6.097479908892604605e+00
-6.433790602098288680e+00,2.347314322075551463e+00,6.817835787341318898e+00
-1.090394669866846522e+00,-1.941905777841762992e+00,1.036604117084489474e+01
-1.017557794613017208e+00,8.494367637189300879e+00,-5.061631249243040642e+00
4.390820587184088297e-01,-4.300722623283768087e+00,9.999653124107224400e+00
-7.040894489703676262e-01,7.036817782967661472e+00,-4.249066368513737757e+00
6.169093603287969074e+00,-4.961117855527033882e+00,-7.899459937825236366e+00
-3.724445225844818630e+00,6.677346894997215010e+00,4.360687383850790355e-01
7.935873191376470182e-01,-5.426944812239299587e+00,4.918445937730707485e+00
2.648404723416127204e+00,-7.985307108974472712e+00,7.287528579441225673e+00
4.647135382354275812e+00,-9.966103938861824219e+00,-3.601035648378040910e-01
7.288366715674736263e+00,-5.457274923671805666e+00,-5.406315514170908720e+00
-6.520287341077318111e+00,9.182238956412628994e+00,5.320687669223309602e-01
2.903085528922753067e+00,-8.227227413064300166e+00,3.345390505576169571e-01
-1.338160624153974743e+00,7.488609124496129255e+00,-3.419899362780936869e+00
-4.359840569277151801e+00,6.278949905299929135e+00,-3.017666377806168310e+00
1.730176560778579731e+00,-6.661453828139334732e+00,8.671510663719841361e+00
-5.229872323958360880e+00,9.515748812414752678e+00,-2.774461470187682632e+00
-2.552875019422783165e+00,7.274774328525193567e+00,-7.582306226512271152e+00
3.334572647974126003e+00,-8.470073153901594765e+00,6.406099292365208697e+00
-1.328068857283625226e+00,6.112605088622285798e+00,-4.251144488521930498e+00
5.859958486057610827e+00,-8.271279289817975666e+00,3.091473444467227605e+00
-3.411719456785211602e+00,7.789753220925140553e+00,1.965989927263696035e+00
7.027639755909422803e+00,-5.546647446359083133e+00,-3.357361793374666448e+00
-1.547316338987625439e+00,-5.819476706883621731e+00,6.817717750066155880e+00
1.448473532570603961e+00,-3.034468127642299673e-01,-8.206394843038481213e+00
-4.971224847544196024e+00,4.613931780731725496e+00,8.851040886829034449e+00
-4.819428486360832764e+00,1.214026663776414772e+00,6.530438836049066609e+00
-6.397788086684136566e+00,1.565038657277486589e+00,8.297599019122085195e+00
4.601371967640957017e+00,-9.927298822478475060e+00,2.464297976346279118e+00
-2.563165033115495373e+00,5.361523008930772605e+00,-6.138878217666769999e+00
1.035125199003060770e+00,6.770635956022819535e+00,-7.335830572627830115e+00
3.482869731655957146e+00,-7.284918932105203027e+00,-2.639214067373131023e+00
-5.389221312261731622e-01,-1.488855069131824083e+00,8.267142984573284892e+00
-6.585174302395259138e-01,8.223185393313150016e+00,-7.633890696681699062e+00
-6.620122159616353308e+00,4.106413821825509736e+00,4.811205497665009823e+00
7.108889600718020674e+00,-7.459237039383395995e+00,-9.803056211444046708e-01
2.662802940667538643e+00,-2.066408917864015926e+00,-9.351398118182482122e+00
-5.166373360288176730e-01,8.191225396626075295e+00,-5.696038052970845200e+00
6.769805602251778964e+00,-7.366826474657454327e+00,-4.995909019421389985e+00
-3.221992486446307424e+00,-2.991732783923642724e+00,7.666049812663218610e+00
5.633873970673924703e+00,-3.164302563771371979e+00,-9.286793508894708893e+00
2.734401024479184539e+00,-2.712270648320918465e+00,-8.564597493432829722e+00
6.835719077829265800e+00,-3.803462539458029479e+00,-7.353010264696847820e+00
-3.067473022866851889e-03,4.304926584790528921e+00,-6.135996252786401151e+00
3.292011115816670941e+00,1.887632638990524470e+00,-1.076315819659970785e+01
4.401837832155103492e+00,-7.638653657062752345e+00,5.806672142657673064e+00
2.084954974599802391e+00,-4.871687057603411475e+00,7.544034361885255890e+00
2.205945006677718201e+00,-1.486418209749682307e+00,-8.410712079109064376e+00
-2.084042066206153176e-01,7.185609738960232917e+00,-8.750876990893166507e+00
5.720307274018717081e+00,-9.376986076695470018e+00,-2.323135948480721247e+00
-1.904277134796150461e+00,-3.361103769267817842e+00,1.070794617990446262e+01
-2.283835983203965914e-01,-3.357528520613344725e+00,6.722760580493321036e+00
2.595638183294243229e-01,-7.498475737376027794e+00,5.451507938681267262e+00
1.142117985095679522e+00,3.444331305323790726e+00,-1.062188702404372087e+01
5.574785698898245379e+00,-1.924950910873461263e+00,-6.138945136546507975e+00
6.571839238620408530e+00,-2.192266909679146725e+00,-7.733480798064563011e+00
-6.482086755772209941e+00,2.494762325548598003e+00,6.625525509015614212e+00
-5.272284642423989975e-01,4.727507097985959028e+00,-5.683214400900004293e+00
-5.234355897090587462e+00,8.717804657739629093e+00,4.071072255819713881e+00
4.497849027830277180e+00,-7.425788238658999063e+00,-5.561578172975958800e+00
5.393276870814853297e+00,-6.989597892090200659e+00,2.688317485555156150e+00
8.667478772938257414e-01,7.882213007437186558e-01,-9.291264799279741027e+00
-3.325185820761887623e+00,7.020698842166498421e-01,6.839913592675230802e+00
6.983623160671518226e-01,1.124646839902590401e+00,-9.571731010880132118e+00
-1.879640506757380147e-01,-6.618261354661765239e+00,5.285764077777614922e+00
3.843409828576817233e+00,-3.793386182489385305e+00,-8.786491655883779117e+00
4.544395522568015489e-01,4.685737365205056904e+00,-1.016503801527812278e+01
3.313266301421507354e+00,1.067342501472998695e+00,-1.090671565563745560e+01
-3.252877200794250800e-01,-4.869043738940129984e+00,1.017730616066437399e+01
-1.993663881032544216e+00,4.655041903960899674e+00,-7.938002664722350943e+00
5.178043468862064458e+00,-3.866437607290713618e-01,-9.950212989903654659e+00
-3.389173626762170155e+00,-2.121780377152092889e+00,7.382952141180666672e+00
-1.348321603534873070e+00,9.112885967234950257e+00,-4.744177530082819949e+00
6.863844572434216751e-01,7.234930007107526428e+00,-6.613727161282928257e+00
-8.478551810409332701e-01,-4.294321081459639977e+00,6.178080549175536618e+00
-3.931705260295301763e+00,6.245294959658211020e+00,6.357985648340060969e+00
-4.140059035068651916e+00,6.989538075653356941e+00,5.003634185148858826e+00
6.286466268562419302e+00,-9.365830750110415437e+00,5.801459100093483423e-01
1.417284063507237013e+00,-6.070380796532671042e+00,4.352956545741717420e+00
4.857476411304940456e+00,-5.883992797706817157e+00,-7.670462779706772594e+00
6.021354113573021971e-01,4.363730460325664140e+00,-6.266985377386105505e+00
-3.821812201797647912e+00,5.617806002046906499e+00,4.283193738716832399e+00
1.048341687996662275e+00,7.060137407328819670e+00,-6.966701918551356343e+00
-3.483931140697656748e+00,-1.077370341460685665e+00,7.054287311332380739e+00
4.509475804668725551e+00,-5.138514210955355210e+00,-3.021784143918190058e+00
6.955968928935681028e-02,-6.977019197471651779e+00,5.005580647561280294e+00
1.601732309317023484e+00,-7.735097065656710846e+00,2.684455601284383430e+00
3.209637740253460936e-01,-6.823325996848004671e+00,4.867545690735510355e+00
-1.204740882722334705e+00,-5.460339406304741239e+00,6.451679996774443815e+00
3.045541871325468719e+00,-4.310115028795615810e-01,-1.047914070262600461e+01
2.389502654495078371e+00,-1.551379748560397231e-01,-7.225808152176147026e+00
4.775668177163151285e+00,7.789704913984078771e-02,-7.316941209791495204e+00
-5.334657455419457683e+00,8.049625639710464853e+00,5.053486083738385481e+00
4.726561727268042468e+00,-7.103043580132545110e+00,-6.294254763870545055e+00
-2.495750243897934428e+00,-6.736113322509719170e-01,1.065984956072878553e+01
3.837154264681850169e+00,-5.996712207676926809e+00,-6.516834158545246503e+00
-1.324076015395378780e+00,-5.128257176907339954e+00,6.474776123759485635e+00
3.805395778687449493e+00,4.751268763474243428e-01,-1.079914256926477734e+01
-2.319351401355835840e+00,7.773137395960350915e+00,-2.104114915922137730e+00
6.092087592207596103e+00,-6.953414845438146585e+00,1.236580034587676957e+00
3.711756952910922003e+00,-5.228802530509200963e+00,-4.515613676508773544e+00
1.097370864734968920e+00,-8.383382867484272083e+00,7.293652074307179767e+00
1.906731514187197940e-01,7.917146147416024959e+00,-6.568075925560329154e+00
3.952777419711998252e+00,-6.193085527059025708e+00,3.540280452011566048e+00
-1.343536426743963119e+00,8.629384112270782836e+00,-3.558839360556498299e+00
2.187629031501074017e+00,5.309690767679839496e+00,-7.769772485446657662e+00
9.399660679958110610e-01,-8.631453498177576122e+00,6.557492078255457990e+00
6.804847608119102276e-01,4.910589928497856249e+00,-1.021394247253087961e+01
6.049523380450656518e+00,-9.559428033407606051e+00,-3.076451449947958244e-02
4.706408762357646047e+00,-4.236459260099005864e-01,-6.651265328688996448e+00
3.819309650444429494e+00,-7.237043344876673778e+00,-4.415510388113589535e+00
-3.180164344985074276e+00,2.373572990628138868e+00,9.666660089116996701e+00
1.515340739229168232e+00,3.431502326857355900e+00,-6.761378548864720450e+00
-1.621210293477618247e+00,6.819288502126450879e+00,-8.565305201318720307e+00
5.441906272715484327e+00,-1.550654236154492827e+00,-9.738298904653090560e+00
-1.791987015258014626e+00,7.236516740527151326e-01,8.666762849716874939e+00
-3.558890089350425612e+00,9.401731371801533399e+00,1.425047551633012999e-01
1.824010007349151863e+00,-6.834735974198047348e-01,-8.227494634441905319e+00
-1.356798107911851403e+00,-5.957531420808018119e+00,9.235487647838183989e+00
-4.441834449510555949e+00,5.291969234584258608e+00,2.758959210948403573e+00
-1.837265568043835007e+00,9.196984630198782540e+00,-4.244833464705392245e+00
-1.952505744440952817e+00,8.915297866003813354e+00,-6.594994075431453773e+00
5.041746982499287100e+00,-5.223630843768422016e-01,-1.011126356830360606e+01
-4.252237512380525608e+00,5.373830071068431913e+00,3.442984493841052984e+00
-5.098241424185116166e+00,3.956612672685775767e+00,4.344411124099559984e+00
3.787922228448716844e+00,-6.641920101059815451e+00,5.558201090836072389e-01
-4.761238532462114037e+00,6.663379348973331062e+00,-4.023567028981517524e+00
-4.908964851956313602e+00,9.917596074887949698e+00,-4.775802965176219050e-01
3.314703552390934060e+00,-4.249759150435590271e+00,-7.149427979990865545e+00
-1.320360490269633091e+00,6.243732906359566570e+00,-9.081285126229456495e+00
-6.664057367892579187e+00,7.528976183778889997e+00,5.365621659198538396e+00
-4.315676799937888219e+00,5.520868832237413315e+00,3.033480303830408342e+00
-6.794853865165862983e-01,-6.144114748353980637e+00,6.016541990340900981e+00
-5.268109649605183797e+00,6.273743676236557931e+00,-1.236494331914476552e+00
6.788686038265294265e+00,-5.840544431939598269e+00,-6.948917436399475456e+00
7.350398264850869223e-01,4.228910400181034035e+00,-6.305588860806930818e+00
6.652980571039770474e-01,-6.862626225766350174e+00,4.414948282317937789e+00
4.523942850692838746e+00,-6.580815274563049044e+00,2.869182844374615904e+00
-5.993667752547111149e+00,9.240542399256504780e+00,-1.299384135745760727e+00
-4.362866010801418781e+00,4.212171403562070537e+00,8.983944514641693857e+00
5.062228790272399470e-01,3.070573071579647539e+00,-6.993585559170031551e+00
-5.378155668705555392e+00,6.205304054045258866e+00,-1.074339921742419740e-01
7.345306364798589449e+00,-7.191146857756058886e+00,-3.298070793554151781e+00
-4.186498651432453144e+00,5.544743585703152178e+00,7.119721243323547277e+00
-5.627814296498746316e+00,8.688144423432808239e+00,-3.440568942779081318e+00
-3.859967537924596126e+00,5.600776115787568621e+00,5.683336185977207577e+00
-2.931761321493582262e+00,8.321613602998933601e+00,-7.242822818653408490e+00
-1.580074551229778690e+00,-1.577457101086228997e-01,7.924274997663517617e+00
5.509488126591402413e+00,-9.948085351258811215e+00,-4.147137936417273907e-01
5.732950692345835542e+00,-9.253121702749869115e+00,-2.518179923759078509e+00
-4.897210473298899025e+00,6.934946772126878933e+00,-4.129795700030830297e+00
7.057075162421339698e+00,-4.004939923633296317e+00,-6.861319727872307261e+00
3.906251349906095793e+00,4.761329451092524145e-01,-7.043370183611168400e+00
-8.668614768167022255e-01,-2.080011082784393395e+00,7.185840051693113573e+00
-3.988190758341800812e+00,5.897476843595571339e+00,1.631955458030780681e+00
5.024511893002463481e+00,-5.271635458780810524e+00,-2.610687623035415239e+00
-4.584158728792503190e+00,4.020280539499758277e+00,4.262626641219244839e+00
5.134084093238217683e+00,-4.803331054090877572e+00,-8.586517067077629406e+00
3.568527462885600521e+00,-3.903175861134756897e+00,-8.395095597559647516e+00
-1.155785763642518532e-01,-7.161563783485215495e+00,8.560033623540130421e+00
-4.750808864346104943e-01,6.079763437457046393e+00,-4.930185252212172742e+00
-3.772270039512226170e+00,5.996069159557790407e+00,2.631648205865160683e+00
-6.506976838950348174e+00,5.309380648716953921e+00,7.598551540382712410e+00
4.559436089259636837e+00,-1.008129143897370383e+01,1.333617747630222450e+00
8.331184810097239102e-02,7.444793680300469063e+00,-8.224401838510203788e+00
-1.914402725188376619e+00,9.119643083656551852e+00,-2.736009815361153841e+00
-1.319032764897491106e+00,-5.320117511051278836e-01,8.115251000074657384e+00
6.062615424241124096e+00,-1.841412950243546787e+00,-9.038261001502919001e+00
-1.495895403882103736e+00,-5.906202588573838952e+00,7.007212767842680101e+00
2.620624502790603216e+00,4.833530236974625360e+00,-9.115183128326394879e+00
-4.185498656974573350e+00,-1.717721499848655631e+00,1.007175989203684807e+01
2.685050736698427976e+00,-5.820994208696011363e+00,4.428923828503394056e+00
-3.317064141597277249e+00,8.707915446603728071e+00,-6.343823154758076122e+00
3.613499983692274764e+00,-6.387390632376325428e+00,1.510829488036686152e+00
-4.126924820462713583e+00,5.905399759422181205e+00,2.138173585278805078e+00
-3.690067279833452840e+00,6.322042181923626103e+00,5.061745817654968782e+00
-5.272960950368203115e+00,3.562022533084910680e+00,4.581755645418219558e+00
5.330706465495534729e+00,-6.771559694530235873e+00,2.468871167032173020e+00
3.858566789613466219e-01,-3.003431705252211703e+00,8.872506471852354082e+00
4.815731487109878195e+00,-6.351355774422483336e+00,1.552656145767282503e+00
4.182561807143970078e+00,-3.335207948314570459e+00,-5.369492770673597981e+00
5.455938427405716773e+00,-5.174334558562486919e+00,-2.731253662303525065e+00
6.005132931761480997e+00,-8.994639997222893868e+00,1.795991415172627281e+00
-4.013899197192894341e+00,6.393632369042756558e+00,-4.744416440318393491e+00
-6.891396077434147394e+00,3.850909408111698795e+00,7.046003888729133635e+00
6.404285217710592448e+00,-4.590242197071164654e+00,-8.214892271728535533e+00
-1.559320129425073587e+00,7.203358881232608368e+00,-3.376736340192990404e+00
4.309415836504266295e+00,-4.489202230781653924e+00,-4.527317813481248621e+00
3.554534097823345729e+00,-5.865030928216273587e+00,4.760449157276100074e+00
8.570521416042127250e-01,6.960431220126142904e+00,-8.256246797676970672e+00
-2.858482066603251770e+00,6.127325489528435476e+00,-3.379611811390496268e+00
-1.853574208200887252e+00,-1.088533691335162867e+00,7.456878590806589102e+00
-3.367199403908976291e-02,3.819039208143908404e+00,-9.998224022097335961e+00
-7.307968813662284013e+00,6.311548926468586451e+00,5.357569857926186785e+00
-3.643293162852589973e+00,5.987848888953119619e+00,4.186020545553428285e+00
2.269576012782623664e+00,-9.129263342321698005e+00,1.705525500966857733e+00
-8.504413137542051748e-01,-6.008455587647291374e+00,6.023594933524514694e+00
6.577946632130185378e+00,-7.802703374094714484e+00,9.435682503104204644e-01
-1.902662388877606470e-01,-2.004339674489408196e+00,9.298458408860478031e+00
-3.705498941367571408e+00,5.335457033280446737e+00,4.598194077628190435e+00
-3.572243656358852437e+00,9.735107037469632019e+00,-1.056836263662146003e+00
2.475321979777958425e+00,-6.250682283874758660e+00,8.052103024446090274e+00
6.866174245114086361e+00,-5.385185687913994101e+00,-3.417851140674429189e+00
-4.504167896202313948e+00,-2.236826800634094115e-01,6.965249045430217834e+00
-4.854314057723632558e+00,2.309421540661579897e+00,5.622389219112233327e+00
-6.240584507369984379e+00,5.139773668047849853e+00,7.688292865890439920e+00
-7.070236856400154757e+00,7.618754134854433424e+00,1.250103268058169625e+00
-5.118158457695542118e+00,-3.863977632844350918e-01,7.703322685216493326e+00
5.413353363253373907e+00,-8.014878738614500620e+00,3.608078487308146176e+00
2.998551795748618076e+00,-5.884848360297337599e+00,4.186199731808255109e+00
-3.372199576478255523e+00,-7.035019288495831802e-01,7.078625873136511260e+00
-1.230123088415820298e+00,8.865043245705663821e+00,-4.333294649591343806e+00
7.633685975273204471e-01,-4.331420809214084677e+00,6.446124447139934155e+00
9.899631137233431133e-01,-5.801151555325069431e+00,4.699461809631722886e+00
-2.981152853519305701e+00,3.685213819667697566e-01,1.043194358488395856e+01
-5.608318002558737803e+00,8.597956565906093473e+00,-3.004998006420570800e+00
3.976571714888561093e+00,-6.554404135042735113e+00,-2.167354051002554349e-01
-3.082130460444644005e+00,1.999279727252504246e+00,9.638432915664104428e+00
2.807214202220206012e+00,-5.555274744725370084e+00,5.829379410731545974e+00
-3.979763269563119987e+00,5.633393596326348174e+00,6.789258501301581816e+00
4.824568024040648773e+00,-8.177381200175604548e+00,-4.398052140932984244e+00
2.321332320202205146e+00,-3.787871487487620703e-01,-1.030416115860820092e+01
-5.688732897792246668e+00,4.664357592360474314e+00,3.358902862439064219e+00
5.497188445720706973e+00,-4.005205183561580395e-01,-9.328576782038140891e+00
-1.473609140739207790e+00,5.713161335110758188e+00,-4.685376667223990488e+00
3.452858757868778383e+00,-7.054026976291605244e+00,-2.192485313857285512e+00
3.959656559682875443e+00,-6.304856351909581491e+00,4.157364898248904872e+00
2.540092634356334145e+00,-6.372011954277584600e+00,3.329635300947535015e+00
-5.841931642245077327e+00,6.462481416042745508e+00,-5.111756734388086532e-01
3.889954261360134335e+00,3.183448484912414056e+00,-8.682593044885290823e+00
1.276337327823125589e+00,-8.691708204311007435e+00,6.524371269610186985e+00
-1.498107765479651743e+00,-5.741515488693200275e+00,6.760637619578646174e+00
-3.491925481719800217e+00,5.972658045642940117e+00,5.384852271015676983e+00
2.047616424281635705e+00,-9.573658334260606750e+00,4.954524450911698352e+00
1.831416685846738890e+00,-7.737397855164346305e-01,-9.082655450949234321e+00
3.913930281946659040e+00,-4.691765882003378962e+00,-4.178846166275598684e+00
6.267988861440458415e+00,-3.266616889095275589e+00,-8.683293254466924793e+00
6.612219462613613707e+00,-7.775338520075944615e+00,-4.908799431155972393e+00
-3.872582108437653936e+00,6.177214975296090316e+00,3.146606737391532960e+00
-3.020900434813711399e+00,7.668889540569145069e+00,3.696172045998805666e-01
-4.299927686247537295e+00,-2.492406313188997746e+00,9.181990898522444766e+00
-2.117268153774644279e+00,9.379032528497045718e+00,-6.058266928196396783e+00
1.188348104638991876e+00,4.917437293073307902e-01,-9.520390714056274462e+00
2.372335089691194110e+00,5.015391446402653663e+00,-7.418855304034769560e+00
-8.002573280380705922e-01,7.747160971889203829e+00,-4.320692894554738928e+00
4.278848523344891852e+00,-6.126136497116834612e+00,-1.753527743840280095e+00
-1.281124237591738213e+00,-6.203085311949061875e+00,8.896827025264022026e+00
6.184628115714269292e+00,-6.205992900303984428e+00,-9.553786187634508709e-01
-4.856440156107614925e+00,6.219314709955462206e+00,7.112003453230604677e+00
-2.780460714355160068e+00,-1.186649409672714928e+00,7.136442456515545985e+00
-1.465485534292288339e+00,-6.202779176708328457e+00,8.453634758981952046e+00
4.193450853276390333e+00,2.758627554020204542e+00,-8.932769863378757336e+00
-5.542879248312154727e-01,4.884111918336640379e+00,-9.876473514340540660e+00
2.000080286376967997e+00,-1.009036910011714250e+00,-9.138145711176026253e+00
-4.114011269873206089e+00,-2.445533943459024417e+00,7.915114820320359179e+00
5.854118811068063088e+00,-5.912640571353583674e+00,-1.326757029268531785e+00
3.241048360746391577e+00,1.501781997665334822e+00,-7.085439826278540743e+00
3.544088862671923579e+00,-5.361288235261262081e+00,-5.649682999471672851e+00
-3.298984996621785459e+00,-3.781821664991225962e+00,9.560583594852102962e+00
-3.788331034063051383e+00,5.972820304762821664e+00,6.288053425871923174e+00
-7.554639796196794599e+00,5.838822580383919103e+00,5.114061138440687770e+00
3.011724096785358906e+00,-1.117136680031489554e-01,-1.060879181202784949e+01
4.888900027287170325e+00,-6.259203185549553794e+00,4.159241075853427616e-01
4.570754491829495336e+00,-7.288768036196686673e+00,5.233468458773139709e+00
-6.723385387013153469e+00,8.353878551856936951e+00,3.796824051412708734e+00
-3.425426185468620321e+00,-3.724238753731623053e+00,8.293568484398241125e+00
-3.624923652187947098e+00,-2.882036928597776271e+00,1.019971988425040976e+01
-1.607916679682754424e+00,5.732630743916979910e+00,-4.758677542966927021e+00
5.620570086300353374e+00,-1.330361694615566748e+00,-6.583906734953254514e+00
-6.230389671871849444e+00,1.088861791774666354e+00,8.330360354338409934e+00
-3.479035987553970255e+00,7.319792925038421494e+00,3.107404091061624296e+00
1.191096813336494531e+00,4.752493292053854290e+00,-1.027467215942633949e+01
3.208053281072828611e+00,-6.073316257194469436e+00,3.176895351835261394e+00
7.000613519128294548e+00,-5.650995052047911749e+00,-6.605057526998590944e+00
4.914907774000169205e+00,-6.134008140490356809e+00,-7.432900542677055356e+00
-4.322013758723786125e+00,7.206759052061849857e+00,5.661932547935157878e+00
-1.310237930297525111e+00,8.072126758280148806e+00,-3.594511799080291059e+00
4.863617335064577496e+00,-5.456272507090416113e+00,-7.856957511417377304e+00
-3.663948461392974476e+00,-2.667836918768217824e+00,1.019797940350715848e+01
3.897399215580048537e+00,2.886802262876511538e+00,-9.967900682642593324e+00
-3.052912592701061634e+00,2.459500882004846956e-01,6.998359901683858908e+00
3.757269551029573496e+00,-6.494147575163147224e+00,-1.135345952433853611e+00
5.866581747788543133e+00,-6.893569808674132604e-01,-8.682446487831869675e+00
-2.770196899529279833e+00,6.980693635325613933e+00,-1.509974538032613056e+00
-3.268029326734113837e+00,5.474099564238226634e+00,-6.360778830167576281e+00
-6.029495912696200000e-01,6.856996325256490721e+00,-4.429239134370350328e+00
1.025598318101664130e+00,1.985765383504302317e+00,-7.071289037613841089e+00
-2.278445540707598305e+00,5.342456373513448931e-01,1.002748035452373720e+01
5.225263874877542847e+00,-9.800993972665715148e+00,3.836386542246618125e-01
-7.089767821952559501e+00,7.030912097222216772e+00,1.017852950018591773e+00
5.156358548080532955e+00,5.008647190220242296e-01,-7.880310505513643982e+00
-2.951039768990935563e+00,-3.270295264652141487e+00,1.048684750990106451e+01
3.698456636989677193e+00,-6.517428455152082023e+00,-3.826616597037953427e-01
5.970601129149549102e+00,-4.998811157684124318e+00,-3.014208360653868546e+00
-3.277333289716514830e+00,4.509851974231336769e+00,7.193650258790011520e+00
-6.416727372406711538e+00,8.066699616843665765e+00,-1.519209503632450664e+00
4.792537661403869720e+00,-7.663468690888352697e+00,4.805277366494888902e+00
-5.204478680795387113e+00,5.093003658630163244e+00,2.813524196972960301e+00
6.090880364217343690e+00,-5.332927436490504824e+00,-7.901235753733804934e+00
-2.631680246705660586e+00,9.675106732096228512e+00,-2.552922254463942053e+00
4.227036111412386887e+00,-2.894157685762027921e+00,-9.605394561371850770e+00
3.770930471053854482e+00,-8.510507243707355229e+00,-2.153840477863778080e+00
-5.605297209488184329e+00,8.892551000661763183e+00,-3.042587632650497920e+00
-7.100273519304177938e+00,4.742127456769460458e+00,5.609679011594904452e+00
6.806964808530678646e+00,-8.018243578775376079e+00,2.383611587395570164e-01
-2.256144182475441351e+00,1.816818597876727504e+00,8.957361976058285435e+00
5.498850911239270722e+00,-5.026602798383866144e+00,-2.490268685368385970e+00
6.937227008916794446e+00,-3.042295196261344703e+00,-6.850450011255225569e+00
-3.390466806286805301e+00,5.668914075618667781e+00,5.529696105563844277e+00
-3.553192398942721208e+00,6.791652389550775659e+00,5.495802475266378107e-01
-6.485673853816537049e-01,6.061159910799717387e+00,-4.875884535582791557e+00
-3.133685784445415567e+00,2.155590553014739452e+00,9.643844083459278238e+00
4.938444013417702116e+00,8.259373921535669849e-01,-9.761840378688187769e+00
-1.715608964242912649e+00,8.513656698712010140e+00,-7.378935239321625872e+00
7.026907787764984370e-01,4.480358562800356381e+00,-1.021039374214560524e+01
1.759817013545150299e+00,-7.682180087394930190e+00,2.642657323658155200e+00
-4.928344074920279816e+00,6.419147796164058839e+00,6.877015437186525304e+00
2.913600195237204815e+00,-2.361811930231723977e+00,-7.172284717776008733e+00
-4.490377829923220432e+00,-9.363205109280018368e-01,7.319399144839014326e+00
-3.993804314248106557e+00,6.237541545498444862e+00,-1.982120610120382542e+00
2.998822306243234870e+00,-8.469273255660448640e+00,-5.640384615167526317e-01
-5.097574236249753810e+00,6.361564170691831777e+00,-7.441722242709269963e-01
-3.878210606053560827e+00,-2.909560199406010739e+00,9.749015881397998129e+00
-1.002056883410579413e+00,-5.398854479174183929e+00,6.303898939104656485e+00
-6.876723568790120922e+00,8.715118269653762795e+00,1.094100323248407669e+00
1.138450118415844869e+00,7.986165828458674509e-01,-8.393055299400803193e+00
4.739366076306947839e+00,-7.715087613077750817e+00,4.776568841139797961e+00
6.642273979252512284e+00,-7.831982302387161532e+00,9.702008999721378757e-01
-1.914736483040809123e+00,-1.449655438341785008e+00,1.071608970417480755e+01
1.901571589379567939e+00,2.378598453023499815e+00,-1.087613697777461930e+01
-3.422154919582135246e+00,9.872828418988561339e+00,-3.616782606433210479e+00
3.694860140804144155e+00,-7.925403903374065528e+00,-3.545227238117061308e+00
-3.606527413984526476e+00,6.890721964811872269e+00,3.378662762015015364e+00
-3.406286645500965271e+00,9.498522940235183398e+00,-5.210900871307313942e+00
-2.633934925018297513e+00,-1.636826182809509034e-01,1.063491479022356323e+01
-1.879147722624155747e+00,6.013377416830910649e-01,8.002134364146119339e+00
1.297671866833286503e+00,-8.737448940864528169e+00,4.156586166223641854e+00
2.586519457135175504e+00,-6.027374163556444842e+00,3.961055795336276386e+00
6.418279674043933625e+00,-8.843814135869896731e+00,1.021715859710921936e+00
-6.708023338146720249e+00,2.962413888152214181e+00,6.255388465650323582e+00
4.716711904215000750e+00,-5.114374635411487624e+00,-2.810648001294502318e+00
3.464478511638550806e+00,-8.310396036877541803e+00,-1.552793916363904625e+00
-2.222524575704047045e+00,-4.841449331365748954e+00,7.341607955007981801e+00
-2.942857804323353310e+00,7.442645234131325616e+00,-3.155713276139958667e-01
-4.444634785356191387e+00,6.159306330422632314e+00,-5.593432464607863697e-01
3.841338437470512179e+00,-6.501420193826882077e+00,2.262412919212504647e+00
-5.191394773941840901e-01,7.923982782603821384e+00,-7.864642950452928716e+00
2.089559087201815935e+00,2.244372237280005233e+00,-7.057277041010406649e+00
-1.807117869560085799e+00,8.949311312500020321e+00,-3.250394492368510857e+00
4.429046521182431029e+00,-3.926373846812452495e+00,-9.223259095822498921e+00
1.015958339893825224e+00,1.213013701298113700e+00,-8.356623655198887946e+00
-4.457940357096153328e+00,9.995650247802608135e+00,-2.805879810196884261e+00
-8.699532059408051632e-01,-6.234654796020770107e+00,6.520940838047578403e+00
-2.117618177743164409e+00,8.146094168719855588e+00,-7.279124703454737499e+00
-6.307430889323702772e+00,1.942137934672359068e+00,8.594019550927713524e+00
6.781713771265330593e+00,-7.885475515061597385e+00,-4.479299005453020399e+00
-3.757877156990079293e-01,-5.418363561850379817e+00,5.706449458480427062e+00
1.750455137951626439e+00,-8.533046160980928718e+00,2.757306137988758010e+00
5.195952292345729084e+00,9.014771679453531528e-01,-8.716414421264268242e+00
1.606010640225011388e+00,3.946915846929977878e+00,-6.931832322779706068e+00
-4.560331986121728853e+00,5.741471949973580458e+00,1.925684780923717643e+00
-1.176392612306968566e+00,6.289809192340444888e+00,-4.295990834036391703e+00
-1.792575590017395415e+00,1.160286452825119580e-01,7.614005274583796279e+00
1.482806731734911398e+00,-4.432623779761157401e+00,6.887952892780121239e+00
4.935963225187777859e+00,-9.594801588968621786e+00,-1.318240747096514509e+00
-4.009295240028254881e+00,6.308060845248093074e+00,-4.969122893883151981e+00
-6.467542553634535452e+00,4.589844234006304369e+00,3.817574717152446340e+00
-3.755241887378895083e+00,-3.197575470867159986e+00,9.267887716139883381e+00
-5.674069082080491988e+00,6.416935264323576860e+00,-6.899230423870702511e-01
5.042958462951472320e+00,-4.676586177631481434e+00,-8.851607067261621609e+00
9.017827626036814537e-02,-6.860212540405627557e+00,8.780985497211116098e+00
-3.426394137944808183e+00,6.368136640788748082e+00,-6.524687053375246570e+00
-8.367129193194288161e-01,-9.647722781217091814e-01,8.744878572612220680e+00
-2.353648157652631578e+00,7.056155484838298797e+00,-2.457402706393526426e+00
7.446563972499133044e+00,-6.723485018070189945e+00,-3.592202442206579249e+00
7.229151651359453368e+00,-3.711615732339196949e+00,-6.414895415604304318e+00
-3.546340674826873318e+00,4.293404337092849410e+00,7.868611654491760810e+00
2.193990446474404443e+00,-6.130053094941087188e+00,3.528262960771571422e+00
-5.920966176504748546e+00,2.636800658940848585e+00,5.653808206535411607e+00
