-4.250977530248317038e+00,-2.854533855785469365e-01,3.255312879330150455e+00
3.753441225696701800e+00,2.363154288694038652e+00,-9.157269232194654718e-01
5.343226475482907745e+00,4.043347768653032581e+00,-2.621063462368349722e-02
-1.615167431910591089e+00,-1.516950287884583526e+00,-4.403182491229038042e+00
-1.163145837101863478e+00,1.075529187308928325e+00,4.343754572170259287e+00
2.547839147429302287e+00,-1.004230084649702537e+00,-4.471933054417459807e+00
3.597288484810930775e+00,2.391140215218601650e+00,4.407688807724396085e+00
1.963439223216184359e+00,-1.870113903525548293e+00,-5.254128131937419788e+00
-3.603304126437573696e-01,2.367485762573306118e+00,4.398646317644060666e+00
-2.313501454570339622e+00,-1.958224704596437382e+00,-3.577482695686160064e+00
-1.271660057778388087e+00,1.240131507032019131e+00,6.467664522884138734e+00
2.342476453823566729e+00,2.439173179495730537e+00,2.925318579675305397e+00
4.726409797955324343e+00,3.715968378606977041e+00,-1.732226155339605000e+00
-6.036191380658585182e+00,-2.890355223370376869e+00,7.583269893415714794e-03
-4.745683845723218219e+00,-9.801609977045280253e-01,2.492095468095731015e+00
5.358278897102175087e+00,1.859877215550360008e+00,-3.819081354666591932e-01
5.354258177685572662e+00,2.280216152523752093e+00,8.368569686695277454e-01
5.449866615362500610e+00,2.627149526237162025e+00,1.467503902766357893e+00
3.884223776476233514e+00,2.138255205135234593e+00,-1.042964526845064910e+00
2.848497276797082201e+00,-7.165802143483648301e-01,-6.070464389559229623e+00
-3.344892637062864438e+00,-1.311727520992031382e+00,2.839586159023967493e+00
3.231492966491174013e+00,2.385889925143452661e+00,1.983009753950296661e+00
2.501018131595640348e+00,3.445872432698243504e+00,2.554762676703893565e+00
-5.687455947329933537e+00,-3.217572318131428410e+00,1.812500166903391774e+00
-1.556189485069806144e+00,-2.097839314632337082e+00,-5.957321911544759097e+00
-1.844539591443492110e+00,-1.711545097996584497e+00,-5.699292496435278466e+00
-4.562649671132263052e+00,-2.229311196376681625e+00,-2.444885466480581027e+00
-2.765602499632911382e+00,-5.273066279690876712e-01,3.520161812416514824e+00
-5.078115649637888751e+00,-3.655585921320227083e+00,1.931068895155908738e+00
2.605408088786635101e+00,1.576896368433248208e+00,-4.739130213838873118e+00
5.609797312731083174e+00,3.756665680661987139e+00,-5.346735192023247540e-01
-2.977989314604742699e+00,-2.094932464036146857e+00,-4.882103888834888217e+00
-4.550273903270730003e+00,-3.591932197983555675e+00,-3.448604493281680838e+00
5.546925771077718004e+00,4.015498669454601099e+00,1.074594490627032606e+00
-7.091274960072481148e-01,1.569893835099832380e+00,6.564193120827254369e+00
3.899348108747914932e+00,2.270824104782049324e-01,-3.170831980098371528e+00
2.135364353489570099e+00,3.286033924451973398e+00,3.138585893457750409e+00
4.831348325245643949e+00,2.703234913982035525e+00,-3.590564727004188050e+00
-4.967230503614466386e+00,-7.813072496356321395e-01,2.934880226626578548e+00
1.127925186505627897e+00,-1.480614724900132691e-02,-4.639415085373393310e+00
2.624048550136029778e+00,-5.137028525567592929e-01,-4.044676125328476424e+00
-2.442435364348748639e+00,-3.720666479625128531e+00,-3.047620082228923000e+00
-3.399185153848053087e+00,8.200603442415943523e-01,4.829183185012499990e+00
1.471825179589464572e+00,-2.368510759568752955e-01,-6.411732419975962216e+00
-2.673980909709317011e+00,-2.184977745041801978e+00,-5.190098555343666042e+00
9.339160036628380013e-01,2.050068274571404114e-01,-5.491059601949462632e+00
-4.076080782954830894e+00,-3.896428637453920540e+00,2.673878395322513979e-02
-2.046741926720745397e+00,-3.936354544099251118e+00,-3.844196873501808831e+00
-4.668721364314985856e+00,-3.200233760792694948e+00,2.776636148051435882e+00
4.186950451314853439e+00,-1.833412808038694108e-01,-4.533333977747401988e+00
-5.742518560094450386e+00,-3.639651927889366867e+00,-1.367092968712055878e-01
6.047257355774310561e+00,2.830886152848782977e+00,-5.553762084946223254e-01
2.459727354734278393e+00,4.128373883343959605e+00,4.144583810528700951e+00
-3.369546746665083026e-01,-2.652089231501431943e+00,-6.183899438783768687e+00
-2.407350951000597927e+00,-1.605083463404422206e+00,-4.277450804233281723e+00
-5.493559139285828508e+00,-1.536010066542219388e+00,2.408873633459069463e+00
-4.886193356512004371e+00,-2.955577188839704217e+00,3.234847616363607958e+00
-3.051257357295402262e+00,9.099195421667287398e-02,3.685259249940649351e+00
5.899609912376542198e+00,3.244946679986052906e+00,-9.266206492904042191e-01
4.720466639969790101e+00,2.796837409157362675e+00,3.239262699514986465e+00
-4.630324040368266836e+00,-1.056373394249554787e+00,2.053388272880011467e+00
2.195019482465435878e+00,-1.319360566157947168e-01,-6.414527911485042644e+00
2.031894633491169166e+00,3.315322837435063508e-01,-4.118343763436763005e+00
3.712556736339206687e+00,2.725602424412022717e+00,-3.125800783886838907e+00
-3.358688446942544648e+00,7.349713221592076851e-01,5.592124521143890803e+00
-2.411808807340777960e+00,-4.846992514995657197e-01,3.741125527247309179e+00
-5.760321319886159586e+00,-3.597181428037435680e+00,-7.377256029921578362e-01
3.642450402535898135e+00,8.425717061924271611e-01,-5.617604365349031070e+00
-1.906111891890987398e+00,-3.782313500783626381e+00,-3.785017338152247834e+00
4.445869693271173873e+00,4.307092700295906518e+00,2.478790546485400093e+00
-1.860790462874756912e+00,-6.803322075688308379e-01,4.517006688884952048e+00
-1.882545054334427315e+00,-2.134345805642459681e-02,4.002798118397811855e+00
-3.560321048297734325e+00,-2.133026416619234755e+00,-4.065261343833774355e+00
-1.780981045743939450e+00,2.022874449742983138e+00,5.148890375957685173e+00
8.810239855545097809e-01,3.236156856282564220e+00,4.158580234963515032e+00
-4.775880812050685431e-02,-1.946982694772280809e+00,-6.437458432999269675e+00
-2.172147091543724429e+00,-3.990424445979393386e+00,-4.143763589403936187e+00
4.942493738862942187e+00,9.563038839654084411e-01,-2.923814130479512219e+00
-1.943851912092916301e+00,-6.817738281713507653e-02,6.352989884387925557e+00
1.252318634259109276e+00,-2.150826515710882347e+00,-6.006803210099201706e+00
-5.398299213988448919e+00,-1.822958851624036480e+00,1.041207642631745589e+00
-3.127380762920180857e+00,3.047198245913939618e-01,3.973395283782495735e+00
-5.278496234767581896e+00,-1.654087720774913617e+00,4.097291424063542742e+00
-9.086800806719835810e-01,-1.046894910197138762e+00,-5.286655313933283473e+00
-3.448175711896243278e+00,6.413312617211676114e-01,4.435267200475993654e+00
4.309366472505632650e+00,1.981172270217347986e+00,-2.230962268592910358e-01
-3.848567401537626331e+00,3.845478835752119684e-01,4.631180395728545562e+00
-4.815234656146605730e+00,-2.314859949672595452e+00,-1.963521151278849519e+00
5.338819235423422072e+00,2.986416156488506335e+00,2.031074726953495446e+00
3.396848918467107126e+00,1.488661245011574819e+00,-2.476690859023112701e+00
2.885955830795084331e+00,3.772066159339033664e+00,1.927766829564546480e+00
-3.648025270866865455e+00,-3.841719649939288939e+00,-5.083030750580195267e-01
5.460220665594690992e+00,1.563314696445968766e+00,-1.267082739584657114e+00
-2.594772526712693095e-01,2.859870271489505011e+00,5.175217519920539466e+00
4.735191067527805053e+00,4.211755877700212203e+00,2.084813239599293322e+00
4.638912465572328614e+00,3.323576317638750055e+00,-2.465766116690597975e+00
3.785153201515363719e+00,2.909630440532564144e+00,-1.152995088434326076e+00
-1.784018152545559843e+00,-3.004569064898905406e+00,-3.268541764419496953e+00
3.638732225268153986e+00,2.588253667411780867e+00,-2.594244918627805152e+00
1.831441014740841755e+00,3.413007306522071627e+00,3.426450523982111918e+00
2.738823794520381494e+00,2.836130767097842398e+00,5.422259151788981768e+00
1.030633389776890008e+00,1.184677169059325630e+00,5.564733540916800614e+00
5.477247822751503570e+00,1.784619718688219780e+00,-1.367663879930899329e+00
-2.079384647586147050e+00,1.659229187978707332e+00,4.946829579321334158e+00
-5.955408944406036298e+00,-2.859799957257749714e+00,4.778248750528889532e-01
1.487880249029516433e+00,-1.733958338957625855e+00,-6.233320489631132943e+00
-1.227042272523842792e+00,-2.021314566112158762e+00,-6.171901291639631637e+00
-1.679100763614581326e-01,-7.945852169227034523e-01,-4.725202238020236756e+00
-4.427104006668677982e+00,-2.086503875328541646e+00,4.641656480174710886e+00
2.201468240897171968e-01,1.930580448747811095e+00,4.087505367605117179e+00
-5.266160030248179247e+00,-3.096061720176532805e+00,-2.434424773507419371e+00
9.367137101053187864e-01,9.744025427733045072e-03,-4.674016473642197411e+00
2.586619774845733133e+00,1.807677602939941508e+00,5.214176917371453612e+00
4.046210628283542832e+00,7.225770536237203778e-01,-5.347295456549756132e+00
5.054351139472951893e+00,2.602818425689835014e+00,2.275237542391475021e+00
-1.403191130924590579e+00,-2.427173296829292060e+00,-6.096609994278229472e+00
-2.770787876469375188e+00,-2.438986386029086795e+00,-5.319652294593833375e+00
4.255352156262491192e+00,1.004153205329592735e+00,-2.296869077809851944e+00
5.225192327678462867e+00,1.531501667814664902e+00,-1.286634240447581679e+00
-3.581529279286404854e+00,-1.991704199097509731e+00,4.759534489094141563e+00
1.644048553429948267e+00,3.370221520439205865e+00,3.581380929928892343e+00
-2.285634830270591333e+00,-3.396070509740704235e+00,-5.533550185844642755e+00
-9.745273701069899763e-01,-1.678882838176735337e+00,-6.197338122080878087e+00
-2.328114407225877702e+00,1.623043252166441741e+00,5.181310812242157837e+00
3.527542274582445625e+00,2.401040282383496649e+00,4.529791679960124995e+00
-3.707109514348551738e+00,1.890325088985652865e-02,5.642836926674022813e+00
-2.378042799186698419e-01,3.311280865135844409e-01,5.420040382470044271e+00
3.705089688885994992e+00,4.339294012591987659e+00,3.322438426902074582e+00
-2.577501042308405044e+00,-4.073034624385994951e-01,6.112623429293112309e+00
5.281650202792041782e+00,1.203557254406236066e+00,-3.452235497798598729e+00
-2.617672113406854351e+00,-3.317020646005485407e+00,-2.339627069055361108e+00
5.447346588660018973e+00,1.880787494634140078e+00,-3.214987702335392772e+00
-4.392366224948530018e+00,-2.126063362475861140e+00,-1.824011825004090870e+00
5.889868112600781913e+00,2.986728069052498213e+00,-1.023531649982932334e+00
-2.572004413504940246e+00,-3.257161457856861286e+00,-2.339039406374805008e+00
3.559693119291885477e+00,1.891697743572412715e+00,-2.327391532926978535e+00
-3.661918916406032398e+00,-3.786895721521680525e+00,-6.723998154426844565e-01
-5.803365202010279944e+00,-2.981952230523416958e+00,1.982543356977871873e+00
-4.505282625380673700e+00,-4.119941585005576279e+00,-2.892442159629694753e+00
-2.272860313499586393e+00,1.666851697783516828e+00,4.981961524603175206e+00
5.646689143526911536e+00,3.815291539577026825e+00,-1.433984169240606898e-01
2.806697964176801285e+00,-1.201565999796345291e-01,-6.253158540530150411e+00
3.583181348110474840e+00,5.037785899789796185e-01,-3.241809654624096204e+00
-1.405028660514374250e+00,-1.330752530559136559e+00,-4.911870659761943259e+00
5.884126869976345375e+00,2.459493018125938235e+00,-2.280896592583220972e+00
5.249469184897901819e+00,3.469978000300955934e+00,2.203412164067730217e+00
4.053179956894043201e+00,3.611707043379223769e+00,-9.785716570463964814e-01
-4.564373823629845006e+00,-3.839554504305406457e+00,9.253193762480067530e-01
2.093809399563660634e+00,1.065294151372070397e+00,-4.701265579818040052e+00
5.360070640059714897e+00,2.860121630111783109e+00,1.871518616693470305e+00
-1.810325344935455272e+00,-4.592627005035533339e-01,5.926812919234023092e+00
9.532523747082576326e-01,-3.602437550865469906e-01,-4.548061358641117380e+00
4.959135306120135311e+00,4.225645725054176793e+00,6.625513127696218696e-01
-3.108145366646831498e+00,-4.304628577082777241e+00,-2.733514184894658694e+00
2.137441208692708816e+00,-9.629000571515891060e-01,-4.275276150652859819e+00
-3.466502606787202456e+00,-2.013253605531211576e+00,4.579682844095567695e+00
-5.595951298156345288e+00,-3.322384538675673404e+00,-1.689752640362745417e+00
-1.468796847169912878e+00,-3.435957385231184436e+00,-3.884097047421910975e+00
-2.534932089544103540e-01,-6.637893985103219263e-01,-5.840875626580693591e+00
-1.527584822241605300e+00,1.455224985774658641e+00,4.461891264908534716e+00
2.145848030676207330e+00,-6.944888184063440217e-01,-6.333226068864284741e+00
-2.249404824194337404e+00,1.364921931964240720e+00,4.490686974084361793e+00
5.175081701771687470e+00,1.319571610468935230e+00,-1.679617685048353293e+00
-1.569407270734665572e+00,-3.852846778390081051e-01,5.903558288182316538e+00
-1.987752568772415351e+00,1.520562917930533331e+00,4.606095912240124157e+00
3.606961619563728849e+00,2.613622693271755004e+00,1.335449114614186472e+00
-1.067613820525735280e+00,2.065792234363386548e+00,6.145717695770243516e+00
-4.750379313313153773e+00,-4.358741433915975350e+00,-1.770553628209427632e+00
1.818433609229470616e+00,-8.456894875260126052e-03,-4.151357080555974299e+00
3.845986278257705226e+00,2.314475846044408591e+00,-4.667870529839295013e-02
-2.337726235370797045e+00,-2.596027042697826470e+00,-5.756242373593989825e+00
-1.446380269870370494e+00,-4.976622891338011723e-01,5.276181565605916113e+00
7.359741792876364208e-01,-1.403479649689675091e+00,-6.750263316275680658e+00
3.598783306042008689e+00,1.177905196270015997e+00,-2.706162065049015464e+00
3.807185611427273297e+00,3.463343814835352585e+00,-4.060938372707122990e-01
3.837242531567297998e+00,2.478741278721846797e+00,-7.395345204563054213e-03
1.090448429362445903e+00,1.098739357314076015e+00,5.080408814107773452e+00
3.763949940722570275e+00,-1.017261561481734439e-01,-5.563030486617364545e+00
-3.340160261037397049e+00,-3.547851470067920676e+00,-8.377022036759084189e-01
-3.594496106336381835e+00,4.178421848696352026e-01,5.281053002703285593e+00
3.671923962993047796e-01,1.073986776093438511e+00,6.255899666925947677e+00
-4.749184230531064088e+00,-4.032777996053350300e+00,4.490145222216307963e-01
-2.918437938930869890e+00,2.370677298888267115e-01,6.164992604550473487e+00
2.725162953081091466e+00,1.575291542915581822e+00,-4.948127864455826419e+00
5.115305978742175519e+00,1.827937106726259087e+00,-5.134658196301217919e-02
4.042302717415241275e+00,4.086924555712669438e+00,3.684349027347188166e+00
-5.231870947433942654e+00,-1.273279225459207131e+00,3.761823009745968616e+00
-4.117536350422920322e+00,-2.138702477395447943e+00,-2.017123568942175371e+00
-5.417955680164924459e+00,-2.400637069706793802e+00,3.305213985776528141e+00
1.515491943935480590e+00,1.326806931759541897e+00,5.312651037368616436e+00
-3.256355085908248181e+00,-1.874883423948248584e+00,4.885057967436419624e+00
-3.292884362022267197e+00,-8.986485728715444266e-01,5.829107814141088362e+00
-2.738375115479549038e+00,-2.711069873611045011e+00,-2.354121515975839962e+00
-4.059307623554834876e+00,-1.108147657725728097e+00,2.252770903590251894e+00
-4.538949575761018096e+00,-3.200034713187694280e+00,2.777837394403063875e+00
-3.178510724131810683e+00,-3.060045442997236798e+00,-1.712158777127153364e+00
-4.805841762903185987e+00,-1.766636851393068586e+00,1.877466049349109101e-01
4.652091587619825219e+00,1.073817442288730994e+00,-2.042475266956011115e+00
1.287844107895897539e+00,1.388512268892434953e+00,4.320902537951056388e+00
1.855078222000184907e+00,3.886962434540152778e+00,4.413931106135005500e+00
2.486428389039202713e+00,2.040187627276925486e+00,3.409445375882449003e+00
-3.002355515713557299e-01,2.626757235573390581e+00,6.023997586433180729e+00
-2.701292494789838461e+00,1.306697090412185736e+00,4.994154108681534865e+00
-2.427432262676404662e+00,-2.464195706806045827e+00,-2.815798488657611731e+00
4.733631689931652176e+00,1.303288600990121004e+00,-1.453373285669946169e+00
4.000096622861931017e+00,4.159129344858848221e+00,3.460069219344858560e+00
5.233630947254696686e+00,9.516455920661178736e-01,-3.181478162884587402e+00
-3.277294748608097219e+00,-2.099220138283820702e+00,4.142818303374317779e+00
-5.741672216485283364e+00,-2.087611930015398354e+00,1.308817727472922243e+00
-3.951770561869317078e+00,-2.279594774691654724e+00,-3.592507608291121812e+00
-4.838813318665179608e+00,-1.061371182358163745e+00,4.513872709205683620e+00
3.921242347974402520e+00,1.981015108291585225e+00,-1.315053465779693731e+00
-4.181433286224793378e+00,-2.058480270109747767e+00,-1.906105435847629481e+00
-4.128739173126841244e+00,-2.200804875645775205e+00,-2.818957691377569574e+00
-3.097227010976239203e+00,-4.301648841303328474e+00,-3.476433957770808991e+00
-2.687012873741401187e+00,-4.130113358397387024e+00,-3.576082383705943446e+00
-3.306145769415442359e+00,-2.055447383469550360e+00,3.599394682749597507e+00
3.326290557554474336e+00,1.301377558611444218e+00,-2.868291268061001986e+00
5.412480881511301689e+00,1.528783477536957092e+00,-3.625213756813627342e+00
3.874328657754790406e+00,1.627141081636353181e+00,-1.818112991660145727e+00
4.374680841033430911e-01,2.296240781156694055e+00,4.071906970827178007e+00
-4.276840040436773016e+00,-4.113616182291492951e-01,3.093762965277627064e+00
3.569821194678031162e+00,1.327200113511789237e+00,-5.443128898476440547e+00
1.634595478208591635e+00,1.308372579743904751e+00,4.505200272406185924e+00
-5.116158035720052233e+00,-3.910642016683726130e+00,-2.382962426000973633e+00
5.174840292765575889e+00,2.746898637157515921e+00,2.012311722138638626e+00
4.592625905253753693e+00,3.169497006470179734e+00,-3.084365540773009506e+00
3.441435641559378311e+00,3.638994804361889823e+00,4.598313427097338035e+00
-4.209258247891629168e+00,1.308445533043382965e-02,4.306428730443979447e+00
-3.799199125855795334e+00,-2.488161826646512864e+00,3.997462127828389278e+00
-3.684044620415450666e+00,-3.375361191548190920e+00,6.393685457744788248e-02
3.706832118923471420e+00,1.905060107818626003e+00,-1.677734031413088633e+00
3.962188488890018512e+00,4.180080279260595333e+00,7.791561640635988883e-01
-2.361445140472405946e+00,-2.062442286770324262e+00,-3.350725970525481490e+00
3.639885921825309900e+00,1.504765653540062864e+00,-2.205175774503787434e+00
-8.130191636716419534e-01,-3.515457809209916018e+00,-5.214070170482736799e+00
-1.283399284767041459e+00,-2.195636091191459638e+00,-6.229134242019676471e+00
4.888691534974928032e+00,4.258033531631635782e+00,2.866656591737801185e-01
5.544500269408418447e+00,3.660955589819715694e+00,1.502319284364216134e+00
-5.306688134080240538e+00,-1.306928491917036528e+00,3.635408169933762146e+00
3.459193733750587807e+00,3.085257766469516660e+00,6.864230002724028834e-01
-5.910617504786666032e+00,-2.777092667801312587e+00,9.340979021471689236e-01
-1.876438696187014532e+00,-3.820325088224058252e+00,-5.067259358813309689e+00
2.946248875801607880e+00,2.864230446684737696e+00,1.796758825173515151e+00
-2.701922242158047105e+00,-2.746234192579857097e-02,3.808065597743084840e+00
1.208507453623679950e+00,-1.348295835898943418e+00,-6.567362614860644321e+00
-1.702241529629231920e+00,-1.476737778835028214e+00,-4.502851099276034219e+00
6.850158114285775923e-01,-7.022461629470234667e-01,-6.423991583631588398e+00
3.694252669332380279e+00,2.843548948115245611e+00,-1.701125560116332425e+00
-3.441552914402500107e+00,-1.510950429950643992e+00,2.818400103570918525e+00
3.998868322150272103e+00,2.172623842330851041e+00,2.389940192357395521e+00
3.791824303101677618e+00,1.927049916337187696e+00,-1.599529153113138591e+00
-4.616467019366982782e+00,-2.902811254954284159e+00,-3.380595425978984103e+00
-8.158939012789800937e-01,-2.783300915528065911e+00,-6.073468223333806648e+00
5.418531560382113810e-01,3.134057156382954901e+00,5.617479102684156622e+00
2.092959636628917597e+00,1.991484588382685716e+00,3.595339020393958585e+00
1.293885760415034447e+00,-6.196356399492465306e-01,-4.338106268506141561e+00
-2.006036527321591212e+00,-7.926514665574273533e-01,5.595634006689379270e+00
-1.653592447001688281e+00,-2.158899274054521200e+00,-3.597826212690630854e+00
-3.527293654864006367e+00,-8.899390653410039764e-01,5.602383942930687866e+00
9.988151962765402514e-01,-4.046694522170228292e-01,-4.466837704801266185e+00
3.405645591268125383e+00,1.154791883703999877e+00,-2.640886021665953987e+00
2.565370903486578147e+00,1.590677592771982285e+00,-4.147184079342218332e+00
-7.500874518846247785e-01,2.502061966982102259e+00,4.982323858862235610e+00
4.803964213649122295e-01,-2.022944092854137843e-01,-5.075122061214761615e+00
-4.711494770324110348e+00,-9.657328186554968719e-01,2.363305738102030151e+00
-4.227178191171286237e+00,-2.075699967341328112e+00,-2.542470729809347407e-01
7.782120530912264300e-01,2.021556878371822741e+00,3.999897999518191138e+00
-1.564463986593067180e+00,-3.683891981207100930e+00,-4.743517015694293626e+00
3.394357606023243878e+00,2.069850662600122515e+00,4.141631369113728312e+00
5.156470244367632461e+00,7.891192518869939443e-01,-3.253680157264021489e+00
-5.287108217738759386e+00,-2.286880065113704674e+00,-8.570967317164506216e-01
-5.879262252323023574e+00,-2.602050395202486932e+00,2.015703805573807947e-02
5.580450560264345050e+00,3.701323264860389539e+00,6.173976212582876766e-01
-4.495361505358495435e+00,-4.101137942890460408e+00,4.643835196783014929e-01
-3.792243270104199926e+00,-8.066588810584930380e-01,2.709691384396632152e+00
-3.072518025245865925e+00,-2.660211455424508209e+00,-5.215493651271791542e+00
-6.446263275586222585e-01,-3.318770619210517747e+00,-4.732457943975163062e+00
-4.890518142219975495e+00,-1.914340010588337249e+00,1.219335916005394593e-01
-2.539111180192635597e+00,-2.315333375153963757e+00,-2.998086406496009548e+00
1.447825132839122952e+00,-2.136835904953512610e+00,-5.275536179135190906e+00
4.120011181346631801e+00,3.334552756920140304e+00,4.260663785322991615e+00
3.055728113062010642e+00,2.300514606082104230e+00,2.763145466293635000e+00
4.221668340399278740e+00,2.105205992020285688e+00,7.863313634520645579e-01
4.118182935632993313e+00,3.809852912079982445e+00,3.869313378041130402e+00
5.181271106673341897e+00,2.075750020306885713e+00,7.158167329335535234e-01
1.102877960231947618e+00,4.929510164574168324e-02,-4.718242702849346770e+00
-3.754079360187754233e+00,-2.545136847557936122e+00,5.666376223083409158e-01
-3.256063570039704036e+00,-1.961473005365665934e+00,3.972495802055110214e+00
5.405541927725394658e+00,4.017705992115646829e+00,3.804874902365064648e-01
-1.933326351631341478e+00,-3.864085880452777566e+00,-4.866120740445306403e+00
2.382636805809787539e+00,1.730367322805717256e+00,4.265154802164998316e+00
-1.992793926239445845e+00,-2.978950130218700032e+00,-3.159451350663124547e+00
-3.117787881018083240e+00,-2.034549032894085396e+00,3.814390214455639860e+00
-5.222755907133122655e+00,-3.859879543473629049e+00,1.448621585963028924e+00
3.914125789334574890e-01,-1.028940140251090485e+00,-6.489992143289613047e+00
4.578554926922064006e+00,2.780772373662512287e+00,-3.542064047334660515e+00
5.263207364493571738e+00,4.001787391064735466e+00,-6.349285760599434614e-01
-5.595357510548617519e+00,-1.665503102622460263e+00,2.318837417733921047e+00
-1.971243442626392506e+00,1.721482696969814707e+00,5.776903544758695830e+00
5.688292482177140563e+00,2.919814440301499836e+00,-2.080752462807278658e+00
-2.532150651840104683e+00,-2.851624179377941104e+00,-2.544586584104653326e+00
-3.425148579901573509e+00,-3.316721231896067046e+00,-3.949362043059240213e-01
-4.021132630728927460e+00,-2.264349255923141069e+00,-1.160749378884547323e+00
-1.115909683214989512e+00,-1.543717129025262702e+00,-6.125235041934433688e+00
4.790768759452578962e+00,8.726598803546593563e-01,-4.431279599026346716e+00
3.457090875813128683e+00,1.989336466255500202e+00,-2.328177931798653510e+00
-2.212750024469041232e+00,-3.701403219681535184e+00,-5.046502491858456452e+00
1.265816660093325607e+00,1.174329806896313055e+00,5.212456011391362054e+00
-4.566801387375312160e+00,-1.667149687226329835e+00,4.793993748091570417e+00
2.328338486563877652e+00,1.729188766652475007e+00,4.079947949866972401e+00
3.791859343574214058e+00,2.676434093381884871e+00,-3.338325561250435225e+00
-1.371853073633559239e+00,-2.033346815037291311e+00,-3.922076174567399320e+00
-4.032559799888430163e+00,-4.439615340998455117e+00,-1.521023996513732879e+00
1.166490524321620592e+00,1.784105725715827706e+00,6.150179957935776542e+00
-3.508402686079613808e+00,-1.996753587634667815e+00,2.621984342797985867e+00
-3.838224773581771387e+00,-3.779955970539908838e-01,3.198437821428704808e+00
3.497851649492905945e+00,3.972288570664511465e+00,1.283760461332522418e+00
3.377328209785670943e+00,1.870063279573151771e+00,-2.578291813733552651e+00
4.030623911118096814e+00,2.497393020112035344e+00,3.812398339727176566e+00
3.529949807795961902e+00,4.645446237598280792e-01,-3.252912612505510115e+00
5.831151454855693750e+00,2.971083934451914654e+00,1.070640405588078492e+00
8.796708301802202978e-01,2.704622992002028603e+00,3.937528151880234528e+00
4.332614900807656433e+00,3.268654286678651655e+00,-2.770973340385184613e+00
-7.598844224439111894e-01,-3.338077570690729079e+00,-5.824427610777449971e+00
2.451321036218256033e+00,2.797546764623643156e+00,2.813312830275085830e+00
2.833441744686810537e+00,1.171920386513995549e+00,-3.326429254592635498e+00
5.677466574827491286e+00,3.560019094975417797e+00,-3.674168213687472040e-01
-3.349787622101843887e+00,-2.280772199796031074e+00,-4.435450368463384585e+00
-3.951318050298014972e-01,-1.715962481900544123e+00,-4.159000086664644158e+00
2.693183198798427380e+00,2.324715914688873841e+00,5.383444696871202417e+00
-2.766139966984806797e+00,-4.765541246557511434e-01,3.648790861296978605e+00
-4.128862551820668969e+00,-1.462164319405518720e+00,1.626000211069416501e+00
1.488232210939978151e+00,-1.064984730609697783e+00,-6.452426987493864452e+00
5.105941791023314025e+00,9.382119424037832500e-01,-2.888699238556559745e+00
-3.286679805061032411e+00,-2.372577237706642528e+00,-2.164582519441351494e+00
-5.296296186002445339e+00,-2.359086140814046217e+00,3.377522271242906715e+00
3.009964340840973751e+00,3.409510181813680152e+00,1.856593161261718583e+00
-3.536803072571390150e+00,-4.211576639198231220e+00,-1.607173966392569708e+00
4.253014620282113967e+00,2.816925209577225697e+00,-3.448813262970601201e+00
-1.978590594862978280e+00,3.782142053965313333e-01,6.498113929187822713e+00
-4.890286840968165905e+00,-3.392285984888964823e+00,-3.131968744683950145e+00
1.470272460891436594e+00,-9.406634013324071120e-01,-4.269795804615079682e+00
-2.698836230837059702e+00,1.379090447256889007e+00,5.021938530662919398e+00
2.704628320613049475e+00,-1.280777476654473723e+00,-5.662683156544598972e+00
-5.964008226783941158e-01,-2.831077976506815030e+00,-6.080248499871838241e+00
3.557283429767391869e+00,3.989659566262426793e+00,1.396707446304489064e+00
-4.095417361054647820e+00,-3.711784864940658402e+00,8.698391261083088244e-01
-2.147877846465437557e+00,-1.536560338027933570e+00,-4.834161729347338898e+00
2.841053677636076635e+00,-7.612880407612578060e-02,-6.121004874947925778e+00
-4.550382519672823811e+00,-2.229778177924344185e+00,-2.017434128884060929e+00
3.688149545935607065e+00,2.294533341447664299e+00,2.264552196234882242e+00
2.837298164764275654e+00,4.299505685136051358e-02,-3.699971730220567245e+00
1.367600985341954622e+00,-1.891172945693504914e+00,-4.687978124803412250e+00
-2.761482004784916455e+00,-2.185099807612945533e+00,-3.184607098154982552e+00
-1.351675256747275844e+00,1.884490344637941961e+00,6.310785414455081010e+00
-1.225177502545516717e+00,1.500022181234263341e+00,4.359251491594284822e+00
-4.047693196055383247e+00,-4.277437021677663154e+00,-1.130238609649119041e+00
2.151960489491476114e+00,-3.816383458279826169e-01,-3.914943011414162122e+00
4.406852721591157263e+00,2.699515703991624438e+00,-3.761508650102567408e+00
1.307676476508009999e+00,3.733994007890987010e+00,5.330864024015653513e+00
4.742805837338959662e+00,2.316225659151746274e+00,1.660663772557392281e+00
2.392049038764856306e-01,-2.785033620307059365e+00,-5.765568243968623996e+00
-1.871235198662455579e+00,-3.839849329738551198e+00,-3.687288644308169161e+00
5.563485031307322526e-01,2.084463295059360899e+00,4.009763896991288767e+00
-4.089339272403006653e+00,-2.269402560253432899e+00,-1.381195886024089381e+00
1.361648476916554662e+00,3.327101761148160364e+00,3.820724503411759621e+00
5.444898408132742063e+00,4.006853578550169992e+00,4.047357043832901513e-01
-5.262679824608572865e+00,-1.829619116145491331e+00,3.911604746792950671e+00
1.543314589984754903e+00,-1.998195426135570774e+00,-5.154324628259812080e+00
-2.638895511866339749e+00,-2.097913607989998486e+00,-3.138583202711741293e+00
5.390738601892566262e-01,2.407777965260022413e+00,6.264162712498036356e+00
-5.719672856630040769e+00,-2.816705448229058995e+00,-9.738511689666331517e-01
-5.196672351629469944e+00,-1.885057712627993487e+00,7.514063751111960121e-01
4.513357076130649403e+00,2.174966357076700607e+00,2.356686904901330148e+00
2.010749269110601034e+00,2.696176584891886829e+00,3.139267678186260735e+00
-4.938270771556456218e+00,-2.310005838213347928e+00,-1.822050989044206259e+00
2.967561300948801328e+00,3.654359179130890478e+00,4.976733593351005958e+00
4.218098822602551756e+00,2.132645613847590660e+00,1.503047896420237839e+00
-5.100659329610565784e+00,-1.019592715552938289e+00,2.810123860843473320e+00
-4.875626064615891764e+00,-3.445428176154198940e+00,-2.827013821707035746e+00
3.329225868618560735e+00,4.060998704022580896e-01,-5.868644757684757352e+00
1.669501846633933306e+00,3.834220649677112291e+00,4.667920786717098203e+00
2.115759247772067919e+00,9.838420839400289220e-01,-4.595653739214089484e+00
2.477610002744201179e+00,1.981273815351861201e+00,3.471292690691805127e+00
2.226232173194275799e+00,-1.212297174006924161e+00,-4.499768129912532721e+00
-2.512534720723303749e+00,-1.350231813597360331e+00,4.669586159612719278e+00
-1.284329764908863414e+00,-4.280679604219447820e-01,5.236429565388644569e+00
3.576547534444918242e+00,4.254761210254597859e-01,-3.145571283924684103e+00
-2.971584201364521949e+00,-8.741266817773805098e-01,3.272061999655337061e+00
4.949829679816656558e+00,3.964274587644274206e+00,-7.214315700906764883e-01
-4.572347951073276739e+00,-3.297422286271764147e+00,-3.567829217001300623e+00
4.037709096751087579e+00,1.336637604248785527e+00,-1.846651067620581399e+00
-3.298840775812427184e-01,2.324064123295031425e+00,6.347023305162399431e+00
-3.468626555639089837e+00,-2.238337315786934845e+00,-2.077954215286279549e+00
-3.859533250062114451e+00,-3.231397836464641848e+00,1.221793213368425057e+00
4.646170891203886377e+00,1.572398849866455173e+00,-9.460991412214351248e-01
3.479616531268023838e+00,2.326058442053047681e+00,-4.220280596994996358e+00
1.497451744464439460e-01,1.319007634988816458e+00,6.530783256980946305e+00
-3.565779778573218373e+00,-2.483907546189221272e+00,3.711919465515058913e+00
5.155133038457455186e+00,2.681820283127848370e+00,2.088060831926142669e+00
5.151702371062105712e+00,3.342881563238680354e+00,2.423709914862889114e+00
-7.617938617696805581e-01,-2.893339233325806337e+00,-4.118042693497941720e+00
-3.123600233100032764e+00,-3.333794743082551526e-01,3.396225742359126887e+00
1.142148027280772138e-01,-1.472337410416967973e+00,-4.218776697339496451e+00
3.563652196523940496e+00,1.283422816013740642e+00,-2.630876521091184639e+00
-9.865635415433146038e-01,-3.419824842895082817e+00,-4.350086239804488386e+00
5.385863172358051898e+00,2.980906600821568109e+00,1.774051783395845572e+00
-8.634902556281162656e-02,-2.081338319935657211e+00,-6.457209086131255660e+00
2.361945427439042344e+00,1.574573774379974589e+00,4.575260248730566914e+00
4.282691172314220474e+00,3.902608173417847492e+00,-8.932961553333554905e-01
-3.649605511062885110e+00,-1.391555121268349016e+00,2.359803510175945807e+00
-9.768185770159112380e-01,1.471100744345671396e+00,4.315917738469537746e+00
-4.563630183924891170e+00,-3.584724995191215680e+00,1.972149161727975830e+00
2.036112955062212126e+00,1.911412090745149062e+00,5.459270888128389565e+00
-4.272187209228532900e+00,-2.252336039350939956e+00,-2.792362386186014511e+00
-3.805218817200815895e+00,-3.501442260860882172e+00,1.154232467298805798e+00
3.130492551986178373e+00,1.619283423285398760e+00,-3.065196274863860815e+00
-5.884530272267508799e+00,-3.018358417111080438e+00,-7.561156399447334087e-01
-1.292913779491916104e+00,1.354394171929125035e+00,4.368401558422403852e+00
-2.904318602178127318e+00,-1.754977748723890008e+00,4.074737162276818481e+00
6.907987977694713955e-01,1.110529419215173119e+00,6.126065792202251004e+00
-5.495488001757827590e+00,-1.834167489982983401e+00,3.388273342627353468e+00
6.728764089198098208e-01,-1.238359084132487631e+00,-4.310210350852757166e+00
-2.766555532924759753e+00,-2.943211381996735820e+00,-2.286793920533147784e+00
-2.869630721311664079e+00,-3.113026895375832659e+00,-1.852558594591016794e+00
3.771023902962451935e+00,4.046031495467323325e+00,8.345122774271110933e-01
-3.848590661747706587e+00,3.810687866806320434e-01,4.171001826781967736e+00
6.926125211080990107e-01,2.697791394924481612e+00,6.238663422217166854e+00
2.536796597575518231e+00,2.081461933556653321e+00,3.280603798126827897e+00
-1.175306608297798538e+00,-3.907339807970772738e-01,5.251998459715940371e+00
-3.446530389823046381e+00,-3.777623026507565207e+00,-9.266083241195370857e-01
-8.315923921952903530e-01,2.528060844213355196e+00,5.146363228240407928e+00
1.655922475918636616e+00,3.154352561802081567e+00,5.846190475153131061e+00
-3.343364980838454126e-01,-2.149800451790582656e+00,-6.480860451955295254e+00
4.368908687144767988e+00,4.220876570005257733e+00,2.745079541766367037e-01
-4.382598259546059083e+00,-8.358248431128441069e-01,2.607032202073908511e+00
-3.188678035818907297e+00,-2.145164752260127372e+00,-3.212093908725470293e+00
-4.573261982460332220e+00,-4.062501610316380685e+00,5.626924037963356717e-01
3.781759572266452096e+00,3.048802712142601568e+00,-1.922828994702407535e+00
2.266929940013612477e+00,9.333702482960685165e-01,-4.020687473559278580e+00
3.032229694568646217e+00,4.053354105436796750e+00,2.378634330071979441e+00
-4.615431290441997625e+00,-4.389866003630509717e+00,-1.537541799935651099e+00
2.250209192856499563e+00,8.096203102077544900e-01,-5.724771056873206199e+00
3.858995899220576398e+00,4.523535005959581135e+00,2.397172690836566478e+00
-2.717581143536933919e+00,-2.778546721931360430e+00,-5.609175324805550922e+00
4.854951687722479647e+00,2.160123791951660710e+00,1.117236926788823137e+00
4.063475525843044167e+00,3.230972137008418787e-01,-3.338055932614295340e+00
-4.519270909361210009e+00,-1.778403616519722841e-01,4.744211002834173740e+00
3.717481229257213915e+00,4.263646949894433824e+00,3.220099422612642481e+00
1.686049121228636594e+00,3.436436332635218083e+00,3.677384328080134601e+00
6.093043448438534293e-02,2.913809802596332155e+00,5.936436968796910740e+00
-3.086621035722685313e+00,-1.827177686117556377e+00,4.397386737886943564e+00
-5.651365188004097817e+00,-2.871426740514809062e+00,-9.181741581382103501e-01
4.859362922137010266e+00,1.946546253486928446e+00,3.127115070695270505e-01
-3.593803790550678556e+00,-3.839149930025129276e+00,-4.340096053120858777e+00
2.843222716644015602e+00,4.087212404616802353e-01,-3.541822754136851881e+00
-1.698397783306095032e+00,1.907092100346968744e+00,4.932430934576736092e+00
-5.156259192896656351e+00,-4.294867380216254915e+00,-1.392184237410123426e+00
-2.163376749877121419e-01,-2.943183938520552712e+00,-4.625216764865874630e+00
3.491722728588370295e+00,3.117574175334481890e+00,6.918070707462451452e-01
2.014203253365483892e+00,2.484100885931806779e+00,5.793136630355987471e+00
2.809242092648367439e+00,3.119853182739285469e+00,2.021579037471544549e+00
-5.583469012726206770e+00,-2.146401274372071288e+00,-3.452287441287777564e-02
6.159727498049503147e-01,-1.082703285330220311e+00,-6.614859281562067039e+00
-4.027704390028691073e+00,-2.468553922876349560e+00,-3.962762727021496900e+00
1.435095593814808890e+00,5.480705723155937514e-01,-4.709980792145121775e+00
-1.502615128842536008e+00,4.358990426996955381e-01,6.503294340219414771e+00
-8.009802310454842977e-02,2.354421939480117576e+00,4.481197096017442760e+00
-2.464573591763059568e+00,-1.337495380813116030e+00,4.170577136245356087e+00
5.670053485429210838e+00,2.171667734342217937e+00,-2.772666956235525504e+00
-2.079711644486898159e+00,1.072851356228085473e+00,4.331287843827352546e+00
-5.598830965478824417e+00,-3.540464356806129143e+00,-1.112221332263595874e+00
-4.302450443872898767e+00,-9.659596630627374433e-03,3.927418363058257533e+00
-1.022258802855347204e+00,-1.811998725999365067e+00,-4.063509134390995925e+00
-9.978475864066336243e-01,-9.272161259453476356e-01,-4.961828866466471588e+00
-6.869967862531314307e-01,-2.349245284783277654e+00,-3.987932580490138879e+00
2.337795153190907360e+00,-8.947172355525027099e-01,-6.221193252140612806e+00
5.647533852429246437e+00,1.836426265289203386e+00,-2.585712439726767009e+00
3.933865745476522235e+00,3.230636289557276442e+00,-1.733087265949156741e+00
-3.925451986209772759e+00,-2.193661562650003560e+00,-3.289338697576554171e+00
3.746034148663155428e-01,-2.561164236483152834e+00,-5.958851962721328555e+00
-3.400146279417851414e+00,-2.267523673433497144e+00,-4.662417200923947291e+00
-1.665159352055545883e+00,-2.912175743740251566e+00,-3.327922189384599605e+00
5.652876088935262722e+00,3.604604860867528959e+00,1.029691580631300063e+00
-1.161331119453648419e+00,5.550090465015666830e-01,4.263257150915642057e+00
-3.050419950394255064e+00,-7.312688156718491483e-02,6.059644542125167455e+00
2.355264318671145052e+00,-1.247424849400073033e+00,-4.493571590336427057e+00
-5.353107611970086666e+00,-1.172308446074505239e+00,2.736169418602059089e+00
1.301614410695880908e+00,1.229575471227082994e+00,4.646003072924695942e+00
3.005644598689801494e+00,9.754998184190988297e-01,-3.304856901967163196e+00
4.149087504254076464e+00,4.990753201428663188e-01,-2.846914141037920398e+00
4.427594196379435409e+00,2.153604661358658579e+00,1.952272045453569360e+00
2.181657577485134336e+00,-1.711694014016760024e+00,-5.323956645070532900e+00
-9.507521672949056368e-01,-3.467080586850674440e+00,-5.248696970547149121e+00
-4.576536331351742426e+00,-2.467992513585677283e+00,4.082503813336514575e+00
-6.415330542128204749e-01,2.555265871110412590e+00,5.674612540381606784e+00
2.691533313653753812e+00,3.969184665913330079e+00,4.511976274508037399e+00
5.342615169556418131e+00,3.549391623401191964e+00,-1.958094170781957466e+00
4.576363805397400952e+00,4.333034372357489339e+00,1.412816896348601636e+00
