5.478216484410796117e-01,-7.656693773717696549e-01,-6.231504714925711896e-01
7.230068455565504815e-01,1.217126967202298626e+00,-2.277062315257157715e-02
1.177316262078974551e+00,8.483795090026154950e-01,1.093800080177191048e-01
5.241036403582255421e-01,9.064443175929954855e-01,4.738740507881423203e-01
-7.462825756636447538e-01,-1.373138358354631938e+00,-1.548236682345435489e-01
3.307563552321338696e-01,1.024792455073112007e+00,2.848433350390134344e-01
-6.522253487203009126e-01,3.099474715966718530e-01,9.744691573618629032e-01
1.242834459818040971e+00,-4.312517461188228318e-01,-8.890008396040960381e-01
-3.283874197614679580e-01,6.658025190130140158e-01,9.540592314451669109e-01
-3.036412602211578382e-01,-1.198820792363450627e+00,-8.902591734809993662e-01
1.359732850052108422e+00,6.990723697472229770e-01,-3.453273661296215047e-01
-7.314589941796368899e-01,3.870912003489518360e-01,6.823831776346268585e-01
1.355384813897387408e+00,7.765814330685359979e-01,-4.049240102056841928e-01
4.882600268398089027e-01,1.027379767616101836e+00,1.202742855412716888e-01
-7.436777138711662127e-01,-7.401998236859476110e-01,9.322539336032586998e-02
9.802779889344297448e-01,-4.824351157339477059e-01,-1.122995329432300293e+00
-1.089508195627471254e+00,-6.825709333810191515e-01,-8.201275948408839889e-02
4.994120255934205721e-01,-6.398725494800726610e-01,-1.106892865286779104e+00
6.318166988075859525e-01,-9.439222731911965925e-01,-1.138757795783116755e+00
4.017363669216609257e-01,-8.361110619027232183e-01,-6.017600790584427539e-01
2.505141430155448101e-01,1.022121087240351223e+00,3.239733672937016862e-01
3.473610952962959408e-01,1.436321865850400448e+00,3.877822497396061219e-01
-2.561182648293501285e-01,-1.043341858979777603e+00,-8.867412214916453594e-01
-3.192379604880372090e-01,1.005725559292708127e+00,5.557638116384379101e-01
-6.398385846356690054e-01,4.469802634920423401e-01,7.299723127106578779e-01
-3.281822214019648465e-01,-1.029212841549153712e+00,-7.955699312680316604e-01
-5.781279061275976794e-01,-1.416718617062987517e+00,-3.701758711402084456e-01
-1.123681467346129281e+00,6.407293033685521055e-02,4.650093297973837969e-01
-2.796676790163467041e-01,1.318591367764362365e+00,8.215429661997152300e-01
1.066902725407300911e+00,3.575790812845496269e-01,-2.206656986818335831e-01
-8.966605612064535435e-01,-6.218577199897843411e-01,1.564275452961710888e-02
-1.263471746986992494e+00,3.287496218693798933e-01,8.578387867014131141e-01
6.918468546463567570e-01,-3.422029157692021428e-01,-7.211800277301668727e-01
8.002647779414959750e-01,-8.199586964890250018e-02,-7.956180047949387157e-01
4.203314779777218568e-01,1.111771812719887897e+00,1.508255667316894255e-01
-6.996925256351087530e-01,-8.481846297413672131e-01,8.383420165247736436e-03
-9.526112174592926696e-01,-1.408744929189306716e-01,8.781240029208431386e-01
8.872718777276414337e-02,-8.680510741412071907e-01,-9.799107330764319501e-01
1.224256462561969405e+00,7.904697760185372957e-01,-5.349128568319939658e-01
-1.067113838100122170e+00,5.641606614355214599e-01,1.009480439439169874e+00
-1.223180867871775268e+00,-4.864494934505125129e-02,4.463985661873168254e-01
8.952926807608039272e-01,2.087001197718433287e-01,-6.212447256920015093e-01
1.218745602925539018e+00,-7.461014839205964977e-02,-4.981911597987781493e-01
-1.211833056916281182e+00,1.686798315913970725e-01,5.709351871329151340e-01
-3.976909550148834405e-01,-1.189137139808360555e+00,-1.676238356285680020e-01
-1.028854527478146652e+00,-4.771071423974263537e-01,1.528171338525141643e-01
1.035450143862010952e+00,-2.746967179420381489e-01,-5.782120312880728585e-01
-3.679821077606587054e-01,9.612978559576217386e-01,1.121322040668159215e+00
-4.787441564182347009e-01,-1.265530255188120234e+00,-1.135815658466296368e-01
5.452278109789047145e-01,-6.365355754223173124e-01,-6.577480886287796480e-01
-8.838684766871217624e-01,-6.033736911614567822e-01,4.242539310114051276e-01
7.339505271200114089e-01,-8.179510811223678068e-01,-6.617495772949413269e-01
-1.137732999855746996e-01,1.004595214986073737e+00,1.047703477878001888e+00
1.279844890033623173e-01,1.028275334371403726e+00,3.900255480216084369e-01
8.055865225256206852e-01,6.321508283629517777e-01,-2.246919571648426095e-01
-8.849664413202609214e-01,8.654377917625317301e-03,5.582737723300400523e-01
7.020706266921140637e-01,-9.844775740776277040e-01,-8.102251707026743022e-01
1.138971560870656097e+00,4.527270236417595406e-01,-1.591574081302560006e-01
6.202073821552753774e-01,-3.877992887165200853e-01,-9.616753389796333096e-01
-9.893897400481290738e-01,-6.149343667138846836e-01,-3.134997862464829893e-02
5.538898428696470422e-01,-4.753888360375697619e-01,-1.005344287077199139e+00
3.814424181726401852e-01,1.401265737813441881e+00,6.459409451968269877e-01
6.983800070111877423e-01,1.025715635258673597e+00,5.842628275499869295e-01
1.237677746394938660e+00,2.642102880662440811e-01,-8.973999282545245260e-01
-2.268976535200499522e-01,1.291330478076611055e+00,6.955631128790737971e-01
-6.050357110858810561e-01,6.425982753166017414e-01,1.146087868923424846e+00
-1.222704675578909272e+00,2.103167106182967372e-01,1.025665068653743850e+00
-8.594174474315141588e-01,-8.857738780933532841e-02,6.024033237155854703e-01
-1.045080042041367507e+00,-1.090617610069863685e+00,1.967925521808220612e-01
1.289931830144692482e+00,9.600442114468220600e-01,-1.648767551815617516e-01
1.402891925888851699e+00,2.545244088713471964e-01,-4.492979178454521438e-01
-6.580816280207609781e-01,1.040427014775898718e+00,9.598507869362701284e-01
-8.890787516057141460e-01,5.439898559844772441e-01,1.134183538135154823e+00
-6.703122443315039369e-01,1.054363677578995739e+00,8.731619985826997166e-01
1.228237988205935105e+00,5.771927641681764420e-01,-9.292361872984339355e-02
-6.792201324175077548e-02,8.275621158953504475e-01,8.857309945775748705e-01
2.700513511073724948e-01,1.016639426573832772e+00,3.354668134539516289e-01
-1.331521174497840132e+00,-3.805922703312684119e-01,2.831059680559247504e-01
1.319135987816694389e+00,7.380454569147001376e-01,-1.349636591948153996e-01
-2.245993033112477777e-01,1.301830387950542622e+00,8.298767046113315615e-01
-5.060316932707420445e-01,-1.337797362909985077e+00,-6.573149073598165693e-01
-1.824211222780445230e-01,-1.018451124485868720e+00,-3.355264055945133550e-01
2.882258622221865463e-01,1.408333812491940673e+00,6.732693737164786585e-01
6.483908626951616627e-01,-7.015715240254970508e-01,-6.446805063139948722e-01
1.027279559088618122e+00,3.289569144933241623e-02,-1.024553264422904730e+00
-1.394222144808037189e+00,-2.706955036656658597e-01,6.628608164147915538e-01
-8.966676325209279597e-01,-3.104966380867302256e-01,6.146732853898173587e-01
3.914460420255342354e-01,-1.244434701966724566e+00,-7.412125966397877797e-01
-9.250576667396248620e-01,-3.389931480652879636e-01,3.549068726200978463e-01
9.639564239069501328e-01,1.230244898875643589e+00,-4.512587391578103818e-02
1.016684511652870215e+00,-6.740176110457712921e-01,-7.486668276372755448e-01
-1.376273030349258519e+00,-6.970869718840971840e-01,3.147462900106183237e-01
1.088287953963823051e+00,9.716288554426952828e-01,-3.929695504373460491e-01
-6.998002906728626460e-01,-8.953269434979337360e-01,1.188580273917719671e-01
1.310064868963925599e+00,-1.686807783796586968e-01,-6.674555096558176803e-01
-6.689246246383485639e-01,2.995094275035042330e-01,7.581993418044996602e-01
3.667681927045638446e-01,9.002246643189423247e-01,4.480498742436386239e-01
2.523313930803857130e-01,-1.092444631244255282e+00,-5.489663178387018672e-01
-3.207345503595345204e-01,-1.058084923446067638e+00,-2.749752752111642717e-01
1.190792499005710159e+00,9.688876200854933396e-01,1.241964558196389651e-01
1.182362659212485401e+00,3.003074486958795530e-01,-8.970246929899674537e-01
7.131571091505641835e-01,1.347125893037422584e+00,1.308975986459829932e-01
-4.302863694380403836e-01,1.211857913418280086e+00,8.094671558080884788e-01
7.537127192315216107e-01,-2.488938768782693600e-01,-7.671998863623752385e-01
4.406569904154329920e-01,-7.977868931649515494e-01,-1.144702326076521226e+00
1.381345316762035758e+00,7.063702577862123189e-01,-3.269606839800429099e-01
-1.011800348805165450e+00,-7.565451932603067808e-01,-1.668217000645351999e-01
2.930539036394360086e-01,9.800463752555020891e-01,3.614253473360853897e-01
-1.142901672564274745e-01,-9.865528770495611832e-01,-4.588869206913757659e-01
-9.312963384367606290e-01,8.226322899940866629e-01,8.123346544532463742e-01
8.068295807563554689e-01,8.982911176776117168e-01,-2.714142750764865775e-01
-7.890690857441382544e-01,-9.594157873574238327e-01,2.247405872243045666e-01
5.101465473786735982e-01,-6.493549798415956253e-01,-1.112565518442433676e+00
2.213673373069615369e-01,-9.417085617114123730e-01,-1.083518186228716207e+00
1.301659276394762754e+00,-1.738984019707379147e-01,-8.532795602030407434e-01
-1.325330587785776646e-03,9.676300188912557720e-01,9.974340084212033331e-01
1.403911754674687096e+00,5.164754769169018767e-01,-3.469242112302738379e-01
-1.472497822696583747e-01,-9.115699703370127027e-01,-5.115295930198551222e-01
1.183301931966057374e+00,1.053406392287218774e+00,-2.590973922782863550e-02
4.301234274977855376e-01,-1.205376262985453417e+00,-6.999819904369763979e-01
3.590284825340785413e-01,-7.038323044500582881e-01,-7.021749664161609505e-01
-1.043270264117961199e+00,-4.283765202998071620e-01,7.658322105725009488e-01
-1.058375857925907715e+00,6.583174077761593246e-01,8.267688138955474608e-01
-1.003739989391939369e-01,-1.044930418115568305e+00,-9.297261731477720614e-01
-8.123111817648562827e-01,9.703346309983543749e-01,8.720151407163975188e-01
-7.524489257611884085e-02,-8.546589747666654135e-01,-7.864174333241856774e-01
1.374283765754333642e+00,5.308077255489110913e-01,-5.644071751537238502e-01
-6.206842514835761992e-01,-8.570164637608213010e-01,-2.177129760459418639e-01
-1.297509691035576562e-01,7.841639045249703122e-01,6.695470557745882845e-01
-1.816580849853181856e-01,1.309906773571064553e+00,8.464859044761124940e-01
8.833712121915350268e-01,1.202456086693088233e+00,4.273895673070615686e-01
1.136148851176031593e+00,8.340902519346420352e-01,-4.948614904351247845e-01
-8.599578972676998889e-01,-1.327143462414595021e+00,-1.694260941187159808e-01
6.464572305395936969e-01,9.343642962228257964e-01,4.753931521972226681e-01
-2.138643791724568477e-01,-9.038362887488234909e-01,-7.223015575007272204e-01
-1.949392732982422050e-01,-1.101530415742936864e+00,-3.044512270086612848e-01
-4.570054506911380154e-01,1.199773936837420729e+00,8.892360717788134750e-01
-4.899579548275798668e-01,-1.418373344191625751e+00,-4.976042254949472610e-01
2.734362715638374297e-01,-1.264798201591308180e+00,-8.077611332632756991e-01
-3.381917642242635719e-02,1.363773257439355735e+00,7.775723608238310769e-01
-7.720155015928259826e-03,-8.502821148889351255e-01,-6.444042236620367570e-01
3.604559243591488604e-01,1.409741820622909536e+00,3.430891424381349863e-01
-8.835439444007668897e-01,-8.153354666028926889e-01,-2.658698143246638890e-01
9.030229808876167885e-01,9.375614030166008472e-01,-3.534278545422863682e-01
-3.425865161118222812e-01,6.862435312044798952e-01,1.028732534374199314e+00
9.905384841231267279e-01,-3.232727531211778693e-01,-5.459828124951633388e-01
-1.444735312005151373e+00,-3.236244738016157974e-01,5.314676480314149964e-01
-9.031613163024919677e-01,-1.942973290360821281e-01,6.976972896143137648e-01
-1.152150223540281848e+00,-2.768922651021384351e-01,9.106674315125278252e-01
5.523067121610035768e-01,1.365407914668952172e+00,5.779359571768946102e-01
2.584246633746233868e-01,-1.035869340051750909e+00,-5.594146533233931295e-01
3.216406483205959121e-01,-8.414690086190000917e-01,-1.092237649993118120e+00
9.221037984101027041e-01,7.443456444542027040e-01,1.783169786946700308e-01
-8.454735560060943067e-01,5.547304863560734711e-01,6.224470498431193821e-01
2.231678332586692626e-01,-1.142931726820472393e+00,-1.076068115714613027e+00
-9.526740528519801465e-01,-7.001331381921339636e-01,5.201869877561665634e-01
7.806332435004863513e-01,1.232287207602901447e+00,-6.441452449883368347e-02
1.276188731321955094e+00,-1.353276749223429609e-01,-5.651212199432154026e-01
2.457517115017503976e-03,-1.008847612012217621e+00,-9.840877187756186251e-01
1.235440940950107924e+00,9.478256121558801262e-01,-2.530501217476788800e-01
-6.833856159673671327e-01,3.533232873976644428e-01,9.809999067433861075e-01
1.386503635362068776e+00,2.575810555426918391e-01,-7.472993102042362334e-01
1.237154040853982506e+00,-3.219857222153876125e-02,-4.725834313050655822e-01
1.225468196409725152e+00,5.462895740410379508e-01,-7.025006414291556922e-01
3.684123486030279615e-01,-6.922441356218013153e-01,-7.093138781435039952e-01
1.131212820630764559e+00,-4.507179115439991501e-01,-1.053160545858215391e+00
-1.967829507475046466e-02,1.375808062953341793e+00,5.696554909361505326e-01
-4.652747759028859620e-01,1.034746527076956024e+00,6.357688258538093384e-01
1.116229963298619898e+00,-1.690249178750277137e-01,-5.234667604095853966e-01
4.399657166559112764e-01,-1.086422007568972781e+00,-1.085548786246681496e+00
1.074999037569896787e+00,1.150834166439551387e+00,1.683038134904658867e-01
-9.932301841925494923e-01,7.007917664995728657e-01,1.049349150753096538e+00
-5.143106758699323988e-01,6.330416287993413382e-01,6.778799392862505657e-01
-3.193110927539093841e-02,9.158001480358392010e-01,9.338009497523090952e-01
9.688421209353871300e-01,-7.805742553157289931e-01,-9.794561854353164287e-01
9.221261826372790793e-01,3.490736776736108604e-01,-6.855743364013439090e-01
1.138497274283564842e+00,3.757699577190876106e-01,-8.413738617973862688e-01
-1.033213723159315256e+00,-4.559887411621931230e-01,7.470844753244892944e-01
2.768860975305640348e-01,-7.506135637590246601e-01,-6.730243424649762218e-01
-1.220193531879192106e+00,-9.458411543157488888e-01,-6.321355810089697436e-02
1.282550405698093643e+00,6.832623175178901276e-01,-6.083931647406988497e-02
3.003052153149194381e-01,1.241490103257962385e+00,2.518080683466626390e-01
1.023404643595299923e+00,-5.304018963978042178e-01,-6.454271762858194705e-01
-8.830024555247748541e-01,1.703538902234268473e-02,6.171582677277266393e-01
1.027398422520567234e+00,-5.898556924082053454e-01,-6.742591999020989268e-01
-8.742275144534414344e-02,7.938343575288103748e-01,8.891280729238350000e-01
1.360353651407784970e+00,1.497150909488101922e-01,-4.936592157219711341e-01
8.099236384906627340e-01,-9.167195784973254380e-01,-1.000475296133986447e+00
1.213444886981387860e+00,-3.959595900925512169e-01,-9.895291166272083272e-01
-7.954207295134558819e-01,9.444912046047109211e-01,1.005167107500338775e+00
5.291535342974958978e-01,-1.032933504151744231e+00,-6.460078252956800160e-01
1.237428257652110286e+00,-3.693702788527140901e-02,-9.870236095638010854e-01
-7.215911574082998214e-01,2.540091741896043365e-01,9.042598603750943154e-01
-1.898491638617231803e-01,-1.106111821463177103e+00,-9.365720011643025034e-01
1.973507878398667592e-01,-8.685574218775300448e-01,-1.062152862405793430e+00
-3.828197231026779779e-01,6.060532878018526359e-01,7.918381077748158914e-01
-1.275048238079867780e+00,-4.885345635421565191e-01,1.544216659467785024e-01
-1.179438233338923725e+00,-6.474177516156638390e-01,3.608325995680136677e-02
7.432350289074504124e-01,1.383854612879029666e+00,2.670758431433847280e-01
-6.540076719964822705e-03,8.624992811968819062e-01,6.375092463269088627e-01
1.407891175177330867e+00,4.779746431630919612e-01,-3.446184015986750726e-01
3.850903248743932639e-01,-6.419983585983158880e-01,-7.792879239687462434e-01
-9.833386325909041492e-01,-5.556433862702248039e-01,9.004863030744898744e-02
2.559026035460930659e-01,-8.394200571940915179e-01,-1.099799950630725665e+00
-7.676764875597765769e-01,1.464052342612400803e-01,8.026086984958914483e-01
8.058928879073820051e-01,6.671164521064349984e-01,-1.316803830881999315e-01
-2.371689011020438470e-02,8.303073018166887698e-01,8.817398391081229247e-01
3.214751500248371197e-01,9.050585549325541601e-01,6.801874475896105832e-01
-1.739359200410731804e-02,8.364801345495133100e-01,8.366960665787057660e-01
-3.252665927796799528e-01,6.727329528613289478e-01,9.445542044512740265e-01
1.280537265567339933e+00,-2.859583951207440577e-01,-8.074841235448213528e-01
8.746169430779541232e-01,-1.778684017346577328e-01,-5.971204746108954575e-01
8.909608006836768901e-01,4.583699885658683998e-02,-8.505821191574842732e-01
-1.281886167293038614e+00,-8.469976253796064336e-01,5.809369949952267881e-02
1.344122496181806348e+00,6.385579411368059732e-01,-1.503214351182013131e-01
-1.207854355950253478e+00,4.361479903974144756e-01,8.632299935833355198e-01
1.272693317051799777e+00,4.506135716720312545e-01,-1.760135086243755365e-01
-3.556259674451190400e-01,6.370060796806176207e-01,9.275104451132020200e-01
1.253186231320080335e+00,-2.943955915419245728e-01,-9.779200969440986491e-01
-3.991224974588838403e-01,-9.470130360756069399e-01,-5.843227605283415338e-01
4.728891300328069147e-01,1.223332791955265675e+00,1.049410615308717376e-01
9.781664109704032439e-01,5.011948617216215318e-01,-1.266002978748410890e-01
-1.664713254469846748e-01,1.179695849482649717e+00,1.030450548564191271e+00
1.326335395724420052e-01,-9.679559186557077366e-01,-1.073340414592369951e+00
1.233432821039374128e-01,1.084614898202762578e+00,3.633355713407800947e-01
-2.887166885665536364e-01,-9.979378212888710964e-01,-8.310415189968775040e-01
5.001407959918108270e-01,-6.395138130887736416e-01,-1.094775218511125914e+00
-6.294677415367425088e-02,1.137486078920578514e+00,1.028632549874453961e+00
7.999823211992662664e-01,-9.130963337047435235e-01,-1.044731417724049427e+00
8.270836514993876731e-01,1.336922901580695822e+00,2.746222844337660729e-01
8.530332181044054662e-01,1.163206796019227995e-01,-7.639037108488890837e-01
1.127692936006771562e+00,6.682638252235534315e-01,4.780708265166909443e-02
-1.342501869856200569e+00,7.797096058736142921e-02,6.037842317763371103e-01
5.260250257064769119e-01,-5.078918446562620259e-01,-8.094053368705466101e-01
4.332243188823420299e-01,-1.193880108164292020e+00,-9.081101081514981743e-01
1.308307897005906106e+00,9.002019583759800214e-02,-8.970209932611531434e-01
-1.080911856183117692e+00,2.842083122522738869e-01,5.656391619105848312e-01
-8.020607639459051974e-01,-1.061001875844264974e+00,-4.924098836099319865e-01
1.027101200066644848e+00,-2.573686216093203916e-01,-5.490117686231024141e-01
-6.099949658669966412e-01,8.622581858270270683e-01,1.150972481385525326e+00
-7.869555191770020164e-01,-6.874538986610291280e-01,9.759096311670630020e-02
-2.594416208796043732e-01,-1.132763101155218166e+00,-8.709452794769165784e-01
3.434443355374539736e-02,-1.265582530063885658e+00,-9.592997865749149922e-01
1.265527754747793221e+00,-5.061853926510184037e-02,-9.704213412476421219e-01
-8.708610347364474924e-01,-6.326588266607381383e-01,1.084187499476088612e-01
-8.710806086042170993e-01,-5.598600159988023073e-01,3.635336875131986445e-01
5.034937055241489601e-01,9.208367085645714489e-01,2.610407568266575606e-01
-1.130302587297241784e-01,-1.232460987129010421e+00,-3.537591723382577658e-01
-7.850430394174652271e-01,-1.276486016891115849e+00,-4.424411594999212993e-01
1.201500691999674242e+00,2.280106291080966074e-01,-3.156833494826712383e-01
5.419907853085015326e-01,-1.150987131080779768e+00,-9.127639567731483661e-01
-1.290153905850914606e+00,-9.266721040705135914e-01,2.480591175572517126e-01
-8.357415422810332561e-01,-6.749228016465287361e-01,7.964593616873172355e-02
-2.149604676731389219e-01,7.517783414546964638e-01,9.324244093181427440e-01
-4.103287056944889821e-01,-1.087436433887357889e+00,-1.228988067438568643e-01
1.340466474790175777e+00,7.178946160331716175e-01,-4.946521215262100202e-01
4.016665002321010425e-01,-6.205306026245083206e-01,-7.819803889702028332e-01
4.173283046887654724e-02,8.476655400808718044e-01,7.833513741437910793e-01
2.378868168106170189e-01,1.132055590606779072e+00,3.078786274842073012e-01
-6.468635595411885708e-01,-1.387680213798922590e+00,-3.219470947924319981e-01
-1.421922623780562667e+00,-2.227354241497430665e-01,5.163106454823890301e-01
5.714167292381028274e-01,-5.992637144394969972e-01,-6.931252199017883253e-01
-5.369184689752525275e-01,-1.025511737473916885e+00,-4.645912411075094756e-02
1.030439254810366023e+00,1.096728317734817715e+00,-2.337321033320640395e-01
-1.310148587591303038e+00,-4.165686484737459172e-01,2.816784286148770744e-01
-3.508276553279449650e-01,-1.437951167069169811e+00,-4.209825580748078888e-01
-1.144725195023399200e+00,-4.737546695985799805e-01,1.693952736966297112e-01
1.467827425192863022e-01,-1.361595102067800100e+00,-8.471021038956594307e-01
-9.224154669156826580e-01,3.270600078770035668e-01,5.847929101811065733e-01
8.970666115495850024e-01,1.286935025455267168e+00,3.405537490902472153e-01
1.087873736230828170e+00,1.131115239321817123e+00,1.456994852150340636e-01
-1.237410275474904453e-01,-1.273200515273033240e+00,-3.706613837511294474e-01
1.186768238900426153e+00,6.139011187348458742e-01,-6.795881494319797600e-01
8.186322838440145411e-01,-5.721989382088009390e-02,-7.886498865355888732e-01
-6.763273166863913444e-01,4.996617666438353256e-01,6.492681135203089982e-01
-6.998972946648784887e-01,-7.538345808344221188e-01,-5.951461350194344607e-02
7.740874966041598748e-01,7.551091622493573130e-01,-1.471824586083395336e-01
-8.614255340840987207e-01,-5.164226894508826549e-01,3.044318643065628271e-01
1.430817236185976338e+00,3.705693239741702505e-01,-5.160847713844038953e-01
1.320913485451227887e+00,1.531401843805704488e-01,-4.368715960330903370e-01
-4.230583098600720904e-01,1.039618339747383491e+00,1.104221967611322519e+00
8.233896083586340897e-02,-8.006865753194329915e-01,-7.588869314481692108e-01
-8.214709597050086076e-01,-6.785034066843073086e-01,-3.596974112824851549e-02
-1.370592365534623713e+00,-6.098969067811108591e-01,5.496175745106745003e-01
6.952591963613693471e-01,1.304282185210250189e+00,5.357881353611309017e-01
3.612401107904636421e-01,-1.043824845306418503e+00,-1.108656337605892439e+00
-4.290218902878343843e-01,-1.043837278587684603e+00,-7.767317525271257850e-01
-9.120714368313935783e-01,3.935095556155983054e-01,6.034170380101577802e-01
1.256638485130080474e+00,2.181514787291854163e-01,-8.932235531618060165e-01
-3.571236727078475615e-01,7.094759764039744177e-01,1.041609187542303028e+00
6.985119461377085059e-01,-6.404763480823212340e-01,-1.164868543896209863e+00
-1.073698148151498888e+00,3.039382492819305281e-01,1.086658222805051421e+00
-2.228697671919467604e-02,9.794921486525555165e-01,4.982195031499553894e-01
7.822909849389617087e-03,-1.375956738448391947e+00,-7.971880780370107500e-01
3.706918706523914531e-01,9.414880880365819049e-01,3.055581560657926188e-01
-7.606430593070284685e-01,-7.381910956638454424e-01,-2.015607757641927136e-02
-1.128392422191586864e+00,-5.475763797005348543e-01,5.581868761260148221e-02
-8.689398922542687087e-01,-5.341278479609713470e-01,4.280341101669582482e-01
3.077373553763963487e-01,1.205494502846002458e+00,2.266804552972881692e-01
-7.855363737328679985e-01,7.999224594197018590e-01,7.015065012142404077e-01
3.752370789289300457e-01,1.065572089326285443e+00,1.897727038313781478e-01
9.310817867870524456e-01,3.569318749492406129e-01,-3.859230686452323478e-01
7.847159195953472555e-01,7.851513963481192571e-01,-2.034514641921618683e-01
5.698001918979131997e-01,1.400501678907520642e+00,3.252002884939778626e-01
-3.221928736905022776e-04,-1.178624859393505364e+00,-4.392102653937268730e-01
-1.194218222489401127e+00,-5.741268638283634207e-01,6.873126473598554220e-01
1.383704596513987584e+00,5.083793390596934580e-01,-6.367003005670235360e-01
-1.983943700099594087e-01,-9.027928881309658093e-01,-6.734214856619873402e-01
9.266830010919399063e-01,5.070461195156445999e-01,-2.503415427266567628e-01
-4.834821564630042978e-02,1.092660650333723282e+00,4.367038806976235032e-01
4.114263330107586492e-01,-9.296279565395183520e-01,-1.140954009647648926e+00
-1.255677515865277205e-01,-9.569098287613919673e-01,-4.534271858871757321e-01
-7.968343948200468096e-01,3.400463236070351836e-01,6.692777787420126634e-01
8.546673730183497186e-01,-8.923942131558419977e-01,-8.676228662897954580e-01
-1.198773600402539330e+00,-9.028285351754063992e-01,4.178482077256240323e-01
-9.997380616465529890e-01,-5.706849563524044600e-01,3.480455511237275784e-02
5.529029350639745877e-01,1.019026234432781841e+00,6.890835032830201490e-01
-2.283333042362779286e-01,7.244099400990742232e-01,9.370032741203949689e-01
5.795026869357521315e-01,1.319245243095729325e+00,1.188861306715423144e-01
-9.204239224216432813e-01,6.915279970257466324e-01,6.898426709128449019e-01
-9.961775124935786652e-01,-5.035220932714085107e-01,1.208519313229668712e-01
-6.896934051428411649e-01,-1.159700711288212283e+00,-5.844552146656214475e-01
-4.103130152516727414e-01,1.208711577878847310e+00,7.485864287079626589e-01
8.955226774864064598e-01,9.051685664251124530e-01,-3.556382677942023784e-01
-8.357922427009516486e-01,-2.813595036959369231e-02,8.190485081017564450e-01
-8.855158179039297472e-01,-3.345110764209902610e-01,5.550788832126996031e-01
-1.364764288979670059e+00,-5.642854645666953717e-01,5.440874591752067335e-01
-8.242353151956868240e-01,-1.223905650189340832e+00,6.077087643721740262e-02
-9.146740517056184405e-01,-3.486881038907801988e-02,9.313074089097229669e-01
2.755632279135553087e-01,1.375646908726553486e+00,3.901984133247962117e-01
1.414555717951468741e-02,1.001999048059675435e+00,4.611312791997047578e-01
-7.991522012039631306e-01,1.315144044013495384e-01,7.598374288445435276e-01
-2.165367274195895420e-01,-1.050580690979233012e+00,-9.039506551957693370e-01
-3.945044619961416421e-01,7.915271604031868247e-01,6.555218903867769953e-01
-7.253430470461535995e-02,8.191666534682362499e-01,6.726192600576023084e-01
-1.269427671794648216e+00,2.944270693260712668e-01,8.044174773329685335e-01
-3.939485484048133590e-01,-1.402898026849847879e+00,-3.917110308905510374e-01
5.880265674920059915e-01,8.871424080905438991e-01,1.942809770615843146e-01
-1.308401070781912923e+00,1.143374159530456124e-01,6.263600813997518557e-01
-2.046063388131851846e-01,1.056862121151290079e+00,5.370216754480223731e-01
-1.276784692949171296e+00,-4.217785399607361652e-01,2.365136757428989989e-01
1.210861116358749046e+00,8.434021233954750452e-01,3.674429419633284261e-02
1.248696243301629316e+00,-3.541343132281642991e-01,-7.337340459104114698e-01
-8.192306061470481238e-01,-7.332357075975587390e-01,3.044819381529950131e-01
1.169708262857320324e+00,3.462504433169220908e-02,-9.833188239760304317e-01
7.297815340009281004e-02,-8.617315069659187143e-01,-6.178378117282055104e-01
8.515971091107368274e-01,7.509887397750907301e-01,1.842281332314062714e-01
6.076608899126784841e-02,1.130937575674028084e+00,4.053564631251464490e-01
1.476132080774977540e-01,9.392517002041137486e-01,5.030324558884377018e-01
-5.153289130589654432e-01,-1.117022988733713085e+00,-4.654188540560281334e-02
7.927971658770642804e-01,-3.599954257709150340e-01,-1.115755928989756285e+00
-5.087240120367338136e-02,1.174746738150082015e+00,1.000144552177285373e+00
-3.416783874730179860e-01,6.820622754648283381e-01,1.014046767878927557e+00
-1.135994290645198301e+00,-4.815048025849253399e-01,8.522634993599681463e-02
2.093123895036424487e-01,1.225481063988242969e+00,9.221068514654695569e-01
1.133530770118333919e+00,-3.015120347758030173e-01,-5.869648544415400071e-01
8.983827527397195700e-01,5.023400091448964044e-01,-1.760271791400440933e-01
1.331147960425343779e+00,3.672007593565824179e-01,-7.667280594048994091e-01
1.256286494537881770e+00,9.672943470541883748e-01,-1.969018133807690363e-01
-8.966423161949041987e-01,-6.712916958390630073e-01,-1.528839730915027180e-02
-6.848162757054199190e-01,-8.623351761954519690e-01,-3.769673229361115707e-01
-9.099574034716965132e-01,2.962026582340447911e-01,1.119634748957038184e+00
-6.652822685625697785e-02,-1.284811149983060785e+00,-9.565520025217250089e-01
1.076880785488649961e+00,-4.888722097258395571e-01,-6.617907218762358879e-01
4.847873200309129049e-01,-5.772630594259168246e-01,-1.067531376641827512e+00
-1.245278660328886788e-01,-9.219481078089607484e-01,-8.444772560959508123e-01
7.351818641460790005e-01,7.935997098312832509e-01,4.574636155005909477e-02
-5.503850551750343323e-01,8.679554132810868294e-01,1.147736933813312765e+00
6.684412069414238378e-01,1.044722246609010474e+00,-8.678743899919644234e-02
-1.369845909335605016e+00,-5.366259408060025660e-01,2.849807184241237579e-01
-7.613165938605478411e-01,2.322262373712482564e-01,7.495582790276540397e-01
-5.008999392587627497e-01,8.221129278685120889e-01,1.141830149817738116e+00
8.587572381049243253e-01,-3.120276924484656211e-01,-1.120042969565538948e+00
7.503620458240226609e-01,-1.018349443051693282e+00,-9.065967654695933353e-01
1.160436942066237709e+00,-2.698682661749174927e-01,-5.849917029143941738e-01
-7.648943028776877817e-01,2.354056070860559846e-01,1.030575905301997830e+00
6.847550525778134389e-01,9.662380187352466177e-01,-1.011102257843779217e-01
7.349892099353956265e-01,-2.050688385691035176e-01,-8.189776604851748409e-01
1.118515097148043314e+00,4.252649098960174512e-01,-1.588443652439226750e-01
-8.408908434051765024e-01,5.187628206456937896e-01,1.159296654871737386e+00
-1.243762801140424923e+00,-4.576014362800190916e-01,1.613647775642728932e-01
-1.135382735405827681e+00,-9.077406344161649265e-01,4.707204844001934285e-01
1.269781145206159811e+00,-3.211180201343621921e-01,-8.396436592379846742e-01
5.004504569008917381e-01,9.976027773480781180e-01,1.143294344588528244e-01
2.062903255750970360e-02,1.332529202303567084e+00,4.919074474761193083e-01
-1.174584832373104737e+00,-1.089126102789655492e+00,9.692631974505108716e-02
-6.998522565876457158e-01,4.248764505913598666e-01,1.099096117172314369e+00
-9.900317836483506495e-01,4.565123829335225314e-01,1.143911426969137723e+00
7.855588900617734016e-02,-8.814921567598071883e-01,-6.106374257560670538e-01
9.268063300639581836e-01,2.825482467601628800e-01,-7.666282445660220768e-01
-1.116294527358879352e+00,-2.220685403220639120e-01,9.389520666915017744e-01
-9.791330443573683651e-01,-7.182765997986851891e-01,-1.569921261765869491e-01
8.248329692490506959e-01,-8.521921739021625086e-01,-1.082578765504685014e+00
1.483366844675418350e-01,9.767626518687215764e-01,4.044875267082501669e-01
1.287651190073199725e+00,7.464148505745078488e-01,-5.135976032279937487e-01
1.400854215002986347e+00,5.169202148101326166e-01,-3.151841787583661847e-01
-1.274938508174270124e+00,-6.426795741901811798e-01,6.893173054546800071e-02
-2.398326874030652089e-01,-9.550536545577239522e-01,-7.863375238839499515e-01
1.395493923520993551e+00,4.354182714292858525e-01,-3.932887820437280246e-01
-1.007297744430353248e+00,4.363848840907396665e-01,1.128413163443499290e+00
9.655514791803063712e-01,-4.147078127845443274e-01,-1.158069338877750321e+00
-8.622489026991775329e-01,8.879115744114551845e-02,6.402976008947166564e-01
6.875051322188083791e-01,8.045011818398584147e-01,1.611667838300921973e-01
1.121572277464943257e+00,1.333842226678714771e-01,-9.585548611064379498e-01
-4.094667408881959569e-01,-8.985710173094064723e-01,-4.390198551267456284e-01
2.679920404807356604e-01,-1.130520385010045592e+00,-5.139297082143807760e-01
-3.899091257342067462e-02,-8.416648093562268951e-01,-7.895583983052664179e-01
6.721745792961946186e-01,-4.693033473306766901e-01,-6.499364835522651873e-01
-1.228564445852201592e+00,3.302521714458928614e-01,7.010950062386567261e-01
7.898714090224063789e-01,1.294797294342361127e+00,3.968506173673690407e-01
-7.506587558497761492e-01,-1.196070449079674081e+00,1.028353891520762814e-01
9.264646832641673102e-01,1.958307894926893458e-02,-9.545557432006536169e-01
-9.855096302149722876e-01,5.724796775513838476e-01,1.129463582519266929e+00
6.014823330818902525e-01,8.456187554533255435e-01,2.087402489613527645e-01
8.087899608423665399e-01,8.081494969314421128e-01,-2.832578374760686968e-01
-1.226973999127496606e+00,-2.408927188725152047e-01,2.912274233909595833e-01
-5.321467269101766151e-01,-1.357055493522753453e+00,-1.883569366749056895e-01
1.024030178980566280e-01,1.357559683314855103e+00,4.815137455231579544e-01
-7.852086448353248205e-01,-7.481238879367522188e-01,1.910665644881406611e-01
1.403321135594561397e+00,5.503715739870562729e-01,-5.238245309705552577e-01
-5.018354783441819622e-01,-1.148372116221855643e+00,-7.481623103248347117e-01
1.387564830829637996e+00,7.278063062269347905e-02,-6.539906054613664477e-01
9.664283141659598675e-01,8.949156541375221652e-01,2.859978129427146465e-01
-4.130352210857465289e-01,-1.426846455132096514e+00,-4.203036410005032142e-01
-1.100820712976900984e+00,-7.489860578758830156e-01,5.515535802069690963e-01
6.807885586424534674e-01,1.316412474018417322e+00,7.890882762334067158e-02
-1.206458881700363417e+00,1.721883403227627840e-01,5.277115234547726796e-01
7.454374752938836002e-01,7.931127968705535825e-01,-2.079757266058649134e-01
1.107571841521460598e+00,5.303135920203100317e-01,-7.535513597777375727e-01
-1.127549171128636951e+00,-4.395981353739268349e-01,1.103435788952907143e-01
-6.412081858902147768e-01,-8.409949253724884333e-01,-2.382587820613544516e-01
7.575484935018660104e-02,-8.139478484726025975e-01,-7.377847161692903111e-01
-1.322010971684254521e+00,9.766805741806233732e-02,6.176076305285680412e-01
1.116510106665335122e+00,-1.408372446569954306e-01,-1.062472920771939000e+00
1.596707313911966686e-01,-1.258464392077507821e+00,-9.875786207254602100e-01
8.340825293716565003e-01,-8.784718435838420048e-01,-1.008236064454561376e+00
3.237179448035221729e-01,9.149217903513772177e-01,6.581533121480760418e-01
-1.359256091210788941e+00,-5.731658229746967592e-01,2.615468339180785917e-01
1.049607972513140863e+00,4.424864423109638178e-02,-4.472269123959091153e-01
-8.199271346248573344e-01,4.787375879663011841e-02,9.001470319121855912e-01
-3.079819563337620192e-01,-9.980692869579221860e-01,-2.808344546590515467e-01
7.709177944811340666e-01,9.080572708173327845e-01,4.402631147708260251e-01
-4.726745818557318568e-01,-1.046633990186953911e+00,-1.209402921877167497e-01
-9.381611918734389377e-01,4.051702925807399436e-01,1.146672995827793473e+00
-3.109622157817976684e-01,6.801650869445808878e-01,9.118814763924518729e-01
-8.915406337598851261e-01,-1.295167861978612889e+00,-6.389534499470871098e-02
9.211961106044859182e-01,-4.488512616891051632e-01,-6.247072583469875928e-01
1.093029113079313219e-01,1.354183859105038357e+00,4.896797607293043586e-01
5.794040773303308356e-01,1.329687351816026375e+00,1.167706783272650095e-01
-1.146604459786516816e+00,5.575198832681462768e-01,8.800522708915657910e-01
1.091001066338605163e+00,-6.378886646259400717e-01,-9.702464494279936513e-01
-4.022968846068217252e-01,-1.309076221297442499e+00,-7.467176392737506774e-01
1.080364355746684879e+00,7.593461353465741359e-01,1.672815060670622689e-01
-9.776952002794870866e-01,-6.830414253539787151e-01,-9.212419320010672985e-02
-1.874596386974747009e-01,-1.375771525324888334e+00,-7.992603670501147173e-01
-1.247009190376606069e+00,3.822966621133613296e-01,8.295561972355720570e-01
-9.949866029623114505e-01,2.441909182880942220e-01,5.496721640079791360e-01
2.275483068747016502e-01,1.037365037822512770e+00,8.767425471699454853e-01
4.740600049121258819e-02,9.564580889440370548e-01,5.012715380160401857e-01
6.517779758319007799e-01,1.385178900761128817e+00,2.312607994131304634e-01
-1.029866724038558834e+00,-5.366014664804945600e-01,7.072753089329141263e-01
7.816013022302151780e-01,6.994833197183886186e-01,-1.424358678165591197e-01
8.776598871676535296e-01,8.846068319406411584e-01,3.292275305506261462e-01
-4.881629217946527044e-01,5.750961594555649148e-01,1.033599311335501536e+00
-5.865391238206404401e-01,-8.787628787211531067e-01,-4.005135494518725636e-01
-4.713264064684219434e-01,-9.528937877491205910e-01,-1.554216928074810544e-01
2.949533039260762712e-01,1.018937979052821241e+00,3.338107790415162368e-01
2.751904280804671199e-01,-1.120129087971654780e+00,-1.074876775889816782e+00
6.607974638865187211e-01,-3.778033493091028650e-01,-7.738739410386618056e-01
-3.547077001741414382e-01,-1.051100940460399258e+00,-7.990143084980375621e-01
1.427572556948326410e+00,1.937880011807969760e-01,-5.608355448240222030e-01
8.826985281252145432e-01,-4.902434872407637756e-01,-6.480953016584399817e-01
-5.166818171171303486e-01,-1.376316415300588236e+00,-6.158328707308179384e-01
-2.681766263989282528e-01,7.693152978869042258e-01,9.854203576496594064e-01
1.732863244301030559e-01,-1.266545871195420059e+00,-9.110786473551159004e-01
-1.215650924513749453e+00,-2.778010307900116715e-01,8.840638163763484547e-01
1.216989748589078602e+00,1.018971933485649739e+00,-1.804911447833889848e-01
-2.337398430361771196e-01,7.102622032605725444e-01,8.221767777558860457e-01
3.781337446457087026e-01,9.843925074093918814e-01,7.411192353312326953e-01
9.918948110458950529e-01,-5.672527561996579953e-02,-1.038416560067157990e+00
5.056419477660920592e-01,-5.472895476587714692e-01,-8.731288220473502060e-01
-7.273626202497502913e-01,-7.835792104899288457e-01,2.460702513531442745e-02
-1.509374559326274838e-02,-8.505428526223504093e-01,-6.770890962742449615e-01
-9.104232609965567935e-01,2.659237026239296697e-01,5.641896365285724579e-01
-4.303313609998746792e-01,9.001177890993594666e-01,6.192819120155250712e-01
9.678305393491002384e-01,1.146723253892166339e+00,3.158854710156687173e-01
3.259994756692252693e-02,-1.185332455213900182e+00,-4.439121933834420664e-01
-8.744247230754174094e-01,-7.804604754755803953e-01,4.097955842367245749e-01
-8.581650566413911996e-01,4.103206787414538370e-01,1.135166296424886534e+00
-4.892598123628666973e-01,-1.107070273744841904e+00,-6.797089058140586004e-02
1.450525818498547448e+00,3.356807047785370646e-01,-5.327502346051330440e-01
-4.705941684041611839e-01,1.051732289808785525e+00,1.069367751800948341e+00
2.141364648340082499e-01,-1.223522810653196569e+00,-5.873477656194178165e-01
-9.456722985172654194e-01,5.136861676682664690e-01,6.293800219682834651e-01
-3.013704735222026421e-01,-9.183740016979645704e-01,-5.357267928888670427e-01
1.028310680042718195e+00,1.054519869893078665e+00,-3.007540905541749021e-01
1.113383609208583813e+00,6.367507458143344401e-01,-6.985637384136568206e-01
-1.290735639485208752e+00,-2.117730684315312917e-01,3.720045446169677472e-01
1.017681008681308868e-01,8.974174963815211292e-01,5.249889664191856875e-01
-9.261313472334784525e-01,-4.672871917989226964e-01,6.293411745255101941e-01
