7.274316684293752333e-01,-1.313722075315530757e+00,-4.130154658672739565e+00
-5.256827633175617187e+00,-1.011930034664012323e+00,1.309673940258777147e+00
-5.616048103457432106e+00,5.061979076603297795e-02,-7.382486889430066590e-01
-4.069142751909599731e+00,1.072539190358603012e+00,1.518240577096114707e+00
5.806206589101602589e+00,4.974951954526259934e-01,-1.846704267253214793e+00
-3.761400274425831913e+00,1.638241573851417221e-01,2.150347586306499803e+00
6.350683424344493178e-01,3.043511433684348955e+00,3.552799628073155080e+00
-2.016132092708632140e+00,-2.348252653386189603e+00,-5.349471774242638311e+00
-1.214093307612878814e+00,2.744473798427500721e+00,3.624307345042720119e+00
4.385853282814503373e+00,-2.235459058029741986e+00,-3.308728827410094109e+00
-5.555563108199655709e+00,-1.417011381538932913e+00,-2.086226620555783562e+00
7.704545931167199324e-01,1.840821703404521337e+00,3.667400812129429255e+00
-5.724913713793998049e+00,-1.720100332788925712e+00,-1.929436534810442527e+00
-4.147905993818358894e+00,-3.856938220143276697e-01,1.571589892272186706e+00
4.024184198006120816e+00,7.815367326133993986e-01,8.873222510470206437e-02
-1.046057762083880016e+00,-3.282220532758890030e+00,-5.032567661887966004e+00
4.918015925194708871e+00,-7.930769167119411378e-02,9.762600958217575453e-01
7.229164316315750405e-01,-3.268107565964039729e+00,-4.164512819421074319e+00
1.166766657935662144e+00,-3.021442010760424512e+00,-5.357766631810379820e+00
1.318182244766173961e+00,-1.224870154556391588e+00,-3.909746060170812942e+00
-3.543170009092075468e+00,2.782458710070688235e-01,2.395598826867072262e+00
-4.939031286939479237e+00,1.371047735417833813e-01,3.309312693947377593e+00
3.838440496668241941e+00,-2.359937187247607149e+00,-3.016294664608484055e+00
-1.982192844044687208e+00,9.161703139888671688e-01,4.096465951463629906e+00
3.341474069613126763e-01,1.996869329814211724e+00,3.633801539402454761e+00
3.968430210541378678e+00,-2.064808154688909436e+00,-2.694342504068571564e+00
5.532027047927491559e+00,-1.901322791519416133e-01,-2.628923347814588141e+00
2.820156198219806676e+00,1.189545474312830198e+00,3.619574869599017308e+00
-3.027995290845111764e+00,1.607421919683368339e+00,5.099248720836349058e+00
-3.873385963209786897e+00,-7.301056612233742804e-01,-2.094171492161461590e+00
4.173707341682640681e+00,3.061591288229426611e-01,7.287729974390997345e-01
2.358257617003524764e+00,2.327224674202664101e+00,5.098741054643298298e+00
-7.620453788688325014e-01,-2.048224748991918975e+00,-3.482946797019525143e+00
-1.727918573628460797e+00,-2.544039205908427803e+00,-3.152522455001068202e+00
-4.191635628978128914e+00,-3.864787122718920664e-01,2.007538877887228068e+00
4.219570646602341490e+00,5.933658465048611275e-01,-4.026629034994096967e-01
2.715803636404826360e+00,3.013224059379572495e+00,3.046044968148975407e+00
2.437001123199403541e+00,-2.738142679341805774e+00,-3.556477578412934548e+00
-5.339704956984326678e+00,-2.275629880063494426e+00,-1.679508888307140291e+00
1.119949683314961142e+00,2.738237904699993397e+00,5.363182252933819782e+00
3.407137043856119707e+00,1.191975034664721100e+00,3.562994297337227945e+00
-2.835410998114974657e+00,-2.147735430447248461e+00,-2.449468313356911064e+00
-3.047635200748619155e+00,-1.261994186362910719e+00,-3.933096533304753173e+00
2.750118595213713046e+00,1.440939542890379510e+00,4.240408039100041826e+00
4.339235115103471152e+00,4.120687692391026835e-01,-2.290892180810468748e+00
4.109374013932119318e+00,6.145573613607615560e-01,1.605183073326078791e+00
-1.968191047678415240e+00,-1.435936764448146441e+00,-4.064228372381390564e+00
-1.951178165805180997e+00,3.051699213250855358e+00,4.688709165409338908e+00
4.749084897434531882e+00,6.567120045149003049e-01,-2.224666843290379781e+00
4.064865712176884416e-01,-1.575186766742823430e+00,-3.814674656706430245e+00
3.926530209145163042e+00,1.818232031844090768e+00,1.164584839925466575e+00
3.554069908071458839e-01,-1.324979204533996091e+00,-4.801248314908607817e+00
-2.754762043965096829e+00,2.841763205688586869e+00,4.056395651756080412e+00
-3.239534397114391506e+00,4.660915248286577883e-01,2.803856595972880061e+00
-3.860765459420220758e+00,-1.136018583925455294e+00,-6.756436567706550766e-01
2.255580102132557663e+00,1.696253524411011737e+00,2.936764269616834788e+00
9.453893051140720427e-01,-1.723713852681573622e+00,-5.313606898946151347e+00
-4.353362288119390300e+00,-5.662933624012986833e-01,-1.967782610570558699e+00
-3.435133637276793217e-01,-2.930367856748970379e+00,-3.662519421657489449e+00
4.435964810682865966e+00,8.398237537794826790e-02,9.440100966821719508e-01
9.312195550399553212e-02,-3.032800644178553551e+00,-3.765612049694690100e+00
-5.044872125069249869e+00,1.151042503861867017e+00,3.391354899026791436e+00
-4.921124766273017315e+00,1.438091778603272974e+00,1.489036007766613823e+00
-3.840087568546865171e+00,-3.088397140416169862e+00,-3.490676741018843732e+00
-3.054895110116453427e+00,1.187428430814133185e+00,4.757486225641985200e+00
-4.473050126109633373e-01,3.366417636568522553e+00,4.491312167803234168e+00
2.490177327278180641e+00,3.091518630633073528e+00,4.847933924240062531e+00
2.423408659816927546e+00,1.970721093794845391e+00,2.655446310664710818e+00
5.762580405764439639e+00,1.395090941871714341e+00,5.795787648678821929e-02
-6.121117271196812482e+00,-1.038416787433619648e+00,-1.020433517661615497e+00
-4.458904646770493585e+00,-1.335000056712411620e+00,-3.492249636649072286e+00
-1.277183868195558736e+00,2.244272927403735629e+00,5.500387565503814358e+00
6.209684892246016830e-01,3.300508298815020058e+00,4.967074451848863426e+00
-1.245155456772024882e+00,1.901259888367815787e+00,5.480687236238601656e+00
-4.961439831801768285e+00,-4.072613291139751679e-01,-1.803844858615892832e+00
-2.351184289596616406e+00,2.436610337347921096e+00,3.296666754886298456e+00
-3.588402623920591061e+00,3.350887225386948720e-01,2.341165049615947513e+00
4.657090017175818275e+00,8.732454295010875223e-01,2.796571781798389722e+00
-5.627543258075497157e+00,-6.886928906725576782e-01,-1.658614232733069960e+00
-3.142475051058066349e+00,1.679146904449010602e+00,4.917573328304832181e+00
5.233249206213974603e+00,-1.311346603043609171e+00,-2.904529438191462365e+00
3.345676295887214380e+00,-2.959387863052146961e-01,-2.577702635268026565e+00
-4.811102812368029724e+00,1.205955987445441080e+00,3.684723650192257338e+00
2.821164964366312256e-01,-1.416144409554578099e+00,-4.247296914154112812e+00
-2.582680014734504592e+00,-3.418169142474110078e+00,-3.681891418184208842e+00
4.392524591538554013e+00,2.152387949440226489e+00,3.645927963226574420e+00
3.111498729877050895e+00,2.226039007529325708e+00,2.174996679656521881e+00
2.483969629333852236e+00,-1.335011148290616401e+00,-5.114421051256709205e+00
3.370212056589419358e+00,1.273105874197206111e+00,1.906851725749119542e+00
-5.963363516754779603e+00,-1.005513497404548540e+00,6.847021252019900306e-01
-7.900064463896051548e-01,-1.674588033769511375e+00,-5.254395192571765349e+00
5.609160507712445565e+00,1.293748873148992784e+00,2.103782028850010644e+00
-5.491691156590783329e+00,-1.988036161491784748e+00,-6.911654723658934296e-01
4.300903287339923331e+00,1.053625061171667321e+00,-4.143890516840308957e-01
-2.989325092726613065e+00,-1.759183235449341742e+00,-4.599377301922870309e+00
7.956761956716822404e-01,2.239614009827189722e+00,3.346633658357366592e+00
-3.597967318164268402e+00,9.150686129806612223e-01,1.891005231036684942e+00
2.398167760197201126e+00,-8.313450705144559416e-01,-4.143764091799603477e+00
3.817346490569229811e+00,-8.886893631451217579e-02,-2.255431581468361202e+00
-5.979147166186770335e+00,-1.073243086898360149e-02,-4.374072231985357551e-01
-3.779575282504126665e+00,-3.147361931976826455e+00,-3.247847884904258908e+00
-5.634247797763184629e+00,-5.745720185199860719e-01,1.840318218846958231e+00
-2.315048109488264227e+00,1.606272581845075154e+00,5.200474700472254241e+00
-1.165674827030459770e+00,-2.288324028749535888e+00,-3.445107538837090200e+00
1.322111440691690287e+00,-3.273978296288505341e+00,-4.469024505657105628e+00
-5.643229851524516505e+00,-1.346605316421000342e+00,-2.105010650640568581e+00
4.928052406381985051e+00,-2.874662907349196383e-01,4.864119779765503360e-01
-3.566767461899336134e+00,4.790237566612806086e-01,2.209522011737017788e+00
3.117667650168177484e+00,-7.596800802628536076e-01,-2.799683586021808335e+00
1.299467096754115814e-01,1.797845062335448718e+00,5.490315965013199850e+00
-4.550586418948433298e+00,-1.580299319790581025e+00,-1.757893464265058991e-02
4.680810949261868359e+00,1.475771957950523516e+00,-2.403177558610963827e-01
7.199557036443754443e-01,-3.275052369833935106e+00,-4.224000918918918934e+00
2.298476501975839525e+00,-2.993271936199937588e+00,-4.210031578628621318e+00
-2.878049116720908795e+00,-2.451176253019440310e+00,-4.782230963414440872e+00
-2.954579018711670280e+00,2.739821121418781313e+00,3.608896009036477004e+00
-5.196143639388518309e+00,-1.218534473533635420e+00,-2.691379694729318928e+00
3.033074105487097771e+00,-1.046497073121028132e+00,-2.566839702873293660e+00
-6.122281548123012840e+00,-6.601674882638713937e-01,-3.467363472590873075e-01
2.254911955879105978e+00,-1.204211990852136038e+00,-5.070134347461940472e+00
1.128335257104477796e+00,-1.752411198770893463e+00,-3.547552233746645634e+00
3.777869102646450816e+00,2.847300886314201307e+00,2.403821681748139927e+00
9.183798085439212056e-01,1.964243090450748852e+00,5.403101639471966422e+00
3.419734374220035455e+00,-2.452084266580704330e+00,-3.476453490246914413e+00
-6.210237659149204781e-01,1.921533474437416844e+00,5.630890571658639487e+00
2.787986189119879832e+00,-2.099653780350536625e+00,-2.888270951885949511e+00
-5.064133413611767942e+00,-2.057664323587244048e+00,-2.798590145822041464e+00
4.109456827726658545e+00,-2.078555477722262568e-01,-8.676556020482182330e-01
-1.975831571614222737e+00,1.647191761286563194e+00,3.122029975336712670e+00
-3.291758337302322257e+00,1.751336255340744996e+00,4.842674720721577231e+00
-5.849558608165751572e+00,7.521379228724516253e-01,1.309750798073926248e+00
-5.222219916067571077e+00,-2.208169472885390672e+00,-1.289123722789372817e+00
6.011309914020785072e+00,3.475662842543086328e-01,-1.438627492686523013e+00
-4.489326966312975564e+00,1.102247352808970460e+00,1.270789140484633650e+00
3.284381859320045116e+00,-1.869711471406285463e+00,-2.586962554814018045e+00
3.588738479614629107e+00,-1.008868730183036383e-01,-2.734096775213770147e+00
-2.239208555028939340e+00,1.904888927723884295e+00,5.320956710082573871e+00
5.337884899138508388e+00,-6.263870221214475897e-01,-2.997499230585755736e+00
2.897666256093387016e+00,-1.613295523540496434e+00,-4.925208701349274243e+00
-3.824713714694810474e+00,1.502668426345705521e+00,4.524558885772952621e+00
2.529309115303738142e+00,-1.545034910589495158e+00,-2.909007729334053494e+00
-4.887899925516759225e+00,2.875821098671035077e-03,3.157868197258756116e+00
4.760728724197234918e+00,-5.425576852652214122e-01,-1.112337399963986007e-01
-4.893794628088905974e+00,-1.885160511239380332e+00,-2.515557072284158036e-01
-1.257739181860816124e+00,2.996385119276379516e+00,3.793148872350923462e+00
-1.725455770699595437e+00,-1.285505686124531977e+00,-4.041833424333996838e+00
4.727517563215598351e+00,1.694028814821024298e+00,3.503201500970185123e+00
2.789167870248363990e+00,2.415134934497842334e+00,2.587310609097364544e+00
3.626803359326558507e+00,3.187441539370395205e+00,3.244432249521880252e+00
-5.405607758404783247e+00,1.006786945276428868e+00,2.774140451434664811e+00
2.235266002591177248e+00,-9.252195507477541936e-01,-4.019814585009538810e+00
1.753198235410281303e+00,-3.084717816313629069e+00,-4.216874518887760104e+00
-4.646917953105847765e+00,3.043568281525717012e-01,-2.699957310422995693e-01
6.723374382625715295e-01,1.397924350672545390e+00,4.353989390620780497e+00
2.823352324734027086e+00,-2.760248719108114646e+00,-4.743501689951547640e+00
4.339102246447744449e+00,2.245194037362070905e+00,1.187241079841016678e+00
-5.443248320975723864e+00,-1.158111024496207619e+00,1.154910573069271695e+00
-3.022553769815659486e+00,-1.425557694736883985e+00,-4.315646079943404878e+00
3.055246738009627538e+00,-2.647636986171398199e+00,-3.708027424536139538e+00
-5.899848903145062273e+00,-1.378498343959371875e+00,-9.996664560506920427e-01
6.056268059274020343e-01,3.010475997852131158e+00,3.757510398363171689e+00
-4.302493265092675934e+00,-2.457584342986947501e+00,-3.747347568906371329e+00
-3.222117936459965915e+00,-1.201604178721183747e+00,-3.842363592004572226e+00
-4.629965036585696581e+00,-2.652643333786040891e+00,-2.505997016494720064e+00
1.073968494534919493e+00,-1.786815617023472136e+00,-3.548813139126861138e+00
-1.584137547363691834e+00,-2.989101912515530923e+00,-5.275171293737466627e+00
-3.814057025771472098e+00,7.203297005606202896e-01,4.305364216374171882e+00
-1.678246262275113088e+00,1.122802489757066091e+00,4.642170772403920509e+00
-2.497963697676514272e+00,-1.304332518125483453e+00,-3.939771959391846323e+00
2.065017508761767928e+00,-2.760200139397777530e+00,-5.175720862166821590e+00
-6.151402192042958461e+00,-8.052619824195395015e-02,3.990550529789285150e-01
5.335670428950402000e-01,2.779899023827126392e+00,5.573088472572428564e+00
-4.925574446673257611e-01,1.667131866877340052e+00,3.744343599180695481e+00
-2.705612636340690269e+00,2.541824737779799115e+00,3.486182749735817321e+00
-2.811027880885921260e-01,-2.448370997038114005e+00,-5.649383497419294464e+00
-3.257459045125524089e+00,-2.519007534476373156e+00,-2.212404591278815502e+00
-3.877588922159771467e+00,-3.035069994259848247e+00,-2.873490211124099414e+00
3.830024980803857559e+00,2.809675184431939865e+00,2.284348614214257722e+00
1.472712160688958383e+00,-1.631241993698202553e+00,-3.425122310232729284e+00
5.976975933864656199e+00,2.023784767048955047e-01,6.392955604004064707e-01
-5.408508555721062372e+00,-3.719920514651452459e-01,-1.631675026169507436e+00
-4.236173770741656242e+00,-1.927032322442049084e-01,2.774482252874730825e+00
-1.230293686048552049e+00,-1.432221026928624630e+00,-4.783134322551425122e+00
2.204477554347629376e+00,1.908399557221145182e+00,3.014489868043515486e+00
-1.072681883156383353e+00,-1.477738054581664295e+00,-4.981830882717075859e+00
-2.208119641678942813e+00,2.475206782364755220e+00,3.261807156680122777e+00
-4.043564452420154609e+00,-1.412337763260253398e+00,-3.704814603907981230e+00
5.367323244215289613e-01,-2.456578940040803349e+00,-5.613817167061086799e+00
-1.986698895911411578e+00,-2.771975518139937922e+00,-5.281125780059369390e+00
-6.531130606188887411e-01,2.452089686369482990e+00,5.654333237396650169e+00
1.497054135004638242e+00,-1.135508332226653483e+00,-4.816732339262991047e+00
-3.006275454740879205e+00,-3.117113125544979102e+00,-4.384946934630880477e+00
1.007017932967766427e+00,2.808538823197736178e+00,3.514830408100562575e+00
3.837242012311913086e+00,-2.453802518125295151e+00,-3.410055439137217981e+00
2.164113328763830335e+00,-2.998120643915263006e+00,-3.929575687379757376e+00
-8.377375794164890754e-01,2.176282538613516948e+00,3.442046964511944473e+00
4.834478384262953732e+00,5.267133786917436167e-01,2.227176524967901639e+00
5.032115152920636270e+00,2.873209148543157121e-01,1.429180640854217588e+00
-5.870506473729562913e+00,-9.064294343269849175e-02,1.998804148348459542e+00
-2.518645878219193168e+00,1.500775374087657710e+00,2.972176652499817884e+00
-5.106334623463259170e+00,-1.169105946241126848e+00,-2.802153783063797476e+00
9.215414759769151587e-01,-2.091939564495514770e+00,-3.530952439121665787e+00
4.213688983442674285e+00,4.795244501180513930e-01,1.210946810409059271e+00
1.936476087448823380e+00,-3.143185500934130960e+00,-4.045416630236517541e+00
1.462505221789715426e+00,2.518654221408302085e+00,3.245256015804118821e+00
-3.991129294041944942e+00,-8.241934334010722063e-01,-4.875649481936846219e-01
-2.481747168945300785e+00,2.437854907611687771e+00,3.183023856203941460e+00
-3.574904499919135503e+00,1.757344123131646008e+00,2.262431064457227414e+00
-2.498090084055628601e+00,2.266140122651428168e+00,3.136424038420400073e+00
-1.237493423135560988e+00,2.703286276003559419e+00,3.624752881331677390e+00
-2.539768781125817831e+00,-2.175413543903304880e+00,-4.977987887289724078e+00
-1.762789267261555937e+00,-1.673784073042375864e+00,-3.400421258098904165e+00
-2.300875354529209105e+00,-2.840255965859292520e+00,-3.108070199998885563e+00
5.841356174518501199e+00,5.283801736868332100e-01,1.190646379425501777e+00
-5.428554220770093863e+00,-6.342447047485062495e-01,-2.005655438266636725e+00
1.914571834004360706e+00,2.262055643431450047e+00,5.243542904290357853e+00
-4.718831324466918886e+00,-5.697985230713618066e-01,-2.344245010589596667e+00
-1.050351142389650105e+00,2.662956026661694064e+00,3.592240468435472955e+00
-2.372550971136636822e+00,-2.814805029699667838e+00,-5.103511612395595698e+00
3.867336012096021403e+00,-1.390105468644371456e+00,-2.070385712865288497e+00
-4.617362100357039978e+00,-6.486031481424184841e-01,2.118775132058412058e+00
-4.040377682960302863e+00,-5.628705063464486402e-01,-1.380013042741653706e+00
-3.062785379112991091e+00,2.576886193994592844e+00,4.644695261208735992e+00
2.614617958365912376e+00,-2.966614986266807641e+00,-4.034961150489296600e+00
-3.365045133552912127e+00,3.072278353106602244e-01,2.938845416226834928e+00
3.788185796669267358e+00,-2.212098143268481198e+00,-2.751793497753750373e+00
7.151008212012431864e-01,-3.222923898294692613e+00,-4.153017089070332624e+00
-3.242724471253162655e+00,2.657323344351433914e+00,4.256648743030007509e+00
5.727754416775499013e-01,-2.629729097761005274e+00,-5.623407930298911062e+00
-5.986071858525745526e+00,2.112260990216042675e-02,1.659817124111780284e+00
-2.414784912362957670e+00,-2.604534372513608531e+00,-2.730760832659145709e+00
-4.974425128100048887e+00,-1.749420003929998482e-02,-1.150525501373619308e+00
3.346448936997617363e+00,1.599761453902117880e+00,4.377828198778388469e+00
1.801934078742867540e-01,-2.280258771798108874e+00,-3.577020384812476639e+00
2.298266045437684202e+00,-1.991520447055918464e+00,-5.261798369050615598e+00
-3.578438887539260094e+00,-2.879756742936267155e+00,-4.141311141020429076e+00
2.076413563483123337e+00,1.359866606737733186e+00,4.196824185018499520e+00
5.271029753796982575e+00,-1.103754115962146010e+00,-1.214524746953465906e+00
-2.002080677690220689e+00,-1.348111146392227511e+00,-3.965929357769178321e+00
-1.016978208768885894e+00,3.159356231183350960e+00,5.094966046245991365e+00
4.005016871797292488e+00,7.257087069261650703e-01,3.482245126793750423e-01
4.078385072247108667e+00,-2.211542266422469094e+00,-3.229618248003965686e+00
3.635270128183901495e+00,-2.280605115551884499e+00,-4.451164131586185846e+00
-3.056005982471361460e+00,-3.029200534468270867e+00,-4.478616402211151204e+00
4.092629052182461535e+00,6.745219604212695508e-01,7.272246792943496407e-01
3.799250856282408328e+00,1.552826784211412292e+00,1.184303790339995777e+00
-3.964611481663223636e+00,2.545681768632313546e-01,1.392134892568299254e+00
3.723667009211671264e+00,-1.168515021917702762e-01,-3.350350180889138052e+00
5.773820527962147509e+00,-6.909993599776211859e-01,-1.782493807055802071e+00
-3.872774627374119039e+00,-8.955251645279933559e-01,-2.893098878987985234e+00
1.879258663584422617e+00,-2.005888047648573203e+00,-5.439771566584628459e+00
6.000365536946295819e+00,1.314941478772533756e+00,1.195549754710129475e+00
4.116764491384039992e+00,6.250923435433262121e-01,4.921301313074848416e-01
-1.753630332501187494e+00,2.624939444506379616e+00,3.531385662353541566e+00
4.087851097100720033e+00,4.702909164085845584e-01,-1.940383599188502783e+00
-5.491751796156443710e+00,-2.001825887848166730e+00,-2.138741762388420398e+00
8.189282316131091255e-01,-2.116702197013626829e+00,-3.520316922993095066e+00
-2.673579840256044449e+00,2.080960116410604854e+00,2.955063077079129297e+00
-3.792263827873799897e+00,1.010626538914988076e-01,2.705459596360243246e+00
5.630163132733772891e+00,-6.903287307456483501e-02,-2.320204284586303345e+00
4.401892580686026513e+00,1.544715152863582297e+00,3.696231369858028248e+00
2.478280400743664014e-01,-1.733903194289330818e+00,-3.820947259870253188e+00
4.251133784086417400e+00,6.385127575104011521e-01,-1.362046863130131014e+00
-5.722751784156675292e+00,-1.545467839503162466e+00,-4.096837920859126153e-02
4.692559996863670868e+00,9.136217243543569566e-01,2.642707994348557410e+00
4.966308932834218481e+00,-2.608731753000782527e-01,-3.338646649579984693e+00
4.421244072840645245e+00,6.234116061716581392e-01,1.937473569689652564e+00
3.527413527349188005e+00,-1.716058809323665058e+00,-4.888895984828288910e+00
1.507588664268599832e+00,1.455715505536657739e+00,3.911773796642966428e+00
-6.077534132284409196e+00,3.480098877376507360e-01,1.409400309268536544e+00
-6.126582059971205751e+00,-1.393613165272430676e-01,2.892049865465437519e-01
3.868522940604534721e+00,-1.431451109773292374e-01,-3.448018886944934192e+00
-4.708791536166733849e+00,-2.652377045042904502e+00,-2.199900659565858785e+00
-1.848185786851637813e+00,-2.535332108715549371e+00,-3.127865676455220623e+00
3.297175609079963099e-01,1.626443187930569634e+00,3.787660356727375888e+00
3.997207156211466383e+00,2.439515341095155887e-01,-2.204745386644567651e-01
-4.128171364936556564e+00,-9.850854828584928446e-01,-1.848854412791977320e-01
3.680381589392740960e+00,1.292199015310734334e+00,1.213765586637409299e+00
-4.818630495722247886e+00,-1.690259975484512900e+00,-3.325449687680195332e+00
-3.963746754081555856e+00,-1.220717615384155019e+00,-3.533006260596042392e+00
-1.996232429670893760e+00,2.884701790508750641e+00,5.025478201307614690e+00
2.188964283496793950e+00,-1.984223228019799556e+00,-3.132648509588165542e+00
4.131796492292504119e+00,2.032409555022401948e-01,3.259229953425571424e-01
5.269031222903278966e+00,2.084388447874251149e+00,2.562799455414976446e+00
-5.630832612222976152e+00,9.727753391625900692e-01,2.189956789561320782e+00
2.183763148456292491e+00,-2.923458364802777876e+00,-4.877838797556518280e+00
4.284552310809521813e+00,-2.022814966998517150e+00,-2.447379602685244571e+00
1.294995538506124921e+00,1.462158986751348477e+00,4.080715278202520224e+00
-3.773325070528388281e+00,-3.017890397923175705e+00,-3.659275347625987607e+00
-1.283309406082953963e+00,3.014624437009230551e+00,3.906751818528602982e+00
1.850727034677369098e-01,-3.398647485170458449e+00,-4.752077301736724380e+00
1.797105329238045002e+00,3.287910854213379253e+00,4.766342354946403681e+00
-2.728751536069980776e+00,8.551894056086610796e-01,3.182362223844756421e+00
3.938198745827855785e+00,-1.574651085329395572e+00,-4.508494290276646055e+00
-3.661809471191509235e+00,3.428945464735953519e-01,1.844036116565364480e+00
4.111766080616043872e+00,3.489688487266776051e-01,2.229323578092183566e-02
4.615667514459703469e+00,2.814196781417847570e-01,1.580680110999414412e+00
3.699468710877555910e+00,1.768384575417122351e+00,1.313590320206542650e+00
-4.151870957460911171e+00,-2.467520612263734980e-01,2.633036918523278480e+00
-1.777052373299769505e-01,1.469617368327226448e+00,4.930456626879166748e+00
-3.957342388583057868e+00,-2.134617546606359939e-01,2.043662144754066379e+00
-3.422434943179712530e+00,-1.404536901565281770e+00,-1.906867043099374381e+00
-4.215438554973537144e+00,-1.221112005214797902e+00,-1.907879871049082410e-01
-5.447712291977221177e+00,3.514482451002877428e-02,2.561441514141726827e+00
3.296593817716438224e+00,-4.422707226085049181e-01,-3.592692850243278002e+00
4.621435237652227634e+00,2.637612134629601979e+00,2.333562069553805518e+00
-5.002670165526520663e+00,-2.300717643353354713e+00,-2.957649408759687404e+00
3.218527329313682905e+00,-1.681673127398870760e+00,-2.574790527340431456e+00
-3.861352169449536298e+00,-1.052800077456466088e+00,-1.355619910594214605e+00
-2.930443035199280288e+00,4.994075006273684947e-01,3.489628962450157523e+00
1.752365234389628323e+00,-3.138555946417567633e+00,-4.739330168763713935e+00
3.068853771300283029e+00,-7.742456653775147135e-01,-2.685239386140796825e+00
1.084926429041070728e+00,1.811695340962542478e+00,3.701334506792417933e+00
2.932121502811300129e-01,-1.966182373813348594e+00,-5.530583190329238619e+00
5.611724931043840847e+00,1.963688928204782469e+00,1.192215929156665855e+00
4.321766124196766867e+00,2.815527567100550854e-01,1.157371605488894950e+00
-4.534028302417548062e+00,1.773883591764482848e+00,1.963601605405992823e+00
-1.645187339080675493e+00,2.664111105168465166e+00,3.498494276351616250e+00
-5.178081731934074838e+00,-6.483289738554655068e-01,2.106953824955336341e+00
4.950383602108593406e-01,1.478431141085271516e+00,4.986094237181549538e+00
4.099701209603735741e+00,5.360618045037275348e-01,1.415507676325064468e+00
5.251506858846949122e+00,-1.298962218896578147e+00,-1.869343455967308332e+00
-2.338988304723453204e+00,1.390751797060016948e+00,5.076658395178117900e+00
-4.785941218781114337e+00,-1.863713737804212345e+00,-3.203483328932981156e-01
2.110658264185715449e+00,2.728183269176525538e+00,2.976977653341828844e+00
3.167235254633386177e+00,2.032743681242004996e+00,2.020197641972676816e+00
5.133964203509555624e+00,2.019899586257157154e+00,2.663284659267705745e+00
5.545668247490261216e+00,1.117318847294771489e+00,-1.021056950009092912e+00
2.306793199759211266e+00,3.120309170736716986e+00,3.283037481170767879e+00
-4.576475840909911774e+00,1.770187581312373803e-01,3.339859699430521633e+00
-2.876565294722605692e+00,7.094736903579397236e-01,3.107893681668241648e+00
1.607824678021014364e+00,2.360634097460208025e+00,3.244767522698464912e+00
3.752623849048044136e+00,-2.399873977597620112e+00,-3.157926650347155473e+00
-1.241862428670156948e+00,1.473960835201788333e+00,3.827094408227314393e+00
-2.231383452144713342e+00,1.647603822692822240e+00,3.067242824478576768e+00
2.487173235968290985e+00,2.160119667645861607e+00,4.968039174423857673e+00
4.983676050856088224e+00,-2.056826739963198425e-01,-3.101108662032459939e+00
-4.087691857669412343e+00,7.578748901328778709e-02,1.010182223070665186e+00
3.144849116609026662e+00,1.661696008539920388e+00,4.407846265655465778e+00
-2.434012488841947430e+00,8.433468038525926413e-01,3.910469057802617332e+00
4.630023544009186587e+00,7.646014265194758242e-01,2.494161494617615826e+00
-5.668814352782549193e+00,-2.011102148723545313e-01,-9.149144013154455468e-01
-2.298519301772976586e+00,-1.844470872280485674e+00,-4.999675174989704374e+00
4.135369961783236015e+00,1.530737448296763281e+00,5.243457979464843932e-01
-3.005966016353384784e+00,-3.204993403176648492e+00,-4.011366665838908219e+00
2.321127262931562907e+00,-1.399665398425103513e+00,-3.125519652377170665e+00
-4.467680806300416307e+00,2.894764871289032260e-01,-5.982534758961154803e-02
-3.327619136743278805e+00,3.902298029628366027e-01,3.270970975000709213e+00
-3.104042122210366017e+00,9.868080068103557423e-01,2.630925252004377768e+00
4.432535385949183393e+00,7.404249276086209974e-01,-1.663132957367004394e+00
-8.435798941946305307e-01,-3.459890091452891170e+00,-4.203150184848324145e+00
-3.364213706391114833e+00,2.518290695228891707e+00,4.294744689002048865e+00
-1.243405432701597535e+00,2.946199198356048932e+00,3.764494923536179094e+00
4.450493454450707098e+00,3.208166818256521502e-01,1.807146870307303921e+00
-4.202622240584359403e+00,2.286861361369931789e+00,3.661911501964344229e+00
-2.170771118778189290e+00,-1.399359995893424191e+00,-4.403983232833329708e+00
-3.798421706755309657e+00,-7.827189878589807526e-01,-1.216903259298520723e+00
-4.428726836345822093e+00,-2.665194222554065462e+00,-3.328805053334375597e+00
-6.032569521437018523e+00,-1.179744774659514883e+00,-9.451132557422916580e-01
4.316845986820993630e+00,2.409231799257673112e-01,5.651346874453652136e-01
4.367883368184893200e+00,-8.244267708092190006e-01,-8.761346386593618085e-01
1.341957204033082274e+00,3.489003381766307310e+00,4.346804788078226345e+00
3.970061826188567622e+00,-2.294014811999887105e+00,-4.232939711720251630e+00
-1.484855016477790945e+00,-1.512597305817690030e+00,-4.830629958624760079e+00
5.828017751357585929e-01,-3.191042659765081169e+00,-3.918469958370807138e+00
3.128445443734627407e+00,-2.269137836190299851e+00,-2.997086114711854599e+00
-4.196735083060469051e+00,-3.206380221299579558e-01,2.190339503009899325e-01
-1.199176211951837434e+00,3.167020116064827029e+00,4.949247402926229888e+00
-4.620695233815088621e+00,-1.099118263613964475e+00,9.285019228615614129e-01
5.177848474317512384e+00,1.022358078701641526e+00,2.483891402440809415e+00
1.238295603497214348e+00,2.236144111688362468e+00,3.402630577552994584e+00
-1.215215648291112949e+00,3.212739437163504075e+00,4.690162430915164826e+00
-1.155248238998117349e+00,-3.496378102091332263e+00,-4.254061880780246163e+00
9.369046353816358197e-01,-2.028379165955877195e+00,-5.630693065666934061e+00
-2.331366538840137892e+00,-1.412619970668874680e+00,-4.388730035151406028e+00
1.128508205667322795e+00,3.280439737325587135e+00,3.709658430524656492e+00
-4.453242102224555410e+00,-1.065859965701597911e+00,6.614370725730533973e-01
-1.208309085585935971e+00,-2.534158981167047742e+00,-3.332060017822230602e+00
-4.222968291098539773e+00,-5.459849917502904715e-01,-1.986586946392750574e+00
5.416908528131874068e-01,3.440526393138471750e+00,4.798282127969526911e+00
4.661422481989990096e+00,5.346042351953324001e-01,2.234071863712047357e+00
5.424686860230297114e+00,2.193205509776668727e+00,1.065943203887372626e+00
-2.403510226623525092e+00,-2.264352336808912458e+00,-5.076358972160152305e+00
-4.101123661384957764e+00,-3.724121570776304235e-01,1.453876527622763204e+00
-3.782461506329530376e+00,4.913252235321891592e-01,4.003467555900554586e+00
6.164085369212500609e+00,9.653015972409971779e-01,3.015375367862921929e-01
4.157966838344423488e-01,3.371587477486462259e+00,4.113260297639918406e+00
1.133967927572722578e+00,3.382461448911976198e+00,5.010769860855019076e+00
2.354848284253930224e+00,-1.350320341121415524e+00,-3.185530247106043156e+00
-3.062342382364635629e+00,-2.751993783297197460e+00,-2.485488493450910052e+00
3.369099501219612325e+00,3.252686624589978148e+00,3.324883376260380885e+00
4.730520670708169284e+00,-2.756609727212657734e-01,5.121770496964385133e-01
3.562897584333943324e-01,-2.822250336781367608e+00,-5.565690502379109006e+00
-3.166338753557343288e+00,5.811321630960885054e-01,2.627623301029395009e+00
-5.410570458028861829e+00,-2.124147518627314657e+00,-1.942593967655609655e+00
-5.201274803873902286e+00,-1.101808129317636720e+00,-2.649459327760931515e+00
5.276316568718520728e+00,3.642301355270515240e-01,1.728054520574744846e+00
3.518785449612753524e+00,-2.067848022383980577e+00,-2.720716598331370140e+00
-4.939301029930988740e+00,-1.312868740139230717e+00,-2.932888610418920461e+00
1.242196122790851120e+00,3.337659720449374756e+00,4.986816695782733788e+00
-1.169911761356678737e+00,-3.488271708604290033e+00,-4.849188935135359202e+00
1.946634370155150950e+00,1.930765914797153204e+00,3.174703292064427806e+00
-4.136708568172489109e+00,7.873880618709744317e-02,4.928623595023012838e-01
-3.141362041621541312e+00,-3.233502506404240862e+00,-3.595395594436257891e+00
3.710625612041331678e+00,-9.013266614384600750e-01,-1.764435793237494110e+00
2.440868876525584152e+00,-6.551590590879637910e-01,-4.250612316381804590e+00
2.652404077401939730e+00,-2.109053684864170108e+00,-2.952701295957643524e+00
-3.981222230550354735e-01,-1.661560671129340472e+00,-3.696447794477223603e+00
2.317845116907599312e+00,1.755513455144501078e+00,4.849220745919120112e+00
-5.817870835392487727e+00,5.042706519547014432e-01,1.771639183476585222e+00
5.247416048217544038e+00,1.277580916265655064e+00,-1.098083311436662823e+00
-2.290396034945501480e+00,-3.186516786460369399e+00,-3.378867375383033611e+00
8.197977948072010523e-01,3.212642023021455628e+00,5.293071727792579395e+00
-4.021468148265060272e+00,1.777155642541300706e-01,8.788030614525906836e-01
-4.312696088494902824e+00,-1.532089669303527302e+00,-2.752240901924342120e-01
3.988552541537317975e+00,8.064074328208324927e-01,2.900939519183677096e+00
5.171999034782443161e+00,4.476868541428845605e-01,-2.404391128513347020e+00
-4.075633659413338883e+00,4.621176586245370199e-01,3.843329311188782960e+00
4.123680024814041722e+00,1.137047762300674059e+00,2.780490652738407675e-01
-5.214072544686675137e+00,-1.913606557366237970e+00,-2.781451257600990434e+00
4.755760671394337891e+00,-1.841142882993376473e+00,-2.504154185058082849e+00
-3.853081152098820183e+00,-1.921046889015378456e+00,-4.146760733618823025e+00
-5.213613833593744751e+00,5.723434235694959682e-01,1.249654441290891788e-01
5.112361172918530094e+00,-2.962642839416324558e-01,-3.143904552168887534e+00
4.874543228060564282e+00,2.348470978940875309e+00,1.480908220480039228e+00
-5.440845376396533872e+00,-7.513085384268436417e-01,1.790531198958133841e+00
2.742791041229029059e+00,1.278319766299373494e+00,4.191087671401407810e+00
-4.123770452530120423e+00,-1.262912906691058046e+00,-7.038958930258687463e-02
-4.234356321784302324e+00,-2.877482378646649241e+00,-2.289445929767186527e+00
4.305688024667535529e+00,3.756213467954506724e-01,1.922366982651777967e+00
4.133154042887698942e+00,-3.096224893156662716e-01,-7.918312217714360557e-01
2.234314050923788209e+00,-1.894793855643160940e+00,-3.128883746352910222e+00
3.230914820738747029e+00,1.640129310254207162e+00,4.390386092219956460e+00
-2.359594359273003761e+00,-3.344998001455280701e+00,-4.419876139695128714e+00
3.273599873406445759e+00,-2.339727064486268215e+00,-4.792577081513329063e+00
3.702691124235745201e-01,-2.514062513738842597e+00,-5.583712014874435248e+00
-3.598621409854597442e+00,1.666028824863513114e+00,2.260125979733735857e+00
5.254000714737332878e+00,9.765374620024250829e-01,2.334390462785441045e+00
-2.904836450373317724e+00,-1.264941401584739333e+00,-3.116731986628981321e+00
1.832367214059981597e+00,2.960499616648098797e+00,3.221077901918758535e+00
3.624700902775325417e+00,-1.662549666594919373e-01,-2.135194176751369355e+00
-4.757311004667583276e+00,1.051138184744302873e+00,8.355194100741296648e-01
4.155135294834751747e+00,4.094448380880551519e-01,-1.664798067901807288e+00
1.122316261759909395e+00,3.467149555433778119e+00,4.739636910001599368e+00
-1.284624676745226513e+00,2.579892285437371591e+00,3.573138803282958520e+00
5.973982766076524342e+00,6.955062114701202614e-01,-1.161342278138570050e+00
-1.165760178427081462e+00,-1.481502234914475746e+00,-4.274255493996520272e+00
-4.089424072004005595e+00,4.989869558860428600e-01,3.824491959447425593e+00
-5.204618785037739670e+00,-6.668774008487173832e-01,2.132872425035370778e+00
1.413432887337663146e+00,2.227775027160921795e+00,5.422462536838628111e+00
-1.007731931609353371e+00,-2.506637086800712400e+00,-5.582492717430595164e+00
4.899606518999430449e+00,-1.629844239493096980e+00,-3.194162681895697187e+00
-5.129340359115487580e+00,3.157027873459158918e-01,-6.597191032413984857e-01
4.607410632235218628e+00,-6.868722431337728751e-02,6.690306150979447031e-01
4.490187090055786534e+00,-1.666214118466406102e+00,-3.993910697808559007e+00
2.181157965607753102e+00,2.174291494847378381e+00,5.168860839985608635e+00
1.945997362284575649e+00,1.377719418681746300e+00,3.846588945230521972e+00
-3.737937540570266837e+00,2.316447412481012158e+00,3.065600494595531522e+00
-2.865835865788886938e+00,9.198344728977955187e-01,2.939872400347193881e+00
-5.601448105731772209e+00,-2.648591786711854135e-01,2.207252714510539171e+00
4.049855380256243365e+00,2.744399944530911739e+00,2.019668464970483690e+00
-4.003961201092835154e+00,-9.076327721990136155e-01,-3.481395369098156944e-01
-4.952697031628268576e+00,7.061773623698993640e-01,3.766147466426901236e-01
-5.540670347637761672e-01,3.065127710175977072e+00,3.886709758723231101e+00
4.143105916693729185e+00,-8.535443222718903655e-01,-1.203938715079669652e+00
3.916744286374799877e+00,1.860618358971538044e-01,-1.453963245640554680e+00
-3.664179100700727165e+00,3.372367518393866725e-01,2.279761034474231618e+00
2.615530001738023635e+00,-2.756687483899350255e+00,-4.819013721113806881e+00
-5.591470386992616337e-01,-2.222063470802815743e+00,-3.549973063603168111e+00
4.102696993938695691e+00,-2.066788966478863010e+00,-2.686111127332118986e+00
-4.323526998328983240e+00,-1.679099568544422327e+00,-3.834132948764766624e+00
-9.381074349089022490e-01,-1.543245766834280497e+00,-4.306882928025946633e+00
5.348893304426862727e+00,-1.121917797573914521e+00,-2.936377115334221077e+00
-1.670766244498423703e+00,2.782167318451897131e+00,3.773325822747262137e+00
3.226193904007606417e+00,-2.040105192448828042e+00,-4.771412163953828944e+00
3.819147388372338359e+00,3.061854570295690525e+00,3.382503143032341342e+00
-6.064931672699026777e+00,-1.187817122716234408e+00,-6.866011401565994543e-01
-1.546896288681758325e+00,2.247514224330444232e+00,3.356947255692498633e+00
-3.969237891402772167e+00,1.928470976402619996e+00,2.386809912916294074e+00
-2.239870535682108255e+00,-3.394023066705704306e+00,-3.841506144385374633e+00
3.673921624991983714e-01,-2.486845316321474098e+00,-3.693711142023316629e+00
4.120200444852976318e+00,5.764403019116325355e-01,-1.406177584809761572e-01
2.563794842680446440e+00,-1.669942968308169240e+00,-2.923835346945140579e+00
1.643797345754064887e+00,1.446052077842677308e+00,3.695914145022560771e+00
-1.413869093548911549e+00,1.213003117404793274e+00,4.173975829521016756e+00
-5.896315481350595356e+00,4.286830235048257887e-01,8.232167322850308944e-01
3.223221017330784921e+00,-4.389080601700374729e-01,-3.702437899235776264e+00
4.374582545777381704e+00,1.948220912166582330e+00,6.527091579599576532e-01
8.872581282924236756e-01,3.453223597158249003e+00,4.530061531522748375e+00
4.341034139986868823e+00,6.614824390473544868e-01,-1.727560907436195503e+00
-4.775296081057743613e+00,-1.708585737684427341e+00,-3.487691182827540981e+00
-1.880204124805971766e+00,2.721921518576282839e+00,5.147571880143608780e+00
2.868436464807933461e+00,-8.578104800906645178e-01,-4.431680319676790880e+00
1.061341669068733840e+00,1.422591387806593444e+00,4.516586514960594378e+00
3.496070394655573566e+00,-1.195923443659536956e+00,-2.202457088879699043e+00
-5.578368074751645977e+00,-1.753693892010353084e+00,-2.167997586109188246e-01
-4.554473601639026370e+00,-2.777859577282310699e+00,-1.964524992951309557e+00
4.059511022964969129e+00,1.051059858535008162e+00,3.230210491806493778e+00
-2.872449959074764081e+00,1.091640941495298112e+00,2.663190569931725538e+00
3.604155294726133718e+00,2.427473454664747621e+00,1.850035892555797590e+00
