-5.301112457105471715e-02,-4.030780136968172833e-01,-3.237729092775600392e+00
-2.231761234476117295e-01,1.867816928722298764e+00,2.014558271880373841e+00
-6.827868257248798090e-01,3.265848692350864724e+00,2.344751142934157873e+00
2.022810397585273368e+00,-1.968276369521070768e+00,1.016650162477433561e+00
-1.186348821577756452e+00,1.159327033648801741e+00,-2.272985665753829210e+00
7.970070550277870147e-01,-8.663399755697456239e-01,2.966308276386049769e+00
-2.451747687642688689e+00,2.842325171791329819e+00,-1.276876305797268463e-01
1.094386328786928431e+00,-1.599893572525343144e+00,3.031582080033409010e+00
-1.128784022398761744e+00,2.032977727203187257e+00,-1.970544598412685700e+00
1.782182783435254381e+00,-2.194706836242850123e+00,3.872937069601858351e-01
-2.018443625873196812e+00,1.622246634996569403e+00,-3.155311872889185132e+00
-1.381224538863762064e+00,2.340567748393577840e+00,-1.393620165106111419e-01
1.684869178261508005e-01,2.646555919182984162e+00,2.732574279954282481e+00
1.235272234631331623e+00,-2.781806773550882905e+00,-2.706452177823097216e+00
2.525479969012917048e-01,-1.022048848894909989e+00,-3.144714451604286864e+00
-1.126505632949427849e+00,2.015914889241629648e+00,2.576103922503303334e+00
-1.535200965659870409e+00,2.470375977144600999e+00,2.084131298749584804e+00
-1.744329727832752308e+00,2.795502611505571888e+00,1.870054098288963962e+00
-2.732141762630043158e-01,1.748166254228915362e+00,2.133909764020498478e+00
1.461429561735398064e+00,-9.470925192372076085e-01,3.716361643884296573e+00
-4.558197758500768804e-01,-8.562757078546624490e-01,-2.612793074188870968e+00
-1.288326606232850446e+00,2.314789875529050800e+00,6.438132824221495243e-01
-1.002273573738866386e+00,2.850612129454287658e+00,3.889799927346183905e-02
2.539127072260013440e-01,-2.553735085114212655e+00,-3.232011360495521402e+00
2.513772405582347602e+00,-2.561374108548104545e+00,1.670908128647218271e+00
2.604085780022206364e+00,-2.361306341270966946e+00,1.420826821623999203e+00
1.975133790525596122e+00,-2.582974385561771946e+00,-1.091887657725864491e+00
-7.298745303031612952e-01,-1.869359689693965987e-01,-2.637757327603591051e+00
-1.198130620956956299e-01,-2.647366274019168131e+00,-2.976376818962367832e+00
1.591916427825829983e+00,4.983957945682906954e-01,2.995173919187550826e+00
-6.311597203951884172e-01,3.068944099794506553e+00,2.678035573922148416e+00
2.528529730535368003e+00,-2.645242044815362181e+00,5.893941129946115298e-01
2.033285446265883145e+00,-3.507889370116429983e+00,-6.423947887977001781e-01
-1.231773975788342801e+00,3.496474580244030683e+00,2.013245725315060408e+00
-2.158997796714094530e+00,1.932416345801129420e+00,-2.943249169762225392e+00
1.186468632310174187e-01,3.164558593846462098e-01,3.043078561281300054e+00
-1.174091667085971125e+00,2.798948433571633920e+00,-3.523006788785659205e-01
6.578229635068799652e-01,1.771361905968894979e+00,3.543507745631125694e+00
1.902793133448431040e-01,-8.760609868196614913e-01,-3.428001054644358891e+00
1.612635420349775472e+00,-6.448952069212505744e-01,2.329573533112589079e+00
7.207146828083644818e-01,-5.049126011719609064e-01,2.816532949078872861e+00
1.120072401481186697e+00,-3.079921434904298927e+00,1.907715630949345098e-01
-7.153492150592022369e-01,6.617462707334600402e-01,-3.495226186317611727e+00
2.199187295169627632e+00,-1.026334233668973805e+00,3.187436196239967767e+00
2.534716594900966680e+00,-2.690445700602490664e+00,8.545106781123699147e-01
2.103277334564633616e+00,-7.228711372392317980e-01,2.561225724243692436e+00
2.979735158884424528e-01,-2.931416009248117405e+00,-1.759284491120339355e+00
1.271544427997780335e+00,-3.265923928650116270e+00,6.934642967938448033e-01
-4.970509926117215316e-01,-2.160298670355208728e+00,-3.131765423237322210e+00
4.968417171827853585e-01,-1.024130441663670121e-01,3.722872526798139958e+00
9.959311495796357994e-01,-3.156939507191975469e+00,-2.483756124317198388e+00
-1.019603342084543618e+00,2.649765271882382311e+00,2.926791925724063326e+00
-1.486967657814933119e+00,3.509130695407353784e+00,-6.249754596404103468e-01
2.052660879572724362e+00,-2.659926986857015230e+00,2.349905412895765267e+00
2.210199682047182534e+00,-2.151874796845574700e+00,6.015088482307968665e-01
3.882011695829750142e-01,-1.489847634410462307e+00,-3.439541368484817951e+00
-5.549063148041312177e-01,-1.985726844847682360e+00,-3.420950454924575723e+00
-5.376549406412056697e-01,1.224783648956668386e-01,-2.859626470488054295e+00
-6.983761951547767799e-01,2.776077634788395088e+00,2.985776878408941570e+00
-2.215715417680660160e+00,3.070960609254246521e+00,8.345333998105314288e-01
3.818561530906428025e-01,-1.121945160070004333e+00,-2.917414866395014350e+00
1.986602383054803189e+00,-8.245918771481943743e-01,3.521950137283807347e+00
1.179714105500947907e+00,-1.781403209979316171e-01,2.535411922713001420e+00
8.387940461450057450e-01,1.645322321561071499e+00,2.839835358391146869e+00
-1.079942739313332956e+00,7.656105404154237570e-01,-3.769385073788320994e+00
-9.318119271225691058e-01,-5.160551450142151358e-02,-2.560146141046582002e+00
1.271767997763711522e+00,-3.249276916182961550e+00,-2.260234322228999115e+00
1.423275720944747968e+00,1.440644475930937807e-01,3.849507324234178185e+00
1.240739926297254492e+00,-3.142943605180654298e+00,7.300374926316212099e-01
-1.387646130987139736e+00,3.695150233321331523e+00,9.422433104386199743e-01
-1.502902543298146876e+00,9.711174323260741981e-02,-2.596674907209831407e+00
-1.096020905170151494e+00,3.552261246914895088e-01,-2.433043980765927650e+00
2.362095339289515650e+00,-2.630886767153323813e+00,1.721217279646503366e-03
-1.068866436573088219e+00,1.699981133827758173e+00,-2.911554760743052750e+00
-1.205981252262458669e+00,2.709745339350918325e+00,-1.332111735857929968e+00
2.255844950586552322e+00,-2.265793053442755500e+00,2.555592298273804630e+00
1.427674515526062615e+00,-3.376244853448597372e+00,7.534493504954713483e-01
-1.393382954500826665e-01,9.682669014563480836e-01,3.405252168854458361e+00
-2.098487604701719800e+00,7.548159590169097877e-01,-3.372909688873366285e+00
1.580062094603273293e+00,-2.035349742867992973e+00,3.003154013036663628e+00
8.664893514877066716e-01,-1.881194341740345832e+00,-2.852391723174660498e+00
-5.781177394670281577e-01,2.769767143674873866e-01,-3.015536251640677179e+00
-4.416437098418071749e-01,-1.196629389018420087e+00,-3.990482708887821861e+00
2.293340885441318200e+00,-1.735316628058945376e+00,1.671123025044689570e+00
-5.780276038136923367e-01,4.814588544198176168e-01,-3.357998973004633569e+00
-8.106112267163948504e-01,1.900742452442183872e+00,2.020015279402183062e+00
-5.977209589719473248e-01,2.979392639096414275e-01,-3.610877279654109540e+00
1.829620131948053618e+00,-2.590619423419441958e+00,-1.393432209020701418e+00
-1.852068824843205119e+00,3.073347499392566462e+00,1.585089788041283532e+00
3.303537574549865186e-01,1.030410140613398084e+00,2.489073158173153555e+00
-7.732827831596079671e-01,2.988532092049571709e+00,4.493091035015573387e-01
3.994380545593293474e-01,-2.915282418930998265e+00,-1.353763978844570337e+00
-8.604755218611498391e-01,1.710473728227188461e+00,2.979294063602417886e+00
-1.362991583292510578e+00,2.465369174883107917e+00,-2.244605824953783912e+00
-1.341011385343759743e+00,3.628120035345018479e+00,1.234119113628976860e+00
4.068146953493966267e-01,2.279202648920688912e+00,2.992206730513612634e+00
1.626217968796012797e-02,2.127052996619918535e+00,2.099987202730297486e+00
1.188544479647241747e+00,-2.599589438370277783e+00,5.556865975746073660e-01
5.977987740982443343e-01,1.654763660919488011e+00,2.604274000401353373e+00
-1.161648192052543438e+00,2.860494309909659805e+00,-6.110133110239228671e-01
-2.479813540506432989e+00,3.100587612856485098e+00,-9.401288985227101991e-01
-2.416396414882090227e+00,1.886444909055948749e+00,-1.727672786062098842e+00
-7.629799571979605233e-01,1.815459779397905926e+00,3.017589862065893414e+00
-9.805878703040873390e-01,1.404801350409637939e+00,-2.957991661337405098e+00
1.014345716885019622e+00,-2.661466510691488097e+00,-2.852648900127662923e+00
1.711489670573397515e+00,-1.803618644376841829e+00,3.184669815942041904e+00
2.516512252718543508e+00,-2.493610672030912134e+00,1.904894380876385629e+00
1.872242827343385319e+00,-1.344928899327105354e+00,1.788804599381268456e+00
-1.077964068199823489e+00,-1.159368715295502117e+00,-3.787516510587543905e+00
-1.307817268133128152e+00,1.854185824276901595e+00,-1.561475354801454163e+00
1.971420448101754985e+00,-3.193411250770990861e+00,-1.390139752049644128e+00
1.698202128994616755e+00,-6.763917493267089798e-01,2.252796396744646490e+00
-2.618033651466358691e+00,2.472311032112329610e+00,-8.897599732242087445e-01
1.139335666736454700e+00,2.102348118998790816e-01,3.937683998292186072e+00
-1.965687940795418864e+00,2.853161461260275811e+00,1.372577777692910894e+00
2.433178715818378191e+00,-2.735568339759404388e+00,1.809430806558700811e+00
2.554011572303678701e+00,-2.872055836221893532e+00,8.696780425368755285e-01
-1.657504963159292244e-01,9.729464185695970713e-01,2.839045844716049594e+00
-7.819743446184471702e-01,1.642343531342803420e+00,2.878440637696698445e+00
-1.386152895905840010e+00,-9.160899725174425079e-01,-3.442363957989352130e+00
-1.177081187654734018e+00,2.828436978873909435e+00,-7.569885696394903496e-01
2.224164573171599102e+00,-3.334623740326896790e+00,1.216991222088210867e+00
2.535652814005306510e+00,-2.261512739226923863e+00,2.019135971064389690e+00
-1.007887279604743336e+00,1.378816777669121363e+00,-3.163764858845135031e+00
-2.478196088543389575e+00,2.856421602745647270e+00,-2.080731194594363787e-01
-1.179060455454716383e+00,3.158759905238175403e-01,-3.923474201449797416e+00
-2.160629377641920534e+00,1.140855799696177231e+00,-2.229857140178983510e+00
-1.493490541786519854e+00,3.720879687880325193e+00,2.674239543746060321e-01
-1.874818447914810005e+00,3.985071094959216076e-01,-3.561914293563400502e+00
4.122194285754920279e-02,1.072430984470389648e+00,3.759109680572067624e+00
9.837708087345566899e-01,-2.763970481879622021e+00,-1.820160602506378511e-01
6.722556757131521732e-02,1.517947520708674336e+00,3.717561844334057231e+00
1.679172474472184096e+00,-2.377117899323858197e+00,-1.257698946748074142e+00
-7.234143179109773225e-01,2.615739201365163247e+00,3.029067479621225356e+00
9.844413180969121546e-01,-2.722154920109249865e+00,-1.632892614850952329e-01
3.208306612791655410e-01,1.309956930574261991e+00,2.491179843072603539e+00
4.894878329081542301e-01,-2.918812157016138720e+00,-1.298656876396466986e+00
2.834726814532568251e-01,-2.417304434810081393e+00,-3.361474166892357118e+00
1.636073467015327632e+00,-3.682339656719795240e+00,-8.166461041954370392e-01
-9.288264581714307244e-01,1.376626517210799205e+00,-3.062250718848241959e+00
-7.958345392485666192e-01,3.181031576422525653e+00,2.540924753840446915e+00
1.715560438271162891e+00,-6.653162711966399412e-01,3.744304232955634415e+00
3.300172351089231126e-01,3.901419577439579900e-01,2.912162422192363653e+00
2.221555921804112543e+00,-1.919535700223824026e+00,1.305027614923357504e+00
-3.238183179876564788e-01,2.094034058448482671e+00,3.535697031828955783e+00
-1.765213352664456670e+00,3.350300686680383500e+00,1.457352169322946978e+00
4.173236871796521391e-02,2.594933803494636759e+00,2.129632675139045528e+00
9.063630335969771745e-02,-2.831346759853336614e+00,-2.338565889107833584e+00
1.608370869653648727e+00,1.246310275554778635e-01,2.761844226185588447e+00
-1.824813729277980912e+00,2.979279122174771643e+00,1.661982025028911014e+00
-2.065961600928487130e+00,4.897596340210770838e-01,-3.129577873128237098e+00
1.538272948060223966e+00,-8.507271258407276271e-01,2.226174933021708213e+00
-8.008434427005944878e-01,3.415969291745283964e+00,1.890679391533179210e+00
1.049784938831806125e+00,-3.472558584210681421e+00,-2.189638085841564275e-01
8.611156789401315237e-01,-8.896996325765109681e-01,2.696710750841327275e+00
-1.353200788406456523e+00,-9.381711217733299524e-01,-3.317946752768541341e+00
1.700431708569283051e+00,-3.244075276371243710e+00,-1.824469284561125004e+00
1.230708424515936983e+00,-2.885303820495195737e+00,9.589954390764233727e-01
2.415954384471962868e+00,-1.498646666450837106e+00,2.177158955499050474e+00
-1.012201851634447092e+00,1.314494259607166482e+00,-2.503971654657674684e+00
1.815703302397346119e+00,-1.125096760607616098e+00,3.489601854792464319e+00
-8.072953610047888251e-01,1.125808315947026017e+00,-2.848522116384995417e+00
-6.536739065552288341e-01,1.443959264087848471e+00,3.016092399543939262e+00
-2.116609565507153512e+00,5.740242745071497676e-01,-3.011007519054338388e+00
-9.023712630329945306e-01,1.284427088760313085e+00,-2.777368580225606287e+00
-1.074000826255430807e+00,2.393465518507598144e+00,1.061678320342134496e+00
-1.724679625236965608e+00,2.052077205979655261e+00,-2.967555832454097597e+00
1.171178922768282726e+00,-3.652578190990265483e+00,-1.357506624668127770e+00
1.173282202763147986e+00,-4.119447314893946444e-01,2.462012274849659565e+00
-6.409503267858031039e-01,2.021669885060267013e+00,1.722033116831346300e+00
2.554105458423357344e+00,-2.951686062783489550e+00,1.247637633438954952e+00
-1.918561792143228972e+00,4.209008612729355781e-01,-2.705400587320126782e+00
2.275082966354098346e+00,-1.871201625729462359e+00,3.021507935122540012e+00
2.771721994724744009e-01,8.593586673897647410e-01,2.684742895922606731e+00
-1.621757477143608295e-01,2.571427041609649855e+00,1.798242847500122643e+00
-6.104033424681760689e-01,2.116506107159998429e+00,1.696209650787863676e+00
-2.251509941045835905e+00,1.761618414274385369e+00,-1.508192940301411156e+00
1.103276019193049295e+00,-3.346252528915085178e-01,3.922266380195495117e+00
5.175516397476130903e-01,-2.755029528416601536e+00,-1.093675382432946597e+00
-9.531637969672794863e-01,4.879981346633404660e-01,-3.746086032720191472e+00
-2.521308554720605777e+00,1.821665623100654496e+00,-2.301513638505743309e+00
3.049372711451297513e-01,-3.062120980582490937e+00,-2.232153999032235880e+00
-1.608559622627763197e+00,6.900120989484563871e-01,-3.766818791190920557e+00
1.641218133771407572e+00,4.826806126266528496e-01,3.132335168308150841e+00
-1.195886183588247054e+00,2.011274162554202327e+00,2.335521227950588141e+00
-1.830386170947624347e+00,3.718783372626989880e+00,2.941709698925848437e-01
-2.098711736229192104e-01,-1.042716747734161675e+00,-3.853404823379517286e+00
1.666717757714911485e+00,-2.364730489420228121e+00,-1.053889847125899726e+00
-2.567032862723053199e-01,-1.777803843907217907e+00,-3.718391297589818123e+00
-2.431910469095333038e+00,2.014158456566748523e+00,-1.409022128766234783e+00
-1.517369530313303239e+00,-7.639314650588537869e-01,-3.343958565623966539e+00
-1.646467733192310989e+00,-6.498055515376201241e-02,-3.766301195450964201e+00
1.194602968064037540e+00,-2.461561223733846671e+00,-2.566282475345199043e-01
9.087229184489099831e-02,-9.983044807545937704e-01,-2.726302580999785619e+00
-5.409766148780623674e-01,-2.133904890638368634e+00,-3.071666226063084704e+00
9.714925466608198557e-01,-2.620163744840923403e+00,-6.977204229721112316e-01
1.050212832151642628e+00,-1.890423228228500063e+00,-2.246484449340060863e+00
-3.891116035111628069e-01,1.137828799145518488e+00,2.922647298597413457e+00
-1.912611246284433131e+00,1.817419403353583762e+00,-1.132401424688493696e+00
-1.465654447043553299e+00,3.306610759697211410e+00,-1.002332298540147937e+00
-1.745655944667575010e+00,2.242713557123490631e+00,-2.445236577399422240e-01
-1.777377311434936269e+00,2.488434859755365380e+00,-2.584203216106665479e+00
-8.881571382261589376e-01,1.097101697440712842e+00,-3.252760691946650962e+00
1.355817400030205899e+00,-2.350848628631418524e+00,5.814337359266807947e-02
-6.074941134512216179e-01,1.388555556599035290e+00,2.722777970713294859e+00
-1.700273091599724840e+00,3.707814796883587061e+00,3.587593455310906787e-01
-1.273423373174535078e-01,9.762542466118635520e-01,3.641438111980803694e+00
-1.252060714115700524e+00,-1.028195216670225287e+00,-3.056508147922449403e+00
7.947457332883111070e-01,-2.044197846915891681e+00,-3.106200589981356064e+00
2.250259168577516622e+00,-2.701187802051934650e+00,-3.588889057430080243e-01
-6.073942887468719576e-01,-7.086502633590372469e-01,-3.970482347136941481e+00
-2.112480718178703087e-01,1.619503087518388229e+00,2.263103641611245109e+00
1.662128447772498019e+00,-2.313300551669999816e+00,-1.130012406203350084e+00
1.998339753138269170e+00,-2.549951121566416123e+00,-7.451405397054295943e-01
1.366305014161235176e+00,-3.606999449716060013e+00,7.465433272744853577e-02
1.318228990019437719e+00,-3.449926967849518800e+00,2.980794366891671432e-01
-9.969289420274670688e-01,-1.111325970937535823e+00,-2.860570647008036982e+00
4.715856542393563333e-01,8.415725689528257281e-01,2.615670942923134845e+00
1.598810786751224677e-01,1.243282908114563545e+00,3.874554079561614017e+00
-7.515645977677277989e-02,1.324126708220169979e+00,2.450613663993465696e+00
-1.274825520382694810e+00,2.093671949188932402e+00,-1.468399875458543002e+00
-9.014874430487694948e-03,-5.067693475867254271e-01,-3.182068888154457653e+00
1.503900917837614370e+00,4.253532546225592958e-01,3.728701776141699842e+00
-2.129684805547649606e+00,1.877796532457850498e+00,-1.038989931851132864e+00
1.678357786011968056e+00,-3.596451541642712968e+00,-1.307984625156169756e+00
-1.853977607180291143e+00,2.906740990705722893e+00,1.525287133304399356e+00
6.464971323172582496e-01,2.071043648866904618e+00,3.217017781272193400e+00
-2.143404156931453919e+00,3.524735400404102048e+00,-3.237207496325859024e-01
-4.379565223330257884e-01,-3.683107316183420465e-02,-3.638411805845568558e+00
-1.120157489812661167e+00,-1.371457373218148312e+00,-3.228301838151664604e+00
2.918591628103813229e-01,-2.562549666207927679e+00,-1.611299911698783616e+00
-4.106280962736937393e-03,1.467667136193082644e+00,2.306927979812043450e+00
-5.294181345258444082e-01,3.212686313403561034e+00,1.381827224837962387e+00
1.672524374438213890e+00,-2.218781732296820852e+00,2.809264659131883168e-01
1.365990675148366917e-01,1.138499732684362442e+00,2.496391524907184856e+00
1.561270226973806130e+00,-3.044314732618206953e+00,1.784951105800291371e+00
2.512760472408637202e+00,-2.610327089906284481e+00,1.907701134602320492e+00
-6.068879881139432886e-01,3.349475369844603811e+00,2.002559810220648551e+00
-1.510893154354979950e+00,3.382882784724648317e+00,1.859919483378845939e+00
-1.395865387998828644e-01,-1.099556459381876738e+00,-3.837885273367652506e+00
-6.177202080641557291e-01,2.499353113721586084e+00,1.226259697341463228e+00
8.256081626877195268e-01,-2.522608033800390448e+00,-3.012275349991304196e+00
1.771718656459302155e+00,-3.396262415886193597e+00,1.243564400445138718e+00
-9.831254798200564915e-01,2.482832534664047852e+00,5.641627043407553277e-01
-7.395405692848315837e-01,1.511063714281788428e-01,-2.739606924789994569e+00
2.053147451765184872e+00,-1.712272464314283926e+00,3.168835507554707664e+00
2.105714329402188500e+00,-1.982454839626115017e+00,1.013143470717956074e+00
2.341881993485262825e+00,-1.439582696934660344e+00,2.843297412445089378e+00
2.644352256729661788e-01,1.970876769924613470e+00,2.273123880644542183e+00
-4.683159269320554263e-01,-9.879125428168068490e-01,-2.641821394784301891e+00
-1.778050871989266257e+00,2.428714458883114879e+00,8.523141424672080468e-01
-6.023301675053811116e-02,1.511241523420965516e+00,2.315348298472632571e+00
2.212928197104103489e+00,-3.133974677459593128e+00,-7.268984027842380069e-01
2.130044221606678612e+00,-2.806878044496085245e+00,2.088621424874102406e+00
-1.747206604876398783e+00,2.857629107617126518e+00,-2.053211076072128716e+00
-1.706983709331931554e+00,2.171815884704115796e+00,-4.984858572112734199e-01
1.263652410923548963e+00,-8.842314298408657791e-01,2.313833264916901111e+00
-1.948373273623154933e+00,2.076204655842217861e-01,-3.079109424516710547e+00
1.515541015077797704e+00,-2.175034197803312086e+00,7.111401991869240602e-01
-1.468134628383757745e+00,-1.495151548688581911e-01,-3.787973514475299286e+00
1.476059649759220882e+00,-8.506078188628236614e-01,2.217637782548709691e+00
3.075344341384377289e-01,8.201557656576518029e-01,2.570142426773867950e+00
1.354591209790594997e+00,6.080033384322111045e-01,2.745959075593212173e+00
-1.212698552827954357e+00,2.136467035114884894e+00,-2.384551131774222288e+00
1.966011481635232538e+00,-9.579248269859742537e-01,2.204002403631926121e+00
3.003712232389381120e-01,-1.031307671613667098e+00,-3.079287710050714555e+00
9.626759203588167724e-01,-2.024445317294997881e+00,-1.792465825577321814e+00
-1.432414375333284751e+00,1.999406401405198874e+00,-1.270537982783826569e+00
1.565025355308628408e+00,-3.199207627569109480e+00,1.258022981869742152e+00
-2.356457895041137007e+00,2.577430993425263051e+00,-1.063674110774080056e-01
-1.144958214074342367e-01,8.589851110216630836e-01,3.639884790353999477e+00
1.519606352867975074e+00,-2.464278746819359878e+00,-2.044661192540561334e+00
1.255421155330483041e+00,-2.591250901648888050e+00,-2.649460038381946880e+00
-1.131582561554526301e+00,3.247364488042911557e+00,2.218917574991502217e+00
1.947987573362797153e-01,-3.045440829839362262e+00,-2.116951393194582032e+00
-1.133108899992808644e-01,-6.957740093933707515e-01,-2.791060190067597535e+00
2.550352456411363988e+00,-3.033509535413985159e+00,6.970979486216634102e-01
1.351124723648046366e+00,-2.813967383240498776e+00,1.668677310217252296e+00
1.066846145492510001e+00,-1.999956063237397386e+00,-2.254612849750809556e+00
1.511916136252405840e+00,-2.326289935175841705e+00,7.096522719308301363e-02
1.204013477338254923e+00,-1.852397364778485045e+00,2.809746984687372162e+00
-2.308007410084961020e+00,3.432708099106810629e+00,1.362118737904456367e-01
-1.587958990133307546e+00,2.378266537111357160e+00,2.620406188194166486e-01
-1.181570911158187354e+00,2.138393800588916704e+00,1.582004592501248030e+00
-2.010382603873067886e+00,3.617848765504078301e+00,2.686569165187295272e-01
-1.480628603810162591e+00,2.301978343371421598e+00,2.058478005551366952e+00
1.672278483356523182e+00,-6.297543932120457377e-01,2.345979728938389020e+00
3.241517674505672297e-01,-2.031820079110754573e+00,-1.872049261554791899e+00
-1.148631494068672154e+00,-9.807588645097551350e-01,-2.985858010410443075e+00
-8.854379820785753807e-01,3.340110844358824771e+00,2.216839281607769774e+00
1.692448653361663835e+00,-3.394041338442737477e+00,1.140590689751055820e+00
-2.162692345459372500e+00,2.212717731507923613e+00,-6.132095161525759064e-01
1.218512544284655608e+00,-2.607292292748808471e+00,4.148416290791872574e-01
-1.146774777850255722e+00,-1.022129933298274729e+00,-2.857005046981372143e+00
8.067534354786148887e-02,-2.877233061380943369e+00,-2.848391502936386654e+00
2.380074189925422523e+00,-1.688394563287606953e+00,2.744781429584206567e+00
7.426467071480545856e-01,1.771762435571982541e+00,3.403608918938486827e+00
-4.055688702278921753e-01,3.113910552472213489e+00,2.545539128762980052e+00
4.259159757671924229e-01,-1.597429280715863875e+00,-3.446968954850863742e+00
-1.356775382043628575e+00,1.614827508906656828e+00,-3.232470614944907616e+00
-2.195495062740078218e-01,2.342145008422259700e+00,3.348368873011783986e+00
1.169330656132556490e+00,-2.531983970650465210e+00,-8.082462281907107360e-02
4.182998580705344915e-01,-2.564077196712518880e+00,-1.314486378887512741e+00
1.232245890553614887e+00,-2.254295118242703122e+00,-1.336653611118815865e+00
2.588630177756443107e+00,-2.203023065631892763e+00,1.919797388141043504e+00
5.368507339579761117e-01,6.118029142720253777e-01,3.923411504849321663e+00
3.819863433485818915e-01,1.342273752404576470e+00,2.439742041112924031e+00
1.907653475118807007e+00,-3.395304423174390074e+00,1.073828338801260163e+00
-2.346528903040078440e+00,1.862495866651326937e+00,-1.480620873299241191e+00
-9.830448400792199948e-01,-9.311469425606021533e-01,-3.928451562042574619e+00
-2.065208561138694332e+00,2.166706495046672121e+00,-5.665513321605097907e-01
8.902734901514306465e-01,1.594974946443007191e+00,2.961361242999293264e+00
1.594587843060229826e+00,-2.110553120648814396e+00,9.636730703189432257e-01
8.015861620227761053e-01,-3.505939282919949829e+00,-1.116206085294103811e+00
-2.551163612091925437e+00,2.348479719329177318e+00,-1.915361880638221104e+00
-4.931133351815440435e-01,-1.301934357664760622e+00,-2.577550056409934509e+00
-1.918737925096375974e-01,-3.810677619810947103e-01,-3.019320309619944798e+00
-6.471227066281802776e-01,3.100398320993648316e+00,9.772358684874233870e-01
4.839047746129450100e-01,1.214882698593337862e+00,2.504390350221747497e+00
-2.312186363996743044e+00,2.876322382817593226e+00,3.016719510227413581e-01
3.419885329288850362e-01,3.560607688477368526e-01,2.893176842743196975e+00
-1.608239165830879003e+00,2.985157737779521536e+00,2.188649281004576341e+00
-1.254514222073253471e+00,2.379436891457938241e+00,-1.225892809921792947e+00
6.257231391806087339e-01,2.131040314806440961e+00,2.969981453065848154e+00
1.853916541497867554e+00,-3.050817744054521441e+00,2.039891954691005260e+00
-1.272432048431540341e+00,2.536367153863835711e+00,-5.917670699398179524e-02
7.985219151995827103e-01,5.869741689380318928e-01,2.568725743513279092e+00
-7.790036555669119789e-01,3.006777953427319350e+00,2.652396144006724743e+00
2.410691924000833541e+00,-2.737798476399369019e+00,2.496462034726951995e-01
1.455305944033829846e+00,-1.785983282243572168e+00,1.499108504226417837e+00
-2.586403840258898246e+00,2.806233430614941682e+00,-9.261787064413713466e-01
-7.712393201160819833e-01,-1.355216895880329842e-01,-2.689985207893688113e+00
2.876897445152747923e-01,-1.321327366670575820e+00,-2.501290932288388280e+00
1.986812927212455060e+00,-1.480720801654802354e+00,3.243572473919923205e+00
-2.140774444677335520e-01,9.977934682079229178e-01,3.468615869694780862e+00
1.388471972245174824e+00,-2.352426965807485448e+00,-5.995533840828616290e-01
-3.172759211055559692e-01,-1.717330996774445007e+00,-3.691336407793882834e+00
-8.824496297070318906e-01,2.803134667090401599e+00,5.491468326939774602e-01
7.343663446024296659e-01,-3.298464587980680207e+00,-8.603254458383062797e-01
8.213847848082656000e-01,1.743387516628082556e+00,3.214000093552516368e+00
-2.028294810163864703e+00,1.017469642781606343e+00,-3.463117081967191258e+00
2.065137662241685046e+00,-3.408737964418635968e+00,-9.319978884294991550e-01
1.088232623516084407e+00,-1.010581062543125519e+00,2.382289079297192469e+00
-8.813097291823359658e-01,1.142112867593709113e+00,-3.265264677939687221e+00
1.181452647024254121e+00,-1.206753349940384856e+00,3.513032322652494432e+00
2.046501710238930016e+00,-2.790026921439963559e+00,2.195593442922135541e+00
-7.108752537728704191e-01,3.142794300175133060e+00,9.604095110411663416e-01
-7.958750331769836109e-03,-2.678045302524903359e+00,-2.103155349422896503e+00
2.381183796853574286e+00,-2.166121792169574789e+00,9.362138611268777666e-01
1.659172068332659178e+00,-6.098935126501137116e-01,3.707259375042149419e+00
1.787144147474059697e+00,-2.501218325133708120e+00,-1.252216742165308094e+00
-1.587052666405875501e+00,2.409239313135921101e+00,7.511863241973300021e-01
6.519410351217148625e-01,-9.536082497238608513e-02,2.760187168178894090e+00
1.044859726364128605e+00,-1.625644418256870782e+00,2.534331864772414455e+00
1.701860149093986863e+00,-2.334874311603200692e+00,3.449863057144444273e-02
-1.749623472123063239e+00,1.927205856430688646e+00,-3.157127925153670134e+00
-1.057223573666944194e+00,1.380474240700700905e+00,-2.324706059966092919e+00
6.826024953150632291e-01,-3.348108154648610224e+00,-1.281495349296266184e+00
8.588375037539017764e-01,-5.037994597497947868e-01,2.540562289539288976e+00
8.724734170869390404e-01,1.652277356749240589e+00,3.411927216041527711e+00
-1.717938779987325137e+00,3.284170508538580613e+00,-1.608056563582681564e+00
-1.674798632196371040e+00,2.520455810596653468e+00,1.477236832266416000e+00
1.643839816152636413e+00,-2.538626043192603987e+00,2.461554356402912092e+00
1.171458328683459227e+00,-3.149024537869463902e+00,7.106169762485833319e-01
-1.345305281055054092e+00,1.990876565700167689e+00,-1.380412100770908479e+00
1.348487003801771333e+00,-2.311763469909247082e+00,-1.282643271110699423e+00
-1.197072621031483264e+00,2.792826572525529905e+00,-9.800937072134755512e-01
-9.119835131237251646e-01,3.346628733384816368e+00,2.226216934299780625e+00
-4.146753695876601586e-01,-1.323413329117656856e+00,-3.904032879164163194e+00
1.157488260160944638e+00,-1.735309350914599813e+00,2.801756666343488522e+00
1.664640641061772230e+00,-2.254302913907194839e+00,7.039806334709451663e-02
-2.221051862072238148e+00,2.582666630291654108e+00,-2.277108544426253545e+00
1.571121667753452966e+00,-2.860849533536395040e+00,-2.180308579688730486e+00
9.067165370379745015e-01,-1.928384094451907282e+00,-2.643234833582297494e+00
-1.935433653632175455e+00,2.527124114175360869e+00,1.105289937993902960e+00
-1.292463739772644171e+00,2.453448653705511351e+00,-3.874642923916248871e-01
1.811326744040541614e+00,-2.586363639259736669e+00,-1.506017436076112714e+00
-2.143208284850990797e+00,3.508340003699796927e+00,-6.925416705141580476e-01
-1.481046123098058054e+00,2.285967837126145152e+00,1.300797216680351198e+00
2.240373782412372061e-01,-1.055587234844569400e+00,-3.432411832576339528e+00
1.914733886721474709e+00,-3.377927195694888862e+00,-1.041539498617690462e+00
1.517842148225609922e+00,-2.027894646337288775e-01,3.818054777654362741e+00
-1.526977173289211898e+00,3.287941220234163797e+00,-1.185553652066116515e+00
1.533550059425677237e+00,1.044220142775746790e-01,2.734270487924063353e+00
-1.785251698586791225e+00,2.220431064172683211e+00,-2.703447907557338659e-01
8.603121104161735033e-01,-1.049197168621570642e+00,2.835213428253599677e+00
-1.531713520339049950e+00,-3.694887134728600531e-01,-2.933745230235247359e+00
-1.936891189875990626e+00,4.838738410350964525e-01,-2.617060874242044477e+00
2.696525169100222330e-01,3.641600175857810373e-01,2.874764188683486488e+00
-6.481998526828065543e-01,-4.629774113685589110e-01,-2.623830946057205349e+00
-2.735898318078102687e-01,3.014488225221308770e+00,2.434351312726525940e+00
2.171725388138285417e+00,-3.374437031171475532e+00,-6.179946101340324516e-01
-1.963163240138540155e-01,1.193732676033479656e+00,2.549422049946328261e+00
-1.988322319965698970e+00,2.378073544902489012e+00,-2.711604004980280980e+00
1.448540176788923439e+00,-2.299883965566188682e+00,-7.234331085365437453e-01
-1.081052247737829403e-01,-2.304075332582661950e+00,-2.148742420829248712e+00
-7.233586026072938990e-01,1.611658897475792385e+00,2.474251984019744999e+00
1.279058170894868951e+00,1.177703702631438532e+00,3.172093766635785350e+00
-2.500263702371035013e+00,1.962324144699093109e+00,-2.519474902095733437e+00
-1.074431327779765466e+00,-1.375405375709009004e+00,-3.008577104431963356e+00
-1.897572837186606520e+00,2.881508171117442618e+00,1.489225432652937275e+00
-1.861607155306500783e+00,3.302582688521563448e+00,1.331140858948171024e+00
1.241504747914486506e+00,-2.491927769706621998e+00,1.358492209737218515e+00
-5.041534665535953863e-01,-1.764927914121229846e-01,-2.764358584200547142e+00
1.376420060315661553e+00,-1.562399872265101575e+00,1.750471095753728168e+00
2.851630205981295907e-01,9.236646137824671143e-01,2.634932407548173927e+00
1.273891242745678998e+00,-2.866406536278601980e+00,1.364497962417506871e+00
-1.758827405708793590e+00,3.031970253885746924e+00,1.707124480680024536e+00
2.240857967573342435e+00,-2.350243794737608471e+00,2.550552925525396031e+00
-2.331282313379576365e+00,2.181593981775105551e+00,-7.372043074663285900e-01
7.022210141590532785e-03,2.815006850278229500e+00,2.192155550942836761e+00
-1.691427244671372121e-01,-1.050143999223840607e+00,-2.565470144902290972e+00
-1.129611352798453483e+00,1.406568532707964003e+00,-2.190802323589133849e+00
-2.905852932569164548e-01,-2.497882987815456701e+00,-2.754985479610114307e+00
-2.510914337557212050e+00,2.463745368029114591e+00,-1.246036752980496765e+00
2.020988676660614658e+00,-2.601818835549091435e+00,-8.203980468486374855e-01
-1.704183356769494451e-01,-2.452515032786566351e+00,-2.086488877362806527e+00
7.079416034284873316e-01,9.383963001958405270e-01,2.588239207827781829e+00
1.478099067813954060e+00,-2.963041230045785568e+00,-2.333899366112468954e+00
-1.077927048871942128e+00,1.289421575896307903e+00,-2.354133831173454094e+00
-1.254442324836816169e+00,-7.788568012568100052e-01,-2.869541946782749431e+00
-2.563976430675584339e+00,1.882355816897511636e+00,-2.101461846226221120e+00
-1.129636676081230001e-01,-1.470029298826893260e+00,-3.809196856016826338e+00
1.292012792248000030e+00,-1.340046949441211499e+00,2.037532450574214060e+00
1.112202006992121905e+00,-2.580865342873397861e+00,-2.867829307461803867e-01
9.140434441611560157e-01,-2.613055596440871042e+00,-4.969059645969583494e-01
-5.255090070505188393e-01,3.111737803015290016e+00,1.276377906263020945e+00
-4.008322613516726585e-01,2.104070114343273012e-01,-3.431962247627432738e+00
-2.182937471474799551e+00,2.766385077218199040e+00,-2.206974226512518733e+00
-1.695955494368573957e+00,2.251285789686311212e+00,-1.725838117519072346e-01
-1.969982825819950767e+00,5.289580530365250999e-01,-2.573693522608641260e+00
5.291424975540476305e-01,-2.917822561555556415e+00,-1.099720324872619281e+00
-1.248874774195949389e+00,2.164756157606556819e+00,-2.487353481572065039e+00
-2.213151210055580353e+00,3.134960352955188156e+00,-1.622854965905082381e+00
2.315532231747751357e+00,-2.441659114833537370e+00,2.446689119209553009e+00
-4.376432113189528961e-01,3.222629369622794560e+00,1.766129290235631366e+00
1.206401326548469793e-01,-8.492915311925800514e-01,-3.025585338105485800e+00
1.867572694027555436e+00,-2.404077595920426358e+00,-1.558003854572283520e-01
1.890958042784545434e-01,-3.021791162908349815e+00,-2.193032172403864166e+00
3.860453861156858957e-01,2.058752880518180728e+00,2.392009232342382052e+00
1.222076268882024364e+00,2.143470205509619975e-01,2.583437613803225563e+00
-9.398819272415378512e-01,3.254698214548806590e+00,3.313185148465358498e-01
1.017381180070292546e+00,-3.599031300775609399e+00,-1.383818774219313541e+00
1.926706487349184149e+00,-1.733920449951953102e-01,3.242585216756467936e+00
-1.097361632397011899e+00,3.679740919130157106e+00,6.914796264915771262e-01
2.568653010803536585e+00,-3.099807317587665256e+00,1.020393550302349128e+00
-1.521041860359903408e+00,2.357004653384654702e+00,1.746873320313041766e+00
1.615783769940413173e-01,3.704842387543493820e-01,3.180870935226085550e+00
-5.740517057791013622e-01,-1.213938436779107150e-01,-3.945672694612357478e+00
-1.474142487928533196e+00,3.663207756292612416e+00,3.159527770795277912e-01
-1.214478223452749583e+00,2.890726816446730130e+00,-7.772951292116280220e-01
-1.782924467908351129e+00,2.700692516513790054e+00,-2.392925530786489396e+00
-1.351649330719616682e+00,-7.946675461643027960e-01,-3.077143307807778783e+00
1.509483294459942559e+00,-2.866512346348464302e+00,-2.167897571605417628e+00
-1.234532822691691178e+00,2.092088938184903935e+00,2.069931667034612399e+00
2.029201967979045396e+00,-3.616071327947134595e+00,1.601724975106269822e-01
6.810603270750350546e-01,1.340397225525681857e-01,2.687081759248185708e+00
-1.034842600602753793e+00,1.613354233084502765e+00,-2.784341148992775850e+00
1.161767063144156564e+00,-3.628961659560789421e+00,-1.696483504822684729e+00
1.263341920752811376e+00,-2.503857777890507563e+00,1.812109116750360238e+00
-6.221735841267448386e-01,2.524452519097337699e+00,1.238076700033298838e+00
-2.491936536689116188e+00,2.832744516406550339e+00,-1.408567928884341125e+00
-9.646278162859394101e-01,2.636091736478598069e+00,4.027811561287041875e-01
1.303313030420407914e+00,-2.294367255561894581e+00,-2.508121904425919979e+00
2.343976432370480367e+00,-1.695754677062776716e+00,2.900233879648161928e+00
2.383661464694062815e+00,-2.888043340461629249e+00,-2.430272190846436697e-01
1.692597992197026446e+00,-2.904024218069511942e-01,2.478164360944577815e+00
-2.174306402285871798e+00,1.145376723280425724e+00,-3.245233535448666107e+00
-1.261666201160793310e+00,2.097518514195515493e+00,-1.871297452337338019e+00
-1.329809737056250940e+00,-4.457969042398887694e-01,-2.717985696189155309e+00
-1.186994837885406023e-01,1.803086793944135513e+00,3.638190208655123659e+00
-8.747389661079189027e-01,9.714778200451484880e-01,-2.695863149253983071e+00
1.394038324800199957e+00,-3.255709405238779386e+00,-2.041593417755426021e+00
-2.499762446141626238e-01,-1.384404072746316383e-01,-3.533760907059504852e+00
1.598273284915688208e+00,-1.946356552000666262e+00,1.173071737272810333e+00
2.215992666383998611e+00,-1.627727759172618027e+00,1.498579608567255805e+00
1.307937419761384890e+00,-2.156966697120463294e+00,1.321392136468054979e+00
1.649005659960217196e+00,-1.174527857151545840e+00,3.543568656839495734e+00
-2.823558335388491880e-01,1.651144359817168006e+00,3.568267318830685486e+00
3.028007311294274584e-01,2.223440681020609766e+00,2.382116788704002452e+00
2.134399622234568028e+00,-2.592777674829314538e+00,-4.677811771680392972e-01
1.742236622886136788e+00,-2.425725128661248675e+00,2.591018179808354027e+00
2.528717047684577057e+00,-2.782948374635007216e+00,3.137987996269740454e-01
1.199295919069868877e+00,-2.536551634385098009e+00,6.305923486033646608e-01
-1.359282739023131459e+00,3.286066713027572916e+00,2.096354464410191909e+00
-1.293380971835966564e+00,8.617974100914285174e-01,-2.220330843561239220e+00
-1.603112404290153448e+00,4.753040127423114325e-01,-3.775258163449521920e+00
8.049154424030475763e-01,-1.041223174028967691e+00,2.894420137943143789e+00
2.990026150324536225e-01,-1.203053189436191106e+00,-3.515490516923966524e+00
-2.100040897012577457e+00,1.794298664400337140e+00,-1.246012392109770328e+00
6.783562448012434576e-01,5.188133040885182234e-01,2.648471991953469828e+00
-3.054966732534039262e-02,5.747242843374084087e-01,3.023071884617907212e+00
-1.738646076736655610e+00,2.423030517396163930e+00,1.223224256604527937e+00
1.094240883385799723e+00,-1.482958866109820084e+00,3.154320778563658667e+00
1.635392519599823347e+00,-3.052125413615424332e+00,1.732206160538669382e+00
-8.909052270501898185e-01,-1.500781649606319101e+00,-3.624976627079812275e+00
-1.532244610988748645e+00,2.316016460604791938e+00,-2.604947880109787395e+00
-1.765670814931569410e+00,3.537531115089277645e+00,-6.532349317174309666e-01
1.407252646969482310e-02,2.637737521930668017e+00,3.114526523624379095e+00
-9.660773037848539024e-01,3.537085566681674731e+00,1.416283159512357059e+00
