-1.220162013646372279e-01,-7.391614805677467759e-01,-1.034475077042933622e+00
-1.573194551702374738e-02,-9.343303408481634653e-01,-7.695598560717245018e-01
-1.129630745184814877e+00,-1.277185372278663300e-01,-2.689159336967069103e-01
-3.093066019894390450e-01,-1.099250634743520028e+00,-9.249486441359398015e-01
-9.717125423888602898e-01,1.766331457447768982e-01,-3.887552583502165149e-01
-1.447337465093432529e+00,-4.296233038579129193e-01,2.012311678468760856e-01
-1.342793982426782717e+00,-3.668518628451622465e-01,-8.471989078380003091e-02
5.267628833889864692e-01,1.139240646793689304e+00,6.384770162057069598e-01
1.246589359854323176e+00,-2.940050517121970408e-01,-2.476482296735237898e-01
1.276101342536606342e+00,-4.068027616446782124e-01,-1.435658658212344008e-01
6.517562584118034019e-01,-6.943959690301373389e-01,-4.503234531923729911e-01
-4.762587500991086187e-01,5.375991208988706305e-01,-8.724788648199638397e-01
-9.515197924426004317e-01,2.571652660711538640e-01,-4.058423016160676577e-01
9.136473365064214924e-01,-1.081168203458792831e+00,3.204704840246808684e-01
-1.463913293055827625e+00,-2.586976036324800665e-01,6.975854099461660518e-02
6.258873991230445855e-02,7.464217209334875758e-01,-1.091532034844868271e+00
6.824049622455519160e-01,2.896968098108270717e-01,7.742162550276123767e-01
-6.880298606198461675e-01,9.103692725715560874e-01,2.475415005896492993e-01
-1.082107342144760231e+00,-7.213890652046758278e-01,-1.644180293022933781e-01
6.617161558892012962e-01,3.080709964035170390e-01,8.181536746627874335e-01
8.919913948365898460e-01,6.067638613158741201e-01,5.939548197714050737e-01
-1.717367566803486012e-01,8.739421098732569337e-01,6.804780026782217828e-01
-8.566448203030753161e-01,1.147276101331958120e+00,-3.735579093898157010e-01
-1.273494348017295552e-01,-8.953741884144659213e-01,-9.307217517730894674e-01
-6.112802990932119096e-01,-5.208968382451777124e-02,1.020469577135512118e+00
-5.568378180342288264e-01,-2.859143113388220026e-01,1.247579062326815258e+00
-1.524565111880053170e+00,-3.204175840695207000e-01,1.461077107256495700e-01
8.436367730727702963e-01,-5.017571694529464610e-01,-4.364038374431245537e-01
7.773780632973211757e-01,9.458919911007380721e-01,7.873725236063534583e-01
6.114292344371946575e-01,-1.377986644007536565e+00,2.202434078619533719e-01
-7.249583262742484990e-01,3.444459039156599900e-01,6.454100455429699901e-01
7.192978936851002203e-01,-9.369675059746501722e-01,5.663009543568536808e-01
-9.490834213134921038e-01,1.892181748718724799e-01,6.033003150074497389e-01
-3.138435339451298711e-01,-5.937442107282576986e-02,-1.124138072081028339e+00
3.378583902691216778e-01,-1.354677064044400359e+00,-1.874141432677546848e-01
7.224785359939402962e-01,7.552151373290072467e-01,-2.003229155320785937e-01
-4.324032595595556083e-02,1.248542145321508423e+00,1.498861502335977758e-01
9.680067721983742768e-01,-1.136135615891801676e+00,2.504662535088543751e-01
-1.118152578248700291e+00,1.510010469935481048e-01,-2.260830072830230797e-01
-9.014189218133192849e-01,-4.076339334215773325e-01,-5.442412225879563747e-01
9.629846653057529127e-02,9.325908327478268367e-01,8.723417146471345029e-01
1.205613765081694710e+00,6.109632293318760787e-01,2.520892054134449833e-01
-1.032604200637868397e+00,3.797362837116169954e-01,-2.806197048366093072e-01
1.703833831480177918e-01,1.083009288902626599e+00,8.165812243106498336e-01
1.479920837584664639e+00,3.477644755859903847e-01,-3.800897694171040397e-01
-1.287684713408543680e-01,1.054834263989586463e+00,-4.757997544795713463e-01
-1.719516324055158363e-01,3.478301842122705767e-01,1.083492403362702694e+00
-9.314297788473047124e-02,-1.101821657159754775e+00,4.596844817254565341e-02
7.901391267501275406e-01,4.688915824222164019e-01,-8.901642137027326873e-01
-4.076185212989494322e-01,-1.798542263154773169e-01,1.269416579851381899e+00
1.121677864147869741e+00,-7.310684405733165470e-01,1.267771064025319250e-01
-3.190299852257470481e-01,-2.114266176621147908e-01,-1.182573764081561452e+00
4.373742177610286941e-01,-1.979541094839940008e-01,-9.759137183664301496e-01
-4.352535315609616373e-01,7.656272022362503593e-01,-8.896199609460667679e-01
-8.746655085421894960e-01,6.924242595317428028e-01,-4.338770201887493516e-01
-6.885185013213665495e-02,-1.694607796466550687e-01,-1.427607503954390733e+00
5.740192990964682052e-01,7.783300655292824111e-01,-3.555957944386912706e-01
4.442570694586659430e-01,-8.821358861962784736e-01,8.572357551639193662e-01
1.119734668484969609e+00,-1.066821457110308929e-01,2.367556977436072463e-01
-1.008110453770897225e-01,-5.146592883516463157e-01,-1.203450098517096833e+00
7.321334608943879108e-01,7.021977642503119954e-01,-3.286483372205148967e-01
-8.278538251527703951e-01,1.633665739334385636e-01,-5.336034396925647405e-01
-9.858153864519991760e-02,-6.506456936663228552e-01,-1.083873168195796488e+00
6.604675790131453450e-01,1.387359324388477144e-01,-1.060064138731562133e+00
8.168900179005060824e-01,8.849575791778849787e-01,7.325019935032376361e-01
-1.804188311117463361e-01,8.676625451069114314e-01,6.881116243311369285e-01
-4.125515750652415381e-01,7.782768729033119337e-01,-8.874601295963888692e-01
6.755293337062183434e-02,2.915360578058083796e-01,1.336385827765736556e+00
4.431870687667222031e-01,1.071831020223591002e+00,3.294190463940622204e-01
-8.279803210222985710e-01,9.214253801047015413e-01,-4.501262459134678928e-01
2.587453388892108630e-01,2.953885852714153160e-01,-1.483217451070654613e+00
-1.244215427693579068e+00,5.030002243807175644e-01,-4.480791677524589844e-02
-5.270929204358296150e-02,3.449734459974911349e-01,1.182027898799951071e+00
2.315663048827893145e-01,-9.221292342653344964e-02,-1.247025099676479121e+00
1.187628809048682177e+00,-5.461709738704528805e-01,-1.327661711654581633e-01
7.993605552866540620e-01,6.630701089688374739e-02,-8.921956004849329602e-01
3.328893738580224748e-01,9.584819933676304027e-01,-8.450231265780686063e-02
9.881901387254909963e-01,7.280223877963799550e-01,5.207343010841207764e-01
-1.659166793084027314e-01,-8.901178656605789330e-01,5.675495281852126483e-01
1.313972855461624567e+00,-4.184403579850010102e-01,-1.506125789833849538e-02
2.139212591609367109e-01,5.766816515714184854e-01,1.206275114227980838e+00
-5.817822989936005662e-01,-8.884979660999767770e-01,8.861096119760903181e-03
-2.456358643153094823e-01,1.080301783199886678e+00,-5.819895261212300053e-01
1.029695812180102532e+00,9.160455555388676008e-02,3.799010496123286229e-01
-9.374882502732481138e-01,-8.302810628390526748e-01,-5.621218852609711769e-01
6.442444570523429004e-01,-1.150281651237494929e+00,-1.190198110893263134e-01
-3.148515174152293206e-01,5.073135256371518187e-01,8.429510845562890875e-01
-3.843466467397985142e-01,-1.236946958560599885e+00,-7.345996991279230004e-01
-4.871986483283652358e-01,6.960708794851206971e-01,-8.514248896844669456e-01
-3.590855334782845909e-01,1.223847614345838553e+00,2.773725943102808844e-01
1.884585229621825175e-01,-9.912031993301158028e-01,-6.047256797917524018e-01
-5.557032932001864101e-01,9.230607004848284669e-01,3.328947416616360178e-01
7.576296234909468685e-01,-3.557266075222912938e-01,-6.044668967988476860e-01
3.938057516557825766e-01,-7.320008046329846696e-01,-6.228614815698209073e-01
-5.302285127043232515e-01,-9.787439915121720624e-01,-1.045204491983998452e+00
5.952074282842637759e-02,-9.907278636185230525e-01,5.332632904392232698e-01
-7.972626283450107154e-01,5.689059270346731312e-01,4.197734554005888019e-01
-9.621069968921057702e-01,5.869403428656014832e-01,2.764616471240855522e-01
-1.324111848124755575e+00,3.385050683818231487e-01,3.730801474492344977e-02
5.756212813387761029e-01,3.946426072589789280e-01,9.252836991200347194e-01
2.768788082681369889e-01,-1.085297661232216271e+00,6.167972140708822826e-01
6.484480463566118236e-02,1.047100469102248077e+00,-2.564524218811543577e-01
4.907574824509597922e-01,1.049404562701499843e+00,3.242554454185893609e-01
-5.270466629046325346e-01,-9.504973900780652185e-01,-1.187945174248065533e-01
1.174134959106555742e+00,4.046077920897871438e-01,-5.131518191587114419e-01
2.875174776652574260e-01,4.801515952647438801e-01,-1.484489958435756485e+00
-7.306971707138288918e-01,-4.386945546797995643e-01,1.023113981882950885e+00
5.975295129111177772e-01,1.122133146314766572e+00,6.814061423379459415e-01
9.712999865450069326e-01,-9.184903936335951924e-01,2.777169518586821706e-01
-1.306252465104593252e+00,-3.378120488923045395e-01,5.520641376486769003e-01
-9.900710275986793762e-01,-4.827661488316652427e-01,-4.863612990728388152e-01
2.326377394706732188e-02,-1.179578752631830652e+00,-5.890787595626199025e-01
-9.057741263545178168e-01,-4.195821835224287644e-01,-5.582151111067149563e-01
-7.171329912901909520e-02,9.022465383930050598e-02,1.342018384348304672e+00
1.403067527742125065e-01,9.574602021097905480e-01,-3.767305463119915987e-01
5.136186324759418609e-01,6.932148632245177522e-01,-6.575494664073687767e-01
1.388065965650718603e+00,3.777111647160004138e-01,-3.704985538719980931e-01
-4.854076986758896761e-01,4.235394861757089124e-01,-8.810780433097854525e-01
-1.164482673707839533e+00,-6.403677240127624293e-01,-3.150181771312394741e-01
5.369637596405061469e-02,-1.319117667008321781e+00,-4.849530007223488703e-01
-1.040539991462275937e+00,2.508407755244379533e-01,4.333262411923254342e-01
-1.371206924258333848e-01,-6.792435472039414224e-01,1.099350593766094342e+00
2.065368058558973707e-01,-3.736994315781112519e-01,-1.022508732299520773e+00
-9.258613354077048774e-01,1.210161104510850238e+00,-2.944779069370054847e-01
1.383922339707809313e-01,6.699516124530041639e-01,-1.211844312778531663e+00
-4.079527480286489483e-01,-8.288871595073046133e-03,-1.030280956570040596e+00
-1.659791521300646167e-01,-7.223739389205858785e-01,9.796164931497302053e-01
1.317532229340330430e+00,-5.991719524727737861e-02,-3.726694650610677950e-01
-9.794475959109636420e-01,8.203136963452403174e-01,9.850624939277599634e-02
9.950866648616396581e-01,-5.037221662849401538e-01,3.293855882191442097e-01
-1.140365872320583174e+00,8.280924525911061984e-01,-9.085147536687557257e-02
-1.275618161220042568e+00,3.125608044411973818e-01,2.480038136067568844e-01
4.888270129600463254e-01,1.032393805688993638e+00,3.137828611900331799e-01
1.149530875329469071e+00,1.141255913781660802e-01,-6.516689462466038751e-01
-8.296342059266390567e-01,4.543891091188127507e-01,4.595281761684509858e-01
-9.940044792674569418e-01,-6.379021374583162540e-01,-4.837091736519502083e-01
-3.572362237939529228e-01,-4.303712762226749033e-01,1.502730943381828999e+00
-4.676285844490025156e-01,1.640882204112455167e-01,1.020466394979049563e+00
-8.776621273865928829e-01,-6.822680471330039298e-01,1.971012326817654925e-01
3.621447484445050047e-01,9.297251608099521558e-01,-1.297193882383812502e-01
-1.006778049773481287e+00,1.107586525006757326e-02,6.634164649629609167e-01
-7.918896602609803992e-01,7.166526901962778640e-01,-4.913127550955909140e-01
-9.010132304700359251e-02,6.959441694927638311e-01,8.858009953548194870e-01
3.963132085535306937e-01,1.198690391253221799e-01,-1.228423234976486533e+00
-6.710397333127959829e-01,-7.985645024422795279e-02,-7.474265890747426866e-01
-7.045637694144017971e-01,-8.269312613785559929e-01,-8.218482498751366050e-01
3.501985313101447783e-01,-1.062871944875494190e+00,-4.326359691931280227e-01
-1.561763626179230591e-01,5.056171124946682305e-01,-1.234834908508586571e+00
-7.084775398193212670e-01,-9.529449408422471235e-01,-3.799751425393601001e-01
1.383068688226997578e+00,-1.915946716518070747e-01,-2.128452094972790309e-01
1.318425249284711220e-01,1.164574366541888839e+00,7.567645242718370469e-01
-3.088950300411311134e-01,1.096460882110916968e+00,4.307836491747335517e-01
7.277990439010852963e-01,-6.134417308473146674e-02,-8.486817923611316150e-01
7.095901588669475402e-01,-1.131844831608517676e+00,5.337047087597465156e-01
2.713634407092055945e-01,-9.381017774901836415e-01,-5.591785828433181171e-01
5.841144885539970577e-01,8.795890238748919066e-01,1.015955758018826538e+00
-1.506192400977666379e+00,-3.617519215720969156e-02,3.028246684362080887e-01
-7.228078994070892271e-01,1.222631154220544802e+00,2.064533537156360704e-02
6.740475933831049926e-02,-1.332839674084780324e+00,-4.335760167928286446e-01
-2.321175411658392418e-01,-2.360397822115405456e-02,-1.266528773752431780e+00
3.626172889672193422e-01,-2.711899452242691466e-01,-9.914967545358523981e-01
3.512869854464280572e-01,2.514206155751443350e-01,1.170527746330308094e+00
7.409171296486150027e-01,-7.356371620616829476e-01,5.641952967298767829e-01
-1.019794389828671211e+00,4.559422868347847713e-01,-2.947064816421023359e-01
-1.173888103342687117e+00,-2.077080414125933860e-01,-2.233117682642793422e-01
-6.389274989915119662e-02,-9.128369567154182018e-01,6.145320894433506931e-01
1.231083957026955167e+00,5.332420331268568070e-01,-1.479372489397870194e-01
-1.236779211133081785e-01,3.513208252436673118e-01,1.123974618392015623e+00
-1.490464782934850518e+00,7.775779898830789683e-02,2.035763666100623981e-01
2.569165268438937666e-01,-9.638307815274756163e-02,-1.202064003236852363e+00
-1.280135769403673240e+00,5.259429765862724260e-01,5.215013890911122246e-02
-8.101494230777580574e-01,1.239707549245395279e+00,-3.965611490120203864e-01
5.667714762448337051e-01,-9.146203659903654470e-01,-3.399385541132721733e-01
-7.642310452575040713e-01,4.183616242077703440e-01,5.315166476296405706e-01
1.140360613314540306e+00,7.064177895908989591e-01,2.395708625000640413e-01
-6.944779595943588735e-01,-4.252244830564699263e-01,-7.774779292806656139e-01
-2.545472925877161341e-01,-1.178135629019178454e+00,-8.212481944583459592e-01
1.008013945445314308e+00,3.378057336414077572e-01,-9.029439491482400548e-01
5.307648709032335432e-01,-1.158914017128286789e+00,6.556675796836790582e-01
-7.447028373906676713e-01,-1.017795051609079598e-01,9.576078953463775800e-01
1.133980836041923596e-01,1.049552680336344412e+00,-1.725731188768084845e-01
3.554820681778025349e-01,9.692281394497038738e-01,1.039842706938915784e+00
-4.576094188706512633e-01,1.087263573137356332e+00,-7.696339397298649354e-01
-1.681376265655887270e-02,-1.061557879508878477e+00,1.942012157628178193e-01
4.948444638689221686e-01,8.043128508440288149e-01,-3.603191632042774262e-01
-3.989209967282515423e-01,-1.276841420231419333e+00,-8.587589883081239162e-01
-4.403377501029049901e-01,1.371617218117357373e+00,-3.558594339237237253e-02
-9.192174502507046707e-01,-8.970654085384066612e-01,-6.153051469975315824e-01
-6.133325353753713571e-01,-4.055813740134564527e-01,-8.849394575144363673e-01
6.607065217726296735e-01,-1.936555001309654411e-01,-7.910630161264005089e-01
-9.157812314447302260e-01,4.132384617617438360e-01,-4.214893565787449226e-01
2.057264356316473863e-01,-4.528306741189104256e-01,-9.478742867088877366e-01
-1.373612503001456320e+00,-3.635859600176558071e-01,4.466871352662712957e-01
-9.486984738547535878e-01,-6.250347563227959258e-01,2.578078303515285996e-01
-2.681550034421985584e-01,4.182449018413895714e-01,9.686688433272038212e-01
-1.811202727645840338e-01,3.185750545345218954e-01,1.104169809614011788e+00
4.945958909764900518e-02,1.185407299481507692e+00,1.632510520414831579e-01
4.846713248568043642e-01,1.126228562303826231e-01,-1.177652991030489593e+00
-4.964647994630139727e-01,-6.079186237306075657e-01,-1.050735249392002135e+00
9.582040757772041228e-01,8.248006429166748754e-01,5.718161648064380431e-01
1.478017218597846627e+00,1.056704340439449663e-01,-1.267335010359363079e-01
7.776735725539352106e-01,-5.145368716402447529e-01,5.589748427029895828e-01
-7.856948537952019862e-01,5.851576459807207309e-01,3.990544213538376739e-01
-3.641329147023024126e-01,-5.230832284462727522e-01,-1.178703418499096101e+00
-2.915015968567765681e-01,-1.000369039704136931e+00,8.002611544387316922e-02
9.978001634225970307e-01,-5.554306392071469700e-01,3.379901554285427712e-01
-6.268159168557221328e-01,-8.718542502293822327e-01,-8.530837688629793261e-03
-4.030223091233863242e-01,-1.102299707532257811e+00,-1.004980622830870862e+00
4.133685866654172036e-01,8.167317983095674361e-01,1.155277383341569930e+00
1.241106274899785422e+00,5.056498580317189129e-01,-2.340267181485622405e-01
-8.308510125125220802e-02,-1.156165270547992785e+00,-7.270611693346196169e-01
-1.183738540529851724e+00,-5.529791470511580265e-02,5.821980335239723692e-01
1.281464945764462793e-01,-1.275031193794570195e+00,-1.299469787052675296e-01
3.685970674526153901e-01,8.602105433143911739e-01,-3.585944914649210613e-01
-1.114265083923083287e-02,-1.223658285336425733e+00,-2.190570295574472692e-01
-5.504111259574504533e-01,5.595770494399759931e-01,-8.140545233025043848e-01
2.619815560696529821e-02,1.132530903711402193e+00,-3.612536656630099124e-02
3.959572151853579247e-01,3.448362631985291138e-01,1.110320815581154363e+00
1.908982909971486674e-01,4.701349710321500036e-02,-1.350725382430399524e+00
-8.277575238199333940e-01,-5.259707793632455441e-01,7.415276012831288899e-01
-7.237183584978050810e-01,1.187333221873243749e+00,8.165884953613339325e-03
-2.855819496294411675e-01,3.881246412823579628e-01,1.002361740819805114e+00
-3.430464979376782741e-01,-6.334201466930278190e-01,-1.220389086552178926e+00
3.966171180142519792e-01,8.780766340406267467e-01,1.139840881176752196e+00
-4.833651437901633763e-01,1.265854822590547490e+00,1.998287789146083737e-01
1.356338792528478943e-01,6.074488149695702610e-01,-1.307331425916447243e+00
-1.086023329335493504e+00,1.606811307356161445e-03,-3.065956611223625283e-01
4.576003065223791522e-01,9.735084774156201881e-01,1.129078921426029947e+00
-2.666694113842775216e-01,-4.213165615164125161e-02,1.341357198371186055e+00
-3.089150729645865345e-01,-7.868378712442419820e-01,-1.170109847851372953e+00
1.210274580079571116e+00,-4.070366147491309983e-01,8.125082340501954548e-02
-2.643582983338156334e-01,4.486666526908907326e-01,9.590117709619118136e-01
-1.186433351233258521e-01,9.743973653985376071e-01,6.667216378894349482e-01
-2.508800637631369290e-01,8.683898989902621990e-01,-1.068554145618625606e+00
-4.411412852495726900e-01,4.150869551842345517e-01,-9.319080534861602372e-01
-3.489566209118066809e-01,1.219678929184049299e+00,3.080356822568506847e-01
8.569358576030597918e-01,4.158581757241995303e-01,6.045310437204675091e-01
-1.357886717505434770e+00,7.967354005228689806e-02,3.347783480073859841e-01
1.460964735327751507e+00,3.886645089768395872e-02,-3.401382327823294638e-01
4.710301079945612424e-01,-5.047376023682230706e-01,-7.396213898764086858e-01
7.832327405976906645e-03,3.683186354597246109e-02,-1.499152701196265536e+00
1.303521212155867248e+00,-5.542099426055169253e-01,-3.469866624384921466e-02
8.812926304138685163e-01,1.809065782808467679e-02,-7.861502714877304232e-01
2.146585055144290821e-01,4.990313009304106484e-01,-1.577036249110133959e+00
2.918292017523436283e-02,-6.891375150832667051e-01,1.348581597448806679e+00
-3.598286415784426873e-01,-9.761493707397470576e-01,-1.060531612934081158e+00
-9.090384299704149518e-01,-8.924770241909483204e-01,-6.420874247055924355e-01
4.545406506064637031e-01,-1.291451689235660005e+00,2.886346011416850432e-01
1.992681271601972337e-01,8.519735232149561188e-02,1.292197771657095151e+00
-6.000487834758382322e-01,6.034498989407881542e-01,5.808186780815830508e-01
-6.570066745798415209e-01,8.448231484760508891e-01,3.432007298472657397e-01
-6.764131948128925265e-01,5.802522330369958015e-01,5.179777259685633961e-01
6.965994173857100735e-01,9.088535384537512751e-01,2.413014461968244762e-01
-4.123998042199413794e-01,-7.373008904820673726e-01,6.314073663475779918e-01
6.290989373467363588e-02,1.318415831036804819e+00,5.357333018430054938e-01
6.290014979546025842e-01,-1.145581541850213547e+00,-1.175544919120822401e-01
1.009071002823876517e+00,-6.108757071945544043e-02,-6.173349250348113548e-01
1.126617143863407389e+00,5.828427380166802951e-01,-1.625360898463115711e-01
1.178962402394090114e+00,-1.758137505858495264e-01,1.441315756582178254e-01
2.926252780087718053e-01,1.236263852241550110e+00,5.698258160064211264e-01
7.714112344942875010e-03,7.245650318301726234e-01,-1.170391165617514107e+00
7.713769768355850376e-01,6.166358443459118988e-01,-5.342065485177417417e-01
-7.801243711074128395e-01,-1.079396157975613113e-01,-6.565980855924974380e-01
4.378360923831710605e-01,8.664753724054540251e-01,-3.368271451423098806e-01
-8.195614423981721908e-01,-7.455411275745789101e-01,-7.214883293698078903e-01
-5.320857603664634894e-01,-7.689781783923890224e-01,3.698787284009804055e-01
8.396692790866512324e-01,5.624638012181053526e-01,-5.355333673313499299e-01
3.215824620945897383e-01,-5.947298472317260609e-01,1.067879961220421725e+00
-4.459303880023436917e-01,-4.938721898377627095e-01,1.303777032831451521e+00
4.191506905233378655e-01,4.612587420011184935e-01,-1.456552040586295060e+00
-9.784967226789997863e-01,-3.809179628033120824e-01,9.673745618092599585e-01
-6.350701482313743096e-01,9.882527017940557768e-01,-6.311193972762145776e-01
9.294795102029126399e-01,-1.108671512274105986e+00,2.827362009723402569e-01
8.011488936779846970e-01,9.643179805204113442e-02,6.031103910494511888e-01
2.183922628781813646e-01,9.773239338970199919e-01,-2.116062996115765094e-01
-1.257035135271409865e-01,-2.278565627503714164e-01,-1.404270199287795506e+00
1.920370903770182713e-02,2.749983385311242090e-01,-1.489525363290217896e+00
-6.778712922372716054e-01,1.153439383493955805e+00,8.298193854973150152e-02
2.297717284882304645e-01,8.817473654374394232e-02,1.268720143266804268e+00
1.032867557395772184e+00,7.550204975632632820e-01,4.740528675445483953e-01
6.052598747872554030e-01,-1.359584485197553816e+00,2.988344823102092596e-01
4.771071177748810732e-01,-9.586670022325196605e-01,8.260493402404525121e-01
-4.525480037328747374e-01,1.233134011201563407e+00,-3.923283228691404334e-01
-9.175361425449550523e-02,-1.162876623368466644e+00,-6.844818207640520624e-01
-6.034679431287087725e-01,-6.626346804773608490e-01,5.897330917454614019e-01
-9.934565055252517762e-01,5.297392084764064313e-01,-2.896991544293621157e-01
-8.014343534167652772e-01,5.235734551038019324e-01,-5.263494686882461693e-01
2.172905977547956169e-01,5.222127034150839675e-01,1.273637976925511728e+00
-8.870745439164053892e-01,-1.192017082624398233e-01,-5.341770047444570624e-01
3.308322562198043326e-01,1.147132278831347163e+00,4.394003133538254557e-01
-1.531266540019613265e+00,-2.471857563538309432e-01,1.567718259978919115e-01
7.196102283253084098e-01,7.405414674590277135e-01,-2.525571096956611417e-01
-2.528553253129159351e-01,4.828681500580593311e-01,-1.158779075205044862e+00
7.921043933736172660e-01,9.609369312907120042e-01,7.807151247261857607e-01
2.986412850440975375e-01,-6.779609745650098940e-02,1.138314732282498687e+00
-8.087740256854264453e-01,-1.315329791214746025e-01,-6.386638228280498986e-01
2.040571532717520842e-01,5.271226642241444438e-01,-1.485164833701405174e+00
2.973898250918881603e-01,-1.375726508541384563e+00,-2.186016094984540026e-01
5.085786930842401965e-01,9.696326107313157916e-02,9.679448299080161133e-01
-2.679659818542911576e-01,-9.304515839411473532e-01,-1.013527549016527862e+00
1.325326792044704494e+00,-4.076629584868310952e-01,-3.589837331009592541e-02
2.644153902879256557e-01,1.304302517459398958e+00,7.582210736049601607e-01
-4.964983667662876132e-01,-1.139970806634965861e+00,-6.263750953980071756e-01
1.744791833827466776e-01,1.113490603275972601e+00,5.913115175399839829e-02
-5.674160783574550004e-01,7.036110960306153350e-01,5.129367874912781344e-01
6.474788910893661265e-02,1.316622083325380554e+00,5.304595463760768403e-01
-1.451549787384718071e+00,1.090753906106016607e-01,2.209501011636544054e-01
-6.733318252629653111e-01,-4.678730235591940234e-01,1.038990388413683297e+00
-5.443867752851095920e-01,1.225420161498491645e+00,-5.190333337534499547e-01
9.901097288730088819e-02,-3.420852907816978039e-01,-1.124752891676034539e+00
2.319756443683181624e-01,3.963582128836019847e-02,1.237137036327900175e+00
-1.016199367313030955e+00,-4.364942172543991306e-01,7.732211287292070079e-01
-3.852295901813003742e-01,1.042546443478893137e+00,3.920839321622640594e-01
5.198164586778560858e-01,-7.451000376508434275e-01,8.148974897596312772e-01
8.745817145738674636e-01,5.733898866481406120e-01,6.079070861016452332e-01
1.088677246571446933e+00,5.502819272352400537e-01,-2.671035962529218488e-01
-3.555016179008383403e-01,5.879620887707469601e-01,-1.017950431150979940e+00
-1.332275917521454245e+00,-1.406817778084892834e-01,5.038841110503825549e-01
-3.638480686357033894e-02,-2.490256526110159740e-01,1.498668643956181157e+00
-8.627548077773150581e-01,-9.338931170477552390e-01,-7.006084548669703205e-01
9.489368433807885417e-01,6.335867084547082140e-01,-2.391690768147251844e-01
-1.231920298719268114e+00,1.254747888663599042e-01,3.775117433016219604e-01
8.631680440451182657e-01,-8.307670741700258210e-01,4.153488996563050595e-01
-4.694185450613750366e-01,-9.773271607709279607e-01,-5.075586764636068338e-02
-3.228211108474597912e-01,-5.192280716692899700e-01,-1.238886309144409115e+00
7.515313882391335687e-01,-6.467663663853221445e-01,5.917965632219606142e-01
8.086951829479022136e-01,5.533469830354210695e-01,-6.398141681902816957e-01
5.232956408907979418e-01,-1.228861012499122690e-01,-9.714042496407315763e-01
-1.280352159096402209e+00,4.608404129136556837e-01,8.842661582320637814e-02
8.122480222854010501e-01,-1.129039596278523572e+00,4.756322746563575177e-03
1.126235202582573702e+00,-5.647936100363238482e-02,-5.358901030998012294e-01
1.258022752679807565e+00,-9.244254227469428375e-02,-3.667581784754463392e-01
1.262257873303952227e+00,5.113821319845978097e-01,1.961583940384451219e-01
4.232367331823490009e-01,-6.513112961321100292e-01,9.585305544826315804e-01
1.384148398356282117e+00,4.547673569274266470e-01,3.258613794147255383e-02
-1.215360237117424358e+00,-6.491478685581597574e-01,-1.605714833803420505e-01
-4.221909099350111827e-01,7.344624632850037527e-01,6.007984332623443890e-01
1.018343148115742558e+00,-8.777220393876805637e-01,2.560056968372988462e-01
-5.584440328174923307e-01,-8.098276962419878044e-01,2.690756931347809688e-01
-5.596540898914778017e-01,-7.426685288916057281e-01,4.020666390403135337e-01
-5.114695064962550275e-02,1.252370158198305994e+00,5.101195575419527062e-01
9.214025770104088409e-01,8.261105902186188787e-02,4.948895218537272545e-01
-5.571204936326421692e-02,-7.339569929684984784e-01,1.119145503329449953e+00
-6.264917647242280729e-01,-8.100693249658302841e-01,1.756355777160527321e-01
1.054246246759580563e+00,6.254815182459961820e-01,-1.344949737535688084e-01
9.686626807913985004e-01,-1.035293182486180186e+00,7.108942240724926143e-02
-1.236035177192277956e+00,-3.984911270815461037e-01,5.300669584834032388e-01
3.668877993100245344e-02,-5.546094577180585850e-01,1.365719249611801356e+00
-1.227099021310906535e+00,-2.572538634997381113e-01,6.610922491824374747e-01
-1.290220505699998466e+00,3.220866705583099732e-01,2.106838988572587446e-01
-2.525343638621092013e-01,-4.791015946322041974e-01,1.592024138932273791e+00
-8.557473242751350018e-01,6.370971422500767423e-01,3.131125426980655435e-01
2.496183070810568116e-01,-1.746663908832866152e-01,1.177241983160893790e+00
-2.849913932130581640e-01,-2.284254235672990574e-01,-1.255533353412710218e+00
-2.741446860970271626e-02,1.120328126294915849e+00,-7.625460757794448596e-02
-3.122012264698079687e-01,2.791413416601883912e-01,-1.123255764348546570e+00
-7.324287507378270112e-02,9.662751247142167266e-01,6.964608329530054265e-01
6.230701904747028008e-01,2.782456576793831404e-01,-1.185898790823795457e+00
-4.104607021294721103e-01,7.519717869120544629e-01,6.029066583287394643e-01
-1.841512610922647342e-01,5.783523559484835541e-01,8.970492494428791153e-01
-3.646780203400897674e-02,-1.048278091341312779e+00,-7.483625493745885704e-01
-4.903640844766699591e-01,9.471194483658347263e-01,-8.191364289957072664e-01
2.011229408675781760e-01,-9.510545420340628109e-01,-6.166472429278934131e-01
-9.274556771655684262e-01,1.114623314437540591e+00,-2.985232893286580147e-01
1.521449811547252118e+00,2.342133206603012330e-01,-1.435318238771994270e-01
4.371633466913955046e-01,-1.178368040375979975e+00,-2.816452259545477732e-01
-1.997606585871196661e-01,9.687351788019857857e-01,6.093827121135124703e-01
7.697105899282196129e-01,8.285428752902955774e-01,7.678131953688709377e-01
-5.219049834661849095e-04,6.897338871062276278e-01,1.001926304919483979e+00
-8.749495826957507383e-01,-9.367872163832757781e-01,-5.219062440600741315e-01
4.026520981756577244e-01,5.742154615504200255e-01,-1.141752433985116832e+00
-6.469956389837425714e-01,2.272689230461374943e-01,7.677510376506422318e-01
8.253175203394396142e-01,-6.709654357989702778e-01,-3.384885374692316318e-01
1.653918831177046966e-01,-9.273876568649175312e-01,8.870536753214557368e-01
-7.226379705013757926e-01,6.494002263270833020e-02,8.232626511160481275e-01
-7.217637671491528017e-02,-8.075584324668566572e-01,-9.317700088152066629e-01
-1.425675823236672191e+00,-3.627100038633619961e-01,3.471440982590103808e-01
-1.026572595999176274e+00,8.722595179649312858e-01,1.726615011750597811e-02
1.502462634017897591e-01,-2.005478102342917179e-01,-1.219407652483702975e+00
2.615486906021950025e-02,-4.852998029859351692e-01,-1.093892012596504593e+00
-4.596374310477625014e-01,1.326215510148595900e-01,-9.664182302993918894e-01
-2.230323897294157753e-01,2.861470453933750435e-01,1.096233450591298508e+00
-4.422311181690769533e-01,1.366075778604115110e+00,-6.933181546748396623e-03
1.315549548785882317e-01,2.490194451519149033e-01,-1.568955346948825991e+00
1.844208505617955240e-01,1.050380982663684737e+00,-7.545782758539613944e-02
-8.434430563046245721e-01,5.226061902647762686e-02,-5.703924320448356955e-01
-5.793651568788494854e-01,1.102810207597288983e+00,-6.719164922984603994e-01
3.438487743464577195e-01,4.838534558176251221e-01,-1.457661539022617081e+00
8.417785669211292898e-01,4.297995203665636033e-01,-9.605708952813981627e-01
3.019806338172908444e-01,4.308696304794858434e-01,-1.551222106122034816e+00
4.556077909188574471e-01,-1.253335154168751853e+00,2.728980549450468751e-01
7.987231559366968492e-01,-1.124438218731447003e+00,-8.722999559329470270e-03
-5.593484229783495243e-01,-1.879079745522047595e-01,1.145760556873776759e+00
5.393289426266162367e-02,3.381289831130988022e-01,-1.492532560696129051e+00
9.973690419701172205e-01,1.231970228377092386e-01,-7.647284886538879833e-01
-4.748838732223360504e-01,-1.070696806283615743e+00,-3.837903918712301521e-01
-7.696528751893995102e-01,6.774974424403094053e-01,3.434580987132083707e-01
1.127122369686553716e-01,9.986172642853324843e-01,8.373534799020717623e-01
1.335717081068330092e+00,1.156166529824718264e-01,5.177463290819099562e-02
-5.249336658403557648e-02,8.046051145764641088e-01,-1.032847078153991349e+00
2.901080260022382284e-01,-5.428467457558070475e-01,1.105379682817345888e+00
1.395677688227023650e+00,3.801963719976174105e-01,-3.926553263393748883e-01
-1.094873426350662537e+00,-7.392837370001245079e-01,-2.670734088842254828e-01
-8.662266024004625642e-01,-1.870248636930748470e-02,-5.598557472850985706e-01
3.413689710177711389e-01,-1.019141285447510814e+00,-4.350692310191510703e-01
-2.280464460967011886e-01,-5.117184202340602228e-01,1.499235656279855000e+00
9.300758386112469855e-01,5.848469211615846541e-01,-3.694015354101291559e-01
1.023787520061638229e-01,-8.602216604430370506e-01,9.897673612429678247e-01
-7.078426929199972406e-01,-7.219699420821366065e-01,2.913202986736829203e-01
-1.510424386680064179e+00,-3.514966246109204051e-01,3.176079530461948242e-01
-6.139275445282587063e-01,1.967168450873236357e-02,-8.089344388193521196e-01
-2.015179512357384017e-01,-1.097080254618886475e+00,-1.226464169239710050e-01
-6.287186630840761736e-02,9.796864455330182020e-01,-6.868536296282047315e-01
-6.172707440098466058e-01,1.404570953093145391e+00,-1.027175520413013132e-01
6.023775133933715331e-01,6.011668356995291118e-01,-8.044167247949974842e-01
-3.565569880129962899e-01,-9.624321511824400766e-01,-1.045578762796820493e+00
6.322326457160162838e-02,2.884082149090875236e-01,1.330493500233872251e+00
2.246028585997399130e-01,8.624549800080691941e-01,-5.063974018928376619e-01
-6.123385138043875298e-01,-6.901015392763517609e-01,5.483637491362169936e-01
6.421122587192693576e-01,9.421674803718693703e-01,2.191629750864613757e-01
-2.148135293940867663e-01,6.902473297012776676e-01,8.271171683175388978e-01
9.581204932842490862e-01,-8.301208812227445222e-01,-1.359299329835900183e-01
-2.986551306961849339e-01,1.457721385672829661e-01,1.122229369436475110e+00
3.474745229462016249e-01,-5.105920995575981003e-01,-8.477958164200044555e-01
7.841812014262948827e-01,1.972072321281111429e-01,6.518867778720708328e-01
2.125822101691463364e-02,-7.647847713091088240e-01,-9.142998791779799461e-01
3.610377817285608665e-02,8.682532401873352956e-01,-7.951002587621426310e-01
6.520494731801643740e-01,1.108919837364209071e+00,7.406112127332507011e-01
1.086254668053686423e+00,-6.834561032243209322e-01,-1.265778574818369473e-01
-4.516845115459867666e-01,1.107767401801671214e+00,3.195271284039437609e-01
-5.096054444066351330e-01,-9.488246784511756848e-01,-1.075698538890404343e+00
-7.957730953029185095e-01,1.997669290204139303e-01,6.788907447981042953e-01
5.144707087302422543e-01,-2.441029158134495058e-01,-8.842708663108898026e-01
7.569229611168786231e-01,-1.326839402223857212e+00,4.452228955335201244e-01
6.331820543315190841e-01,-9.927326172137074245e-01,-2.463435926649265306e-01
-1.226997284616336614e+00,-3.204455218274525063e-01,-2.225470195181018795e-01
-5.404194348529874903e-01,-1.281177644651943226e-01,1.135622481670060635e+00
2.155078130410166271e-01,-4.721728411750649584e-02,1.251153180662781583e+00
8.950900798832934768e-01,1.286793436161512427e-01,5.349258038839960205e-01
5.760184624022408606e-01,9.220392952087380634e-01,8.245463124819368828e-02
9.217918252880360486e-01,-3.189372340649856974e-01,-4.845066810028769155e-01
7.891493272054970198e-01,2.260491942402167165e-01,-1.002284262889392874e+00
8.612183980263458938e-02,6.164991894432938491e-01,1.105537794056379530e+00
-1.080306940263883408e+00,-1.122038299750977852e-01,7.001628170129090556e-01
-8.591005409365298773e-01,1.033833498412910945e+00,-4.210234672272457623e-01
4.776361731323968685e-01,-5.960426477496464370e-01,-6.600497464914345525e-01
2.954563642514556054e-01,8.626785426324525830e-01,1.077566518476402502e+00
1.419113287196831275e+00,3.581732086234757917e-01,-2.282092438074361657e-02
6.186923952739940835e-02,1.237019913872960064e+00,2.833802217871999596e-01
-5.781974986408382478e-01,6.233190931213923314e-01,-7.560001079964454584e-01
1.197120584149414135e+00,6.353785095316899501e-01,6.181144473812297258e-02
8.721171848387804237e-01,-1.001641784368417332e+00,-3.450140849556846551e-02
-4.777661422107513101e-01,-8.029391294748697838e-01,3.996828881959210156e-01
3.857963441203958177e-01,7.994746194742033962e-01,1.172299805363225200e+00
-1.641936110509373270e-01,3.874358334512991164e-01,-1.258631800080467045e+00
-6.223528282138523354e-02,3.304813295899883818e-01,1.195654231786934307e+00
1.033490973242272126e+00,1.115727114936512082e-02,3.386026492578839697e-01
3.156649265438489227e-01,4.404749693787214926e-01,-1.555325987848880320e+00
4.736388942685840764e-01,5.919945996622952844e-01,-9.507636176742976231e-01
-1.223626337792490526e+00,-1.474941057600136496e-01,-1.674333811079254108e-01
1.590846569213692774e-01,-6.842520093822407334e-01,1.213718956113415182e+00
-6.411438214154596693e-01,-1.085523980755943807e+00,-9.508366751061881894e-01
1.293603076564724397e+00,-5.272631276480745921e-01,-6.506110716454163723e-02
-1.381045890555459232e+00,-2.666004529961966130e-01,5.530646240747865150e-01
-8.965418974149130804e-01,1.021572823686824671e+00,-3.296338651186017099e-01
-4.391183535197800136e-01,-6.341940470937391661e-01,-1.125954206882464170e+00
-8.177263746532740241e-01,-3.531627697185223402e-01,-6.586625900501626996e-01
-2.272275016757028532e-01,-3.988419176568763769e-01,-1.297643684781164986e+00
-2.087569735398182580e-01,2.558789138523686058e-01,-1.219850768463457413e+00
9.092002053973773368e-01,-1.071460786743019700e+00,3.420607921187697187e-01
6.068783076530663845e-01,-2.266695171608595072e-01,7.910410889596674044e-01
2.274305949488292511e-01,1.017056885371490083e+00,-1.229599181941004038e-01
-7.484043897905594545e-01,-8.924748032367485484e-01,-2.130396371262968658e-01
-2.126254185575002231e-01,-1.097092920255886783e+00,-8.334983976098688796e-01
4.894676065673214671e-01,9.050406854911876575e-01,-7.554404700835305742e-02
1.145017473000973673e+00,2.492637453927774305e-01,-7.178347477050850411e-01
-5.150396207882345090e-01,-1.254334229980488047e+00,-9.267643480904308451e-01
-6.925124628754218969e-01,1.243523776786658042e+00,-5.140746952186615593e-01
8.540068941369686195e-01,-1.116898889822546703e+00,3.958017879290976621e-02
4.720593021937692368e-01,-1.156392525381479963e+00,-2.562558341828867770e-01
-5.455416788583737908e-01,1.305166453624378775e+00,9.959151429919767262e-02
-9.353888821513641760e-01,1.166101859493647031e-02,-4.524424109768847568e-01
-2.163516208193003165e-01,-7.399010802466985393e-01,8.395190165296633200e-01
6.832053671126705474e-01,-7.567538846189016954e-01,-3.707325946111305059e-01
6.603118810237340597e-01,7.282388160323640669e-01,-3.225009446821768266e-01
2.478534865617008365e-01,-6.636570444672397207e-01,1.129820632848713258e+00
1.191653951727108390e-01,-9.133898086314820031e-01,-7.103824029462167955e-01
-7.895947720982207096e-01,6.279273269497183119e-01,-5.439160400797606876e-01
-6.554865265273202013e-02,8.993752789363986810e-01,-8.030556993875348493e-01
7.722587073806934654e-01,-1.340449007208776244e+00,1.085076909480902352e-01
5.520782049276644621e-01,-1.381790091218477734e-01,8.831282524126233824e-01
-5.400144864212544915e-01,1.134412349050944124e+00,1.934038925984176427e-01
-5.234366612178076306e-02,1.134026415225146911e+00,6.089783308937125605e-01
1.899235720522904347e-01,1.303940140502237055e+00,6.579777183722202993e-01
-1.244444676017087081e+00,-5.118838394473296249e-01,2.430839621317718580e-01
-7.815734066582699091e-01,-9.481532584517814444e-01,-7.766616625804143581e-01
-1.953795175647100313e-01,3.610390675723145759e-01,-1.215265830402068481e+00
-1.762161465193292920e-01,-8.742417280104768373e-01,5.094858757560987161e-01
-6.156526889123868918e-01,-5.743425139676987534e-01,-9.251907903252032384e-01
-1.286948041058759040e+00,-6.071266263973207344e-01,-1.618059533208751899e-01
