-9.690373964212239954e-01,-6.311252840514842699e-01,-1.636642556068541310e-01
4.468065944420577806e-01,9.594361147427871161e-01,4.553844307862422447e-01
-3.457789231286441667e-01,7.744043864370271368e-01,9.381311993492426060e-01
1.172129221845007174e-01,1.087208349502373439e+00,-1.734193200821278480e-01
-1.267929897447388710e+00,-7.020355282311377954e-01,2.790127588306476336e-01
3.732640628859814624e-01,-1.114290730468011414e+00,-3.727876598751127257e-02
3.131387566354428831e-01,-1.013877885020379788e+00,-8.747588108515077510e-01
9.916872049301924674e-01,5.452546406297461568e-01,-5.665203142375980772e-01
3.860015110538052574e-01,1.268645847887795108e+00,8.130612318182049714e-02
-2.808693492944612791e-01,1.748042027901063888e-01,-1.450767152359764278e+00
7.119417037915966029e-01,6.895346083112039448e-01,3.662779110233197466e-01
-3.752264311278876163e-01,-8.580895723283714638e-01,-5.938162291592341546e-01
-2.263441647861546557e-01,-1.214289862024889866e+00,-4.404313261354361742e-01
-1.129122505146882949e+00,2.862743371494633898e-02,1.891305537318170860e-01
1.056409047865651152e+00,8.164118020009100696e-02,-3.280554072814300115e-01
4.077351575969044850e-01,-1.071099678941523026e+00,3.179500860946928714e-02
-1.250704758435916331e+00,7.245520302834631554e-01,-3.705924171705546888e-01
-9.120819955310308647e-01,-7.968594362354695093e-01,7.568194252751784257e-01
-9.256075094013918036e-01,-2.748108852816755765e-01,-4.739092963958708160e-01
-9.166827001556343557e-01,5.447477045329860434e-01,-7.892705097080680021e-01
-9.197507319291183814e-01,2.327916838553872325e-01,4.062914893121036264e-01
-7.794177317135165817e-01,5.292905258500062438e-01,5.168763748744891195e-01
-1.165925714498464161e-01,-2.731552575307846231e-01,-1.277682894769894828e+00
-7.285405424702645627e-01,1.161792355969591739e+00,2.403057303455956029e-01
-5.105804053109904705e-01,6.518737519789746804e-01,7.503316013235974413e-01
-8.306151880800806131e-01,-2.403827344159716606e-01,6.837974712502862262e-01
-3.169975145577159648e-01,5.806620908274167103e-01,1.049852330535640865e+00
-5.228596993696368322e-01,-4.492573217679747266e-01,-7.610121189103511430e-01
8.970067095929312728e-01,-3.326610169126427152e-01,-4.152688826541559575e-01
-6.040910022642714816e-01,1.675646344858459647e-01,8.626232262427007136e-01
-5.393722855232409019e-01,7.418592572275309882e-01,7.501082586165105370e-01
9.352562968848440184e-01,-2.110305158293591665e-01,8.207610720137145099e-01
-8.247504913079968247e-01,-1.651999062661887729e-01,6.532036173736631701e-01
-2.664599649478390786e-01,-6.495489229554689548e-01,-8.617016534820226559e-01
9.662946879707133840e-01,6.586290080791374901e-01,-6.320437644327696614e-01
1.234914211525623084e+00,4.210813564007432341e-01,-2.291362651891524493e-01
-5.388755357650025779e-01,-4.795386182120810470e-01,1.104734484604322775e+00
-6.291524792354105111e-01,-2.295001522680375217e-01,-8.065767924399999123e-01
-6.209894550667837132e-01,-1.278914299595995452e+00,5.238540332175557757e-03
-1.233846864491177087e+00,-4.532032450070855312e-01,2.085906482483734781e-01
-4.030267614333313819e-01,-7.645006182383022875e-01,8.521821157302224004e-01
6.394258950741860126e-01,8.833028988189647324e-01,3.023029979170035464e-01
2.617251724882077024e-01,5.418754402098584916e-02,-1.301370670078628944e+00
1.559266049715579971e-01,-6.186648274122740210e-01,9.216739625664590596e-01
6.106586081201188509e-01,5.890255276990166156e-01,5.486466104533692656e-01
1.971145060490120671e-01,-1.393336497066664181e+00,-4.539965201841916209e-01
1.246081281374923577e+00,6.492360256230994553e-02,3.156925477901580956e-01
-1.302617985311943727e+00,3.617924816595734505e-01,-1.080662240353214426e-01
1.362644811496173114e-01,-1.070223018215849864e+00,9.103923112623123204e-02
6.900941163059428618e-01,-1.720386743224567583e-01,-7.282031108762110350e-01
-7.743202942534196387e-01,-1.038741073354454425e+00,4.626557791308774648e-01
-1.399111868072238307e+00,1.081165754789340377e-01,-2.623585682443002054e-01
-7.140768726125518162e-01,-6.660944092283144213e-01,-3.968791553955857698e-01
-1.542647505549377962e-01,9.815264357703615827e-01,1.029340378326860872e+00
5.250548776541635876e-01,-1.012295310718309693e+00,-6.241803834200487788e-01
-3.366159515333961294e-01,-9.772663484640210507e-01,4.426710882318810047e-01
-5.160490956373208205e-01,6.584830341625307337e-01,-6.813477328868061678e-01
-7.437638960752129824e-01,4.868938896556899154e-01,5.552023478156071778e-01
-7.114261272455195684e-01,2.180323840032575428e-02,-8.993439649065391173e-01
1.500971939740040284e+00,-3.682590323374697605e-01,3.636952853533648722e-01
1.158945750237585504e+00,5.330895134852899897e-01,3.779660748500573292e-02
9.036159613884565955e-02,1.990342828667542585e-01,-1.577593715056174739e+00
6.179168653031140712e-01,6.331124624385781052e-02,-8.932498497571661478e-01
-3.589009097030091411e-01,1.145792948076701956e+00,8.398714975829280061e-01
-6.562531812029185341e-01,4.008246598127310212e-01,6.465177969762130328e-01
3.628975799448148076e-01,1.908156657855007432e-01,-1.208202127907462620e+00
-5.523007853347245977e-01,1.140110553025492912e+00,1.588697614849779727e-01
-9.560961669112321148e-01,-7.124621036461545875e-01,6.492394735282479568e-01
-4.612428089258392705e-02,-8.652715500247022407e-01,5.539220580409822681e-01
-1.344954773887167887e+00,2.563350800991489598e-01,-1.335460473408305593e-01
3.339011282112135937e-01,-4.527402606299588822e-02,-1.213331878502053929e+00
-1.000739018560856008e+00,4.575925258708821164e-01,-8.915306992544806963e-01
-1.947447808830327087e-01,1.419693744503074395e+00,7.444784660412441246e-01
9.205384884405575230e-01,1.097945260163571524e+00,-1.472830332115397378e-01
6.487894837684721194e-01,6.675265700194435992e-01,-1.036603970922022500e+00
8.874733060343690250e-01,-8.223355641500547097e-01,-2.642250818755212949e-01
-1.188064220609714727e+00,2.060768538830755059e-01,-5.811139504091304975e-01
-4.420226637123452762e-01,1.390290540488428039e+00,5.917945757814375707e-01
9.408256799899404887e-01,-7.387632643900160501e-02,7.461508294035351652e-01
3.799565617775523263e-01,1.214901450271642425e+00,-4.488763120877263535e-02
-1.477094877646264681e+00,4.326854417888847948e-01,-4.448241376000618419e-01
6.823801420632500392e-01,-9.605562547781093530e-01,7.039079860401344091e-02
1.125800257682571415e+00,3.964566332248354308e-01,1.591314675951565061e-01
4.304537022720567596e-01,2.505974268432190066e-01,9.592571593212793069e-01
-3.691643169594741036e-01,7.898362756066790169e-01,9.453968549452280712e-01
-3.417332771285752080e-01,5.536973967707924105e-02,1.179048390791267886e+00
-3.748986905814336024e-01,-5.697598142876963978e-01,1.190513154866143841e+00
2.109694978039562130e-01,-5.689210701780879065e-01,-1.178044131059429622e+00
-5.953410923687519896e-01,8.429890505846014959e-01,-3.886647506158008025e-01
-1.092554509517639660e+00,-5.276837997879973985e-01,4.351764242352098577e-01
-6.518223607041687684e-01,-2.836487145474568816e-01,-7.208684978029473722e-01
8.502858883380673971e-01,-8.332209201245323049e-01,2.710870602121688289e-01
1.265839715203882720e+00,5.956280179269111130e-01,-9.764928936568093021e-02
-1.066545561490683802e+00,-6.520328616140259881e-02,-4.992290546031417087e-01
3.648754767970803781e-01,1.039088165877458891e+00,-3.163086574651143845e-01
1.258227539912204040e+00,6.630985822805440799e-01,-2.626114207030088576e-01
6.937965421864019655e-01,3.734860414459124089e-01,5.962288318021408129e-01
1.256143614176848944e+00,-5.001302211394679544e-03,3.599673465749863022e-01
2.557325902962691577e-01,-8.531856082265745211e-01,4.585843466704068727e-01
-5.945547621814889494e-01,4.751070019305970310e-02,-1.034867568412085603e+00
8.810963035604596483e-01,7.112292112269953392e-01,-7.414101595098903097e-01
9.171785306540171379e-02,3.046544461939934001e-01,-1.581486256208902708e+00
3.848914626073162704e-01,1.791218436248400436e-01,-1.213311608786526108e+00
1.388016527431007230e+00,-1.027800303091599837e-01,3.221115694904798099e-01
4.465194669553818607e-01,9.124401376512972228e-02,-1.066146819167651971e+00
-7.111971351622589088e-01,3.170100371179883081e-01,6.469844107436307779e-01
-6.986372902916295757e-01,-1.839671766601252145e-01,-7.769141571038485905e-01
-1.320032186543181218e+00,-1.447126149775872783e-01,-1.670521055849838177e-01
-8.704830815048657522e-01,4.972140776190810962e-01,3.856832972534707249e-01
2.996851031753155481e-01,-1.194135203128912526e+00,-8.745997321573660832e-01
-3.690240920383581757e-01,9.177264509563005657e-01,-3.088349001270266903e-01
-1.380898371767155519e-01,3.298945548805445327e-01,-1.432739078505343988e+00
-6.428880061348386521e-01,1.128785740471538679e+00,1.665302616258942103e-01
-1.100480979507701296e+00,-4.537585496502229976e-01,-1.435961887920166602e-01
-7.314472354083316752e-01,-4.922629994400257170e-01,8.780285986048150804e-01
-2.441122339264169827e-01,8.990516810887092536e-01,-3.959579118428360744e-01
2.090636144295437426e-01,-6.955454350053685841e-01,7.665030286267729975e-01
-3.057472861542550047e-01,-8.620275989917708381e-01,-6.461014609923096952e-01
-8.353389984156350812e-01,6.438106638121443570e-01,3.844131135296940394e-01
7.544361155104547523e-01,-1.017190743443557199e+00,-3.715446854285947564e-01
2.244924220247263014e-02,-2.647954420510161277e-01,1.612738137285563367e+00
1.077115145846826882e+00,1.105482213119927115e+00,-4.895801120057928224e-01
-5.381595866215423962e-01,-1.145195340734384226e+00,-2.016640751869121784e-01
6.035876419623755762e-01,-1.007289398749755760e+00,3.578685232079884676e-02
-8.672628632759731282e-01,-9.428706408062412780e-01,7.252331207205616748e-01
2.409831817905876972e-01,8.700369776078030748e-01,-5.927685395655513112e-01
-4.200248838408774388e-01,-1.837787332160189559e-03,-1.192231552113016235e+00
-2.238185256988030336e-01,-5.022087774695797036e-01,1.261681033581736111e+00
4.968909824356158023e-01,-1.039350023672658940e+00,-6.801216245145889072e-01
-7.568217291603898111e-01,1.003135038875188512e+00,2.226156815968056632e-02
1.205806681023103843e+00,3.286018404259621328e-01,1.493625827125270034e-01
1.357879994302269910e+00,-1.162767248085466304e-01,3.701293682225451076e-01
-9.271667069394408101e-01,9.658966957493712036e-01,-4.120632648397354325e-02
-5.281881016388085825e-01,-8.809627366019249228e-01,-4.050055161854113628e-01
-5.621175002335234705e-01,-4.238893198964931441e-01,1.068611230237678900e+00
1.012788620987984833e+00,6.158915996982488039e-01,1.276111329284748408e-01
1.225961558192666806e-01,1.115810726673192255e+00,6.716747658279256239e-01
-4.082583085867975137e-01,6.207141468778365478e-01,-8.109223696152632055e-01
-1.346770422743159557e-01,9.668662764480625560e-01,9.877250971047099037e-01
-4.469220542214046299e-01,-1.122431328977712361e+00,2.010699601707680861e-01
4.996725127717854126e-03,1.022114000712452064e+00,-2.826975279520309026e-01
-5.062027860880778940e-01,1.086843665685934823e+00,4.585393187782398072e-02
1.108657181343368103e+00,-1.888465564063714075e-01,-2.094001601128009649e-01
2.146038806361627582e-01,-7.638036677002776331e-01,6.208685765510046917e-01
9.157507764230392311e-02,-1.399062942821168165e-01,1.624816422092260959e+00
-8.207742287020591831e-01,1.102455447750106510e+00,1.659233545298398615e-01
-7.311057710682334898e-01,-2.111000165452014410e-01,-6.830376293158710865e-01
-1.415341802307476249e-01,1.043297769173339384e+00,-1.708264942047231227e-01
-6.805169032582474298e-01,-9.438061075449774018e-01,-1.946211764969169311e-01
3.737706338979566723e-01,-7.964712747794256975e-01,5.008208875895165946e-01
-2.261351054537442604e-02,6.081686641532711990e-01,-9.892379468189549385e-01
1.470801436801410178e+00,-3.590432214051408333e-01,4.085182967101304019e-01
-6.749535437490323808e-01,7.127319509546210519e-01,-5.450460656619895428e-01
1.028078013127065704e+00,5.710659395074322298e-01,-5.265091663486871632e-01
8.053967052788352232e-01,2.393063440322140412e-01,-6.903594399740531351e-01
1.180865991791355096e+00,6.778203187039776312e-01,-3.549063771666046141e-01
-2.595623976807703848e-01,1.653479620307257147e-01,-1.486415618497311630e+00
-1.259365604628825963e-01,1.242338285936207765e+00,8.049683982208880595e-01
-1.298980434440750731e+00,1.618872134273393049e-01,-4.436269610251539208e-01
-7.532581493770356129e-01,-2.261106674767044133e-01,7.683712055232791993e-01
-3.938541893301242269e-01,-5.677626341980188673e-01,1.192787300416673357e+00
-9.534361680883117751e-01,4.187872998339489672e-01,-9.466830471661417112e-01
4.477887193016825140e-01,-6.685669019048851025e-01,7.401996157122293640e-01
5.154680907003675872e-01,-5.141333731324545520e-01,9.683814393656028363e-01
1.182633416319731401e+00,9.695773084109097217e-01,-4.569903877224130717e-01
4.856817600047423356e-01,3.876547875231809992e-01,8.047680891592002839e-01
-3.587044147606980316e-01,-7.640792397129095859e-01,8.336421985027290260e-01
-1.740167858767736331e-01,-2.814005078647262015e-01,-1.243630700844547077e+00
-1.010572982191415337e+00,7.493988656548891125e-01,1.323508170568688525e-01
8.355388464736814846e-01,-6.858339979951270926e-02,8.292827023025346467e-01
-3.579680115172383936e-01,1.175059474927060421e+00,8.044871217072264713e-01
5.251997486726396325e-01,5.160436295761916536e-01,-1.125631671898153385e+00
1.042127277474888203e+00,6.398949707804487685e-01,-5.383658726926984217e-01
5.858310836895377349e-01,8.734787348324503098e-01,3.364720777303428778e-01
4.710352702511395873e-02,-1.465190520931321794e-01,1.674984659197652936e+00
4.508614587505978544e-01,-6.014415888836310842e-01,8.387842755857707333e-01
1.173258565930582753e+00,9.559577559350699305e-01,-2.882968075779511752e-01
2.620172789155302273e-01,-7.847924207205714264e-01,5.443433304508092929e-01
-6.507073710300930180e-01,6.461924534040797141e-01,6.327264908351426520e-01
-8.577685234992793450e-01,-8.038928823253617129e-01,8.008198761683509304e-01
3.566306975426949410e-01,9.031206427941739223e-01,5.587007740165166325e-01
-1.156759167889147566e+00,-4.947832493452871683e-01,3.473041271674059405e-01
-1.053578760821776150e+00,1.183875969797445610e-01,-6.326645946454848568e-01
1.198600295249205638e+00,6.775601321485992257e-01,-3.441862716537688049e-01
-9.898036911184555642e-01,-3.965828759608734932e-01,-3.213277505607850526e-01
3.016291152391098809e-02,-4.477656450266422894e-01,-1.291699699667474999e+00
7.723660328647683482e-01,-7.683257016667408013e-02,-6.452669293658648275e-01
-4.640118953162742366e-01,-1.843344063572154370e-02,1.049414762743640539e+00
3.922164868337151278e-01,-7.909755089968317776e-01,5.414135679902916110e-01
-1.989805276919691945e-01,-1.087574607206123201e+00,-5.778611226905627785e-01
-5.738211175138578923e-01,9.645016484700442705e-01,-1.165104912060696690e-01
-1.092741368114049205e+00,8.956583054779591047e-01,1.286705303745015044e-02
-9.111712703172055727e-01,-2.091855308516640810e-01,-5.308613872212361029e-01
1.050559441842123132e+00,7.234215703105618678e-01,-5.569312462982118905e-01
2.080397795941045236e-01,1.373785318736499228e+00,2.965276940737998079e-01
-5.414208392355825822e-02,-7.220791427887415237e-01,8.037069669472768352e-01
-8.637027467458818775e-01,8.011590862771083010e-01,3.127418780625968453e-01
3.347967863341712591e-01,-3.608397745554812325e-02,-1.224731352430174169e+00
-4.861122909499339673e-01,1.257260779654034710e+00,3.521009372466594733e-01
-5.362650988501526106e-01,7.497713170081875544e-01,-5.339797537731946209e-01
6.042032034793808348e-01,1.035604362398879319e+00,-4.171214450016666464e-01
-9.185626199012655313e-01,-9.483130867667306507e-01,7.175707671573658963e-01
6.307735811225687605e-01,-8.661372281333834522e-01,-5.502717548819621163e-01
2.777752523866048318e-01,-1.337354652072594297e+00,-4.106394001669588789e-01
-5.932457299736176859e-01,8.865653705194243006e-01,-2.948620479410046791e-01
9.880619897231094351e-01,-4.300519422605988407e-01,9.541715659347432821e-01
-5.378130689275205656e-01,-1.275718718500710613e+00,-3.282363994191550560e-02
-3.766036753341930887e-01,8.959950929267531672e-01,-3.542759615595460487e-01
-1.292475683245297935e+00,-4.922618671849747218e-01,1.763909105869937155e-01
-3.407893271368045984e-01,1.187456931289712303e+00,8.304615024641311960e-01
3.108791496180465797e-01,-1.286123035370841716e+00,-8.366493535426593464e-01
-1.608760582034300668e-01,-8.826201228751379135e-01,-7.730697540266259216e-01
-9.481330992244255684e-01,-9.634832080206114924e-01,9.633097977795680722e-02
-1.506519537966491962e-01,-4.268715575841072196e-01,1.365964770818119733e+00
-3.755603123325700343e-01,6.166531005022387601e-01,-8.597572986752187729e-01
-6.373263690861888930e-01,-7.163912874706755973e-01,-4.404074261174998339e-01
1.713115929096953871e-01,-1.161470131876811696e+00,-7.417483175233462178e-02
-3.904281671609692861e-01,-9.921945307513552192e-01,4.498914316570160055e-01
7.530437905376847763e-01,6.261925274333984826e-01,-9.220944351138217199e-01
-8.017699833840328250e-01,7.734427714115165164e-01,-4.158180596980052268e-01
8.076983380672314583e-01,-6.295366315021060366e-01,-4.153165262152204162e-01
-1.412755791932343019e+00,4.432693804050479303e-01,-2.588555519358513024e-01
1.053104261666708341e+00,8.971026361947715966e-01,-1.382710341910519114e-01
1.303068662790601628e+00,-5.758936419399612872e-01,5.850262495089599835e-01
-4.853210533298380480e-01,9.541396040630061026e-02,1.021429000775068596e+00
1.235298309845187292e+00,9.660917564347676345e-01,-3.896439758075734838e-01
-1.391708602320322452e+00,8.419661416965189271e-02,-1.692901412818921258e-01
-2.163328623460143707e-01,-1.764547517833913726e-01,-1.231993980744409800e+00
-1.375705530062478754e+00,-1.353623859969925736e-01,-1.280491498882571633e-01
-1.323028571478249260e+00,4.276783270374265311e-01,-1.199978870436352735e-01
-7.609333488001936985e-01,-3.326932901220265304e-01,-5.913016933828071364e-01
4.195676997221668425e-01,-6.838414750231024408e-01,6.494712717824376869e-01
1.118741543910413361e+00,-2.253010717714527544e-01,-1.683565479576205337e-01
-6.630552582634715586e-01,7.791929527400197619e-01,5.585828554980066807e-01
-2.537326551036169220e-01,-9.017707998947943615e-01,5.600009270926938898e-01
2.100608387262674626e-01,-7.324159724348110190e-02,-1.346451777969713381e+00
1.099148673742798843e-01,1.294849531998850889e+00,1.812171296724181258e-01
-1.902478482066757570e-01,-1.226208641285993384e+00,-4.710824839401422937e-01
-6.996388786216369837e-01,-8.486933204186899449e-01,8.262707041830048560e-01
4.921362632246883417e-01,-1.212459580387572178e+00,-2.466134189015571909e-01
1.039039400095427279e+00,5.055733708157782447e-01,1.978644707986306761e-01
2.343583028100698351e-01,-1.365056254557403204e+00,-4.410559168824298992e-01
-1.475397209235338736e-01,-1.256519218051671771e+00,-1.572196987262877432e-01
-5.728403278924671937e-01,-5.488340173887424900e-01,-6.350277282023324421e-01
-1.399848229620475726e+00,2.955050146508782505e-01,-1.933610549392117961e-01
1.692879816822658035e-01,-4.737641071254441449e-01,-1.255948038195783045e+00
-8.989671140328114873e-01,-3.570477550913349063e-01,6.377111921183540311e-01
-7.890741763021508204e-01,-1.238320316048746816e+00,1.314188388839026278e-01
8.600041755896514761e-01,2.323628567680103840e-01,5.514952975044867811e-01
5.632793680282408566e-01,-1.282748290476415365e+00,-4.107240412109046113e-01
5.093860027363423804e-01,-6.384627872367527601e-01,-8.059705749974787059e-01
-7.473898570095283134e-01,7.374941056633994851e-02,-9.223983735305536502e-01
-5.896135726569139424e-01,-1.084648491869744102e+00,3.183707505860593479e-01
-4.416335662338075063e-02,-1.089603359262317328e+00,-7.437814032791972840e-01
-6.965051028411083367e-01,-3.663555141051544339e-01,8.634165128326539707e-01
6.042661570311885777e-02,1.750060643556566042e-01,-1.599957865748008023e+00
5.978934737848791148e-01,-6.712003436652054233e-01,6.658088793987871901e-01
-3.526041635377067385e-01,1.211761796398587832e+00,8.480029449066573966e-01
-1.343062206243944345e+00,1.772569785320356472e-01,-1.122560962759510672e-01
1.714999382125543814e-01,6.318077135208046702e-01,-1.004739771355676492e+00
1.239902057762432896e+00,-1.680627324438783710e-01,-2.508980161689715327e-02
-3.999684995312391411e-01,8.491513475863451399e-01,8.354317734108460680e-01
-6.157962033027394311e-01,-1.268511177232761078e+00,-2.459971173446073855e-02
8.745384311199263516e-01,-9.356009284741673149e-01,8.218338770904391744e-02
-1.104338571814325487e+00,-6.729126433863530377e-01,4.915998270236427992e-01
1.526227610114276600e-01,-2.941062057023136056e-01,1.477482279663023368e+00
-1.185082035718054261e+00,5.215829333420380909e-01,2.576535553791976796e-02
-4.800653849073404089e-01,-9.410356182705531189e-03,1.035604194610213691e+00
-1.305273919479117417e-01,5.248376263833732791e-01,-1.116211148239194983e+00
-1.858120512501045263e-01,-1.275640050235988365e+00,-1.066907798491652376e-01
8.206180724690244066e-01,-7.600871348185878063e-01,4.524702844906781651e-01
5.369370546281065915e-01,1.158673107517741663e+00,2.006704435449876145e-01
2.485903129724506000e-01,-8.093891416779500081e-02,-1.288805037147611632e+00
-1.062657790174058592e+00,3.349157678447982067e-01,2.053399352403620093e-01
1.265148309635399704e+00,-4.795851077863354517e-01,6.965116380077265301e-01
-6.495245662705702028e-01,-1.259792018637716726e+00,-1.088444607086617999e-02
-2.247189425846215505e-01,-4.615547271983244659e-01,-1.027969705767084463e+00
-1.018445701292224781e+00,-4.334538371226167031e-01,-2.195882576240248130e-01
8.008952863411987755e-01,-1.079647471932588587e+00,-3.028451710255974372e-01
-3.389745159620750070e-01,5.485538852012405986e-01,1.011335634299823205e+00
-1.529606323190465522e-01,-4.366852369624300012e-01,1.360029743071431652e+00
1.657088670084468363e-01,1.036388801185017083e+00,-2.899949937397011124e-01
-8.291905370398992003e-01,-1.134844460859854687e+00,9.180558648671696687e-02
6.141206923099609138e-01,-1.118220862460266751e+00,-4.879687784424708852e-01
-9.743802858704128100e-01,9.242309686633184973e-02,-7.015504747246790185e-01
5.701822971465662082e-01,1.057008535924702120e+00,2.403451755961925895e-01
8.483294519847481840e-01,7.148245613630904716e-01,-8.035205939733823799e-01
-4.494579584338543876e-01,-1.180021247325325318e+00,-2.724366764586677592e-01
-5.299644281843577387e-01,9.511066361981559414e-01,-2.157675582975046857e-01
2.527446636412633563e-02,8.922246774320179430e-01,-4.722490458834331384e-01
-8.300062750842529535e-01,-1.077698989430670329e+00,3.615930033562610862e-02
-8.553044576988788616e-01,-1.035296734773389682e+00,1.778891988771409693e-02
-1.067812917489560753e+00,5.827937799287166015e-03,-5.439893382694960255e-01
-1.372688123385539249e+00,5.948238980650812913e-01,-5.370988828172672536e-01
2.708032955080466597e-01,-4.217167290224273501e-01,1.219036358965266631e+00
-3.092804695351566435e-01,2.186853710402335838e-01,1.176627379308036181e+00
-1.140042880837016881e+00,7.580129366295546012e-02,1.872130634424260809e-01
1.061827733627783488e+00,-7.455518904635914657e-02,-2.957382978574763510e-01
-1.397539988555076107e+00,-2.152286526329344196e-01,-4.484670466532490046e-02
1.186125509569835867e-01,1.233797289587410528e+00,8.550530523991826948e-02
-7.959627347131450481e-01,-3.958369435998972952e-01,7.380721783566062122e-01
1.160166622532282865e+00,6.822265292448990159e-01,-7.238264073346677152e-02
1.166643474000975678e+00,5.573438365054100840e-01,2.593350332831069124e-02
-4.875747221621551941e-01,3.544801967785292107e-01,-1.271063621406606892e+00
4.721427125250857726e-01,6.432928238785452502e-01,-1.091881608824354810e+00
-2.630483970509872593e-01,-5.802621230528309804e-01,1.162990204442106545e+00
-8.089459458235080946e-01,-9.008504984719790665e-01,-1.080299477928867991e-01
5.456715342095986854e-01,6.976685106026234706e-01,-1.007315537670083527e+00
-6.195687242170915265e-01,-1.190500577523276426e+00,-7.618928487253172344e-02
-9.910646441836480358e-01,-4.835402306152049023e-01,-2.819111067894129463e-01
-7.256867181370052489e-02,-1.105060938086700750e-01,-1.434728033082419252e+00
2.675945574620177680e-01,-1.077149041927260575e-01,1.431574618954439160e+00
-1.078807772360872219e+00,-9.401656002662601708e-01,5.758557576005258749e-01
-4.552289575024875967e-01,-8.722922004892194048e-01,-5.062566580514097359e-01
-1.097424663112880339e+00,-6.763863435268466784e-01,4.632597803660961078e-01
5.186709834777161188e-01,-1.613050187224818466e-01,1.185514705375989353e+00
-2.122358237917047197e-01,5.933701720774471333e-01,-9.350912984119886806e-01
-1.055769985238592001e+00,1.853521449180006442e-01,-6.885057202436909440e-01
1.078977082742984317e+00,-4.405567119073348220e-02,5.768305453461431975e-01
1.226722957619772236e+00,-6.313338638655608959e-01,5.256972656416528666e-01
4.472940634426806894e-01,2.508514307473877838e-03,-1.057576695657625354e+00
9.071697971167542729e-01,-1.021027469556453848e+00,-1.898768640065228441e-01
7.155272158438240604e-01,2.996345046450635818e-01,6.567424547116987865e-01
3.064982890120630521e-01,-3.259086381776159502e-01,1.408579136120858610e+00
8.017580302214933896e-01,6.037768048322981196e-01,-8.316600495901380619e-01
1.159568605022124110e+00,8.412083741918595647e-01,-2.132802869665191281e-01
4.245761233379674038e-01,2.119382416627930976e-01,-1.135655425368097715e+00
-1.442819846560889907e+00,2.703044567471400428e-01,-2.444067662605294566e-01
-4.277380603665360548e-01,9.919424955515903086e-01,7.843893143867161077e-01
1.074652310493390051e+00,3.595399623997931338e-01,2.397970202180327859e-01
9.783022853742580072e-01,9.883493620165144378e-02,-4.187053211316859591e-01
-1.484158805955878346e+00,5.381701760686168345e-01,-3.671698761219682750e-01
8.377508928575820857e-01,-1.049417253798476807e-01,-5.373329187561738385e-01
-2.033245351069751794e-01,6.754940767790594824e-01,-7.630263543241666557e-01
-1.181691148309248263e+00,4.241926255278932190e-01,4.591113325860769062e-02
-1.275543048003637825e-01,-4.299274442349632630e-01,1.335074484337815282e+00
-6.139050779681041320e-02,9.298591161753002599e-01,-4.152354286158309593e-01
-5.372647700201250709e-01,5.408046889316110439e-01,-9.167638138452807173e-01
-2.525914906094539614e-01,7.039796728732699016e-01,1.081835525177273993e+00
7.562859774212965513e-01,1.046710872108062684e+00,-4.840947537877006157e-01
-5.181015642666045862e-01,6.904589865029058249e-01,-6.884685793780154217e-01
-1.426424228911918335e-01,-1.106987156819090323e+00,-6.268612530726678234e-01
-8.607007759658755752e-01,5.562626913206628609e-01,4.036992570416255144e-01
1.449435181070191980e+00,-2.048826786386142296e-01,3.089143657955888411e-01
-9.187912740641211023e-03,-1.127578380135206171e+00,-7.442752932309510960e-01
9.248876573158279490e-02,-9.433999467741489564e-01,-9.920479676227932364e-01
-2.019606047693831008e-01,-9.736656608452302075e-01,3.798287316849028317e-01
9.423351732075520015e-01,8.825427483494006076e-01,-1.224640579019650038e-02
-2.975069945000922145e-01,1.001622010845091282e+00,9.458364817214000020e-01
-3.523912696317687415e-02,1.082436721990609474e+00,-1.578386842924434652e-01
2.469380998549467465e-01,-9.594080164462153171e-01,2.672278749669332876e-01
3.025952804701816379e-01,6.090847805617847222e-01,-1.101728365325538306e+00
-4.336163092850271461e-01,-4.698471136330361619e-01,1.219555698694027246e+00
-7.375665097023021977e-01,-9.688744942348770373e-01,-1.458495323602344851e-01
3.201506607973276797e-01,-9.187791680402183081e-01,-9.186051137733809435e-01
-3.087319938656544749e-01,-5.750264619611524797e-01,1.168679282097273564e+00
1.078771948836561689e+00,-8.843565994715513190e-01,1.397550503513961817e-01
2.437768922977506247e-01,-1.409657559805471916e+00,-8.004087004137294681e-01
-5.794369597126023397e-01,-1.371526092721900847e-01,9.511672791319921716e-01
1.504851335771501264e-01,1.214014876352777161e+00,5.138727693168430033e-01
-6.135405328836454064e-01,2.822654161718567978e-01,-1.204795509411807686e+00
8.382209638037469990e-01,-1.415569350600441312e-01,-5.541365428101585611e-01
9.293791796759351964e-01,7.164376745704494898e-01,1.300296813295234444e-01
-6.195670584469760156e-01,1.268415853337310661e+00,4.030273811801783346e-01
-8.277680739405076649e-01,8.042441931782271514e-01,-3.262477864061201771e-01
1.772345520846669020e-01,-7.496326831238426802e-01,6.717079834020250884e-01
1.178157548149020850e-01,-4.504228844017807987e-01,1.238273467757246449e+00
1.038199114023112601e+00,2.860973229636952775e-01,-4.423314990868362218e-01
7.125411539316767184e-01,1.156687032411527483e+00,-2.608987705389116951e-01
-6.286672668851902568e-01,-8.596696377955621582e-01,-3.263411043417488444e-01
6.117887301661896482e-02,4.668358539452629463e-01,1.182532157628316760e+00
6.726338483404651347e-01,-4.354566084399672521e-01,-6.578129969140938949e-01
-1.062577666366476103e+00,-1.939612028882939099e-01,-4.100911162394847986e-01
-1.743991838155913299e-01,-9.061584620780070987e-01,5.180021505465249865e-01
-1.195775203105782447e+00,8.265633769272040521e-01,-1.434130831968915831e-01
1.142767426960620947e+00,-5.484389493116570424e-01,6.767017688898223637e-01
-2.633699310431814045e-01,3.914997250535359186e-01,1.180443944577881599e+00
-1.024759403030910621e+00,5.885951069477550757e-01,1.644801323065738230e-01
6.053665362907930669e-01,1.292597593306391346e+00,2.547991166325926007e-03
1.271823764569422588e+00,-2.802107999074281985e-01,5.523447478177743175e-01
-3.540884522487963704e-01,-8.328026893453733814e-01,6.956760523290387299e-01
1.106131468885505065e+00,5.710713970260543615e-01,4.091296127904058694e-02
-1.096500787050546322e+00,6.185588905005987570e-01,-5.984571191064963491e-01
-5.508145007093212531e-01,-8.398632336838023349e-01,7.524915125242782610e-01
-7.343747785827051122e-02,-9.809811129996350854e-01,-8.290497572817999705e-01
-1.005533667450158597e-01,-3.576895653983669376e-01,-1.226264185255139028e+00
-4.362819787540992977e-01,1.008049830473474628e+00,7.630843295612937949e-01
-4.188233026873460774e-01,-1.251923127857367812e-01,-1.103985347069376344e+00
-1.952630008047900878e-01,-1.368661448112548085e+00,-3.603048498910662034e-01
9.234499247545398248e-02,-2.717652353660159337e-01,1.547351231947618588e+00
-9.758487086236079522e-01,-2.422019720547290700e-01,4.850942119855706780e-01
6.432819593658620216e-02,6.012264810121291658e-01,-9.960714572211906148e-01
9.024205402859254710e-02,-1.333988080726012049e+00,-6.746936826290171885e-01
9.289830855343149396e-02,-2.561293891769119563e-02,-1.491368447839096056e+00
1.260696167526932143e+00,-5.888613548003315268e-01,1.169305100843230083e-01
6.172703581709270138e-01,-5.684434897686910793e-01,-6.895183642714098893e-01
4.250611902446506662e-01,1.932529977100521934e-01,-1.158425976741225716e+00
-7.287363897394315559e-01,9.527033956154444816e-01,-1.308616172290309188e-01
-4.175461947830668707e-01,4.969938878957009254e-01,-1.041319610415135211e+00
9.477143743291830402e-01,-2.596780515692950417e-02,-4.323314064650043420e-01
-8.099387078745915458e-01,8.697748629630314143e-01,-2.018090437182590846e-01
-1.040352920890059568e-01,-7.016826688415374047e-01,8.630702802049335931e-01
-1.222778850268893408e-01,3.638414300436595972e-01,-1.378149940744765711e+00
7.319709982375537105e-02,1.001332210669874989e+00,-3.121758902213570552e-01
6.914898009239200949e-01,1.165530571124717696e-01,-8.135588832078185506e-01
-9.176258294752316358e-01,7.305569205994979498e-01,2.452217520981446186e-01
-6.813150040386231066e-01,2.091246727765976032e-02,7.699115055071162894e-01
-2.228145059362737768e-01,6.831361175262846974e-02,-1.410755212801914515e+00
-1.788815107777217972e-01,1.116285078938213049e+00,-5.943850209685202883e-03
4.542181638771127239e-01,7.524565858242607264e-02,1.074143853390975289e+00
-4.965953645685259321e-01,1.133225300818400560e+00,6.850179963484417378e-01
-1.138518302578086644e-01,1.372572177574068020e+00,4.456303021977885970e-01
1.234065935115408852e+00,-1.348792050934070619e-01,-6.678261232246875123e-02
-6.548350719691152788e-01,-8.705600910164721373e-01,-3.282375323471275474e-01
3.980668709141902406e-01,-2.219991006748692208e-01,1.373791899232105651e+00
3.586330118049245730e-01,-1.006166921719668039e+00,1.398795120210953868e-01
-6.760416055360430887e-01,-3.713773368750511450e-02,-9.173561409917559972e-01
-5.033539979584441548e-01,-5.851772340559752150e-01,-6.564813058913131494e-01
7.566576564857573073e-02,2.940384323826200075e-01,1.292477611775569191e+00
8.709188229707175433e-01,9.703549389167963335e-02,6.526130132068328482e-01
7.605265564484621488e-02,-9.443921932051519974e-01,-9.815368559754366062e-01
7.479818320242395124e-01,-9.410539171269645120e-01,1.082578107883195306e-01
-1.383834177347149863e+00,4.910502453414483659e-01,-5.794429154305108520e-01
8.118819360765122672e-01,-5.063073285081549635e-01,8.328001460076323026e-01
1.097514870010789789e-01,-8.304369974586807146e-01,-1.054220455144309954e+00
-1.177591423828071582e+00,-9.689268701140889561e-01,4.807610600975886217e-01
-1.281239690943132004e-01,-1.186213725456712886e+00,4.667209404229782747e-03
4.847542101638124268e-01,-9.580053306936813229e-01,1.939892727403157990e-01
-2.480260454963117631e-02,1.276012874541486042e+00,6.799109395577822568e-01
1.052868686013254812e-01,-1.057016162882807864e+00,1.629618756947315839e-01
-9.972682881652144005e-01,-9.266831346782344880e-02,4.221106073050180374e-01
2.121539729005392783e-01,6.533634992067197667e-01,9.028925775625277206e-01
-1.126909545699579906e+00,-6.235092260822107102e-01,4.184680221519714305e-01
8.379644013843677852e-01,-7.318682219887993057e-01,4.993937860938375550e-01
5.284739628139745182e-01,-8.122148942014910666e-01,4.101770202464114501e-01
2.443923272095682719e-01,-9.962443099349528319e-01,1.796484301019252716e-01
-1.136348737195479019e+00,3.941866732762480119e-01,-7.383398844391517724e-01
5.634311954386895804e-01,1.223748709605761542e+00,-1.243025131997699956e-01
-2.358759083872525308e-01,-9.661969675241555144e-01,-6.530529381180643078e-01
-7.705516782270515064e-01,-8.286797123814709787e-01,8.432597230672743693e-01
-4.147968523594183221e-01,-2.508231443887862233e-01,1.217636635928603939e+00
3.127368092210786599e-01,-7.394705045113966757e-02,1.353791887286702744e+00
1.305835720653171772e-01,-7.420532306514647791e-01,-1.150211440816170327e+00
1.296944419313350305e-01,-8.719825221744534893e-01,-1.065593731406567546e+00
8.737404073856318565e-01,-1.067686686292925291e+00,-1.462011829933420048e-01
1.326574572227418036e+00,2.262991584172064086e-01,1.024014872660654191e-01
1.211345112177290677e-02,5.666335503308914667e-01,-1.057432990752122270e+00
-1.034094491759628642e+00,8.458724170136823206e-01,-2.140891547588669730e-01
-1.166908350440609032e+00,-4.523756745165578574e-01,-1.062080893350369343e-01
-4.242727746821022827e-01,3.940102959278337091e-01,9.800660963608170961e-01
-2.433608058072337377e-01,7.175201119561991359e-01,1.104834504164334374e+00
-3.700017394273667493e-01,-1.125056327558565217e+00,2.587759529342800180e-01
-1.241372974350577474e+00,-3.457390080339611815e-01,-1.057644825212678968e-01
7.383442863788068911e-01,9.538620374059640916e-01,-6.400382995325756275e-01
1.010336805734399990e+00,4.887866327077822759e-01,-5.140696116394449788e-01
-1.539734109398097184e+00,5.879872047265308765e-01,-4.500015178336256305e-01
-2.772955685715524643e-01,1.069672082860869899e+00,9.401784080232925556e-01
1.275718583950300467e+00,-5.712941927405483789e-01,7.968031743057851779e-02
1.934431122852512119e-01,-5.185549032801302083e-01,1.088622820211350373e+00
9.061766522949413205e-02,5.055523746603421964e-01,-1.215123231275727189e+00
3.407656202023698344e-01,-9.312888860336367147e-02,-1.182431827029743143e+00
1.313908342122157347e+00,2.234782766646042085e-01,1.091694108507727523e-01
1.354665905223994882e+00,2.460506905726158045e-01,-2.617323068736130548e-02
-1.337269670515413900e+00,-1.227192782188067655e-01,-1.667756402397457260e-01
-1.302125244287527295e+00,6.641361088569870397e-01,-4.248307500222462396e-01
-1.265039988724152353e+00,1.831956575739354387e-01,-2.055596431779756900e-02
-7.647809567696051136e-01,1.157319961738496328e-01,-9.361854674736400650e-01
6.162776532352607362e-01,-9.553017433325398100e-01,-5.771716561423831937e-01
-1.182215826373222756e+00,4.987583434000105731e-01,2.134446124213199014e-02
-2.849637429531680088e-01,7.989198496305459640e-01,-5.483214344076740021e-01
4.554300777552320878e-01,-4.723957476939865119e-01,-9.095826429215911890e-01
2.687468694450475537e-01,-1.202580881940736646e+00,-1.708314454087929424e-01
-4.187770308464902613e-01,1.040204473265063267e+00,-6.186990545695905674e-02
1.255446834183838289e+00,-5.625210399972291331e-01,6.504338066973878174e-01
1.460840303782063865e+00,-4.891270042816950880e-01,3.333980660222822245e-01
1.087953310293767295e+00,8.671317711139199247e-01,-1.709053803293855978e-01
-1.097321956253491715e+00,8.414503838044300466e-01,-2.077173301224533031e-01
5.170710444458103128e-01,-9.895538566633771405e-01,-6.869228397602542557e-01
9.642099988513262721e-02,4.359806327429101569e-01,1.171518152169043647e+00
3.385923110239393852e-01,-3.538472848592994491e-01,1.330949527895842532e+00
-1.386956126145239887e+00,6.278143608534144660e-01,-2.909614731788928155e-01
-3.895268926970659740e-01,8.631259062199680976e-01,8.444788251874764118e-01
3.373637558742269005e-01,-1.094884143236160012e+00,-8.709690881040138555e-01
-1.192089286175924689e+00,-3.526965830422427173e-01,-1.488285663870995978e-01
6.324098452649473678e-01,-1.011078456278045268e+00,-5.332180122530277844e-01
-9.232669525986700876e-01,3.877565706236665161e-02,4.567867106534870825e-01
1.038980287773669520e-01,-7.525217006911779638e-01,6.806333195751139709e-01
3.275343598234821130e-01,4.948330606584864233e-01,-1.316883061423038903e+00
6.052214641924934524e-01,1.047271816334372607e+00,2.152860166331057312e-01
-2.090357115468889915e-01,-1.883467213890024361e-01,-1.222308453567156894e+00
-2.072166148896613103e-01,-6.449831014837123511e-02,1.360977557902996793e+00
9.669696581129971769e-01,2.199130378507248296e-01,-4.845907424613069003e-01
1.514842805500113299e+00,-4.352441238212486629e-01,3.989414080130050388e-01
1.858025037512091859e-01,-7.733212144170840130e-01,-1.126461684928153240e+00
-7.295990856215671394e-02,1.029643013404449192e+00,-1.977498264718248189e-01
9.694422549246729526e-01,-2.489344725745982478e-01,-3.615631174268885695e-01
3.381611257486814154e-02,1.305548314347340755e+00,5.700286854448307627e-01
7.009019890778603878e-01,5.454514649172546026e-01,-9.655703951368309612e-01
-3.040245297718067174e-01,1.284858660570632027e+00,3.502164919596865711e-01
-1.185770958723028623e-01,3.554051320051179741e-01,1.329831234056816136e+00
