5.640761219038963326e-01,-5.300823704900379241e-01,8.746252898177364621e-01
-8.810933481770149012e-01,-5.899498287315873418e-02,-7.400830187932750936e-01
-1.110048102128228464e+00,-6.059224063068560096e-01,-2.571595261429669883e-03
-3.215759547530988027e-01,-4.609521394245253423e-01,-9.539115029273091961e-01
2.454098441979040424e-01,-7.132822189482913577e-01,1.268601872863574620e+00
4.442769193753507984e-01,8.782114836661614188e-01,6.432124127454812434e-01
1.159463182196143416e+00,7.037582108427333782e-01,2.271051157635183559e-01
1.207810478505662449e-01,5.297607353978888156e-01,-1.143003457433618308e+00
-6.677049513712112194e-01,-2.990698400388297484e-01,-1.108962338521529034e+00
1.266266802861435892e+00,-4.546131815359799599e-01,-6.356608137969886885e-01
-7.293528456047352337e-01,2.970799646397975224e-01,-7.044617768041538941e-01
9.508180716052168080e-01,5.764206887289320680e-02,5.677611199910927997e-01
9.405489080280098335e-01,3.780595280088872023e-01,8.319555564329157438e-01
-3.938881467744439514e-03,-9.691371611069728997e-01,6.101353752401841302e-01
9.297184761464057090e-02,8.391608108393173726e-01,-7.193407245986284115e-01
3.589734900652529204e-01,8.920930864570636443e-01,6.243567586465003094e-01
2.218607464865033629e-01,-1.471988105348530418e+00,-1.029835127937579198e-01
-1.972314748777216908e-01,-3.183426243650569476e-01,1.378191528414376643e+00
6.842531673663343472e-01,-6.986984940857865478e-01,4.477480571162410494e-01
6.192211630054409444e-01,-1.130412888505643254e+00,-3.142244812867593939e-01
-3.167725695992242296e-01,-8.730243439001035277e-01,4.502108232274309452e-01
-5.624880670663909843e-01,-8.919174358397194968e-01,2.071041047889395081e-01
1.274650510336591935e+00,-7.310797645998656780e-02,-3.010024955015603298e-01
-5.899307537960618575e-01,-1.190128623182377776e+00,-4.169594829918134571e-01
-8.648268954495702543e-01,-7.022281141597491727e-01,8.705956203780947089e-02
-3.792545038581765504e-01,-5.344519269102420145e-01,8.864601460235594921e-01
-1.132720611540481315e+00,-4.740927130570673498e-01,1.789578707643225408e-01
9.510511488409020275e-01,-2.893631430432198615e-01,2.571469137516766978e-01
3.704384245527919117e-01,9.029177894003312943e-01,-3.677600757670503318e-01
-7.464004255701057744e-01,-5.293847300286845803e-01,5.475042360764111882e-01
-8.980282091123469312e-01,-7.722655995152615249e-01,3.303330157956871349e-02
-7.908753706089984847e-01,9.812643429978986642e-01,6.725618285362805482e-02
-3.845252370472644898e-01,-5.698595351538574549e-01,8.133755589892982529e-01
1.085177417510144293e+00,2.319077954772663305e-02,2.393671157787721493e-01
1.355200694214001578e-01,4.452506224586498806e-01,-1.245143810339302437e+00
-1.664028074487921838e-01,8.304930073588584483e-01,-1.018536949237618394e+00
-7.002299003604348648e-01,-1.269619228121253163e-01,1.111009076323777212e+00
9.158236909614025922e-01,-4.952301873323159964e-01,1.228141390498159596e-01
6.315760819308112728e-01,1.096083263399503932e-01,1.269005436887465921e+00
1.981222048839906824e-01,-8.151921507653056009e-01,1.033194402858861327e+00
-3.758740735920235165e-01,1.114008341784698958e-01,1.148657764103086842e+00
-7.424817794935008042e-01,1.317440078205506515e-01,-8.437066506947547007e-01
1.098556725225854347e+00,8.557237540255330233e-02,-7.421943591882921298e-01
-5.870465986899320310e-01,5.247537014573889769e-01,7.978420970726759487e-01
-8.340186316835321856e-01,2.762570696137328641e-01,-4.989619871367344528e-01
9.617038528795304186e-01,8.311162427881112480e-01,7.554634691517144729e-01
-5.047460209978056334e-01,1.066220132953350497e+00,-5.147829650102108134e-01
1.483538773855989368e-01,-1.311542606578768977e+00,3.118218119600027483e-01
3.482552961527493607e-01,6.632958240879601730e-01,7.816587219465460645e-01
6.147302740835666190e-01,6.171937734041629264e-01,-5.265790555166182108e-01
1.458409732586692098e-01,-1.035909353300483865e-01,1.364039821327029722e+00
4.081922580509580456e-01,-1.280255076642303980e+00,4.820386403639732031e-01
7.471451714299508495e-01,-3.133449158946852164e-01,6.743068014522137776e-01
-1.308823138702282840e+00,-5.375198638642644244e-01,-2.116311871695158164e-01
9.017394335417596718e-01,9.068275551455406980e-01,2.335708691632045753e-01
6.915145854462241559e-02,2.401964974029968947e-01,1.096285193478328646e+00
4.120730844360960821e-01,-8.337566229884754154e-01,-5.469798672749804913e-01
-5.844492015249501682e-01,-8.366259228901808953e-01,2.386969540944987311e-01
9.057005421328803152e-01,-7.003781653576346411e-01,-6.781619582809073066e-02
-4.050707709083225527e-01,1.507432259691759757e+00,-2.904675409915994377e-01
-4.401190355281673350e-01,7.318530636775762988e-01,-9.483957995850782474e-01
1.311129382997526793e+00,-1.584782514514870844e-01,-8.901719937490676360e-01
6.743086329247038879e-01,4.225172840558132359e-01,-7.419648729255942099e-01
-1.176707421559131994e+00,-8.124683883964388675e-01,-3.198284496480732209e-01
-6.434726619695420036e-01,-7.102015025722523411e-01,3.014476183383515973e-01
9.419012271649821466e-01,1.119032471084063646e-01,-8.533213903745666684e-01
-5.356902756252533981e-01,-1.034681387732969693e+00,-5.221093622942013512e-01
-1.297963601912991427e-01,-4.079218400228653563e-01,1.288404711577438189e+00
-1.229643649359579566e-01,4.432922936855286378e-01,9.197954437097877189e-01
2.221872589090203853e-01,-1.297112208607925421e+00,4.007222281212319825e-01
1.050507707167411597e+00,2.052616178765823418e-01,-6.633363955449391725e-01
7.604679837682893906e-01,-1.167689797396131990e+00,-2.527557584637700194e-01
-1.232650072138080422e+00,-8.172763518430427032e-01,-6.483341797542194751e-01
-4.754181148727853468e-01,2.267689088391752206e-01,-1.340567295186171348e+00
5.429277979987274794e-01,1.328200076465592960e-01,-1.276187901600234209e+00
4.433420557714201071e-01,1.154023591705210405e+00,7.305418710699965179e-02
6.185449052220297617e-01,-1.175517063501066106e+00,1.649833900764591244e-01
-1.045101693371745410e+00,-1.028320388976031285e+00,-5.734389856462396295e-01
-7.828946692886503689e-01,9.106381217976754483e-01,-7.187405571175284336e-02
-5.313908158212927724e-01,-2.881244260341563335e-01,-1.121149204222507967e+00
4.466473889126209573e-01,-1.526298610918082943e+00,1.944560176070209978e-01
2.348523917436511899e-01,1.076023080747421590e+00,4.245992524661749146e-01
-4.857311898743273959e-01,7.825320427812970658e-01,-7.756518029431145322e-01
-1.029934047668098485e+00,3.269077701349918930e-01,2.511822303960610167e-02
-1.119373192175300735e+00,-6.331685295247122536e-01,3.440632265107367916e-04
-1.022910152388414096e+00,-2.200322347671320455e-01,6.443936563937564532e-01
-7.645491808310511672e-01,6.683453628347313380e-02,1.137319014584959875e+00
1.258905610657514496e+00,3.659445396338745216e-01,-1.928951663131639183e-01
8.532983784056150101e-02,-9.694953455379746732e-01,-5.185744284033834139e-01
4.953822551647253138e-03,-6.366745923516887729e-01,1.120769821208668304e+00
8.656366353494098220e-01,-4.800997151690454268e-01,2.125037725279541323e-01
-2.439984748449302437e-02,1.173694531179874989e+00,3.355252341861804655e-01
-3.622471777069205534e-01,7.806458443998863794e-01,-1.107261194075349842e+00
6.406516340062275994e-01,-9.275097709199626728e-01,3.468308822968617089e-01
-2.125032603853263535e-01,-2.360850744694685810e-01,-1.100906762064895794e+00
-2.421324033414832544e-01,7.259357477786269053e-01,-1.227269416081408160e+00
-7.987394669164502581e-01,4.602635754012200930e-01,-3.556782114858895727e-01
-5.164086180444139584e-01,1.113860877217063505e+00,-4.473637987991597176e-01
-9.023298409402578935e-02,6.885890222102303282e-01,7.220302001362266520e-01
9.975961321912687474e-01,-6.244877778484908548e-01,-2.037657683997468050e-01
2.244069898542217500e-01,3.360904775082567131e-01,-1.291724198700248571e+00
1.269890167590220997e+00,-2.107678502776039464e-01,-9.722557021079298867e-01
9.479435023663100868e-01,1.362586489013691837e-01,-8.574309475338383058e-01
-4.620744559230326454e-01,1.273183542188926820e+00,-4.543130455251019328e-01
8.438542286486646615e-01,2.461510879698712295e-01,-7.561043758122334424e-01
-5.999578689022019296e-01,-7.152600810834528477e-01,3.915854037022529766e-01
8.810386074037764859e-01,-5.753290693288732882e-01,1.352812892897565511e-01
4.171909808739742154e-01,-1.076867507918101152e+00,6.764918153914868393e-01
-4.175058951206609414e-01,-9.654191028452904222e-01,2.176442587113188165e-01
1.237382968745778689e+00,7.828596206084484921e-01,3.697417192924603024e-01
-5.295750614029567233e-02,-8.055626733155144548e-01,-6.496490565914909698e-01
1.162425771940696961e+00,-4.082670534863078182e-01,-8.140791271819648456e-01
-5.235558577734973351e-01,-1.106230645552882086e+00,-4.661947951144541080e-01
4.920285189170083839e-01,-7.305979264338974266e-01,8.134553949279087481e-01
-4.621687797198617553e-01,-3.057319676631361505e-01,1.114091612827777578e+00
1.314472132518847668e-02,-6.962607713946762367e-01,-7.346533403518237249e-01
-4.243809974240211891e-01,5.957324465215872999e-01,7.615914660209666120e-01
9.882851531994785166e-01,1.148649717665041758e-01,5.139246798288341633e-01
-4.836514650764557888e-01,-1.009033214982020032e+00,8.938728297867916395e-02
6.421688270582377456e-01,1.128352531321252128e+00,2.373522210124934251e-01
-1.332503159380224567e+00,2.916018196317501365e-01,9.005268475125761674e-01
-1.973951546321973949e-01,3.281078168916679583e-01,-1.573320393445366339e+00
7.470570350783963809e-01,9.574247097319150968e-02,1.036578831505461151e+00
2.978088033484987407e-01,1.028779640765540071e+00,4.828592347225398318e-01
-1.145232730334067306e-01,-2.090882236989906051e-01,1.452680120792672058e+00
1.250990052355903936e-01,-2.814598073387512001e-01,-1.035153318862192418e+00
1.131583837086467259e+00,-4.631462726799567831e-01,-3.207084409693064520e-01
-8.802731898339115624e-01,1.689299993742584827e-01,1.044379809113713309e+00
9.675242467389542078e-01,8.913875004248718037e-01,2.429808641129383162e-01
-3.238801097439569232e-01,-1.153465359591468564e+00,-3.797024520596910535e-01
-4.609604569764436111e-01,8.846221464153891656e-01,-7.676048578672084455e-01
-4.945529719969555260e-01,1.258196031215933042e+00,-4.083065145216378533e-01
-2.247853996570308988e-01,-1.286709842467790965e+00,-2.968868404903199365e-01
8.157897288069625441e-01,-4.611502120059092491e-02,7.426089181576691622e-01
-6.877667254040737976e-01,-1.780543573211065544e-01,1.064359797365114435e+00
-5.323141856194388843e-01,5.722602859477766701e-01,-9.002819711313689854e-01
-1.089340157098349415e+00,-3.978071062476545294e-01,-6.052255072139878234e-01
5.268248236000188101e-01,-7.332378720011428763e-01,-6.279918920725899856e-01
-1.268545376048561213e+00,-5.168910226716006973e-01,-2.284413913592027168e-01
3.634215862040289791e-01,1.974997896371242512e-01,1.152796219406303724e+00
-1.789399630512420736e-01,-5.341473576902143749e-01,-8.985137616755725087e-01
-4.195250509271028494e-01,-9.779960062260025788e-01,-5.541620167462121271e-01
9.276264884240484343e-02,1.030368298374324754e+00,-4.882299205814545351e-01
-2.664029873799549919e-01,6.222637541152219454e-01,7.461540902216066140e-01
-1.406754336187026277e+00,2.892812269148585247e-01,7.780403465754701653e-01
-4.840244170777125987e-01,-1.246024118752415033e+00,-3.602126698405130334e-01
8.137087589593654524e-01,-5.815080383342670078e-01,2.129453579713535272e-01
-2.648150299106346028e-01,-6.611688345366788511e-01,-7.939852785970100690e-01
6.782334196347092892e-01,-1.273643620553931433e-01,9.568324693326787367e-01
-1.703669470890283866e-01,7.652224550025726879e-01,6.405483880696248855e-01
6.309144856302225657e-01,-4.106527608573100618e-01,-8.844678807995018932e-01
-4.442602697719920113e-01,1.480716999620312890e+00,-2.629944482656524918e-01
2.923839013350852389e-01,-9.859416406568816127e-01,-4.506163215901781149e-01
6.845939161418829189e-02,5.515271772753289614e-01,-1.162498901081852054e+00
3.895240281221918344e-01,5.127391283332537464e-01,-8.762974114539383574e-01
-1.537629758476751762e-01,6.440384364807441031e-01,-1.241537293505423634e+00
1.298752499437645813e+00,-4.346082995105389757e-01,-6.546002970907324192e-01
-1.222742443470906659e+00,-6.636841844523804212e-01,-5.212127937234589670e-01
5.317492433078696568e-01,-1.236821247753304487e+00,3.128553384985297559e-01
-4.729430111121832314e-01,-4.678065859495372791e-01,8.754427961947911507e-01
-7.644495721105002417e-01,4.972437637438627267e-02,1.146019813691678157e+00
8.186650561836417150e-01,-1.112250034407458843e+00,-2.707757516051731983e-01
-4.496886699416452471e-01,7.852004504811996854e-01,6.137037259519483312e-01
-7.291930907745282076e-01,7.854187456814762935e-01,5.649760351603081432e-01
-1.857880529023577254e-01,4.900171729371852192e-01,-1.507616708078516998e+00
-9.583490650543320388e-01,2.921464969194431105e-01,-1.732979442090497035e-01
-3.664414449495012605e-01,1.477071672432353489e-01,1.118636901332079603e+00
1.256712930326553179e+00,-1.154089724674461359e-01,-2.518705768853600202e-01
-2.755113742140525845e-01,-1.234583697230417165e+00,-1.642340303542352137e-02
-8.428708412759701174e-01,8.245998235451068581e-01,1.193829841063383072e-02
-1.157578692840663059e+00,-8.294376573528159380e-01,-3.579806395946810715e-01
7.056590261631477956e-01,9.503828352158702475e-02,-1.141137821593848578e+00
4.784571546392057950e-02,5.279702451061576429e-01,-1.226495355377179575e+00
-7.604589862476353046e-01,9.354050498123735180e-02,-7.951911229865458175e-01
-1.441806352582143180e+00,2.586888086110227247e-01,8.267615892052189164e-01
-5.665133949699556748e-01,7.625875141447731043e-01,6.050536814082205783e-01
-3.292624438536634890e-01,5.033565530699765089e-01,-1.418352694667502467e+00
-1.966392568044825762e-01,6.669943431083469321e-01,7.052045153158605917e-01
-7.354101670139974178e-01,-8.300260989358105856e-01,1.074995027508380829e-01
-2.420877648132905846e-01,-2.642996051699361693e-01,1.376539978736732950e+00
-9.355096562103105695e-01,-9.931147996913476661e-02,-6.082086959597112763e-01
7.964987644687747392e-02,-7.160181441885222764e-01,1.088345674613819147e+00
6.804508903319478330e-01,-1.020203312271818374e+00,1.431087179992655001e-01
-1.660099046501430364e-01,6.603456882728551136e-01,-1.245222419321597052e+00
6.093378222812882994e-01,-6.795019951374975387e-01,6.381420724879593998e-01
1.337730399443967766e+00,1.397116710748718682e-01,-2.466779592661630105e-01
4.876318768868939668e-01,6.472200280794301319e-01,-6.017834582236005758e-01
-8.568445450819451858e-01,-2.992571540928740115e-01,7.022682936602728798e-01
-2.118340047017294170e-01,7.818236741035773374e-01,6.453547683593635620e-01
1.005623141366529083e+00,3.260076381729534178e-01,6.624019709801084455e-01
-2.123425530636044167e-01,-9.886241662426595855e-01,-5.006412861988126517e-01
-2.175261092317432032e-01,-1.389115400435247283e+00,-1.396203956784378142e-01
7.052095036179486520e-01,-7.242014551249140730e-01,3.660837213172702942e-01
2.791241676451097775e-02,4.916119106788980897e-01,-1.301816019492201049e+00
-8.763427267882066829e-01,-4.864310887457297672e-01,-1.006927776123633933e+00
-4.051586074098632584e-01,3.859275320997136993e-01,9.258406910645186061e-01
-4.814837426666775944e-01,-1.118745084479337848e+00,-4.720847440745638141e-02
1.056677409328626860e+00,2.004265266744565399e-01,-6.757365516337713318e-01
-7.680322624873733295e-01,-1.020009092341798151e+00,-5.573982353734425743e-01
2.451441718303952744e-01,-8.843422890864197639e-01,-5.410311564444495458e-01
-1.585155580789256724e-01,-3.720562049045085529e-02,-1.258974489831092614e+00
-9.734129557701924618e-02,-2.511302021266551554e-01,1.478316981180607614e+00
7.575591714198000037e-01,9.306138920876737552e-01,1.045461547490973142e-01
8.867388483432793178e-01,8.760699600456250957e-01,6.931788464549555329e-01
-1.714774009198441820e-02,-9.815176993224677959e-01,-5.110882903947276956e-01
-8.260374600732069972e-01,1.148339899630192340e+00,2.657670696101916419e-01
6.511849376326299677e-01,1.762501435953045259e-01,1.209410021896789367e+00
-2.022744076248366493e-03,-8.050715829683103841e-01,-6.496188471452201130e-01
2.525354633188846010e-01,-8.487470633128395558e-01,1.076932288162395723e+00
-1.188697508426059368e+00,-8.186583460056144901e-01,-3.642174930043158287e-01
1.240488408288073385e+00,8.420243281818559078e-01,4.504708516817860775e-01
1.087656769221313269e+00,2.388594154289832294e-01,4.030944852338761986e-01
4.686013775441657536e-01,-3.225216245139365667e-01,1.230011574877320601e+00
-1.016640311318472323e+00,2.029598764992459337e-01,9.980104502994536775e-01
5.670295847295538927e-01,-7.072875464410727231e-01,-6.623526129445467259e-01
7.951834690103547487e-01,-2.257976359372126374e-01,6.557886524588103505e-01
5.287819059715593850e-01,7.250761954003770438e-01,7.606028145842491650e-01
7.743051959665307737e-02,2.020483347443400302e-01,1.136867373929785652e+00
4.417115717614006898e-01,2.531459023844784828e-01,-1.245093658576209572e+00
1.712585847775830450e-01,-1.114390836420389830e+00,-3.778320347953793568e-01
5.095755048278235444e-01,9.754172678917266692e-01,-1.003730593594318321e-01
2.659847666471421013e-01,-1.460247268888737127e+00,2.372822910074016411e-01
-4.196301795414662528e-01,4.425649744500473881e-01,-1.249394797697060966e+00
-4.842499185122307592e-01,1.460753556763043415e+00,5.998501657327508924e-02
-8.764751714897253132e-01,-3.772553275232849446e-01,6.143510754343228797e-01
-2.527341920777820272e-01,5.428719358748650414e-01,-1.500844133624471555e+00
3.339780485240649854e-01,-1.253829606417210973e+00,5.375602633388941731e-01
1.208734995912248644e+00,-2.035783394514812106e-01,-3.053865169116163347e-01
3.871427149261426615e-01,-1.126085076122960604e+00,7.136793295221253164e-01
1.344510467048105617e-01,-1.363261517663235223e+00,2.667466883744935569e-01
7.876781296974542101e-01,-5.380928890929620456e-01,3.596682998399792219e-01
-3.577854232592594386e-01,7.607857598575474833e-01,5.989021363994175839e-01
6.987992166708849318e-02,1.060915784036601028e+00,-4.475060200516120523e-01
-7.232864126020763784e-01,-9.139320239794168632e-01,-1.958980492404048881e-02
-8.045933373132051203e-02,2.836286057113193704e-01,1.050834422633399212e+00
1.200619244294369503e+00,1.013405228317937196e-01,-6.408321204443153674e-01
-7.246959738866831646e-01,-5.410666991861601272e-01,-9.505886645329219009e-01
9.672892593026687358e-01,4.124529664978380805e-01,8.098979081660564461e-01
-2.707413605089771247e-01,-1.035796073109491316e-01,1.344793132735432772e+00
6.539852218127846228e-01,1.011757308785913967e+00,5.672080674721137195e-01
-5.527004159747763712e-01,6.563794839772257861e-01,-7.987777414451505686e-01
9.323885170348757967e-01,8.500393467042081097e-01,7.217461301423726550e-01
6.930100553985915068e-01,4.915014165727015771e-01,9.505208934444480118e-01
8.883120660354529852e-01,-2.713983301331468478e-01,4.121524659948011537e-01
2.677197840994067768e-01,-1.369180838367570985e+00,3.714252633726494168e-01
1.294933612730337913e+00,2.755199708702915085e-01,-2.788404720679006354e-01
-2.782127977796058915e-01,-5.385356182128043789e-01,9.873588826506058957e-01
5.281208208231708001e-01,-4.447734148101566837e-02,1.375665779456412885e+00
-7.253826251889258225e-01,6.703205749728631258e-01,-3.496242500866635905e-01
8.190349517657462552e-01,1.094134969336788110e+00,5.132947280613203711e-01
9.090621525703320716e-01,6.896564583299623630e-01,-1.211501980170309467e-01
9.100454273475300226e-01,-7.594216223047052239e-01,-9.972689281912877624e-02
2.651003123747848744e-01,6.590033180922399980e-02,1.245329442939303588e+00
1.130406488168342438e+00,4.458591532501415822e-01,5.155457743187545905e-01
-5.076477779649698485e-01,-3.402653764947316528e-01,9.956590795634732149e-01
1.345924440322479709e+00,-1.740671176993282832e-01,-8.673705725317049087e-01
-4.056690318810848295e-01,9.091990078463463298e-01,5.099782073000683758e-01
-1.212754383513963363e+00,-8.395298151803399778e-01,-3.690824252339213740e-01
2.361934175750978193e-01,-1.253876801719743694e+00,4.688743893982002531e-01
6.043612603118426740e-01,-2.569398111207110147e-01,-1.003406510000153684e+00
-1.012082770862375164e-01,1.148686220824316706e+00,-4.863214407804554162e-01
-1.041310583607607532e+00,-6.989780202635713646e-01,-7.798112210381608067e-02
6.530309070813481442e-01,1.062685120458414789e-01,1.245467122941432025e+00
1.836707950657624488e-01,1.229747079524944331e+00,3.176599337696561776e-01
1.759509227031542597e-02,-5.689008652066177563e-01,1.260986802092293857e+00
-1.219750528945866330e+00,4.066259218352040739e-01,7.997562509649780438e-01
-5.694886931810132918e-02,-1.279280405787369457e+00,1.932110528236413993e-01
-8.457929619047664938e-01,-3.187926647797621471e-01,6.971605833371302685e-01
7.963657228949474476e-01,-4.725024895047201245e-01,-8.252043955165101474e-01
6.619340729687613889e-01,4.725622548509402776e-01,1.005830391762871034e+00
-2.125807514504654272e-01,1.127045051405295206e+00,3.747728751419622806e-01
-7.516566911046032029e-01,-1.036580294934259378e-01,-1.046594777967713608e+00
1.146328467201616297e+00,1.433202356927018584e-01,-6.282969287141554338e-01
-1.578961008405589950e-01,-1.064622200728743806e+00,3.538686629641494275e-01
-6.184662394137073749e-01,1.389321791793622696e+00,5.490949295677960418e-02
6.423951477642464436e-01,7.405979235152626572e-02,1.261316845548467347e+00
1.147936310950461003e+00,-4.980352583814755263e-02,3.862660465606180746e-03
5.384876474041143668e-01,-6.768142295881645065e-01,7.247664661830375277e-01
5.998349385050582017e-01,1.205645787541572922e+00,2.922386053884687418e-01
-1.081340904033452066e+00,-4.801673066587432426e-01,1.968655874598942979e-01
-1.006841865654118928e+00,2.053980745076969538e-01,1.003918792439898455e+00
-2.036381763791830779e-01,-4.037424447642846137e-01,-9.905462147914897431e-01
5.261956014434706619e-01,-1.344366591940780731e-01,1.299577676192254394e+00
8.107358014551440117e-01,1.048448726830234268e+00,3.303609815735383815e-01
7.405030897609294893e-01,-9.449758222671668095e-01,9.385045710438580380e-02
-7.494720956698359693e-01,-2.051358525851925546e-02,-9.685099230578321228e-01
2.835096219709552501e-01,3.007446412642071354e-01,-1.305931588013998557e+00
8.110380895686506442e-01,1.834367166280027883e-01,9.885608385325412861e-01
-1.249158600512629697e-01,-9.527324641053233067e-01,-5.556245562626470624e-01
4.192382435439338112e-02,-4.677336245222209477e-01,-8.939745435130022067e-01
5.519502951096956211e-01,-1.686789594380929125e-01,1.232295136674282476e+00
5.544601065391185912e-01,-2.133459187811188873e-01,1.204474573936227255e+00
6.509025607431589977e-01,-9.681850521360547690e-01,2.740918696454655579e-01
4.443804035591958912e-01,-1.526013191367033617e+00,-1.931736066276026204e-02
-9.536604494237269636e-01,5.501476945172847355e-01,7.246366884839180456e-01
-1.094650372509729186e+00,-2.744687532135677288e-01,5.043185060593049496e-01
-2.039054998024282181e-02,-1.002419624276116528e+00,5.789917613656284656e-01
1.290693121993498893e-01,9.251655175666964048e-01,-5.898369526304918509e-01
3.498992294618675225e-01,-1.097517930860284041e+00,8.212658157418953886e-01
-6.148420424364983150e-01,-5.111376517514716333e-01,-9.509697209041105825e-01
-3.676673121139430456e-01,-4.217850706124292026e-01,1.010896732236274742e+00
-4.047339328687656335e-01,6.483921919258980315e-01,-1.110151739609125165e+00
-4.409492520125571913e-01,7.252514397434236537e-01,-9.756719737771354373e-01
1.062456129711190300e+00,-7.072452130049547980e-01,-5.915904245198868594e-01
6.302153425395349284e-01,-1.167803284205753966e-02,-1.196512470269222472e+00
-7.530791343633462809e-01,1.659344574132182726e-01,1.078787457981737585e+00
6.029269094549631891e-01,-2.519486580107631601e-01,1.024986170181480860e+00
5.202361698657824718e-01,3.150478618361036987e-02,-1.235938971946275000e+00
6.668340544655375624e-01,5.933947109658053998e-02,1.165664191444374387e+00
6.109670400963349568e-01,-6.334522116353844545e-01,7.217698575000633943e-01
1.339492415019756466e+00,-1.305964553538423445e-01,-5.144190643471084901e-01
-1.275310032520430736e+00,4.077995041240937701e-01,5.830086815751287510e-01
5.093924465692653558e-02,-4.052647846939154141e-01,1.487451870425627209e+00
8.911365343934946059e-01,3.535446164735014506e-03,6.559619411932953170e-01
4.328890117569944573e-02,-5.636525037688897566e-01,1.247746339226423640e+00
-1.072312246819200787e+00,6.294537208402362083e-01,3.929611602581859486e-01
6.185194941397634816e-01,-5.616159056943303973e-01,-7.573302794803661309e-01
7.024580077746683804e-01,-1.060583718687187815e+00,6.899803717196252573e-02
-6.658807807129514256e-01,9.998454260649396463e-01,-2.361733159082227418e-01
-3.959231446726016457e-01,1.417860622404651494e+00,1.127182170937049005e-01
8.734666904214892780e-01,2.921848320944715471e-01,-6.857336973280899750e-01
4.575625470441807008e-01,1.277305611403072305e+00,2.462402251772121964e-01
-8.250824134232567220e-01,5.213148459892747999e-01,-2.837966300340575287e-01
-1.168933438256493984e+00,5.490108947465583977e-01,7.186337583891598824e-01
3.627382489885633277e-01,3.141153842375811189e-01,-1.211929575209882648e+00
-3.457729899425042719e-01,5.557658695061099552e-01,-1.292008009685050363e+00
8.585278040354177298e-01,1.605820961068284980e-01,-8.672020226359418160e-01
3.306725287130450885e-01,-1.397865869842376263e+00,3.887865288890840487e-01
-1.051528631925851220e+00,-7.990779971641266410e-01,-1.947774370393569321e-01
-5.342088728876499548e-01,7.640696040450344340e-01,-6.873628621181425702e-01
1.789471280667525865e-01,7.555212477456498821e-01,-7.343864253157098565e-01
3.339451102427531404e-01,-1.578727030370557172e+00,1.525445658155112072e-01
3.928120361359872525e-01,7.268993855463597997e-01,-5.646963585391963081e-01
4.288242654308755952e-01,-5.804123283670306055e-01,-7.477122509298095299e-01
-3.443972677582705227e-02,-1.225645259952690136e+00,2.739503379754724133e-01
-9.913824123909649177e-01,2.216962587772258741e-01,9.754707929791885945e-01
-1.126997416793574375e-02,-5.562757389510116779e-01,-8.551359666721973785e-01
6.752663217421250863e-01,-8.131253305534460463e-01,-5.517441676941852169e-01
-1.223349251173238894e+00,-4.779649215010358665e-01,6.873200092413185580e-02
-1.272209974864430271e-01,8.222358157120493449e-02,-1.370756710911983367e+00
4.052823343148284629e-01,-8.522178950759704552e-01,-5.732562398557129457e-01
1.048736798809224879e+00,3.799952230687818622e-01,6.280742106175071227e-01
-4.600127707314141112e-01,-9.851498134856563338e-01,1.762815741724342855e-01
-4.168961378551465646e-01,1.376216764373937584e+00,-4.129072162394323287e-01
1.141363960795045207e+00,4.949947248954961743e-01,5.270025280079421170e-01
1.269134772686953294e+00,4.684337941189891663e-01,2.293109476424044224e-01
1.026515687709282643e-01,3.487692717199661896e-01,1.000452608040054647e+00
-5.086949402620420946e-01,3.654966622018874234e-01,-1.129012357529391997e+00
-1.220239510972748631e+00,-6.780194543975085475e-01,-1.940846976462866358e-01
-3.095760604713789221e-01,-5.883182630564223192e-01,-8.694069171448820521e-01
1.268298168372961332e-01,7.179417526520930348e-01,7.220295989088221233e-01
6.800118360570981402e-01,-1.411351327551805812e-01,-1.092711463178702047e+00
-8.233819393607920700e-01,-3.140749927520460755e-02,1.103245787215196616e+00
6.541776540569406162e-01,-1.596124793912207795e-01,1.024973014892669676e+00
1.157458471407085687e+00,6.581775883841677333e-01,1.325862338292353171e-01
-7.532030875287768490e-01,1.245037526342570589e-01,1.099529929066202172e+00
7.862715170233765261e-02,1.384583232392782914e+00,2.052170322272765524e-01
1.270691278532780188e+00,8.495720748316918369e-01,5.922724551757950762e-01
-7.009633579173879525e-01,-3.472906126173291863e-01,8.045600180518364120e-01
-9.941378532691985681e-01,-4.368253036418269231e-01,-7.625068532639415197e-01
1.053444208177463315e+00,-7.735408861588881635e-01,-4.466853118858457039e-01
4.231758918530709734e-01,7.442692304502893652e-01,-5.447068342333908353e-01
-5.637603028075384159e-01,4.501678651627397665e-01,-9.345905698961756158e-01
-7.972943208511772406e-01,-1.135998471512646324e+00,-4.785419788800148733e-01
8.234975181099828123e-02,-1.144513929012697107e+00,-3.489308087623602117e-01
-3.119255564896753485e-01,5.873843038791051185e-01,7.760380066666738852e-01
-9.347577630794108305e-01,4.346740045285026888e-01,8.290771628605582144e-01
1.117544661111463666e-01,7.108138894017617115e-01,-9.152162518156732318e-01
-3.660667787160712949e-01,8.545302389745160904e-03,-1.334027753381275661e+00
7.523084072162470326e-01,-1.364511303557597033e-01,8.100407918369476601e-01
-1.262576972064439973e+00,-8.016525244056973976e-02,1.397633527474169135e-01
6.655855452705974340e-01,7.407323086124220080e-01,-2.882502724734144484e-01
6.146608967246052213e-01,-8.516509971666579304e-01,4.814037078876601816e-01
-5.353631754432291306e-02,3.504397895333611346e-01,9.970909077398886211e-01
-3.266056849445495014e-02,-1.456456217306650425e+00,-1.064013120522413897e-01
-5.525685354253535575e-01,1.316993479158572011e+00,1.575568049135485926e-01
-1.178074898911652513e+00,-3.215706932131364160e-01,3.532923483547240062e-01
-2.342304781788564494e-01,-1.163138516004517564e+00,1.259945380784756597e-01
-6.418469195194883570e-01,-1.292542942938095796e-01,-1.268309714955745182e+00
-5.747452005155715415e-01,1.282353865070433141e+00,-1.624038797979156790e-01
-2.149720760847620704e-01,1.743390338611997825e-01,1.107382963999853365e+00
-4.506245088239525520e-01,6.675987196036171634e-01,-9.500382829083768854e-01
4.458770526089595454e-01,-1.305720017607951089e+00,-1.984159519889618084e-01
-2.318974009874793518e-01,1.360514591476752466e-02,1.233308086946014459e+00
1.165393378771866661e+00,3.586975834433945853e-01,4.101643860841161504e-01
1.261825194950913387e+00,-1.236321912991321034e-02,-2.223083106811690191e-01
-1.037945347327662748e+00,-8.163646355706196678e-01,-2.121847248877940795e-01
1.104546681883410875e+00,-3.924610362208880709e-01,-1.892635284127486828e-01
9.291482320381030391e-01,4.893406146084731678e-01,9.687160108529855318e-01
-1.282121075586198256e+00,3.495775985043930167e-01,8.429951518011490341e-01
-1.782245229060552272e-01,-6.755797518329895723e-01,8.706818651147210097e-01
6.263099108794888403e-01,-3.329802016939713560e-01,-9.244619121236953285e-01
1.150590800261177993e+00,6.903185487055440994e-01,6.651920811925581267e-01
1.328368132447251826e+00,-3.587535675066062801e-02,-6.838252913271765099e-01
-5.402146030710035240e-02,1.390455333695221007e+00,-1.161934292796144297e-01
7.586222280351762048e-01,7.572681758798243123e-01,-1.749957020471707980e-01
8.866643160801401802e-01,1.684324815198084413e-01,-8.633836748075565115e-01
-1.702595727826251848e-01,-1.117156748684761336e+00,-4.228448005538519294e-01
7.862104009099792901e-01,-6.988769471583253790e-01,-6.317740883023461596e-01
2.485011833020084326e-01,7.908077891877131060e-01,-6.313616314667646057e-01
-5.921089402759199816e-02,-1.151403786495671655e+00,-3.521353480613454989e-01
-4.589542580537963601e-01,3.378817208481118550e-01,9.608689557149079352e-01
1.096881615544935462e+00,-4.070327238153538807e-01,-8.232890195919365661e-01
-1.545470764569243372e-01,-4.675854733531618068e-01,-9.289546944016384700e-01
5.691549239400887084e-01,4.658877662000238118e-01,-7.827081692497671606e-01
-3.829679682061955526e-01,-1.135435487560110035e+00,2.464503026086873813e-03
-5.896847357470637041e-01,-5.300389182385778497e-01,6.547685468220174609e-01
1.266293176739689885e+00,-3.476760129808117439e-01,-5.658323997389694826e-01
-4.369910552759384004e-01,-7.157724846965332066e-01,-7.581786527420172339e-01
-1.062396351361531099e+00,4.454466579890933309e-01,1.966019705116535954e-01
-1.011498955141440170e+00,-9.379241681141777809e-01,-3.118081340540012070e-01
-9.585384224321678026e-01,-7.497882426674504774e-01,-7.839162404359739655e-01
-7.703359930716129067e-02,1.123381351962603247e+00,-5.269261922963869305e-01
7.626945659138000266e-01,-1.536420410827590011e-01,8.301294137242822835e-01
-1.196002131103212962e+00,5.724998768956297557e-01,5.804031445182589177e-01
2.427687305465074386e-01,8.265315338201963957e-01,6.468885193540182543e-01
9.410759169165056059e-01,-6.418574316080413178e-01,-4.846554635787984205e-02
9.118921440818053004e-01,-1.952118644823916116e-01,3.963715340814867871e-01
-1.290247020258699306e+00,2.868393067332554100e-02,3.116442580651347383e-01
-7.603954095247382750e-01,7.564910386719586599e-01,-2.081810699106213802e-01
1.262741361468215029e+00,4.557043672266231082e-01,2.426788090946480070e-01
1.825236022199931418e-01,1.125899160202519678e+00,3.947344237115876786e-01
5.276769197732115169e-01,-1.487060091715820764e+00,4.572546392721805325e-02
-6.578662360198621606e-01,1.024705341953940474e+00,3.553117643631594769e-01
1.274365032182776858e+00,4.211035101595685948e-01,1.082467651844309792e-01
1.634905197801946597e-01,-4.839576119795171993e-01,1.515165970366860737e+00
5.157387088054533608e-01,4.868048334380975506e-01,9.594660885841600484e-01
1.543653684134355109e-01,9.154422513788921245e-01,5.731749412459493653e-01
-1.141084733396112938e+00,-6.044322078624402295e-01,-6.509149316364430948e-01
2.833043567457170231e-01,6.362169054651473088e-01,8.184691545040412297e-01
-1.816130594199303061e-01,-7.746398291110845324e-01,7.404449010583035173e-01
-1.115062004083448688e+00,-6.825959286749869181e-02,-1.977006119403873774e-01
6.564213767285960455e-02,-6.194674412095318994e-01,1.202395760057938023e+00
-2.691047973027669293e-01,1.131818494352671456e+00,3.657582396112682432e-01
-1.070265208535606527e-01,8.983673583868765355e-01,5.373121670800297123e-01
2.209792503017332099e-01,7.267237850640608787e-01,7.124216478132973096e-01
6.716142066355642593e-01,-1.239211401017425329e+00,-7.146210115639163585e-02
-4.929537175962760420e-01,-1.416349648480486056e-01,-1.251959623982945802e+00
1.027429884888216405e+00,2.267458097637865266e-01,5.555414778287690591e-01
-2.832292968549538492e-01,-1.731652238778470798e-01,1.371620168166479914e+00
-9.169055642487173863e-01,-1.255432506015521366e-01,9.279713002685070489e-01
-1.227138847528165710e+00,4.229293324145171895e-01,5.012843313591131000e-01
1.319600001719329008e+00,3.862873748976561883e-01,-1.092357336448283693e-02
1.298902105346642744e+00,4.581682650755938835e-01,1.248972748391776189e-01
4.434520963405670368e-01,1.275790286156808007e+00,3.169563526628172423e-01
-3.948454948425795807e-01,1.035884209178552506e+00,-7.697651653277375328e-01
7.038840793132660201e-01,-3.657805092236708910e-01,-9.000759234370380168e-01
-3.019823348555683053e-03,-1.333217474301574557e+00,-2.306681096758130545e-01
4.684661540516244504e-01,-7.851962762740816171e-01,8.611650699464820091e-01
-9.749163373145897094e-01,-4.784963347506296927e-01,3.411164709257497596e-01
-1.251045578615312737e+00,-4.748524688369339941e-01,6.417918294415088376e-02
3.009204407919995328e-01,2.699499917622255607e-01,1.142887532278224816e+00
4.348151617857275442e-01,-9.028296265124293729e-01,8.170452187363792529e-01
5.400910294633277930e-02,1.000384262990959144e-01,-1.360782652212898292e+00
9.479872234129238517e-02,5.787239181687250378e-01,-1.086302088614594208e+00
3.956576431696187668e-01,-1.658722354222826434e+00,1.053879861349663050e-01
-1.247028119923673906e+00,-6.953503970286828428e-01,-2.577505181104893794e-01
-3.050596731257735825e-02,1.391326246416957568e+00,-1.531815102115646754e-01
-7.842361224317944135e-01,5.210708449053577107e-01,7.777389979640620954e-01
8.581649405941155218e-01,-2.811491952066320077e-01,-9.616794147386547031e-01
1.041994074239074974e+00,2.378986199825796621e-01,-6.169212423302804504e-01
-3.977160212088453606e-01,1.026993696611810281e+00,-7.584995355951754670e-01
-2.927254398389327883e-01,1.039017943702995828e+00,-8.550434051242791211e-01
4.103801178605293587e-01,-1.102729279531938333e+00,6.683865663162867898e-01
3.038282905383355437e-01,-1.490503555452901141e+00,-5.635255197264452814e-02
1.395463551636268174e-01,-1.181853492524587379e+00,4.669673507453888650e-01
9.073981754754342210e-01,-7.966819909312675696e-01,-1.290480249918584399e-01
8.214301209719775398e-01,9.606708699785055927e-01,1.670051594418414942e-01
-4.383219283584727927e-02,-1.265717490237565634e+00,2.070934693371091762e-01
1.978383051815040261e-01,-6.941768463409595524e-01,-7.064787097779327008e-01
9.401001426604627120e-01,5.507948825458587327e-01,-2.659917322000731610e-01
6.171620788200544716e-01,8.212094845765534057e-01,7.016658685545072993e-01
-3.173601778441498267e-01,-8.886452265589876998e-01,-6.089495970925324908e-01
-5.408411496367225846e-01,1.418715106145571170e+00,1.018779134583660401e-01
-3.207868086191705270e-01,1.531094076504297741e+00,-1.931337417657395250e-01
-3.833164638951594427e-01,4.847937242671432334e-01,-1.258098603567290086e+00
3.066793275768885108e-03,-1.384819945549435882e+00,-1.938169922924039001e-01
9.494530095278767012e-01,8.831115237066921031e-01,1.926014211288146760e-01
-1.245264331993359619e+00,-3.528863611727585392e-02,1.410757166681845254e-01
-1.092852601202958462e+00,5.839667847822649360e-01,6.898806318545173122e-01
2.128583991704508238e-01,-1.533643268986042196e+00,7.131880408715614295e-02
-1.056917356834698118e+00,-6.962460382869487541e-01,-8.960564325742124969e-02
1.186411582876872872e+00,7.656598008561222857e-01,2.781463080625702355e-01
4.684848020994619722e-01,-8.606608917215585741e-01,7.793628857860874781e-01
8.031411562110629676e-01,1.006388399639160491e+00,2.206580567311904328e-01
-2.795758629004000961e-01,-7.741147487429760332e-01,6.206151859511509494e-01
-3.071805339735094731e-01,5.265372261414762445e-01,8.177677513486294458e-01
9.164253698617862431e-01,-8.078594272615867433e-02,-1.113533872488876586e+00
-7.284803626842002444e-01,1.235564339619016697e-02,-9.892335650518098156e-01
1.203949975382281767e+00,-1.904863235658776632e-01,-2.956819053188652346e-01
-1.156002923319956910e+00,-2.836703574039024095e-02,7.498074574001968307e-01
1.885586951475234363e-01,6.791970407885051797e-01,-8.493275280335039756e-01
-4.105045627173951606e-01,1.556090991063490359e+00,-2.311000892319692301e-01
1.302901692517744126e+00,4.515506325884346972e-01,-3.661218688900077112e-03
-2.457660251182792188e-01,-5.976494343441538515e-01,-8.288589094081717512e-01
2.758291175630344649e-01,9.277366612002332369e-01,-4.424223440586148581e-01
-1.064571050988633250e+00,-5.783528868069827134e-01,-7.501526834677109123e-01
5.227429732608496193e-01,2.451607625107038169e-01,-1.178025072428406705e+00
-8.065312992805743209e-01,-8.774546904919060530e-01,-6.674764512710675834e-01
-1.319009834168312523e+00,-1.660077788853919212e-01,3.761368385454675334e-01
