1.115045397270143956e+00,-3.677182374726135627e-01,-5.028353534013345616e-01
8.584348734835264283e-01,-4.815533277766666509e-01,-7.047261968387928954e-01
5.716528902534572243e-01,9.260525945650883717e-01,-4.246563196027297038e-01
1.105454075686320703e+00,-3.061284791077040213e-01,-9.185908594880014544e-01
6.059302926096989950e-01,8.688105528505032371e-01,-6.761573677768460688e-02
2.443294606276423531e-01,1.200547643941571430e+00,-9.049002007346644838e-01
4.821624139924078345e-01,1.070294131895480394e+00,-7.528899694989160674e-01
-8.940550774462950878e-01,6.482671288842714596e-02,1.086031446429939207e+00
-5.516321177518437174e-02,-1.290539512064360350e+00,1.822592550793039612e-01
-1.481682107928365411e-01,-1.337261659018643467e+00,6.566367156671648608e-02
3.464925158203094324e-01,-9.364179302615851519e-01,-3.358981855331794053e-01
8.918008787713384011e-01,4.514267146376769180e-01,5.272188305901434058e-01
6.067218316923391752e-01,8.762634622948424212e-01,1.681745698471224376e-02
-4.105971667764373167e-01,-1.158739505189424035e+00,-7.714338575374672935e-01
3.527348154306499950e-01,1.251084089383884379e+00,-7.247065509749763823e-01
9.324483228775958255e-01,-7.019086499231281216e-03,9.396785495716994951e-01
-9.572082530030094905e-01,-3.580102821131848079e-01,3.234077642003501118e-01
-1.704173268548834774e-01,1.006771599970478936e+00,5.663947177205331807e-01
5.344759908268149617e-01,6.882060637535556413e-01,-9.793363062414537357e-01
-9.960838696213494270e-01,-3.236039670306266602e-01,3.244207797849258390e-01
-8.804183197108674808e-01,-4.698667277267715714e-01,7.215831208419344334e-01
-7.160924396135592840e-01,6.119671379340640982e-01,6.074754951031678951e-01
4.379170276061861156e-01,1.120175666935956604e+00,8.620112903230343626e-01
1.037063471796258796e+00,-3.986105731119954365e-01,-6.706450339158332996e-01
-8.076446764631164399e-01,7.439084002563197684e-01,-4.604839472646434229e-01
-1.009514566639339694e+00,6.554819092997037355e-01,-7.067479551449231678e-01
3.035812575352426768e-01,1.299281452071992415e+00,-8.173247824771339154e-01
2.580776069234879677e-01,-1.038011972362745894e+00,-9.929081200898062787e-02
-1.078085965668724500e+00,-2.031143830051929666e-01,9.567962171221224832e-01
-1.973096741504723473e-01,-1.012217403927183845e+00,-1.121465504671365743e+00
-4.693066656464284780e-01,9.153271369966223814e-01,-5.185719143775982531e-02
-6.125992246020670606e-01,-8.797263414933277348e-01,-7.528599418998010995e-01
-3.501669967549164153e-01,1.054119194449464558e+00,-2.583600717582133499e-01
1.165228645177587730e+00,3.564889065069563184e-02,8.173647797605386456e-02
2.617552937102690658e-01,-8.377347194160280619e-01,-1.101865239908939476e+00
-9.504987925062653720e-02,-4.229476710442998111e-01,9.718720065537103103e-01
-2.902242396024643512e-01,5.236660505686209222e-01,1.106678286898995500e+00
-3.510504816012123830e-01,-1.242352832134952845e+00,-7.898718837383305047e-01
4.923219510307454971e-01,1.025643479393431035e+00,-1.727847803787005698e-01
8.101231374033803778e-01,5.609244929139302061e-01,-5.513476400029494462e-01
-9.777640837154767395e-01,4.285265503353545835e-01,7.073340903340114005e-01
-6.369150180627195512e-01,-8.228553969143407310e-01,8.986533487230690120e-01
4.928646887124136788e-01,1.019958817201791712e+00,7.737511820607206880e-02
-9.630918966523879243e-01,4.045421572770870333e-01,8.817846418412631504e-01
-7.154345393796573971e-02,-1.296227941277823925e+00,8.776381414123493041e-01
3.551605634493452124e-01,4.040369567925992111e-01,1.032597289255037909e+00
-1.034646767737823936e+00,5.026614127226256556e-01,3.669549359412799250e-02
1.203765052187810158e-01,-3.065804266425853908e-01,-1.056559329017475957e+00
5.829625916561438359e-01,-7.285463979930866252e-01,8.751835497458346769e-01
-1.083253391076362648e+00,5.628042228797575097e-01,-5.654488060481993594e-01
-3.247428259960036256e-01,-1.259897099577953927e+00,-3.404352006896700367e-01
1.241752611268680973e+00,-2.677555073952989778e-02,-4.791216873845198509e-02
8.426827162882800648e-01,-6.676617895685619253e-01,1.643264918951798659e-01
8.684426156263087559e-01,4.935717151339809039e-01,7.544857254036780869e-01
5.580311382197844505e-01,9.589478448436665747e-01,4.491777546986684411e-01
1.404639446685646442e+00,-2.887009903446988712e-01,1.231279068310096453e-01
8.968708166203243071e-02,-3.110729983389272091e-01,9.782300510370142144e-01
-8.250821292291141695e-01,-5.506885954357261248e-01,-8.522691806551078164e-01
-5.085645069080040326e-01,-1.008803019100244835e+00,2.119402731959337260e-01
1.242535108059695803e+00,-3.396630719993782299e-01,-2.531100399756610608e-01
3.181825070639921621e-02,-4.770413466605816222e-01,9.531683936930470669e-01
7.081113769796650859e-01,7.037988616379702300e-01,-2.943518238485873847e-03
1.144861540156529633e+00,-3.668667501526975960e-01,-4.031625288711682131e-01
8.215231781893099772e-01,-7.651614833139680494e-01,5.646491231307759762e-01
-1.028330934520051310e+00,-2.723269594759439860e-01,9.248739941353065763e-01
-7.203017838097938164e-01,6.191267716872006499e-01,5.972723291442368909e-01
8.587776985512853845e-01,4.779685438574137191e-01,7.730110672959286111e-01
-1.332558545261643079e+00,3.157546897219796755e-01,8.393558827499664893e-03
-5.679370351035966102e-01,5.359127665065217122e-02,1.062228281108842598e+00
5.321966396610509076e-01,9.964633885699737403e-01,6.789824978116627552e-01
1.312339252656842703e+00,-4.288283702825184118e-01,6.693351093757057280e-01
3.076557202810359382e-01,1.305021286575858808e+00,7.318746481299234774e-02
-1.159988700695077535e+00,4.132028617140286464e-01,5.161889948100484293e-02
1.142842965673453559e+00,-4.971110545508889977e-01,2.529591494314403777e-01
-1.174539686572134284e-01,-1.305301939000225842e+00,-9.371867623823063043e-02
6.335235310058082714e-01,-8.837119232232165666e-01,5.070385379653049585e-01
-1.286737348261453306e-01,2.867008659938754395e-02,1.009586451861535839e+00
-8.511946484360606302e-01,-5.281016962934679260e-01,8.799300134547002328e-01
-3.859455266675454466e-01,-5.760594465827924282e-02,-9.948257293463352857e-01
-2.795603145979795867e-01,-1.349849337287465367e+00,3.995793659013033988e-02
-1.282974449460239308e+00,2.599466557285604051e-01,3.461617855766309648e-01
2.578544153551975970e-01,2.077177067077894401e-01,-1.009129453049708802e+00
4.843262696157153990e-01,4.980037022615197984e-01,1.040923199007276923e+00
-6.467950097328832859e-01,-8.258011945514571739e-01,3.357056302447744001e-01
8.903436205870197684e-01,4.364268041493077899e-01,-9.492374615968918183e-01
8.952367495620060234e-02,-1.028108398689125957e+00,-8.290616051990845614e-01
-7.871448105069240864e-01,6.417589107477241761e-01,1.887155797373568367e-01
9.607379668210447310e-01,-2.493396379889133430e-01,-1.110049163392056171e+00
8.544632779845520165e-01,5.232616796272157034e-01,6.655007559604884104e-01
-3.255690078307961199e-01,8.277225073760281493e-01,9.552807082167068531e-01
6.541183544332921374e-01,-6.544319529552767856e-01,-7.263205507099231850e-01
-2.885827849942180778e-01,9.083948905160292853e-01,6.026647616779952088e-01
4.229620235724650956e-01,-9.408249645721162846e-01,4.331059534736005079e-02
5.843543608415272539e-01,-7.505737641755987344e-01,-4.171733197852285357e-01
1.263497401559258382e+00,-8.585629931224927902e-02,-8.530753300797963012e-01
-3.999437409769712737e-01,-3.061093040632581475e-01,-1.007867180498646098e+00
-2.629400811935985738e-01,1.016887681474680116e+00,1.797035425267927145e-01
-8.466767817463230483e-02,1.144239645992639831e+00,1.735710191640713607e-01
2.711045408668983914e-01,1.334519588119402966e+00,-1.216945047063111990e-01
-1.086753749838757388e+00,-1.921128933657522131e-01,3.539653856884214522e-01
-5.252244522529747606e-01,-5.211628824197637178e-01,-1.042832784281924052e+00
9.528475473015786401e-02,2.697025336413297336e-01,1.041428559544319343e+00
-5.727195184087406910e-01,1.138968046363356915e-03,1.057934540824425174e+00
3.733151954851257059e-01,1.095070975919507361e-01,-1.021753185065358727e+00
1.292305839624236230e-01,-1.024542713146342932e+00,8.597888358366150285e-01
1.282526206252745826e+00,-3.880711041658332916e-01,8.493819161492168757e-01
-7.296069402337969079e-01,7.124589401698577795e-01,-8.562765084095258494e-01
-9.516207553066960978e-01,2.977276036420615276e-03,1.083950054924521123e+00
-4.055760536755482759e-01,-1.160687198467304393e+00,-5.937072211185351334e-01
-1.400134463759323544e-01,1.176844701136873228e+00,-8.488934440119192404e-01
7.877242815050183866e-01,6.259555029971923812e-01,-6.614539076752189439e-01
7.066756201245734115e-01,-5.695508777927186239e-01,-9.566516541216320002e-01
8.261493161282079667e-01,5.577045831858117308e-01,-5.608234948047872148e-01
-1.275633694783551153e+00,3.703264096696317065e-01,-2.234136441565066911e-01
2.017231587171530449e-01,1.440951880287839326e-01,1.008407790552423133e+00
4.051372547969334659e-01,-3.483748757073642510e-01,9.440450189190880970e-01
-6.025228393502966850e-02,-1.199879762437790820e+00,8.736820047036937265e-01
9.169035754189408527e-01,4.165308609889759595e-01,4.208262395741877437e-01
6.899487781310185142e-01,7.619989468860400850e-01,-8.992527229573532566e-01
6.167771995608224422e-01,-6.268236457780863580e-01,-1.097639347103655405e+00
-1.713119380800416924e-01,1.125184483861880747e+00,-1.950084535388583173e-01
-9.287588749408406397e-01,1.007940210486491794e-01,-9.033233785654306569e-01
9.704855636242851746e-01,-5.311367309423264960e-01,-6.232470460808590268e-02
3.726125480230895737e-01,1.222017273805670490e+00,8.810561960080394162e-01
1.037158993209478242e+00,-1.281555693158136777e-01,9.189295863794553210e-01
1.093866082585977617e+00,1.588314355581191550e-01,7.875638344844422545e-02
-8.011873696075854090e-01,8.705456276777129299e-02,-9.271148591771267711e-01
1.594982824705688113e-02,-1.295301512206736616e+00,4.475526463775351127e-01
6.046344271953589533e-02,1.208743495161585413e+00,4.209738349539609015e-01
-5.138588503474552649e-01,-1.021030496855803271e+00,-2.141825472084708248e-01
2.830249827909881444e-01,1.319453570033760403e+00,4.163706990285238607e-01
6.013669132265909989e-02,1.323750929826547740e+00,-1.745534170703611498e-01
-5.600393854261223048e-01,-5.415614088911617670e-03,1.043827121939557401e+00
3.050054618913470850e-01,-1.135892328895317993e+00,6.130567549734097232e-01
-2.778783796997281175e-01,1.012751480501156598e+00,5.519572139383421144e-02
8.059010725033132205e-01,5.736665588364661117e-01,-8.064544296260307554e-01
-1.287866719136857796e+00,4.732593973088312644e-01,-8.297362832755275086e-01
-8.729954198595727410e-01,6.918967970970053560e-01,-2.147345324445000259e-01
1.298639660144469687e-01,5.899079172915824287e-01,-9.538204198693903679e-01
-8.952039403399959794e-02,-1.755944564055702400e-02,1.002019250351388724e+00
-3.698166376876654837e-01,1.054005779095714690e+00,-4.540414016396617791e-01
5.880126464496282512e-01,8.808423544286163587e-01,5.103199094424883953e-01
-9.113932914114026840e-01,5.146931392339718636e-01,4.260905767945960543e-01
1.054651657198143910e+00,-5.660161751579455558e-01,4.977870643896816771e-01
9.019814120304338045e-01,4.294056741888832018e-01,-1.317504524166692170e-01
1.076732264269873784e+00,1.731671205491628618e-01,-8.162847183920376448e-01
4.559523607182104366e-01,-7.926218896930840030e-01,-7.767674356650968726e-01
1.157777759247940574e+00,7.525211282209001706e-02,6.773069848053022701e-01
6.712624159370607080e-01,2.205748700746665014e-01,-1.027219104814042883e+00
-1.374711038302850186e-01,-1.370330052336927951e+00,3.133493913177546331e-01
-9.060648594056986971e-01,4.571003185896709287e-01,9.572952632692220964e-01
-4.693493512342714058e-01,7.669050910643377961e-01,8.214529358249501589e-01
6.270069577003302141e-01,-8.562293053828521350e-01,3.569999890182930513e-01
-5.541558934664780889e-01,-9.483668207308019182e-01,-9.289473890513824106e-01
5.819402050530323445e-01,-7.012601088449511577e-01,-6.602526841142293268e-01
-1.237189165027315907e+00,-5.121917381676778860e-03,7.850919849373312331e-01
1.128421824175040722e-01,1.417721076490076726e+00,-5.822031984170559227e-01
1.610805750044708856e-02,1.105880277184838389e+00,8.913325819275889073e-01
5.657743302282619569e-01,-6.338508301301035708e-01,-1.116747819846519940e+00
1.275250916373989130e+00,-5.454471570369313210e-02,1.711455804970781480e-01
8.866130528942508526e-01,-6.294818105119905916e-01,7.596738494834232025e-02
-1.243826241982725067e+00,9.544009757050733733e-03,9.775105443023732188e-02
-6.418275686810424041e-01,-8.266112959981430919e-01,-5.596496202752894167e-01
4.932860953706494356e-01,1.033160216144631383e+00,1.548052733662150793e-01
5.498822888622342253e-01,9.464630952377128814e-01,-5.223611138196876391e-01
-4.549303188951620558e-01,-1.490921068904934033e-01,-9.928812771946361471e-01
-2.513119474726831504e-01,-9.554433402108999385e-01,9.196578349964776855e-01
-1.086544603085884741e+00,4.682548719312423779e-01,4.690089154665761512e-02
1.891333008318043518e-01,1.424705233822446182e+00,-4.510193707038392952e-01
1.093688476037596002e+00,-5.125520588094436558e-01,2.477691905590707067e-01
2.215293199934923185e-01,1.365695984858687373e+00,6.230952607333045679e-02
4.359095051900541140e-01,1.106840082517794643e+00,9.671429962998988605e-01
2.913239995829182694e-01,-9.168186820085814093e-01,-5.898240181009758443e-01
-3.594124312192514270e-01,9.547963834650382564e-01,2.778590037668025176e-02
-6.198175003563203278e-01,-7.313629104136782910e-01,9.683889608684657091e-01
9.807023921133846134e-01,3.190508281216500319e-01,-4.516822058145660290e-01
1.001845641335615600e+00,-3.635531203851227189e-01,-9.956811342113073282e-01
5.542637006269038880e-01,-9.768900024919789926e-01,8.270370465675945804e-01
-6.201058322326125083e-01,-7.708725577773057891e-01,-1.037264324474034494e+00
-7.060024305307435188e-01,8.343938879968209044e-01,-5.360052916496813591e-01
1.951919815775899833e-03,2.434703779864738626e-01,1.041594835133764274e+00
-1.211012881653140250e+00,2.401873782677609315e-01,7.891776517756772247e-01
7.188371879299985112e-01,6.551836789095912827e-01,1.018769995157909003e+00
-4.661685255874556399e-02,-3.312604915375852443e-01,-1.026155593547882550e+00
1.118185586496301953e-01,-2.305993400975009378e-01,9.777221789009989950e-01
1.088357627939692263e+00,-2.757876118424381073e-01,-1.125321216768338184e+00
-2.362336071960310230e-02,8.918165084829997591e-01,1.131637193889593940e+00
9.448371590142418119e-01,3.847421013653525290e-01,-9.937523586619098070e-01
1.059526689763718110e+00,2.306094038195493912e-01,-3.847250835478490671e-01
6.064150342699803353e-01,-8.316420095781847932e-01,2.011184482909406102e-01
5.924510505771439783e-01,8.973391418192872004e-01,1.756666874619852992e-01
9.093751434921598653e-01,-5.440252170973353119e-01,-1.513871219931959278e-01
-1.820171356457718839e-02,1.207334428859930808e+00,-8.720938768556124598e-01
8.332403056906266536e-02,6.876209719373956863e-01,-9.366945196690301678e-01
-9.083835871066728851e-01,5.924301710351455030e-01,9.497885524022470216e-02
-1.048285374487448074e+00,5.045569529005445863e-01,2.375280291461694636e-03
-3.194786234860375052e-01,4.191414578121689938e-01,1.075426180678598298e+00
9.836923698605662958e-01,-6.386832924319423288e-01,5.088120887060315622e-01
1.212841804793057809e+00,1.714597544927003864e-02,-4.988062615599879179e-01
-9.043886513884179523e-01,-4.552869337729312238e-01,9.487991636280206365e-01
-2.825785101940477273e-01,-1.331105331997529451e+00,6.000587472005017853e-01
-6.745827318545561946e-01,-7.807031584846854111e-01,-3.426630542043337946e-01
-2.482462557258224845e-01,1.008074710176379396e+00,2.028040442223149054e-01
1.289486958901602032e+00,-9.829296916138682838e-02,-3.508738623336908891e-01
1.273347811394026363e-01,-8.243703932572579718e-02,-1.033975610825058622e+00
-5.162450471157089549e-01,-1.040551414927006979e+00,-2.628488358063130748e-01
2.842660775106558568e-01,2.511841598604974135e-01,-1.004589526856750403e+00
1.207111676323544991e+00,-2.382711214274996214e-01,-9.346582010122292949e-01
-1.317331476033491988e+00,1.555374310666528537e-01,6.426788786485032601e-01
-1.681478339037304204e-01,-9.920566145953478854e-01,9.156118439172832302e-01
8.637214268157626940e-01,-4.923456674480349293e-01,-9.401171477161565093e-01
-2.370087831016915170e-01,1.174285015288080380e+00,-5.550953805862431922e-01
2.520951524625677509e-01,-6.064470972153184203e-01,-1.108008230510971304e+00
1.364233007457823776e-01,-9.514277650572870726e-02,9.883079081770518304e-01
3.675670459492854092e-01,-4.792102494888539344e-01,-1.086601004810728632e+00
8.527369504538501177e-01,5.386918088405504568e-01,5.112870790130817911e-01
-1.160016991738012926e-01,3.806088372940674147e-01,1.061271950110136197e+00
-1.209905323319790726e+00,-9.323662313338492227e-03,2.110655256321337936e-01
1.235077422743315001e+00,-4.305595661444532873e-01,3.902738845842563253e-01
-4.236743319896933979e-01,7.118351388674616365e-01,-9.085602665403251788e-01
3.275671159984207270e-02,1.091342334237320300e+00,8.611004768401487874e-01
-9.321758100003640912e-01,6.041606888076018755e-01,5.445151911297670816e-02
1.337766950799643695e+00,-1.660391119181048591e-01,-4.371065124443407335e-01
-1.305927683523946614e+00,1.899388155475471573e-01,6.971635960848906466e-01
-2.239321913479323245e-01,9.402546329376025858e-01,9.704315709554292013e-01
1.137111036442238765e+00,-1.677482593213937834e-01,8.805368143886674881e-01
5.797618577672205564e-01,9.257782652425597947e-01,-2.833036268835329441e-01
-1.323846129167784325e+00,1.670058453301453416e-01,8.071409299812886129e-01
-1.206727942409754117e+00,4.993243044871060188e-01,-4.081785111887981099e-01
1.300135481526285997e+00,-2.426473142960803298e-01,-5.783333160980455023e-01
-3.457053287411517295e-01,-1.231877561676623101e+00,-3.249608413156726029e-03
-9.040109458142716603e-01,5.980791670016607497e-01,1.263177415286033944e-01
-7.297012014354690157e-01,5.974262722790548708e-01,7.201820706662680482e-01
9.777995726819893596e-01,3.269926634292742995e-01,9.464848540294837909e-01
9.548841755639687623e-01,3.628964890491165329e-01,4.380157343765995748e-01
-3.570330523948587187e-01,8.232198502502061643e-01,9.482140437521574539e-01
-8.570622896095746457e-01,-5.052565631290055759e-01,5.318786575230929348e-01
2.843101942842954713e-02,1.331485706068235908e+00,-4.343020199434189932e-01
-6.556239546762188120e-02,-1.383193430802965640e+00,5.780139112175624039e-01
6.467750832179715026e-01,-7.618517503627767473e-01,-1.579022243100481337e-01
1.426631510754294174e+00,-2.979372512620399593e-01,3.533166849474582705e-01
-2.408065251943929397e-01,-1.393693827729105106e+00,-8.455732041527423692e-02
5.166074014328996267e-01,-9.542158019389810342e-01,4.665031809080991687e-01
1.387859734490309638e+00,-3.337432772597990760e-01,8.629105553704411458e-01
-1.209720542924634934e+00,-3.431964290926393674e-03,-9.115914173301000734e-01
1.232819642373629287e+00,-2.429500503369540765e-01,-7.925922973051048315e-01
9.671740485776334495e-01,3.717209464877935798e-01,-9.805815950429807026e-01
-2.322390015552250331e-01,-8.242351475760032464e-01,-1.106555949474134382e+00
-1.298928929095251927e+00,1.120137582970722467e-01,-1.302996988934156108e-01
-4.733844518333956142e-01,8.828200942059210021e-01,2.410321595131297290e-01
-2.617601575795521773e-01,9.741456966601895751e-01,4.956737285690125949e-01
-3.901909341703865275e-01,9.310646111962146421e-01,2.083221383584823727e-01
-5.299450757707153681e-01,-2.539453971857985048e-01,1.012008815432559716e+00
-4.012837482526923627e-01,2.350138331803622582e-01,-9.466262808027373632e-01
-6.960364816810352684e-01,5.308548089009451632e-01,1.123794695216885353e+00
9.155233196768129689e-02,-1.012243379398204191e+00,-8.299400721748150245e-01
3.314938224406605571e-01,-1.064922632028656446e+00,3.988859776690111825e-01
-2.160537397161196582e-01,-8.453913785248577950e-01,9.348925207096105972e-01
-4.268799684586890297e-01,-1.106582330350181831e+00,1.867773298371561141e-01
-7.788836324480057360e-01,2.990481742433611645e-01,1.114715121841685308e+00
1.025111556427106718e+00,1.892414482172512583e-02,9.185083815938823726e-01
2.288429466315729521e-01,-5.855412384531744063e-01,9.302748009331126555e-01
8.475094862591971978e-01,5.368055773851678758e-01,-2.119751963009877394e-01
9.653030323438997751e-02,-1.513998893963696413e-01,1.011776909467446695e+00
1.000825860375106346e+00,3.276788735416230613e-01,-7.993948293720102294e-01
-1.156040757594733182e-01,2.792455707685109756e-01,-9.591196889992026353e-01
2.189451450646830166e-01,-6.675971171623685807e-01,9.025425896083637545e-01
-1.030532193840979716e+00,-2.919161776406901110e-01,-6.710252047279344767e-01
-1.066165356443993684e+00,4.904409054249208033e-01,-8.748470455928211154e-01
1.223445232180365716e+00,-5.089513229709872189e-01,8.684129720795047414e-01
-6.181954471782058480e-01,9.474527997098052268e-01,-8.709394094456952562e-01
6.458248141156340827e-01,8.086398294130939801e-01,8.410000744086961744e-01
-3.752121236200275378e-01,-1.190790561525491897e+00,-7.837462231014730163e-01
-8.004620825722335020e-01,-5.709586285717883625e-01,2.194253497943569609e-01
2.070271274766130945e-02,1.138289924728883989e-01,1.016980253714790061e+00
1.404746432731482031e+00,-2.535072614404043634e-01,4.600333938344678547e-02
1.384220101431253180e+00,-2.197313879317032981e-01,5.747447298338606014e-01
-4.658658599946528117e-02,1.052517073572652784e+00,8.287673993363826597e-01
-1.284915187147714244e+00,8.059843148012103831e-02,-1.127718404038265954e-01
-8.217848396097200414e-01,-5.683789992274279612e-01,9.290922745957209683e-01
-2.731565594707125455e-01,-9.839700443962579035e-01,-1.123076124750206573e+00
-7.942346249722016527e-01,-6.147087785347715716e-01,-9.057348472926182170e-01
3.382520548136960237e-01,7.801791845585063223e-01,1.075289117207979928e+00
8.261509258119899002e-01,-4.782641830852068510e-01,-9.580992374592066652e-01
-3.204450996640098581e-01,4.274224224290537055e-01,-9.304130311647573759e-01
4.721839245941735208e-01,1.037060627872796292e+00,2.303316151023712677e-01
6.485182731966939729e-01,8.122121586539887694e-01,3.364601129092227860e-01
-1.341363806615334386e+00,2.507490143568807395e-01,2.827420694716482052e-01
7.601343438537244701e-01,6.547912839245705330e-01,-2.826650312745152549e-01
-6.529684317476924793e-01,2.054387533261724241e-01,1.072316291044985270e+00
2.858679940266062314e-01,1.334163500252235179e+00,-7.541502932045276442e-01
-4.248929952887971206e-02,-4.362741131062394251e-01,9.684447310267676468e-01
1.113477438509429929e+00,1.703145381165557248e-01,6.091201548539297850e-01
-1.077517909267257323e+00,-2.123844750427245631e-01,9.768281588209699606e-01
-1.158641030196924326e+00,-6.518622081806467461e-02,-2.069905250347622017e-01
8.409206689882807728e-01,5.579150149347594789e-01,-2.467612051923263605e-01
1.299257002846733400e+00,-2.952487859332081355e-01,8.660090087072676024e-01
3.049315911999550543e-01,-8.149224246898160162e-01,-1.127727344916714225e+00
-1.072086260522619794e+00,-2.307296845555582010e-01,4.864378137425900972e-02
1.157821578980430255e+00,-3.003186725502600685e-01,-7.307817021998344043e-01
-2.640028831377123630e-01,-1.360482168413863269e+00,5.796234780392025415e-02
-9.601902726792004295e-01,3.876626386247711276e-01,1.128615111983453545e+00
8.745837946424658282e-01,-9.015284860502736919e-02,-1.079520948547832981e+00
-2.438254372564700734e-01,2.581991333242786291e-01,1.071299755354604866e+00
-4.298016287031466987e-01,8.757920007854503863e-01,3.583192148380686115e-01
-6.912520813292982735e-01,5.274614031614900389e-01,1.123845344350576925e+00
1.582727383173349600e-01,1.404235593921105307e+00,-4.132617939856991218e-01
-7.562368293375686390e-01,6.529156884928298821e-01,-8.680949844203627030e-01
4.846305688290735159e-01,8.351631828236765198e-01,1.065383876671580632e+00
1.092632155277140305e+00,-4.426279039718273856e-01,-4.615298619621545362e-02
-1.249144484230320984e+00,5.453833191077993303e-02,-1.501844613561424402e-01
-4.155559600615529869e-01,9.221283208415477217e-01,-8.933374914871045069e-01
-4.053502782249740477e-01,8.088533776075229609e-01,7.553026541045667619e-01
-8.219354966369544213e-01,-5.781555093764131348e-01,-6.925311415251209635e-01
-8.849280540711382814e-01,-4.633406313795812026e-01,6.822301381063186065e-01
-1.019252748676856418e-01,-8.439536079258546097e-01,9.147274040868356160e-01
9.926099825832163104e-01,3.304264377839608580e-01,6.433099487275073525e-01
-1.120738695020212783e-01,1.262399876157121570e+00,-6.651583877824532864e-01
-1.391718331897795480e+00,2.466507161890547917e-01,-5.582372641353712250e-01
1.016155741237297905e+00,3.027071888318455528e-01,-9.915393521303761393e-01
-1.022924060250134937e-01,-6.809462648018217434e-01,9.407250104480245900e-01
-5.150383114242897131e-02,1.242281089860263421e+00,-3.605158949637397026e-01
-5.197354298751620805e-01,-1.002551941747833464e+00,-5.766388811565974493e-01
2.964446546379053693e-01,6.116359291011452815e-02,-1.042342500988794551e+00
1.335629556113225869e+00,-1.466641489495148776e-01,-3.213002696129506064e-01
-6.822912051968705871e-01,-7.983498071518895234e-01,-4.800475280311095605e-01
3.279867185664543938e-01,-6.639108253698624562e-01,9.061953877477435526e-01
8.061591099054060683e-01,-7.175733966322020985e-01,2.603102914562449022e-01
1.951578160549030660e-01,1.349584337223599606e+00,-5.508848937022293307e-03
-7.588550116087566799e-02,-1.148016962666567053e+00,-7.815358766050214401e-01
2.220948077740220739e-01,-1.153245715453914633e+00,4.236414386045286862e-01
3.013934873300726583e-02,-1.251821572967519725e+00,3.971307095554197364e-01
-5.857698890564884131e-01,-9.219105390273434342e-01,8.368030439044381597e-01
-9.456528439965861121e-01,-4.271005122786604158e-01,-6.674147224278254020e-01
-4.543872012695852058e-01,-1.086508585951587724e+00,8.583550302531198772e-01
5.568295303160260001e-01,8.364046406038379011e-01,-9.563706466841640497e-01
-5.560749655411305614e-01,7.727994156838885464e-01,4.149707551550907980e-01
-4.024118368961253633e-01,-1.193041990105718542e+00,-5.363517371322421567e-01
-7.082514372112487348e-03,2.679036990998719947e-01,-9.840019359863101389e-01
-1.424351761442379793e-01,3.204076453301624161e-01,-9.505145910390826458e-01
-6.330481368175485679e-01,6.053448517611201840e-01,1.031540912233412488e+00
-7.269966669256230363e-01,-7.072777994146560721e-01,2.682478249099943257e-01
-9.622470185654378172e-01,1.090198454491441392e-02,-9.317967480030451277e-01
1.002598384193280900e-01,3.107237727176371811e-01,-9.863826846339982524e-01
-2.291582566525842968e-01,-7.583995994992778211e-01,9.450226014896341287e-01
-1.925062281211927240e-01,-1.242684555014754721e+00,-6.586877239639983284e-01
-1.298310899506336102e-01,1.086478426844525114e+00,-8.776432271595268064e-01
-1.245148824977193369e+00,4.213218538165473814e-02,-7.886419140118323678e-01
-2.753782809564777057e-01,1.156291464995837348e+00,-7.721083930848413601e-01
9.846754182911592046e-02,1.332917745685689770e+00,-1.625758541730721041e-01
-1.394714200864124010e+00,3.784671186534309673e-01,-8.598765840860688181e-01
-1.541610564752405876e-01,1.073210715936161463e+00,2.463510583057138548e-01
-1.169360165691489151e+00,-5.157086497694173682e-02,-3.296264295081677287e-01
1.304676772323854372e+00,-7.870855035393574395e-02,-3.722571327693399018e-02
-6.192648402135579599e-02,4.167736176401151127e-01,1.041233062791140807e+00
1.121022147829223270e+00,1.574102332514847880e-01,3.944925463420167477e-01
-7.690958782581772679e-01,5.592299726714962116e-01,7.210153916112078676e-01
9.340210509211289702e-01,-7.059721267879509599e-01,7.079555656873121050e-01
-5.634091384387561741e-01,7.689280876002813070e-01,4.344602787189270066e-01
-8.823965035823166936e-01,5.597321652307848394e-01,2.849154334023076274e-01
8.580944947003530388e-01,-4.998274443001404221e-01,-8.210418544551471021e-01
7.925906790552477155e-01,6.239663376628684643e-01,8.893495932779265090e-01
6.570805973496136598e-01,-6.537685080427976247e-01,-6.826718303515875164e-01
3.890172001515387334e-01,1.187910912748548764e+00,7.932267026677430888e-01
-2.942892857568508158e-01,-1.327267952709026755e+00,7.362203414044744543e-01
3.032659610641560421e-01,-8.830423744428841371e-01,-8.872727795729133948e-01
-6.527367983717637934e-01,6.574840290927005393e-01,7.009628240712223457e-01
-1.042478148286456019e+00,-2.427771851412182658e-01,8.501607731156868297e-01
-1.045293828944464654e+00,4.545540589358187944e-01,4.246537961359594937e-01
8.488825662630971047e-01,3.490045662260182202e-01,-1.035899314641850699e+00
9.124914558371938211e-01,-3.890037930394334431e-01,9.008252444202546894e-01
-5.920097838224462894e-01,8.266666354088990643e-01,-1.607571641339857749e-01
1.907552414851650113e-01,-1.063006962819144530e+00,-2.820403344526396516e-01
-7.742035902365600464e-01,-3.075471512765668991e-01,-9.900960128262381588e-01
-6.045222618341163923e-01,8.476861959526581503e-01,-3.466485018152879460e-01
1.012357873596389179e+00,-4.170589059985030933e-01,-5.716194584041374149e-01
9.061249337656061831e-02,1.234789459220045682e+00,-8.670083576663683012e-01
1.439971332371052237e-01,1.253990313995985595e+00,4.709131549452907906e-01
1.151652886792637664e+00,-4.569587980164246388e-01,1.209655820857875874e-01
1.100528893133287278e+00,-4.221941923423835341e-01,-2.082976968364254888e-01
1.028586067696438011e+00,2.700132894559696406e-01,1.786694280696266013e-01
-1.025515711560476717e+00,5.292628724237127269e-01,-3.936615129127505469e-02
-4.981607076178796306e-02,8.973374314442968958e-01,1.119858632593900394e+00
1.433786868068483766e+00,-3.474438493027195429e-01,6.037186923329972421e-01
-1.097644630360221502e-01,1.989044776190376784e-01,1.044698001359667172e+00
7.614932694346876474e-01,6.701121079272766012e-01,-1.027260993052458299e-01
6.555921390523500314e-01,7.913646541417799218e-01,9.732764473655580728e-01
1.241528220480541789e+00,-4.324973977402174485e-01,8.652612249317332971e-01
6.415991844094445229e-01,-8.039965179456310951e-01,8.706062910370342411e-01
1.348760149816291332e+00,-4.326798356710350735e-01,8.226573905722378566e-01
-2.223085809778954092e-01,-8.145404626431680395e-01,-1.067709485653568713e+00
-6.000919763762245507e-02,-1.136782481437197401e+00,-7.787943017197256346e-01
-9.239294823864513395e-01,6.727361301865595333e-01,-5.955902363161290625e-01
1.369917259879500637e+00,-2.289645976463880461e-01,6.448219329021438462e-01
4.521401868713759153e-01,-1.017191211195245470e+00,5.963417350466017064e-01
6.281500222159579483e-01,-3.539329489206820278e-02,-1.059894463233028938e+00
-2.110363625766103479e-01,1.015780166109252258e+00,3.049362329761010071e-01
-9.570192498736483921e-01,4.305089044320878355e-01,7.809465908570656367e-01
-4.169331257306009286e-01,-1.161887630223835011e+00,5.257108017900139485e-01
8.993534961386656645e-01,1.306754083911927378e-01,9.439307482088515888e-01
-1.064653527095547503e+00,-2.368269772506433890e-01,-6.411983697759173761e-01
-4.139318572723151707e-02,-1.210392795250356590e+00,8.831079103818172404e-01
6.382678265169130505e-01,6.724761315603732248e-01,-9.782670920406763004e-01
7.664354006939622099e-01,6.671645891743637202e-01,-1.777778247861291905e-01
4.550650346271499225e-01,-7.691885181433789631e-01,-7.387366294377960552e-01
-1.308328240221026117e+00,3.255155840205754547e-01,-8.624878530419789469e-01
3.338778849000795246e-02,-7.079451217890195824e-01,9.171932409469865100e-01
-8.642859604080649349e-01,-2.049934464356597819e-01,-9.700977316227077374e-01
-3.600537196300253187e-05,4.401930405894349807e-01,-9.557088873343612123e-01
1.398130185045806106e-01,1.309925965146317761e+00,-8.776974436108599953e-01
9.330850341190500830e-01,4.011841789729188590e-01,-8.514990003801532065e-03
3.096136528282908418e-01,-2.405376964988067690e-01,-1.051436025573857291e+00
5.490799151562075764e-01,2.739752955820725644e-01,1.029055438667143996e+00
8.311222567082851564e-02,1.051042123600058220e+00,1.119283896758608510e+00
5.337916483294912195e-01,-4.923425932408471151e-01,9.187011196093315402e-01
1.215919295028566438e+00,-2.379031787587545799e-01,-7.820395297272407786e-01
-1.325384625794450821e+00,3.173583384092545367e-01,5.358406903033833060e-03
3.154855473092158524e-01,6.600146179657978042e-03,9.752633863655096880e-01
-2.750650282045823403e-01,4.171066355860616470e-01,-9.498750845113123065e-01
-4.986124814687288298e-01,-1.967861267509165291e-01,1.029893653324728930e+00
-8.216250203015114106e-01,6.141016925921066738e-01,3.930909256980666400e-01
-1.780560343271151910e-02,-1.200512603531970646e+00,-4.289812968201400234e-01
-1.012596911411606238e+00,5.522572113309693886e-01,-1.987526820750834256e-01
7.835768658589273850e-01,-6.735947177259009599e-01,-1.802166310556619355e-01
-8.553968815465055053e-01,-5.089946755873365758e-01,2.966611122184774629e-01
9.655534862812389374e-01,-4.829128734636172759e-01,-5.057603673927568710e-01
6.405683848539855951e-01,1.215074679036297900e-01,9.809483538632358668e-01
-1.020951234237667649e+00,-3.938221892980665884e-02,1.076793530692564227e+00
-7.918749074739435401e-02,-1.261790510739646098e+00,-2.543569366543909083e-01
-3.266972533446144134e-01,8.782633898276758222e-01,8.094364848439421500e-01
1.283412511707596293e+00,-9.991666946212492129e-02,-8.123806435002053350e-01
-4.642681998047284431e-01,9.339040468588964972e-01,-2.152499905259289970e-01
7.405519927019005300e-01,-7.359400101535052974e-01,1.271863051461921690e-01
-4.573289833748154787e-01,-1.080251235406400001e+00,-1.074972587759921439e+00
1.942024882475976710e-01,-9.866062634482166693e-01,-6.603152302784733862e-01
5.774743466683470716e-01,9.539165420690476349e-01,-6.436625315477980669e-01
-9.268178278555853078e-01,6.752069113004797174e-01,-5.321748668567214402e-01
-1.247182038314399000e+00,4.077745049558777896e-02,-2.386032977994442528e-01
-7.641691361906720603e-01,-6.584812123803250872e-01,2.938337361087784427e-01
-3.478945917374354768e-01,-1.717527610230841772e-01,1.018932205434853300e+00
2.602441989164390179e-01,-1.052362700740168577e+00,1.047547392650831632e-01
7.212205653811879502e-01,-8.386889601647199433e-01,6.744407806845118536e-01
-1.157954562274345012e+00,3.701764583152795662e-01,3.630601291514415907e-01
-3.698974874400011714e-01,1.083493241206956226e+00,-5.992486962983446519e-01
4.983347158492932305e-01,1.071531948397789202e+00,7.665559316686619828e-01
5.805292265771625493e-01,-7.849074545643901502e-01,-2.568558438567211111e-01
-1.217716188708667158e+00,2.636787664849596924e-01,6.635503934881691324e-01
-3.983960622129394946e-01,-1.164660808554057958e+00,7.921724196759537540e-01
-4.441593455760243225e-01,4.510001928002923544e-01,1.101667700375073888e+00
7.964849147724527567e-01,5.989103844561941559e-01,5.489019352355086756e-01
-4.558396740374513478e-01,-8.448677285080443689e-01,9.586620421027673977e-01
-7.031812266027841207e-02,-1.164097420010595796e+00,-6.363941811662428005e-01
-1.541396945163188981e-01,2.235589091890067270e-01,-9.792755036750770969e-01
-1.324136541019481195e+00,1.777859305636733944e-01,6.142799879577014455e-01
1.197635107138585786e+00,3.474488804885411675e-02,5.706864445818450315e-01
-1.168663436764241226e+00,4.193599494986258169e-01,3.229838931479434017e-02
-5.981090810297678972e-01,-8.668805193032053102e-01,2.714102485160579392e-01
1.347851769581450476e+00,-4.424620498996678641e-01,8.367941291691464167e-01
7.088805182741227950e-01,-4.083253444532040088e-01,8.997231178395882489e-01
5.019557945583915659e-01,1.024915934004045681e+00,-4.946085031785330544e-01
-1.115702715973208914e+00,-1.471281405435276302e-01,-8.367695051032104647e-01
1.216104957303489220e+00,-4.685870076011580676e-03,-1.007266037701038286e+00
-2.125742304475036759e-01,-1.381040268367265123e+00,-5.646456267562474651e-02
-1.302475440196476653e-01,1.270940293306949576e+00,-8.074592125219565153e-01
4.223984879973136097e-01,1.119660553972416261e+00,7.238761317826409858e-01
1.272946917804246514e+00,-5.980964196151658530e-02,-4.887011816483374238e-01
8.905124264762233066e-01,4.814175179084053680e-01,-4.499572924098159676e-01
1.351295166178071439e+00,-2.017312502184129830e-01,-1.670096464265780623e-01
1.189008627866769086e+00,3.530049554238982867e-02,4.267338136936240645e-01
-4.312966561168726787e-01,-1.146785734113678012e+00,-7.684689264916841900e-01
-8.878644935761378365e-01,-4.736649506420924083e-01,-1.810096967355509234e-01
-7.147975541920467690e-02,1.380453124489257610e-01,1.037825930182284528e+00
5.145281954716408590e-01,3.127360322651113189e-01,-1.019540681996029763e+00
9.922090768943682138e-01,-3.746891226192524682e-01,-9.048045270829504494e-01
-1.718146599508601213e-01,-1.313023053444402621e-01,1.008773270139879941e+00
3.523223018916828986e-01,-1.096082386984752688e+00,7.503043047918268593e-01
1.181192091382859077e+00,-1.758295828704288244e-01,-1.127555554913421076e+00
5.167142819226020478e-01,9.774267017112977518e-01,1.033363963264967378e+00
-1.217496322455785956e-01,-1.174503489469392870e+00,-7.642487004541616002e-01
2.669876309812820314e-01,-9.016279206013961822e-01,-8.611245019122365507e-01
-1.166575307572187414e-01,9.907378945339695431e-01,1.007880503636459535e+00
6.781507519211430468e-01,7.628823029366276209e-01,-1.947167814866570534e-01
-6.517109799164209072e-01,9.805210767760690060e-02,-9.298991312678274168e-01
2.699961835738500793e-01,-9.715325163803611996e-01,-4.001441024376811706e-01
4.160655412640931750e-02,-4.010261672979141268e-01,9.527839841822957068e-01
-1.061541768993433887e+00,-2.373732337767077427e-01,-7.714594652028905486e-01
7.635715590981437817e-01,-5.845797921103641492e-01,-6.544840969242864404e-01
6.489534290927743143e-01,8.358233980707454602e-01,4.402907957444823217e-01
6.710747980840030547e-01,2.236303188240172102e-01,9.786312228947622316e-01
-1.377129267557345993e-01,-1.167468596409687587e+00,-1.011441148682781677e+00
-9.726600059163988954e-01,-3.729817929303345103e-01,-1.364418856532197410e-01
-1.861589140503520090e-01,9.426672176158874539e-01,8.322472375732029581e-01
-7.122451361049410012e-01,5.834665759290821319e-01,9.010460577451107067e-01
-8.446259793515172865e-01,4.349172405498008542e-01,1.125486330430292226e+00
1.611602684278176101e-01,9.946632544068063631e-01,-9.243537242925068398e-01
1.069239861524331481e+00,2.082800775196368137e-01,-9.624969908868080681e-01
1.167755858861451612e+00,6.230162014614231553e-02,5.271225331571902650e-01
-3.297228816934471562e-01,-5.425180341985588045e-02,-9.712188991145546124e-01
1.120026171692416250e+00,1.631939602871143036e-01,-5.327144275014524810e-01
5.715875026113417245e-01,9.165193279647079194e-01,-9.403718497069636362e-01
