-3.608723009856841801e-01,-1.143031323033994795e+00,-4.411767329744358812e-01
-1.594882014847541774e-01,-1.188766423315418042e+00,-1.638320982022628547e-01
-1.139149651132872920e+00,-1.641759242045046641e-01,2.001943127310279180e-01
-4.688457447945819645e-01,-1.387829224089380586e+00,-1.169026888428141148e-01
-1.056642524036794262e+00,2.928749838216149204e-02,-9.593749497526761483e-02
-1.265293021783363558e+00,-1.712422998881455716e-01,8.304008355903983452e-01
-1.260568232221540130e+00,-2.654468872787504874e-01,5.341901443838587005e-01
5.825114804593501949e-01,1.265692981701384001e+00,-2.042129722888366417e-01
1.132482870742148373e+00,-4.646965370004867424e-01,-4.508806096630361693e-01
1.203582055553465091e+00,-5.131056631371349042e-01,-3.203858535278404918e-01
5.467337284923065033e-01,-8.700201310737371019e-01,-2.321861243371326489e-01
-7.723032722026439423e-01,6.834468320990881585e-02,-8.221503764012776383e-01
-1.050744112568516853e+00,8.921875936817355579e-02,-1.555914076801414303e-01
1.069987914653814043e+00,-8.428291711346028725e-01,5.011410196600813993e-01
-1.338319866139840553e+00,-8.689781550716342562e-02,6.451213368878487842e-01
-3.504181184973146901e-01,1.032503777604255601e-01,-1.272419514412927111e+00
8.554569652677951330e-01,5.855835685216504993e-01,2.725744825055498866e-01
-6.647961945432979691e-01,9.595606393592686079e-01,-2.689786561022303873e-02
-1.003398488294861890e+00,-6.303788277421779052e-01,5.605406130710839374e-01
8.475874338051536672e-01,6.246653849039630613e-01,3.058433326270785790e-01
9.670068514618551658e-01,7.565883803948016961e-01,-9.521098502041164258e-02
-3.937232388866923616e-02,1.105595274020859664e+00,1.800765040422914465e-01
-1.038911526001826013e+00,8.698901969506400711e-01,-5.946277818072147614e-01
-3.185625402918311755e-01,-1.226779550604811142e+00,-2.787214329530926515e-01
-2.592475394817454482e-01,5.019098777956020330e-01,1.048147072181867312e+00
-1.147414471517912288e-01,4.076405717564289821e-01,1.330012191801764221e+00
-1.366123484447089975e+00,-9.840853750298314551e-02,7.565289529588030693e-01
7.135781389868626201e-01,-7.096780934880649871e-01,-3.756258969990563523e-01
8.845911275414989339e-01,1.154082922664926070e+00,-6.763835999410151845e-02
7.824515020233094864e-01,-1.128340447732949281e+00,6.601647820699981795e-01
-5.214105671707817136e-01,6.682614391756249717e-01,5.850806370065417816e-01
9.474939998674885011e-01,-5.827695323928150373e-01,6.918302756799734610e-01
-7.311388101943967488e-01,5.286797046624274188e-01,6.974725360239103500e-01
-6.371183481180594521e-01,-5.847329402089942452e-01,-7.860515822163405275e-01
3.957963989348944334e-01,-1.290305478755406687e+00,4.035830557691137410e-01
5.474752668269845524e-01,5.047736136892636560e-01,-7.602163114837086066e-01
-1.180638793087801230e-01,1.159092340167397817e+00,-4.751409683793728078e-01
1.105310995145529773e+00,-9.288656214382727816e-01,4.539502772187833934e-01
-1.142624299061671067e+00,9.772110841937026171e-02,9.508063305748903904e-02
-9.802889269677484974e-01,-5.587977167809762280e-01,4.121572550199435747e-02
2.675356818991171948e-01,1.232373694492592264e+00,2.228426779779440203e-01
1.158161463629505006e+00,5.693153655747881237e-01,-4.742063098695386003e-01
-1.101037581822315037e+00,2.629970094743612208e-01,-8.813237490887392001e-02
3.056303140332199408e-01,1.329979443241869230e+00,8.055622072205327611e-02
1.249161225136843356e+00,9.656848769797070700e-03,-9.460851059491952597e-01
-3.724467829824684717e-01,6.881404994716947554e-01,-8.621995690636766740e-01
1.364091163736485257e-01,8.487605255340245902e-01,7.651843649383567314e-01
3.479435409461760498e-02,-9.256089612519037280e-01,6.056707690785528841e-01
4.274571207972890918e-01,-8.889442685866473515e-02,-1.202476475361588859e+00
2.271712209945663669e-02,4.998600134449632248e-01,1.248816541431678973e+00
1.172669851699994936e+00,-6.497236455265409383e-01,1.067676626467040507e-01
-6.449985254033646642e-01,-7.450072597304154831e-01,-7.575639503036541988e-01
1.330780718902948578e-01,-6.843759603463949182e-01,-8.347510965559590268e-01
-7.612893794807003012e-01,2.546101476047867851e-01,-9.605552966282770999e-01
-1.029619446798247795e+00,4.471749030446406370e-01,-4.155222936632932962e-01
-4.878088503862587078e-01,-8.472594748463918579e-01,-1.056273935217474147e+00
3.569133916534152351e-01,4.585293256565401987e-01,-8.509453002607840766e-01
7.713461167026147702e-01,-3.722091174564641225e-01,9.883656947409833471e-01
1.143030399979612310e+00,-5.415230544465480383e-02,-1.085776264807487984e-01
-4.149784916071052043e-01,-1.033436537602821836e+00,-6.950762287896474767e-01
5.223510443035811468e-01,3.947567500890854508e-01,-8.416812514314440108e-01
-9.637769662842557983e-01,-6.387004726811915112e-02,-2.526218527215030041e-01
-3.626388706127415262e-01,-1.092370646015577540e+00,-5.320325219638395442e-01
2.850531186795867145e-01,-4.498354520705450943e-01,-1.138241558586480462e+00
9.111106793397933945e-01,1.071394374799177873e+00,-9.492003169904741910e-02
-4.461888553516505512e-02,1.104534168447940390e+00,1.920944562588528248e-01
-7.403902606779009243e-01,2.650448379402356447e-01,-9.721484816542960150e-01
4.464504916249527611e-01,9.080800505228853181e-01,9.227980997115419193e-01
4.149567119205353483e-01,1.060470720347539864e+00,-3.961896016813471477e-01
-1.013052053791804186e+00,6.343252117736373208e-01,-5.554699293192852938e-01
-2.408094232215879649e-01,-4.948955537724030185e-01,-1.432210454650454823e+00
-1.240883002342002328e+00,5.011757848183938657e-01,1.100963798399898497e-01
2.798597368137053509e-01,8.865850627097282555e-01,8.090861238107460718e-01
-1.555647099832151437e-01,-7.122104132349638128e-01,-1.041995069237177107e+00
1.136943155029754404e+00,-6.223350121106346888e-01,-2.155253393899877745e-01
4.753079588305059167e-01,-4.394333937249910171e-01,-1.010132438504304675e+00
1.943757882430094119e-01,7.655110688793287377e-01,-6.425375973826176201e-01
1.023533616853892214e+00,8.187449033888287708e-01,-2.444100613260895283e-01
1.055548902736082317e-01,-4.793692324477588085e-01,9.492175358187936451e-01
1.280120497756081610e+00,-4.623700845289715478e-01,-2.221469237407192321e-01
5.167627574059006079e-01,1.080636365183127001e+00,6.313517105290182840e-01
-4.600991051951491273e-01,-7.247445864791405290e-01,6.253254320578374159e-01
-5.182382491140699043e-01,6.659628669307567916e-01,-9.241338139913225502e-01
1.082303486603353404e+00,1.947254955779282592e-01,-6.075205325065457379e-02
-9.781948536778897196e-01,-9.313713417215003787e-01,2.447736273720589606e-01
6.866051459856333805e-01,-1.100907968172994522e+00,2.625633869512660201e-01
-8.859996871182293510e-02,8.781826577429765468e-01,5.366658992813309048e-01
-4.676771381940933447e-01,-1.407855943238603080e+00,1.289053086944314808e-01
-7.918228820898296494e-01,2.168485657866403016e-01,-8.790874574748608339e-01
-3.752793757822028287e-01,1.222856696162544665e+00,-2.597457416989663592e-01
9.008921265967549663e-02,-1.170969030368648411e+00,-6.640036685748501588e-02
-5.145560471948945613e-01,1.003428376778666253e+00,-5.448196907115541304e-03
5.660432919915142636e-01,-6.601066305218379338e-01,-5.565775084824180485e-01
2.532393176753240382e-01,-9.697230293447561822e-01,-2.727116931589673721e-01
-7.268192489120078870e-01,-1.327283323885401378e+00,-2.039295569946920073e-01
3.182725048922570577e-01,-5.993332835119956625e-01,8.994200261342725211e-01
-6.814417385911293312e-01,7.563975247407428437e-01,3.146289047460543165e-01
-8.833262450614322026e-01,7.128101210598719595e-01,2.412806622644675381e-01
-1.274975709433197490e+00,4.047987117342467522e-01,2.825326511438197574e-01
7.905384142853822960e-01,7.586600775967976551e-01,3.777783385154422913e-01
5.590103998076871861e-01,-6.552920862361029108e-01,9.450245212971403186e-01
-1.209526963704010138e-01,7.761952690542371913e-01,-7.411365834376580919e-01
4.605986829102666769e-01,1.035143067340942746e+00,-4.044281396258793682e-01
-4.414694745342289117e-01,-8.453813213047050024e-01,5.345752850982717908e-01
9.132235298205080287e-01,1.466594228479072351e-02,-9.856129320584683384e-01
-2.322161483450029540e-01,-3.374260445255046204e-01,-1.532690972120129613e+00
-3.332685710314854943e-01,1.765653859507481382e-01,1.277063119648353284e+00
6.643811930233632923e-01,1.267103205890712347e+00,-1.832641362959148978e-01
1.095325140718692136e+00,-7.270194902543077875e-01,3.686196811201867263e-01
-1.032868007446909653e+00,7.172395452811414218e-02,1.026268312180552478e+00
-1.038949958597577661e+00,-5.890886460379100020e-01,1.529988824246631962e-01
-4.282291875198895870e-02,-1.314885153943960994e+00,9.057732262485788943e-02
-9.875314692269969719e-01,-5.757494695367837423e-01,3.707064317086600919e-02
3.362701188180996503e-01,7.461849981613860594e-01,1.069778942151217160e+00
-7.770954014205842808e-02,6.337929777296176237e-01,-8.189075752331458347e-01
2.152244837999239546e-01,2.398446283789741895e-01,-1.035796902295651023e+00
1.162232116026149065e+00,4.679972462569619712e-02,-9.239525537724112558e-01
-7.723459496645065370e-01,-3.410695327659949566e-02,-7.704695311700692217e-01
-1.135703030621415310e+00,-6.287740752969526170e-01,4.244395831186442147e-01
3.180114520597086825e-02,-1.386511965524008128e+00,2.338961088541265387e-01
-8.760846179510000109e-01,5.045403294317092335e-01,5.579704275053266604e-01
2.756603885334108495e-01,-3.593452244735086815e-02,1.269435177160884498e+00
-8.235682205728350747e-02,-8.434828608321182086e-01,-7.138535160008833147e-01
-1.086282619089354418e+00,9.683152662657675824e-01,-5.392420287114932931e-01
-3.081626312557931291e-01,-2.777925962489390457e-02,-1.356767598853124923e+00
-7.023328520664121610e-01,-4.874850066411841043e-01,-7.050247745261353227e-01
2.157581288806175723e-01,-1.304336149130620182e-01,1.202271667364360308e+00
1.138026064676906479e+00,-3.285753298232040320e-01,-6.894191066203997353e-01
-9.775489717720571292e-01,8.283642047628099192e-01,-1.209904012142410182e-02
1.092784823510754011e+00,-3.437198144864943017e-01,2.002657628069908213e-01
-1.188877403003615996e+00,7.528665741301135972e-01,-1.191128269882784779e-01
-1.161676132980004050e+00,4.829921291111982651e-01,4.512527080828222514e-01
4.572281926436152499e-01,1.015363363064168967e+00,-4.040150039292130790e-01
8.759888380829882193e-01,-3.037707506815347513e-01,-9.484119284518219839e-01
-6.885331323991832342e-01,6.790678010416404398e-01,4.131798276768313682e-01
-1.026538488873397492e+00,-7.219460813320566217e-01,2.322739610105245822e-01
1.669388380421580609e-01,3.944751470277478855e-01,1.545172555385290636e+00
-1.446523580823945443e-01,6.791613796223147093e-01,8.970889677639344306e-01
-7.025229147203987390e-01,-4.322467344341883733e-01,7.708785304935206195e-01
2.109833409051795894e-01,7.161975314841206863e-01,-6.744715997805288410e-01
-7.496450431708392426e-01,4.080482652532663179e-01,8.516895236844668204e-01
-9.713564940734710218e-01,4.339838250194670843e-01,-5.001930994687958654e-01
1.186495574605122422e-01,1.047033752436019149e+00,4.083412085640582001e-01
-1.487607362801440965e-02,-5.307994935512458934e-01,-1.182576420416064700e+00
-8.571753719486088219e-01,-3.912960604204137049e-01,-3.570093237021261801e-01
-8.380419403049893523e-01,-1.073135129507307939e+00,-4.155312438995680674e-02
3.031888149946725952e-01,-1.159427839890308620e+00,5.756119286718992811e-02
-5.777694825440714554e-01,-1.608598829967614607e-01,-1.202149531066100119e+00
-6.933051533048983917e-01,-9.637808516506339851e-01,3.806310918008791733e-01
1.262236174115841436e+00,-3.683401135702678020e-01,-5.157286100786900862e-01
2.426946497572443906e-01,1.373823232846553610e+00,4.181345786815199306e-03
-2.679889618032139653e-01,1.184720225231297608e+00,-8.852718373132707763e-02
4.335840816143564647e-01,-5.235356962749151410e-01,-8.897362302708939907e-01
9.475164062806896714e-01,-7.670746635278463676e-01,7.637020053362618688e-01
1.773192478194642041e-01,-1.108273763027848080e+00,-8.149171694886951645e-02
7.786007936776052629e-01,1.223119541331669557e+00,2.116413962548444327e-01
-1.328568091902430082e+00,2.240490578829518742e-01,7.391453293801397706e-01
-7.983723316766500044e-01,1.120529243740964409e+00,-3.531575604783876998e-01
6.194119480973097475e-02,-1.373986457848261900e+00,2.780605379570140756e-01
-6.071356936437224405e-01,-6.298154827503468223e-01,-9.451187981620521317e-01
6.476889579405278874e-02,-7.502902251761106589e-01,-7.880169205331867266e-01
6.678676833931471712e-01,7.714501900618765395e-01,7.180302491830683476e-01
9.474261107338992627e-01,-4.108515604023103562e-01,5.848258886879470486e-01
-1.100775248117207061e+00,3.211799248826737729e-01,-1.409013334106270499e-01
-1.159097581953508316e+00,-2.078590474218063588e-01,2.903643700537224537e-01
2.188056803301977327e-01,-4.830154230802911619e-01,9.663454130447137747e-01
1.066819399864795903e+00,3.025584373649331527e-01,-7.695160588432764515e-01
1.942064129468115408e-01,8.683927647916137582e-01,7.811653912189067128e-01
-1.355480346917933510e+00,2.726521712134616915e-01,5.977530461373788961e-01
-1.173255123043683151e-01,-6.953943220030338601e-01,-1.011392667803160172e+00
-1.247299014290945696e+00,5.714789527012762438e-01,1.890508272494207664e-01
-1.011118114011851032e+00,9.353633954381350701e-01,-6.732110503152354264e-01
5.220288186955046594e-01,-1.000370954358473785e+00,-7.899801833753208533e-03
-6.009271032988758865e-01,6.788136711949390723e-01,4.687047067955084634e-01
1.083133333304442392e+00,6.504378671229940068e-01,-5.104854388774751062e-01
-8.545043025314992269e-01,-7.037976996328244583e-01,-2.051307456678260477e-01
-3.773204225825927405e-01,-1.408811111489020718e+00,-1.127085961270100217e-02
6.426463528643640011e-01,-2.241139963715031991e-01,-1.217493813116593770e+00
8.185002502388496470e-01,-7.177219608224859604e-01,9.325371572445081414e-01
-3.999493674594652992e-01,4.371664221454458210e-01,1.063428553188013881e+00
-4.943168301238134305e-02,8.163461042470889772e-01,-6.894468669305429120e-01
5.607422431636659432e-01,1.328663197938545926e+00,2.593564833325961994e-01
-7.772734094270261629e-01,5.941900363304871702e-01,-1.013246814264876283e+00
1.486734858679646665e-01,-8.228504190808567653e-01,6.824333877999670950e-01
2.779693552530374534e-01,4.842748806276978568e-01,-8.425146778306241702e-01
-5.157435109773460535e-01,-1.502740158006946380e+00,5.205403391919118106e-02
-5.630817284401834488e-01,1.202022877453714278e+00,-5.608720493512935334e-01
-9.706793627745208264e-01,-1.016803942792414928e+00,2.284268122806276391e-01
-8.127283070769566464e-01,-7.455607148113543303e-01,-3.277236835634185219e-01
4.008906142181446475e-01,-6.050226452949324374e-01,-7.570010371452470244e-01
-1.037149797875998702e+00,2.142347242860626055e-01,-2.559264494550201885e-01
-5.233982006533853537e-02,-8.751332139046653635e-01,-6.142044043321335245e-01
-1.126500066932626831e+00,2.063312009044694553e-03,9.744376827076296488e-01
-7.567130369911216903e-01,-3.476681748812234796e-01,8.146621005784117076e-01
3.077269031353889201e-03,8.598183642639822821e-01,6.677260985688521222e-01
1.369852005566623565e-01,8.342661521095173782e-01,7.991999933144798840e-01
-1.999285490047239891e-02,1.104468915423606035e+00,-4.626405983334490601e-01
8.508049031303492604e-02,-5.182054759904172192e-01,-1.165624795115751011e+00
-7.331839954681640403e-01,-1.011022734801449774e+00,-4.004512117639003055e-01
1.001323477480690505e+00,9.299556739260768090e-01,-2.407459567768965303e-01
1.349240433190006749e+00,-7.485490299242777978e-02,-6.210551636777629225e-01
9.587722176550986797e-01,-2.244026003482223197e-01,4.608433140565698083e-01
-6.784763768467904077e-01,7.594337936548051227e-01,2.861825016452461123e-01
-6.557174503942018173e-01,-1.010014752177907704e+00,-5.877545558005933257e-01
-1.524515507146711746e-01,-8.069297680372357062e-01,6.463268908700371407e-01
1.103106444593672020e+00,-3.844713490194763827e-01,2.316973455650350178e-01
-5.097115611929690093e-01,-7.157490028357677003e-01,6.172505907524250546e-01
-5.818618883160303623e-01,-1.423424258312147472e+00,-1.509231689177945868e-01
6.661065303890215672e-01,1.249465305473101084e+00,4.095470569597579047e-01
1.052531719894551410e+00,2.354142989420023868e-01,-8.291876481231309493e-01
-1.882427197830392751e-01,-1.355287298794371820e+00,4.764460181227806726e-04
-9.355502514848467177e-01,3.228362928410765664e-01,8.739403852191112154e-01
2.071646606176973382e-01,-1.178162629977153486e+00,4.775226771709757956e-01
1.535104173261823413e-01,5.424372670297300525e-01,-8.286207512381956741e-01
4.285395558683651601e-02,-1.167877726827450502e+00,4.238807542336017753e-01
-8.266636105813255364e-01,1.214617074761695781e-01,-7.619960480898738675e-01
-9.814831928903600122e-02,9.617872775247421346e-01,-5.915655276809189678e-01
6.823862837075455046e-01,8.195259053502168545e-01,6.092887069810021261e-01
-2.397129587876165591e-01,-6.399252341788498333e-01,-1.181585746870571274e+00
-5.031673762834983910e-01,-3.135546306812955070e-02,1.121396624227557481e+00
-7.995896276619610665e-01,1.083838470967614098e+00,-3.457538431510497334e-01
-7.037128838780564127e-05,8.515840151374823863e-01,7.153541128659482995e-01
-6.376985762613358588e-01,-1.127708842905228437e+00,-5.743385726443938077e-01
6.394463064944284625e-01,1.296179035609965835e+00,3.722758073091708697e-01
-5.209016804443812321e-01,1.229684460855556161e+00,-3.041371418129239501e-01
-3.339903785806321856e-01,-1.289222745179460783e-01,-1.402973821333287630e+00
-1.122249042022803733e+00,-7.377706202397192603e-02,9.254288692598891530e-02
6.844211649685019161e-01,1.369281919210624476e+00,2.976083023103506253e-01
1.646437880151215838e-01,6.448506610711538523e-01,1.195486023767924344e+00
-5.747766175336150862e-01,-1.238223307749602542e+00,-4.691847120803268045e-01
1.210505265584363777e+00,-3.976248383444876411e-01,-1.166899788381910441e-01
6.942243406174541769e-04,8.811451549589670584e-01,6.437960747963629160e-01
-3.281322973506185965e-03,1.182126533080618103e+00,1.030063192290116419e-01
-6.520310002907406810e-01,2.423213666135167199e-01,-1.214489899144195695e+00
-7.452654261288288451e-01,-6.965163730583866231e-02,-8.216346682715858218e-01
-3.558451746880800237e-01,1.233680080309884186e+00,-2.359683585038191977e-01
9.559374346522143684e-01,5.988329260502911477e-01,1.782180947318175515e-02
-1.189827065097223580e+00,3.298130942625602802e-01,6.616763792608778560e-01
1.274018195365748118e+00,-2.369726004159495025e-01,-7.565343355103325562e-01
2.679433040191498971e-01,-8.358763552086790893e-01,-5.031762264643042659e-01
-4.576294484907202365e-01,-7.092122898890328431e-01,-1.239544258497192963e+00
1.277591293915229631e+00,-5.889973656086786580e-01,-1.684125811222521862e-01
5.902410543523827213e-01,-4.345876394092546557e-01,-9.261669952618479806e-01
-3.315118923060863532e-01,-3.616643378361671934e-01,-1.594193406178344263e+00
5.107215451801513373e-01,6.692912162079225902e-02,1.424471297875298026e+00
-5.705396935425670613e-01,-1.344576261897323599e+00,-2.714234355447760483e-01
-9.697427443367448996e-01,-1.026773036266582340e+00,2.011927151738099884e-01
6.464895666908951899e-01,-1.008541534312681343e+00,7.229521529020073167e-01
5.778684245078153925e-01,6.981815294538571415e-01,9.462304646894518223e-01
-4.486587444852120354e-01,8.520368742443911181e-01,3.664684922550902613e-01
-5.995248080028527937e-01,9.478334816430598053e-01,7.315982009739391279e-02
-5.379745872799528428e-01,8.062541821627128291e-01,3.508075339086482725e-01
6.437374675684476300e-01,8.578999707381926854e-01,-4.680829025446927028e-01
-1.231319798095434348e-01,-2.980748473956592037e-01,1.004167000454863068e+00
9.424418787380436924e-02,1.402798094167988729e+00,-2.290494903125761816e-01
6.721673262695024853e-01,-1.095040138288831733e+00,2.662652682154369455e-01
7.709357109304091349e-01,-4.287861846073410255e-01,-7.904801877379522557e-01
9.585696357026275427e-01,3.456699202398005877e-01,-7.726877677034830194e-01
1.177397090377331645e+00,-1.639799256475887035e-01,-1.687702811849084439e-01
3.302330650825584524e-01,1.332308713773105557e+00,-2.336213607670387105e-01
-4.244601451019919813e-01,4.920725449085191355e-02,-1.308541823848714758e+00
5.046699880486165135e-01,2.163046742223339036e-01,-9.793668018041146173e-01
-9.296767722603646034e-01,-3.631014619122284182e-01,-2.349988692201446239e-01
2.251137238925352002e-01,5.537558013171249849e-01,-8.358294469005731475e-01
-9.240143849805505516e-01,-9.449449345621138141e-01,3.652981223878510458e-02
-3.137581895210708738e-01,-4.463146871664142590e-01,8.447555667055210993e-01
5.742368365388390572e-01,1.639054159637970687e-01,-9.754963268139316135e-01
6.917105903114439958e-01,-1.046179240839647390e-02,1.057787073489659058e+00
2.804203063095212292e-02,2.473911927653654197e-01,1.442431781554356141e+00
-9.718474554439217317e-02,-3.492443252115394192e-01,-1.542262721430999850e+00
-5.906265761252190716e-01,2.165073460715534193e-01,1.281660130528792019e+00
-8.928007916888578421e-01,5.892773313227781529e-01,-7.961960578557373269e-01
1.076072066211022804e+00,-8.864169566113192511e-01,4.789136965129912049e-01
9.342466860663708461e-01,3.252287578523994638e-01,1.904997898912742793e-01
4.504464026392941689e-02,7.270934564591817750e-01,-7.189857886259205522e-01
-5.286603504124265385e-01,-8.823441846645093678e-01,-9.907985429943866329e-01
-4.674210116231224399e-01,-4.988554348942098593e-01,-1.351791229994581789e+00
-7.298303556102463396e-01,1.088203961728991587e+00,-2.828032744983092761e-01
5.992147912056745573e-01,6.870210898394496501e-01,9.160591080405905418e-01
1.048779663289633124e+00,8.159429658241130756e-01,-3.096704029784409506e-01
7.989848720661170134e-01,-1.073135418778913053e+00,7.170181890347618880e-01
8.003907458842259848e-01,-4.562461527601558986e-01,9.900733495590493538e-01
-6.707603662981712622e-01,9.066376237682660655e-01,-7.793776031945973681e-01
-1.826783240342260695e-01,-1.339460366641794353e+00,4.111795211288352125e-02
-3.241425112991484503e-01,-2.405329804670342242e-01,9.940417070381484255e-01
-1.081596417483399852e+00,3.857572772934079741e-01,-1.812334686171218345e-01
-9.721084541085661668e-01,2.500199104474822853e-01,-4.312367641386424810e-01
5.460620242171093652e-01,1.066473071921172577e+00,7.117067235333441877e-01
-9.920956602714636752e-01,-3.048725978265049430e-01,-9.619909604559122307e-02
3.350476837543315822e-01,1.187951470802148579e+00,-3.081386618027599500e-01
-1.376413643387494945e+00,-2.920557778544511859e-02,7.314970517217049828e-01
5.301332624084134082e-01,4.664549222537327511e-01,-7.946094443108987493e-01
-6.436044912118575878e-01,-1.362117049438388294e-01,-1.098674674933790785e+00
8.949924989249380403e-01,1.162797944539835981e+00,-8.505662195530742931e-02
6.396516982695940046e-01,4.825956363898721846e-01,8.645753375691306308e-01
-9.489392889827921174e-01,-3.726758889122734897e-01,-1.998367720355776755e-01
-3.160419028906334415e-01,-2.911906373626185207e-01,-1.529881608665544235e+00
3.499796774589986614e-01,-1.321111196128871956e+00,4.012857222423980019e-01
7.696163682850433174e-01,5.264693728339017165e-01,5.792167124129681266e-01
-4.736533272573417719e-01,-1.288206633052157768e+00,-2.845350703228816114e-01
1.283387670040061934e+00,-4.641212792840973544e-01,-2.479443751023375775e-01
3.548032965283199891e-01,1.486321228226157309e+00,-1.048025735734793989e-01
-5.500747296833673472e-01,-1.262473362558294676e+00,2.048624634015507595e-01
7.337094484533783489e-02,9.819271590040522524e-01,-5.515764325896160836e-01
-4.485597184288631634e-01,9.030125722305294422e-01,2.519845268949102990e-01
9.453748950706732102e-02,1.398509250769635948e+00,-2.330404865577942741e-01
-1.316399187150774086e+00,3.056416160160970175e-01,5.842855089128557999e-01
-2.712151475199734985e-01,1.550920156799003025e-01,1.286145695763298624e+00
-7.959046291558405928e-01,8.438116810120552813e-01,-8.496615815343445677e-01
-2.187006929962157509e-01,-8.590407844717311558e-01,-7.785329304223795877e-01
5.963723919173682386e-01,6.291994444164358269e-01,9.134220130193299036e-01
-6.805739818750814463e-01,7.508054781349575435e-02,1.162859078423488679e+00
-3.468135857416698720e-01,1.124241446103898756e+00,-6.954309044602870193e-02
8.162884721195421411e-01,-2.796739968050969694e-01,8.630739953399302333e-01
9.581210970106384117e-01,7.357812156229774914e-01,-6.204940861467470037e-02
8.936977457990122886e-01,2.684608641766401127e-01,-8.298227409119713904e-01
-7.077736364009322712e-01,3.164458531249828011e-02,-1.003174460539361990e+00
-1.091787132404022254e+00,2.205880293583578899e-01,8.988834514022508992e-01
4.514118189051699592e-01,5.270875559489963669e-01,1.351943568468277457e+00
-9.398657193617843131e-01,-1.094825654151269534e+00,1.592596497042729764e-01
7.618308047159960683e-01,3.642702628282539212e-01,-8.037637076686079407e-01
-1.061992205049985483e+00,3.817670264151074022e-01,6.342816056953679560e-01
1.026696043678994252e+00,-5.754107430491652853e-01,4.717472023328930231e-01
-3.633449464941865270e-01,-8.390695782034248706e-01,5.848427143423261532e-01
-6.355267517103744268e-01,-1.039306125362589484e+00,-6.516126707238854010e-01
9.571908950263646743e-01,-3.209449684398263947e-01,5.604545031927407051e-01
5.137303083583787400e-01,1.066656978228115032e-01,-1.046062403280293651e+00
2.083633589480466675e-01,-6.231285001620907593e-01,-8.949084426964682981e-01
-1.229910752616287573e+00,5.329955699711925732e-01,2.504597110377507763e-01
8.815886331368297801e-01,-1.033155345939045677e+00,2.998189376255165906e-01
9.064225663714278181e-01,-3.927891875157314971e-01,-7.634714386925492979e-01
1.086741746132555475e+00,-3.496619628769410681e-01,-6.499287040058507881e-01
1.204383033271421377e+00,4.514075990263040072e-01,-4.888531762113327850e-01
7.598396170426093832e-01,-1.206557802354947528e-01,9.644700616033873297e-01
1.274976808364535419e+00,3.129771330623394299e-01,-6.326305764801609666e-01
-1.135447509789390796e+00,-5.565125265458712445e-01,5.703765622860826889e-01
-2.871343583950550782e-01,9.629511476616621213e-01,2.625223405027913848e-01
1.129135567511690086e+00,-7.057187810541918349e-01,3.161827553832434745e-01
-3.656931261226349927e-01,-5.296608126314659160e-01,7.910817436240467071e-01
-3.325377070881309072e-01,-4.056768411051917544e-01,8.667593670234751135e-01
-1.505249556845245952e-02,1.340920454241342208e+00,-1.815894943755207158e-01
1.016102051529896189e+00,2.513430059846650244e-01,7.131794342292353817e-02
3.641937513142316507e-01,-7.929020774054205967e-02,1.286607683815960801e+00
-4.588230230976763635e-01,-5.712495489857375430e-01,7.366868296207186306e-01
8.945039200825882775e-01,4.015575917104655113e-01,-7.479073565191919348e-01
1.040766848462674199e+00,-9.301318040208943483e-01,2.585580459557344501e-01
-9.671988859115776549e-01,3.339193187709207401e-03,1.015905646689480024e+00
5.098163065754320877e-01,1.914525206347530706e-01,1.370240873648042257e+00
-9.323610497220997662e-01,1.898369341551044975e-01,1.050551917664479307e+00
-1.187921404291148786e+00,4.738371514588530786e-01,4.208533866349389863e-01
2.983142976240998889e-01,3.890004524533418606e-01,1.608583236788679205e+00
-7.763477752043854707e-01,7.669111978257882045e-01,2.129954521738231799e-01
6.157930612227895395e-01,4.126534633485299808e-01,9.639669907144793326e-01
-6.335639597381121924e-01,-7.981718613522565953e-01,-8.193171904309237696e-01
-1.600291049869781712e-01,9.351543356440614740e-01,-6.013139636801031473e-01
-6.687163566375853296e-01,-2.910480388186997280e-01,-9.514212947167424161e-01
4.963710977528461993e-02,1.186589604092811223e+00,1.168379048946221327e-01
1.971595110767425385e-01,-3.884688803040089455e-01,-1.297001583106313971e+00
-2.771137482438578714e-01,9.783425354345230973e-01,2.519719207674606110e-01
4.472057912193461160e-02,9.572896362195905118e-01,5.046752547020986190e-01
-1.613361941302036695e-01,-1.275587704706016901e+00,-8.432083220786894262e-02
-8.096683043415920933e-01,4.505850408934402584e-01,-9.746214813931369791e-01
9.444052123753811367e-02,-1.142954290207907064e+00,-9.972702703449284889e-02
-1.079603429505902934e+00,8.836339188616566531e-01,-4.953007701409889441e-01
1.372479676813818550e+00,2.519355514846575647e-02,-7.112886999028076307e-01
4.433606026255038079e-01,-1.191038529614266039e+00,2.093935543104741559e-01
-9.713293606672768199e-02,1.154592304805833969e+00,8.474231295347120496e-02
8.829019104613500257e-01,1.043262176614107917e+00,-2.372843809874512766e-02
2.397743706629275884e-01,1.092725107594797240e+00,4.775453049734911803e-01
-8.961197162039467035e-01,-1.008198226460641500e+00,3.098370200922795914e-01
-2.706254363881138714e-02,-9.468387475230989614e-02,-1.336320811614279291e+00
-3.984094578620382410e-01,6.216734488752906351e-01,7.172783301548629753e-01
7.430852699220789059e-01,-8.066602967684327608e-01,-2.074646057921633868e-01
5.210952278250422509e-01,-3.771060067419582662e-01,1.122727654965809840e+00
-4.368785135131417752e-01,5.137323321105653484e-01,8.656792079328782252e-01
-2.753442968200761620e-01,-1.155070211744802844e+00,-3.399319412470449553e-01
-1.206492255195259045e+00,-4.269458537306015933e-02,9.094903712265810514e-01
-1.052277135398735686e+00,8.365592086678245165e-01,-8.869950499792268739e-02
-2.133230440511226511e-01,-7.867401377921148242e-01,-9.408940542140711294e-01
-2.640072897107271221e-01,-9.627901790070696464e-01,-6.604051282079104190e-01
-7.455006445748069144e-01,-3.301904492162645033e-01,-7.057069475736306163e-01
9.808204550165637581e-02,8.051869959205874006e-01,8.218303782421699788e-01
-5.555076625770827281e-01,1.211508020603585978e+00,-5.342649311002912738e-01
-3.829822726334107252e-01,-5.684998730804752265e-01,-1.439121518181219361e+00
4.758676254741042722e-02,8.600498160716334439e-01,-6.332889992039790750e-01
-9.788820330094493150e-01,-1.772353292872019537e-01,-2.232767152375805808e-01
-8.639533213494720032e-01,6.644883067041889024e-01,-9.029762236024335698e-01
-1.710169641202704538e-01,-3.249217445151872941e-01,-1.530458221120817752e+00
4.585148760947349578e-01,-1.611807290952729510e-01,-1.256900994217512446e+00
-2.342020645606361917e-01,-4.141164158984805277e-01,-1.567414415919043069e+00
6.388926010700042291e-01,-9.833578114131535930e-01,6.911761535561661285e-01
8.641868131690110255e-01,-1.034876419686761473e+00,2.908745884669834969e-01
-1.581314403562822657e-01,4.424528135298578801e-01,1.200073861996313163e+00
-4.417148520586298699e-01,-4.480703165620937289e-01,-1.396071055473021794e+00
6.963020095119299979e-01,-3.410719316171957338e-01,-9.967776194758223296e-01
-4.617983188437069231e-01,-1.084120658423113559e+00,3.614223562794862121e-01
-6.895240436150952279e-01,8.108658122529925905e-01,1.907485941446076805e-01
2.657806232018274928e-01,1.271156311343719425e+00,1.569191883001798127e-01
1.268537390712412449e+00,3.194368979700986516e-02,-4.358674486171726370e-01
-4.470057174702197766e-01,1.907476582545516441e-01,-1.216848080167983293e+00
6.683444711203746502e-01,5.523693140689046183e-02,1.072834585873114754e+00
1.162370528807345593e+00,3.747331795204712074e-02,-9.455866962893231253e-01
-1.045307424087648540e+00,-6.957016862155700476e-01,4.898448960628321025e-01
-9.901930272766530372e-01,-2.319277778515660138e-01,-1.728121583232251068e-01
2.897665165107266572e-01,-1.122111782594388485e+00,3.697949606220395785e-02
2.961500387983203031e-01,3.131763921711529508e-01,1.541357900732817976e+00
7.087120488403640950e-01,2.590214898642681507e-01,-8.798747528716506228e-01
4.864457465032027694e-01,-2.637316690737455116e-01,1.193280472385307212e+00
-5.089006512635685375e-01,-4.320380823910139334e-01,8.133342573118708119e-01
-1.296889359629969984e+00,-4.161446581604778122e-02,9.067263875846580667e-01
-8.318865932918677597e-01,-3.394397941465929769e-01,-4.737238155939150208e-01
-1.201271447985724911e-01,-9.971828023295000731e-01,5.004324541334291832e-01
-3.676251324581616409e-01,5.141263608987836076e-01,-1.017856649377383071e+00
-7.544325236128240908e-01,1.209847037607681974e+00,-5.757563217958757695e-01
2.631050233133645500e-01,8.128663951346939975e-02,-1.138206804170822872e+00
-5.641958981541854712e-01,-1.325531763509851357e+00,-2.670056422151876330e-01
4.408485406792510553e-01,9.027627325550963144e-01,9.209025174606421116e-01
-2.846635088885132378e-02,4.814827152336755844e-01,-9.044763275365419464e-01
-3.425574861778314384e-01,-2.841496304931865891e-01,9.766343980838451122e-01
5.820720945353835551e-01,8.796615829370761919e-01,-4.851883137343856456e-01
-1.686734171765561299e-02,1.021867473293766482e+00,4.027547622359115009e-01
9.468168484562203835e-01,-8.538524591863442259e-01,-6.807142944406564637e-03
4.837962608729351466e-02,7.016895140773400374e-01,9.354861830689872315e-01
1.183044389221136056e-01,-8.857088635292366119e-01,-5.492945033073427519e-01
9.232518731986091298e-01,4.378501697011570881e-01,1.862268180643586457e-01
-1.857715206295943167e-01,-1.115934871007694618e+00,-3.761252892906916112e-01
-2.962756918228219294e-01,3.571296984765281457e-01,-1.082603660754368535e+00
7.355011961643126428e-01,1.281069789872310460e+00,-1.458590878827579762e-01
1.056470232672005904e+00,-7.311308574913065739e-01,-1.113630082643012609e-01
-4.384722868974567089e-01,1.149588338984135927e+00,-1.394768968167929279e-01
-7.196426759142648955e-01,-1.317867402312050906e+00,-2.498664741498045350e-01
-5.638344890728188563e-01,5.643937080976325626e-01,7.054110147301057010e-01
2.387982573093721250e-01,-6.845135719957521347e-01,-7.619828546075433362e-01
9.843287873368022911e-01,-9.830957308543247786e-01,7.721905318397910278e-01
6.213934533389147141e-01,-1.026493731601130666e+00,8.546065753109613472e-02
-1.197989318668474468e+00,-3.014510739884807555e-01,3.628824701731381830e-01
-1.492422468901102028e-01,4.879302915866286505e-01,1.156614253028306560e+00
5.936779084066553525e-01,5.620116095880189899e-01,9.724951735828476496e-01
9.989756135902281287e-01,3.128929509696428135e-01,8.964354369077376372e-02
4.794378038459150004e-01,7.993270088931748729e-01,-5.656573364227144296e-01
7.546820812669015055e-01,-5.804956200197385341e-01,-5.288172120211797056e-01
4.159897813878627448e-01,-3.546641748874503897e-01,-1.174561393590626945e+00
3.608873537200835702e-01,1.074356181112486874e+00,5.702816409394426689e-01
-7.957451845583353167e-01,3.245294582210407897e-01,9.650652760149570630e-01
-1.044643358291291069e+00,7.483031322207757130e-01,-5.769652312926993876e-01
3.077001880203337203e-01,-8.761587636425972603e-01,-3.958980106655038966e-01
5.260694339628428917e-01,1.259177344223943784e+00,3.610840612373331093e-01
1.300549143447277345e+00,1.994395232760340364e-01,-6.414726540530041321e-01
2.362763368653464716e-02,1.207669493990828125e+00,-3.941148924215359672e-01
-8.413842791896399831e-01,2.073325692445127655e-01,-7.371980080262244828e-01
1.089150397017259353e+00,4.970735389534212678e-01,-6.381955089304754969e-01
9.135827279907408061e-01,-9.463487794931932928e-01,1.866964973982743747e-01
-2.498281579101182537e-01,-4.648383915677599676e-01,8.684637612712308163e-01
6.469573383980267156e-01,1.244855807338881348e+00,4.405287064452710899e-01
-5.810117593056915997e-01,-2.744705837398723203e-01,-1.161168079709326673e+00
2.764698526348047802e-01,8.814264792162264106e-01,8.302601784657653861e-01
1.081127279856293866e+00,1.043402983012385460e-01,-5.618485078876903072e-02
-2.234637969427658022e-01,-4.087808231932814618e-01,-1.579766958453860060e+00
9.714031471414005803e-02,1.008580502331905653e-02,-1.212107627515261354e+00
-1.194913150725928075e+00,-1.245786429939176598e-01,3.220443864045287596e-01
5.916603661193066133e-01,-4.584200725867459969e-03,1.271432043448541993e+00
-7.921935188420784479e-01,-1.365411920360686038e+00,-3.997263694065512213e-02
1.256200065008922895e+00,-5.799470618323161464e-01,-2.031528372533030757e-01
-1.110369864988728361e+00,1.391854928073155695e-01,1.015849493418085725e+00
-1.050736733473548234e+00,7.854543485066166619e-01,-4.848408772888450624e-01
-6.994721497850699965e-01,-1.074980043920057637e+00,-4.668581268566078801e-01
-9.416833975350957786e-01,-5.739951408924082177e-01,-1.048748315331013009e-01
-5.750350810022685222e-01,-9.707183177146636588e-01,-7.884332240084530596e-01
-5.982577087023838169e-01,-3.661921737135761523e-01,-1.051228041752007236e+00
1.071466026643238312e+00,-8.234385300041392464e-01,5.153526536086701082e-01
8.401467378765413718e-01,1.517072744301022069e-01,5.626408414367725097e-01
7.695805068266761695e-02,8.046832121719642572e-01,-6.691867538784433966e-01
-6.856804674073694317e-01,-8.261054192852816946e-01,4.993980625719900424e-01
-3.494210177052344268e-01,-1.347574347580839049e+00,-7.409691787432887145e-02
3.505828793747750027e-01,7.126241872138411315e-01,-6.585153724846563028e-01
8.380103872403160681e-01,-2.190262257361764719e-01,-1.066888118114872608e+00
-6.487818261152898947e-01,-1.508672771215993080e+00,2.238168599279143772e-02
-9.363404869389372331e-01,8.723554174362345703e-01,-8.077500882849242281e-01
9.306252105003430808e-01,-1.008364378333540978e+00,3.090234521242537502e-01
4.820278928780679095e-01,-1.161903056762107589e+00,2.082813176283282997e-01
-6.144728765147843275e-01,1.218603137416495397e+00,-3.852572416772699904e-01
-1.025581403202036501e+00,-1.476936225543102610e-01,-7.849748225614297525e-02
1.267013556702158150e-01,-2.112926632916216352e-01,1.112814444733157382e+00
6.071479088131703783e-01,-8.869520178721117531e-01,-1.468884170411042245e-01
4.537055693058356098e-01,4.254064191853390020e-01,-8.267593649998727923e-01
6.478087844991754496e-01,-3.441761040885199519e-02,1.165129131342056423e+00
-1.568606541766675092e-02,-1.150861273592847844e+00,-1.685134078645552091e-01
-9.766144799499533180e-01,3.309454579599653279e-01,-5.002964642278200369e-01
-3.979929487562598456e-01,3.873113468672799153e-01,-1.072223161414388448e+00
8.965518992582268698e-01,-1.162304639668967132e+00,5.002035461566006758e-01
8.078933249746972356e-01,2.777354198102164884e-01,6.115314425044660052e-01
-5.635094951206044422e-01,1.116579322601519264e+00,-2.271998110561846695e-01
2.592627831912185099e-02,1.287281733537724238e+00,-4.294116791831686236e-02
2.534932631618447840e-01,1.441719719731220817e+00,-1.626374691702298647e-01
-1.052287790746289753e+00,-2.361080028612190240e-01,8.406550099960580225e-01
-8.850414461787481368e-01,-1.150456711209687510e+00,7.877768598237266939e-02
-5.945702946374590292e-01,-2.737330719346247054e-01,-1.103154464616851849e+00
7.637007844083036623e-02,-4.935706043410172383e-01,8.974866330665930425e-01
-8.106495422546063923e-01,-9.115336063556882529e-01,-2.771810948548853459e-01
-1.207721546122444423e+00,-5.156771719800224973e-01,5.714060629061830099e-01
