-5.123866659746082602e-02,6.545800475978863497e-01,1.095575598991509914e+00
2.774261221556374446e-01,5.674279445550854950e-01,1.032716479242974605e+00
-2.502536381953587852e-01,1.120580474758382516e+00,-2.153275197801300389e-01
2.654996098977450147e-01,9.308259658141851967e-01,1.105723973158506013e+00
-5.341799306406739278e-01,8.943748878342058228e-01,-2.032253572237925909e-01
2.121446354672552326e-01,1.398577110273490520e+00,-5.646526580610472523e-01
1.105508375135495422e-02,1.354508925876149128e+00,-3.317179272424897185e-01
-4.298057546787641958e-01,-1.066323742555396414e+00,-8.131555670065820918e-01
2.962833905261640921e-01,-9.315638858391046551e-01,8.638046812175780298e-01
4.517838582176846862e-01,-9.411080391814994339e-01,8.513173821650554807e-01
3.907281278622833920e-01,-1.984678737774777102e-01,9.579693251116354613e-01
-1.020996740478464115e+00,4.393736597716607073e-01,2.038897359504516782e-01
-6.043077762202009318e-01,8.499745518365899866e-01,-2.204251258238671962e-01
1.196342615224918138e+00,-4.792866875264745752e-01,6.674024939744440665e-01
-3.170538358457152504e-03,1.381361999842195987e+00,-5.537705362611208271e-01
-1.223847852234294153e+00,-6.332756589825500049e-02,5.006904961316976932e-01
3.461328558089462604e-01,-9.140176732550230332e-01,-4.401991853330963766e-01
-6.871037984629938533e-01,1.996628692502935287e-01,-9.227443875969498777e-01
2.873064996872128907e-01,1.278948119552043350e+00,1.176666528363285065e-02
3.541772863040449359e-01,-9.138606323657839647e-01,-4.914963271809583700e-01
2.516370227710222965e-02,-1.175593813233126728e+00,-3.659772317602041913e-01
-3.144182283600392425e-01,-3.551461913455125075e-01,-1.015544680248711584e+00
-1.270190936071349030e+00,4.168798285566869266e-01,-6.343930224805230944e-01
1.323535726688990777e-01,6.926797601743179822e-01,1.089418687508792116e+00
5.418173512258376290e-01,3.030240466730858562e-01,-1.016044035526039835e+00
8.697445589640588892e-01,2.863306014449069070e-01,-1.053483770452275037e+00
8.038133212757320178e-02,1.439408638988683320e+00,-6.082394948755144304e-01
2.797807561613134819e-01,-4.461404032209023152e-01,9.362761560612600231e-01
-1.468202630089978367e-01,-1.252818141366561111e+00,-7.265495978165935620e-01
1.319513547492606520e+00,-7.178270469934538989e-02,7.582422434708958603e-01
-1.194902751261464266e-02,3.477276434854705833e-01,-9.693835098370296999e-01
1.195416755687328969e+00,-4.244473989198533359e-01,3.268295026306719531e-01
4.736569198114192608e-02,6.168980001315801376e-01,-9.579809377325098074e-01
-6.723126674120452062e-01,5.876405547848889688e-01,7.539122935649481549e-01
1.013294748112988142e+00,2.660445056796628127e-01,9.417411402632278605e-01
-5.909818480975246313e-01,-8.796416310400791971e-01,9.708483543002427441e-02
-9.019645586603154408e-01,-4.775315288421103643e-01,-7.359460892939641008e-01
1.207390684197552799e+00,-4.887079488054774101e-01,7.706794854891549917e-01
-4.424693497790224139e-01,9.928252381896801593e-01,-3.777551476012375731e-01
-1.541603058385713487e-01,1.095109843357821910e+00,2.277916498215694363e-01
-2.015129585258372547e-01,-6.644816610713102367e-01,-1.076027775078787219e+00
-1.274552517861803624e-01,-1.368699933616099873e+00,2.729901367232042894e-02
-6.404285525662243295e-01,8.432032620135327949e-01,-4.099732028710352805e-01
-3.404548880513754150e-01,-7.736419825569946784e-01,-1.074389624403654153e+00
-2.480857101112486640e-01,-1.350655407669992591e+00,7.548228262200645799e-01
-1.134505010129049030e+00,-1.681559905650532316e-01,-2.006589018456581552e-01
3.386530789929477203e-01,-2.562319543303538949e-01,-1.069658013922858197e+00
8.792819725638927331e-01,4.926490181629594733e-01,4.571212469029601322e-01
-7.625965143766186838e-01,-6.545416750962698149e-01,7.915764238958039600e-01
8.244462559391831924e-01,1.076612082154218969e-01,-1.057646580926028701e+00
8.411353231175867640e-01,-7.487019204710951836e-01,7.352765009955052333e-01
-5.880413991158599529e-01,6.653089134721001940e-01,8.697892941417764145e-01
-3.479702699387467457e-01,-6.423501483359539410e-02,1.028435790716925702e+00
-1.203802268313047374e+00,3.200614317652291096e-01,1.243989676598328126e-01
-9.507118039172385293e-01,6.222972203845930084e-01,-3.763424119912033849e-01
-7.238100087891383705e-01,4.894446942940849921e-01,1.143706116472231527e+00
-7.263365459529240731e-01,-7.171073819070282740e-01,1.411964606218049090e-01
1.277915065127957828e+00,-2.752291038924973288e-01,-3.953773008520593268e-02
4.141516102299862001e-01,-1.013906791989251488e+00,3.488717949859093670e-01
-3.245600091223450612e-01,5.928566659816968398e-01,1.125393692739133922e+00
-6.235959884947899212e-01,-8.352584847123530887e-01,2.249047378032970057e-01
-5.851320800818250456e-01,8.085645001326677850e-01,-2.463984851588341476e-02
-1.462437583609737801e-01,6.124713808148186667e-01,1.100604721962533228e+00
-6.251758327286265349e-01,-3.697844923589658772e-01,1.025483138566763763e+00
-1.246260662990580914e-01,-1.250622560198260569e+00,-6.383023925210209448e-01
-3.064228615827027102e-01,-3.469759279902839832e-01,-1.022056549137823733e+00
-1.208636603805862020e+00,2.945089652229431754e-01,1.263376584876870212e-01
5.734042244107767639e-01,-5.117814197921592978e-01,-1.133477448493986017e+00
-5.739467644133388058e-01,-8.876213124909496655e-01,-5.800577033313661923e-01
-1.132792246501799216e+00,4.973411064418319372e-01,-4.545583906057114598e-01
-1.067332924035383268e+00,3.477528949596379870e-02,1.101693551935664761e+00
-6.337252089906796337e-01,9.239354504718988448e-01,-7.401517739589048572e-01
4.194897178011498529e-01,-3.861257424927654891e-01,-1.092661973849218038e+00
-6.267449868977849059e-01,1.471041865617334077e-01,1.096699072545233467e+00
5.529507235398024578e-01,-8.119519825824575987e-01,8.725659014104041322e-01
-4.451405281150794813e-01,-5.081586562460412848e-01,9.914694129818544255e-01
-7.485485444090080875e-01,-6.409104794392449511e-01,-2.560323059502504495e-01
-9.740235900900379162e-02,-1.288790200177267087e+00,-3.274647463760599342e-01
1.009138777554284827e+00,3.434813139400016979e-01,-7.490087312190110702e-02
5.434892028424967991e-01,-1.003004574070687438e+00,7.748839592848570934e-01
2.965629278509592237e-01,-7.177648830201524000e-01,-1.109183341974355974e+00
6.064136264994092196e-01,8.544332701262711272e-01,1.737357151183354653e-01
-1.237282095627626921e+00,-4.707514564050765266e-02,-1.817076653304189882e-01
3.274910393353073768e-01,-1.046262212426206428e+00,1.052362566804573990e-01
1.620294975638398860e-01,1.293428639701063254e+00,4.301402939962237215e-01
9.447721824565019633e-01,-1.016897577251469342e-01,9.216448499710957476e-01
4.632391743108787291e-02,-1.291104914498120426e-01,-1.023840611589088567e+00
4.739792853801421679e-01,1.001701851433947299e+00,9.946526423709997067e-01
-1.135201288937967457e+00,3.830877115844691372e-01,1.065991266424556466e-01
-8.605620028467394489e-01,-2.200304703994186428e-01,-9.563998070472513602e-01
4.544846516274251846e-01,3.658816742454653603e-01,1.021404839877594783e+00
-6.241030093604545970e-01,5.555501369387601945e-02,-9.375900970252083466e-01
5.062643776789222533e-02,-3.828504043211256591e-01,9.574898572444854317e-01
2.744049549050491810e-01,8.893834427220749517e-02,9.978258690200115799e-01
6.188754660673579516e-02,1.111532182050475548e+00,1.045084038013428307e+00
1.106305652933792683e+00,1.904953073313574718e-01,9.619509175890469943e-02
-3.346568201444567459e-01,3.834930207873646912e-01,-9.361780396740289056e-01
-4.617036214685157347e-01,5.594782055396275711e-01,-9.057559192914581558e-01
-4.690702796474801595e-01,1.036934015291039568e+00,-7.576217237596760690e-01
3.348450228894150338e-01,-8.978001589449856601e-01,-6.519710546458791223e-01
1.267132849145711671e+00,1.237794275629750321e-02,1.708590658370134074e-01
-9.656549470630368948e-01,-3.929906391370322494e-01,-2.818882163809708907e-01
-5.512740330340329953e-01,-9.199729868418059509e-01,-5.449597055450030592e-01
5.889158140591860269e-01,8.620460622604306788e-01,3.246388166664729846e-01
-4.235302537883170459e-01,-1.066957939465848604e+00,6.984611919488545873e-01
-1.208735876053205427e+00,-6.115636677688757877e-02,1.025738646946387389e+00
8.276417927644963424e-01,5.563476775478036762e-01,-8.823943631257086251e-01
-3.789022426877983185e-01,-1.133555509967866470e+00,-8.074798102625245777e-01
1.052662363062685680e+00,-5.818558637608901574e-01,6.461583982334015985e-01
3.715626790501395660e-01,1.148826756197260046e+00,-8.168999662313526366e-01
-7.573246533240489409e-02,1.187858448359949914e+00,1.819560599113156651e-01
5.841125462301939297e-01,5.806954796100304295e-01,1.029838004301412813e+00
-1.537649429869624995e-01,1.107107528822643516e+00,2.423826497566538563e-01
7.116862698379304852e-01,-3.124955441724809879e-01,-1.100066278711305801e+00
-9.534967787145346430e-01,-3.950862299484850793e-01,-1.144233014241212154e-01
-8.483936207835541810e-01,-5.540205299822482665e-01,3.873135210219477154e-01
-2.815690002764814071e-01,-1.282978889808473300e+00,6.937911023927461063e-01
-9.378027705180775886e-01,4.933350150538869383e-01,2.616321372018467484e-01
1.203162809700629304e-01,1.359443661723881869e+00,5.257465528588922687e-02
7.608575284226400948e-01,5.805556194718151097e-01,1.030623659371862733e+00
-1.173608256901071262e-01,7.178143275052021322e-01,-8.968752575612034539e-01
1.162926874532930643e+00,1.018233575370590810e-01,-5.709454414148052992e-01
-2.762899232907748415e-01,2.198899502203087164e-01,1.050307151762674085e+00
-1.284618963357949228e+00,4.341555566354257101e-01,-7.547777292498701884e-01
-1.222025459545135195e+00,-7.075757092876712451e-02,6.619677894318101163e-01
-6.729153429228901251e-01,6.277771231112124761e-01,6.172955729992742890e-01
1.121082950188573957e+00,1.744402592256317774e-01,-4.709196056464527436e-01
4.988151594819986712e-02,-1.052318331131303797e+00,8.766423102710939608e-01
-7.538683078856861508e-01,5.308795606686983470e-01,-8.898230729457238253e-01
7.606089640071853619e-01,-7.748531890418468571e-01,4.165391895396180488e-01
-8.994456644966698500e-01,7.190250680330222410e-01,-8.175731597394990668e-01
-3.156109559332913594e-01,9.501536772715460932e-01,-8.854374937470511631e-01
-5.444060839024736920e-01,-9.090828834048028106e-01,-5.295647547858819415e-01
-2.809519246161080175e-01,-8.986843101099574183e-01,9.341042908915500043e-01
-2.263995982839901722e-01,4.459435050814873902e-01,-9.250979056264809763e-01
4.736416349106201823e-02,1.250041941568828863e+00,2.531607923599810128e-01
1.168508017204912486e+00,9.938163371554836756e-02,-1.093503428340858674e+00
3.959038437753383821e-01,9.272127794663868883e-02,-1.059063742865791413e+00
5.053004946401320474e-01,9.903686607939891084e-01,-1.961395415148924348e-01
-7.477203296908216945e-01,-6.443767656756324014e-01,-1.950838424330040288e-01
2.135037643916808947e-01,7.210019179800366551e-01,-9.425595467345148082e-01
-9.897787186094574308e-01,5.541335020906899000e-01,-3.087761094417135754e-01
-3.875614946236178443e-02,-4.118066205921551703e-01,-1.051671625058269610e+00
-7.548347038888727489e-01,-8.510279423025017553e-02,1.050446797445791614e+00
-4.936178958769868452e-01,8.168048933950154966e-01,3.232476162045971324e-01
4.504804182383125022e-02,1.151405286789613847e+00,7.265648639455053459e-01
6.402959614214184247e-01,2.058511200608157954e-01,9.935572769256960646e-01
-1.156158979869250647e+00,2.595922629648695357e-01,6.330602200706438865e-01
4.053720318683998736e-01,1.090607550980780216e+00,4.479668282090414344e-01
2.593791153232060109e-01,-1.100822912389372688e+00,8.460508187207085307e-01
-4.466664087225016844e-01,-7.553968809034726783e-01,-1.084515155921107032e+00
-6.608451109336368479e-01,-2.549152540410192791e-01,-9.907164632689682282e-01
-3.309573330443316697e-01,-4.068338464638140972e-01,9.892769104935823510e-01
1.327957863738148170e+00,-3.329542423795431305e-01,4.417024079281626769e-01
4.536972859722663842e-01,2.603365923231705237e-01,9.963620731407839548e-01
8.025084607938839931e-03,-1.113999654284517860e+00,-9.518261696247380943e-01
-4.755870449143457385e-02,1.274423537798817119e+00,-8.574437526948461841e-01
-1.073350961321520192e+00,1.688223778626984917e-01,-9.149432480495757192e-01
8.044222969078012042e-01,5.605520439021628443e-01,1.003832324169977808e+00
-7.709697469113401258e-01,5.376208580216188526e-01,8.803978065710640344e-01
-3.121937910510674818e-01,3.415002196670790385e-02,1.043776753780539801e+00
5.548751881157945043e-01,-7.061945193827975364e-01,-8.661136781141922647e-01
1.039258054815387800e+00,-5.201540910541417873e-01,2.404557695835125852e-01
-7.066238116114096357e-01,8.062514747433515705e-01,-4.305313288367823565e-01
-1.677426634781177539e-01,1.178885297168463797e+00,-2.304688925897723228e-01
1.072163886822013357e+00,2.496048162195989295e-01,-5.626115449798262114e-02
-2.988651577338004572e-01,-1.259737930947909090e+00,3.814972707505436267e-01
3.680687158450215990e-01,-3.107466378429302734e-01,-1.081666973100218865e+00
-1.934182110590185744e-01,1.242124500147079758e+00,-8.298740888109401581e-01
-5.925297812706478151e-01,1.147395172351372422e-01,1.075172994866194331e+00
-6.004566768492304307e-01,9.223733200452671754e-01,-8.406916660769586658e-01
-1.348735142156286537e+00,3.460723669362124610e-01,-6.415801379647062541e-01
6.151597145309035675e-01,-6.682143251446322207e-02,9.436270251093343830e-01
-1.442907044178569631e-01,3.833170585980564260e-01,-9.347907311580089251e-01
-2.211206711193393071e-01,-1.344087731182297629e+00,-3.710040023486327332e-02
-2.433639223689558206e-01,9.774321674072575794e-01,5.029789133535172985e-01
3.983440262889650918e-01,8.859792004259557929e-01,1.087938129932821463e+00
-6.299689695116992283e-01,-7.946243802278080137e-01,9.577180143427386216e-01
1.391195168010096905e+00,-1.948280167330653789e-01,2.851509613008892940e-01
5.210948072414530730e-01,4.565372511142293810e-01,-1.000993608935284218e+00
-9.096687406120650410e-01,-4.584045412401521746e-01,-3.264498345057663675e-01
-8.720217096463747652e-02,-9.513304111390904483e-01,-1.111039950898318418e+00
-1.389859185991070278e+00,1.862898767811876910e-01,-1.321831449911414769e-01
9.483144821801159363e-01,3.717141059661525637e-01,3.569736862558027246e-01
-7.630262706097655778e-01,-6.555310749168474782e-01,9.843792462519776465e-02
4.293877549161885798e-01,1.061521099024117509e+00,1.102600601443653794e+00
-1.176105144288617899e+00,-1.247404861234407691e-01,-8.232338594034802615e-01
1.862286864864916014e-01,1.316297874845267835e+00,5.108485812553336114e-01
-3.087273011809033574e-01,9.252069842299066593e-01,6.103035172767121708e-01
-2.039909744045049211e-01,-3.112856743032254014e-01,9.804617113696716402e-01
-7.304462615006962478e-01,7.624940840503766637e-01,-2.685620946869387571e-01
-1.698917289376813411e-01,2.318896136966994703e-01,1.031120098069440605e+00
3.180228494414273355e-01,1.245340714233762025e+00,-7.526775061347147355e-01
4.841323708458675767e-01,1.016100948868891907e+00,-3.005275819343284915e-01
1.988635909038885818e-01,-1.685049207165493501e-01,-1.056983725384351480e+00
3.723887979251692681e-01,-2.421583561501828297e-01,-1.075254156359100932e+00
-8.285998224761038644e-01,-5.391028653461772402e-01,-6.760754820125565168e-01
-7.040707507652624875e-01,-1.737277002293370620e-01,1.052881680084169158e+00
-2.277430776450206362e-01,9.410517120731196616e-01,8.846703794568141488e-01
-1.484576399062288998e-01,-1.312197580416320619e+00,-4.260548284303043998e-01
9.234627420238276929e-02,-1.320824551161231986e+00,6.772423422071631727e-01
8.682495917265580232e-01,-6.360767071214205037e-01,1.533829248162842107e-01
-3.577682194374991465e-01,3.722752755607402486e-01,-9.232460806841829015e-01
-3.479214355836149353e-01,8.236407635359553892e-01,9.980566915442075082e-01
7.859080977909916887e-01,6.213216204044117452e-01,2.973608608513317320e-01
8.068939776661490093e-01,-7.596666062633745664e-01,4.360899705304151497e-01
5.753656232116223235e-01,8.924871618513966487e-01,1.597556509646157197e-01
2.046036579856788107e-01,1.035598323963641265e+00,1.128339990288808714e+00
1.111029795113310098e-01,-9.737732928177986746e-01,-1.100914144432151298e+00
-3.264256631483744009e-01,-1.236163132912774909e+00,4.649108135932339403e-01
4.659054535070530911e-01,7.013146264441095790e-01,1.078577356499483608e+00
1.876658874700934676e-01,9.242396960169023679e-01,-9.240193942403506222e-01
9.490376939766655973e-01,4.071851213231539313e-01,7.697662105344494909e-01
-8.274417642173947929e-01,-5.652378232609789332e-01,1.619618031787351323e-02
8.321706918351239324e-01,5.339177295308620286e-01,7.535738436822229103e-01
-1.016276267173837455e+00,4.819454189960164503e-01,1.169393459658904511e-01
-9.089924075916567814e-01,-4.474514726645444362e-01,-5.080724514074499432e-01
4.532095333591904529e-01,-7.662860901477687170e-01,-8.461165552719429606e-01
-8.047275544197860508e-01,1.563455534153857518e-01,1.091366627784651655e+00
7.131341073689917431e-01,7.476343489220129701e-01,-6.664634931248579752e-01
-1.053094876421504900e+00,1.863153994790360812e-01,-8.887479266020671398e-01
2.395896887804612185e-01,-1.500794870075975729e-01,-1.075639240263035257e+00
-2.821302885394785798e-01,8.577483752077309509e-01,1.092209563076936174e+00
5.080056920746977428e-02,-9.784407067387058676e-01,-1.125892549720754365e+00
-9.606557843635888938e-01,-1.059887560023009129e-01,-9.704991924568500128e-01
-1.229822483610021777e+00,-2.008040553171975412e-02,7.639630261464236405e-01
-3.670403190439431862e-01,1.041956257257832696e+00,-2.303447748049757549e-01
-2.039919414971900005e-02,-1.066379638100151128e+00,-1.137696948779178596e+00
7.824839350705273811e-01,-8.853501708976929674e-02,-1.118931287946570485e+00
-1.257211340842476210e-01,8.733430635801393560e-01,1.142438402588374480e+00
5.739698817705942702e-01,-9.397919035080711803e-01,6.514559188142625690e-01
1.698256349945483912e-01,-1.810596624697930757e-01,-1.062669894324349551e+00
-3.926863062539524551e-01,-4.372380407152514636e-01,-1.030856231356673147e+00
-1.359464253637260089e+00,1.625465256246187984e-01,2.903194021603039410e-01
-9.537463114629524119e-01,4.701963688931680152e-01,3.234791834393992427e-01
-8.373983028858734690e-01,-2.352373177585552755e-01,-9.734992972646659970e-01
1.758502140267529379e-01,-1.074099765279388663e+00,-2.968522623087380685e-01
-9.472989065928399954e-02,1.090244318729017170e+00,-8.744565890605908720e-01
1.566732882906628557e-02,-1.225786399942339067e+00,8.653466431440731688e-01
3.933714353264018693e-02,-3.688645287491503638e-02,1.010327268253955468e+00
-9.156701116611244418e-01,3.606133227479664249e-01,1.131540114665007257e+00
6.370238502113390044e-01,-9.367684244132929994e-01,8.509910350564053871e-01
-3.304552985601330595e-01,-5.894708553628804637e-01,9.686896448367599000e-01
-1.290779644935364789e+00,1.988733081071332454e-02,1.056241566403777643e+00
1.346548056691191153e+00,-1.055384531697989292e-01,-6.856416326524893412e-01
7.966198760885948027e-02,9.631063113438357304e-01,1.128340262557457008e+00
1.684769770239663844e-01,1.312320290348890861e+00,5.334541504087638719e-01
1.265258784552993454e+00,1.702728635892390707e-02,5.971556591796979285e-01
7.320895272351655159e-01,-5.385514107599723710e-01,-9.437948709868698716e-01
-2.330300970471683719e-01,1.541252817951645204e-01,-9.917172133590637095e-01
-5.735539798662312450e-01,1.728394127657151280e-01,-9.509642649361512712e-01
-2.649308578473869025e-01,2.468212437072505316e-01,-9.651006698143058671e-01
-4.547978801431429852e-01,-1.027881673255792938e+00,-3.257453677350889421e-01
8.847981825989967852e-01,4.876519970750502475e-01,-3.028021957029170541e-01
-7.104518899017736588e-01,-6.967750604916714829e-01,-1.019289338791302457e+00
9.393531605328003797e-01,-9.032384606158820606e-02,9.117435246029638174e-01
-1.464279244708238670e-01,-7.156322591630940311e-01,9.324632551926195223e-01
-3.642960865623333655e-01,-1.182223004691557389e+00,3.240786248762570487e-01
4.237833114643606014e-01,-1.016472799994150966e+00,4.783591580099408325e-01
-5.865954534930494235e-01,-8.780319518616931385e-01,-9.075488921966913258e-01
-1.262648542261843643e+00,1.384780892885973877e-02,5.480842730345065750e-01
-6.713057693740608345e-01,-7.850373686076237423e-01,4.401178652340291264e-01
-4.361968803369495884e-01,9.013076400143418265e-01,2.207778537219815818e-01
-8.077411858258091160e-01,-6.346692043775822301e-01,2.610973417513304598e-02
2.088545928025241361e-02,1.196841187325748734e+00,5.614204396876982806e-01
7.345418712833819974e-01,6.726505903119480712e-01,-1.387169479063614375e-01
-6.178419641131772666e-01,-8.246213351945896886e-01,4.964644744294750001e-01
1.155506631696970654e+00,-3.298874008557342030e-01,-3.917463586967838141e-01
1.085637875188748991e+00,2.531030461957017863e-01,-9.486450622545646860e-01
-1.154983944033133536e+00,-1.779450490193984213e-01,1.069737549088512152e+00
7.070958285073846161e-01,7.685040755764332987e-01,-9.735424226222981758e-01
-1.259921668914266935e+00,3.465200482116961300e-01,-2.660647172847506181e-01
1.198339415314606082e+00,-4.732162944608469535e-01,7.162914390914242313e-01
4.171442108036713670e-01,-9.019589958693872145e-01,-1.653525399626476766e-01
-8.580930827201906919e-01,-5.140748653356110864e-01,-2.168819321802460676e-01
-6.736323298562255646e-01,5.563403831518198839e-01,1.129778580676862543e+00
-1.095630852566680691e+00,2.569249202862539661e-01,1.014032197102463284e+00
-9.743080576708447182e-01,1.395207202202263796e-01,-9.099866371253546582e-01
7.210108349947448314e-01,-5.608044497400932471e-01,-9.142550947519301197e-01
-1.387415604933183166e-01,-1.326915804823756595e+00,-2.857318504986753327e-01
1.350524457562594982e+00,-9.335368341075291065e-02,6.866442423510844550e-01
1.325292981998658304e+00,-2.671782849130823201e-01,3.529038748207355414e-02
-1.280407521566550244e+00,2.991821774536171027e-02,-4.888784891491189666e-01
4.949424947024184673e-01,7.007413748874071757e-01,1.045566632176416544e+00
7.689009066240837242e-01,6.393803655404927122e-01,-3.886226210721110963e-01
-7.573174994984352981e-01,7.533459496554456569e-01,-4.587430027105742214e-01
-8.600717799773417438e-01,6.454150993728039465e-01,-1.928362821215989509e-01
3.799375369072239828e-01,-7.170634761842967775e-01,-1.132935323360959368e+00
-3.729498857683387625e-01,9.694348370970572448e-01,8.694737168498710422e-02
-5.871662896855470715e-01,-8.446520368878832619e-01,-7.484876532754457523e-01
2.788053239921703397e-02,1.414622000336297036e+00,-6.546164466557776729e-01
-6.108502490540236307e-01,-8.581810102786336936e-01,1.428739522179589827e-01
-1.109585909064525477e+00,3.347970137832808057e-01,5.446067213870027235e-01
-1.601164318125665453e-01,-1.269959159687614081e+00,-7.224345803500558105e-01
7.782976154548589820e-01,-5.290844802292864468e-01,-7.098350458045052935e-01
-4.118491131871297450e-01,9.312144628338767660e-01,2.062225981441148381e-01
-1.260285719087506973e+00,-4.836243308520541198e-03,9.679197927608466090e-01
1.004538427413157464e+00,3.179801518976479446e-01,9.584581205751326882e-01
5.832120397273889978e-01,-7.352075479212005771e-01,-5.694777721734024523e-01
8.708816146388591306e-02,8.520679021297103972e-01,1.109585486746419658e+00
5.245834414599154227e-01,-1.011907506406899193e+00,7.904582835694087262e-01
-5.333784600186015634e-01,-9.269772121124323361e-01,-1.096467244719671497e+00
4.426814691127896606e-01,1.036643727197764653e+00,8.171858589587172039e-01
-8.124265839922665267e-01,-5.961073339921280079e-01,-5.083501687901834654e-01
-3.465963078091983118e-01,1.040970892023800332e-01,-9.742528028342812840e-01
-7.118511395678875919e-01,-6.963783834542948137e-01,-1.013606645567758813e+00
-2.011952844866223555e-01,1.191156117787228741e+00,-8.416535711657788799e-01
8.697563372270226134e-01,5.125242258988939037e-01,-8.559350279212603052e-01
-1.364956640655870634e+00,1.466910022723096341e-01,-4.275304127676946564e-01
-3.799871399861574628e-01,3.293177904048181226e-01,1.067264799673875997e+00
7.409087119318362724e-01,-5.361469516054294671e-01,-8.657323324395316266e-01
6.294745279351172673e-01,8.726844022445656712e-01,-8.143973369904335957e-01
-6.542472748230231394e-01,-1.566375548868924605e-01,-9.677085891978368659e-01
1.157714319024444327e+00,-3.839949703630931577e-01,-4.106767460957561761e-02
5.676261641008142900e-02,-1.150912933573323693e+00,-3.679641118667069666e-01
-4.070216075468995331e-01,-1.109446550521898889e+00,4.035274963374350099e-01
-1.126353510469128461e+00,3.498900110313864498e-01,3.423574857901703350e-01
1.833417543976417485e-01,1.108769486387140457e+00,-8.863778582157922914e-01
1.077675687317548592e+00,-2.539327166025021620e-01,-1.040902792103961527e+00
1.742836493764908790e-01,1.301962199818235355e+00,6.179595935395785222e-01
-4.797876604408709555e-01,-1.024330363559994961e+00,2.822520227351758004e-01
-8.413145478790801102e-02,9.499654336854971293e-01,-8.754280293012404179e-01
1.046752962043447033e+00,-5.544299797525661377e-01,4.523973322603068170e-01
6.601220440629288477e-01,8.038106803223223906e-01,3.102024901102223842e-01
-3.796001245010544589e-01,8.007975340895300276e-01,1.059847914504041366e+00
9.874079842673633145e-01,-5.706155628662742396e-01,1.809770274291835346e-01
-6.776820308950596283e-01,-7.670755476382131732e-01,5.673492060380874724e-01
-3.898557273718492588e-01,-1.704173647822934123e-01,1.025444280052218327e+00
-5.277278707196593199e-01,9.382425672617327184e-01,-8.370776447301648826e-01
1.029847147322343393e+00,-2.905369490343084338e-01,8.885398227852552289e-01
-8.194671899745166466e-02,-8.421859486045004672e-01,9.180312715668216272e-01
6.890975682846871286e-02,-9.885255129653828243e-01,8.624077846304984973e-01
-7.254374944089643507e-02,-1.366660995387505961e+00,1.423371605946897600e-01
1.152541160895469208e+00,-3.706776446795282953e-01,-2.374100184017064463e-01
-1.041688924280103068e-01,-1.411606261520735650e+00,3.467832150937144586e-01
2.100868926985584029e-01,1.368668766599580477e+00,-8.298172898737908587e-02
-2.942260166897948115e-01,-5.905403977761116557e-02,-9.942749636321519535e-01
1.015668722331420915e+00,-6.337089987493812471e-01,6.631648467281847648e-01
7.025387751117466717e-01,7.373546299096354062e-01,-5.319570698227305688e-02
7.282097524322566073e-01,6.788720834880490607e-01,-1.878032936095657135e-01
-6.929447491532541026e-01,-5.636848423479365877e-01,-1.016541174680749338e+00
3.843208863836971023e-01,-9.759180938116633897e-01,-2.458180821268757948e-02
1.231552368095361727e+00,4.542041693144001357e-02,-5.248800891238145638e-01
6.358423749468545827e-01,8.216700284699285373e-01,-1.072087746854886309e-02
-3.935437981380516814e-01,-1.141404468714693810e+00,2.511379982881038475e-01
1.021823810821345546e+00,-4.822126032289472675e-01,8.593836010561539673e-01
4.182345881955609190e-01,1.115285589386941112e+00,-7.407880948274109256e-01
1.252011073875890279e+00,-1.680469072946741693e-01,-7.604967414553470695e-01
3.861143130102029919e-01,1.019945250458382580e+00,-9.053297430620879105e-01
-3.476958634104406753e-01,9.689781805551597182e-01,-8.677472869983940962e-01
1.277536685674433459e+00,2.308735191874404079e-03,-1.093502395219693391e+00
-4.614636082545768847e-01,4.364942088479232263e-01,-9.125567708153869972e-01
8.772181478877764116e-01,-4.545610045472686656e-01,-7.089280276672075276e-01
-6.120958615592642094e-01,6.601580306096511697e-01,9.483102344448223198e-01
-9.322422443107497569e-01,-3.849512292609722497e-01,-4.944070972856465240e-01
-9.381432392985458169e-01,4.564187806977469397e-01,5.904762194704827882e-01
-3.609744178268001757e-01,-4.820220560017904332e-01,-1.030272796122732260e+00
-8.159376774247359965e-01,-3.579211295260464332e-01,1.038330978999702836e+00
-3.047792331040768410e-01,-7.670879403952229891e-02,-9.993304633338003784e-01
4.457841762222796572e-02,-2.861444665139774579e-01,-1.043664026152475666e+00
3.762162807891069050e-01,6.240512433361430356e-01,1.062678087869339816e+00
-1.314351002662960344e+00,2.816109542541747057e-01,-4.066185396916068007e-02
4.179477917640255225e-01,3.423057119707003659e-01,1.016540921158230137e+00
-1.212035251694198124e+00,4.731605145944375312e-01,-7.062329619504330580e-01
-1.148514041629231444e-02,-1.404310202045037315e+00,6.465661150101014165e-01
8.354498488621751040e-01,1.343724659225262463e-01,9.710585224439383101e-01
-4.359458872589492273e-01,-3.484319133773999821e-01,-1.018943493189228056e+00
-6.727609035378666336e-02,-1.196123432714028434e+00,-6.582077580852662146e-01
5.011051981729147675e-02,-5.185510910523778438e-01,-1.099173839603689862e+00
2.803452099398420772e-01,1.268404939109897045e+00,4.775444087547172645e-01
-1.060287963454554561e+00,-2.866607497602565724e-01,7.675062071801375119e-01
1.660322048380422633e-01,2.921809858333974663e-01,-9.730158038460694492e-01
4.679487258383134285e-01,-3.900483386368958083e-01,9.353097876784455256e-01
1.283929015083119074e+00,-1.783901458492533412e-02,-1.596076996709615836e-01
3.139438611584063898e-01,4.073455611901811158e-01,-9.693776774261492202e-01
7.192100413873328546e-02,6.103423512574309706e-01,1.071384610658906666e+00
2.495419311905729409e-01,1.316586138295308794e+00,-6.992488039650195386e-01
-8.508956044863442703e-01,5.735367823278855193e-01,-8.729366019703707069e-01
-5.388469646065172647e-01,2.537510136943075256e-01,1.093161817195989816e+00
-2.612597045313199695e-01,4.409691737512488330e-01,1.081706644966889508e+00
-7.548405460083585927e-01,6.034989354150581686e-01,4.783555421686642162e-01
3.861222398590062332e-01,-1.905058850809804860e-01,-1.071432909839367120e+00
-1.155089727000291333e+00,-1.282330299801155704e-01,-8.432695158564563753e-01
-1.103164324811469088e+00,1.873068665873682814e-01,1.135289778483300926e+00
-8.407530173452268940e-01,-5.465222693340134885e-01,-3.707464302650373411e-01
-5.220543011993676874e-01,8.742920468021058156e-01,5.047387008505962308e-02
-1.364871437418209599e+00,2.635965600981011181e-01,-2.663999332452904323e-01
-1.186207688457802556e+00,-1.194318891415752787e-01,1.027507008429468183e+00
-7.647522981385982410e-01,-6.675197651065630788e-01,8.863331845195893122e-01
-1.206993495483154044e+00,-3.815370934704812034e-02,1.106725783794848317e+00
1.226096119521629335e+00,5.499933781273753410e-03,5.912350400951933427e-01
1.015945143168301312e+00,-2.768544236705828276e-01,8.908440786476091722e-01
7.318143961979821643e-01,2.769781779556267365e-01,-1.024049850998548727e+00
-1.141247456205737532e+00,2.026889488031625997e-01,1.000682189698503644e+00
-3.808690920683004411e-01,-7.382346825078979213e-01,9.511469192111466908e-01
5.354726101069344768e-01,9.291799637926850819e-01,6.075319642922064611e-01
-4.607103318971617067e-01,3.368468440710115641e-01,-9.184835284831015523e-01
-2.714596044351729187e-01,-6.954175839766612022e-01,-1.074153343918488934e+00
1.661156832174594256e-01,-1.243697138814203740e+00,4.751956969627425531e-01
-1.254431163199873245e+00,1.673632601034089453e-03,3.785732248008276679e-01
1.131515522759568348e+00,-3.313352402951475484e-01,-4.589107534223395568e-01
-2.953597024132083582e-01,-1.285049187789923941e+00,7.127797185304852734e-01
2.384308338679696770e-01,1.323268236223943850e+00,9.342580862131638630e-02
-4.637827859525724961e-01,9.189992048916323375e-01,6.695338926011996927e-02
6.029129199135974115e-01,1.975780286495296689e-01,9.705286721437743624e-01
1.252418945274748507e+00,1.666462526434505514e-02,-9.963621590700592057e-01
-5.217364148215372088e-01,-9.557731099347235304e-01,3.972824648771144940e-01
1.281179903842264434e+00,-1.372762190507697232e-02,-2.974756287952682321e-01
6.211784236198869547e-01,8.307547861073614204e-01,-1.764461475874873064e-01
2.088428515102234706e-01,1.395081315942260147e+00,-7.182891493756548007e-01
-5.987586830307972674e-01,7.436555567334143246e-01,3.466026310411232103e-01
7.572939273959230499e-01,6.300113560783441313e-01,5.374274947104614730e-01
-1.189152793102732586e+00,-1.441919492514784906e-01,2.511230962476165146e-02
-1.271829605185636813e+00,3.687726320366975508e-02,-8.634136621647634513e-01
-8.478335075431950862e-01,-5.602347598388101035e-01,5.819466104998207712e-01
7.826941134879171480e-02,9.511447909904404696e-01,1.111683842808356193e+00
5.716434524463502864e-01,-5.052391403274312243e-01,-1.129312449294318510e+00
-9.411759867489730702e-01,-4.005843593017786586e-01,6.658301829738931532e-02
7.645267143288547729e-01,6.683011808500061157e-01,-3.475252884589800084e-01
-5.033908244940424881e-01,-9.866026598528224723e-01,-3.481852853052983532e-01
-9.017796381951283247e-02,-2.839274702537947226e-01,-1.057337299622386206e+00
7.358092008692556085e-01,-4.986581573925430999e-01,9.140554500445929875e-01
4.992622459191779494e-01,-7.624547289890701296e-02,-1.055825269048616288e+00
-4.107893925812061697e-02,1.026254383569009665e-01,1.043063335909219624e+00
3.637826412975216361e-01,-9.378708592835023339e-01,-2.585491470414706949e-01
6.442320642041785006e-02,5.065457747355501805e-01,1.077289634232165172e+00
-1.148715360784360984e+00,-1.618940894467990887e-01,2.039483196254249231e-01
-3.241804587431196816e-01,-1.191992137222388948e+00,-8.230665006970649955e-01
6.475575270263347338e-01,-6.709609168747188157e-01,8.908221484257475842e-01
-7.598653844889472486e-01,-1.041036916761313158e-01,-9.721276248959791477e-01
2.375649335089891068e-02,1.089530729523481511e+00,1.062756672256405910e+00
1.098298532294816610e-01,4.574595125046356237e-01,-9.553651062653332193e-01
-2.442645375965619703e-01,-1.383771560485557994e-01,1.013601453734596980e+00
1.437161870145444498e+00,-2.778472100143576928e-01,6.237189126154852881e-01
7.433855782544031010e-01,-1.197388754299000269e-01,9.381701405441725816e-01
-8.749845007566108002e-02,1.268998623893501820e+00,-1.993021791207458537e-01
6.819256470574804885e-01,2.398683299036481753e-01,-1.037085504771578348e+00
8.148279813597661958e-01,-4.918541433334538415e-01,-8.415415814816474827e-01
3.672876573634460406e-01,-9.803709791633523629e-01,-8.867220648357139468e-02
-5.797211553534545869e-01,-8.853971734661945092e-01,-2.621978726177487395e-01
1.205438735023793839e-01,-5.732639696207171287e-01,9.181532813604904586e-01
-6.379014045421307344e-01,-5.321907856288349281e-01,9.941244430433313628e-01
1.838588168357031538e-01,-5.938545048368358836e-01,-1.105999456834878547e+00
3.199015844874749104e-01,8.241240707907923069e-01,-9.425302367332643039e-01
-1.209369502879076075e+00,4.745555408305762723e-01,-5.443791381079774450e-01
1.595061513460887537e-01,-2.807189188723446457e-02,9.964128543094009638e-01
8.887071849837202206e-03,-8.668515650393354699e-01,-1.114068093511023649e+00
-5.497623325852937087e-02,-1.391589978010249640e+00,4.507175509584256945e-01
-7.959923266638879724e-01,-6.004577355022377994e-01,-7.875259640074493417e-01
-1.036807546053466478e+00,4.674511862807691487e-01,2.991159417558389086e-02
-2.608327634917815274e-01,-1.322057797489286868e+00,1.573329198120230477e-01
9.164016954483954480e-01,-3.824641634015743530e-01,8.826064195126188672e-01
7.881566099599220943e-01,6.298163822364106768e-01,-1.218959648411756524e-01
1.301026579322196175e-01,-9.470158406810805785e-01,-1.117371744708455905e+00
-1.078528690702190929e+00,3.179948791122331753e-01,7.048937475367902383e-01
4.373602230379892153e-01,-3.755889772379406577e-01,-1.100149597603410578e+00
3.670367414244170012e-01,-1.008334287597864032e+00,1.772733072300238799e-01
-1.214669361444679963e+00,-5.293781430570548840e-02,1.111070386231818752e+00
-9.491258851337307512e-01,-4.051319544498519498e-01,6.432503544804012430e-01
-1.905065902053284244e-01,1.185790967365298654e+00,-3.235071617226550345e-01
1.284846283185229199e+00,-1.884417755479298739e-01,-5.294168212797054629e-01
1.830800374940739494e-01,1.226874344370076031e+00,9.771280050536387263e-01
5.961327982049616780e-01,-9.305417359598852078e-01,8.569515958801363631e-01
3.033819138092921364e-01,1.187747099061321476e+00,-8.840024178732261984e-01
-1.151929296236129829e+00,4.892330682673219910e-01,-6.243130579569108329e-01
-2.418765101451278432e-01,9.193257746046011869e-01,9.793547711381409560e-01
-2.506465267299911037e-01,1.029066871316504539e+00,3.247067388390417197e-01
-4.930147805539823458e-01,6.847902879939569143e-01,1.087467256093211265e+00
-9.594940943243185361e-01,3.980416595822872106e-01,7.197383622333842768e-01
1.200730931962221915e+00,-4.845484107250376815e-01,6.443111695605612255e-01
7.500062464293495434e-01,-6.536285031434607706e-01,-2.359804333576826785e-01
-8.353483811485453714e-01,-5.598745772346181981e-01,-2.999701067798200005e-01
4.498522066276689491e-01,1.060427906025299460e+00,2.741020619626435284e-01
3.343638725541754897e-01,8.208540757526632259e-01,1.076076860712735783e+00
-6.745964704883328222e-01,-7.618007757387065260e-01,-1.701859671068397528e-01
-4.273505360317780832e-01,-9.295437995071246240e-01,9.174987724290446511e-01
3.516869838139498605e-01,1.173348541411321611e+00,1.094112331599312649e+00
-1.401398257526685676e+00,2.700539403157236062e-01,-5.033403223037237195e-01
1.047993171519147060e+00,-3.411352395470583221e-01,8.738961932987222569e-01
8.390973838771345061e-01,8.850768469504292912e-02,9.559459609303569971e-01
-1.061536762233414422e+00,-4.029290939074221117e-02,-9.394199532894149662e-01
-4.358034996891852475e-01,9.414583712267203808e-01,-5.936261755865727269e-02
1.043362490357508721e+00,2.615508574727146152e-01,-3.768815121050222428e-01
4.923212648096798039e-01,-2.227988334141693949e-01,9.406748238843961607e-01
-6.526455878933846710e-01,-7.830025738632709897e-01,1.769494804881017458e-01
1.233983076818880864e+00,-2.538005480191694585e-01,-4.373073676857350822e-01
3.188608565819287533e-01,4.245442819077611674e-01,1.034994878815072683e+00
-9.506633948487291930e-01,5.994396555430727691e-01,-2.247409614827682311e-01
-1.195179251755787986e+00,-8.149881955029619762e-02,1.515766246150747065e-01
1.251036822437932017e+00,-2.005361527152857148e-01,8.942332421721601587e-01
7.255593111033959985e-01,-6.622660493207374044e-01,-3.725139717053448374e-01
-8.705375552583788368e-01,-3.743197246112363319e-03,-9.263165993630114725e-01
-5.413776656513992203e-01,-5.425039355690086662e-01,-1.035475774866576160e+00
-6.051022926067813890e-01,-8.351604915089682057e-01,-1.051486424074474124e+00
3.361345661436825338e-01,1.239207709749919895e+00,-4.702501833492990224e-01
1.542342197637815715e-01,1.254682571299160276e+00,7.176617450876854321e-01
-1.037339056510481194e+00,3.447523960540871402e-01,6.711682873862897525e-01
9.604947101495979744e-01,3.613353927235147256e-01,-4.258206927579178541e-02
-2.000380971523509910e-01,1.002094196808667625e+00,7.215729593245716611e-01
1.641176801476334213e-01,1.416481296668275380e+00,-1.329108372088863843e-01
