-9.566781829976820362e-01,-2.619200906082766456e-01,6.166873670728487689e-01
4.114854745937412406e-01,3.519185852518491586e-01,-1.017035783276505123e+00
-4.817744257169879196e-01,6.599427245148009602e-01,-9.652587050580840877e-01
2.431686604022256781e-01,-3.495059482755698554e-01,-1.022032151965207802e+00
-1.352102137748244282e+00,1.025240483816962506e-01,5.828008715934309691e-01
2.780771380103800872e-01,2.703201007636411579e-01,1.109936821391977579e+00
4.159410180563744563e-01,-5.606127448105296951e-01,1.184868618732543011e+00
1.135342400455467082e+00,-4.109453262534790707e-01,-3.792268114899545739e-01
4.620968808070465839e-01,-7.886253049312937080e-02,-1.243107925161061500e+00
6.731232341234393013e-02,-1.481411835004406097e+00,1.227088312956670507e-01
6.664542040426574276e-01,3.825261224018612349e-01,-7.252523928635037365e-01
-3.024956533495932187e-01,-4.865170512662849167e-01,9.494881996635411436e-01
-2.219855069474113707e-01,-2.357762716680150139e-01,1.270764843475856498e+00
-1.136371885450434993e+00,-9.277655813424173781e-02,-1.075126790837593466e-01
1.106112637491502015e+00,-7.817900718500657431e-02,2.624090281640728550e-02
2.996436225438069423e-01,3.357920987813646785e-01,1.054500246280916320e+00
-1.070948687819640588e+00,-7.901086873040447101e-01,-6.748140094355753460e-01
-1.121676360603168998e+00,6.600132758986656523e-01,5.881146043627639708e-01
-8.152616964896133300e-01,-6.164715273557900277e-01,3.349201808438425076e-01
-6.676588968547929603e-01,-1.074466914619797375e+00,-3.996969085337910288e-01
-9.648160449741739475e-01,1.236170116426712901e-01,-3.450434538384273830e-01
-8.287010433061059445e-01,2.042140588410077395e-01,-6.529570025372771758e-01
1.507160101671001229e-01,-1.190370148991098720e+00,5.300799889561903511e-01
-6.646300489716454596e-01,-1.704259985058540761e-01,-1.211404771943054293e+00
-6.098501228736482593e-01,4.661104505940288356e-01,-8.120671931740269800e-01
-9.798956189546284001e-01,5.011857115970106413e-01,6.246510872012247390e-02
-4.950127703189463602e-01,8.109007499047231615e-01,-7.982782315183549748e-01
-3.743156924849767031e-01,-7.603793576923247866e-01,5.797110023713220039e-01
9.364378159070758656e-01,-1.180529461910553857e-01,4.437120157982196722e-01
-7.661306925025300751e-01,6.453799171574433613e-01,-3.655833704312027588e-01
-6.302688510142698819e-01,4.415223899422075493e-01,-9.009767889298345711e-01
7.063928209217826826e-01,1.043704953869331709e+00,6.764694099396921512e-02
-9.610824661678831760e-01,4.587815288143056724e-01,-4.398833555262072863e-03
-1.194384945495201439e-01,-7.564490397327042759e-01,8.055828648584074658e-01
1.134820263820438546e+00,-5.014457852188058951e-01,-4.772127489400077027e-01
1.285480788509953953e+00,-8.032664225607884928e-03,-3.198447517755155234e-01
-8.109653079149536925e-01,1.017544353292353376e+00,2.184517551268469748e-01
-4.490148482959133713e-01,-8.717901091986365314e-01,3.707249056040640145e-01
-7.105291732077848588e-01,1.076301389713822387e-01,1.226719682130245515e+00
-1.282507537948088583e+00,-5.000860802371030062e-03,3.555709933809357293e-01
-6.461112188501879627e-01,8.649294826486122467e-01,5.545659627219762244e-01
6.265189166492508566e-01,2.666579441724421518e-01,-9.037943221736866040e-01
5.505926620495390500e-01,-1.187274300461600429e+00,2.285375959060738371e-01
-1.068522199092876157e-01,1.034883513460032489e+00,4.173019107996630006e-01
5.188367459321090447e-01,5.517508795940684330e-01,-6.687656607901073524e-01
1.773189100236803872e-01,-1.135340465832245793e-01,1.463564685043594382e+00
1.144459490848926730e+00,5.826834811971951522e-01,-8.536892431450066043e-02
-1.210432597246186237e+00,-4.817253848669092453e-01,-3.770667120278216045e-01
2.284049852970890249e-02,3.277667141151194841e-01,1.031639836324269366e+00
8.191061301181498111e-01,-4.962143491729500977e-01,3.448817663928236965e-01
-9.420452143795182698e-01,4.598380165298339706e-01,8.909012954014721153e-01
-1.290613418464750639e+00,-6.019060358052663595e-01,-1.003063295360758778e-01
-6.597117781967014594e-01,-4.167321420685402567e-01,7.086715018034557279e-01
-2.990541128766622259e-01,7.516531428157670058e-01,-1.179965068254422711e+00
5.656155956757895620e-01,-2.722737463736602526e-01,1.138407473913045198e+00
-5.074577197899801106e-01,5.324001140882120842e-01,8.505023739930099858e-01
-2.934132564160050749e-01,-8.991355015352699986e-01,-5.192353217340419658e-01
-8.062086847189133820e-01,2.574041118918635740e-01,-6.182804539801906030e-01
-4.871781469082597793e-01,-1.028600526064539222e+00,1.416350729900639482e-01
1.345136196577537913e+00,7.732330093919326242e-01,3.369348085564697337e-01
1.161151765182189433e+00,2.061944010578426467e-01,-4.878306182537150426e-01
4.582286690714124644e-01,-1.519002886466767954e+00,1.387029608352176313e-01
8.056345281863996899e-01,-7.163170996270219471e-01,1.468593891924698802e-01
-4.415717161089088849e-01,4.908326498382846736e-01,-1.308102902942080759e+00
-7.488875215006920438e-01,3.818242439018280643e-01,-5.501741855715022167e-01
6.392910037519927702e-01,-1.101320084566802970e+00,7.911218345253377693e-02
-4.770436964859885443e-01,-2.019981627833347670e-01,-1.166942108928666455e+00
-1.133254688605600302e+00,5.307322972298637032e-01,5.265843360108873883e-01
-2.410459536732000030e-01,6.851742951457669983e-01,7.280693541439886562e-01
-1.254597040022497723e+00,-4.954141716754881242e-01,-2.701788842999320872e-01
5.926454246846156737e-01,-1.066988067678512619e+00,3.098738651097601715e-01
-7.335825764434055207e-01,-1.174679408856453833e+00,-2.961104197145555950e-01
-2.379946738853691290e-01,3.854294178635587764e-01,-1.550002175259447723e+00
1.018187792835691496e+00,-1.366211313718448117e-01,-1.009552118452103908e+00
9.180415899937067747e-01,-9.633761235056452765e-01,-4.125207778559175642e-01
8.525545249653996294e-01,1.190205853407462627e-01,8.903058042649476533e-01
-1.006033740889377581e+00,-8.744698368840672087e-01,-1.218864304649945329e-01
-4.462810222727803811e-01,1.873271011946703035e-01,-1.498083591942872106e+00
7.399502272136758707e-01,9.472417868542996056e-01,-5.058053419787471999e-02
4.800676084422101919e-01,-1.899143265562154292e-01,-1.164403307294671785e+00
-1.298391332379966734e+00,-8.573742021754852116e-01,-3.820784054890298820e-01
5.668484527020751784e-01,4.159468103214739032e-01,9.481228422817240542e-01
1.090380035423857974e+00,3.405021937922573239e-01,-3.808628894718283364e-01
2.235896048330844599e-01,9.659714071380403055e-01,-4.303146372732780112e-01
-5.048266270307100179e-01,6.583122971326027528e-01,-9.826870532399952785e-01
-5.917186168084123121e-01,1.030533519626058547e+00,-3.128454763072159306e-01
-6.785025662545206560e-01,1.155600357460549787e+00,2.944807761284970460e-01
4.218014213280878999e-01,-9.602953291116077539e-01,8.098664887941929846e-01
-4.207145833554232217e-01,-6.753351963432737692e-01,-7.635728229655989185e-01
-1.202350749764171889e+00,2.586340991955209390e-01,3.859600320124197403e-01
-4.947598944648802233e-01,-7.850104350235104222e-01,4.049094195451098388e-01
6.954446186707178290e-01,6.218509386482367063e-01,7.876481323019509651e-01
1.300530888849014133e+00,9.036873135913565946e-02,-5.168280212824610809e-01
-9.289860725997577395e-01,-7.148311513206027090e-01,1.303911585921757321e-01
5.116904366899849288e-01,-4.175072050130642642e-01,-9.363493619285768732e-01
1.335762495800537630e+00,-8.161028322182581340e-02,-5.485247002504167746e-01
5.709519572286998468e-01,6.587792687405096270e-01,-4.651430130522518080e-01
1.138478833969838844e+00,6.408519973845336892e-01,-2.594118563698281227e-02
7.443669910017795821e-02,6.635070968332992258e-01,7.468881797930865263e-01
-3.411583145276060880e-01,-1.134950922589585520e+00,1.489997441554722080e-01
1.081009410110733038e+00,-6.359674982050539382e-01,-5.087540743363240248e-01
4.692062591100242264e-01,-1.543000154255848466e+00,3.634948572883692913e-02
6.608193808592652818e-01,-1.098696260498070787e+00,9.238726057223316246e-02
1.266878815355758414e+00,6.551113292342928274e-01,8.219909831178973114e-02
6.803294537094658478e-01,-9.268912057653386771e-01,1.496618572972007732e-01
-8.093133280321308520e-01,3.856237412497331429e-01,-4.703103482764877663e-01
-5.193476997790990035e-01,-8.688871777888410586e-01,3.175635873191600123e-01
-1.256247937025288808e+00,-4.431367989352300585e-01,1.296303150237005930e-01
-8.903565935191447567e-01,6.405536826939232931e-02,-5.973912337170392828e-01
3.878453530966069485e-01,-5.284652236146041293e-01,1.360512853823145463e+00
-2.126636990188342236e-01,-5.603827702453764159e-01,-8.452957569737331589e-01
2.148028825554047783e-01,-1.460732778653865749e+00,-2.756734589531848259e-02
-5.676602586045179644e-01,-2.139338741946996136e-01,-1.160684579304039454e+00
-1.074049034534430680e+00,-3.085408057819863936e-01,4.345069799871522642e-01
-9.481401854929416562e-01,7.586793366895044910e-01,2.714921573561585588e-01
-7.338813802904628480e-02,-6.101012401622458725e-01,-8.043991757336890203e-01
-2.684260634787584768e-02,9.147720084581476563e-01,5.267728039250579863e-01
-2.236322927696786644e-01,-5.190712114576652159e-01,9.667335503524508988e-01
-8.437518380937245599e-01,4.255265059181793236e-02,-7.391406920248239087e-01
7.312474317798023371e-01,2.342067932564394911e-02,1.098464828521770409e+00
-3.620507799819778771e-01,1.591983606053182010e+00,-7.779668909481332606e-02
1.247637311185692433e+00,-4.268346584834745716e-01,-9.397712280461660850e-01
-5.725616995459716918e-01,-9.579410265724996876e-02,1.142257894891746783e+00
4.942200773613097398e-01,3.734857410507002595e-01,9.982412481595649423e-01
-1.083220731885761845e+00,6.690521751795068806e-01,7.389959618310107947e-01
4.393560086349848071e-01,-6.769655133577718864e-01,-7.177017271890157035e-01
-1.404995707031856389e-01,-1.233795891341346040e+00,2.363216526327338862e-01
-5.421575226211279297e-01,1.245906394302802145e+00,2.189289757297203098e-01
5.485693304365990564e-01,-3.269029641089659655e-01,1.175551226458322107e+00
-6.563716002310320263e-01,-3.536871620696964702e-01,-1.011749142407649682e+00
1.164608554689092079e+00,3.633803191723811721e-01,-3.096768648591650130e-01
1.225722044842519898e+00,6.963167004366430657e-01,8.427708086694377099e-02
-8.106273448915171098e-01,-4.471393236589990550e-01,-9.681127122451630429e-01
-4.952765294159409692e-01,-3.385421631992002744e-01,9.269292558122647074e-01
-8.207979291220054430e-01,9.668016020377747655e-01,1.708028771051649519e-01
1.005979551140531392e+00,2.409316318012547919e-01,-5.927098329820255085e-01
6.117859528243616701e-02,4.505401627291194533e-01,-1.226572919755651636e+00
-1.628260044498454073e-01,-9.895842561273764382e-01,-4.514052287098508920e-01
-2.719187423454582642e-01,7.195405256569249453e-01,-1.156239940149719869e+00
-5.724338786907521293e-01,3.046734888049629220e-01,1.038996659980050641e+00
1.533130460501029579e-01,-4.673675652274598691e-01,-9.395331600900526103e-01
-4.113614726728684889e-01,-2.882610681472840275e-01,-1.089614745102425841e+00
1.107718551693039455e+00,9.991017255126642682e-02,2.676000043383501836e-01
5.530779043578641120e-03,7.907908845227792360e-01,6.241376812561623133e-01
-2.872521704502021267e-01,1.595464042099239199e+00,-1.999221159993304908e-01
-7.424334893669340962e-01,-2.514688816192222620e-01,-1.141124368242742770e+00
-5.741915751106664301e-01,-7.819243562263418212e-01,3.232918259839842046e-01
-1.229700964236177599e-02,-3.996998428656590163e-01,-9.888238820057673184e-01
-6.956084193917151381e-01,-1.620831152944534614e-01,9.389401563508961157e-01
1.842886115520254164e-01,7.205721472489676760e-01,6.868085817900310142e-01
2.505773532467011622e-01,-1.065593898838138820e+00,-3.881917607865394415e-01
1.306552839398152921e+00,8.069568869665012523e-01,3.174844256321526781e-01
-4.737674455354238257e-01,-8.175961833094290698e-01,-6.063870236187981488e-01
1.163847053688128907e+00,-3.692887162174870452e-01,-4.115318824658577013e-01
9.567923374723426022e-01,-5.131891305277338500e-01,-6.093336353554969914e-02
1.282579419389705322e+00,-1.906364282320330839e-01,-5.463434787382074331e-01
9.521129963464906865e-02,-1.508454050083299691e+00,1.401612106091448262e-01
-1.995118941935871693e-01,4.939000244073961099e-01,-1.386901700216744970e+00
-1.148249590012034638e+00,-7.612343709778446321e-01,-1.113895460028584555e-01
-9.225724257027900777e-01,5.972032194541320171e-01,3.356511631835634724e-02
-6.972514620853118572e-01,1.152889346395077119e+00,2.913822727419844161e-01
-6.785089668148089892e-01,-1.208405558445340811e+00,-2.449769564330681326e-01
2.130934331364071066e-01,9.409647480272977926e-01,5.143621703441387805e-01
2.404628845274912607e-01,1.144022629362190902e+00,3.181083379582690940e-01
1.331471766555650582e+00,-3.443216564495811260e-01,-8.100417894263831631e-01
3.232758691144600460e-01,8.052505919249853816e-01,-5.299800753543933984e-01
-5.988819234659644719e-01,8.576898026288819477e-01,5.596015556319269280e-01
8.663433838797587883e-02,-1.169939561339642387e+00,5.289814003355794991e-01
-9.485605142924812272e-01,-2.594339481078569709e-01,-7.958015633624119234e-01
6.195116584348794309e-01,1.000417371470740724e+00,-7.687024753221284590e-02
-4.302925126169656056e-01,4.516630334996094565e-01,-1.329268315139555234e+00
8.054122334346808243e-01,-1.047794956454310755e+00,-2.502385419452287652e-01
1.185874718237071468e+00,-3.906821352680540094e-01,-4.758164255214872851e-01
5.659978197713479986e-01,2.884141449279137848e-01,-9.032388205414506599e-01
-3.422372527970848344e-01,1.633980355621624359e+00,-2.055286930637350296e-01
1.995442004307318162e-01,1.022423565357193365e+00,4.282514049857572003e-01
1.283389770463048585e+00,-1.833208087722977830e-01,-8.323521616860347638e-01
6.698903234066629075e-02,7.332711808212228899e-01,6.623350393872748931e-01
-7.199945013159878560e-01,3.221230400723297804e-01,-7.868749880909515770e-01
-1.079397317715143911e+00,7.161183410983676945e-01,5.877065868932211945e-01
2.960647729177178222e-01,4.399053322711778957e-01,-9.868068978447458450e-01
-1.242238906992407133e+00,1.533830742179012052e-01,3.699169144193907299e-01
-8.711852374394334353e-01,-8.745960388045180833e-01,-2.064869648106719066e-02
1.297371853932160590e+00,-1.761855752266442421e-01,-5.477038485808882751e-01
-9.219558942368147880e-01,-4.626717172727087823e-01,4.197297450211128211e-01
2.818256865704918401e-01,-1.134904325488268029e+00,7.088430309990072509e-01
8.883024037714488674e-01,-4.163878328060477418e-01,2.374067287165168849e-01
-6.875021755060135575e-01,8.926161854697511888e-01,-2.179341164317610546e-01
1.935489093794941495e-01,7.625005250434184756e-01,6.735996206705259226e-01
-1.540419114450084503e-01,-3.848357907923310450e-01,1.176651077168136217e+00
-4.507678043707086246e-01,-4.349231151979846555e-01,-9.384876503058824371e-01
-9.893672506519420873e-01,-4.211472389929664661e-01,-9.166463359656765730e-01
-7.830077042642715757e-01,-6.800695824266512757e-01,2.832133131271421522e-01
1.205176359044485057e+00,-4.226585268311532917e-01,-5.532594650204453179e-01
2.497673723308524441e-01,6.335029994083900273e-02,-1.397175123038833622e+00
-2.929566154022585911e-01,8.930742551166608312e-01,5.356018472350287940e-01
-8.421210639326729419e-01,-6.308453980469727607e-02,-8.789187977699672860e-01
5.968371313970042280e-01,-1.079419622581851979e+00,3.033093209335852580e-01
-4.463825616648641192e-01,-2.528247773315409064e-02,-1.319503051318952735e+00
-3.385089088492314047e-01,-7.814720299951524174e-01,-6.399881611854988384e-01
7.663933259551248822e-01,-4.561441614088081464e-01,-9.033836285536227528e-01
-1.131764022292557348e+00,6.506814831995086923e-01,7.441012084099796198e-01
6.638420008240809578e-01,-2.054350235669946401e-01,9.838588627722748559e-01
2.505669667375715615e-01,-6.410467729736751830e-02,1.402643240013890624e+00
-4.360992116937002505e-01,-5.940631710092635354e-01,-8.257049751955535255e-01
7.095116834848466114e-01,1.225925606180968463e+00,2.556445284460195921e-01
-6.209638985899939012e-01,9.046254693268029889e-02,1.234503504017602449e+00
-2.116364293849050671e-01,-6.011857253289459857e-01,-8.148219051921108402e-01
-1.335458847780215619e+00,-4.189975882272659741e-02,3.984005109166939285e-01
-4.184087515621655040e-01,4.780309836222432773e-01,-1.346208799386878097e+00
3.825468131741105449e-01,-4.717425236192411275e-01,1.442864295663933705e+00
-5.619744589564703435e-02,-6.016165411355366421e-01,1.018545834268101746e+00
-1.022362678177273887e+00,5.535293209311618196e-02,8.878324902967178467e-01
-4.882444687593998633e-01,1.347774317612503214e+00,1.260825938947585101e-01
-1.204596346573856003e-01,-1.027534554004098100e+00,-4.360635549200136407e-01
-5.796098963258057291e-01,-4.301831394031251365e-01,7.696459660976456840e-01
8.634361444660555718e-02,1.966191616667890552e-01,1.156610617400007923e+00
-5.625686116114735347e-01,5.294513812149270748e-01,8.616752479926068631e-01
9.901382703263376106e-01,-8.216484518574129758e-01,-3.923903749382174344e-01
-6.208411664812362174e-01,-7.364571538217388191e-01,-6.972378304871124088e-01
8.250348694612315015e-01,-8.129313764357830319e-02,7.306775503682967354e-01
-1.276762679570369929e+00,-6.672106739342538173e-01,-4.290452711026646049e-01
1.128170972721979970e+00,-5.747499517592158380e-02,-8.104736182884202389e-01
1.086051450505924443e+00,9.775840874313849183e-01,4.865374993186072361e-01
-6.924417849582410467e-01,8.387178153189027707e-01,-3.240900383851462729e-01
1.367207641471986035e+00,-2.670786300693887561e-01,-8.188588977971671401e-01
-1.306295190468529599e+00,-5.069039012206660866e-01,-9.613722396303725493e-02
5.166815199116130131e-02,-1.189359463963504782e+00,4.224923938942311552e-01
-1.318276383563972587e+00,-4.210137921400648464e-01,1.103631693080854431e-01
-1.222091800203165324e+00,-5.107705343675136289e-01,-4.396793585766301526e-01
-6.338499908095390767e-01,-6.779386313274861076e-01,4.218714028118443760e-01
2.047762688187112490e-01,8.509128346440950619e-01,5.472688352622115948e-01
1.105268887138163958e+00,1.484762433334231857e-01,2.949959907229025013e-01
-7.042841449044161539e-01,2.226745859149877604e-01,-9.017752555879433585e-01
-4.470239217591048808e-01,6.489537473418381941e-01,7.551162303510633445e-01
4.999411588358650960e-01,-1.217538666479897502e+00,3.606670365574969339e-01
1.737954707642135610e-01,-5.421686029840273868e-02,-1.299389049929037920e+00
-1.810528108691674964e-01,-2.540816373716182075e-01,1.290101927606442045e+00
-9.352984468086634751e-01,7.865064997364069610e-01,6.317614505990442053e-01
4.322928431525542292e-01,1.183666625204374684e-01,1.253868711229184640e+00
1.006528135365453158e+00,3.355406173163226202e-01,-4.986694936346528495e-01
2.129304537781906703e-01,-9.792297684884676556e-02,1.434539796059411065e+00
-2.125221387621691049e-01,6.067293545628546503e-02,1.255579421498311143e+00
-4.593936100638976172e-01,-6.328622065983990908e-01,6.488975065298803191e-01
-1.291217519397429792e+00,-5.729805756084945800e-01,-2.978881582055693533e-01
4.067253604824520585e-01,-1.062878751916808806e+00,7.316963608317638146e-01
-1.045628882426229422e+00,4.639147988958912672e-01,1.836949527959752249e-01
-8.986622990643130526e-01,1.800284967926374380e-01,1.154704284499977751e+00
7.306260866447291669e-01,6.830768916300616889e-01,-3.119907435194371748e-01
5.323395396458389106e-01,-7.279003844499333346e-03,1.359405271369714008e+00
6.222887756808944681e-01,-5.219672163034165813e-01,8.105580195134919341e-01
-5.126030608638540986e-01,-1.069192283709649027e+00,9.442084441567988318e-02
-7.341532253431746202e-01,3.751782377612325470e-01,9.724848494623867801e-01
3.333330024306863787e-02,-5.057246604011766955e-01,1.218822430629237452e+00
-9.004595650264243245e-01,7.284678858920269340e-01,1.527445796337109363e-01
4.321815575174024482e-01,-1.542683460915021287e+00,1.658026277734866161e-01
3.753081867062982302e-01,9.061958670802090499e-01,5.378111068907809322e-01
-4.317936633950795189e-01,4.871874117881214716e-01,-1.374048034084933478e+00
-1.264115024925039465e+00,-4.592694282803695405e-01,-1.972874893044742339e-01
4.444965017854353717e-01,-1.039025716818450684e+00,-4.011778203061195924e-01
1.195530065608139569e+00,3.023377569175190183e-01,2.133809644609242218e-01
-5.051304111963114130e-01,5.347824354279342440e-01,-1.018739453536467554e+00
-6.979270549560202541e-01,7.842895012001563360e-02,1.222978921456711721e+00
7.528552566922793732e-01,4.677740434600016206e-01,9.280717002573906083e-01
-1.238533890461754883e+00,3.378923724545248586e-01,5.156627226884946680e-01
-2.077527158954587949e-01,1.499773568552772662e+00,-1.625134573349996947e-02
-1.113041731420384650e+00,-3.577164867627358191e-01,-5.570539116604111829e-01
-6.992402182363949281e-01,8.739114025727947599e-01,-2.244311790682319008e-01
1.673516760004696291e-01,-1.195720196235577459e+00,-2.840174121847202637e-01
-2.626096560432970017e-01,1.034407000048126607e-01,1.262340195349892502e+00
6.320299853624460340e-01,7.731962530626462771e-01,6.771864466889548906e-01
5.727189324464424525e-01,9.192867929933337678e-02,-1.155264272783399271e+00
5.237779443700580906e-01,-1.152050821643298750e+00,3.574943980679081146e-01
-1.049991759436143868e+00,-1.213966384314262847e-01,-4.078661555791813220e-01
1.032233672942284963e+00,1.055925328589830459e+00,3.677579744213372304e-01
-7.330272264360164769e-01,8.179967798441960258e-02,1.210395167523276916e+00
-2.596699627906436103e-02,-9.415137325110140010e-01,6.581266534093257459e-01
-9.756587063722325093e-01,-3.654189256266774932e-01,4.334650802050762919e-01
7.557479734116222536e-01,1.119921105892743296e-01,1.146773686826432881e+00
-5.103815011103682853e-01,7.753064548526341637e-01,-7.596219303271147805e-01
-4.899710436961317583e-01,1.343494345519162136e+00,1.368326465310168161e-01
3.121814359885932699e-01,-4.390672566079631411e-01,-9.462668584600677502e-01
-9.201170481885628805e-01,1.126366727506503407e-01,1.060450263027648665e+00
6.127222289629344898e-01,-1.008785201403558235e-01,1.216581540632715175e+00
-7.809931064895530017e-01,-9.163517414521868965e-01,2.193837886069944024e-02
5.876390678296855574e-01,1.573994964508058647e-01,-1.063036417488447682e+00
1.063427997699839533e+00,-7.035395919489716432e-01,-5.004351045244519458e-01
-4.734564460691434995e-01,-1.353672536199904131e-01,1.194235757102234619e+00
-3.870312751155651210e-01,-5.164025116335404508e-01,-9.030819485714474126e-01
2.047209574933699094e-01,-6.176328491931900588e-01,-7.722317192183785206e-01
-9.036704441048606373e-01,4.832712423367264976e-02,1.016217122968567921e+00
-9.205845378525964184e-01,1.658018760729555383e-02,9.777273117328855179e-01
-9.142649645103504419e-01,-7.715963649373029920e-01,7.029520646439556264e-02
-1.162826033674625004e+00,-9.521368706730357623e-01,-5.175271573841380146e-01
-4.563999014129613979e-02,1.306658680775569570e+00,1.667007862262151197e-01
-5.460777695274482424e-01,1.004035604722033348e+00,-4.707879184500986525e-01
-1.142620048073497596e+00,-1.063925497118171082e-01,-1.535981396305859947e-01
1.091128274253343688e+00,-1.565348822980102209e-02,1.723131172187743199e-01
-1.364787763578845015e+00,-3.314022790566210630e-01,1.702336901602646557e-01
1.986339544600810303e-01,-1.313411568749730529e-01,-1.219397350705761385e+00
-9.713598692257184863e-01,5.913835283344320848e-01,2.042538330291877036e-01
1.199463830665033370e+00,7.250923143126593307e-02,-6.104816182381476164e-01
1.173305282759722123e+00,1.919912346330596153e-01,-5.087787076782163131e-01
-1.587560537931279048e-01,-1.394353787981038595e+00,-9.778588134228764772e-02
7.569115963288528537e-01,-1.053062192693768218e+00,-3.835292682376940099e-01
-5.646004588126326551e-01,1.157922843671627788e+00,3.144611522607221321e-01
-8.361595578294872544e-01,-1.184418839262444262e-01,8.743022060272040985e-01
8.138560606117469787e-01,-9.657847229930043298e-01,-4.517538575414317692e-01
-6.835255157620190314e-01,1.320870312882041486e-02,1.157402365517090637e+00
-9.392580522578000135e-01,-4.084826370620281977e-01,4.964175683768993208e-01
2.422262426993650741e-01,-1.361169849641102880e+00,4.055433707829144141e-01
-7.031392246950543545e-02,1.446909629354682369e+00,-1.847260517380724387e-01
-1.254882585072429002e+00,4.762866636215146166e-01,7.601106044057962530e-01
-4.009997608842878480e-01,-4.193389359445617859e-01,9.422191566594975143e-01
-1.225751752169142561e+00,3.132326175567389792e-01,5.252303974216554483e-01
2.242137510604826633e-01,1.282586790773218910e+00,-7.199536651037556634e-02
5.308444285894962228e-02,-1.056042775009129686e+00,-3.917698835476677299e-01
-8.552135180022695238e-01,-9.413328749604343848e-01,-7.448532277965100312e-02
9.145564130205157127e-01,8.129570474230860544e-01,-3.941232981113306638e-02
1.020621430864246726e+00,9.138682475268449235e-01,5.504234720111071955e-01
6.717761821091353669e-01,-9.012328814849855929e-01,2.346120063303255010e-01
8.384679748048980974e-01,2.332234232616639813e-01,1.069619393963732623e+00
5.723308187449510642e-01,7.359313875723862974e-01,-4.048618424949071426e-01
-4.553468373997995866e-02,1.476812835171859017e+00,3.468813586012534783e-02
1.015283513379910962e+00,-7.196708672307591259e-01,-3.876777495300579579e-01
1.243720582076132342e+00,-9.276528116678155189e-02,-7.363919307693705951e-01
6.846593643272655960e-01,-1.021797051667624689e+00,4.547843442932288788e-02
-1.323585399745694779e+00,-6.268163209140632519e-01,-2.641046492909077670e-01
-5.087619135147445348e-01,4.517612419200823792e-01,-1.148585850055164892e+00
1.019549197395988482e+00,4.123799393880961950e-01,-3.634713243106525438e-01
1.052042598248056793e+00,-1.862982158289028800e-01,2.563588065416201600e-02
-1.313895594185218840e+00,-8.057219942599199713e-01,-5.016559111423030126e-01
9.252342763665645231e-01,-2.926980367740397160e-01,2.446127202200797102e-01
2.996673523682037363e-02,-9.061914863577364976e-01,-5.077019958255952758e-01
-1.122371775214457079e+00,-3.187322910284948740e-01,-4.659747960560118862e-01
-4.591418098421670702e-01,1.324435541595142984e+00,1.363483821826818043e-01
1.109136841169933024e-01,-5.912215583680252573e-01,-8.240039169543509345e-01
-2.709877694010465188e-01,-1.105256752657489017e+00,-3.557417245578687326e-01
-4.293932772254610009e-01,8.325163220376640139e-01,-9.231987497267905018e-01
9.300076849091135633e-01,-4.860666519803217289e-01,-8.948434365411150893e-01
-2.911481906907121275e-01,-9.126393575381361867e-01,-5.490664457593524839e-01
-8.996232162592093795e-02,-4.143529121166267259e-01,1.207866259849435409e+00
-8.799875751158500181e-01,7.199356684877841750e-02,-6.585179508666747505e-01
1.320979298414170167e+00,6.770116533207621856e-01,1.869124285704389932e-01
6.424406988050680722e-02,-4.905065507620551823e-01,1.257274495226711863e+00
2.338782050337173679e-01,-7.382184976811130284e-01,1.132718515923607727e+00
-3.623157842351542035e-01,5.037501704976459216e-01,8.648964149648289412e-01
9.911347036999674787e-01,3.910281401238012433e-02,-8.265290223826926574e-01
-4.177292718564299956e-01,6.343550630904604137e-01,-1.187206647516241498e+00
9.125273642091318027e-02,-3.698223606388362228e-01,-1.026025566498850017e+00
9.999090048789364971e-02,5.000250907814581813e-01,8.904098116873996327e-01
5.916524600493111574e-01,-1.095880818982378768e+00,-3.540425987671784736e-01
-7.337175751272331237e-01,1.149848102310793818e+00,1.886885731728857596e-01
-7.640283293764618122e-01,-1.242707305836369264e-01,9.512159194070743951e-01
4.404982078882073715e-01,-6.192459079756863494e-01,1.101354981187669946e+00
-6.097977217820594875e-01,1.151504999469923574e+00,3.065372980575178929e-01
9.425031973455697543e-01,5.609003351919968905e-01,8.731812662323465979e-01
2.989853621769597569e-01,-4.290188508585388028e-01,1.553630031778799214e+00
-7.874096868739421939e-01,7.949598372775196209e-01,-8.545211252679020542e-02
1.318306856789215609e-01,2.877792143228293797e-01,-1.288544493836399685e+00
-3.019380364312760356e-01,-1.346995839948712748e+00,-4.553679252608011652e-02
9.264142487116365787e-01,-3.014343657850065972e-01,2.839260837068616206e-01
9.328157811792310294e-01,2.038720140116672686e-01,-6.944258343923360721e-01
-5.864578052091641291e-01,-1.056970388191325397e-02,-1.345781821455509286e+00
-6.636164604612243556e-01,-6.633685238447346588e-01,-7.469951268970520530e-01
-4.097979611429486413e-02,8.275704733971929183e-01,5.983315376091218329e-01
-2.008874958291291535e-01,1.294366925820089609e+00,1.853132029552502502e-01
1.131079943498514373e+00,-2.311580907686133501e-01,-1.503008055114286312e-01
8.466095230238860347e-01,-3.054458617861223191e-01,-1.050553709482284548e+00
-6.087136253089967530e-01,-2.916036277805289512e-01,8.861083351441026990e-01
-1.670590015521995209e-01,1.048893314189605297e+00,-7.014092801682886291e-01
7.644450891906309220e-01,-3.819395753356533141e-01,5.869604391108431685e-01
-9.558439786788585080e-01,-6.039223251634544543e-01,2.377121841592962914e-01
-3.609376683862580149e-01,6.286099020150585082e-01,7.709980883961116138e-01
-1.060095218631466940e+00,-5.807912040061707915e-01,-8.200807092328056269e-01
9.121236720248612206e-01,1.021547307354306877e+00,4.348556806941072939e-01
-4.879792480268617116e-01,9.848054753503622250e-01,-6.388412093786365320e-01
-9.829216655365914379e-01,-2.008274447548064889e-01,-6.458816337369595040e-01
6.947516134334817961e-01,-1.065865759966582588e-01,-1.242273388264456768e+00
1.087646654289246007e+00,8.813772298996221943e-01,2.033160962099588021e-01
-5.691650787755559993e-01,7.408793770658126387e-01,6.557842502850603772e-01
1.112332586182956495e+00,1.892495005460645419e-01,-5.274695077625961570e-01
-8.789213341336702401e-01,-9.498107353029469069e-01,-5.181089228502161470e-01
-7.735103270126079122e-01,7.497794100123011951e-01,6.438345689950188966e-01
3.307671087287435835e-02,-6.150092948617004174e-01,1.129473331113552526e+00
1.477203862967121639e-01,-1.121136466808652088e+00,6.025017568955650660e-01
-5.109377637851627574e-01,4.263178440048606688e-01,-1.160172322177385196e+00
-1.693938169759677814e-01,-1.125444999464704221e+00,3.384508953285153554e-01
-2.226270667920412227e-01,-1.220293522805205033e-01,1.405961382898343048e+00
-2.800957983266675888e-01,1.547649650872314542e+00,-5.483318076858602341e-02
-1.076482548121754146e+00,2.780474919206650797e-01,1.006668153732258458e-01
3.359489788972953028e-01,-1.050168688879214329e+00,-3.769001918665031425e-01
1.280020699281724517e-01,-3.604656680607322139e-01,1.447950056271799291e+00
4.226567639594785986e-01,-1.392490794812892840e+00,3.402890121980783333e-01
1.148848086202423291e+00,5.245575389164850444e-01,5.956280125866029174e-01
7.067386485878143221e-01,-3.992637260766734864e-01,7.215921496496719989e-01
6.886843218713971648e-01,-1.039708406264066687e+00,6.851871946666837632e-02
-5.989448198536330148e-01,-4.829399224330064855e-01,-9.294403599491238843e-01
-1.304478768744473660e-01,-1.186926777622973050e+00,-2.826348463992482962e-01
1.015016850082447020e+00,-1.821488465374842269e-01,1.493649858052518153e-01
-6.687707638898321427e-01,-5.534986618213454390e-01,-8.364333862362213212e-01
-3.530216442506223240e-01,9.337881111309969118e-01,5.014854938347089730e-01
2.207327819100777522e-01,-1.411658630423836769e+00,-7.160081492414341331e-02
2.244166935276021291e-01,-4.752296218739785472e-01,-9.106435922702019736e-01
8.636212163342051884e-01,-6.334479868470999087e-01,8.076421860702186206e-02
-8.852035941293850962e-01,-1.263313436300032566e-01,-7.977087647851620611e-01
-8.325127868834947265e-01,5.674841401102564964e-01,-2.056098312990466137e-01
1.058441875485087447e-01,-1.408807099334604906e+00,2.204606288676119741e-01
-7.947835945519485246e-02,-2.658484012021843368e-01,-1.095962645198311991e+00
2.062999237345082004e-01,1.115165968620924319e+00,-2.821458332244217715e-01
-5.415705156289191136e-01,3.133121104548360902e-01,-1.268303233414982190e+00
-9.632556051658888729e-02,1.293274012401574302e-01,-1.438575266651000328e+00
1.201978067741512168e+00,2.547974950468626099e-01,1.894677035110109709e-01
-6.346018799976382851e-01,-2.974757139994160804e-01,8.962211639303868660e-01
5.982351844965486803e-02,1.445092481420207742e+00,-5.633723101743063483e-02
2.331214451790026565e-01,4.143737179315660768e-01,9.666977827054262784e-01
-4.536842969098384137e-01,-1.025867572373760028e+00,2.042548305031606781e-01
-3.901364090262667839e-01,-6.297449742547239770e-01,6.913611192827676666e-01
-1.920356610615255311e-01,1.190690819751534679e+00,-5.550314958544009247e-01
7.072789068994170814e-01,8.083140288564357734e-01,-2.005098673268901066e-01
2.154788347050042019e-01,-7.319099903599268764e-01,1.130907537538379248e+00
6.236715714139481337e-01,4.637065789606066857e-01,9.234657704613248308e-01
-1.172782245941732304e+00,-9.748243274293348914e-01,-4.076527938606339663e-01
5.593348456329526597e-01,1.083595194481305146e+00,3.493156984398614884e-01
2.739861841719024027e-01,-8.153550398324592718e-01,1.035943769513839152e+00
-1.331855067953871652e+00,3.680126342330672928e-01,8.046122153056670667e-01
-2.241403659224836253e-01,2.056292224545880620e-01,1.153697644965462343e+00
3.474463735856834767e-01,4.863216535287771536e-01,9.127787040890916748e-01
-7.045753312783326061e-02,3.922321275682786879e-01,-1.390069280664535611e+00
-2.227426756279378417e-02,3.863139137125479738e-01,1.002591882722949190e+00
-1.070708572583322749e+00,1.838476023147910532e-01,-3.304589868719298718e-02
5.778625072465234241e-02,7.820584814374782479e-01,-8.198496555890782966e-01
-1.239931804173824537e+00,2.533029167267232817e-01,4.818828884057132500e-01
6.406929139880658264e-01,8.164553054930534515e-01,6.404083931612478686e-01
3.535239916272867600e-01,6.739805344648274188e-01,7.266319413428548035e-01
1.141027769480167930e-01,4.232543134708556254e-01,9.446376212790972282e-01
-9.048965095722654173e-01,-1.048590454883597145e+00,-2.709939773480524727e-01
6.767652117409974633e-01,-2.238089246136022448e-01,-1.149941365671955484e+00
-1.628978063353463679e-01,-4.888225945070600043e-01,1.072459295258118450e+00
-1.006297656404840035e+00,7.819893277117434538e-01,6.061391202832246972e-01
-6.967917998416562897e-01,1.109729355974497400e+00,-2.428167633709067685e-02
-6.223055404049758835e-03,1.376969044509732010e+00,-1.998561388571566677e-01
3.231020574808556867e-01,-9.190381154294599009e-01,9.703893176645800311e-01
2.924448747327137998e-01,-8.133523957274974014e-01,1.079628659894448006e+00
7.923290829875293539e-01,2.759889106304005968e-01,1.104896687910419839e+00
1.283892496435868003e+00,3.672282303662444680e-01,-1.956040740699092617e-01
2.961393972529501872e-01,-1.114177249764049860e+00,-3.321074517268868265e-01
-8.856485837774886738e-01,-6.135674859722392016e-01,-8.184419687113889674e-01
-1.146819690846213158e+00,-2.889447609269061856e-01,4.229828947875107770e-01
-5.990443899548024698e-01,7.555202823030676695e-01,-6.050751819087368810e-01
-4.244640068410586720e-01,8.539483726118153317e-01,-9.409151706008882510e-01
-5.109127641884932958e-01,3.783128388531697417e-01,1.032213914130213572e+00
-1.210348678538872402e+00,-3.269560250115880473e-01,3.160447483428984738e-01
9.398481882401653609e-01,-6.206175944082765739e-01,-7.721225816368796346e-01
1.136984889688104960e+00,-3.455892115751084126e-01,-3.343558828708640962e-01
-1.345128516914493089e+00,-9.074347557602250314e-01,-5.349793301057845785e-01
-3.911739218861285394e-01,6.204717347972532604e-01,-1.251808461893614721e+00
1.173252742615552791e+00,4.892295861749617059e-01,5.867847365407791171e-01
-9.955146847811398303e-02,1.183124428982965659e+00,2.858761283475166337e-01
4.026590103987532365e-01,-1.233767050876048321e+00,-2.366512570844182539e-01
5.883966372923917776e-01,-1.026613588416614320e+00,3.504185507056777893e-01
1.269841136967375883e+00,3.712230116161197024e-01,-1.947115672391934171e-01
1.341656791440880792e+00,2.476446607668412736e-01,-1.870156974332838895e-01
-1.271216895707928174e+00,-4.512451698411449330e-01,1.074695671623406290e-01
-1.113733605596157528e+00,-8.421097430187993726e-01,-6.062480726085738292e-01
-1.208438106471620754e+00,-3.546852719863220482e-01,-2.195109800384882071e-01
-5.229029418757854542e-01,-1.094623795960140145e+00,5.566232999180797947e-02
6.483837987232381472e-01,-2.170667922732104904e-01,1.076107403836129128e+00
-1.111165929305556466e+00,-3.567914294796728503e-01,-5.337226664331694570e-01
-8.720104968086608843e-02,-7.452448805420424094e-01,-6.761210700184506761e-01
6.069621003379128688e-01,-6.657633153665520886e-01,6.680352529120378025e-01
1.992129901808188386e-01,1.357031617266310219e-01,1.220453963337799763e+00
-3.061878784767985140e-01,-3.610005290522854127e-01,-1.018408088177008786e+00
1.026251419201696713e+00,1.025959135900429420e+00,4.581011753374888973e-01
1.302911492915667990e+00,7.584885008618275082e-01,4.599681788859955045e-01
1.166835654031128877e+00,-7.443997614042269229e-02,-7.731247048916638498e-01
-9.488367569336019214e-01,-6.216023453974751645e-01,-8.176919017587830352e-01
5.738319931951126884e-01,-3.383192302087520975e-01,1.129025788050307844e+00
-1.329367544709130211e-01,1.052772030781353063e+00,-6.677048544997806756e-01
7.187531916656244874e-04,1.415973109231178473e+00,7.936584417137816649e-02
-1.229155654216026905e+00,-7.276801292445510549e-01,-6.017597141978079378e-01
-4.958591666150181654e-01,5.431369791303756189e-01,-1.033918722674699531e+00
4.318724738030180754e-01,-5.354633970090725281e-01,1.264095668909219983e+00
-1.153414094101059995e+00,-3.549234332543019788e-01,3.335970205711507042e-01
6.495458353846967903e-01,-1.605287675129992431e-01,1.121991099904029232e+00
-9.957005548956517904e-01,2.087109751743393138e-01,-1.661314244607366708e-01
-1.144287016924365463e-01,8.192745664741332146e-01,5.966914471218847105e-01
6.546313913793766481e-01,-1.272463840795736045e+00,-1.965019784546821469e-01
6.264723047818848700e-01,1.437405228201545093e-01,-1.047038901094898611e+00
5.559098627342154431e-02,-1.176093114157535702e+00,4.323459273521764734e-01
-5.118981681308542031e-01,1.258919241554159907e+00,-2.290006098745271945e-01
1.065894068462433175e+00,-2.753194736192399739e-01,-7.930494227807095842e-02
1.345123606150290696e+00,8.231356248502968986e-01,3.955131439071637445e-01
3.687872165325553619e-01,-8.772635133225487047e-01,9.979323202472470955e-01
5.918941185931449189e-02,-4.064325049447832239e-01,-9.674203376132253229e-01
1.001686210646070885e+00,-6.613506110289045503e-02,3.532215087552149080e-01
1.356770444706344517e-02,2.957546246638769749e-01,-1.393871497728821351e+00
9.425474340617835400e-01,-8.596099062240111222e-01,-3.062388455168137402e-01
-2.668654485390032916e-01,1.062816846775068054e-02,-1.339632098002273786e+00
-3.839105546901481203e-01,1.168300271335952045e+00,-6.296916774009351236e-01
