-5.417921798713195569e-01,1.559826329333790507e-01,-1.022873032418340378e+00
-9.569830009912243252e-02,5.335260658042185328e-02,1.146962992271924442e+00
-9.721970931269415805e-01,-5.451047219621768525e-02,8.069800401136524304e-01
1.291992668257433037e-02,7.037963580167243549e-01,8.545986700606099662e-01
-1.031649847131269615e+00,-6.635885620557152587e-02,-1.053396090009415254e+00
4.995340131594753208e-01,-7.806155118268356397e-01,-7.235086671455654983e-01
9.486732626592798701e-01,-1.151098196117499028e-01,-9.889266878526842275e-01
1.020699809403621705e+00,2.915630536734312162e-01,6.890967180377748358e-01
3.400711612681547175e-02,5.188648204055016366e-01,1.222576359072890417e+00
6.413766821380231242e-01,1.228073950502633238e+00,-5.428072906278207377e-01
2.092919012196670370e-01,-1.539898013092972362e-01,1.024188710607939923e+00
2.185918976091476840e-01,7.152137088172126622e-02,-1.084819145560854459e+00
2.999450933483443493e-01,-3.053157852382348825e-01,-1.239567067669676392e+00
-9.929069010913172955e-01,3.627282219784925821e-01,-4.405356406588897822e-01
1.003118726757526558e+00,-1.713078665818541235e-01,4.412393271672338524e-01
4.765891796794743396e-01,-8.180185307409909568e-01,-6.467007350533001686e-01
-8.619022171645798203e-01,1.207993506413274298e+00,-1.563746575906430347e-01
-1.033139727296031873e+00,-6.038553460898944403e-01,-7.795095862428919053e-01
-3.785890172285136246e-01,5.605122135187097232e-01,-8.362755047651939666e-01
-3.172144135839191081e-01,1.252861256094722986e+00,-2.995310679124606468e-01
-9.985736820435605621e-01,2.422380298763007200e-01,-9.683743932713856362e-02
-1.007956743463169103e+00,2.787080179542461567e-01,2.472785720650931274e-01
7.380766039655289878e-01,7.776290825258072026e-01,-7.557890834818656867e-01
-9.062940265044231447e-01,8.174840327552990171e-01,6.697989535388250149e-01
-9.638657109930713895e-01,7.426607523197767402e-02,5.604254562321148159e-01
-1.019571917316531851e+00,-2.636353051065967734e-01,-3.259661986828332747e-01
-9.855899358961309753e-01,-2.570566950906041370e-01,7.087877945198479690e-01
1.377599319430806435e-01,4.880617509863315329e-01,-8.928447680815837506e-01
1.003377999527088615e+00,-2.845254398552452546e-01,3.240103257472159298e-03
-1.022970815418752677e+00,-2.461220980228037980e-01,1.734280826934844755e-01
-1.001182793614520561e+00,1.389798467736419463e-01,6.182698727339395184e-01
2.558819591400285920e-01,-1.088311691810541992e+00,5.856526626441614924e-01
-1.009024967653825877e+00,-2.011000574765241522e-01,-2.749667784066153753e-01
4.313244579263496026e-01,3.329805048440482862e-01,-9.687763680203027583e-01
1.022021090877101690e+00,4.138061137263872591e-01,7.424515502624514651e-01
1.023107306507784253e+00,-1.178776954947051148e-01,8.331760527261445892e-01
-1.011386776790539788e+00,-8.185524234759400386e-01,-2.187490082986835727e-01
4.638359395617115688e-02,6.925801748268093361e-01,-7.856529435892737334e-01
-2.667815254990357765e-01,-4.855905016913539263e-01,-1.309315322464231990e+00
-1.004278601899004419e+00,1.129955873761755991e-01,-8.659894986878495793e-01
-7.036986097326980438e-01,-8.664847922493829069e-01,-4.765695075741163134e-01
1.596708219023454944e-01,3.390359369726259758e-02,1.119746562339201335e+00
9.895162053505367483e-01,8.246826618707098211e-01,-3.252048021484673090e-01
-3.390556014352048564e-01,-1.066184375996477307e+00,-6.952944415416952018e-02
3.641877910168322963e-02,-2.963314095797453529e-01,9.652613528674505172e-01
6.656588909101324170e-01,-5.791725815021637747e-01,-1.186512083664012174e+00
7.584848795176583058e-01,-7.083186965607874974e-01,7.613019968044169028e-01
-1.001364493251685861e+00,8.364394589284315229e-01,-3.701674045929745360e-01
2.304544904311311149e-01,-7.438704266096668460e-01,-7.521841366326154077e-01
1.007900524522756802e+00,1.137993181900309320e-01,-8.540031240420439818e-02
-7.057882920335960542e-01,-5.986184074253945164e-01,-1.017901859045973856e+00
-9.386012421239977588e-01,8.367175517546769914e-01,-6.759931053450383143e-01
-1.961746993215316148e-01,1.897907771568482782e-01,-1.018133367612102047e+00
-9.150737025329345187e-01,-7.825499124290064001e-02,1.096927366379457425e+00
9.587622110826795607e-01,-3.778168169643368879e-01,-7.924992410822203626e-01
-3.657954802526063309e-01,-7.340210558733618607e-01,-7.692361556665500144e-01
-9.297776086639927828e-02,1.074724713817966970e+00,2.152287134979705141e-02
-9.967023140363483469e-01,2.123344649156873321e-01,2.449461412485341716e-01
-2.879494763626221088e-03,9.380895087664529175e-01,-6.598498806534220940e-01
9.992452725729041862e-01,-1.101605566676271852e+00,5.556795840067599856e-01
7.821135024018712745e-01,-2.059358731657710551e-01,9.872472590102481238e-01
1.001700703308840978e+00,1.173297048886756011e+00,-3.956659318945575099e-01
1.013371362220656158e+00,3.959504545528313435e-01,5.155597796056787807e-03
-9.849729106676444745e-01,2.354822289604817931e-01,1.058967402895315546e+00
-9.704344579469194043e-01,6.180984161840491486e-02,2.524884430390715861e-01
9.875616555602712010e-01,7.967375846107156434e-01,-1.333748531576602614e-01
-7.166321884745414650e-01,7.869017494186320016e-01,7.052317171822528596e-01
-1.015566950571990201e+00,-4.613994806770446711e-01,-7.739304307483677592e-01
-2.283927913726030712e-01,-8.689122462127013558e-01,-5.004799618216446699e-01
-1.000652226170560377e+00,8.106440518353261737e-01,-4.837322682389368911e-01
1.008206175429985141e+00,6.751211573297895008e-01,-3.368169814551004171e-01
-3.048347627394939474e-01,1.308684070753674211e+00,-4.473457958865499351e-01
-8.460668509892264044e-01,3.917752473034345484e-01,1.318479079666784903e+00
6.157258046621875147e-01,3.522344894381346792e-01,1.253546884967383424e+00
1.022828203476779496e+00,8.341991780501072373e-01,4.460958484168826566e-01
9.863397349463013386e-01,-6.704575013469931122e-01,-3.335868837878591120e-01
-5.970249532037327223e-01,1.025885231444915169e+00,-6.186908618322357611e-01
-9.386866707670080689e-01,5.852505215421371920e-01,1.120206143212177263e+00
2.826650163970171881e-01,-9.590057401711329366e-01,6.691488704169876733e-01
1.156557980028023319e-01,5.777748566324423241e-01,1.129233090897176162e+00
-9.420356184024414326e-01,1.185359491792133291e+00,-5.238189108613204859e-01
6.464617998172748070e-01,-8.965954724857213565e-01,-4.140888087099628412e-01
7.053412929361178030e-01,-3.557288272272383090e-01,9.087780632056672303e-01
-2.969012359291502978e-01,-7.023211992899506262e-01,7.660668032103742364e-01
-9.973189666429661537e-01,-4.068503400083919863e-02,8.109244448795894789e-01
-9.949809587117541820e-01,-6.421225547710845971e-01,3.281677392001156046e-01
-9.219537903912220500e-01,-9.999801026354281364e-01,-1.803825069197683706e-01
9.801495380147130509e-01,3.977512782017534332e-01,-7.981654537990333642e-01
-3.645533990021335158e-01,1.012392901763726094e+00,2.414192945354684261e-01
-1.021209497120791454e+00,-1.474675723263022542e-01,-7.725856244706215126e-01
-1.443346870081024455e-02,6.111186502612891980e-01,-8.070353428364466231e-01
6.318233653679853346e-01,-1.032844220816459435e+00,-1.573640313274276559e-01
9.370214157258399679e-01,-1.206589613147812518e-01,1.036383416292537163e+00
-5.074057898340742501e-01,7.597106765523377048e-01,-7.459085765674769997e-01
2.998403153017973333e-01,6.703034030656239706e-01,8.795900351756061886e-01
1.020697640530190631e+00,3.640340505672183535e-02,1.024037181461696644e+00
1.079588997255127025e-01,-4.900054066442051659e-01,8.512190449034814366e-01
7.509806168460865239e-01,-7.840286836374209534e-01,7.272038362223939290e-01
6.111624653933655366e-02,-9.232951646613173358e-01,-3.839469835246618890e-01
1.660096979591146049e-01,9.977606242828743754e-01,-6.353093992936335033e-01
1.014244659012233596e+00,5.564054480654263557e-01,7.025577988345380609e-01
9.872777729080841613e-01,1.236913581398160655e+00,-3.124942655614275089e-01
1.009657012327015879e+00,7.841791533197879360e-01,-1.341898126731435603e-01
8.925567880277082145e-01,-8.704179318815548072e-01,6.975847491569052705e-01
9.820531947239375947e-01,6.047580703227021237e-01,-1.192197280296411477e-01
-9.990002617466392509e-01,3.592453071047754104e-02,1.599795660864676838e-01
-3.314845571568527521e-02,7.278659287245744514e-01,-7.711329085626487112e-01
-8.931018963245306308e-01,5.899069105951821879e-01,-8.035620449209728289e-01
-9.925942126407225619e-01,3.896522197379874708e-01,1.290043279681449551e-01
9.686512061960280695e-01,-2.144683762534815297e-01,-1.138601287645873317e+00
-2.512011680738657216e-01,9.047685095357792529e-01,4.382596629131891852e-01
7.144336004126145001e-01,1.245469312014579666e+00,-3.450091462252343755e-01
-7.893904300991418932e-01,8.132907563138911389e-01,6.562129676586467841e-01
-6.856028954337097803e-01,3.008759247316618035e-01,-9.364814043878705307e-01
-1.019258396122340260e+00,-5.870902256762551286e-01,-4.058442159519293213e-01
-9.822083764804791228e-02,9.015887816292388335e-01,4.496195189979405038e-01
-1.900397023089506754e-01,-1.025641663614075716e+00,-1.642011855451873947e-01
3.049344356102479114e-01,7.616380355513487077e-02,-1.074818192680827567e+00
-9.894452727889850863e-01,4.610157819708513571e-01,2.617620214912754206e-01
9.821798772009192602e-01,-6.531083179763640389e-01,-5.921727180609270835e-01
-9.249413570961879660e-01,-1.283686034233734174e+00,4.100957760183561729e-01
9.449125521365401292e-01,5.281433635974932539e-01,1.204226516612013853e+00
-9.876263667784501710e-02,-2.990746888753627042e-01,-1.241997093556965526e+00
6.146678740334652336e-01,-8.664538121422855621e-01,-5.016690833783326031e-01
-9.545021195652146906e-01,-6.858692653730502631e-01,-8.863532327826426638e-01
4.019026065560290517e-01,8.162753395743665985e-01,5.818768277356777263e-01
4.054972631456208454e-01,1.004527063476463145e+00,-6.514120836201903186e-01
-8.602104036851336843e-01,-1.073960791536159309e+00,-2.817265958761230524e-02
9.758146946941717026e-01,-3.428073735662640065e-01,-8.485183147782211499e-01
-7.678754800415018567e-01,8.885110055142950714e-01,4.477388229720384860e-01
7.845994298792657862e-01,-4.222740984953317622e-01,8.890142985458250324e-01
8.421675662708476562e-01,-8.988810122489109267e-01,6.907393292836069287e-01
-8.543384830898652638e-01,9.829360733148712059e-01,3.134245088483582076e-01
-1.127157696265439039e-02,-8.247925760091237915e-03,-1.104043661006213872e+00
-1.016640533261288226e+00,-7.512416033511970515e-01,-1.991639538312819646e-01
6.002331495219108692e-01,-1.583108866301101147e-01,1.017843644190156382e+00
-5.049784152052804176e-01,1.312546953777640468e-01,1.199574671018304173e+00
7.598466390150120098e-02,1.097151055310327195e+00,-6.471544643869340738e-03
-8.719932290488869864e-01,-6.616968227146566295e-02,1.078804222896720288e+00
-2.786091381808579182e-01,-6.040976335784646878e-01,-1.028330460956129899e+00
4.110663974787827357e-03,7.892423647983706214e-01,7.083357128323889418e-01
-6.028459609375218520e-01,8.148907296788068244e-01,6.419523684966712551e-01
1.016583795302392401e+00,-4.332692247205057745e-01,2.957488135305164079e-01
-8.508918305132870397e-02,-9.665777451508323903e-01,-2.709537806190527309e-01
-9.000399153823360754e-01,-1.248598019076641474e+00,5.467351360595814613e-01
-9.219960719870607946e-01,8.735976596390375715e-01,5.507806102863550546e-01
-1.111012122364384291e-01,6.606017697846977565e-01,-7.725807989673474374e-01
-1.811422884939881406e-01,7.858361729900340542e-01,6.980922797148456649e-01
-2.470936194323999358e-01,-1.265362528323356328e-01,-1.146596679986204848e+00
1.168711935545666131e-01,-9.695208475969628870e-01,-2.669512875998034107e-01
4.851732488595590365e-01,1.050629904970014739e+00,9.877212014277853003e-02
9.469459963523318979e-01,-1.114613458761046560e+00,5.656732428019247694e-01
-3.083313134927761490e-01,1.078832076477580948e+00,4.095712035119006972e-02
1.019962969534328190e+00,2.634146912436755583e-01,7.419978785722403103e-01
1.004287196585543329e+00,2.782287975448601292e-01,3.106823112448583446e-01
1.014930038727401396e+00,1.417822048448685035e-01,9.641878626331022994e-01
6.812538837388910640e-01,1.238317842706598837e+00,-5.537201857214554268e-01
-7.999514691699324276e-01,2.174245070902544597e-01,1.232900152805516347e+00
-7.593910273751426354e-01,9.515732284325861823e-01,-6.543670055496948468e-01
-1.013983031709593696e+00,-3.467711237725598084e-01,-2.459804507466243906e-01
-9.383274733912614352e-01,-9.923821058435088327e-01,-1.869127709934036430e-01
-2.279763419816213665e-01,1.304396365533679214e+00,-4.766644836697115917e-01
5.927943356742722790e-03,-1.092605816588060108e+00,-3.961438630809911016e-02
-1.075437522853263939e-01,-1.189790522491452895e+00,2.015835904545392743e-01
1.029457964658673896e+00,3.817779662665853335e-01,1.158448985638243611e+00
-1.828493225237891040e-01,-5.385925060901457506e-01,8.427923357838661422e-01
-6.581812020304237398e-01,-8.721038459764430817e-01,-4.622527922905601550e-01
6.742657265256619681e-01,7.734599412606347757e-01,-7.766665030593403740e-01
-9.884020814073226635e-01,7.716327520061800893e-01,1.673839074007624217e-01
1.495508278995878737e-01,-9.691422125854486369e-01,6.549324917060950213e-01
-9.675428556472503994e-01,2.766996344073522351e-01,1.069300486618725898e+00
1.007440636377195942e+00,8.600991939867986824e-01,2.333992396975091976e-01
1.026439286495292036e+00,3.057775845322952546e-01,7.989086987285443087e-01
9.901373433717543249e-02,2.711497153875547239e-02,1.099471544263238121e+00
-9.639835230641604635e-01,-1.268485994176695053e+00,5.393878319635350138e-01
-6.338115512851148770e-02,-1.123295000473223615e+00,5.251925248864020013e-02
9.212720079561322883e-01,2.606558261447947666e-01,1.206988968704681975e+00
1.923952819556440548e-03,-9.456969185554684465e-01,-2.941351664069972727e-01
-9.991840380306212799e-01,2.118835027995491782e-01,4.450440665148204245e-01
-1.016920034905628878e+00,-6.614728215280960555e-01,-7.427317343516425252e-01
-2.190781579299560244e-01,-1.305636235849824689e-02,1.098541395158774359e+00
-1.022592195801142800e+00,-4.014050600595314017e-02,-8.100718078911094411e-01
-4.467542032846257283e-01,9.537759825550928827e-01,-6.442285111976266965e-01
1.022113804738975951e+00,1.266872553076604790e-01,9.764365312442269129e-01
-5.009855799055842329e-01,4.107985346717956676e-01,-9.058139214958785823e-01
8.895472170281617519e-01,6.236636518569883547e-01,-8.304464981253321110e-01
1.004608325037376293e+00,7.683830523737902873e-02,6.066243325793746477e-02
-9.976338625592733322e-01,-5.433550018437385276e-01,1.625121325914437032e-01
1.053488426579925752e-01,-1.002312285233385447e+00,-2.384877024121107580e-01
3.837774357379997725e-01,-1.476737825387250957e-01,-1.177812628360893843e+00
-5.350337568636740482e-01,8.850215825675898929e-01,4.512033652060533084e-01
-1.003476834071521884e+00,9.745010268086961025e-01,1.995872016033935770e-01
-3.436725124416677435e-01,6.321651367604129712e-01,-7.987877857530987225e-01
1.030197617995399773e+00,3.637308154097915747e-01,8.623103177716502366e-01
-2.529727109155168185e-01,5.058460756896352439e-01,1.303311121898253377e+00
-4.116666994830417980e-01,-9.556381094794400566e-01,-2.959068682356012503e-01
-9.940897922760547623e-01,6.143841892914225777e-01,3.463572597710979917e-01
1.014321537229818437e+00,6.880093444121686552e-01,-3.333958432665594662e-01
-8.035628177557873064e-01,6.929161589443048053e-01,9.028504261909005013e-01
-2.142199220378914748e-01,1.034068943001542840e+00,1.402957861604895162e-01
5.470245346538182840e-01,6.370974773098335708e-01,9.520499825570262198e-01
-9.885247140925808029e-01,-6.620256107858846217e-01,-9.178800484722875463e-01
9.704967241186112092e-01,-3.887603225923621508e-01,-5.982219762551117537e-01
6.919756315366750732e-01,-6.107991169278756960e-01,-1.087380079524946641e+00
-4.277103734280840452e-01,9.717290206597910540e-01,3.125521180886641770e-01
2.520477329493741037e-01,-1.330795253991436500e+00,4.869399121914456119e-01
-1.797677789487495958e-01,-4.924645784195266773e-01,-1.281772492229132254e+00
-2.255723067350982880e-01,9.268811561203885718e-01,4.001967623883568859e-01
-1.023263558739899048e+00,1.374096671950429116e-01,-9.370054235269141829e-01
-9.722639378504743801e-01,2.586141711566360413e-01,1.097123138879940507e+00
9.696213078534399177e-01,-2.991084739563846795e-01,-1.192102801240801035e+00
4.980452179903717136e-01,9.110094962478036684e-02,-1.070601611157190325e+00
-6.285883670238120446e-01,-2.269039893757436033e-01,-1.178951724242894850e+00
-8.802439042526447599e-01,-1.133464379549860679e+00,1.058501879589137107e-01
1.318206771319905823e-01,1.114877385285182321e+00,-1.268589940878855210e-02
-1.017380439176045481e-01,1.582893163564761951e-01,-1.038245607370018142e+00
3.740699389601160330e-01,-6.970674791692405003e-01,-8.706497832215307486e-01
-4.092643666902093247e-01,-7.249732018742089945e-01,-8.038675112018737190e-01
1.040274389193112103e+00,6.865293275099200176e-01,5.059217892187937160e-01
-4.956579370082964120e-01,1.078046475270884486e+00,7.805441891447134628e-02
9.845922620430486161e-01,-4.195568327751672544e-01,-2.751925403489109967e-01
-1.007937112532839352e+00,1.035162316450193520e+00,-4.145776450696584958e-01
7.465737708212161206e-01,1.730042063728725876e-01,1.160016273163242184e+00
7.459887631089320292e-01,-1.292516586210856300e+00,3.805243475433847666e-01
-1.016212073196364418e+00,-4.486329436208705279e-01,2.323769705843791722e-01
1.029515910844225335e+00,3.107092121255293216e-01,1.206098834614992121e+00
-9.857991898483765558e-01,7.550264863182984953e-01,-6.563048207939590206e-01
6.167129424522623804e-01,8.443642850154675639e-01,-7.088437459344659741e-01
-9.615643133432304479e-01,5.918023556064206936e-01,-8.077433435057460587e-01
-1.020967101684060685e+00,8.917112931846934432e-01,-3.319487794012460080e-01
-1.697368773190057467e-01,5.387176261958726009e-01,-8.487136094759814009e-01
4.223582128003669500e-02,-1.026554847170209506e+00,-9.945064924256971639e-02
1.005416603928668495e+00,-4.872597359129164363e-01,2.870584340430452630e-01
-9.858266165701770056e-01,3.460230816122109587e-01,5.169261539332696831e-01
-3.863335931436410742e-01,-8.066013766489037451e-01,-6.255497167694361593e-01
9.987328546909263194e-01,8.036533539742719556e-01,-4.680771833125163539e-01
-2.448640046063973175e-01,5.814657182681707281e-01,1.150432733540408536e+00
3.486057065807298128e-01,-3.062292919792580781e-01,-1.243542626716173105e+00
-9.027594503933591419e-01,-7.720889904290391126e-01,-6.938315031598584204e-01
7.360824343043501639e-01,-7.426431505180105530e-01,-8.244624399776795398e-01
5.961635140768538621e-01,-2.824226078437511722e-01,9.691151593569196088e-01
6.817316802136272891e-01,-5.874438654113527392e-01,-1.141483392434150534e+00
1.946304174815665367e-01,-5.599094811654025117e-01,-1.128692571847181858e+00
3.887228583101323687e-02,3.637301117333880396e-01,-9.480582190464471593e-01
-1.013073074203342916e+00,8.981981455243810419e-01,-5.012083548020249690e-01
9.795431049416151170e-01,5.248745959990799292e-01,-7.716983145157203516e-01
-1.024451702909395356e+00,-2.706443875351405848e-01,-4.685625465004911727e-01
-4.807247049469192124e-01,-4.785214777600565461e-01,-1.308918303575745679e+00
2.875966330071548782e-01,-6.113683224932776605e-01,8.007894188494830701e-01
9.033662352143585483e-01,-6.996676833386811234e-01,-9.087439898900001589e-01
9.947287907079588321e-01,-2.731271709965630776e-02,-5.713720737425956875e-01
-2.533415056951929256e-02,9.995472640587392821e-01,-6.442924655302334491e-01
-4.670248618419760578e-01,-6.032350219672700797e-01,-1.021499749142858127e+00
6.052739678976892801e-01,-9.908300395881043665e-02,-1.168855269295488108e+00
-1.004602740154624474e+00,-5.184194764862452010e-01,-2.946835192280063409e-01
9.963231764400791723e-01,1.187497978169423041e+00,-4.374155353292715764e-01
1.678672809540258382e-01,-1.105941669656101967e+00,1.253204087256334920e-03
-9.962357573093840735e-01,2.655762397384108797e-01,1.117492245463128864e+00
-9.988535416005477341e-01,7.490228076004383784e-01,-5.376746168052509711e-01
6.406293136043056391e-01,9.930826163204380386e-01,2.036571224587649387e-01
1.001661804418192414e+00,-6.046659080248600882e-01,4.441671557728651965e-01
-9.638412388643153861e-01,8.324027463457245313e-02,8.019103333245127807e-01
-2.462659866564726185e-01,-4.610075275658936378e-01,-1.309868634607161741e+00
7.834799087709788390e-01,-9.715057377324894938e-01,-2.987582771871467036e-01
-1.040298016055458241e+00,-2.662157633639875565e-01,-8.723271759399657821e-01
-7.366395459396043455e-01,-1.261854039071135691e+00,3.972815343901117680e-01
-1.019479358826439697e+00,7.868190841251293532e-01,-1.367830657086344659e-01
-1.003108845636568880e+00,-5.217231023905550824e-01,1.568598888232181354e-01
4.936002037526842079e-01,1.135929494931118944e+00,-6.665045364257497773e-02
1.373695803346604016e-01,-5.899506495691773100e-01,-1.142914873528319442e+00
4.855294517465421622e-01,-1.103695734173833820e+00,-4.463977575847325602e-02
9.614813079889204805e-02,3.081277349202384830e-01,1.251761252614439490e+00
9.945187495458186477e-01,7.428458455461349752e-01,-4.341418913951151648e-01
-1.003251752166882893e+00,5.016736324635446831e-01,-1.593239713229376020e-01
6.321815624595403804e-01,-1.297843705948829029e+00,4.813302087747768354e-01
-2.821911138324705304e-01,-4.511959418279427592e-01,-1.313722558583250155e+00
5.335560182107946803e-01,5.402450478741238626e-01,-8.623841075813399870e-01
-5.791484830898948610e-01,3.307866257492831918e-01,-9.102198201771724007e-01
9.865833439705238295e-01,-7.568228883806654705e-01,-5.938514477296397143e-01
-9.735678471403741430e-01,-2.397063826332287984e-01,6.582714863831441443e-01
-8.767362690494212574e-01,-1.134079380403268278e+00,9.470652953604102864e-02
1.303237639922903424e-01,7.346684632432637363e-01,7.930550030582327325e-01
-5.049631227781856690e-01,-3.738098984152622428e-01,-1.260609204810061668e+00
9.621100336388803687e-01,-5.717385945699737793e-01,-7.830293183207313046e-01
-3.390196619360203445e-01,9.530153474470243191e-01,-6.534213458901597660e-01
1.147344096373974498e-01,2.073331285255434753e-01,1.201661220764967064e+00
1.026336005320713785e+00,6.154884878578629204e-01,6.664012928174557482e-01
1.896623796378777219e-02,-3.077017608799714754e-01,-1.254449780336963638e+00
-4.381394221450133908e-01,9.276141454428278310e-01,4.237777857691658046e-01
1.577428604704045334e-01,8.366968877364021617e-01,5.429349344344180928e-01
-4.811955091214636937e-01,-3.015515905728392565e-01,-1.236596354403575404e+00
-4.966639401102529439e-01,-2.534124502929864242e-01,-1.221805447153290203e+00
-4.929967539067708349e-01,8.326831970629933188e-01,-7.069481492540903300e-01
-8.323067110395108159e-01,1.299687715166606194e+00,-3.803166385003513561e-01
-4.655913802196857687e-01,-1.206620965277649615e+00,2.540070504774418758e-01
-9.960328842164128949e-01,-5.590888571005174779e-01,4.725122575190620622e-01
-1.008143821550318231e+00,3.961394420075388112e-01,-4.089155352239821628e-01
1.013927970708529580e+00,-2.869726441281666984e-01,3.318049497392444036e-01
-1.015855221726114754e+00,4.967563839313040575e-01,-8.501316856577758596e-01
-1.692463487031074243e-01,6.087184018171037936e-01,1.069791300675899448e+00
-9.997419896902360881e-01,-4.064781199864826444e-01,-4.126567501653950476e-01
8.252808892058364210e-01,-4.311289507167685719e-02,1.064758943664347868e+00
7.912212934436581024e-01,-1.868320886773872924e-01,1.005695942895418415e+00
3.413297915011924144e-01,1.295267084780599154e+00,-4.298432293065077014e-01
9.242858315653840195e-01,9.331712470261397385e-01,3.222374454097563512e-01
-8.169226929795885273e-01,-1.034271714492341232e+00,-1.461647719705928272e-01
-4.065699295685504810e-01,-1.073650185118559530e-01,-1.140512726212298489e+00
9.201431307700169704e-01,8.750056526724834249e-01,4.323020854132705315e-01
-2.307923434156593234e-01,-3.781698148013109551e-01,-1.269127385897289351e+00
-5.113854120813957627e-01,3.333348049201597663e-01,-9.606596815962868963e-01
8.407112207914512192e-01,9.627685132835608339e-01,-6.649840380605477330e-01
-6.512260174814195057e-01,-1.170076010306526637e+00,5.826165477083020683e-01
-1.026967062549111853e+00,-4.911071567552312001e-01,-1.040912980135690002e+00
1.055968137653509331e-01,3.626989438780832409e-02,-1.100889049036374079e+00
-1.017024501393531510e+00,-2.514791869064727514e-01,-8.825352022106416339e-01
-2.976001842635625505e-01,-1.136544939939953869e+00,5.658478105044687512e-01
3.080407540836891944e-01,1.084586014009066401e+00,1.766392983058061306e-02
-4.255897146299835176e-01,1.032467347511621947e+00,-6.131316149801520066e-01
4.879836171698097580e-01,-8.824659888172681210e-01,6.942562158508811532e-01
7.326893503224797266e-01,-1.251306792542831392e+00,2.778253127022893842e-01
9.924054883318841336e-01,5.468213830150453481e-01,-1.861839435597626713e-01
9.896382144567211769e-01,-8.460884400093972024e-01,-4.541562661067632400e-01
1.001942088971719824e-01,-5.842126994978620314e-01,8.256678067217747552e-01
-5.702151692232643176e-01,-1.297576051925848795e+00,4.188124575240163017e-01
1.026349481763957128e+00,5.900762543361616208e-01,5.453783663786835323e-01
8.841795612347812527e-01,1.475441691171436587e-01,1.137618820618835347e+00
9.872409189877501268e-01,7.325716864708279319e-01,-5.991694262325510806e-02
-1.010770057253606025e+00,9.371480211705444097e-01,-5.609151042153889266e-01
-9.781915041416961998e-01,2.135563039472884728e-01,8.830127097390417790e-01
6.226968105693510003e-01,-4.116156095592150566e-01,8.857033679458532482e-01
9.953507400948813366e-01,-6.531737325598815924e-02,3.836253342389919774e-01
-1.012849802845316338e+00,1.195823281036557439e+00,-4.138963336932248716e-01
9.938145452321042184e-01,-4.213129331420266410e-02,1.101071913963067167e-01
1.957349550472968491e-01,1.009127663580270173e+00,1.522876150675029905e-01
-1.012727536525274141e+00,7.146985258690546905e-01,-2.050125351919161731e-01
-8.429772860223054831e-01,-1.123556217843581395e+00,1.026757386381449838e-01
4.953359823620321484e-02,8.556533982733340871e-01,5.533813479226628029e-01
5.460473049719598293e-02,1.178684872990325427e+00,-1.711704666186549817e-01
-9.762515793641135531e-01,-2.347118670075861169e-01,8.494710929499235119e-01
7.036298495175004053e-01,6.257725831511092851e-01,1.007587995721688223e+00
-9.561017067110200163e-02,1.099152703228389871e+00,4.328808125652358618e-02
4.605728294882796559e-01,-1.487650453184804211e-01,-1.185100876213948995e+00
-1.006044136718654558e+00,4.073790914535276309e-01,1.874154968513633279e-01
9.653419416272365217e-01,-9.466603305441946281e-01,6.404814562766967256e-01
6.390158116268649380e-01,-1.356353569717649865e-01,-1.182677037754976013e+00
8.380794582980523044e-01,1.006707717216199366e-01,-1.081760148426790025e+00
-2.239134415513266141e-01,-7.452157573108779687e-01,-7.263601146467030256e-01
5.863283196812781872e-01,1.238395017673213638e-01,1.143638988109774601e+00
-9.780268051591796130e-01,5.200236789883435490e-02,1.013470787277068741e+00
-1.135876331944143253e-01,7.546573521325495859e-01,7.844834184988571657e-01
1.893926549515838609e-01,-8.485171741824336644e-01,-5.449788360188164704e-01
8.051090465878009139e-01,9.917833957815651580e-01,2.109945108105371614e-01
-1.001979880441154158e+00,-9.371591866895356837e-01,-1.177475862974656645e-01
-3.167801982130066807e-01,-1.508799812263112161e-01,-1.175108405717659954e+00
9.648509881202829153e-01,-3.226182474840080805e-02,-9.265574486622322192e-01
-8.565828689063333945e-01,-1.015858976583401629e+00,-1.614882930318523591e-01
8.973650545353200059e-01,-1.068011013438612489e+00,-1.394826899543119281e-01
9.164816114974702055e-01,-3.678209208564031663e-01,-1.308428417147996514e+00
-1.006609044721572088e+00,-4.954306544408804691e-01,-2.374698144010003661e-02
-4.034525707097437186e-01,2.862253345528812387e-01,1.231196247365436536e+00
2.156621753459142532e-01,1.260464918954888214e+00,-5.218773652552786135e-01
1.010651118373067758e+00,-5.197544981913250484e-02,7.485270635479354673e-02
5.173187646620245328e-01,-6.619078046442003482e-02,1.059214990214806695e+00
-9.397186265149509721e-01,7.204688582922245121e-01,8.677711185001278915e-01
-5.757690558217543053e-01,1.044763546795297815e+00,1.241186943083324445e-01
-1.474697705702781025e-01,-9.778355713607018718e-01,-2.581532939471392618e-01
-5.907048341997672702e-01,-1.172006419158803769e+00,1.659857226708533195e-01
1.024431404681116042e+00,3.478000921744197477e-02,5.519935522374218584e-01
5.146424656431460853e-01,5.532819314574842773e-01,1.158762353696134895e+00
-1.406418601505000920e-01,-8.000048111279129195e-03,-1.104947420191144003e+00
-7.553899352113867538e-01,-5.753662682279594431e-01,8.475851438199215604e-01
9.958563653463364806e-01,-8.105232760616790100e-02,-2.765453135839605059e-01
-5.371313387028202602e-01,6.211706075336034250e-01,-8.127139535069497489e-01
-2.985976121307992170e-01,-8.135312131857616036e-01,-6.073474235429308088e-01
-9.757493851664861273e-01,1.086378388495095493e+00,3.671238524042299417e-02
5.613976798543168778e-01,-1.272424071989795236e+00,3.611060555266080718e-01
-9.921110683155371923e-01,-4.805476531422958608e-01,6.331455146887707830e-01
-9.918452252477254483e-01,6.617056099010230064e-01,4.492752970617557712e-02
2.476334022880805619e-01,4.947541338563243296e-01,1.315743029183312762e+00
6.918727258602019869e-01,-1.084477102974534368e+00,5.885236148914618770e-01
-5.585593560529021895e-01,-8.182455653831198772e-01,-5.669124814974317861e-01
7.329839071740580358e-01,-1.636582349168935469e-01,9.936165313280842515e-01
-5.853944113614961697e-01,1.239341136835896195e+00,-2.538246050367873319e-01
-7.441212538527133269e-01,-7.786347176359569300e-01,-6.442219167050957651e-01
6.164841977047739174e-01,3.574763028594224457e-02,-1.128587545640319378e+00
7.332869875430827467e-01,6.859256891028330250e-01,-7.959728636874972008e-01
-9.744755483466925883e-01,2.413419644393985375e-01,8.837169125914408063e-01
3.732669987903907138e-01,8.709215259498391815e-01,-7.155677213581445040e-01
3.010109443194196044e-01,-4.639723546803250498e-01,-1.317309170005347863e+00
-8.297458935237651545e-01,-1.271885598984677568e+00,4.129268107964028101e-01
-1.009853709313173642e+00,-6.528791736656096301e-02,-4.713723215504131425e-01
5.576966575323369923e-01,1.014573841110416597e+00,1.318487969802697446e-01
7.081350081382354889e-01,-3.461615696984331469e-01,-1.273419165525182306e+00
9.888603754020324210e-01,9.815631399345527974e-01,-5.405135760216006613e-01
1.001933836231103436e+00,-9.570581829596552792e-01,1.730707613323063943e-01
9.949682773725651019e-01,-1.130424229710928208e-01,-4.205303894315942648e-01
1.004710295044509261e+00,7.373031126476827790e-01,-8.316142901969246493e-02
-6.439374650639539954e-01,9.536210892439158648e-01,3.630104789778289542e-01
2.307316749720023097e-01,1.189065060778381255e+00,-1.964216276771773850e-01
1.001154838417010584e+00,-1.155746814557243179e-01,2.647239878655680556e-01
-6.492316977373028264e-01,9.889510568808336233e-01,2.317540131903282341e-01
-4.899919134987314462e-01,-9.638962891511165809e-01,-2.808631104153922475e-01
6.875010427211937225e-01,1.220633791317098593e+00,-2.898709890792509625e-01
7.835391452581819127e-02,7.687805823258755389e-01,7.129620454836941290e-01
1.012438110034699967e+00,3.404918755091548288e-01,1.124952106182367517e-01
-9.824903339403148195e-01,6.429755191891929345e-01,2.391223751455486268e-01
-1.001099908382206971e+00,-2.344555893340124486e-01,-1.485740203401375754e-02
6.797392231718591971e-01,1.113745741182066817e+00,-5.848660842745255772e-01
-3.232454842819441621e-01,7.296060524900122024e-01,8.008206208476406074e-01
-3.192159546141026261e-01,-8.942386252251826040e-01,6.813218936627493116e-01
-9.944508576960219282e-01,3.939312110951972423e-01,9.251712740892107378e-01
-5.927033226888089867e-01,5.376900058780097469e-01,1.206273276249173687e+00
1.017061241261996374e+00,-5.539249638676482235e-01,4.520228040866337005e-01
-1.578565578727315066e-01,-1.958616683758066489e-03,-1.126721435027307594e+00
-4.957460821552762686e-01,-1.251642466219194505e+00,5.316690470584576333e-01
3.615282945693024108e-01,-8.345212368306748063e-01,-5.774317162286599636e-01
4.544398753392779600e-02,9.013253121707253124e-01,-6.967792180682792491e-01
1.118279702299524170e-01,3.280923438425871197e-01,-9.521634662646120129e-01
-7.822797082312583639e-01,-7.584422767650391695e-01,7.586079723120331408e-01
2.570163266633084809e-01,-7.649899330256405561e-01,7.365814540730234450e-01
8.191161923747418694e-01,9.974267620726857964e-02,-1.086358726474884406e+00
6.706707924925788822e-01,-9.392783837171511108e-01,-3.531796363808269446e-01
-7.974609522906261905e-01,1.273396650823556131e+00,-4.841471525576162560e-01
2.031105377274816104e-01,-1.216402825568661417e+00,2.969271756363409120e-01
8.703731104296836829e-01,2.023116728678310272e-01,-1.007259846987951235e+00
-1.040221021964823134e+00,-4.000398515867699678e-01,-1.146551516772604806e+00
9.866687804159818276e-02,-6.396207534271591832e-01,-1.002342593989098640e+00
4.177068775256678190e-01,-8.973895219649220545e-01,-4.589179732617729157e-01
-6.509726440057707064e-01,2.811190186277381375e-01,1.260281565778192059e+00
1.602712886643187506e-01,-7.730343253274846171e-01,-7.291475242505266463e-01
-1.013129594131914946e+00,7.456147094960580146e-02,-3.864166562718167608e-01
-4.991339193010511099e-01,-3.364053131902681182e-01,9.616678079207847674e-01
-1.021327320144271633e+00,-1.771223070223297835e-01,-8.713911625924729565e-01
4.654420898015442232e-01,-1.127190771211823206e+00,3.769916406529650980e-03
2.945266251563629090e-01,-9.811453612349009257e-01,-2.404803502877304322e-01
2.472535704639027276e-01,-8.080611967582056465e-01,-6.086104396913627479e-01
-4.926411139191018140e-01,1.222719964762693179e+00,-5.040614957673726915e-01
3.045096904899236567e-01,5.605023417368136807e-01,1.193137755813760359e+00
3.807765934190142088e-01,-9.193345682037468505e-03,-1.127198665938885513e+00
-9.713245177162569410e-01,-7.422537139781359983e-01,-7.050780243686540771e-01
-1.023288019894498246e+00,-8.162791361826780001e-01,6.463478797942261156e-02
-5.744534173107077590e-01,-1.115485103376125497e+00,6.014326293788039290e-01
9.302768691733883655e-01,3.116215352783055503e-01,-9.634097728535739869e-01
8.997634905887113010e-01,1.775924823755710980e-01,-1.035157349810102767e+00
9.449680592789923006e-01,-8.894491598304644642e-01,-4.905787444576110157e-01
9.239337205463560299e-01,-5.002779256590852430e-01,8.470926434048438036e-01
5.607599955438528072e-01,1.059128444992240015e+00,5.639158089312756167e-02
-8.108493719103235797e-01,1.078341963918053148e+00,1.019197471716335596e-01
-7.600383716454998106e-01,3.038017009248553668e-01,-9.527041553410769970e-01
-9.942053207434323747e-01,-2.718913984271589812e-01,4.831272105111572013e-01
-9.854851310939075626e-01,-2.467049736946051175e-01,8.733124222201363862e-01
-2.540576709995759908e-01,-6.782257992799417545e-01,-9.721535301449270028e-01
-8.358631269660280472e-01,3.970569969734823457e-01,-9.029989053261763265e-01
8.009051967521497728e-01,6.876093679711557938e-01,8.662553430685124845e-01
1.012551197905528388e+00,2.143779740862916672e-01,6.728614677578657055e-01
-1.013510247194842950e+00,1.305848874395485248e+00,-4.319341879149299901e-01
-9.704519287157802321e-01,8.700137709551991616e-02,1.075025790644043466e+00
1.033368373623563707e+00,-9.273130446571805630e-01,1.800673059838828194e-01
-4.291711593820724535e-01,-1.139713888626799898e+00,9.101339526250476486e-02
7.282448716806708688e-01,1.099892708988002843e+00,-1.465153739906431551e-02
1.002686611284423046e+00,6.229000564282488606e-01,-3.599365258346881036e-01
9.104829492557977577e-01,-5.012648951186515767e-01,8.414094936122568091e-01
1.020988854850712890e+00,-4.113622134639463579e-01,8.274711975149905419e-01
-9.103056392550782361e-01,6.098066173542564528e-01,-7.941308706225244096e-01
-8.582199927682520046e-01,1.232232417327716822e+00,-2.492986216619930695e-01
-9.957037314647950721e-01,6.558051991736463249e-01,-4.613057441416508198e-01
-3.742805791201973820e-02,1.040915750947561724e+00,-6.243561293003078161e-01
9.908328456696965381e-01,-4.158562336777246182e-01,-6.861782218920681187e-01
-1.010701262625078867e+00,7.753902009408718543e-01,-1.552505242410067710e-01
-1.960472007224018515e-02,9.663861509596265442e-01,2.929967893114014399e-01
9.883878046303515852e-01,1.641349126175170869e-01,-5.040477760944472863e-01
5.154501902854904394e-01,-6.950696082969832768e-01,-8.937552132115709203e-01
-4.614907168972245399e-01,8.255886022454866913e-01,6.055222630312876442e-01
6.669063209293109029e-01,-1.310021800086401234e+00,3.933441917704612045e-01
1.007214402555973498e+00,-1.133958919953380606e+00,4.290806509748861797e-01
7.985359250229331352e-01,1.634863934642227512e-01,1.140342553130283099e+00
-8.628486449644149348e-01,1.098076191058671824e+00,7.086330381067960926e-02
9.871504507611469359e-01,-3.176276767576516891e-01,-8.019282602237796098e-01
-7.162069077969852593e-01,-6.005803971678365105e-01,8.355727101628752651e-01
-4.931865165695415443e-01,-1.273496805516419084e+00,3.824294001596566517e-01
-9.995493617092593430e-01,1.153983835768573885e+00,-2.677295775805974554e-01
-9.636736694107805867e-01,8.067747905026714794e-02,8.213928533720925573e-01
9.787616573219398708e-01,-1.751422198657087148e-01,-1.040443926551164688e+00
-7.702560020176554278e-01,4.020765414174353181e-01,-9.014775839007365121e-01
9.858229862449153780e-01,-4.856732780600889199e-01,-7.062703536877538157e-01
-9.994000371853521969e-01,9.570977030152438836e-02,-2.337064866746997593e-01
-2.091008460948858005e-01,-9.547080158301575192e-01,-2.918130682180827273e-01
9.753690676944938298e-01,1.064151789522195024e+00,5.055356456298613216e-02
1.587870079496611631e-01,2.042532532935312228e-01,1.201035653755022636e+00
6.184327084358913762e-01,8.276294422636363279e-01,-7.111813153174548763e-01
-9.821434294773881968e-01,-8.951291531421697867e-01,3.653720757574495659e-01
1.006453493172253522e+00,5.571701395817003910e-02,4.496301058025978792e-01
9.997122258769522984e-01,-1.170944063462356688e+00,5.223082283462453512e-01
9.636864916603584685e-01,2.535771874165938522e-01,-9.531375317823475024e-01
-1.093786229288166711e-01,7.675908284908796730e-01,7.095304884517018573e-01
1.012316894186203520e+00,-3.037097907512623651e-01,1.244564739171954842e-01
-5.434274064072315280e-01,3.498409983093919151e-01,1.269972662171205746e+00
1.040248041019570024e+00,6.917665243440870304e-01,4.005623244767597124e-01
-6.664007169852180779e-01,6.333009327007086409e-01,1.010338703915115932e+00
-9.655782944304009963e-01,-6.665303360093139950e-01,7.295343138594291288e-01
