-8.371492497778977304e-01,-6.702369030333737987e-02,9.623280580487969527e-01
-5.433666816728002225e-01,-2.218065143543248019e-01,1.058771727736533164e+00
-1.604948848021165442e-01,1.059756512995424726e+00,4.645976213138980349e-01
-6.394410281134824681e-01,2.005350415838784775e-02,1.322976022021314035e+00
-3.541197723497272465e-01,9.866940622432828212e-01,1.660999652958652373e-01
3.839951923974034287e-01,1.285647063681748747e+00,7.207740449378483572e-01
8.507252995631521542e-02,1.202660026453809872e+00,7.008744208671889853e-01
3.376776967307173472e-01,-2.179975720886930535e-01,-1.349611839952583603e+00
-2.575439500588742603e-01,-1.278666768050368940e+00,2.088200819915275036e-02
-1.334085405480342768e-01,-1.336994772128559550e+00,9.581973567178504736e-02
-3.284901069545513863e-01,-8.064406875630353300e-01,5.928835144910056254e-01
-9.363071696396885191e-01,6.044749619347596914e-01,-1.870654587838782301e-01
-3.897165845303509624e-01,9.881289999889094622e-01,8.918478786990535756e-02
4.896759895467963641e-01,-1.164205218022658750e+00,7.149972771953646555e-01
2.196142268782053375e-01,1.346686336263085204e+00,5.941702927843498516e-01
-1.230299842290905499e+00,1.393540379027568554e-01,-4.684524192667468001e-01
6.459339392456060480e-01,-5.889610274725849415e-01,-6.204077996850099197e-01
8.609224895519904108e-02,8.985989151895416027e-01,-7.406363550023854492e-01
6.827865040058539448e-02,8.596187617018764549e-01,9.873122009322736758e-01
6.860231144412208826e-01,-5.644929940975363936e-01,-6.425506915576593148e-01
3.873467852276371581e-01,-7.082710541657369907e-01,-9.300042696654285956e-01
4.820455988860798957e-01,3.878122915931516146e-01,-9.346402004073955938e-01
-5.595470402956778111e-01,1.126573540826821818e+00,-7.793378467086655714e-01
-7.015568033311909701e-01,-1.029236376130650693e-01,1.086913322931947201e+00
1.044535170753290165e+00,5.707165731175678491e-01,-3.104782291708398784e-02
1.313350191815987555e+00,4.562406720431787521e-01,1.233879597376737608e-01
3.114061224036939746e-01,1.388835446247557170e+00,6.499815396241050980e-01
-3.696153734946054370e-01,-9.420313538767332018e-01,3.604066804358199150e-01
5.087473965294877498e-01,-5.110115229630707301e-01,-1.264526438228193550e+00
4.767744047655833040e-01,-9.484588957891313399e-01,1.092845802688164891e+00
5.998669959509933536e-01,7.854140720986947377e-01,-2.899068901638793827e-01
7.100020539619159576e-01,-9.406783535926523943e-01,5.718528276311468650e-01
6.074409203535878765e-01,9.620027321529472930e-01,-7.810505753346247415e-02
-1.060992113304156437e+00,2.946907800774205000e-01,3.913598988433711345e-01
9.255473498234052798e-02,-6.756748392941848147e-01,1.232606763488303780e+00
-4.074385497707057047e-01,-5.012510247884720549e-01,-8.456924070957133610e-01
-1.249442462199720355e-01,3.638647998145091988e-01,-1.197991826039364716e+00
4.300460535250184568e-01,-1.230504106973453915e+00,7.690868789906247782e-01
-1.806334507957440272e-01,1.120515596864262164e+00,1.897271310515358522e-01
-3.819849776582893708e-01,7.685903320143234740e-01,7.336732126917105967e-01
6.385800729430346490e-01,1.429036793749456080e-01,-1.100805683104924659e+00
3.326056389603364305e-02,-1.008024822548346355e+00,-9.344031665463092828e-01
-2.894141029819020661e-01,1.097393644360046938e+00,-3.442623124917737476e-02
5.465181789254485167e-01,1.106004034842035938e-01,-1.248130579647882987e+00
-5.422897722847246360e-01,-1.337200818207301412e+00,-6.110563177592942541e-01
-6.860540541079808152e-01,4.002044057781164454e-01,-8.513567516021247616e-01
9.897212018912088238e-01,2.494328050029917532e-01,-5.317369720041196235e-01
2.923037563149440965e-01,-1.953707490749629905e-01,1.049375271860814030e+00
-1.020645617231125124e+00,-6.364489857300005271e-01,-4.356451487564368397e-01
1.301678794648542414e+00,3.394100547312595140e-01,-1.876126703349743907e-02
2.108730824347541111e-01,-1.273383819228567804e+00,3.777842273848368571e-01
-1.084215672032568856e+00,2.607209240319273147e-01,5.490564906401872447e-01
-9.350665971460272452e-01,-4.676985077100564991e-01,2.996634550741888448e-01
-1.005636813949268404e+00,6.239662827336773798e-01,-4.079399476584265050e-01
-5.174006918035967129e-01,1.026673245125658385e+00,-3.331350289801826570e-01
-1.348194843757847261e+00,3.142654462169061635e-02,5.028953708375630827e-01
-5.540325497116116438e-01,-3.509159703060092950e-01,-7.947641985574993573e-01
9.990633263038440903e-01,-6.626069655167032835e-01,5.226908117560470357e-01
1.812066282405948026e-01,-1.110643302373734320e+00,-2.342555894930949678e-01
-1.052234784831939773e+00,-2.838709259337873422e-02,7.844267461919128825e-01
-5.213718180076368780e-01,-5.235058369088685382e-01,-7.689108533158424130e-01
-5.015602706575795766e-01,8.451928132876292965e-01,1.756406200609595680e-01
-9.061618886330015110e-01,-6.645640767647037483e-02,8.844734934698658124e-01
-1.105265261612625949e+00,-5.955684702603403213e-01,-5.373973209816246266e-02
4.661218620996496198e-01,-5.646053691176551315e-01,-1.204561984960658361e+00
4.914169250396601130e-01,3.945271268495093020e-01,-9.283020016703636967e-01
-1.007780066086675808e+00,6.052971028403594245e-01,-4.260210444327976465e-01
1.232715192275973370e+00,1.970815964854626210e-03,-5.965677858194181615e-01
5.700209123145601187e-02,-1.528118444357245975e-01,-1.194634975110870245e+00
-5.864439558991645374e-01,1.040924357137287704e+00,-5.565516594792407901e-01
-1.525481603101743300e+00,-1.644055643933771405e-01,-3.776620274779418900e-03
-7.313213751681059416e-02,1.332239077940763350e+00,-1.512604882752692503e-01
1.078535730888000810e+00,1.329086991601884093e-01,-5.814386092598078370e-01
-1.208821160027136576e+00,-2.398807122987927920e-01,3.136979804919705073e-01
-8.660539335427415442e-02,-1.287659175781145082e+00,2.466275123653052515e-01
-9.349791977889204686e-01,-7.494987627682349052e-01,-5.875721979305571080e-02
-3.139567736989660740e-01,-7.305615812722218716e-02,-9.657834382977983356e-01
2.832436825624029542e-01,-7.693717936841044658e-01,-1.051446916921823682e+00
7.583935395612144692e-01,-7.350641851432655749e-02,7.492574135590110984e-01
-8.213291744965815766e-03,-1.377375718812166250e+00,6.791546683526379635e-02
1.034050178350710114e+00,-6.484108911628291838e-02,-8.717565860955377444e-01
2.411302251319987766e-01,3.320405368527467593e-01,9.795831228766906928e-01
-7.874303595280059964e-01,5.203312138694600186e-01,-8.217722226409990283e-01
2.829422844490523947e-01,-9.732504213499553192e-01,-4.309488934072127075e-01
-3.044115759641454200e-01,6.941952181358492791e-01,1.144403105612370242e+00
9.445416068870235438e-02,-9.191630468001893428e-01,9.479357667973343782e-01
7.298651870354655458e-01,4.302019039896428643e-01,-5.910060514284642963e-01
-4.190809239788065299e-01,5.574470949569020756e-02,1.427816706594929874e+00
-9.498361283368269570e-01,6.559120903948852943e-01,-3.382191507799357510e-01
2.507576601749724951e-02,6.617790778056648060e-01,-1.124766917056649662e+00
-3.836817678644618423e-01,-4.347666530044430044e-01,1.023454837050788990e+00
1.578164817987156854e-01,7.735397743450478369e-01,-8.052305827885144485e-01
-5.596554988994004720e-01,-8.201421852275704305e-01,2.829784683996112715e-01
-4.714776484340080787e-01,-5.659474788153325830e-01,7.323092594618560991e-01
-7.685900787716588578e-01,2.653645589663027882e-01,1.292433924163143066e+00
7.324383359448485287e-01,-3.170830364458671058e-01,7.952651051967812856e-01
3.356976174449774475e-01,9.147115029135478581e-01,-4.313946943451316685e-01
2.029248699999449401e-01,1.079485690270068909e+00,-3.743154064691395777e-01
4.804995169967036378e-02,1.366352255200070420e+00,4.740514749214621258e-03
7.769279340621172425e-01,-4.595911334529923509e-01,-7.269054588988020926e-01
8.203839735595235272e-01,-5.520159906629302782e-01,8.106911700572632107e-01
-4.833837835614093748e-01,2.098395941059387759e-01,-9.427086232269259458e-01
5.380383927674707578e-02,-2.045321085655374960e-01,-1.184274545926220279e+00
1.268923451140610004e-01,2.639128238482429389e-01,1.053367915286115064e+00
-6.644444421481319196e-01,-1.026308871854648697e+00,-5.575202596970949553e-01
-1.569085717492618937e+00,-1.443886477438827143e-01,-1.845107602776350775e-01
1.139598815390464370e+00,5.860284055108845314e-01,3.619651024813159701e-01
3.786276096654427326e-01,-2.910429356699467673e-01,-1.361056130535992503e+00
4.086558792832619691e-01,-1.177544155475742427e+00,5.572836859637546603e-01
6.962590921016857948e-01,1.170967936221757766e+00,5.188879108754738123e-01
-3.034164252328152012e-01,8.344292760104906614e-01,8.133371770793649258e-01
-3.164390358190302122e-01,-3.240311799085631161e-01,1.238479371190149614e+00
-3.926873019415860200e-01,7.697917410795439563e-01,7.491978678761591626e-01
1.291361529991278623e+00,8.437581151612552621e-02,-3.735809827210200273e-01
-5.857259355685181523e-01,1.144952295214008708e-01,-8.497987401978905897e-01
-8.254150083721412123e-01,-3.127402216235753984e-01,-6.305599612465997428e-01
-5.335557125911479792e-01,-1.240786263557713820e+00,-6.184090693853554477e-01
-9.190842383808722760e-01,5.838560029799081397e-01,-7.550615359415523142e-02
-9.074727485226168067e-02,9.610737431864495584e-01,9.661414821394475050e-01
-1.864597235413519849e-01,-3.901670775940071501e-01,1.338333499608149291e+00
4.343953786272535256e-01,1.067329745117217232e+00,-7.432408774539513152e-02
1.228023270448821203e+00,-5.002903000451017906e-02,4.221392567819122199e-01
-9.269263588785578989e-01,-2.899068864398071099e-01,5.334738488198353945e-01
-4.918529656032726849e-01,1.209216087907250881e+00,-8.392278962959991429e-01
-1.335584172114199220e+00,4.708729905590783305e-02,-3.880102026121526326e-01
-9.747104957567565009e-01,3.982346286535750624e-01,3.454296303012975855e-01
1.122785994560213441e+00,-3.257726854737189731e-02,4.973047277252227172e-01
-4.351682666657495924e-01,-1.285863336832395731e+00,-1.885413336727200240e-01
-2.034634445259020027e-02,1.157705172147858619e+00,-5.488537103512215465e-01
3.664998481428813903e-01,-1.093530591643375294e+00,1.493220130123484035e-01
-1.959526368058982504e-01,1.316316333881710765e+00,-4.725878718854346072e-01
2.557066761594844473e-01,1.311505156771593184e+00,-3.114740438323380586e-02
4.746241054286473582e-02,-2.070040739239303873e-01,-1.165394841058345010e+00
-7.340264918787916537e-01,-1.076845069607371252e+00,-2.464307300799163936e-01
4.016013365080525754e-01,9.161090041061701328e-01,-3.246370002519175513e-01
-2.665750402902427596e-01,7.980763348611149555e-01,9.596616685486686338e-01
1.580456689295865802e+00,2.244993468020568261e-01,1.509772821676786947e-01
9.878259757343129666e-01,4.878871364491829676e-01,-2.704054069448562081e-01
3.983833657372556902e-01,6.700404655992103775e-01,8.166797795192209941e-01
-3.535718688466042980e-01,-1.084772304562477696e-01,-9.357266893633134908e-01
7.087563017006280885e-01,9.712747406734253408e-01,9.019980715113502800e-02
-5.839978938283117982e-01,9.533380428654945060e-01,-3.635403302838870476e-01
7.156497009020416078e-01,2.616467550288727462e-01,-8.345576193523498443e-01
-1.247889095279584026e+00,-3.442605879519112233e-01,6.865743594268550187e-02
-6.665860159372580807e-01,6.321075346871243283e-01,4.140302287692058658e-01
-5.731104411357463846e-01,4.716663351139847582e-01,1.142250083222022594e+00
-2.109355543801185451e-01,-6.105949100095049431e-01,1.011033981695823813e+00
-1.302829896234928952e+00,2.892463187946551217e-01,-1.543625618459524007e-01
-1.150624611880090159e-01,4.401329322029862712e-01,1.160805421105896906e+00
-2.549664251751994071e-01,-1.384215232317587141e+00,-1.176048911338301722e-01
4.729081490438650781e-01,1.692976390877624360e-01,-1.301539336228279886e+00
1.990895870088221775e-01,5.793998084408188420e-01,-1.052557056079745479e+00
-8.599938226587965362e-01,-7.136675111204374700e-01,6.931557631555154697e-02
7.216139934717100690e-01,-9.815190791549462945e-01,7.650654705531393374e-01
-3.563599827040186963e-01,-5.013887192698681661e-01,9.423219536392830609e-01
7.583526917162829450e-01,-3.428882807638896635e-01,-1.205969116848745415e+00
4.004781832562568922e-01,1.443664695510721296e+00,3.421643534555893762e-01
-2.009838469444854836e-01,1.014371903417928156e+00,-9.738375446717177919e-01
-1.343249765376328397e-01,-4.072739116915844448e-01,1.336068082946155533e+00
-1.212756586729740294e+00,2.258772053147579117e-01,3.697726124395946390e-01
-9.293332127470164128e-01,-4.143398636579478378e-01,3.908495311152727636e-01
1.061629055886312178e+00,-2.814580458902506965e-01,-5.920094535654923940e-01
6.624196380554417951e-01,-9.094608615688520858e-01,3.775151976516468721e-01
-3.206627427375300377e-01,1.104822364576875326e+00,-1.061076101080310197e-01
-9.569332564379041950e-02,1.081531749684506938e+00,5.405144931765165639e-01
8.024911583491517453e-01,-1.782209568753869711e-01,7.343354228774546799e-01
-3.407910597534660746e-01,-1.050279759934097612e+00,-7.762564551945229097e-01
1.025233741946752319e+00,2.034581975655166963e-01,-5.563650145610605779e-01
2.778642267921568876e-01,1.458558275322326292e+00,2.537205361665660908e-01
-1.165781570866274208e+00,-2.657222005030216994e-01,3.009961936402669735e-01
1.856083002517924449e-02,1.372276299031307101e+00,-1.860013290842773281e-01
-6.052184883044898767e-01,1.105716712485883990e+00,-8.726848076017021949e-01
-1.672420781939729373e-01,-7.820040281105196112e-01,7.961270803345426028e-01
4.753362780724962877e-01,8.431711398510977062e-01,-3.235789509887492810e-01
4.385543335911474411e-03,-9.202221545804829539e-01,-1.004994812542598481e+00
-6.186195037191195567e-01,5.655796272819569870e-01,7.516761421606052984e-01
-5.247491366720199446e-01,-5.388565494075263362e-02,1.359772466695373883e+00
-1.018493011039012242e+00,-8.807372118140163186e-01,-3.639870236525161729e-01
8.578854441854566470e-01,-8.165374591173991670e-01,8.074603178128479941e-01
1.002887752602441118e+00,6.871242351672964821e-01,6.348784170226118295e-02
-4.054137628301909824e-01,1.630599220559628970e-01,-9.763465461874417661e-01
7.767960024215617709e-01,-9.900001627876525712e-02,-1.238479111519382947e+00
-9.578764646277055927e-01,7.280365270803943467e-01,-7.323389602115307762e-01
4.228328797402171046e-01,-2.595926848579510615e-01,9.585019249561522736e-01
-5.591880578390685530e-01,-2.676871584968213980e-01,-7.982934335022860983e-01
-5.302624502319829292e-01,6.026331046245353429e-02,1.497370709388734511e+00
-3.067130070382457774e-01,7.804145517054241754e-01,-1.171912004106447469e+00
-3.427338529131419564e-01,6.595950996702418800e-01,1.214806693479072219e+00
-7.328070441944023461e-01,4.929400605659378098e-01,7.374244544567818416e-01
-7.705455079354810444e-01,-6.834452338590816245e-01,1.974297055729339057e-01
-4.414781967619295089e-01,9.940825348567521313e-01,-6.301970748434432279e-02
-8.368707523858847086e-01,-3.100547091854766180e-01,5.910651996671472119e-01
6.036929139041079528e-01,1.230011954670476415e+00,5.840898155300736638e-01
4.495474244623441917e-01,7.530914351529406359e-01,7.667610591018266808e-01
8.687467812197724459e-01,3.612810704316377075e-01,-5.476406212912959814e-01
1.016858520860090209e+00,2.505934310914574303e-01,-5.066431366248582702e-01
-1.041103586254854690e-01,2.579067916780759528e-01,-1.164874560904990641e+00
-1.202608762114462104e+00,-4.317950162750842091e-01,4.173724203297102947e-02
-8.574465856962485422e-01,3.287233356418159391e-01,9.363830603880035630e-01
3.137060916637816610e-01,-7.156827107707293134e-01,-1.146652355024244452e+00
-2.424538529193983050e-01,-1.399550629822837955e+00,-4.407229097228919645e-01
6.064892185759522825e-01,-8.877309987485797471e-01,1.614984647386530081e-01
3.112142989964363782e-01,9.078695403640493211e-01,-4.448470106804528479e-01
-1.009208955441320166e+00,2.236331602809467078e-01,8.526641109561380327e-01
3.160945016330573565e-01,2.226893380263728767e-02,9.958433292171549045e-01
3.860344622707505002e-01,-1.109582259646078040e+00,1.953210415722452797e-01
2.234730687418500228e-01,3.799527788337219159e-01,9.791815336606489728e-01
-7.106040074654111915e-01,1.102790698998160207e-01,1.367610379625170403e+00
9.188433389834153031e-01,-1.950762872812074888e-01,-1.135897183647656572e+00
-4.192034946205900892e-01,-1.066570787001769549e+00,-7.331372693723987588e-01
-4.489985289843037020e-01,-2.144008407214886003e-01,1.274626145696580171e+00
6.557204848775693984e-01,1.125533459454056917e+00,2.155328729149355860e-01
1.446517092355118217e-01,-4.528540712248156352e-01,1.197084524871330657e+00
-5.615685835000966408e-01,-1.312894792704440150e-01,-8.196461339697050930e-01
5.567971927763239876e-02,-3.044720306032023260e-01,1.204012579494195156e+00
-8.794351101240055479e-01,6.814287021422160695e-01,-2.025153320736939599e-01
-2.851081520542050329e-01,2.679195793001942771e-01,-1.063743424885891020e+00
9.796417203530934925e-01,-3.000689061968566107e-01,-6.773235781104349762e-01
-1.337653551866252899e+00,-1.639415407565877336e-01,2.166047819213804959e-01
8.908970184959099647e-01,6.589308913239702026e-01,5.327321515952407882e-01
-2.053368336142965545e-01,1.006195813487927193e+00,-9.375510085047922271e-01
9.092805048798365819e-01,3.701149655546615569e-01,-5.226382327212230061e-01
-1.026974511042814786e+00,1.749750371432654550e-01,9.607073407675554844e-01
8.914564722206791414e-01,-1.629298550627824582e-01,-1.185883707796394848e+00
-5.155740175128700059e-02,7.931688530071359100e-01,-1.115431234964099350e+00
-1.414663979123089499e+00,3.416731262597941243e-02,-3.066993480876468725e-01
-2.283535677799343466e-01,1.051324397154318691e+00,3.406197486242832917e-01
8.561043527160868694e-01,-1.970798187694363102e-01,-1.288480069396650718e+00
1.332380446777033933e+00,2.384519517540247824e-01,-2.000744781106336412e-01
-9.466138950919759099e-01,1.020061534174334789e-01,1.084995987205218393e+00
8.977840625543938302e-02,-1.274850844641915559e+00,6.115736197087515841e-02
8.524308909568888426e-01,3.655435619286966920e-01,-5.750044629854859091e-01
4.431892771323718283e-01,3.626013368041420826e-01,-1.039301565609088485e+00
-1.214322366692113686e+00,4.735582661701757679e-01,-5.099152316552483244e-01
-9.695882666577796405e-01,5.392227506256670466e-01,-6.702874335223540925e-02
5.518337917464221504e-02,6.507285084888035920e-01,-1.130389577986273153e+00
4.417624356341902647e-01,-7.238649335842708421e-01,-7.440432632407174562e-01
3.965688062183403972e-01,1.330186954176593384e+00,1.887236120088307267e-01
-4.344586517582176843e-01,-1.399052461091146338e+00,-3.248391406591784603e-01
-6.399711182609871818e-01,-5.810279009982528553e-01,5.258448024824884381e-01
-1.468039221356352675e+00,1.116496761541942336e-02,3.059623197168277464e-01
3.106818916973961512e-03,-1.402285315329112825e+00,2.027472578131741809e-01
-8.264901126175818735e-01,-8.417649534433598868e-01,-5.815564102093328386e-02
-1.658591689249698575e+00,-6.855918177582194517e-02,-1.628713948224434771e-01
1.462031660852097348e+00,-2.147567997166000831e-01,3.328324235170161405e-01
-7.951379737289561156e-01,1.015348724044236595e-01,1.250806867485297680e+00
-3.704732654996206742e-01,6.511143091576711006e-01,1.214060164405802444e+00
5.345682363673344151e-01,-7.749466961530077080e-01,1.035113047182896873e+00
1.226376998657021211e+00,-1.783692167140598916e-01,-4.253531898480333306e-01
4.721090051789442188e-01,7.321645484194154729e-01,-5.500989194296417306e-01
1.915724201812681327e-01,8.510876155465035842e-01,-7.086046444248045306e-01
4.209722390054866925e-01,8.003116348047887296e-01,-4.947848520758914015e-01
-9.504198180721979208e-03,-4.392154371220620135e-01,-1.084661864642300522e+00
8.030598384095318787e-01,2.037242201828673993e-01,6.526505971412417395e-01
2.284822635405219793e-01,2.770398608808758989e-01,-1.378489354217975027e+00
9.583963825691776961e-02,-9.032323559128605517e-01,9.469979339980847399e-01
-6.530816622860983189e-01,-9.867112351745829235e-01,-5.425560312078284153e-02
-3.590960695503498390e-01,-9.364496259787248311e-01,-7.934115813662203642e-01
1.023444596308996646e-01,-1.185170308922270710e+00,-1.628916286602124786e-01
2.647718403834514178e-01,3.368669839312456865e-02,-1.366543232088740734e+00
-1.298719136130707330e+00,1.871886594379884583e-01,-4.161231604484062485e-01
-7.052795711507948706e-01,-5.822870216529627552e-01,-6.512767402075047007e-01
-5.649280310945431482e-01,7.296530528859956899e-01,4.470221282618828118e-01
-5.462439679965938044e-01,-1.966826020111295537e-01,-8.478596711583360479e-01
-4.857851257899704622e-01,6.031874157075530762e-01,1.071557601476024191e+00
5.631662319371204539e-01,3.127427535288055949e-01,7.721973415344856040e-01
-6.991290456051059143e-01,-6.622598938244509403e-01,-6.171194568888525023e-01
1.149094394051001888e+00,-4.710478241717970804e-01,2.349095647154377797e-01
1.406445180981228393e+00,2.949645113064420787e-01,2.783991597370278348e-01
-1.546288604703579539e+00,-2.765969999278516389e-01,-2.060980979279406211e-01
1.088751891035393271e+00,8.406762493579637008e-01,3.824272964207818259e-01
-7.898112690149196036e-01,8.729860382990499712e-01,-6.263886378823734224e-01
4.579418786442436828e-01,-1.186381985700156960e+00,7.455276394241896476e-01
5.140146314957968476e-01,-7.526103108046079404e-01,-4.292405665680519289e-01
-4.343950802399592082e-01,4.319533991413116586e-02,-9.257805113315606960e-01
-1.308986389322593258e+00,7.109035346626262075e-02,5.667411872464438449e-01
-1.511608392811996104e+00,6.173928174458930690e-02,7.685703865317086714e-02
-1.280477836311484652e-01,9.526824986393770400e-01,-9.342471430265127941e-01
1.200888909658253789e+00,-2.069192855769310668e-01,-4.304310272553667494e-01
2.289812933418874374e-01,-8.052558753622599541e-01,-1.077370876988343884e+00
5.496513138863070580e-01,-9.382211500663067971e-01,1.059120410031977988e+00
9.833457483471134131e-01,-7.139463305584079489e-01,5.935847974826063966e-01
-6.228630014863406616e-01,7.585706823792155440e-01,-9.570542823707223201e-01
-4.055130136122279683e-01,-2.080253050945240212e-01,1.273381638823781969e+00
7.585220904282401477e-01,4.078565433711075494e-01,6.397973710611304377e-01
-3.336726986257277372e-01,1.098443395548173607e+00,-1.832749148496987668e-01
-5.751665065288650291e-01,9.128200031913653589e-01,-1.715024211356140360e-01
1.111349780053345393e+00,-8.260108020422410324e-02,-8.367518961269905242e-01
-4.363395057918130759e-01,8.292947857833344871e-01,4.564354938793343530e-01
1.548571108492764747e-01,-2.547793418144113364e-02,-1.262459992378763385e+00
3.061710820820157108e-01,1.414189353810243688e+00,5.803302165328458884e-01
-4.548872204856176937e-01,-5.019561348461764050e-01,-8.192333579168729063e-01
-1.217527681619313684e+00,3.762794873487515512e-01,-1.261209851845139229e-01
4.980129288944180610e-01,-5.213029618202238424e-01,-1.280848002905843108e+00
1.103654412895393788e+00,-3.129944355288417634e-01,-2.711545277494057382e-01
-5.404380264653159127e-01,7.511126778939236637e-01,4.722968478262512537e-01
-1.574622245138237897e+00,-5.161518630932968726e-02,-2.076363789453141706e-01
6.943304024898878934e-02,-6.418392755544256589e-01,1.269674050819547650e+00
8.880583982388779996e-01,-4.721085867326222374e-01,-4.398148683862253550e-01
-7.653563001138472544e-01,2.433583925025138359e-02,1.174061970642607422e+00
-3.159777322311367598e-02,-1.385426695688584786e+00,5.969370352729935769e-02
4.350959892335151125e-01,7.738192785428758824e-02,-1.466534441983945891e+00
-3.277001492507007896e-01,1.885008632687170671e-01,1.339951441300932355e+00
-1.978229375579459437e-01,1.191792016195814263e-01,-1.104745765053126716e+00
3.819525342353652930e-01,7.269734295042317163e-01,-6.369894997438088069e-01
2.236220445172636129e-01,2.748327771752315241e-01,-1.376057213774816157e+00
2.853880969932566791e-01,1.428964674210415842e+00,2.105392297197664075e-01
1.157727810379534539e+00,5.229708929311122079e-01,3.714158081221619057e-01
-7.385625234462853683e-01,8.460628708009978460e-01,-8.978363728832553514e-01
-1.026415010949803364e+00,-1.772373986433795623e-01,5.540340387322180149e-01
1.180638282375339410e+00,-2.214120521242876893e-01,-3.781027557786367232e-01
9.143677142116243273e-01,8.639077404496048329e-01,4.885226391231743959e-01
1.781857047800664284e-01,6.394229747919312201e-01,-9.738700363712978758e-01
9.229059073620689002e-01,-6.998791583990587872e-01,3.845191613314545842e-01
4.093746353019117046e-01,-7.001744597301650108e-01,-8.974342855178450984e-01
-4.512957512544253369e-01,-9.075843679607286107e-01,-7.293801736463569885e-01
-1.096802343376927613e+00,5.017541074507458898e-01,-2.314548199140052942e-01
6.078346033079879973e-01,1.247401291554494751e+00,3.509655157328475106e-01
1.515931574357597622e+00,-3.848005275522719398e-02,-9.907614047766899468e-02
-4.213702968883687450e-01,5.960515808242242697e-01,1.254800384658961709e+00
-4.332921616211318772e-01,-7.512235609182207341e-01,-7.791252539607543826e-01
4.199570907298121880e-01,1.220098920091880368e+00,1.043136065172570320e-01
5.304326113792935393e-01,-1.051245191007448732e+00,4.703961154181220405e-01
1.952705562069717293e-01,2.008889742610149853e-01,1.048623544284417397e+00
-1.071324200216621225e+00,1.850954640861993683e-01,8.524404226739745738e-01
6.691217001314261337e-01,-8.968906747918334865e-01,2.849431527900179728e-01
-7.966403345844579320e-01,-6.340595705499195711e-01,-5.769537162388160834e-01
-9.527064404211579296e-01,-5.312993373886304438e-01,2.064872643681351372e-01
6.816063018166168552e-02,1.355419603408155149e+00,-1.329910938871900483e-01
1.993944897858372367e-01,-1.076707463555368172e+00,8.575795926003589864e-01
-5.824066579326996340e-01,-1.099191795909398417e+00,-1.065538969584882700e-01
-4.184224802474130200e-01,-1.236832210103495866e+00,-1.443853989675569216e-01
-3.037988638900617020e-03,-1.088159195439288851e+00,-8.421312695706173468e-01
1.048445711512484779e+00,-5.832064868687560910e-01,2.876601194921188931e-01
-1.577796977770951903e-01,-1.219540557113357737e+00,-7.820283821639523181e-01
6.483609941055226700e-02,1.006998587902566467e+00,9.518543936286417706e-01
4.513012409535367975e-01,5.941379568383096110e-01,-7.224723593153665746e-01
3.755306831251767341e-01,-1.212304072003118627e+00,5.121066349799586748e-01
4.756965692589829597e-01,3.282534019317279173e-01,8.402647452687238561e-01
5.905240702475370584e-01,3.459810973433686820e-01,7.469974759708456480e-01
2.254248456420915592e-01,3.702814044948389838e-01,-1.281929915067813619e+00
4.038849068308091317e-01,-8.716788375784040310e-01,-4.216348194670091476e-01
1.254003759048133881e+00,-1.429411321096762666e-01,4.486933949129358057e-01
3.891994214936173591e-01,3.944940238118576081e-01,8.788915599567947989e-01
-3.364469961593797853e-01,-8.556849036244889017e-01,-8.218016432956506412e-01
2.332726070557928910e-01,-1.203947170634284136e+00,7.150441734310089004e-01
6.835879280554510995e-01,1.087579053236609861e+00,5.634079034528420848e-01
1.448741276333484818e+00,-1.873076302955039851e-01,2.004778087571631173e-01
7.796062314441448704e-01,1.114683408668355691e+00,3.983585604072970576e-01
2.182345557822804316e-01,1.328303611250860161e+00,-2.792269539689118743e-02
1.671272246112730286e+00,1.102088969374916683e-01,1.501861520331986277e-01
2.207093726004866474e-01,9.895006616214744311e-01,-4.565211162247367893e-01
1.168157104431520210e+00,-2.935294255578048128e-01,-1.672297519841232372e-01
-1.153726348787588840e+00,2.238918435136403595e-01,5.731930079741962558e-01
-3.180209904452487857e-01,3.167950912510423822e-01,-1.029662541141010301e+00
-1.134438945831346635e+00,3.806783504116216243e-01,7.228608638105657458e-02
4.709751348526979853e-01,3.164636039925058375e-01,-1.049830003822857183e+00
-1.255920284549658206e+00,-5.225793552895657834e-01,-1.468608410530262975e-01
4.487545610464799828e-01,5.873243474555603916e-01,-7.423647686867529405e-01
7.584783049291379253e-01,3.220008994263043323e-01,-7.029413718366118724e-01
-4.964088290024119554e-01,-2.313872234953051610e-01,1.166319677433849566e+00
-9.732244778460812373e-01,7.237217218693690057e-01,-5.809799128549482106e-01
-4.049096874264364598e-01,-4.365393843623898151e-01,9.852362723764023222e-01
-4.747468613025450090e-01,1.186063819241542472e+00,-7.480263062456561363e-01
-2.898011814650646722e-01,-1.408144479325806442e+00,-5.686925299870879691e-01
-4.427069048429294745e-02,-7.254045879788665330e-01,1.063398022038874791e+00
3.938736896404976262e-01,4.398423563264119429e-01,-1.000550686062783079e+00
5.159252656195547626e-01,-5.338452584521774513e-01,-1.147739147954810246e+00
8.242482991368348388e-01,1.727994973130180245e-01,-8.776927155875750008e-01
-2.459740829788824024e-01,6.059853415049537562e-01,1.219742474873819926e+00
-1.263512640790920072e+00,-2.333689469888851342e-01,-3.801650563934217963e-01
7.395933187774759165e-01,6.790408307437652002e-01,-2.271595233810518588e-01
-2.360151657464494845e-01,-9.687139860582103523e-01,5.018049124581107634e-01
1.056107068071390653e+00,-4.051319587772846398e-01,6.283092556654380489e-01
8.341246402207067590e-01,7.097685751470174109e-01,-6.818276895929949177e-02
-7.254060117187366430e-01,-1.334914209817432695e-01,9.907176990536210592e-01
5.099721867650538476e-01,1.281139284987149907e+00,6.190554304816872078e-01
-1.077632233600128303e-01,1.217162647926504526e+00,-5.673519698215403473e-01
-1.152911905503686496e+00,-1.895283663352554382e-01,4.296760678626777019e-01
-9.602522037910732333e-01,-1.441044725345927424e-01,6.999637971253154234e-01
-9.400708539588390478e-01,4.842223853749044182e-01,2.112219465579242839e-01
1.018960027923857758e+00,2.827368465362798955e-01,-4.638229120636543912e-01
-2.774814248972816699e-01,7.806338979647668985e-01,-1.172772032390600794e+00
-1.590531801172827109e+00,-5.301823011649910156e-02,9.130130157572988181e-02
-3.156604055564719569e-01,9.407483683451162149e-02,-1.017110405042567223e+00
-5.120102188324079373e-01,8.317319290670710519e-01,2.924763615150761109e-01
-8.582528742971701208e-01,8.490669236982493207e-01,-7.387919019933378850e-01
-1.547434629117155014e+00,-1.980079008766299498e-01,-2.082360402799856569e-01
-1.083970552176826807e+00,-6.960108657736973070e-01,-3.957170011955998823e-01
-1.624187380722792895e+00,-1.706995322411015981e-01,-1.265226706381302468e-01
5.108243596143471343e-01,-7.660195490330878876e-01,1.002583333363215701e+00
1.861411810560777702e-01,-1.062370153163297193e+00,8.597192545695249155e-01
1.192908593931885086e+00,4.846464713637463340e-01,5.508360186578225431e-02
-1.530627267082731224e+00,4.454452786234329442e-02,9.453324450122303074e-03
-8.362064231786699997e-01,-9.268259214894514209e-01,-1.910096928569034458e-01
-1.081254615445031569e-01,1.840560251389258828e-01,1.213933141940322313e+00
2.358091023362960947e-01,9.166050428372712888e-01,-5.230306502230970267e-01
5.889807926181062081e-01,1.443458862546357913e-01,-1.159037199680675201e+00
-6.161801282863354351e-02,-1.260620491473414484e+00,-4.552220784295558098e-01
-1.178453851282644793e+00,2.652085199370002866e-01,-5.077686403659604775e-01
1.176271438171499151e+00,-4.274527881871100776e-01,1.854160643714000134e-01
-5.561644984936344738e-01,-1.247359729279215568e+00,-6.175908454513928669e-01
-2.690782663789726553e-02,8.679504018790097364e-01,1.030802860880022820e+00
-4.847196271032462866e-01,8.353153887171813619e-01,3.625353113062969035e-01
-2.223167185766971032e-01,-5.907373939079149094e-01,9.726621088215098299e-01
1.586500800294121882e+00,7.868621614961507360e-02,1.959391903097306986e-01
-5.481690680083404210e-01,-7.448154831386868402e-01,-6.987882727119224535e-01
1.145468136795807057e+00,-3.275189698360738144e-01,5.574371850914172644e-01
4.877896996062467960e-01,4.951562969634077382e-01,7.899562279931555686e-01
4.842599042949468080e-01,1.366083168857174179e+00,6.364869501304036836e-01
-7.519870252348106465e-01,6.030679442459567774e-01,3.201460602777180253e-01
1.341471117949893932e-01,-8.842607728312826265e-02,1.110595378426616486e+00
-8.793242406108009446e-01,3.184061188020794742e-01,-7.489410758205844454e-01
-3.678083579086239285e-01,9.602578369590997198e-01,-1.143247797982575253e+00
-9.539773928966831518e-01,-4.213882725151356645e-01,-5.326401766161035223e-01
-7.838000333293789756e-01,1.018317535985640288e-01,1.233665790339586010e+00
1.227945443092251843e+00,5.379934120565133676e-03,-5.911941126842770178e-01
-6.966055602871210617e-01,9.287279555866072636e-03,-7.519094394215484201e-01
7.248442353480313294e-01,4.095727380319115762e-01,6.773126295221837401e-01
-3.482267931256161769e-02,-3.778297158988467297e-01,-1.097293128706217313e+00
6.678614558851680982e-01,3.809968439155347886e-01,-7.845454221174562592e-01
-1.255279445316619114e-02,-1.139412172209150143e+00,5.719745037562817824e-01
1.079943815462300227e+00,3.193066722179291883e-01,-3.187597302377823127e-01
-7.359800396937675737e-01,-4.625320570758024719e-01,5.870247523879850160e-01
5.405116562864979990e-01,-7.104478313273346890e-01,-5.309409087828531604e-01
-7.238373364277885802e-01,-2.127840864235977236e-01,9.230787455087446913e-01
-9.667025733070244709e-01,1.946370528178546222e-01,-6.441693455992331119e-01
4.356232495751774514e-01,-3.474874988355815542e-01,-1.375813036783401166e+00
-4.391088211864153934e-02,-1.225294247988501839e+00,3.997614828689046163e-01
9.756682046664531816e-02,7.209330690247482964e-01,-1.001998665558801793e+00
-8.061730146229632021e-01,2.533717986273325562e-01,1.266088910042215909e+00
6.687687803892515825e-01,8.161802440682658366e-01,-1.437094850039435379e-01
-8.407380224813784109e-01,-5.546705368703838124e-01,3.028225251500601400e-01
6.751442384172418043e-01,-1.077144518077555402e+00,9.568691339856414402e-01
-6.331357195080952738e-02,-8.669355976510069173e-01,8.315869106634883323e-01
-6.679146372480002092e-02,1.103660062690644317e+00,6.597031235386906500e-01
1.168705178886705998e+00,4.818932101993521067e-01,-3.589821723152620235e-03
1.214389278958691865e+00,-2.280615050346648798e-01,-2.954725028750755933e-01
4.344709184753109965e-01,-8.345898473716844013e-01,-4.675307988819902838e-01
-1.592102571066995043e-01,-3.183558597840945859e-01,-1.030560108739268177e+00
-4.615885820564103459e-01,-9.699303414993045713e-01,1.798303810024629024e-01
-1.076504118718223602e+00,-6.976318756527855047e-01,-1.813209611080598416e-01
9.355459960745819981e-01,6.952444427621896905e-02,-8.541791830987078837e-01
7.763228960015494673e-01,1.010178860811231427e+00,2.161994109259714469e-01
-5.807309712986333805e-01,1.099887555205361966e+00,-6.611543743431529396e-01
-5.429219494886864394e-01,-6.115193684679522956e-01,5.919025582106719474e-01
8.407708348103146712e-01,-6.881674339792342998e-02,-1.131824629523923820e+00
-1.928162311067823931e-01,-1.277964678753062522e+00,-6.872550798249377202e-01
7.197346535926016755e-04,2.585355539119437163e-01,-1.243989256209071748e+00
-8.350863159376378242e-01,7.244032463574557879e-01,-2.687861309206949767e-01
-1.567794030872592392e-01,-9.923364671020343808e-01,-9.117635400127691581e-01
1.293667956218924608e-01,-1.101336352109392847e+00,7.317017610918694626e-01
5.961001179939470207e-01,2.513044234936525623e-01,7.837275543590157545e-01
9.409869024270641757e-01,-1.730125040239098022e-01,-1.116644815009157909e+00
-1.299572287353945477e+00,2.665611585420818441e-01,-3.573644951843472223e-02
1.095595964452164006e+00,1.382772037198429504e-01,-5.685323906629958790e-01
2.601243347250762339e-01,-9.974757916470340380e-01,-3.467812078518327512e-01
-1.631176016946662699e+00,-1.814074150763315685e-01,-1.380493551979090627e-01
-1.086084479833112626e+00,-2.985100159719609181e-01,-4.583177259461640451e-01
-5.126507725412755845e-02,1.144810922765186589e+00,4.835594129518009932e-01
1.321239274274771835e+00,-3.381415881504269971e-01,3.265110891186446263e-01
-6.461181549787340384e-01,3.442965561361123195e-01,1.399110183831898890e+00
-3.171451967715784026e-02,-1.385547127915406573e+00,1.868197492435969276e-01
6.864778612620809906e-01,1.261630867363214614e+00,4.704037970449059247e-01
-4.866440779324435750e-01,1.132320474588361270e+00,-6.611238743156260256e-01
-9.286360017427143232e-01,2.669942672162679553e-01,9.639238202805918698e-01
-5.107473199578876910e-01,7.025436956585195958e-01,6.876091215921570354e-01
-1.161116633700377099e+00,1.242647764487884582e-01,7.286650627887087950e-01
-1.230090288151041378e+00,2.753325536735839463e-01,9.032860986825277938e-02
5.088554488653260766e-01,-1.157530638584702620e+00,7.020454183493277656e-01
7.803967252442914893e-01,-6.497026123904171557e-01,-1.195567706712460931e-01
-3.573914880042735609e-01,4.420035277129089057e-02,-9.856805660048389983e-01
3.678945408418921037e-02,4.933195926029657619e-01,1.075773492738777426e+00
-5.571591808833972204e-01,-7.333720741407311061e-02,1.275828093544192354e+00
-3.036828735763236753e-01,-2.381814880534630086e-01,-9.567812573188116954e-01
-8.277683529671691076e-01,-1.037116944783029293e+00,-3.573123982281171673e-01
-5.938651161814519908e-01,1.786666053553704336e-01,1.520827010638453158e+00
-7.280908703868634868e-01,9.937957645074676494e-01,-8.788921150186832509e-01
2.279252607695328170e-01,-1.114116528321518418e+00,8.277390486726694530e-01
-2.663490483451670665e-02,-7.535822021191400655e-01,1.028180507786602638e+00
-1.537223975982184299e-01,8.640130554644792626e-01,-1.113932012836531982e+00
-3.823175740489623275e-01,9.093178211811947520e-01,3.267519672675708864e-01
9.935086833085424729e-01,1.240455527982573664e-02,5.584267496235640893e-01
-2.393793068308937566e-01,-8.534399363350317902e-01,6.254810107222088522e-01
-5.164343554868966457e-01,-4.474314326115090834e-01,-7.768211391963171231e-01
1.229287677853856620e+00,-4.180432275562195876e-01,3.040696480306800953e-01
-4.991000948722904007e-01,-3.470540179259939406e-01,9.917545544508782340e-01
-6.159095659240229059e-01,9.284895552303027433e-01,-2.686258422836936277e-01
-9.746723891386691596e-01,3.009271820508160333e-01,-6.461637095187168223e-01
3.493325500893840752e-01,-1.093412165484669796e+00,1.042773981678366324e+00
8.542055530014981413e-01,-5.744406572281424150e-01,-2.101192463153404577e-01
-2.532512780639944311e-02,8.139215811896245434e-01,-9.761159697862151763e-01
3.476834140273645790e-01,3.402131917714490417e-01,-1.192887926447626423e+00
3.424203874534413883e-01,1.498576293210218402e-01,-1.424625038492208340e+00
4.296039854382815992e-01,1.068127041697685797e+00,7.377685733954707503e-01
-4.975522417001546627e-01,5.144131812926154845e-01,1.265257197300959646e+00
-1.249544898265618542e+00,2.895892565681693620e-01,-1.300047840635012476e-02
6.990557942735771135e-01,-5.909402362173975937e-02,7.501703004975314171e-01
-7.348513084471637313e-01,4.517670719486888697e-01,9.059666784130432360e-01
5.906929278480640283e-02,1.087026814787617868e+00,9.305389244831379081e-01
