1.018038917525925235e+00,-4.625589407512072371e-01,-6.172700555731720495e-01
8.872597861000014463e-01,-7.110464804678333639e-01,-4.154828836431368466e-01
-2.437554487148211879e-01,-1.244123502101855544e-01,-1.135692860306611429e+00
9.302655896763399879e-01,-8.492516715034847952e-01,-7.569214341131234036e-01
-1.463437584553678450e-01,2.092294849357450859e-01,-1.030224107221890728e+00
-7.140051175098220959e-01,-5.530756079792703561e-01,-1.226441995376069016e+00
-4.374914666126593077e-01,-4.144945102868932141e-01,-1.257636253450136632e+00
-5.969740097117217648e-01,9.727817601935180303e-01,8.248145037580485450e-01
8.450493545809923956e-01,-1.466518117591273374e-01,9.829234368071335659e-01
7.972222978105811819e-01,-2.799197262981821810e-01,1.049102395306213964e+00
8.525269930357178838e-01,-5.187655635931199827e-01,3.374065957487344947e-01
4.004592773684260698e-01,7.091138219393465780e-01,-7.834823138392257302e-01
-1.427968277228321425e-01,2.925439017633723604e-01,-1.015016746067690434e+00
4.054312518745587512e-01,-1.069649827792744645e+00,8.932257367054446950e-01
-6.514331851830579279e-01,-3.560002972483314876e-01,-1.289857134474124090e+00
7.777202045410028797e-01,9.983404018892798604e-01,-3.885519840921551338e-01
-4.309029744880643609e-01,1.273373180072175370e-01,9.732006050557984178e-01
-7.488814106156076456e-01,7.760325471501569039e-01,-4.476429544393855653e-01
-1.634345716264037351e-01,-7.213375880695991338e-01,-1.082290624793244227e+00
-4.824812090125157882e-01,1.328375721273719889e-01,9.755600993968469581e-01
-2.616643249663298532e-01,4.915212364251325683e-01,1.098422512048155664e+00
-8.797535325755424518e-01,6.636611201116032754e-01,2.047102261901265485e-01
-3.508776489329007986e-01,1.150268481629997064e+00,-8.622039249244798365e-01
9.657436538834128781e-01,-6.398022877571288847e-01,-5.849342036600443384e-01
-1.136645112090097332e+00,-3.428439026555819003e-01,-9.072510486704182808e-02
-1.248548054394599705e+00,-6.223522256030817879e-01,4.554480137271037232e-02
-7.286816636392720037e-01,-4.384247545780599609e-01,-1.313438403323638815e+00
8.783712926534051890e-01,-3.245053334918143739e-01,5.263950342574549301e-01
-5.639455210861854528e-01,7.638367989774581535e-01,1.103405001270771457e+00
4.302624050814936596e-01,-1.349637152891163483e+00,5.608510290652741759e-01
-9.651015267496269034e-01,1.273473701227468280e-01,-3.363381822433693102e-01
7.124375092235958606e-02,-1.003631120023894097e+00,8.388344538058496447e-01
-9.905837016616823032e-01,-2.565629809605532441e-02,-5.644641820100723129e-01
8.387215399711082098e-01,2.051312715869092473e-01,-7.875130669294209129e-01
6.515567145451351960e-01,-1.241585950538141914e+00,1.355008338625012243e-01
3.066853128399650297e-01,8.235973650182835115e-01,6.000715860072732832e-01
-4.606797342990119337e-01,1.166254613953484176e+00,1.040068762297076815e-01
5.036371367993943693e-01,-1.101943952270497240e+00,9.069971076897129780e-01
-3.451638770126713718e-01,1.348690815565581624e-01,-1.089427491605187592e+00
1.649108671256012126e-01,-3.121309783716925690e-01,-1.072519772726116205e+00
-9.388931742560477911e-01,6.885028887370052697e-01,5.333127624866399463e-01
1.712387694899047685e-01,6.001575511398921092e-01,1.225078684521703876e+00
-3.172958855784602239e-01,3.747161800163274492e-01,-1.023782010251019781e+00
-8.955013985152774358e-01,8.522893731059337785e-01,5.834591525950160174e-01
9.025846520213073321e-01,5.207378500393197163e-01,1.170361946700440692e+00
8.635481865121678868e-02,1.130584643798893119e+00,-2.645056872027118922e-01
-1.093898339614388870e+00,5.437632711089428195e-02,3.534665850113162811e-01
1.947328971088575500e-01,-1.081780055070844515e+00,-1.289600247262960298e-01
1.000647105362004075e+00,7.237702243841338534e-01,3.338165901665946511e-01
-1.226942826933547392e+00,-5.163122676618320250e-01,1.948122083681436134e-01
5.772249354956028311e-01,-6.702787936987373296e-01,1.013031313923360210e+00
9.246165792057808863e-01,7.252974345043532167e-02,-8.275177770876154248e-01
1.083061338791667660e+00,7.956107351992251775e-02,-5.947935368363396064e-02
3.764455325703456867e-01,9.362187664176460089e-01,-7.408356814228974629e-01
-1.932883944441219359e-01,7.247822035122880591e-01,-9.327758196450007810e-01
1.236528785380368145e+00,1.895723993722489842e-01,-7.117440458296485639e-01
3.675648733977911475e-01,8.758314428483859881e-01,3.994490746349050325e-01
-3.154431770658401302e-01,-1.040141324999635186e+00,7.273120592162367615e-01
3.256163776999766446e-01,-9.462275392164690158e-02,1.098298947212709376e+00
1.116311819337653555e+00,-2.020388914479439857e-01,-6.605735371077154916e-01
4.344015402473855314e-01,8.050867457364383473e-01,5.479429422005094308e-01
4.576673824164475407e-02,2.413846862041746089e-01,-9.676786982709668639e-01
1.048764513827222800e+00,-3.632433490915222829e-01,-6.131773373670150740e-01
1.170973503965722085e+00,4.394562293106414330e-01,1.220669309525016094e-01
-4.838878195272069416e-01,7.210892546332667852e-01,1.110360866449162209e+00
-8.886236478985648501e-01,6.551567416315844383e-01,2.000112762593663773e-01
3.816030455021810486e-01,9.492741270173692403e-01,-7.188580680823437596e-01
-1.189410615615451583e+00,-4.885353747490094739e-02,6.770520451180259691e-01
-3.523768907226771940e-01,9.799804498745469106e-01,6.076366239053200280e-01
-2.157644077268622007e-01,9.529476536508946216e-01,-8.846051492733719712e-01
1.314711450487065836e+00,6.724771671077515167e-01,-4.164682887603795014e-01
-6.453830316828009783e-01,4.219691563108832755e-01,-1.099323327862055111e+00
-1.124267529555809775e+00,3.415639089356679869e-02,5.038162010100005750e-01
1.196930458083058646e+00,2.371696073485177469e-01,-3.581980344590112164e-01
7.831908999462852128e-01,-4.226409839772513610e-01,9.666324999145202712e-01
1.107347167492981566e+00,3.358397837557195453e-01,3.168292866183924916e-01
-1.827776971809989826e-02,9.674318279815675714e-01,3.168363757911411560e-01
-1.860731788939783971e-01,6.328419086689798245e-01,1.158701191188266977e+00
-3.384579582544336995e-01,-1.012230434845257987e+00,5.278620512358853101e-02
7.068534767806361474e-01,-3.210514569295879195e-01,1.139792947835959191e+00
-1.083554152610176402e+00,2.681036690330115269e-01,7.664558073353919809e-01
-4.593924509693900898e-02,-8.959268376528283229e-01,-5.684914120229470624e-01
1.186940069346695686e-01,1.174712575928430924e+00,-4.148045633921854658e-01
1.127617540793016127e-01,5.568006209437432324e-02,1.094154552710969508e+00
2.699281443177332096e-01,-7.182181905476202610e-01,-1.138214963998707363e+00
6.790546785742158642e-01,-1.042679077625428441e+00,4.517406309340782355e-01
-9.915133400555322662e-01,2.600642019914884973e-01,1.278003505556463415e-01
7.677757120084992559e-01,-1.034504736147019877e+00,-7.468046920383585308e-01
3.378014956465712482e-01,8.563031568150795136e-01,-7.742329030349018870e-01
-7.054984466388393161e-01,1.091361878272110397e+00,-1.219924260450504644e-01
8.516182350074259499e-01,-7.949216060830271990e-01,-1.629096897798258670e-01
-7.659669235294128686e-01,7.749284981241708614e-01,-2.905969902338046418e-01
9.474439358220894114e-01,-1.465230870909924321e-01,3.831517564089388928e-01
8.943356374939694931e-01,-5.275028098141946176e-01,2.773312802859230139e-02
9.042185853848897503e-01,-7.160653110000850807e-01,-1.000586691344756085e+00
-1.827642578729203882e-01,-1.087220469673410017e+00,2.323855242357582562e-01
-8.601257296811429809e-01,3.963577002607392430e-01,-4.884421243240846255e-01
-8.155835101240919149e-01,4.396963390189093102e-01,-6.986204615880733382e-01
-7.104694412771559442e-01,2.376299600400473000e-01,-1.143684803926080740e+00
-6.346868054409643412e-01,1.844527832871634965e-01,9.520411758890876541e-01
-1.333014398285226054e-01,-1.186365653699905209e+00,4.579726553960877244e-01
-1.311050946589374828e-02,1.079899845534474601e+00,6.043502896258900504e-03
-3.210010082902485240e-01,9.624818819097387124e-01,6.463910707583064852e-01
1.036642215247897125e-01,-9.205567157673252288e-01,-5.806588267008876425e-01
8.654198778567835371e-01,5.904820720174462911e-01,8.414300415115649745e-01
1.282432006567331362e+00,8.530636122146013633e-01,-3.802274492220809043e-01
-1.095635692671063977e+00,-7.242873704379433342e-01,-2.193711956674734009e-01
-5.977958825120253117e-01,9.497833589717191716e-01,9.061403321484059470e-01
4.272245665926897584e-01,-8.982688981361055536e-01,9.352898634916556597e-01
-9.747734212524897801e-01,-5.436776095003633680e-01,-9.377732824057780636e-01
9.431458465116464296e-02,-4.045842203704330675e-01,-1.130162587919636197e+00
8.113015712125449808e-01,-9.908515925532981328e-01,-3.145852887361542116e-01
1.779407591327071825e-01,-3.204403293024887245e-01,-1.083390589107367852e+00
-1.206269429555915762e+00,-2.532064738638995505e-01,5.432284733640894148e-01
1.463779243721901047e-01,1.027968603074283171e+00,1.399937043917201009e-02
6.208911703709095731e-01,8.655452735775356343e-01,2.050555557342700896e-01
8.456707873997310054e-01,5.417149509165541943e-01,1.094553725799887856e+00
4.323006296103106827e-01,6.005035615139878713e-01,-8.023817588492101471e-01
-9.143684335979751499e-02,-6.103235131293256455e-01,-1.218388970831568052e+00
7.705470651583420372e-01,-1.149913342468957156e+00,-2.491799717122112900e-01
-9.011756667033532509e-01,7.091566615483120561e-02,-7.185190226009803283e-01
-8.346702629499838100e-01,-9.398965004921476796e-01,3.296448531875130761e-01
1.063556596549499522e+00,-9.255065899347152125e-02,-2.968409783363009646e-01
-4.655152386755627703e-01,1.187041511217886480e+00,-8.846775469933938485e-01
9.340927719919679406e-01,9.591640295018888374e-01,-3.795118834602366209e-01
7.031985014847439430e-01,2.252968371627078747e-01,-8.262724745272678195e-01
-7.340698784523101983e-01,-9.533351800493758965e-01,2.476188770139870488e-01
9.255076025855666355e-01,1.151332645858411802e-01,1.004262806623758220e+00
-7.291091532426133837e-01,7.087048651647812614e-01,-7.797902868505083296e-01
2.896815773304413089e-01,-5.089984215653426958e-01,1.004705702043172222e+00
-6.407284696189040618e-01,7.539016097697147645e-01,-1.007732511321643987e+00
-8.630169693263969322e-01,1.627360226311715119e-01,-1.007531904638108600e+00
-3.086204081701731106e-01,9.485508412670613509e-01,6.389469835545629195e-01
1.045990857291153597e+00,3.430006574048359846e-01,7.398459129632865006e-01
-8.800721578842841675e-01,2.737926976423946113e-01,-5.063981422325880555e-01
1.291272611187044839e-01,-5.553863140198611603e-01,-1.141845348148392336e+00
-1.341809889844910009e+00,-8.137489979366316906e-01,3.292358289385550751e-01
-1.126373437287220503e+00,-1.252705235204766565e-01,5.043090385589540231e-02
-3.917682458688642178e-01,-7.616941161638391966e-01,-7.355060223018808907e-01
4.083961608259099874e-02,9.527380561112650526e-01,3.209160877075495910e-01
-1.023420950090876413e+00,-2.163300036385866765e-01,-5.997141074891445545e-01
-1.129597018245326046e-01,7.675829688326657463e-01,-8.832468666432826687e-01
-9.747513658690506455e-01,4.451958821726443860e-01,3.588319106076311993e-01
1.201722135829548677e+00,4.474027498229932731e-01,-1.901343676272395922e-01
3.604598203661052436e-01,6.940009204232160112e-02,-9.383870350298825214e-01
5.963823950922851891e-01,-6.358529874207252686e-01,-1.046746855381716967e+00
7.944233038306146577e-01,-8.974782970993775422e-01,5.416627125184167446e-02
8.629018289971116529e-01,7.883116347720857675e-01,-6.624365418331193966e-01
2.470365789741486573e-01,-8.684973626450929185e-01,-8.597155653937798014e-01
8.507314148660092279e-01,-4.815575989841583415e-02,1.126422514118896157e+00
-8.818829119108120285e-01,9.437482219166193342e-01,5.271909284986441291e-01
-7.827269050427273500e-01,9.328962520177459528e-01,-1.613484035672213893e-02
1.069893280122060641e+00,1.972714452017621245e-01,2.648163261918579092e-01
1.436650927094957619e-01,-1.184356240290451945e+00,8.037986500199515438e-01
8.364093855882092088e-01,-7.500018859781868441e-01,-6.534722735938700011e-02
-8.301290314277496307e-01,6.308409978111014782e-01,1.029542673021867083e+00
-9.261002566765202948e-01,-2.019068634271510287e-01,-1.209627589875772680e+00
-6.479883702669620993e-01,1.132467074295307130e+00,-5.615459253029522202e-01
7.360458387323272067e-01,-1.175207893314134555e+00,-2.147465750851310085e-01
9.885846480956202997e-01,2.802940804896200122e-01,-7.763159520708791117e-01
1.081255176442961652e+00,8.176309273285055704e-03,-1.375554080571668447e-01
-9.098336551327153021e-01,-2.891766635309244923e-02,8.532974660514749399e-01
3.232300535826528043e-02,-8.072606255040282175e-01,8.693227627874924313e-01
-3.185501486845473962e-01,4.526525451879533368e-01,-1.014074628851325155e+00
-2.826970944013763032e-01,-2.157991765164277154e-01,-1.159541773164778133e+00
-3.273379134032273208e-01,-1.039774975940495283e+00,1.634661183472473633e-01
5.453660844492015380e-01,6.267688421102348695e-01,1.063737212500636353e+00
-1.107864187412045398e+00,5.053276840856441021e-02,4.148793496633608746e-01
-8.624216271213132057e-01,-6.601547900216907239e-02,-1.233225759997022442e+00
1.170762012462196466e+00,2.234154184902209794e-01,-3.156826386639638993e-01
-7.504290726709532677e-01,4.176856798518567837e-01,-1.086498099148042185e+00
-3.334412311123793327e-01,1.248153353998048054e+00,-8.254742821994318636e-01
7.748596563711129814e-01,-7.643396100405133176e-01,2.978187606469361315e-01
-9.034949272022094746e-01,2.249118012341295436e-01,-4.179678026332720453e-01
1.288175976821038515e-01,6.915773007035956876e-01,1.167034482647179905e+00
4.622298539023287911e-01,-2.582044908300911157e-01,-9.936103013496502268e-01
8.855931679622650599e-01,-9.481283681198527935e-01,-6.663511235483805528e-01
1.142128651146237184e+00,6.134900669238522175e-01,5.144751550981864208e-01
-3.438475005627995157e-02,-1.251870711968674277e+00,6.973739540649722679e-01
-1.130084091621426756e+00,-3.831878117337467748e-01,-2.408968902271396983e-01
-6.392786001040624833e-02,1.064202995639978555e+00,8.710136801774664983e-02
-9.755846049725725999e-01,6.976411588157213073e-01,8.417689910764839523e-01
1.829178853821313566e-01,1.215602084995776044e+00,-6.875590716846891048e-01
9.168124240528589819e-02,-1.075375471540059635e+00,8.005708390394487839e-03
3.296116227066197002e-01,8.973299969557742006e-01,3.282912724500302581e-01
8.777671997898199852e-01,-1.042844431881421841e+00,-8.178809252674228425e-01
-5.104016860112881027e-01,1.307594613136698003e+00,-3.258587626281310712e-01
3.404793822237456302e-01,-7.683258084130695220e-01,-1.149798562518748568e+00
5.859005434010192692e-01,-2.074062484051880650e-01,-9.682427870774176215e-01
1.023507417672857578e+00,5.093867276500781832e-02,2.228319405122091701e-01
-1.524336713535253129e-01,4.494297539487017157e-01,-9.807402510135382334e-01
1.018970570568909606e+00,-1.877489777886785505e-01,-2.688753369097831025e-01
-9.081015632870896859e-01,-5.462700138803684435e-01,-1.046649931078659002e+00
-4.900410594308427514e-01,-7.258913659414244490e-01,-7.681820117784508017e-01
-1.056142425847855781e+00,1.453465547110572575e-01,2.204377172311806909e-01
-1.108424890024246157e+00,2.037617004744826654e-02,3.527954958753988235e-01
-4.147729259368077015e-01,1.107512296062580281e+00,1.888585623963383031e-01
1.199589906895499158e+00,4.330336649412623307e-01,-8.900937292770862153e-02
8.312338862929542493e-01,-3.543279975561015038e-01,-9.505728856460374798e-01
-2.675856155338468545e-01,7.117485472293922921e-01,1.160705312127920275e+00
7.449681029811264787e-01,2.232579878253257155e-01,1.267651732851126978e+00
-2.089269253363396604e-03,-5.900916837532278469e-01,9.131071636014196358e-01
-8.412312291680326126e-01,4.179488930647609624e-01,-4.864350388185361695e-01
9.791238053911436312e-01,-2.323060517749252485e-01,-8.848169665292006103e-01
5.116543059394746545e-02,-1.004280349146116302e+00,-2.844620444852963281e-01
2.964648198953181990e-01,-5.609521459929427412e-01,1.007862593180826716e+00
-5.537570566837503316e-02,-8.782143580900003688e-01,-6.154460779992723118e-01
9.576820561552031874e-01,-8.378272326318062513e-01,-8.765661907244911566e-01
-1.010488386671333227e+00,5.248884530801815052e-01,9.359463571689083938e-01
6.306390016872309712e-01,6.222714564257174619e-01,1.032408714317762488e+00
8.761509859410459011e-01,-9.401109889929281094e-01,-4.698829524836367622e-01
-1.016451411350673517e+00,-2.708321891428949191e-01,-7.979509982655259570e-01
4.882735561016968706e-01,-1.191705705654403591e+00,-2.094593083652854237e-02
2.575282011673840632e-01,9.432713176541427380e-01,2.198509339698209442e-01
4.894166957251342431e-01,-1.128180056969837697e+00,-1.820186725030285835e-01
3.115769266816018623e-01,7.112340768729281670e-01,-8.220885325810882716e-01
-2.408851050773987978e-01,1.104937955063645116e+00,7.552559129025607221e-02
-8.615393931052733878e-01,7.912373532701151568e-02,8.717773722818039639e-01
1.232808964612380986e+00,3.952036313445743687e-01,-4.325593967314388388e-01
-8.756812134203352249e-01,-7.439795805832333242e-01,-4.374560076020035382e-01
-6.288486378760608231e-01,1.101430304335571986e+00,-5.700840281926898845e-01
-1.085322987860664057e+00,1.067517051595837513e-01,2.181855450087001325e-01
1.051979160226365950e+00,-3.272050107741872327e-01,-8.913631313517952348e-01
-1.020116898516506554e+00,5.870147606699512854e-01,9.177887186430796485e-01
-7.052044792328473477e-01,1.143849760743304023e+00,-2.650588657391985681e-01
1.030441913255918163e+00,9.225142710984909344e-01,-4.285591583701655050e-01
-2.242603557153267924e-01,1.262155831965302948e-02,-1.105892464140435516e+00
-1.007439746505287115e+00,6.856099969141506989e-01,9.731084709480039008e-01
-1.259966148735161884e+00,-3.927248412889651763e-01,3.610807224380097602e-01
1.062561909228209034e+00,-4.859699650183685882e-01,-8.476407234937447521e-01
5.748624053642636955e-01,-3.404232713131901122e-01,1.091187551470620631e+00
-1.053772626623725950e+00,1.773894183718835171e-01,2.213298389429664559e-01
-8.693025612046497708e-01,7.673827089478951757e-01,2.519544486322762289e-01
5.869107311625326728e-01,1.091473560892366690e+00,-6.504391168280562185e-01
4.978796243053482118e-01,6.077424687485462051e-01,-7.862063377060219960e-01
-7.262235119749260726e-01,1.080268511508279516e+00,-9.946229846363995042e-02
-2.386468276818334289e-01,3.022896015542552717e-01,1.060378968866261262e+00
-9.160362914809516699e-01,-8.899703840659424492e-02,-1.056048196201945455e+00
9.371647920887191674e-01,2.111145178046418547e-01,1.152725201042458458e+00
9.722307848821610810e-01,-2.740006955064155370e-01,5.796662862301611013e-02
1.280637035747166808e+00,4.114570842877993684e-01,-6.629846178389173783e-01
7.530191094190220591e-01,-4.479537288759151692e-01,1.113471996099659744e+00
1.065165388199077023e+00,2.676534079183119919e-01,4.345348900780052204e-01
1.324445978340251351e+00,8.900721771074573407e-01,-4.855596918020203545e-01
-9.714809560594371840e-01,-1.001803790254398363e+00,5.891081397743802572e-01
9.931212374103501883e-01,-6.994111647866207981e-01,-8.553395686537081932e-01
3.668747311500529240e-01,-7.565700587450548964e-01,-1.152452621451723225e+00
2.795646018663348054e-01,-1.292639973992307123e+00,4.568261514844486615e-01
-1.040763739691260126e+00,-2.291945407550093350e-01,7.622480941609829364e-01
-9.185384749157976536e-01,4.013406976806291881e-01,-2.382716398892335552e-01
-8.006370145025047957e-01,6.906220547423780332e-01,-3.810409585898561491e-01
-8.930471329587104101e-01,3.900416120906659012e-01,-3.359505139345826397e-01
-1.223310281326940585e-01,8.598999689029809268e-01,7.842825088163986047e-01
-5.420363243638737227e-01,-8.954735679384124847e-01,-1.291711117008410292e-01
-7.616614508700996211e-01,1.143574209733136504e+00,3.758962490548055091e-01
6.697858955123805469e-01,-1.039426715631808662e+00,4.390876552914047548e-01
9.974335482614641313e-01,1.566059365814289894e-01,6.194023628741842646e-01
4.986316807013406183e-01,6.720308994345921549e-01,9.670215839444026296e-01
4.489612991469469350e-01,-1.346443664363776160e-01,1.105414573230722564e+00
-6.673447138457735406e-01,1.069555692836040128e+00,5.910845786351843767e-01
8.262553517985181673e-01,9.936481793160724107e-01,-4.741675471834977396e-01
6.498042570654481986e-01,7.762595148954679614e-01,4.856072841683028996e-01
2.406479157975015271e-01,1.292132510348518483e-02,-9.966381796007429683e-01
2.683259725711826804e-01,9.480629940512693699e-01,2.917366487733848990e-01
4.383245870202852057e-01,-5.892977166357643570e-01,-1.099389693315866445e+00
-3.633609804927924181e-01,-8.678347391169856095e-01,-3.550839793471835537e-01
6.951292139681822801e-01,7.283797196139505381e-01,5.426457162743949514e-01
-6.231667896476131840e-01,-8.226034849678074412e-01,7.297075725866669638e-01
-1.194961432965176318e+00,-8.306537195740278934e-01,1.570979759942754406e-01
1.322210796877977046e+00,8.357763817918641980e-01,-2.514502408687477319e-01
-1.173382029021640127e+00,-6.694951535852864399e-01,-4.618644030560261626e-01
9.294615698267493301e-03,1.074511963675439219e+00,-7.896878113745553485e-01
4.517956241241705695e-01,-1.085818205533493508e+00,8.887654245692423460e-01
-1.824441358306214678e-01,-9.375214330206049773e-03,9.907103653268751753e-01
3.472892448310053309e-02,1.010538213466279922e+00,1.588738468626291200e-01
1.205638532042485167e+00,1.238642583904546596e-01,-7.555052313896249983e-01
1.217828856095849455e+00,6.398624745449290607e-01,-6.341510604343838509e-01
-6.640001915954963918e-01,1.052719867897490058e+00,-4.976972248816063926e-01
-1.007687703000879509e+00,-2.185932892171468245e-01,7.791040369796631282e-01
-1.327477829780653318e-01,6.733210111842665713e-01,1.179243107294166704e+00
3.554525458965867024e-01,-1.351908879130324204e+00,5.916987463052602036e-01
-2.547885976550104958e-01,-1.104292821197775387e+00,7.380049261818509843e-01
-1.750917120670213711e-01,1.262376488346721448e+00,-5.050635526592868185e-01
8.374098728016207138e-01,-9.577823266220747422e-01,-4.589268455940018754e-01
-6.106448096507778311e-01,-8.244515210887201073e-01,-3.137451250235630540e-01
-3.295193131574197798e-01,5.242983317057627879e-01,-9.838868527790978202e-01
-3.882152252428594519e-02,5.892162199704925607e-01,-9.191229974420511706e-01
-1.126203139353179505e+00,1.988089783960449997e-01,7.963771008559966669e-01
9.047234889133508318e-02,-3.508588129187160259e-02,-1.037804943684023762e+00
-5.159804577292119721e-01,1.018403014292918352e+00,5.612972029044656086e-01
-7.591767238865859690e-01,-3.707403382142288040e-01,-1.310212854342452493e+00
3.538937149212362798e-01,8.223250861087825214e-01,5.732070574321544987e-01
7.599919863312417645e-01,7.414367169842505101e-01,-7.159261040306900137e-01
-5.553982174494855872e-01,7.809319383345101340e-01,1.114461031009815306e+00
-8.258536298962829703e-01,-3.324793052525471526e-01,7.726361700440997904e-01
2.183226352797827674e-01,-1.609985251752845889e-02,-1.015570701370773543e+00
1.233827223361421144e+00,8.935690467094961065e-01,-4.521249272694248256e-01
6.654441246835995916e-01,-1.256563809168884660e+00,8.415645226616529084e-02
-6.268014186731117876e-01,-1.179182159395708307e-01,8.934129116494070599e-01
9.825327075953511624e-01,-6.614680923070764829e-01,-7.495821846003013489e-01
7.271243978005138553e-01,-3.047331896612938684e-01,1.141225954788160246e+00
-8.586851823207888312e-01,1.086416302932794675e+00,6.545067811071574315e-01
6.003422934383484399e-01,-9.746866611597012620e-01,-7.924423459047132967e-01
-2.513679141044692922e-01,1.071658563743891124e+00,2.493248817079895541e-01
-8.707452286198646974e-01,5.170935598134815958e-01,-2.335609677000647366e-01
-7.558629882573488779e-01,1.143272772159049877e+00,3.750624497441374383e-01
-8.677242490820259446e-01,-3.775100260458646995e-02,-1.188840890386551052e+00
-1.076230563735378842e+00,-7.529859856506080362e-01,-1.628552099197523029e-01
-1.056176197842687153e-01,1.281094278191154290e+00,-6.442433574640260563e-01
1.095159310358198912e+00,-4.290639748112005242e-02,-4.366688817008107515e-01
-9.674436439408938826e-01,-2.574520891944525047e-01,7.639783780521905987e-01
-1.009774553006364872e+00,-6.768597763645782805e-01,-5.858971453913158767e-01
-7.702439411391023283e-01,8.858738446090159702e-01,-1.048166799593874127e-01
-2.795557416367489556e-01,-8.925575535148237982e-01,7.839838879835371310e-01
-2.730838244215260668e-01,4.547266744120855853e-01,1.087138003809711595e+00
5.794995492846949370e-01,6.644578631788525813e-01,8.843351730051168813e-01
5.668115190683148397e-01,8.015094746754936050e-01,-7.379777518998272834e-01
-9.944693699793001329e-01,-3.427105674332441287e-01,-9.706852319503895821e-01
-1.239882172876017208e+00,-6.180953555905861485e-01,6.244963274414777610e-01
4.482127836760566031e-01,-7.791342595384214142e-01,-1.139916455537862694e+00
4.720132012719484571e-01,7.295018772741421742e-01,7.772680657526612746e-01
-9.076954179979389581e-01,-4.782133910891993300e-02,-9.217856632860128574e-01
2.386777287365696165e-01,-8.545118990856024332e-01,9.058642659679616571e-01
7.784110185123717385e-02,-9.600316624284579436e-01,-5.003781347401921042e-01
1.048320997669377030e+00,-2.110116015502291609e-01,-8.747272356914145286e-01
-8.857873018454103312e-03,-7.276586158432748475e-01,8.965287554294476546e-01
7.730030148910097543e-01,7.438090569113431361e-01,4.677150609084909094e-01
1.098916086509285739e+00,1.561644901997526202e-01,2.369862206026165236e-02
-7.653490025795056662e-01,3.456835009055062025e-01,-1.074354981053963431e+00
6.428552085274450434e-01,-1.042983910354799759e+00,6.583476481977678096e-01
9.789277590087788194e-01,1.477528537145515186e-01,7.606861305539637241e-01
9.018991549670374308e-01,7.862516611221807838e-02,9.518794192987296565e-01
2.695662689978818860e-01,5.213696666108514899e-01,1.244504896149196682e+00
-4.695912695122304581e-01,-8.437436477541988555e-01,7.679174806795764363e-01
4.787492900210965630e-01,5.149992284942086496e-01,1.276446985166100223e+00
-2.445727102730082814e-01,-6.605595265721404541e-01,-1.195040569913504269e+00
-8.887477646756860583e-01,5.336887808275844192e-01,-6.279114443657206335e-02
4.567363957554635978e-01,-8.505938254281540933e-01,9.699689023314659320e-01
-2.784546408600439005e-01,-8.836586885996385865e-01,-4.262542657521491418e-01
-4.099294026434536775e-01,-8.521409297221520518e-01,-3.636489338745566013e-01
-7.742820716659244429e-01,1.079271040455299202e+00,2.587088738803964283e-01
-3.220657800348254024e-02,1.164478802488392618e-02,1.048594330558728416e+00
-8.014523559098311045e-01,-9.927948670897943639e-01,4.078183795280464485e-01
-2.287278308670827875e-01,-8.646112012752579234e-01,-5.288507811223505106e-01
4.314441720395962299e-01,7.018305576818331115e-01,9.176279045212313301e-01
6.325909043833042311e-01,-9.595486013970728756e-01,8.332396402518146283e-01
-9.092195406311374128e-01,-5.925524113487280475e-01,-8.886791236631047530e-01
-1.016511525163263263e+00,-8.756534115562886189e-01,6.116062523907483950e-01
-1.053010455373389664e+00,-4.883507045515945166e-01,-8.134353634770914443e-01
-8.399273703940203228e-01,1.804020192049062277e-01,-1.036712884962645909e+00
-1.359279640130238054e+00,-8.768596220025295374e-01,4.597051936648109960e-01
-8.119052764001568612e-01,4.854174707253589016e-01,-5.843076392879826830e-01
-8.544708985863104234e-01,-4.484560603226976916e-01,7.399209279914630288e-01
1.006738416175660289e+00,7.643338571423055616e-02,-8.309019008364151304e-01
-2.274340476903253527e-01,1.099952031226363980e+00,8.983973824920651885e-03
7.539236086054411645e-01,5.321002657125284419e-01,-7.652199070798845204e-01
-8.724303028525942638e-01,7.548344824618001825e-01,3.052869109203675824e-01
1.227239904310579277e+00,6.035044117345815806e-01,4.071477173719737636e-02
-8.896823386403365230e-01,5.507889134634696982e-01,-5.032796517491360672e-02
-9.971219903717256638e-01,3.230662994877502858e-01,2.729036331225467849e-01
8.883110751675337147e-01,-8.277108075129550047e-01,-4.313486009468012194e-01
2.458049810270072633e-01,1.090601942822492676e+00,-7.474249044147525112e-01
8.574710496227672119e-01,-7.523765960729545954e-01,-1.545375624821372640e-01
-4.388326435926611091e-01,1.095644727173062494e+00,-8.936799556895720364e-01
7.466634609025740721e-01,3.542964703047489228e-01,1.306611832328177680e+00
7.327819685058599708e-01,-1.041623719260563297e+00,1.924517541603733839e-01
-8.550548186816900875e-01,7.713619845368111516e-01,1.535623751156173500e-01
-5.212117521225931860e-01,6.548821788660742493e-01,1.080713853282835313e+00
-1.032673413740425428e+00,4.155364256598170214e-01,4.904126093410002829e-01
2.901342877417310562e-01,-8.274162840010533815e-01,-1.070839659647500497e+00
1.016410678630501163e+00,8.650953433121938430e-01,-1.181952127000122227e-01
-1.005775179038137068e+00,-1.179280633509808933e-02,-2.190282972807779116e-01
8.285174838689639554e-01,-5.136294089502227989e-01,5.437478502018089355e-01
-4.547285324528288486e-01,-1.108203570244010505e+00,4.892579817229870676e-01
-1.046668864879454874e+00,-1.871196504252331805e-01,-2.713941034532617591e-01
9.693882644732692011e-01,-5.513499540421911149e-01,-5.309001991059026926e-01
-8.462512029808018088e-01,-5.236474126591386113e-01,-1.137660500100588390e+00
-6.935393220754123567e-01,7.763893101701189181e-01,-8.551075542091345350e-01
1.163903559686434219e+00,1.206557569758052867e-01,-4.248753686078153291e-01
1.071879482590955668e+00,-1.934227615572587378e-01,-4.964491124861490912e-01
5.899382031964225392e-01,3.423330036455369263e-01,-8.352246827609822732e-01
-1.112285724671951304e+00,-1.150573148618317353e-02,3.099023095832574293e-01
-5.344483447303882695e-01,1.294950875519651268e+00,-3.150343799938475908e-01
1.342864070742720406e+00,6.414472113405256248e-01,-5.711390666973659158e-01
-1.156211879875124748e-01,1.044982089184895768e+00,1.940343185585956809e-01
9.816908926678857839e-02,1.422976363631317520e-01,-1.004783111254132555e+00
4.058710311562495343e-02,1.198788957313052794e+00,-7.513879387464650339e-01
1.283741636703008782e+00,8.533305954466602339e-01,-3.177382786850409535e-01
1.094002977263621057e+00,7.067518607593004099e-01,3.459400545592037357e-01
1.358518410928673870e+00,8.230299953452355766e-01,-4.002253341828255762e-01
2.839999971389094435e-01,-1.251804841897998122e+00,4.530225774062351385e-01
6.472047447628418437e-01,-1.035980799658028362e+00,6.405200070186065631e-01
-1.186852763320526361e+00,-5.023097715482021108e-01,3.567980102214680840e-03
1.220170152042457490e+00,7.037165223520122082e-01,-6.007172939713540938e-01
1.072506142405806662e+00,3.708708065597325354e-01,5.540014377408000179e-01
3.845345519197802542e-01,-9.671873336445416802e-01,-6.602145476605854046e-01
-8.094595176123647873e-01,5.220642412007882038e-01,-4.914834847462982714e-01
-9.180476876131770103e-01,7.620551070806907967e-01,5.362478869288385130e-01
5.255060037829218933e-01,1.795601906059712816e-01,1.221388358244419159e+00
6.611956321453280605e-01,1.032902666945576087e+00,-4.613571798919198219e-01
-6.824489344185503681e-01,-7.837657679754655993e-01,7.215844872049114178e-01
8.674728513910706651e-01,5.501249401510143189e-01,1.091557189670266048e+00
-7.659335836202570136e-02,-7.136952803757745656e-01,-1.140784367651888953e+00
9.668463772854590799e-02,6.971276885780662569e-02,-1.024660420898688473e+00
7.816004989439643280e-01,-8.551484694394156927e-01,4.784062209987779979e-02
-1.260514425110252024e+00,-8.836594469315453004e-01,4.379701384599991032e-01
5.875090063995518364e-01,7.138768009386268210e-01,6.991119807334185143e-01
-5.879357826620295047e-01,-1.072836711558571299e+00,4.831718629404672671e-01
-3.865293951116994808e-01,-8.133749089086609318e-01,-5.442110582136789887e-01
-8.617140597063130958e-01,-5.105437636517945466e-01,-1.225806045640841502e+00
4.139180517829035288e-01,1.844261681520327767e-01,-9.090257236838196198e-01
2.896342905999662043e-01,-1.041533408137913952e+00,-3.009266534729935216e-01
3.158152664608306348e-01,1.114808668373130196e+00,-3.049076287305120814e-01
-5.403824163105429568e-01,1.345541815542678377e+00,-5.117594121746136260e-01
8.097592831222271137e-01,8.187500300028991429e-01,2.128022365589819220e-01
9.783225051104770253e-01,-6.897032392978893478e-01,-8.448893408243758341e-01
-1.185512630747324714e+00,-5.066229117279145294e-02,6.703600289146111058e-01
3.192268658793925851e-01,9.737389197875440106e-01,2.529998947662112641e-02
-5.722462954640911148e-01,-8.411689491736238367e-01,-3.418630831784123525e-01
-1.361081938476848274e-01,8.943366591695361967e-01,7.277751185287817393e-01
-9.788872823777237109e-01,4.468409721643826216e-01,2.209567213063607649e-01
7.541143895167580213e-01,-7.101002734669034089e-01,7.433986769696320218e-01
-1.133342771451274711e+00,-1.582275020131249654e-01,2.456448271493884561e-01
1.011118394181805824e+00,-2.600453014905657612e-01,-1.010772807631631076e-01
-2.571424459851068822e-01,7.475860232717317089e-02,1.003531830132623481e+00
9.855784662381654737e-01,-5.087417860024607830e-01,-4.371599358526015999e-01
4.809805153239648523e-01,1.040229846257202606e+00,-2.719029315991222107e-01
-6.208430033930847358e-01,9.254892321664055510e-01,9.805102426198826215e-01
7.668100156864052774e-01,-5.629752959503184773e-01,8.707150044075024908e-01
-7.541162398844026837e-01,9.630415918390214935e-01,-1.926776826251703212e-01
9.321377182991846810e-01,-6.782722691708185092e-01,-9.940620347723121419e-01
-9.893472776519127709e-01,-2.511654450531512761e-02,-3.932116629827016041e-01
1.050551729414683777e+00,1.668635626066000688e-02,4.758085744074698475e-02
2.896433266630581982e-01,-1.347749727449546242e+00,7.945665551394599513e-01
7.438887317328589655e-01,-8.592342887126904749e-01,3.942952203055456462e-01
-2.789317272337771270e-01,-3.281362500178939823e-01,-1.213366613096840796e+00
-1.184640462424785934e+00,-4.408537173282978672e-01,1.951211717519709538e-02
-9.651024563536615419e-01,-3.458798298747490230e-01,7.503344340423765413e-01
-8.989454736900269471e-02,4.454107219890091757e-02,1.045861034497699515e+00
-4.339861695459566043e-02,9.051215464192097215e-01,6.063200832940230933e-01
9.089027531566369333e-01,-1.310822145108419823e-01,5.855604927934563442e-01
1.157224997390364107e+00,5.171394468699566094e-01,2.680032469713395371e-01
-1.064388751594878446e+00,3.240705937666600311e-01,6.097186824235383273e-01
-1.057044902225200866e+00,-3.490988194847078896e-01,-6.562521191470137571e-01
-2.828404953590697990e-01,1.052391678502541783e+00,-8.925240674837897625e-01
9.297824296636167940e-01,-3.817495461036235493e-01,9.402519451124077832e-02
-1.008182790938485951e+00,5.816099630395429321e-01,7.987212553733145093e-01
5.661591812921417111e-01,4.376547486445600543e-01,1.276954762821026046e+00
-5.252116079407160854e-01,1.128052843320828558e+00,2.569045927542946139e-01
2.333414684266429395e-01,7.566066266122342121e-01,-8.169904370638543245e-01
3.245842418043415334e-01,6.708813551153008925e-01,1.133661093713866252e+00
6.714782027681851506e-01,-9.064335148015681964e-01,7.018264044076201191e-01
-3.560744495544859167e-01,-9.048262599597328704e-01,-2.953279009223314100e-01
-1.033135011181416596e+00,5.022831202675051010e-01,9.179482750897532961e-01
9.093232223543114001e-01,6.795928810283270449e-01,-6.873898955241021236e-01
-1.136601342267850256e+00,1.616498332416599695e-02,5.005559546089517475e-01
1.700465540527319463e-01,-1.148115042085797767e-02,1.074165808056196658e+00
1.365769738723963123e+00,8.341666697592390323e-01,-3.892819811214921488e-01
8.799078210342756723e-01,8.387446449960387351e-01,3.181999150830509132e-02
-3.680242392612947389e-01,-1.746188490527210424e-01,-1.175209036620416869e+00
-7.987423250808285413e-01,-9.554539740716722074e-01,6.447796882622638392e-01
8.002576409609378771e-01,-8.495818317028789313e-01,-1.063633637389517883e+00
7.678761992286533555e-01,-4.149135449230988981e-01,1.092639540762612382e+00
-1.027000583068010009e+00,-4.796449608039177748e-01,-9.997272356569362195e-01
-3.749742097142357289e-01,1.015395265299307459e+00,-8.856769671871151939e-01
9.280679726465633772e-01,-3.574120083671364911e-01,-9.347440228137564588e-01
2.869732200123042976e-01,-2.257832832533211986e-01,-1.045899160172506059e+00
1.111449185244700821e+00,-7.419210391456061704e-02,-8.085558643569765724e-01
8.890134133935619909e-01,5.400691130514840843e-01,-7.176837003936841208e-01
3.824806322488206178e-01,-1.065945402840072331e+00,8.995264202046445723e-01
-3.498851359627671576e-01,-3.803835503048076938e-01,8.822216847380872640e-01
-4.723237599130305359e-02,1.027279512828383146e+00,2.090799614117310468e-01
7.075166639374262656e-02,-8.542850900211683696e-01,-8.168215709242686584e-01
8.946045073410778814e-01,-8.642171593967080678e-01,-6.295661204034672664e-01
5.762319904356030809e-02,9.230239342209614062e-01,4.572641108798567444e-01
1.066897112752499988e+00,4.898729350866574128e-01,7.143103047888620383e-01
8.784193161294585606e-01,-1.011093160731000529e+00,-9.505695417735430253e-01
-1.808202915809593858e-01,1.288383677241000003e+00,-7.730260081699915631e-01
6.286572030534363087e-01,-1.037446617437552954e+00,7.119354836570499501e-01
7.211391265989017807e-01,-1.024636322706496516e+00,2.362826197105368786e-01
-6.569185815252074345e-01,1.203172792886347819e+00,-3.630797053863425994e-01
-3.409545958880903782e-02,6.797041729326579185e-02,-1.036344536081526213e+00
-6.320547919905271650e-01,-9.382372491435925221e-01,1.388215247631951199e-01
8.139513893104471931e-01,-5.970460929265601902e-01,3.973761077432559352e-01
3.904029577217891234e-01,8.243643817092914938e-01,4.882205541446967278e-01
-6.921103943140761716e-01,-9.091751199148843110e-01,6.875685342514005205e-01
8.917211832938918281e-01,-6.974697755832923729e-01,-2.673831253966824084e-01
-4.457425595418208764e-02,6.951630969705241414e-01,-9.101421290257850627e-01
4.344353609444713271e-01,1.066143640117530156e+00,-3.642452887043364229e-01
5.888464732574530958e-01,-1.275657212564470067e+00,6.564445734497968976e-01
-4.756323389718084549e-01,-3.212540874497902821e-01,8.799823762714977793e-01
-6.921728747170031726e-01,1.015025141733130631e+00,-3.263935692564273183e-01
-8.300067273159218439e-01,9.400944236715745861e-01,2.948248369820297143e-01
-8.059798956594174113e-01,1.106660814370868495e+00,5.431056810946188751e-01
-6.383461680592505960e-01,-6.307649814860382120e-01,-1.031701089102498692e+00
5.534403272254559969e-01,-7.689576100961779126e-01,-1.102480352526099106e+00
8.647411585132694922e-01,6.413412639095100731e-01,-6.973503529218403330e-01
-2.972302739283003148e-01,-9.829738478294214321e-01,1.852473016683280072e-02
6.616621722587318066e-01,-3.605328132301674482e-01,-9.985463512549426213e-01
-2.861345093527314365e-01,-6.239784507873260555e-01,-1.256899798275967095e+00
