-4.535462024752501820e-01,1.026484683756003102e+00,-3.236720943020182650e-01
9.637067173574415113e-01,-5.790254610503962063e-01,2.520469188220197942e-01
1.150486524284572765e+00,3.362320599825959211e-01,4.033412003314623129e-01
8.664403964534063141e-01,-5.135907215665834746e-01,-4.597181038928440655e-01
-2.722350917197207121e-01,1.449927537310614190e+00,-4.411823562587968706e-02
-1.069522978523338885e+00,1.997543839617412983e-02,4.879356302977699844e-01
-1.329292987430557460e+00,-2.094666900155381928e-01,-2.833921014157083085e-01
6.002612737737479665e-02,-1.236903924128190724e+00,-2.610688577803872423e-01
1.087743670145717267e+00,-7.378252043302604424e-01,-1.936435268181085911e-01
-4.172914560481931767e-01,-2.393931042256695896e-01,-1.408093822659063798e+00
6.386867506060178723e-01,-7.546947636363690037e-01,3.728183500048586896e-01
-9.463889716452953405e-01,4.402458804103807077e-01,-3.745153960765840728e-01
-1.222666013932660611e+00,4.695594646680775197e-01,-6.567366675642502538e-02
3.106524727439373135e-01,1.058942844891213708e+00,-3.060108174182083474e-01
-2.595643712647990320e-01,-1.071497423332046228e+00,1.216771051848116597e-01
-1.007884630427090755e+00,-4.434222349208758948e-03,5.465000576053832271e-01
7.081925781835627376e-01,7.722234014084033982e-01,-1.062408145464539100e+00
-2.153760407931754883e-01,1.305014074475923991e+00,5.387073385756258048e-01
-2.792698803223241377e-01,7.779099701693723556e-01,-6.882766286863269967e-01
3.089742633600532917e-01,4.067353385013944278e-01,-1.224380023051946154e+00
5.466837727965547789e-01,8.692640688218151723e-01,-1.035518346534244072e-01
8.311549783386527057e-01,6.792930576601377002e-01,-5.043800119976122459e-02
-7.690934455376332579e-01,-1.878789106066404146e-01,-1.045886221824290585e+00
1.262938800479222134e+00,3.434954394950406886e-01,-4.746326092246334616e-01
9.912387389021795059e-01,4.679659526575184469e-01,2.169858990913307584e-01
2.309777303605470011e-01,1.027602474362637741e+00,3.255255352874305563e-01
1.021797416954536741e+00,4.074083685143902178e-01,5.742771664104651119e-01
-6.296920835059305332e-01,3.884156372357245868e-01,-7.120217863493990551e-01
-6.348000993894804544e-01,-8.188002992172519479e-01,1.196976939868376749e-01
6.277804682276338921e-01,7.442318528766268537e-01,4.348945953631847550e-01
1.075976523850652899e+00,4.641750759508528890e-01,1.753739962415395426e-01
-3.507506229601476799e-03,-5.234567158629018779e-01,1.148419662329557056e+00
2.833142243852591613e-01,9.885333963726671280e-01,2.769731434815954629e-01
-8.965069326935423133e-01,1.942721803954322590e-01,-6.276767443541991787e-01
1.368155568451739634e-01,-1.270937010634963116e+00,-3.646882680392697362e-01
5.099694858194129404e-02,-1.313250655300782554e+00,1.661266810252686743e-01
1.472954320848942622e-01,9.704889586902337717e-01,8.816108254916220632e-01
-4.355708397866178139e-01,3.979390922783452300e-01,-8.665978343419642460e-01
-1.017196724717254419e+00,9.776375896239085650e-01,1.755354605169950899e-01
-8.843402982552905911e-02,1.316691028998453916e+00,-1.725847077818567776e-01
-2.378384787027909564e-01,8.667488535631412416e-01,8.156502969924958046e-01
7.958010833899904490e-01,-7.724154632433020140e-01,2.248367779545227541e-01
-5.579913234356114193e-01,-6.413673409261259062e-01,-1.020928789752661547e+00
-1.800112604984364373e-01,3.388044655524093951e-01,1.053256686806917308e+00
6.463403676446913826e-01,-5.764380796095095461e-01,5.204146237792542928e-01
-1.463484847192800142e+00,1.447929348062008126e-01,1.536250987292676062e-01
-3.231421198990356430e-02,-1.043519470535164029e+00,7.527405429564454353e-01
5.092629001752599915e-01,1.016248478267160360e+00,-7.397810846091936732e-01
-9.325985896150525978e-01,2.562514065396502838e-01,4.866503328269062845e-01
-5.895870520163838391e-01,-7.796438082696774963e-01,-2.839887424421680961e-01
-5.805958847360797037e-01,1.172985024188024417e+00,4.238158293263888932e-01
2.359983236992357625e-01,1.139818787287393498e+00,-8.265307949271617494e-01
-6.306943003651134250e-01,7.397687613463864720e-01,-4.075137853077444028e-01
1.338297773131533974e+00,1.239300778329405495e-01,4.902384910157818187e-01
-1.258641903707672816e+00,-3.249680361164589137e-01,1.555330932130722515e-02
-6.139079340366374593e-01,7.546191251199024785e-01,5.639011717965066728e-01
3.835151534051879918e-01,4.268083047061908136e-02,-1.007589093984702533e+00
8.036440023651747477e-01,6.727123816672869738e-01,1.069621068412199803e-02
-2.381387781506295043e-01,3.614772853487436821e-01,-1.062095182864484233e+00
-4.411145722793352597e-01,-1.115446079507924404e+00,1.040194076702320558e+00
2.784308158836088509e-01,-1.202123359070199404e+00,3.257974451454253018e-01
-5.174064538662707102e-01,-6.179146931894243799e-01,-1.373700763279956938e+00
-4.391242131366823731e-01,-8.415273642546304833e-01,-5.317203034170512321e-01
1.439322574856274572e+00,1.967624254854441757e-01,1.914955579806652264e-01
7.508580412931999959e-01,6.498341464274944856e-01,1.524522598130532702e-01
-4.153863460275239450e-01,-7.490004233972555880e-01,-9.456797571079347264e-01
1.176933040202512437e+00,1.683367277014489738e-01,-4.654236744109418455e-01
-1.789149648139423399e-01,1.284601682043656545e+00,4.012754382686853916e-01
-5.195660281828532456e-01,4.908275104850130521e-01,7.394534794452897186e-01
4.126600435703718373e-01,1.081168931344150153e+00,-7.437949947319675292e-01
-6.212623588242582873e-01,-6.470898693073371399e-01,-8.837543384866236584e-01
2.031509162429922799e-01,4.800808295079620480e-01,-1.316794818141688195e+00
1.611071919459995616e+00,-6.872127461879383448e-02,8.618991242436166433e-02
7.419275151289376202e-01,-1.229149854586433221e+00,-1.153316615367277059e-01
2.842979749579126886e-02,-1.110291743508190709e+00,-8.411369088166793517e-01
-1.001553777825685998e+00,-6.044395217112469298e-01,4.064510273061983092e-01
1.476997601444350883e-01,8.232653331265146202e-01,-1.045024716207605397e+00
1.564217435425682146e+00,1.168619305962734223e-01,-1.344609460732278383e-01
8.482655363551058758e-02,-5.957531152552489884e-01,1.041745848764576099e+00
9.871082305805819468e-01,-7.525019955738219135e-01,-2.858767390379688411e-01
4.589836434022995237e-01,1.048657493197868495e+00,-1.120957608273224659e+00
-9.431499960318345810e-01,-2.752707269570104365e-01,6.541864820289623461e-01
2.156004978553927309e-01,-1.091318526646727793e+00,4.609416502413581918e-01
5.557019948345338634e-01,-1.811640128433768537e-01,9.091967065694299688e-01
1.171488928469955004e+00,3.542963864963954990e-01,3.949514014516559701e-01
6.168955662784061378e-01,6.405463235836394986e-01,8.480228866286269040e-01
7.463436483938393207e-02,8.787973415160981183e-01,1.051019405251598426e+00
-1.047266405204893003e+00,-3.545746079183142441e-01,-7.303952435281841904e-01
6.867568579956888630e-01,1.406981232838955265e-01,-8.512877892580560379e-01
-8.262236186175792030e-02,1.282258122715427273e+00,1.024291027338707499e-01
-4.425975017936735201e-01,4.616428647611600655e-01,-7.848399143291366897e-01
-7.746757354016714503e-01,-4.075071232829488577e-01,8.512031704053035774e-01
2.563045850554540595e-01,-1.358921652860168416e+00,2.330197526132689878e-01
-7.917618881878409065e-02,8.278611400636727291e-01,-8.362879983105576676e-01
7.177473329524628465e-01,-7.624483063225662161e-01,-4.651890401195388214e-01
2.465742086359662411e-01,-1.423554832702503603e+00,6.703602184297278999e-02
4.610035756562959608e-01,-5.659934120498858467e-01,6.659290095236348739e-01
-7.700474070067714338e-02,-1.016357449928923629e+00,8.176711361818510548e-01
-6.043683981908772873e-01,1.878696065568434270e-01,7.765747182570927887e-01
-2.946940505537146704e-01,2.077993634151670821e-01,-1.138717856691973118e+00
1.518181299372149962e-01,-1.244546210628339367e+00,-5.098261436097302202e-01
-4.258590424067798530e-01,-6.549476076183363693e-01,-1.411386900183555282e+00
-4.319037983419099502e-01,-7.663996766813574446e-01,-9.372522485586526342e-01
-2.036205796358121489e-01,-1.113763455938075575e+00,8.711940667941063809e-01
-4.576370420280777007e-01,-7.487945307166274933e-01,-7.577923415897318549e-01
6.868239113780088001e-01,7.267077371834269606e-01,1.582856150096789705e-01
-3.699835052283680370e-01,4.541322358482595689e-01,-8.845392649312429079e-01
3.888352809956850675e-02,1.180402431556218490e+00,-6.296596630265414163e-01
7.629183899874985020e-01,7.321981584244997565e-01,-1.885619976765300354e-01
-1.486302515444937411e+00,-1.382212344129852555e-01,-2.291166926395107051e-01
7.462439587762166315e-01,-6.275695392621198632e-02,-7.162130503907030432e-01
-2.981260597074099072e-01,-4.128313475863467641e-01,-1.386121069214749868e+00
1.186577288324711654e+00,2.555166707372540924e-01,-4.918741039823316674e-01
-2.642159088912279241e-01,1.092075386399276482e+00,-4.184929831958357771e-01
7.353515744811653376e-02,1.079448595198403194e+00,6.145367765361102741e-01
6.697374866798030402e-01,-1.946081815868413167e-01,-7.336530041969450133e-01
-3.242581966172842778e-01,2.700233579725770383e-01,9.679679478189805453e-01
-9.848787662330298343e-01,3.636472671197488737e-01,-3.896082176369606853e-01
8.857430975815090424e-01,6.522280516079064228e-01,-2.238628793443243059e-01
-1.195997639832276249e+00,-4.533791851342853230e-01,3.254739224678230292e-01
4.539052371265434038e-01,5.489092962210192495e-01,1.471126613957143281e+00
5.733554822282206365e-01,-1.474262787666365870e+00,-3.460771169982331807e-01
-1.002658085493781215e+00,7.976857895572081469e-01,-1.143035720542339914e-02
-9.851134084654055156e-01,-1.996778931221882825e-01,6.082030784387154609e-01
-3.662432264251331837e-01,1.303315243424292946e+00,5.782285655843032446e-01
4.718792346368504420e-01,-6.786152980802485635e-01,-6.951424623338072761e-01
-4.374657547521411116e-01,2.055070848977370510e-02,-1.185766307567111211e+00
1.376460769087931857e-01,7.425293046302113842e-01,1.150587331926763213e+00
-1.301504194127919067e+00,-3.075783729482391982e-01,-3.459655226322152360e-02
1.034058186990091999e+00,3.557063502129232391e-01,-6.194766111019381905e-01
1.368979014495170232e-01,-1.143668725001038666e+00,5.074829205786697273e-01
-1.895033919385564758e-01,-1.067974754577238006e+00,9.043630315912003503e-01
1.004658415447649444e+00,5.015937825020303498e-01,-7.303133822437515299e-01
-8.579269004909895191e-01,6.412647446401518181e-01,-2.680455984158239269e-01
1.852353121208932529e-01,9.622578534026102748e-01,8.230041942114624254e-01
4.166799804297919296e-01,-1.071469955498509652e+00,3.157178851474078396e-01
1.253541474137964684e+00,-2.751483580146643071e-01,2.532539040735034552e-01
2.749848426953612202e-01,-8.025505929381267223e-02,-1.061837299190615314e+00
1.303919981625978108e+00,9.874638985084135956e-02,4.675585543081661188e-01
-8.261318977471797664e-01,8.288621002364915391e-01,3.612675546176585817e-01
7.822172053372977718e-01,-4.243477650599983275e-01,-5.768232900876132385e-01
1.072949966177134673e+00,1.107183069263116826e-01,-5.254453577161800615e-01
-4.574317086169393809e-01,-9.940962209505838088e-01,3.334083533890360718e-01
-4.481765410498332325e-01,2.439151522629253721e-01,8.686609489749892443e-01
5.571073700209706603e-01,4.496014285854141868e-01,1.468154659839322695e+00
1.195177083407753749e+00,4.233758161137117226e-01,-5.557999334119846369e-01
-3.478261206318645771e-01,5.201945682026132278e-01,-8.087236051672971326e-01
8.754757075816083089e-01,-2.665484697508095357e-01,-5.478850693036965147e-01
-7.956883026904896239e-01,8.612803719881928499e-01,-1.297184350423931931e-01
-5.573914529637782334e-01,7.611636038583523278e-02,8.416731002020541030e-01
1.176190791063810442e-01,-4.750199329583433272e-01,-1.053325223217482565e+00
-4.082642871763165759e-01,-1.078034006927836241e+00,1.063117609582564960e+00
5.187571538232490509e-01,2.080230822140308189e-01,-9.737770517156112415e-01
9.346264294007519680e-02,-1.266020144486436072e+00,-2.207494931346175859e-01
-2.301877634695388142e-01,-1.006613117348782227e+00,-3.409855730960092424e-01
2.339692849400339392e-01,-1.386654934524549576e+00,-4.785266799492612216e-02
-4.448138030863436621e-01,-2.660409371582566074e-01,-1.426711911385781795e+00
1.467655674423331558e+00,-5.410515986228250224e-02,2.242721764011573193e-01
1.876662804659160466e-01,9.782578787400963982e-01,-9.582042628472169365e-01
2.659257481494004538e-01,9.788854308876793198e-01,4.242463820635352101e-01
8.080483528493435930e-02,8.958077388480706338e-01,1.044612918211401009e+00
1.365855773610268054e-01,4.339368551438406718e-01,-1.331794018126577273e+00
-3.548349132006940465e-01,3.938940480535151750e-02,1.033408229945942391e+00
-1.324630574434756680e-01,-3.709140606731999804e-03,1.204260300223884972e+00
4.480057067212063204e-01,-1.514483068831218526e+00,-2.305950776163963600e-01
6.006838958733297096e-01,-3.218078639755345693e-01,7.546080038946315627e-01
-2.534370579545445201e-01,8.213511707441997212e-01,8.176779126441007239e-01
-7.513907611056180880e-01,-1.235362275855264452e-01,-1.037418012314980320e+00
9.026589437588200537e-01,6.992527444903261502e-01,-5.446334377640280611e-01
1.442301637615728827e-01,-4.782902571816479709e-01,1.068164189991055668e+00
1.449862878708025216e+00,1.757455816775426449e-01,1.520411764738195115e-01
-1.214899210719003059e-01,-9.764589676086231629e-01,-9.170335588553182316e-01
1.467400440628409408e-01,-1.304736951569955838e+00,-2.479142909230509506e-01
8.114644401587280953e-01,-7.109512765780198196e-01,2.354790067150275557e-01
5.808308907216740424e-01,5.066198475377312604e-01,1.495069225787309275e+00
-2.536727707353950145e-01,4.408523441599739717e-02,1.096482429539773040e+00
5.100618040342282944e-01,-1.451180928444028684e+00,-8.612091445877753659e-02
-5.081705323692011778e-01,1.854368760929283599e-01,8.296009489468600950e-01
9.610618796771358552e-01,5.602366183228686403e-01,6.182698986235255628e-02
-2.125317080048445828e-01,1.271806552558830239e+00,6.005509521987049126e-01
9.745253728869491816e-01,-4.488552926750097316e-01,3.221616497887198061e-01
-7.962098172489000258e-02,1.302726049106888606e+00,-9.366606819382929106e-03
2.366115318493241387e-02,7.161136726402791419e-01,-1.005449986512971350e+00
2.351345593899565878e-01,-1.399256158461691157e+00,-3.144092923489718444e-02
-3.099231979511175572e-01,9.210046554124677876e-01,-5.440026505614512509e-01
-9.561553230259084435e-01,-2.662856775307564927e-01,-9.406119946130688803e-01
-4.846118200556712718e-01,-8.598089544702459674e-01,-2.114282109134005549e-01
5.180473543374863876e-01,7.355779624849984044e-01,7.123694089187945222e-01
-5.384383013144475871e-01,6.991975438566665202e-02,8.819297611517696867e-01
-1.174475414803607620e+00,3.623778774842501549e-01,-2.136001584485127114e-01
9.072176177538046060e-01,1.629098335289071164e-01,-6.507882755121370266e-01
9.956500204935598841e-01,6.891741948847535104e-01,-7.281298130205953179e-01
-2.482549681122732943e-01,7.264157376617415007e-01,-7.526587071817744112e-01
2.111591174424166661e-01,-1.345248235614644239e+00,-2.879328637619170683e-01
1.305341257544605726e+00,-5.485090807492096765e-01,-1.171209413800897298e-01
-2.841828611308423458e-01,5.257069593388861151e-01,9.017465479633686165e-01
9.993434441664612589e-01,6.045916542890147349e-01,-3.484643607608377547e-01
-6.181853140801840674e-01,-6.543157073829626302e-01,-8.961449100015361768e-01
1.351579484618679272e+00,1.283578533726743576e-01,-3.126372589988353767e-01
5.312101982466966854e-01,7.490190428905120490e-02,-9.203679109493209110e-01
6.281216805123411850e-01,-1.005903036360643155e+00,-4.529353621714748979e-01
-3.650739081625005156e-01,1.348779233152435975e+00,5.527010266748342282e-01
-1.116693253583481482e+00,-4.455597421026353255e-01,7.308013711136539248e-02
-1.409917622825189287e+00,6.710836136132038166e-02,2.047682541569805781e-01
7.652044475080297392e-01,1.525665480638444815e-01,-7.848999181920910395e-01
-1.495991745791495631e-01,-4.590299289093351942e-01,1.355937372132943075e+00
-1.045744929282239388e+00,8.906766636511637136e-01,1.757588145416473513e-01
7.088781729141125920e-01,-6.242007575389314777e-02,-7.508291828850369720e-01
-1.262196052983970140e-01,1.372416200295590860e+00,-2.108821362919966191e-01
1.468877410437623654e+00,1.640497227415817771e-01,1.770437172220169497e-01
-1.553435992533102272e+00,-1.067252624616494144e-01,-1.618233111059269869e-01
-1.083794651965674039e+00,2.026277016778094131e-01,-4.322816198745415006e-01
-6.398245311290933213e-01,1.194527476124086274e+00,1.626658530980746795e-02
2.358490688632223220e-01,6.834244041289859739e-01,1.244219190307929157e+00
2.445169239956384299e-01,-1.228226695167747434e-01,-1.088859620390138172e+00
-7.077627323266247883e-01,6.744826606279686887e-01,-3.968691644833167720e-01
-1.090599106891417813e+00,2.053915595833036567e-01,3.902183107854669264e-01
-6.142898099379076049e-01,8.098961127525121650e-01,5.531751592387308403e-01
2.215929269738650328e-02,-1.155917134641432309e+00,-6.876152432415701954e-01
6.508796853796058324e-01,3.403767695814503003e-01,-9.351217971819580921e-01
-8.813803792692893602e-01,-6.413818248914014974e-01,1.816005903216246220e-01
5.365461680707098724e-01,1.043128907891708090e+00,-9.398793321806584444e-01
5.441033459758193302e-01,-1.279349901123536970e+00,1.248935937382633990e-02
-4.940637188979634109e-01,-8.038132489607723308e-01,1.217243788997142806e+00
6.106305218283530900e-01,7.089529515003755167e-01,6.422411000866365960e-01
4.643090827136837073e-01,-1.540397836113009289e+00,-1.506957406453815485e-01
2.534434944158230896e-01,1.168856807250898466e+00,-7.363023936038736172e-01
-6.458785422974814283e-01,-1.165709799145580178e-01,-1.079350485518793645e+00
7.396510884994506041e-02,1.238883209079781222e+00,-6.220794344031851386e-01
5.661336900383519000e-01,1.009353964348716826e+00,-7.800064518434025596e-01
-4.106532995221024440e-01,6.142428385975796656e-01,-7.024326886108516188e-01
-4.021952715202574136e-01,4.256519877488233045e-02,9.496927492103016677e-01
-4.738952134325200016e-01,-9.789015425350756638e-01,3.845285931641789223e-01
1.049159888500835081e+00,5.054979825094266799e-01,-5.033942398032414250e-02
-5.117213703894998300e-01,6.906555229694092413e-01,6.725385207049846548e-01
-6.807647166201231670e-01,-5.667397143424377504e-01,-1.038165581553895489e+00
1.203732742361896424e+00,-4.691552310624783062e-01,-2.290787873350109694e-01
-1.252896097806639908e+00,4.319610240074451268e-01,-7.322311265072635467e-02
-2.698389829670834184e-01,1.152416330075396234e+00,7.011574107432411163e-01
-1.267742441022616573e+00,-1.169183785989829083e-01,3.901713854352794053e-01
3.444701150645814725e-01,-1.037794608607100155e+00,4.227059819857600931e-01
-1.439638037062676679e+00,1.060092525001916364e-01,1.704026837992214660e-01
-1.152710859048479364e+00,4.974685684682428333e-01,2.216060627980176445e-01
-6.546918259746817847e-01,5.035381607649265234e-01,-5.919906833255437206e-01
4.315696794568781858e-01,1.099624275839542920e+00,-8.299764098939497181e-01
-9.889671282185490409e-01,-3.717354920111301531e-01,-8.451467729765406167e-01
1.203150025328452027e-01,1.113351441319964996e+00,2.971084050603989835e-01
-8.967229891747522386e-01,1.152660440567789379e+00,2.015141719461580050e-01
2.868724199297283950e-01,-6.820012485403272873e-01,7.418391025550524764e-01
-1.413248953548002396e+00,-2.066699434764510124e-01,3.023838470454296989e-01
-1.003038925092576861e+00,-4.879297002012560891e-01,-2.693230785548072492e-01
-1.955659187436337154e-01,3.697680707805522937e-01,-1.113496690012414803e+00
-7.165481952573494739e-01,9.793981190546185989e-01,3.909021093202252883e-01
-1.275482785086180737e+00,1.747099745994222242e-01,-2.915763162059146762e-01
1.723614167245182682e-01,1.002458811422834328e+00,5.746230669373536548e-01
-5.428571393151971902e-01,-5.898927138012303173e-01,-1.396952534309684468e+00
-4.162355619459552902e-01,-1.164935488458044704e-01,1.031729218964914985e+00
1.500050660747183962e+00,1.719066663142627405e-01,1.791687896768727195e-01
3.514803962551910077e-01,1.111783346836691111e+00,-6.987394923540338754e-01
9.678926313178752572e-02,-6.613529919702164639e-01,-9.956602243584921075e-01
-3.836509889679184382e-01,-1.063420576358059311e+00,5.368242631135676790e-01
1.182342584910881289e+00,3.295630888223353150e-01,2.691342455755215690e-01
-1.021738196562537393e+00,9.606502373552949781e-01,1.487712866728090333e-01
-9.507451972526057560e-01,-4.521236809152404112e-01,7.338858365846275822e-01
-1.847850088659430401e-01,1.357335539692890336e+00,1.937530127270591651e-01
3.463742511393091972e-01,4.014429488991528849e-01,1.418313960678820429e+00
6.868608732693245456e-01,8.985093748807942982e-01,-6.309002181837899403e-01
5.230059052767946914e-01,7.428740024717436219e-01,6.911081073039154754e-01
8.884655620678869395e-03,-3.889389114216199594e-01,-1.177738021652772638e+00
-1.141021692273876731e+00,5.531436593530272283e-01,2.554763561245339543e-01
-6.267355118505698597e-01,-3.506906747756818321e-01,9.695846948757824713e-01
1.014379087669095902e+00,-8.013093931100938594e-01,5.632108238782853986e-03
-6.697964667496006941e-01,-5.815058598771289944e-01,-9.708708994329633413e-01
5.766295605199042162e-01,9.037377229214091923e-01,-3.665120975856719365e-01
-3.541283881103843290e-01,-7.681021797660843031e-01,1.265046524455475163e+00
-1.002037445807874905e+00,9.921133960971230126e-01,1.439045866607424895e-01
-8.090688232282624570e-01,4.548010802338903896e-02,-8.146117384279163431e-01
-2.936996396852549762e-01,9.891839266778152950e-01,-4.567149648679098561e-01
-1.230175224874682449e+00,-4.539801717740041820e-01,4.235068366485632563e-01
9.808243889911408830e-01,4.261213471389142526e-01,5.431564858476761737e-01
2.250346458218492052e-01,6.869386957406662386e-01,1.241469488039584901e+00
7.626613594741208368e-01,-5.752251376323644916e-01,-5.226107193905840109e-01
-8.149086731141389484e-01,1.142815052805664422e+00,1.172807415355169164e-01
-1.310007848097179295e+00,-3.293027142250775641e-01,2.027678747412425542e-01
-4.320304717731140998e-02,6.330695964398026510e-01,-1.023468818133622449e+00
9.354362005897968180e-01,-7.858827815374862524e-01,8.653362778950081380e-02
1.342621366219031442e-01,-1.234932501542011174e+00,-5.772328411281943961e-01
-1.079891730632985158e+00,7.084694167223065664e-01,-2.427506741990768588e-02
8.448285294528591338e-01,9.833124151612515629e-02,-7.131742357510036934e-01
5.822452008554763747e-01,-4.565704544894578776e-01,-6.872094158075315873e-01
-7.880796952102939734e-01,1.108160554878265147e+00,5.063202651516012648e-02
-7.538698338311028424e-01,1.111425769351199078e+00,1.070153841036608836e-02
-3.530511825508814844e-02,7.923099259662448324e-01,-8.984327028819700800e-01
5.439748865782446652e-01,8.743158279011873368e-01,-1.210878408251734539e+00
1.011453929816228531e-01,2.601463286011490572e-01,1.288146950494633902e+00
7.545075467971232852e-01,5.571582803384529381e-01,8.051227872546360409e-01
3.535479211141706046e-01,1.052677506719523759e+00,-3.276679290291540370e-01
-3.848901273940413814e-01,-1.015443596502367596e+00,2.030557684268680108e-01
4.295409948832473734e-02,1.309527169696719229e+00,-5.336161135191638261e-01
1.107049888449704866e+00,-4.855320922921630422e-01,-2.869407222752222153e-01
1.104490308432863749e-01,1.063781258583490708e+00,4.372236806337299608e-01
3.628863667693881800e-01,-1.285088429420915501e+00,1.830849237497541304e-01
2.934095076661819568e-01,-1.220525624945918208e+00,3.107889215785840098e-01
-1.437861998232763394e-01,-5.939404487154659879e-02,-1.398136590407783819e+00
1.519286296235750761e-02,-9.605755754777823840e-01,-9.518474597558022054e-01
3.330496790450550304e-02,7.737871698410453414e-01,1.076377722350026600e+00
-6.972880629516544637e-01,9.881578035798509463e-01,-1.221848843802324225e-01
8.631747657170896204e-02,-1.019022449282947163e+00,-8.679434932415738269e-01
-9.741696842465304984e-01,9.230122495535010296e-01,7.748322211831953910e-02
-3.697240478613075809e-01,9.624492606786143600e-01,-4.821718622625520423e-01
-7.005369161634666941e-01,-3.276436650702552744e-01,-1.215656199606497401e+00
4.708203121637996591e-01,2.235387204913841519e-01,1.364175176250523203e+00
-3.897258623575156067e-01,1.447332414357924479e+00,3.642664598209305327e-01
-9.069075428627461077e-01,5.427719668182656720e-01,-3.276281296521968422e-01
-2.012740714945184528e-01,1.343807205300960872e+00,1.735509842902672184e-01
2.723828314167285880e-01,-5.742734706050248161e-02,1.273967702804321256e+00
1.620485990568584500e-01,-2.840585870981955918e-01,-1.079156574838456395e+00
5.934409127657354344e-02,6.794118524243641932e-01,-1.076068594365868547e+00
1.355631745312247012e-02,-7.799532579378478658e-01,9.435862795644086587e-01
-5.547878379230927193e-01,-7.349480094476256165e-01,1.154058558228101328e+00
-5.326205210118538647e-01,-7.178124717154997780e-01,-7.208379672852586184e-01
-1.149022992554743494e+00,-5.346714324224043358e-01,5.434887117563488301e-01
4.176994991253132894e-01,-5.431441396423681844e-01,7.507278180608928375e-01
2.608357768459964587e-01,2.533919473679645540e-01,1.432483871758181593e+00
3.233627148444459531e-02,-1.165178383935399076e+00,-5.833819557704843506e-01
4.431963256697988851e-01,-1.378837313029524614e+00,1.020002364205225762e-02
-3.767044908455668972e-01,-7.895114260074613810e-01,-8.658298809444361366e-01
3.951266717499273273e-01,1.131138184046224016e+00,-8.825698829133711287e-01
1.291808826076084049e+00,2.923376851870236326e-01,1.671675625913349728e-01
2.268062831710866423e-01,-1.009257263695946039e+00,5.211601188768782977e-01
-2.691409231728084106e-01,-1.034249010443798911e+00,7.071067541732853345e-03
5.869381747746050815e-01,1.043593593949754927e+00,-1.092512795026591821e+00
-4.749749871167896487e-01,-8.769088162519192986e-01,-8.364017803345193125e-02
3.069695299577448466e-01,-2.675478536617421632e-01,-9.560492588835610706e-01
6.087146864913810518e-01,9.334473171792647683e-01,-5.801583595901202983e-01
2.157091592819068426e-01,6.544945123563993272e-01,1.228266289778664255e+00
6.556897517779834983e-01,-3.742139856764394312e-01,-6.861939040075432095e-01
1.821625012857706061e-01,2.992172806300396823e-02,-1.177922131707514142e+00
1.133006518681864527e+00,3.187962971012681668e-01,5.868757058028321039e-01
5.817059345583125429e-01,-1.165849007534868198e+00,-4.520333587332730496e-01
4.091251247742066499e-01,3.189988526398362251e-02,-1.025061391979787517e+00
-1.222872721958906395e+00,3.036140821942550083e-01,-2.261045151178418255e-01
8.211356038420145609e-01,7.094446436111367937e-01,-1.887636495568065231e-01
-3.107403321514656258e-01,-1.139245632192850799e+00,9.186006624365744555e-01
-1.315622182084441372e+00,1.556808237959973473e-01,-2.652638089006044697e-01
-1.277382986034505841e+00,-6.993364799331523718e-02,-4.961036114487075155e-01
-6.620416468061425253e-01,6.139873044622217169e-01,5.637403819621068513e-01
6.053423827850142880e-01,-1.137637489765580323e+00,7.980474463983522337e-02
1.346132381031932557e+00,2.207298906916462800e-01,3.543580712125985466e-01
8.964679019256110992e-01,-3.707567482460347175e-01,-5.066644233505960271e-01
-7.789163206153160157e-01,1.733934817322228539e-01,6.450402858058180700e-01
1.134776326492500410e-02,-8.003663946855937850e-01,-1.017663218930789482e+00
1.861296581354374702e-01,9.073148205720267256e-01,1.018936250614864036e+00
-7.866217218865145799e-01,9.352075769417773632e-01,-1.029916627208654900e-01
-1.265229012218926474e+00,-2.600601219343528503e-01,-3.493583259395107166e-01
4.863923950133743762e-02,8.147066763724816196e-01,1.060975681271752125e+00
-9.176092158193001058e-01,-6.347363112857664635e-01,8.488051183299188951e-01
-1.635063933471613273e+00,4.770355066429258356e-03,-1.172982267808837659e-01
3.916866071018068607e-01,8.485883570047771940e-01,6.210930876893728803e-01
1.267662612390853205e+00,-3.795367357072431114e-01,9.760371854612237552e-02
-1.564696956472803879e-01,9.698757393249973768e-02,-1.368849376302379017e+00
-5.146739535083354466e-01,-8.703402647822165994e-01,-8.566564760854657179e-02
5.217712003006234056e-01,-1.028993799427973421e+00,2.507247384310446470e-01
1.407438541116923014e+00,2.595100998523712788e-01,-3.270236198568701735e-01
7.212849472627327341e-01,3.803454878661162164e-01,-8.795064862427411922e-01
-4.070573459312491482e-01,2.879508868073955563e-01,8.921555161160865666e-01
1.116595661867107458e-01,4.124061885567302244e-01,1.252012693524345854e+00
-1.244025128722138496e-01,-1.156425737078836224e+00,-5.069283048445812762e-02
7.827415308704903651e-01,-1.096005866163122233e+00,-3.159031380827561075e-01
-7.871515775335268250e-01,7.478342712244022694e-01,-2.487754645301414880e-01
9.096557928442300378e-01,1.455416216036521382e-01,8.782965602707223374e-01
-7.893139531339478099e-01,-6.565267825259060164e-01,-1.439887422359338864e-01
-1.555684728292189289e-01,8.931997159395792529e-01,-7.161422251286999607e-01
-5.479750614353637861e-01,6.084493491121983899e-01,6.703560123485131639e-01
8.860506406762979070e-01,7.574497678881053631e-01,-8.802481332870828457e-01
-4.014356246211543966e-01,-6.417696966202933728e-01,1.221314477539592547e+00
9.007694791092136777e-01,4.604592049913867613e-01,7.698540950266417049e-01
7.767198933636868530e-01,7.743300015648407753e-01,-4.698393383662030076e-01
1.035472005593705447e+00,-9.657996867647952177e-01,-1.797564029956762732e-01
-2.407933718649641064e-01,-8.825988367290693581e-01,1.078970039630653410e+00
-3.743082818473100204e-01,7.985163878479185628e-01,7.246854556700981220e-01
3.229270845093658027e-01,-1.166327282387453979e+00,2.944860027398453206e-01
4.887075683691023964e-01,6.006965909697903339e-01,-1.159055011052140038e+00
-3.206015398144377859e-01,9.941023622043541064e-01,6.956906554172493928e-01
-1.210672435088947951e+00,1.398113451519416295e-01,-4.120261520192631810e-01
-8.247258400675520074e-01,-1.591436060572914701e-01,-9.676142093696395996e-01
1.298461546871637617e+00,2.883396135086551682e-01,1.402212476859237555e-01
-5.089592282715863503e-01,8.632870291323806178e-02,-1.069288351946741322e+00
-1.330493947149498313e+00,5.163119141481117280e-01,6.625139843892521863e-02
4.070332998472183661e-01,4.690151912581273508e-01,1.446038871878359444e+00
1.703295439007373180e-01,1.098936695446907086e+00,9.790238897117607697e-02
9.282439112725571206e-02,-5.526925546613371543e-01,-1.021608691519022338e+00
-1.486382013391907231e+00,1.551078999384619961e-01,-9.741377138563847571e-02
-6.796429421974741203e-01,-5.207032443264301147e-01,-1.224916147355065599e+00
-6.988125313833559726e-01,-9.015317063497491068e-01,8.054110097401525614e-01
-9.105949790716904024e-01,-5.727620667979931302e-01,-1.494880253769929612e-01
-4.031012575698605938e-01,-7.906229976845767782e-01,-8.788624077993293371e-01
9.186241032318914757e-01,3.013080538885928861e-01,-7.219199832631926217e-01
6.828364383704048357e-02,-1.002197192525005887e-01,-1.221060044500645869e+00
-3.798982729363984956e-01,-9.699655830618064689e-01,2.431824677774109197e-02
8.294662264170283850e-01,3.800706638966767636e-01,-7.878883058917902638e-01
-2.316315633782816130e-01,5.814709308966676815e-01,9.253705169794129715e-01
-2.475121740900818046e-01,-4.218181256571453819e-01,-1.344409505731776422e+00
7.388435637523307342e-01,-4.874556896041564169e-01,-5.674283540301950923e-01
-3.711036253032185539e-01,-9.010992132339720184e-01,-4.515784799415751838e-01
9.176325825390414526e-01,6.558900411435139022e-01,-4.045280982200133990e-01
4.721716532155847967e-01,8.338305163659429642e-01,3.730573577944673036e-01
-5.048454768076225951e-01,-2.445138450306827416e-01,-1.315251819306586745e+00
1.017591676063001715e+00,-2.077354833944248802e-01,-4.466312253523070375e-01
4.455525651693562628e-01,-1.105796121450107472e-01,1.074716766575211535e+00
1.386623000272230177e+00,2.779769163070777149e-01,7.853850239358601409e-03
1.426466124003627600e+00,-2.150920141767815041e-01,-1.201366332465091946e-01
-3.711287021080564297e-01,-1.081542927560295020e+00,4.879543337274578341e-01
-7.928717445669188901e-01,7.742891055462645111e-01,-2.573994927976983038e-01
3.212981482546717893e-01,1.268458128866213064e-01,1.405604018383866505e+00
-8.951520974408119224e-01,5.057433999346904602e-02,5.972442950618307433e-01
-3.044248260597877120e-01,3.437231787707565878e-01,-1.043615664288667144e+00
-7.086235875196321699e-01,4.467826979496141160e-01,-5.700905011720373006e-01
8.013229315664971431e-01,2.221242179083534052e-01,1.034999843436978928e+00
2.085533390458389480e-01,-6.171506502005310590e-01,8.771828817392055555e-01
-1.270777556480153780e+00,-5.173747984424591218e-02,-4.934803499444652686e-01
-9.214977183896158053e-01,-3.291335075781747777e-01,7.066060704289489625e-01
4.359839013412701858e-01,9.056924631504282841e-01,-1.217177335498129453e+00
-2.373258837658731302e-01,-3.124232314063223326e-01,1.206285049891244965e+00
-1.207230831810462979e+00,-1.410527712850223048e-01,-5.794390374585117742e-01
-4.381379058405588944e-01,1.516858110210625332e+00,2.526829771919076317e-01
-1.024516179730584620e+00,5.054011502362494301e-01,3.442046071337821478e-01
-8.521081633059292004e-01,-6.206633903839076788e-02,6.785662410060903094e-01
1.425488380261424881e+00,-1.931660156065714840e-01,1.475556812622237646e-01
-8.844379492771785589e-01,3.011790103112238492e-01,5.310233364473200268e-01
2.794883936471910801e-01,1.050238997917807282e+00,-1.389621421364038538e-02
9.273820031273048992e-01,-1.345463091477541451e-01,6.395061281183648250e-01
-1.683796741694658372e-01,1.339488302304473244e+00,1.059421449580733032e-01
-5.847582539190979700e-01,-3.614647805588007135e-01,1.007278800939795049e+00
-6.382015014262832908e-01,-8.444494383790654424e-02,8.323405833615953320e-01
-8.486468284535035878e-01,1.615777828126311322e-01,5.815454184944881533e-01
2.373183105499445666e-01,6.682005790683925861e-01,-1.220248079891282034e+00
9.276772809671715025e-01,-9.435561181519254159e-01,-2.821053798112367894e-01
-1.092674499405901223e+00,3.331360300922512341e-01,-3.327686703965070381e-01
-2.320158876043184326e-01,1.214473031538101822e+00,6.802725914252998329e-01
3.757183094714997007e-01,8.180156680649568468e-01,9.525196976294022511e-01
4.591513773288216638e-01,1.487540632523971229e-01,1.305019997378754626e+00
-1.173991041104003319e+00,-2.174163823631956038e-01,-6.820238830757054949e-01
-1.252482123379987433e+00,-1.486925338921028239e-01,-5.673122849338618767e-01
-1.165519970568928310e+00,-4.763495789718654172e-01,5.825858068238192189e-01
4.377945275673298699e-03,-1.232361493265117680e+00,5.502394505008958436e-01
4.531296037383562847e-02,-5.128983998161943392e-01,-1.083635922751638558e+00
8.435686777337496611e-01,5.851049780726989002e-01,-8.813227448095392047e-01
-2.349336277431297026e-01,1.162324015809772959e+00,-4.140145894649466252e-01
8.460667747479160283e-01,5.439132692737280728e-01,5.330200953483309467e-01
1.153192180012766910e+00,3.129580001646475873e-01,6.057424869919398880e-01
-8.175903876635238765e-01,7.780478886475155065e-01,4.424991097699971787e-01
-1.269177242768173564e-01,1.194196083054139157e+00,-4.790783394914067128e-01
4.358473465830490778e-01,-1.165929192358303279e+00,-5.615160775830625450e-01
2.920072233782668170e-02,-1.219407761781342137e+00,-1.901379164419860213e-01
6.055126281559667367e-01,1.052285544656736294e+00,-1.202106915489951966e+00
1.400267239327384283e+00,1.785999752722043921e-01,3.352317756624206835e-01
-7.019731834139274484e-01,-9.318932508829738115e-01,7.739460781007626577e-01
-2.654212327777850239e-02,3.222517083195399756e-01,1.177653778607459900e+00
-9.062059461763215251e-02,-6.103476993229567382e-01,-1.166011503255710346e+00
-6.515861475806938863e-01,-6.283019966994494165e-01,-8.388154246326992025e-01
7.076858679767982462e-03,-1.218062563792182251e+00,5.518053467156012193e-01
-3.841433103761106305e-02,-1.302453142113149109e+00,4.455175045750026652e-01
6.158052032078252525e-02,1.188715388671199413e+00,-6.436830519422008789e-01
6.407444276766560698e-01,8.219078908903489911e-01,-1.109505334082043992e+00
3.819929913155272194e-01,1.067334939810495875e+00,-5.909203419579710514e-01
-1.611895292196943996e-01,3.674557654229310688e-01,-1.146176789335761947e+00
-1.204521428928082560e+00,-4.113573683730448183e-01,7.375588168915327147e-02
6.642474536903610893e-01,9.021080477757664751e-01,-6.259601598090954733e-01
5.231127808332910467e-01,-1.706993286390825759e-01,-8.469642342469311247e-01
-8.908075262783232695e-01,-5.250429141770259767e-01,-4.344039270841310585e-01
-1.186084118214379535e+00,1.026727992289097613e-01,3.609318509143359388e-01
9.696317430228336143e-01,1.547415706030462988e-02,-5.663940910287440511e-01
-4.455439593230612894e-01,-7.459731107728887478e-01,1.249261985778479911e+00
-5.538208555225216934e-01,-1.048885659896351852e+00,1.038063207300572888e+00
4.972731240748728965e-01,-1.310500706228013401e+00,8.712171288310350745e-03
8.538216651342317443e-01,6.451181223894513206e-01,-9.000621565347191044e-01
-1.264007289982687521e+00,-3.440328510359901282e-01,-4.867500698106771301e-02
8.712526574050705186e-01,1.207923905031668549e-01,8.933973962176413597e-01
1.969873421493326948e-01,2.105912661887044124e-01,1.388569985823897124e+00
6.814043617159036836e-01,9.498626885499741324e-01,-1.017794534842460408e+00
1.196704490587574332e+00,3.183261758834801669e-01,2.764576355741089064e-01
-1.403728470672374495e+00,-2.034633592013463388e-01,-2.435606401013616640e-01
-1.604701291412079234e-01,1.139441848219770570e+00,-4.935010640888785605e-01
-1.237927419733645173e+00,-3.943724940351922559e-01,1.361959806630204384e-01
3.973097727263483758e-01,9.511675026301205094e-01,2.200637998976779416e-03
-3.925240557928766916e-01,3.572830545767409216e-01,8.709874342647137002e-01
-1.866196021554699103e-01,-8.495510989061390017e-01,-1.153150279316293769e+00
9.097285624752036171e-01,-8.215780626047322066e-01,8.260010065856965289e-02
-6.535634274005731603e-01,-1.163125232090368583e-01,-1.064206096172540583e+00
5.645994780883312192e-01,6.137260149670732412e-01,1.097235835410487637e+00
-1.882317089317161185e-01,-1.083516793160187452e+00,-9.370397163200029633e-02
-4.877678363181812138e-01,-1.095360614839006042e+00,1.098001858394044072e+00
-1.201448389826195839e+00,-2.495381268911827377e-01,-6.290601628545456903e-01
8.394379664809860087e-01,-3.315659558345595004e-01,-5.385172184261257655e-01
-5.507522488856992915e-01,-8.951235328268063451e-01,1.671537211068900297e-01
1.393858762919242489e+00,-2.882346385402811406e-01,6.790563285630124568e-02
-5.852437112993768425e-02,-1.095700089340185368e+00,-7.191128555672826606e-01
1.342272350249908541e+00,-4.442695174632727007e-02,-2.495505305544208074e-01
9.067779942922382652e-01,3.872157883637320497e-01,9.678026911015271683e-01
