5.706494391041964098e-01,1.082173615371996522e+00,-3.669411623357498597e-01
2.392838716769079555e-01,1.091641853905431114e+00,-4.653002724838572468e-01
2.439986732731217189e-01,6.593481420273324956e-01,9.329620033315713101e-01
3.160497478544241901e-01,1.406549288644598494e+00,-2.851038088165910867e-01
4.832217961621192437e-01,3.965766446955578117e-01,8.577755211605949670e-01
-2.930292243210083636e-01,8.383655841953925325e-01,1.237389560698018087e+00
-1.794161145387197440e-02,8.636508924448881297e-01,1.094823576183190150e+00
-5.793713318896383940e-02,-1.406646450946556381e+00,3.146962795183418093e-02
5.621790428414891877e-03,-1.455364827126365834e-01,-1.296356885995036068e+00
-1.408209081214225888e-01,-1.073173739551363665e-01,-1.335360151501346238e+00
3.124905712108974262e-02,5.007105643232228065e-01,-9.263237133332616891e-01
1.049391789162203770e+00,1.048284248870540447e-01,4.060079501307630179e-01
5.349300446296967326e-01,3.294927246109954910e-01,8.611133810627829011e-01
-8.449255878658084029e-01,3.979786702207223636e-01,-1.110896574765431577e+00
-9.590748932601265986e-02,7.585783250318193227e-01,1.276790316393237257e+00
1.308385384840239363e+00,-1.880325237401239413e-01,-7.263865148856214760e-02
-5.861642608736383764e-01,-8.253326999953582988e-01,-3.524896838969017177e-01
2.510179723041824906e-01,-5.803894648726289907e-01,9.816171059564745560e-01
-1.299765571722707180e-01,1.085641089739209475e+00,7.231053108196817680e-01
-6.149831626428081677e-01,-8.504362090135328955e-01,-3.173411558852706760e-01
-2.908332228660023833e-01,-1.093921731633251904e+00,-4.851233258966613504e-01
-1.780739769757012647e-01,-9.316667680057947321e-01,5.971644072208597276e-01
9.193611070386913386e-01,-4.528080394370573303e-01,1.067411985501847793e+00
4.061583077632445749e-01,1.169897931987538886e+00,-3.879820264044829825e-01
-8.866871768315688351e-01,-1.380615042498677669e-01,7.825982165621652165e-01
-1.199851040700445903e+00,-6.087265764074294844e-02,7.105778391278037009e-01
-1.885460951423575116e-01,8.016397442570731835e-01,1.330465242729137243e+00
9.814249776538203074e-02,2.612804969246692033e-01,-1.037319682341140581e+00
-2.948767926032846431e-01,-1.407486083144043665e+00,-2.258636889685619042e-01
-8.782336977419599178e-01,8.019609076832572292e-01,-9.522417409421749523e-01
-3.632148376945008028e-01,-2.647424348039159603e-01,9.266866284451643621e-01
-9.820248908475081029e-01,2.543462078822743555e-01,-8.288120765948742141e-01
-3.857757137259526514e-01,-3.178343888087228897e-02,1.072707341316443186e+00
9.806424004160152474e-01,6.356162697785351368e-01,6.475405631161710619e-03
-4.920192125123166171e-01,1.058313078560550125e+00,-7.888680644356417249e-01
4.884682192868972650e-01,-8.218503188451609098e-01,-4.673491855891976909e-01
4.576232467740140031e-01,-1.071240842562165119e+00,4.756228481721342383e-01
-8.123629752422472095e-01,4.506970500113889888e-01,-1.194785821155036842e+00
3.366451961738409215e-01,4.080479080679013104e-01,1.021932946544921172e+00
3.412444189716167808e-01,9.134196934436072945e-01,5.693300578697543246e-01
-3.354040879035979361e-01,-1.164227195874231402e+00,4.147990565313627309e-01
-6.495713193166737127e-03,-1.079502433404789574e+00,-8.514469376416399227e-01
4.871207392080882936e-01,2.089175545566868963e-01,1.004134124465494882e+00
-2.199910390034522378e-01,-1.293970084790408759e+00,3.820862146488683830e-01
4.100977176809924574e-01,-7.100995291456591030e-01,-1.335347359106384912e+00
9.225943681388170114e-01,-6.203850235936396729e-01,3.458093469528971120e-01
-7.803053979810850027e-01,-6.652824793302070105e-01,5.225243512589466954e-01
-5.529818501543808384e-01,9.233919985653286089e-01,-2.576004020343550249e-01
9.572667249549169366e-01,-3.285350070014185775e-01,-7.824810857225459326e-01
-1.178097163378701184e+00,-2.156463286759457421e-01,6.127826608176053513e-01
-5.221430967422878711e-01,1.083843339818610640e-01,-1.234631181001479838e+00
9.609163533298127335e-01,7.867506090574920563e-01,-5.123762947496712100e-02
7.402419191286601086e-01,3.935112648434969662e-01,-6.928783494419883393e-01
1.169257487554498320e+00,-9.165683982118195960e-02,4.375960191384460907e-01
7.596888056247335097e-01,-4.693326435769067800e-02,9.238022315271349205e-01
1.181521220306656961e+00,7.550945110314165598e-01,-3.245929817898880465e-01
6.449021905453085068e-01,-7.185374821260610556e-01,-3.599295307060879634e-01
-1.196056627882452039e+00,1.972573014246455647e-01,-4.908353138720506492e-01
-3.252997256273042481e-01,-4.495041434550931525e-01,-1.006660907137164829e+00
8.237354707874260384e-01,9.589770726879253138e-01,-3.537683391754687379e-01
5.759646097142765431e-01,-7.291336427546580845e-01,-5.232014273653540215e-01
5.959676761183635429e-01,4.107457454591357804e-01,6.876581169155615569e-01
6.543703183318554384e-01,1.020579140025594134e+00,-3.715600740309209504e-01
9.593632672385261628e-01,6.385138562441357302e-02,-8.091638784134602691e-01
-2.775619626866511758e-01,-1.350275039107132979e+00,-2.945081737572886604e-01
-1.872314783756679202e-01,-9.262443700767157839e-01,6.048988301751108132e-01
1.171951642262120341e+00,-1.118585405918515741e-01,4.213267018644650252e-01
-1.043720721291809150e+00,-8.173197472229907223e-01,3.436847962981374183e-01
1.874891703884672411e-01,-1.190963918780372888e+00,1.435886879589399340e-02
8.788885039910446784e-01,-2.468160004345848479e-01,9.506979750916122462e-01
1.429546662785094568e+00,2.672828849440221921e-01,-4.889721589232559062e-01
3.500272407316596945e-01,9.340487886069570589e-02,1.292998633021050336e+00
-8.755142385766295776e-01,-7.503808072917226291e-01,4.351762442394510044e-01
1.040941976521177814e+00,4.991842857711657477e-01,-5.333410038449925006e-01
-2.105910439633696951e-01,3.753152422169866304e-02,-1.296392908758351670e+00
7.692213381284624951e-01,-3.606018418937720349e-04,-9.206982727805600453e-01
5.052456029228584722e-01,-8.837791168828074140e-01,-1.746599470550091321e-02
-1.750723072322086238e-01,-1.201173246228875557e+00,-5.515732766523345765e-01
-9.083965629908600237e-01,5.628190219897145630e-01,-1.029085547158418296e-03
-2.617036604174873271e-01,-1.656134935082953230e-01,-1.343847909721236356e+00
-8.037956052608093982e-01,-1.055532266207097836e+00,2.705327032818490296e-01
-3.909164500984975699e-01,9.551476262871761991e-01,2.507092723671776047e-01
1.035032913536644505e+00,-5.516501976024160703e-01,4.364512074890606885e-01
-3.527584393346563374e-01,-6.361999394216053538e-01,-8.269224802084769177e-01
1.604187415744277034e-01,1.282402920951531300e+00,4.625369739659186408e-01
-4.743834882708824474e-01,7.418018089447927510e-01,-9.884608719368954688e-01
-4.850011534053069728e-01,-6.410924311788037677e-01,6.487213563221624346e-01
8.816156947433839708e-02,1.470703271605292350e+00,-2.160006149727161651e-01
1.106013175630057077e+00,-2.983622084910861685e-02,4.718539924940153840e-01
3.525561346421763331e-01,-9.795273698107076488e-01,7.873444375149198926e-01
5.524054758248166802e-02,9.902596000813422839e-01,-6.324776291604862211e-01
1.739483406186521919e-01,-6.779695436424648669e-01,8.841749762169746063e-01
3.199128614212819466e-01,2.443053044748374480e-01,-9.507339135208575653e-01
1.808556108118329342e-01,7.040423078558425418e-01,-7.419435625644063004e-01
4.917541397417706794e-01,1.443803206023479779e+00,-7.172638979132643644e-02
-9.389308280718063893e-01,5.711701218350795362e-01,-2.482493656111331437e-01
-5.468756942266473492e-02,-3.278283843926634300e-01,1.012437270336717043e+00
8.980066595850069722e-02,-2.188396075856689493e-01,1.136056754052216844e+00
2.051340345894721862e-01,2.261321420094254131e-01,1.332679270429318441e+00
-6.634885427944741121e-01,-9.319885679720670835e-01,-1.855069637543436956e-01
-1.069892227094064951e+00,5.291374650769801180e-01,-4.586020679034428227e-01
7.142824290628064787e-01,-7.804929177099434456e-01,2.168490320657457948e-01
1.786596381046826887e-01,-1.189072427022114908e+00,-3.770853606253540130e-02
-3.109168321803350010e-01,1.037275042962526816e+00,1.507541691242716142e-01
5.721981594877812993e-01,-5.819135140042447363e-01,-1.067516316324883086e+00
1.515825200038951603e+00,1.046228861551752320e-01,-4.563445033242959359e-01
-1.063678302582753865e+00,2.255465303349810657e-01,7.686681460733313376e-01
-1.079954640498702045e-01,-1.438067312386177354e+00,-2.894879038933693277e-02
-7.342236687258716366e-01,2.592441401690590563e-01,-1.121553856254763781e+00
-5.671917601327369773e-01,5.628187182725761240e-01,1.219309596716913857e+00
2.602300179725734464e-01,9.861157468315850938e-01,6.400837281017706104e-01
-3.727232750403958184e-02,1.203515661338281806e+00,-5.377005191763073455e-01
3.481908235867511858e-01,9.307147293051801773e-01,5.662272776853708445e-01
-1.135041055195906479e+00,-5.994779476174895150e-01,4.081722953622756722e-01
7.735557543100988198e-01,-6.868214215905534825e-01,9.071801276903102007e-02
8.743682882769314713e-01,-5.003271074074129299e-01,-4.023370838531531435e-01
4.212007056422779061e-01,-7.026148220625759722e-01,-1.239186993457663588e+00
1.003880602090390761e+00,2.057324385211158901e-01,3.757695426364364710e-01
4.563469142637874287e-02,1.113481117477580717e+00,7.895596539878608766e-01
-1.963810894313645361e-01,1.263338876436184588e+00,-5.861258261785351475e-01
-2.016846616301447848e-01,2.355879926720786527e-02,1.136742926102514151e+00
-1.279247451600956875e+00,1.588407116161539567e-01,1.644420707396044012e-01
7.123833706971215429e-01,6.478221246430582170e-01,-5.483331587100076510e-01
8.834138570007876723e-01,-5.099458945620874983e-01,1.169598858936739427e+00
1.373860728907141837e+00,-1.053079414049510054e-01,-1.948618662264725576e-01
9.276171224090801193e-01,5.918562546288548276e-01,1.311702998301280954e-01
-1.192374799578435951e+00,2.550052809859157943e-01,1.491184234895603089e-01
2.215496025965427718e-01,-3.142652148574174298e-01,-1.315491134194996858e+00
3.572602605420138189e-01,-3.304937702184154724e-01,1.185358430518405948e+00
-5.861236606297310914e-01,-1.123746989348176628e-01,-9.981279169565586695e-01
5.372391390512026854e-01,-1.956255921659300068e-01,1.291328834390926383e+00
4.517741747818137740e-03,1.415311416922664933e-01,1.329041145793316003e+00
1.799983059729295121e-01,-1.170011429276516468e+00,-4.384481508967359026e-02
5.590585571331487813e-01,-2.763298789826341695e-01,-1.170561244498960596e+00
-1.416098362766505525e-01,-2.373736962934782369e-01,1.014657038313778292e+00
1.851877788661866753e-01,1.114100273958618326e+00,5.944953091292216607e-01
-1.504331453512687045e+00,-1.257000406820683314e-01,5.405773033806279271e-01
-7.935950913519206340e-01,-3.721679224282138931e-01,7.201742628354949050e-01
-4.420947530846293660e-01,8.241298657806636063e-01,6.324488813615688487e-01
5.297996618509676070e-01,-8.529754171551486852e-01,-6.410982128789327605e-02
-5.190350330614856844e-01,1.125201544362076783e-01,1.082491557279408267e+00
8.167282246330137552e-01,-7.565873545510060083e-02,8.421990848668583496e-01
-4.474240549658571320e-01,-9.020619337188504616e-01,5.130262387156234727e-01
1.114469458032984139e+00,2.524910272950232071e-01,-6.120968046739737600e-01
6.605593266098992444e-01,6.373173742698480249e-01,4.156991975797932892e-01
3.768322763424498123e-01,1.295324763711421578e+00,1.891855017222575097e-01
-1.396211464938144908e-01,9.147129618446645516e-01,-7.637511356849099320e-01
1.334376248520518837e+00,1.549061417041371902e-01,1.735184733867993490e-02
-7.128032032811609797e-02,1.218222815046604568e+00,2.554953668600008498e-01
1.500118521182421984e-02,-2.976556401807413654e-01,-1.380603738252248913e+00
-1.266743242106208311e-01,-1.321224559928775744e+00,4.296832898881818852e-01
1.545859491681359499e-01,-9.577760353705432328e-01,7.361965826934621093e-01
6.751466369998055939e-01,1.147257991497304397e-01,-8.858500720310377163e-01
-1.044370331084876202e+00,4.318047315605422765e-01,-8.900937691634811522e-01
3.516476262621321541e-02,8.952766995136416384e-01,-6.808794461370123452e-01
-5.158270040018539948e-01,-1.371381128107215019e+00,-1.640098549917669637e-02
-1.939954148160177860e-01,4.961261910369835215e-01,1.441475478355935369e+00
5.997025228060971491e-01,-7.298674848604699283e-01,1.060827397493111945e+00
-2.488896193362436782e-01,1.248049828948586626e+00,-5.911165220004244159e-01
1.117979290044346596e+00,6.328505162963794506e-01,-9.029599383650874223e-02
7.239806819949151651e-01,4.894902724660430970e-01,-6.514233217832336997e-01
-9.334252851085558245e-01,-8.273238838744952917e-01,3.166236409627917053e-02
-8.867973275762102148e-01,8.121809623212351836e-02,-7.844939010044278405e-01
5.345925671020054226e-01,1.470509800965140168e-01,1.013559407841481352e+00
1.688670846853615737e-01,7.236721804580109607e-01,9.585439679134606372e-01
-9.665234961756614673e-01,5.220692320655523355e-01,-9.099082515074205513e-02
3.076939038234705048e-01,-8.606342639632836855e-01,-9.931935007885078770e-01
-8.171852495755558277e-01,-7.037976605757195747e-01,4.887930176000459537e-01
-5.396892047115873364e-02,4.372208265474036293e-01,1.440451382716916084e+00
9.978809976077592792e-01,4.741186647629483941e-01,-5.474474164102682838e-01
2.775751434624668668e-01,4.865887993309436083e-02,1.355974775890337325e+00
9.803078062049844776e-01,-5.375597020656113223e-01,1.049049003661737700e+00
-1.644363179809885112e-01,6.695908827744669889e-01,-8.932677581643061471e-01
-2.258331465828911089e-01,-2.631196083546013531e-01,9.598713181757145829e-01
5.329258871977181344e-02,-1.127195113880080646e+00,-7.638283152914978613e-01
5.260334117434748435e-01,9.428318000415458755e-01,3.192874479704387869e-01
1.843851856528969657e-01,1.407135795202023143e+00,-3.364779912596980171e-01
8.939158794637294125e-01,-3.010309697155144626e-01,-1.027524870215501318e+00
-1.153847418074941400e+00,4.739594650671037357e-01,-7.061809850206237638e-01
-8.467532498653493889e-01,-1.891123850457916700e-02,8.744172709976176794e-01
6.386838181954507254e-01,-8.361614454192806134e-01,1.926614987349496155e-01
-4.811035324894438747e-01,-1.365170310178375868e+00,2.278002579120804449e-01
1.216158514867319962e+00,-3.967746120434176293e-01,5.894177065953905004e-01
-6.691233029772263308e-01,7.991957302397002527e-01,-2.801109361401181719e-01
6.659914526590183792e-01,-7.068683969796756283e-01,-2.800224261792524372e-01
1.796019437682591091e-01,1.560425224815771728e+00,-2.444283813360342839e-01
7.024506760592059695e-01,-9.400428645880296585e-01,8.362893919032504675e-01
1.747619014154440376e-01,1.352065712286469656e+00,4.119029976052375197e-01
6.250648578959223656e-01,9.391468686919449693e-01,2.260264936069095731e-01
5.661944836489737343e-01,2.260718625556534800e-01,-8.533062614167016280e-01
6.199623084078376145e-01,1.936114536733040681e-01,8.747776340390385208e-01
6.095057559390438806e-01,6.824126575498390412e-01,-5.555720902254835947e-01
-4.825087085778484997e-01,6.539081740366011752e-01,1.248248733871150540e+00
-4.644120136089374684e-01,7.799298903940684591e-01,7.302006340602466006e-01
-6.403614219652967732e-01,-6.380491156704901634e-01,6.066183372359843506e-01
-8.117223410038275633e-01,-6.461606773204586762e-01,5.263732584783019641e-01
4.106514030408820459e-01,-1.061241237211950406e+00,3.733899894638366690e-01
1.061095783370606949e+00,2.028238881812668426e-01,-6.836629118674996120e-01
6.689670186969407517e-01,1.127981735868048174e+00,1.507467887123258368e-02
-1.727652151018259363e-01,-1.290027821420329346e+00,-4.810460249685982737e-01
7.328833700691678166e-02,-6.148175713892043426e-01,-1.352179978019722562e+00
-7.804328334685605162e-01,-1.128202209860237198e-01,-7.484473546495176155e-01
-2.949067768390967181e-02,-3.371849875547969777e-01,1.002201022364986205e+00
8.136603039460130748e-01,1.059066755743947708e+00,-1.090188465050686284e-01
-5.234622418010160816e-01,9.038123448963140127e-01,-3.501574422092195576e-02
-6.181740960643199445e-01,-7.448001200709093717e-02,-1.015213879450687973e+00
-3.650952727401440834e-01,9.663162236221181089e-01,2.933243942222951706e-01
3.906686119797258550e-01,1.478850887044136586e+00,-2.187596138344042318e-01
-6.578972041512557434e-01,-1.310136308349804324e+00,1.526577007091244331e-01
3.699312931443507479e-01,-8.063817636545873579e-01,-1.031355592862312376e+00
1.015696753062968749e-01,1.282921408449686052e+00,-4.647961613708909701e-01
-4.681892265792986230e-01,2.700477796134528319e-01,1.204625413473657591e+00
-4.926902231857717696e-01,1.051462934273104111e+00,-5.573996127761605690e-01
6.982704591006140271e-01,-7.039720567581264632e-01,-1.458001904115514280e-01
-3.817765310036947413e-01,1.100659599174828251e+00,-4.338719479959845526e-01
1.012693521667533236e+00,9.177562412805700953e-02,4.947653127852439381e-01
5.627385978428738333e-01,-9.264167924875283955e-01,3.312020990620047067e-01
-8.391469851373422051e-01,-8.968250757073525925e-01,6.602961780804728238e-03
1.200138506858999587e+00,4.434605330616055996e-01,-4.755226652097909734e-01
-8.509804543758191508e-01,4.515250317098691291e-01,7.639688308163656849e-01
5.941494667386314488e-01,-6.953457418262686263e-01,1.047413879212036658e+00
-6.831544394910787910e-01,-6.203418895587717863e-01,6.208081816844104317e-01
7.972341563660807484e-01,1.158686240651690680e+00,-1.735378927130882265e-01
-6.144643085785279624e-01,-1.347624537191897787e+00,1.841267720709770239e-01
4.479879343592785279e-01,-9.332935285830131766e-01,8.967897385469523197e-01
1.428720120445269082e+00,-1.346325846461682990e-02,-2.346990142804448731e-01
3.353874642347233204e-01,5.514531517116230130e-01,9.256699322242812888e-01
-5.637486317244544409e-01,-1.445578516789335133e+00,1.562889598275331859e-01
-1.185082962933314166e+00,-4.138654033869361148e-01,5.444452074220873516e-01
6.787949765897579590e-01,1.250673618102772222e+00,-2.423887264413939480e-01
-3.349772062067197798e-01,-1.740000400013382575e-01,-1.222521704772018492e+00
-6.177802495927815496e-01,-6.605660189089742618e-01,6.106478116346035767e-01
-1.218899469927846452e-01,-1.029418253828130014e+00,5.774816954694821369e-01
1.364160293012741665e+00,-1.747203048210776710e-01,2.595944822824318154e-01
1.042030111644560497e+00,2.162664291787065596e-01,3.205581259373159742e-01
3.229923280402842711e-01,-9.927222851367200063e-01,7.838697696283647431e-01
-3.878183260113076125e-01,-9.275822576572506639e-01,-5.117841053350264957e-01
-1.764926887225503060e-01,3.294921434010265604e-01,1.350024448342023398e+00
2.308103009821094731e-01,-4.651955615496824459e-01,-1.407814714638250253e+00
3.859260612705259774e-01,5.350510802444630176e-01,-7.671053558709862719e-01
1.336949595417940673e+00,5.849079379533818068e-01,-3.454348512525196035e-01
-3.076249094268897477e-01,-4.179853511252022008e-02,-1.382439874289207449e+00
6.482938874531583018e-01,-3.662021351582149531e-02,-9.866155366380604530e-01
1.610532384015910035e+00,1.558707035391240781e-01,-4.050229723356383871e-01
-1.513263656205794616e+00,-1.094844129412385087e-03,6.683106033627585207e-02
4.963259975932685641e-01,1.381098668762341886e+00,-2.308647192281409466e-01
1.998967321036784761e-01,1.355342998376166452e+00,3.977801152443908861e-01
-8.884297059742095604e-01,7.642057971952553874e-01,-7.644911763619974820e-01
-1.109667149229722538e+00,-6.811758204549190898e-01,1.462182477259108548e-01
-1.919972358319637917e-01,-5.000612139522881971e-01,8.801343668010965793e-01
1.341189170004179199e-01,-5.781344091857607559e-01,9.544335412322909606e-01
-1.430225071183604535e-01,-4.250970323657454197e-01,9.280977665054382930e-01
1.733677320989190918e-01,-1.120123233300102328e+00,-2.911347837117642667e-01
-8.781026135524642173e-01,5.076158315278022082e-01,2.891771629277626876e-01
1.443938245699729894e-01,-1.329479298727056724e+00,4.907375537332094861e-01
-4.725564483241250224e-01,7.433174471596412092e-01,-9.726194466085470447e-01
4.548065746276633847e-01,-9.131102818558521628e-02,-1.089895254375972788e+00
3.500894242569767556e-01,-8.543795997977454704e-01,-8.847952989709622074e-01
-2.797683489344996999e-01,-3.777241721960670762e-01,-1.104848791884612602e+00
6.207157135671594050e-02,-1.366181418264607483e+00,2.614857141299054000e-01
1.370816253335502388e+00,-1.160007992236959107e-01,-4.770835992288970095e-02
7.144061878034612123e-01,-5.894267614061818872e-01,-6.346957800157384533e-01
5.738693341253281455e-01,6.657681664223823459e-01,5.280083114754214879e-01
6.779264365930287584e-01,-7.452798875010108182e-01,-2.022527535980967461e-01
3.335728945275944768e-01,1.232170181004093923e+00,3.443017706440158476e-01
-6.555786575873213673e-01,6.884975735456876356e-01,3.277814575134887498e-01
6.860384949201635552e-01,-5.711548148816332215e-01,-7.150799776060543511e-01
-1.239107729156326165e+00,-7.772714579336044427e-02,-2.367636142718935743e-01
-1.353716221610502091e+00,4.337078370353553147e-02,5.551302267462832063e-01
1.474504521754603781e+00,5.695828264370315225e-02,-5.767000474581680525e-01
-9.726786587780642535e-01,2.983136644778646152e-01,1.001635192003016872e+00
1.058200224687281477e+00,-3.028397765347103920e-01,7.528409816265023702e-01
-8.255720889801128060e-01,4.299353587724197845e-01,-1.143070756571837654e+00
-5.334324053605533633e-01,-6.425025478739766482e-01,-5.634901331838320093e-01
6.328441405154203725e-01,-8.019028474165559306e-01,6.398902569052213052e-02
1.136899619974359732e+00,8.157938510967627233e-01,-2.857173878575399173e-01
1.439775035381552160e+00,3.806817378506686667e-01,-2.771424516013084038e-01
5.096037291697956828e-01,-7.163348111541784080e-01,1.011922121462300206e+00
-1.089409723433069077e+00,-6.859156893324410698e-01,1.136958878986162325e-01
-1.239323479496053509e-01,-1.221654758146599073e+00,-5.948091199015603792e-01
-9.384185743211690411e-01,7.568431995427975512e-01,-9.223179966312251565e-01
-1.206533724364932558e+00,2.601377944480580684e-01,-5.528434094591455628e-01
9.522004263854393358e-01,-6.742822161008689141e-01,7.197211538029636424e-01
6.143643496020941008e-02,1.274281578054687891e+00,-4.490525071212899122e-01
-7.949245830698800086e-01,5.384271707603186519e-01,4.787843843247250319e-01
5.633127643871376211e-01,7.397970534787290386e-02,1.014253809517077887e+00
7.573674808752092202e-01,1.012640768877267894e-01,7.807752778867274035e-01
-8.889233751210998680e-01,-1.039858049710188359e+00,2.656792753751663905e-01
4.671418590609104915e-01,6.665237783006462413e-01,6.511373914834638343e-01
1.327374104066638416e-01,-1.254118360162757240e+00,1.673409718178292260e-01
-1.631057911775572467e-01,7.396701105269625209e-01,1.362622489404875958e+00
5.277352903948620000e-01,-7.871196452730623294e-01,-4.816261690270350893e-01
1.262463974048599002e+00,1.801941482414344819e-01,1.165383807233237312e-01
-2.828174952603543790e-01,-1.422889667119852319e+00,-2.361027773547707542e-01
-1.052013181513941520e+00,-5.309506857568312421e-01,-3.004984042825116497e-02
5.486897025475370171e-01,6.890143488495742430e-01,5.509143900888888723e-01
1.543472804471004434e+00,9.905062162770267298e-02,-3.648189748588089865e-01
-4.720443525716636057e-01,1.104365769559423338e+00,-7.657683554950466265e-01
-8.370244121712251406e-01,-6.785477631538939791e-01,-2.096053943750725845e-01
4.709529688891961885e-01,1.288084811269437413e+00,-2.895251805570707715e-01
-2.389639476296741283e-01,-1.703371270690923478e-01,-1.355673405181035296e+00
-7.015281322947396203e-02,-1.488736047589702460e+00,3.532185096136414848e-01
4.513556228711248369e-02,1.390375072978906390e+00,-5.665479478697787313e-02
4.610792129698433883e-01,-1.008258161794250540e+00,2.112397705640266798e-01
-8.707242132167705706e-02,-5.672170985046229852e-01,8.664969042108614516e-01
1.480849005936276941e-01,-1.326551288085630054e+00,4.872431344618135540e-01
-5.685960365802329719e-02,3.890336545879325980e-01,1.418849172522405278e+00
-1.094792644446719088e+00,2.204665427545646761e-01,7.103559033988560145e-01
1.065612835518563450e+00,-5.796343193443860287e-01,7.719459019100929353e-01
8.236814037506794417e-01,7.062095941676386213e-01,-4.633697664671051486e-01
-1.084551794271581215e+00,-6.338529031479707143e-01,8.871103244051545267e-02
-8.256002966101088081e-01,4.388726868368509892e-01,9.730540502577990081e-01
1.678587654841815491e-01,-8.675279535759607974e-01,7.799060317987012159e-01
-1.098842641582385093e+00,7.240173913241640391e-02,-5.260646090045129064e-01
-3.177742127595912236e-01,-1.065405292812157345e+00,-4.766038970285380594e-01
4.291171387874592180e-01,-7.695938513997490071e-01,-8.848482710961956821e-01
1.193978938618931007e+00,7.601486831250195420e-02,2.773804830410447342e-01
-4.305312254352782197e-01,4.308475260475101432e-01,1.295246290713840009e+00
-1.434591707973875030e+00,-3.990594607228359902e-01,3.033867373938746725e-01
2.291999377351949252e-01,1.395355618153794497e+00,3.283359664611119055e-01
4.520061382965598895e-01,-7.947406079921465194e-01,-7.233207546523729992e-01
-2.000868080253636883e-01,2.247666359082569620e-01,1.259099634661595912e+00
-8.077344588884948218e-01,1.728166948121436231e-01,-9.620016352115628999e-01
-3.868746626520161436e-01,1.008648999713805505e+00,1.051356195723660569e-01
8.660082796995207666e-01,1.064499908726896926e+00,-1.597502764190370517e-01
-8.699490726030363330e-01,-7.390505485314839869e-03,-7.592518185312595591e-01
7.754218230787637278e-01,-5.084946489353654453e-01,-7.139307674220739530e-01
7.664509064825466567e-01,2.962101243770182135e-01,-7.465775968005077257e-01
2.150347091947412692e-01,8.730264723368379165e-02,1.343738488505377582e+00
-5.833905988925234265e-01,6.073411110132044266e-01,-1.106929115288985077e+00
3.782807004742241297e-01,-1.746820226138813548e-01,-1.176929800362009226e+00
2.045945695906594142e-01,-2.666034645668067249e-01,-1.269937827665553298e+00
-7.437883940747722945e-03,-9.968089012695576789e-01,-9.484732106996656142e-01
-1.175473732481446820e+00,-2.602183570378793082e-02,-3.737658745440498032e-01
1.027223383630468528e-01,-9.306582923651606221e-01,-1.116720760995402406e+00
-9.146462470842625647e-02,1.076976784337574822e+00,8.695009435989885516e-01
-1.585804173409439410e-01,-6.858240847372912841e-01,7.636338179043310470e-01
-6.987379442629060300e-01,2.162158063284645437e-01,-1.156708119144705060e+00
-5.844524382651667960e-01,7.739982960137953283e-01,3.153162685299877865e-01
-6.699107557632119070e-01,6.644167044258864063e-01,3.690485720878222686e-01
1.426855686194678785e-01,-1.219846776875734395e+00,5.682285245804047369e-01
-4.517944393543170123e-01,-6.337167975170903134e-01,-7.035678644935029480e-01
-1.327249578402311281e+00,1.636980007370353318e-01,7.677811393702699272e-02
-4.982349886331612909e-01,8.394452837414518864e-01,3.558730256474524345e-01
3.497536579334566964e-01,-8.725863497231487464e-01,-7.981332078531432339e-01
-6.070358337985750641e-01,4.415153344177034644e-01,-1.204892017899127143e+00
-5.805319440376518481e-01,5.942088949797785791e-01,1.130242261275912208e+00
-1.465549575346012157e+00,-1.217018470847710671e-01,1.071442417614872772e-01
-6.300337595087088793e-01,4.205568286329249283e-01,1.197991626050181946e+00
4.272843680291300850e-02,1.548234508892269712e-01,1.336787365911618508e+00
-1.612104821611083372e+00,-1.635669909516561382e-01,4.496850958868073289e-01
7.477770721571402879e-02,-3.169403889639083594e-01,1.063105263089729080e+00
-1.133620282691359282e+00,-4.399040840465175406e-01,-1.028522050112549990e-02
1.015143010258393375e+00,8.174517740465221394e-01,-1.049739763032052214e-01
5.955292517995957047e-01,-8.787892532043530824e-01,3.671182201104231657e-01
1.138929317288447374e+00,3.563207313756494576e-01,1.138795556196724040e-01
-1.545989220379668794e-01,-1.052828291188105059e+00,5.401495994692367963e-01
1.137988994997869652e+00,1.573918254215017978e-02,-7.594250297097129287e-01
-1.529027424918792122e-01,-7.056924300970950359e-01,7.589828327462841973e-01
-5.070184149490619685e-01,-7.731104826827245313e-01,5.642100663650829739e-01
1.682774195494112224e-01,1.184714188549839786e+00,-4.779104144045163149e-01
1.195806338676784764e+00,-2.482915328296435575e-01,5.629166805405697582e-01
8.386116490568265580e-02,9.571991662836900616e-01,-6.339921628568345735e-01
8.421515169758569952e-01,-4.291119868371520707e-01,1.139438039418514403e+00
1.459322487061004703e-01,-7.306123279791352232e-01,-1.354686752755005275e+00
-3.320587331274412746e-01,9.132511894798310825e-01,-8.453971411356966392e-01
-6.923239772163974903e-02,-9.692728960682720496e-01,6.367231621698966615e-01
-3.323717062692171376e-01,-1.299939380485038765e+00,-2.610774738662393069e-01
-5.579326395541785999e-01,-9.800130013167842602e-01,4.559332350983686388e-01
7.120664427139254682e-02,1.328823932071822256e+00,3.803284895879831540e-01
1.251395262101992367e+00,-1.592500452608621997e-01,-4.517743352967923953e-01
-5.306788908458484055e-01,-2.494731259290890735e-01,8.460728398370670478e-01
-6.654496176007730635e-02,3.671936645712056690e-01,-1.051978467544522289e+00
-1.226987509370300877e+00,3.316327035107848320e-01,-2.424622977275418811e-01
-6.513800610581474970e-01,-1.092248807387126847e-01,8.763322298968615476e-01
4.450854633473164124e-01,1.076479821218478516e+00,-4.106647359560438026e-01
-3.913434052758848480e-01,7.146784290046139798e-01,1.273068814747559729e+00
4.560264452251736600e-01,-3.211938798750069157e-01,1.226319882519611770e+00
9.705280246738231531e-01,6.087777541828301997e-01,-4.870455688399402683e-01
7.335079900331139546e-01,8.398166594820825059e-01,-4.352857890973619859e-01
9.407114999242298659e-01,4.699686581948335218e-01,2.387688712827440440e-01
-8.174855221561214691e-01,-5.997761381508389666e-01,5.525733994874130195e-01
6.747273865873314458e-01,-9.465606991649614388e-01,8.429384677173299423e-01
1.490814815179131614e+00,3.906910920044018298e-01,-4.071485335930911664e-01
5.493288683624226731e-01,-9.047742812094976550e-01,1.504208664144325025e-01
5.770515584427281519e-01,5.233754926277291997e-01,6.576963438236825832e-01
1.144670369757152972e+00,-4.020578494710788098e-01,7.289755427223947315e-01
1.490587987142743653e+00,6.840188469690210160e-02,-5.005915934448560423e-01
9.978098443676972629e-01,-2.876336901653623879e-01,-8.588699570142113160e-01
1.550554872241259208e+00,1.669797195891179753e-01,-5.010272703224192270e-01
-8.567147776022012717e-01,7.389419104608089262e-01,-7.569051849581303060e-01
-5.685525658947138128e-01,6.144267337354267777e-01,-1.096186045788072772e+00
-1.063963841241835073e+00,-9.846543241642145838e-02,7.205781165323801307e-01
1.470037944404021690e+00,3.163901327622638537e-01,-2.894462591671643770e-01
6.719385544241047725e-01,-1.774277511260358431e-01,-1.054395630626439040e+00
-1.371914604885868250e-01,1.224897608677404603e+00,2.400073048869176898e-03
6.192620357563170808e-02,-3.964648194601836928e-01,1.004147693625432325e+00
-2.745279453760410271e-01,-1.210520217762317552e+00,4.127669424646184249e-01
-7.075118816526614063e-02,-6.407505231523558109e-01,-1.176699188480442526e+00
1.290917235774210692e+00,-2.148891149366577435e-01,6.537116682436756865e-02
-1.245860670699964201e+00,-1.234886712176013895e-01,-1.824588627551648468e-01
4.414264674444503544e-01,-6.985083239331889571e-01,-1.250548875987308683e+00
-4.723563487090125940e-02,1.147699236950728174e+00,7.051040529991360328e-01
5.357646644344490339e-01,5.863113829455216530e-01,6.582795409571464695e-01
-1.163917894017465482e-01,8.832325186352096846e-01,-7.421726478671225591e-01
-1.547192186369588329e+00,-1.080997551286707603e-01,3.950686745656747378e-01
5.448906721376741702e-01,-6.935596937333158296e-01,-7.520728606789789383e-01
-1.282102203530500750e+00,2.587936148487195442e-01,-1.390753319440604929e-01
-5.538374237969999614e-01,7.512466614756261318e-01,4.858414898228322065e-01
-3.550173077089665563e-01,7.509101469750977254e-01,1.347554518090390729e+00
7.581163878521235411e-01,5.584434945963613339e-01,3.808796886458246655e-01
-3.958245610369264256e-01,1.031576098949461784e+00,-1.959856685712346169e-01
1.069184912323842163e+00,-4.974359112994829468e-01,2.119137774576534405e-01
7.875918151188530114e-01,-8.699906811815506513e-01,9.935839051614441253e-01
9.551313357905084622e-01,-3.989305648244240721e-01,-5.476541207338636585e-01
4.894137885899810803e-01,1.362371029364971342e+00,-2.259707999439731219e-01
-1.039745026722163512e+00,-8.106187078679285563e-01,3.452781829710276917e-01
8.380480503603283671e-01,-5.883354815681194339e-01,-4.743618545974873091e-02
-7.708823971859326551e-01,5.815503855293008284e-01,4.684451623894475558e-01
2.117692626625409247e-01,-1.116990281671354168e+00,-2.355984158684026608e-01
-3.910031562582079179e-01,-8.242197334546174092e-01,6.119537576289826308e-01
-3.276477550535961125e-01,3.623620711279393891e-01,-1.177672782138744934e+00
-9.018752118650250615e-01,-4.654110329573112881e-01,5.829724124900312887e-01
4.857835682385096554e-01,6.329791203323349436e-01,-6.808467820437670293e-01
-5.279908562347216394e-01,-7.388028494409092373e-01,-5.041658711465574205e-01
4.442504916604374521e-01,9.974327513251626254e-01,-4.786035255776692754e-01
1.106217393302482810e+00,-4.000413474535748914e-01,6.001326903590083889e-02
-1.695876116782024656e-01,-1.473023996257004864e+00,-6.940488467634184366e-02
-2.745530722006639945e-01,1.876344135818130143e-01,-1.245992512133470509e+00
2.663711822504146731e-01,-8.651341394910054827e-01,8.448990556301420041e-01
5.314456096637860671e-01,1.423687268746833157e+00,-8.816717504309810882e-02
-4.565052504143218837e-01,-1.318132481007453227e-01,9.530385682017535887e-01
6.332567470338361648e-01,3.633899178656843643e-01,-7.570567802918961586e-01
-1.060955975414256791e+00,6.100152846372197679e-01,-1.016814813920761118e+00
-2.875326814433931677e-01,6.691358599141540298e-01,-9.574470674316366559e-01
1.183491359604304100e-01,8.368846573545153378e-01,9.712632995813017533e-01
-1.028051686335728743e+00,-1.508675467982639740e-01,7.200378195332424180e-01
-1.136749650028366920e+00,-5.617684309748181004e-01,7.920753754678978853e-02
-4.638222734737009190e-01,-6.777705580408590613e-01,-6.552756744474599326e-01
3.266206300438657673e-01,-1.018117871413984021e+00,-2.133247784218947618e-01
2.218045574760871552e-01,1.001451570427187715e-01,-1.061575027108787372e+00
9.418760260094931613e-01,-8.227152061126512261e-02,-8.857367503983044621e-01
-6.887604425800929464e-01,-9.965514288981690560e-01,3.770892974617111038e-01
-6.049780724532257681e-01,2.275761093447230543e-01,1.118968900942803435e+00
9.079658563788008951e-01,-3.390100101084047579e-01,1.022152835211437072e+00
2.725355868616960997e-01,5.747019013606682325e-01,-7.839074550804840946e-01
-5.608451110863988953e-01,-1.269571784126970471e+00,2.574851047257738501e-01
1.040140099032110105e-01,-8.421258240734436074e-01,-1.192768437726410724e+00
3.283982572991073767e-01,-1.158084617049982112e+00,4.066263943391197899e-01
9.931970888205245984e-01,2.634040418016156057e-02,5.542931791397898156e-01
1.730409350216516595e-01,-1.017767723097007027e+00,-8.802442244617839640e-01
-4.924866801774983038e-01,4.952977408442347240e-01,-1.130133626273631675e+00
-7.010245434529688291e-01,6.828009000651911187e-01,2.739811375773160140e-01
-6.793589300234091910e-01,-1.292145876690891981e+00,1.763967049661506470e-01
1.300242337716690511e+00,2.650218589919997036e-01,-1.879767515696353919e-02
-8.937597942111407123e-01,-7.403471842575901629e-01,4.424473512622102978e-01
-3.544428293228735760e-01,-5.545239345484039850e-01,-8.658829697550186610e-01
1.557870109231155320e+00,1.554038975592340333e-01,-5.114604817233903145e-01
1.087350754445175482e+00,-2.804978155641174586e-01,-4.666178063015519739e-01
1.509348332593805631e-01,6.706522299238888429e-01,1.036578084608061889e+00
-1.399945109311388602e+00,-4.873230256986459661e-04,-8.231584459783299057e-02
3.650552738195523839e-01,1.536208079018194894e+00,1.781797626553385805e-02
-2.676286847885269160e-01,-4.753579157755434548e-02,-1.371773854809124726e+00
-5.301381038324896045e-01,5.332255778821938241e-01,1.311056103192375311e+00
8.239559174430960420e-01,-3.519224205944684325e-01,1.073919991871959079e+00
7.194339521978264651e-01,1.158091015114055988e+00,-6.356007316301166832e-02
4.626280796247754790e-01,8.829737061697876532e-01,4.832902517182766089e-01
9.686593444293190025e-01,9.522384028686186053e-01,-2.225476218754538493e-01
1.206891461470031235e+00,3.746724615934663438e-01,-1.108767923799502605e-02
-8.591082765982006597e-01,3.828401772056527208e-01,-1.098656081003121843e+00
-8.392656836562270017e-01,-3.781281532200259088e-01,-4.450601832468745189e-01
5.729287629235441104e-01,-8.746730160892047801e-01,8.915308532488322446e-02
-1.874690158491443270e-01,1.115339912886842866e+00,3.505403527060478863e-01
2.307807384580585486e-01,1.329107347964013641e+00,-3.517896124893123422e-01
4.629088149061415525e-01,-9.050072644346016659e-01,-1.762423437040375462e-01
6.811289860378814121e-01,-3.583651780251003727e-01,-1.138473476553423902e+00
2.569802577150046563e-01,1.615552213122574576e+00,-1.465077547210214826e-01
1.078576802949753111e+00,-5.384133514956658262e-01,9.148665640439538338e-01
-6.108330113534038430e-01,5.666059142813317795e-01,-1.133224719998613406e+00
-3.461608488344238843e-01,8.710159587410157833e-01,-8.644388795347491827e-01
5.584381175434685041e-01,-8.998640929603908267e-01,9.430721859081301339e-01
4.595741064365653772e-01,5.442026323963117251e-01,7.565894600399767356e-01
-1.074252093069736791e+00,3.469655277629543622e-01,1.570069252477945543e-01
-7.002712597156285357e-02,5.068041686188790029e-01,-9.566265773765367797e-01
5.870711088345537121e-01,-7.248822482525023592e-01,-4.474859238661962890e-01
-1.321668862747068296e+00,-1.766505247902348807e-02,-1.767655199642569064e-01
1.889891452739748123e-01,9.970662476826311904e-01,-5.685652935546234854e-01
8.211956703690259651e-01,1.807367680037384391e-02,7.993173987129201796e-01
1.133907224744468367e+00,-3.824403521111243709e-01,1.614458339342746962e-01
-7.717689009726932392e-01,7.540469990597669092e-01,-1.113888171113932124e+00
-8.754857579450202598e-01,-4.673393626599066097e-01,-3.448447489399948940e-01
3.952170536725944650e-01,-8.003492641741312141e-01,9.050727179175120929e-01
6.317293720367840387e-05,-1.162859062857573900e+00,5.544088502619184400e-01
2.238218658027585350e-02,-1.417854384799486001e+00,3.980621965687849428e-01
-3.806390811692335063e-01,8.090818516233544422e-01,1.034532685158211507e+00
2.846317780779772932e-01,1.406574722925672205e+00,2.314891560420364314e-01
1.251501388241640367e+00,2.810800802206865345e-01,1.147460119194396860e-02
-8.491901277505344847e-01,5.777566204402853067e-01,-3.677330518932818377e-05
5.812995684266484275e-01,1.095392731455904656e+00,1.645634553566702463e-01
-6.635836334794335822e-02,1.071043749111440402e+00,9.484097334479115737e-01
