3.287485640327940661e-01,5.184064013079585642e-01,1.120073889305009285e+00
5.454520344278360744e-01,6.327664646880587496e-01,8.760888832310563812e-01
-8.052389267294294273e-01,7.786392487945000829e-01,3.316694374384996369e-01
4.157697184318889239e-01,9.257097604473032426e-01,1.062896752725711602e+00
-8.802348179249163129e-01,4.313323127708943994e-01,4.070556293418164939e-01
-8.407367642986591783e-01,1.267237180455147216e+00,-8.442467425224980948e-02
-8.114896610226702833e-01,1.118637143148821345e+00,1.870532021381034193e-01
-2.847397077297039170e-01,-1.128216019432543904e+00,-7.931287406114554406e-01
1.140354138029921360e+00,-5.917828110160532340e-01,2.261397635505666970e-01
1.238823316307388733e+00,-5.114532883524235407e-01,1.351540082318045677e-01
9.241504003351058705e-01,6.604249025468132694e-02,5.013458105148418387e-01
-7.449953001630458260e-01,-2.163759976847154654e-01,8.217165032757060006e-01
-9.161799680977017468e-01,3.548325792700253722e-01,4.134488723041330194e-01
1.403644721848051224e+00,2.899671749839866086e-01,-2.282060539655288989e-01
-9.670544324567467154e-01,1.130908090862036808e+00,2.618107027959551067e-02
-4.689247316990125536e-01,-7.430018461260491369e-01,9.902336954436512517e-01
3.779916595497277987e-01,-5.593557948319487494e-01,-8.326193510600543579e-01
-1.097171837065296085e+00,-2.330461555409830687e-01,-3.245574608594528621e-01
-3.891218122598372742e-01,1.215996584555267601e+00,2.972007625388378704e-01
3.522217777206398948e-01,-5.550652331633340042e-01,-8.774929352346407807e-01
3.324214714603989651e-01,-9.563179555920052755e-01,-7.011029117865558158e-01
-6.562078379930962324e-01,-4.788896192648536276e-01,-7.722529657117135349e-01
-1.403499145441612361e+00,-3.830042543611106298e-01,2.704185688764526585e-01
4.276444302148883492e-01,6.539538052621657327e-01,1.036156579352787155e+00
-3.973613389217666159e-01,5.490139171932094664e-01,-9.789906956340415078e-01
-1.979747330813948769e-01,7.211555188114981974e-01,-1.178562509384546209e+00
-9.718162582590825771e-01,1.225695333210948590e+00,-3.946874718679440480e-02
9.516345150478230375e-01,-2.009946408885802394e-01,4.559873632206487004e-01
3.766735567084554537e-02,-1.120382693182941258e+00,-9.286051874653487026e-01
1.352892629208797493e+00,6.960591131876316950e-01,-7.989557731945275132e-02
-7.515994252928739350e-01,2.717830144627174649e-01,-6.496106367628184941e-01
1.172469610979776311e+00,3.318884818673782378e-01,-4.807903752680158793e-01
-8.288615231574124609e-01,5.271207690641634969e-01,-5.793672398854055050e-01
-2.528495349403405701e-01,1.079883865195084836e-01,1.135832343189926430e+00
1.109194775743817418e+00,8.017444435334302177e-01,3.336391726789253442e-01
7.396429944947265078e-02,-1.058850245425713821e+00,7.628793665413495517e-02
-8.156537887995265468e-01,-9.109976717997784190e-01,-2.966230120152862360e-01
1.477493961733243433e+00,2.893016153935048518e-01,-1.545663651608372435e-01
-9.705675918298023452e-01,5.630605726923522125e-01,2.552280779784174558e-01
-4.633822048248851244e-01,8.157355814193463228e-01,6.283091580598969550e-01
-4.776476179754670093e-01,-6.699010921779072758e-01,-9.813584476816497038e-01
5.581725550224909682e-01,-1.198813204173396540e+00,-3.763241766818270495e-01
-1.051086867152700499e+00,3.272514158671391282e-01,2.781032319063201919e-01
-5.176340879854381960e-01,-8.386288870006924911e-01,-9.473653222714457645e-01
9.101228954077077438e-01,-1.246690301069283358e+00,2.702103944834686189e-01
-7.859017537373458318e-01,-7.841185934759867804e-01,3.509394746940529553e-01
-3.071368914948356399e-01,-2.711642947739736909e-02,-1.108801433177300844e+00
6.256592399262519422e-01,9.083576561686935724e-01,9.075549965438864386e-02
2.781022069503225613e-01,-9.654938377955910589e-01,7.918663363933140520e-01
-1.485084168163718632e-01,5.483301143207970352e-01,-1.219507355736199283e+00
1.335442804318211607e+00,-1.329366516454368874e-01,-8.726450294041107614e-02
-1.633015630869165680e-01,2.206838979842135062e-01,1.212267821187660743e+00
4.225100724224710724e-01,-2.422970075485647856e-01,9.724541224932071737e-01
-8.579778175442756005e-01,-4.190058258307916006e-01,8.095446293910524282e-01
-1.132739629524271097e+00,-3.048682017356878562e-02,3.856317688809345334e-01
-6.439879503980631449e-03,1.003846013494078112e-03,1.439263088770469157e+00
-6.211401749714530462e-02,-1.001555635228554841e+00,2.340349846428774472e-01
9.371626501591211467e-01,4.986589882439411703e-01,-7.638367535023513621e-01
9.442534202306354096e-01,-5.967200146055362531e-01,-2.712024538728063927e-01
1.962657240199470465e-01,3.126566950245064369e-01,1.259783610866855641e+00
1.095141275114390605e-01,-1.039820693419779341e+00,2.095003953422468479e-01
-7.665837738892125053e-01,3.331813622842796363e-01,5.459878401454780761e-01
2.889099221498759307e-01,4.298450288100050809e-01,1.157412411923103956e+00
3.790542615394836279e-01,-6.512205815051130831e-01,1.005699100693020043e+00
1.044276195487686132e-01,-1.105276423653349882e+00,-8.686065210252149615e-01
-6.586421552325391060e-01,-4.676763277479012992e-01,-7.786887813212933773e-01
-8.482994919676054568e-01,-4.427690769499028622e-01,8.048867566512958316e-01
-7.550376353034089771e-02,-1.047020052367304138e-01,-1.363385647662906042e+00
-3.198958517835868709e-01,-1.061105306909875257e+00,-4.748427040843199443e-01
-1.241901609450791977e+00,-2.373407511097769818e-01,3.722090013253481211e-01
-4.872222859227013508e-02,-5.686306328220566142e-01,1.424227131367556964e+00
-1.282826088551338950e+00,3.949005703782413335e-01,3.872688588716494129e-02
-2.088628165540074577e-01,-8.832791214364031640e-02,-1.211424535515943424e+00
1.849700998766597992e-01,-2.260628495934955129e-01,1.237691167542354309e+00
1.258797770668516947e+00,-3.475312288294672980e-01,1.450585900082360935e-01
5.394003594326940432e-01,-6.631803017608353112e-01,8.417992909044442751e-01
-3.511466318663997166e-01,-9.545868913609880657e-01,-4.586520961184480105e-02
3.272353275628062663e-01,-1.118778992225233582e+00,-6.472643715538261011e-01
4.575975368911535668e-01,8.550838094205436279e-01,-4.487614057404334944e-01
1.280907843262530044e+00,-5.109438663465791786e-01,7.436536923415251049e-03
-1.477451947653311559e-01,-4.312438308647727481e-01,-1.274999529157049283e+00
1.110681471195386072e-01,1.049003848085437118e+00,1.234203857063156801e-01
-8.969390546791828900e-01,-7.426502913161490138e-01,4.583356915371646356e-01
7.553523695836116270e-01,-6.744829016423758983e-01,-4.330187996756252322e-01
-2.251461015920712960e-01,1.160101435752916466e+00,6.983593403834489344e-01
1.220200383211858197e+00,4.599757406307139473e-01,2.278110091477688615e-01
-5.286248490407419176e-01,-8.808052515449377173e-02,-8.830983027573174882e-01
4.526533659953075328e-01,1.101536968398955096e+00,8.939340460094569174e-01
-8.526576519294076784e-01,-3.283176669690016092e-01,7.822940451880244783e-01
-1.039215625467951210e+00,-6.772698629026681072e-01,-4.062233082368077453e-01
7.463998023548786831e-01,5.672952090015624949e-01,7.104625436484411916e-01
-9.991424795838187434e-01,-3.160198490959496564e-01,-4.165475679289383781e-01
7.857430144803811967e-01,-2.788300416022204131e-01,6.089220131604444752e-01
7.409222741915062471e-01,2.368988392869385839e-01,6.883151144608498084e-01
1.635600654859589165e-01,9.583812010594339181e-01,1.177407357333667637e+00
6.942259517401543345e-01,7.856708904388851611e-01,-4.125842160753171450e-01
-9.588386489742817265e-01,1.182705724916067458e-01,-4.495908397036209037e-01
-1.103889925533402483e+00,1.912459858290020687e-01,-3.023770611217899140e-01
-1.237338527830127433e+00,5.812610530401900455e-01,-1.946050858862051827e-02
2.354081221997422757e-01,-5.540904097460218614e-01,-9.903531716924982575e-01
9.257492202421900851e-01,7.309505400415670096e-01,-4.936308139324593891e-01
-6.218787423037422935e-01,-8.739736105700225410e-01,1.258135273689148237e-01
-2.691211724829219998e-01,-1.074586027944081978e+00,-4.691194941086078707e-01
1.872203581759560587e-01,1.046530185665875523e+00,2.550661066643915009e-01
6.318768515297660260e-01,-1.113214134145966705e+00,4.087922371575759550e-01
-1.431838003432762130e-01,-7.284802522797239055e-01,1.402047507202445198e+00
-2.455502733496850998e-01,9.208744645066054835e-01,-9.299617042635984765e-01
-2.173390329599737547e-01,-1.154613742227806217e+00,-8.367613152414972166e-01
1.343742214201155694e+00,1.237937610033625763e-01,-2.078627886843195105e-01
-7.747068423796107384e-01,1.150164193046916195e+00,-4.495986348393083420e-01
-4.821299866489150987e-01,9.362474630168848844e-01,5.838171557536191436e-01
7.381293992786394087e-01,8.177850283629101158e-01,7.248128441967551794e-01
-4.597971491876871597e-01,8.259515867078740525e-01,6.437939460605712760e-01
-5.595275774530775875e-02,1.381167562490673018e-01,-1.338689538281805591e+00
-5.119132154086257769e-01,-8.674707712230537160e-01,2.525494980917185051e-01
-6.784688066731682510e-02,-9.346580519980379753e-01,5.463820765850641026e-01
8.205002663405336349e-01,-1.210474233338333594e+00,2.611387959099690237e-01
-6.804086531713554598e-01,-1.242669176047912910e-01,8.443379930839028935e-01
-5.104104069979406022e-01,1.187772656370469804e+00,4.404594242980474084e-01
8.542010427944572992e-01,9.180223553497317557e-01,6.369534258340662225e-01
-9.457463072435791096e-01,5.171523510154510950e-01,-4.141661115762724776e-01
3.691260820784624253e-01,7.395467215563582553e-01,-1.002777238916023439e+00
3.528197584313502166e-01,3.245424068913532051e-02,1.049903693338331001e+00
-1.493468594438331021e+00,-3.779274926078168284e-01,1.874799101381884048e-01
-3.670135751942064650e-01,-7.468071696108560253e-01,1.115407682825640290e+00
-3.540166716711212191e-01,1.396042577140697294e-01,1.040747734513185918e+00
3.689767237516191067e-01,7.763572368090408959e-01,-8.775803543882375601e-01
1.042176902611100742e+00,-8.309758165814770114e-01,3.189204787190423884e-01
-1.272195897969325751e+00,1.955329338564078256e-03,-1.531319972898793069e-01
1.102396287204815861e+00,-2.027040807984353543e-01,-3.099384434100163621e-01
-1.409671015145736339e+00,7.475103086181142387e-02,4.080852620791315666e-02
-1.174531928662705837e+00,5.959409711527133835e-01,-2.274443860029330133e-01
-2.603142144921001822e-01,-1.061600600573709086e+00,-4.566061510710835436e-01
7.904400385717175181e-01,-8.918841860795547749e-01,5.821215023423051971e-01
-9.099049023726755170e-01,2.312279451025676391e-01,-4.738514839734406237e-01
-3.870904129344390765e-01,1.057885820981485869e+00,5.999810067271148517e-01
5.853799974283994262e-02,7.365705783797116268e-01,-1.423051133598797424e+00
-4.226685303813410566e-01,2.927176645395758725e-01,-1.011247142218369088e+00
-2.403123073186572423e-01,1.100567920978293923e+00,-7.503092813508982495e-02
-3.122414300573465584e-01,-9.564877343240716367e-01,1.147430744038902169e-03
-7.584936144950755743e-01,7.072617915895313967e-01,-6.150726113301139275e-01
-1.086375263260751733e+00,-1.082423092736284620e-01,4.360515171074142993e-01
-4.719425699148308562e-01,-3.693103979127468350e-01,-9.581127175510695260e-01
1.793655730608020860e-01,-4.902960957779086137e-01,1.186547141798600657e+00
-5.005844283100878700e-01,3.946741213484530331e-01,7.803623840609632545e-01
-5.787417098135921173e-02,9.791224563049467644e-01,9.453199235877624007e-01
9.241319808765565691e-01,5.408367827700053532e-01,5.412811845049084747e-01
-4.922565827199449906e-01,-4.377077888712617160e-01,1.170876731466524934e+00
3.729615450427872098e-02,1.131443827929276447e+00,5.223690790552381058e-01
1.182808323366305148e+00,-7.522037909366537933e-01,1.733335652468056820e-01
-6.015039149747190006e-01,-8.839914185615074249e-01,-8.961365208281801831e-01
-9.134450875103204970e-01,-5.928689180568030848e-01,-5.452904511224084816e-01
5.664462043494268295e-01,-5.149634887790113247e-01,8.171087096358492508e-01
1.286651338958387569e+00,4.833611528403087831e-01,-4.246433332027417795e-01
7.789692324975382443e-01,4.797689231765035478e-01,6.552728169020108906e-01
-6.045430259428635766e-02,-9.199818042556403563e-01,-1.138864103415269557e+00
-1.130496302959137056e+00,1.015275913643116645e+00,-2.298258063748183921e-01
-1.330860666392784664e+00,-4.776615075807931210e-01,-1.354761950039624629e-01
8.756448468773301297e-01,9.260778208643033471e-01,5.870427008099278199e-01
-2.181667931987424369e-01,1.180257738245312979e-02,1.269170904551505386e+00
4.102269300831360987e-01,-1.408764686946913369e-01,9.999843925314461091e-01
1.625100921880115734e-01,-2.731404277211473275e-01,-1.206538376385387190e+00
1.061972340911842005e+00,1.637640877631068859e-01,-5.038180532318811133e-01
-1.089889431584148527e+00,2.590892091966858213e-01,2.823644548647173402e-01
-7.870657936883226347e-01,8.733592438144263115e-01,2.979851055538349502e-01
5.529124628002655140e-01,8.137376227557181485e-01,-4.971138418740416731e-01
6.101193906036268544e-01,-1.203633995383458277e+00,2.863108682872586574e-02
-2.702618105388995273e-01,-5.538547099859426892e-02,-1.151491422710902324e+00
-1.194454023590463265e+00,9.060954649844691344e-01,-1.457582772189031650e-01
2.091244470358774032e-01,-2.334491273773832143e-01,1.192485697178885307e+00
-1.321039399809984971e+00,4.117072036231371190e-01,-5.861162299317347613e-02
-1.426844725853093632e+00,-4.859405578953151505e-01,2.800955957750531633e-01
1.002084394662785982e+00,3.017159678430045289e-01,4.220342183562806881e-01
-8.334836510645923235e-01,2.262162849073655335e-01,-5.437983833217405749e-01
4.468432764125118695e-01,-1.232241014008080393e+00,-3.724993821872724098e-01
-3.018862006921727015e-01,6.703998401210955471e-01,8.526524520980351962e-01
5.123524981182643323e-01,9.640745729192489177e-01,9.671099301277938931e-01
5.290282512215832567e-01,-1.004191753027241285e+00,8.107037903933639322e-01
1.170437957207789870e+00,6.317259097987720784e-01,-5.345001267967781633e-01
-4.719258747925889064e-01,6.637346926349209086e-01,-9.048184853396319394e-01
-5.823028260752022289e-01,-8.963867655929113054e-01,4.019478498373942749e-02
-2.930660413141886744e-01,-8.414027438957509819e-01,-1.163270071936988170e+00
-1.073353300630798257e+00,-6.367853205582370002e-01,6.529180702363616140e-01
6.655718854517763683e-01,8.472086501879538822e-01,-6.444776729015959382e-02
-1.400195335280091102e-01,-9.720369015175728267e-01,2.390792695854575267e-01
4.613327895042122484e-01,1.126315635757781930e+00,1.022503848415764027e+00
-1.208629448570174070e+00,-7.769250187858779411e-01,-1.099993536450651066e-01
-1.710653421877621760e-01,1.193304223369265449e+00,7.583199662111613781e-01
-2.559962477455110519e-01,5.911492964024349650e-01,9.533096684004072063e-01
6.004893178013975819e-01,-3.642966215825474419e-01,7.787918892982981234e-01
-9.877352946360645758e-01,2.108261441174630602e-01,4.086635444244717252e-01
4.053109842515846273e-01,1.025872695464364187e-01,9.854153983557342178e-01
-8.150205152586544877e-01,1.199722343185594564e+00,-3.390329106518391034e-01
-3.288956370993623701e-01,1.108905749445698641e+00,-1.389885500308409294e-01
-4.309253260396069818e-01,-3.416715273179557477e-02,-9.991452351245651009e-01
-2.948885219372435196e-01,3.577510782914498748e-03,-1.125394840972402610e+00
-7.034503013050525944e-01,-9.195548231423550378e-01,-3.063726871636290316e-01
2.544883399025898441e-01,-5.344087974742356417e-01,1.133181225666381575e+00
-4.472049997261793447e-02,6.523415917947948950e-01,1.136898165622617141e+00
2.450539346951002562e-01,-1.167813692674096737e+00,-7.082263946077480554e-01
1.072214388974854993e+00,-1.029469572051244119e+00,4.807518781536306712e-02
9.505778029474035717e-01,-2.943778762443200261e-02,-5.267945611948059437e-01
-9.610192988822695570e-01,9.601743315833229098e-02,-4.315007124415030093e-01
-1.236720826973448017e-03,4.883593386722858698e-01,1.247819786301687328e+00
4.094536035305498811e-01,9.599997675652558460e-01,5.351419019443166836e-02
1.137515138531115744e+00,-1.637701777564432304e-01,-3.123849304191718135e-01
6.495903989899864950e-02,1.062590514281289700e+00,1.406503627909013732e-01
3.417678648967036881e-01,9.775603137675926702e-01,1.146755526959833960e+00
-1.470799064362432462e-01,-7.472098988186173241e-01,-1.261996481572934758e+00
6.316765324643848212e-01,-1.199215360562661870e+00,1.168860413173496426e-01
6.351931526316416665e-01,8.503486590395120670e-01,8.635253486407030721e-01
-8.570025136917404085e-01,8.600375410175283841e-01,-5.187788175245969802e-01
8.989573909748690417e-01,8.800841023575052269e-01,2.762967037177709861e-01
-2.729893523388744470e-01,-9.349329724726342938e-01,2.362057085804228629e-01
7.549206837291454475e-01,9.179271680523964916e-01,3.646288737442028305e-01
-8.138224022829900761e-01,-1.793403674255224789e-01,7.643911164456235197e-01
-6.964673452666483300e-01,-8.884237227566239570e-01,-1.012628221442108262e-01
1.355622798664944673e-01,-3.801677815949106032e-01,-1.160000777715890719e+00
6.118942492759298080e-02,-3.195467388416809995e-01,1.325615789408806089e+00
-2.774423016649842366e-01,1.015032454660846906e+00,-6.359448464145377455e-01
-1.309799662436529122e+00,-4.515542638079924065e-01,-1.188221990442317327e-01
-4.239757984472614094e-01,3.974493257398075026e-03,-1.028180709952475125e+00
8.301315120169451556e-02,5.545332210228000047e-01,1.301481167005203776e+00
-1.994405570999448207e-01,-7.854860483436555407e-01,-1.253314038855774859e+00
-1.165229788555390611e+00,-6.403340189374427949e-01,-3.288977334128617702e-01
-3.337001522882320770e-01,-7.087111243128844107e-01,1.217735118913723547e+00
-8.547384366737005301e-01,6.474944928561567892e-01,3.516009666029549785e-01
-2.129486538846697141e-01,-8.983911505897621552e-01,-1.256774529614891334e+00
-1.233295908718176764e-01,3.625192194663814926e-01,-1.313581521099162597e+00
2.084444430242550772e-01,6.565683394871378864e-01,1.268529993229588371e+00
1.197480523105553418e+00,-4.425807306230851168e-01,-8.489849763802798099e-02
-4.476050766180409424e-01,-6.103296070271510554e-02,-9.933857886400024872e-01
-6.791228447197270590e-01,-5.910223611937599486e-01,-7.729999608302097203e-01
-7.876723335582773711e-01,-6.357302810373358648e-01,9.665759617846451102e-01
-6.429411230978946401e-01,-1.518763602688324998e-01,8.938208531295503967e-01
-1.027449087946125772e+00,-6.767718284245264337e-01,-4.365794991141661030e-01
4.262897152353981034e-01,-7.866729059890704701e-01,-6.871373129524713796e-01
-1.087492883338648131e+00,8.367500080318318600e-01,-2.819386557448704811e-01
1.092208942714482545e+00,-9.932831477196053527e-01,2.684972815275781244e-01
6.522662779474068806e-01,-3.569930224776396519e-05,7.734454807048114500e-01
-8.036535528631778835e-02,-2.140697896505474040e-01,1.482090512707505692e+00
1.357731324536251005e+00,-4.027144027203687360e-01,4.366885247894681382e-02
6.377510545714571988e-01,-6.651819078345858616e-01,7.388117781716905252e-01
-2.154142626961262075e-01,-7.081065007737733508e-01,1.494769454897427741e+00
5.146292131844678597e-01,6.721961748066535014e-01,-1.256082623880732996e+00
2.932001171611225976e-01,8.469522474447260807e-01,1.184811009897100087e+00
-1.672109029214049469e-01,1.180130423721461153e+00,7.838845985143986228e-01
1.179660956339401601e+00,7.370869064713518881e-01,-1.512201112832130268e-01
1.549181036864623329e-01,-3.514430686486014893e-02,-1.300579376764550377e+00
-8.211843959622951994e-01,-1.327842552008330623e-02,-6.221258161615432769e-01
-1.027728418619879625e+00,-1.908821616396920162e-01,-4.129273078157761345e-01
-8.683039675922232803e-01,4.512480699369510878e-02,-5.536608712184319936e-01
-2.449038453553838493e-02,-1.106904243420074430e+00,-3.790186111032382010e-01
1.729511647601658098e-01,9.013630009842553692e-01,-5.196095639699478408e-01
-7.613409408705251735e-01,-9.849829480201250931e-01,-6.923559004050968690e-01
1.205492685678450027e+00,4.661767965829161087e-01,2.264632224649341108e-01
7.937944574197335346e-01,-6.648395284772528058e-01,5.752713711353789616e-01
4.973011400273827931e-01,-1.177428837406815809e+00,4.174608458945673617e-02
1.029863724179196138e+00,-5.923393048074860889e-01,-1.736421315682593891e-01
-5.301760822018256603e-01,-1.062984269936046777e+00,-7.264000894864101054e-01
-5.009286160295105539e-01,-7.011276320418252661e-01,1.073480339207959045e+00
1.852701692304858649e-01,-1.023864491420129808e+00,4.219186047162968300e-01
-5.634757651566071335e-01,4.960236233870582989e-01,6.984423155716896758e-01
-2.224233768363158004e-01,-9.808231469963675231e-01,2.108229974080762237e-01
-1.940775284701849734e-01,1.001498783589018782e+00,8.410660138184180568e-01
8.927500731594303907e-02,9.696384829814674866e-01,-2.511655914772111808e-01
2.722978179152275580e-01,-1.025648947517444398e+00,4.267366263432699203e-01
6.695573960913112632e-01,3.813823213937720946e-01,-1.001861717483475855e+00
2.159010791990139538e-02,8.172058374976741701e-01,-1.214210314804475610e+00
-2.816407079082946380e-02,-7.937511138224180307e-01,1.370823376586825404e+00
-4.762343062186714104e-01,1.026353653877196237e+00,-8.707278198546175574e-01
-1.142379433070398909e+00,-4.321771975439493985e-01,5.352207864208700094e-01
1.431681270605595024e+00,2.964846361656551244e-01,-1.881755597051301410e-01
5.847668251141685536e-01,-5.069383055979393982e-01,-6.449357331333221977e-01
-4.570458401171522134e-01,-9.120638227007904497e-01,8.296482170372621034e-02
-1.259266099693926583e-02,8.444805753517016511e-02,1.425624329750590169e+00
-2.215653256901986834e-01,-4.025243225291583737e-01,1.443454762971384975e+00
-1.249747159843779265e+00,-4.455112083894762764e-01,-1.909704218500138939e-01
1.756645803031686992e-01,-5.951838940068659295e-02,-1.278991849019386118e+00
3.428077017679795890e-01,-1.173302627319175118e+00,-6.061693562223950948e-01
1.339806289355032876e+00,6.953424004711982187e-01,-1.597798152040523778e-01
1.009612988166099568e+00,5.327768613753552929e-01,-7.251631303520411631e-01
-1.145658110399617513e+00,-7.061868347376837329e-01,2.609757588526742667e-01
6.345145054220392433e-01,8.661012333433902866e-01,8.224816872564179038e-01
-2.388477186436872152e-02,9.597813311150944493e-01,-4.788451855985544348e-01
-1.115892528133586303e+00,1.865348234870566613e-01,2.673830262507836397e-01
-9.733056890256117644e-01,4.145556757564246297e-02,4.943960159038914282e-01
-1.078994074797405417e-01,-3.835188080296357827e-01,-1.335419802721483196e+00
-6.340064162372711642e-01,5.869528587550617571e-01,5.830759572167032445e-01
-4.498023742714230000e-01,-1.034572542668106943e+00,-5.880242854889283777e-01
-1.022803331319683151e+00,1.175117736395644652e+00,-5.854119237170338219e-02
7.880955688569922513e-02,-1.052102481010552815e+00,1.299810085724756037e-01
-5.495345596541331146e-01,-3.500600481992516277e-01,1.102422850549247046e+00
3.928669865110343690e-02,-1.142008877949640233e+00,-9.244552665703847927e-01
3.219892989917789161e-01,7.342648193611220168e-04,-1.133960188844588934e+00
-5.700008621367207429e-01,5.343500708457162851e-01,6.847458263909994569e-01
-2.374913188065476966e-01,-7.118441690009181810e-01,1.400745501779096402e+00
1.089843046970618179e+00,8.396570050401006569e-01,3.688753785546731723e-01
3.732945968416949700e-01,-2.785876246498676934e-01,-9.939876428626307492e-01
3.374416906534421501e-01,7.596170009445136762e-01,1.128671399208017290e+00
1.282013863545579557e+00,-5.288828887626879638e-01,2.631026968740443617e-02
-5.870465437927224750e-01,-1.074555469673964758e+00,-9.201775101280644797e-01
3.091417014609447178e-01,1.111126469652796267e+00,7.798840972677759664e-01
-5.656291176700934953e-01,-9.559694957865589870e-01,-1.999670635252153161e-01
-8.620351372875025842e-01,-1.187984828952954319e-01,-5.682570465390837100e-01
-7.590073652966832229e-01,-9.854058695657423872e-01,-6.869908452347902594e-01
-1.183371784847716990e+00,8.596314245469657278e-01,-1.684583214192364731e-01
-1.820416576114004537e-01,9.089202224077986836e-01,-9.447257826981576567e-01
-1.217227509895382420e+00,-6.575804519929154823e-01,3.916021873920125240e-01
2.452992155349593417e-01,6.379201204025750083e-02,1.152238456359046870e+00
2.066938779170843232e-01,-2.754029301738969079e-02,-1.241938371118145534e+00
-4.785066900113090216e-01,1.069301439348083305e+00,-6.698395697178108898e-01
-9.401257446226818359e-01,-5.080421242446493402e-01,-4.970830092773202979e-01
9.073348132617322648e-01,3.408710569530135626e-01,-7.416141819108211797e-01
3.406073894036843464e-01,-9.180770666261579560e-01,-7.101698873710728943e-01
4.840849361284485508e-01,-1.141150327240779472e+00,1.510310664305146433e-01
-6.894398903591610894e-01,-3.487560929922934316e-01,9.546442916733635098e-01
-9.213782569505043485e-01,1.009778998483842116e+00,-4.243326080138583034e-01
1.922463492490736336e-01,3.945808106832184858e-01,-1.454885789073244506e+00
-1.076882129396247584e-01,1.175569382319498368e+00,8.448634774861264463e-01
3.244647326430022960e-01,-1.113357840844616975e+00,1.194656965873135274e-01
-1.017093292650798064e+00,7.272867547679507938e-01,-3.353533535721964776e-01
1.210425245352036328e+00,1.414815906611520957e-01,-3.501448231087478380e-01
2.516470624131461054e-01,1.038905622961325159e+00,1.882741891147358126e-01
2.577655827255914342e-02,4.520590655441403816e-01,1.305231288816902868e+00
1.015228344291217333e+00,9.231762321211746392e-02,-5.423266523317979981e-01
2.496810556711547280e-01,-1.011692280731653737e+00,5.326171720114627472e-01
4.418131520223245734e-01,-3.535066575388915999e-01,9.551961681516348834e-01
-1.278564113511436950e+00,4.660903037842463736e-01,-8.676658470986332861e-02
1.342070072752666432e+00,3.525621958871330008e-01,9.511939933726031027e-02
8.850251446160766200e-01,-7.325194582664750209e-01,4.887940149124037070e-01
1.016894188929193810e+00,-7.677731769603594048e-01,3.195762641735929166e-01
6.625585084217060494e-01,-1.165048771729765953e+00,-3.113877351336086230e-01
7.793839958780259813e-01,3.473427773486338355e-01,-8.910836900391991833e-01
7.857884174505641584e-01,-1.218383493835878406e+00,-1.477166846831290681e-01
-5.377473391491632837e-01,1.245260720233200669e+00,2.905687532701548559e-01
-7.653824783966578504e-01,-2.235243300138782252e-01,-6.654814553931254206e-01
1.353501978977692533e+00,6.024161209174516696e-02,-1.932899470493963656e-01
9.041855018239845776e-02,1.005407719125238186e+00,-1.451281093804084876e-01
5.267239477812227927e-02,9.707763611338039444e-01,-2.850363167380634555e-01
-8.090137458717688856e-01,-8.654662751505846074e-01,-6.540136636651439073e-01
6.820360423928252258e-01,-5.853403321403560788e-01,-5.412268168537999191e-01
4.675403733295779296e-01,7.324440940435292813e-01,-1.019418955092426859e+00
3.395101995521246363e-02,1.037282759418110212e+00,-4.943585677902991027e-02
4.155250717830837326e-01,-1.161010842452159464e+00,1.199645227314235368e-02
1.406758414155927950e+00,1.899954244699046391e-01,1.120587883822968603e-02
-6.829504405072044371e-01,1.149654289666733886e+00,-4.235833190261455994e-01
4.362038230193601152e-01,5.664760574353149281e-01,-1.289557244584048190e+00
-7.597067541881371566e-01,1.051635249080478118e+00,-5.708795589694785066e-01
-1.193425537940026038e+00,5.933605626517957088e-01,-1.909324749745219263e-01
1.741358921688977157e-01,7.185640725087678593e-01,-1.510362594416176929e+00
-1.051676936580244970e+00,9.009221507746069391e-02,-3.494205630894426928e-01
3.531675646480958441e-01,1.182483469914274304e-01,-1.157586426132030777e+00
-1.292876896894309124e-01,2.034083613904870413e-01,1.285173918845380125e+00
-7.319589866365013853e-01,-8.500675268290435183e-01,-5.764261050919780582e-02
-4.653239324248776287e-01,-1.522463392670451998e-01,1.094252117506642863e+00
-6.375910307863109638e-01,-6.098781212477392133e-01,-8.035148921534187583e-01
2.566941458299588641e-01,-7.496576593899862972e-01,1.115398834304353270e+00
-7.672697314106221578e-01,-2.440886686941028949e-01,-6.701894329498691016e-01
-4.700197321898309522e-01,-2.184933857975780436e-01,-9.510218621219892476e-01
6.022528924024715957e-01,7.357016153710210782e-01,8.696539250823501765e-01
-1.012292682504060570e+00,-5.147266203237804705e-01,7.202754371794701793e-01
7.303472247564151143e-01,5.271061431926890029e-01,7.169107661184529467e-01
-1.434538363053742271e+00,-3.042267169414029637e-01,2.030298256220453845e-01
1.023953543822557100e+00,-1.157384700122074728e+00,4.739819737048184267e-02
1.070762097730243889e+00,5.926177888292712970e-01,4.015716000919003492e-01
-7.407645020313964324e-01,-5.423863786784948182e-01,-7.118879307480220353e-01
1.050165562843324296e-01,-1.028011896747258902e+00,-8.947836914454782020e-01
-3.937746476810252694e-01,-4.071009849362824395e-01,-1.076475611802089061e+00
-1.077719100821018933e-01,1.207051137546178765e+00,6.685102507615119372e-01
-9.900850150628462409e-02,-8.318703904430774232e-01,1.045772297918299953e+00
-6.120844663431189714e-01,3.270782767621316922e-01,-7.603082157861664747e-01
1.048437637807727363e+00,-4.799762391119911931e-02,3.799906092803267965e-01
7.510980734712368045e-01,7.129980268238591545e-01,-7.757267958379450157e-01
-5.657924319292576554e-01,5.058828436519736682e-01,-7.925564384589131040e-01
4.148571919460011248e-01,5.517234216953845749e-01,1.024231505459056724e+00
-8.600757747618508198e-01,1.219912149488040942e+00,-2.381241987271636995e-01
-1.344908848539930313e+00,-1.788393443519730938e-02,-7.672310919728587975e-02
1.915921941405036300e-01,-8.839907345598038702e-02,1.226876693783175654e+00
2.806383505498813435e-01,2.232209047882556530e-01,1.142022002871367681e+00
-4.803295238858658611e-01,7.200718763702529390e-02,9.627656792184511314e-01
-3.071922289576939913e-01,5.392340192329707349e-02,-1.111789799307449700e+00
-1.205388394260818785e+00,-7.680270817504111225e-01,-1.376687490011556936e-01
-1.215228289397834727e-01,-4.631491426511489817e-01,1.520415517101875391e+00
-5.237476523567515807e-01,-9.301461572314470017e-01,-5.934362177803981925e-02
-7.100363803559681664e-01,4.236925390168703176e-01,5.964963193649829298e-01
-1.173317947405296380e+00,-5.600244324410955654e-01,5.594852464313487816e-01
-1.007792069806868474e-01,-7.636463924071775766e-01,1.372519962505409641e+00
3.398028851232909320e-01,-9.766511089256031397e-01,8.641191115772767217e-01
-1.036751271925602791e-01,-7.079151903224393250e-01,1.473512305854367099e+00
1.155752304510775152e+00,7.053166929615017899e-01,-1.402347655249702174e-01
1.328125171922478254e+00,3.559506104346299993e-01,1.085300370028496747e-01
-2.661027098445863381e-01,6.353805426613554630e-01,-1.089232864311904248e+00
-2.346734557962691370e-01,-4.731737958601063276e-01,1.437333760508937797e+00
6.621427634481842350e-01,-8.164002428149897961e-01,6.998498253340866837e-01
2.923487240747009719e-01,1.073688822353805916e+00,5.300244760477074157e-01
-1.009257544546896312e+00,8.446681857747681196e-03,-3.881490186937551767e-01
-5.081119773408676599e-01,-7.350635761546006064e-01,-9.553036672644318328e-01
9.632852153836966025e-01,-9.256973867878648399e-01,-1.239107970866547698e-01
-5.922937202925377953e-01,-7.078249132209017969e-01,9.301021835879194066e-01
6.140040585679004126e-01,3.660382007592619669e-01,-1.043898726391133236e+00
8.238902127180549595e-01,-1.219857794284455510e+00,2.824811057547417237e-01
-3.920298651842054061e-01,1.225376579852303083e+00,4.017229040120503525e-01
-6.824161713815010133e-01,4.937077559317891717e-01,5.955649320104481337e-01
8.895763120504106558e-01,5.126203686064594311e-01,5.388332883049264943e-01
2.097833252185928032e-01,7.168895029937200070e-01,-1.415495981344599974e+00
3.351555986615882277e-01,-1.079829878296042267e+00,2.553089104377418983e-01
6.642235740779366404e-01,7.137306737931118361e-01,-8.828916764051777388e-01
-7.979421932297113551e-02,1.035124280759284865e+00,-1.711724205438813762e-01
-9.340146867587956203e-01,1.261269300658843573e+00,-2.064529800301563023e-01
-5.218146500220565143e-01,2.749516387588703537e-01,8.269099097096723749e-01
5.316556288472994440e-01,9.528068703443330900e-01,2.621794680534660915e-01
-6.963191429798307741e-01,-7.936317970123485388e-01,5.663872646506498132e-01
-1.369251856683253443e+00,-6.985519124469138363e-01,-3.960060311454770970e-02
5.281340731544501704e-02,-9.379153088220035794e-01,6.991939055812308457e-01
2.877002622477283778e-01,8.361835050700875405e-01,1.168190560436772163e+00
-7.712876789896556950e-02,-1.002833387872164306e-01,-1.356975990538813237e+00
-3.921157109891830195e-01,-8.635693067083660690e-01,3.888530403409356517e-01
-1.514940287211338950e-02,9.814297212505261880e-01,-4.341285399570235515e-01
-8.864623105578170459e-02,-1.100690776252896574e+00,-3.586666757701204578e-01
-5.673703957681972554e-01,-2.932840060178893427e-01,-8.937473717533663820e-01
1.260300986699206538e+00,1.450698968810236293e-02,1.923628705062323807e-01
-2.759933277625069570e-01,2.123369425972194691e-01,-1.117400495318695119e+00
5.557481294256512161e-01,6.940885385262923757e-02,8.868635803850229982e-01
5.100428372025541668e-01,-5.675329780087483567e-01,-7.046629288740389185e-01
4.609179922880776159e-01,4.620715076129131571e-01,9.976655019040477912e-01
-5.538793209898097425e-01,-7.838303231547024685e-01,6.827732534750093896e-01
-1.642901067261910986e-01,-1.171772042349121357e+00,-8.962899816473882675e-01
1.267273896691053947e+00,-1.776151194876648687e-01,1.598535048178306994e-01
-1.035821793256212597e+00,-5.247972581699761330e-01,-4.300304066967725047e-01
1.593466843642761810e-01,9.187614472149593370e-01,1.203153923349542298e+00
-7.136446358260613021e-01,4.313609235566834288e-01,-6.623393208135639476e-01
5.152044473111495604e-01,-2.445671612345823587e-01,8.837152198376510004e-01
1.442713379151614683e+00,5.921637564510442431e-01,-3.155610657696466537e-01
1.106773828192681330e+00,3.309126659768644729e-01,3.356653535566700985e-01
-7.569538060704960047e-01,9.933423925691197143e-01,3.130921133020899694e-01
-2.896343165111853191e-01,5.764057032796240376e-01,-1.087186357502093026e+00
2.493853784730418743e-01,5.107881055760152972e-02,-1.244690828679808403e+00
6.342582206865188255e-01,-5.991834723548307151e-01,-5.853083940866408152e-01
-1.328652083090828551e-01,-1.060037713231511969e+00,-2.177599138947174384e-01
8.946593047902813289e-01,-3.961879055433396024e-01,4.783175976593883050e-01
4.259739713594172250e-01,-7.923809175409219918e-01,9.322592449112887536e-01
-2.760788567017892770e-01,-3.932071447115400020e-01,-1.174253227456627302e+00
-7.360168090163676791e-01,8.525555818890763193e-01,-6.334895355141936246e-01
-1.335757926286904373e+00,-3.002842023085126599e-01,3.312195073358705777e-01
7.183955104401318348e-01,7.533550593004487150e-02,7.051959102193544604e-01
-2.706593812288245471e-01,-7.173323319648405860e-01,-1.185257844398091009e+00
8.715259261758675491e-01,-1.173155436445122879e+00,-8.270577855490637842e-02
-7.213758325434252994e-01,-9.524291636110150394e-01,-4.322568874449882470e-01
-8.731436081669357030e-01,-2.036167026712485395e-01,7.003825244003073491e-01
5.281604949983071950e-01,-1.235114600681812114e+00,-1.901646990776970636e-01
1.306311298368346030e+00,2.124357147609678420e-01,1.161329166138836411e-01
1.540327528754086572e-01,9.649514746004324017e-01,-2.790353133736169222e-01
-1.568107813275119167e-01,-7.145273139025106746e-01,-1.275596494398388847e+00
-4.248311984423004395e-01,-3.449900719901884405e-01,1.209016285326268481e+00
-2.065115100233060608e-01,-6.956774868911007326e-02,-1.222781054071272022e+00
8.073553620454054780e-01,-6.202400086646797650e-01,-3.825695774436164154e-01
-9.931966459359613253e-02,-7.244085240181308283e-01,1.475828366556254823e+00
-4.723066562958938563e-02,-8.672632297033106008e-01,8.510973032005064720e-01
-8.612458261880020505e-01,8.653834410607742500e-01,2.375226088064019414e-01
6.064318521926392869e-01,5.701582316151871943e-01,-1.128619707611075329e+00
1.490999983711477073e-01,1.121595748291119410e+00,1.101503637380942813e+00
1.331755554159510968e+00,-4.207573681048376590e-01,7.098347900187762516e-02
-8.775424434518964700e-01,1.142961774845963285e+00,-4.558526877647254838e-01
-1.353151408236862974e+00,-2.562232186965666680e-01,2.436961664372231939e-01
1.310170081445296772e-02,6.271825579833446573e-01,1.212134595727972108e+00
-4.378084996578553989e-01,7.073584722842949368e-01,7.315767099664937101e-01
2.128226905323828133e-02,2.923937037536166184e-01,1.344856621532430685e+00
-3.746160770801698625e-01,-2.113994320649517367e-01,1.188302345698408313e+00
1.394980934890528212e+00,2.879446371914595737e-01,-2.505890934022281247e-01
6.463285972541396029e-01,-1.140989351602406249e-01,-7.840070995208389126e-01
-4.714056609566357192e-01,-9.375088255241846857e-01,-1.012076898935553373e-02
-2.477011760561034087e-02,1.130478663781204096e+00,3.512986251985973918e-01
4.931115025561402798e-01,8.740474705523247900e-01,9.676900786814284228e-01
-1.957956652621401228e-01,-1.011434385492213206e+00,-5.521435157679968619e-02
6.988138801913235110e-01,-1.000535269516835246e+00,6.317218442973253634e-01
3.543536771227215332e-01,1.174186705790486451e+00,1.092351307880575995e+00
-1.343131231925416280e+00,-5.773217398464645100e-01,3.910189118992332125e-01
1.368200128157420759e+00,3.210978714370014697e-01,5.728928470693144676e-02
1.084970332054537856e+00,5.568147592021136516e-01,3.722195757812183925e-01
-1.242417307731942699e+00,-6.432842817665002100e-01,-2.314697194855666607e-01
-7.506114486828096011e-01,5.270809923069763592e-01,4.884266128218376357e-01
3.351438354867871117e-01,8.046823325232381752e-01,-7.343151671840019157e-01
9.912330575736624239e-01,1.035563152152801647e-01,4.285111286730595159e-01
3.772279634484181077e-02,-1.013677661932246954e+00,2.034330382551382543e-01
6.586156250496518760e-01,4.882085856854020967e-01,-1.051781593861560893e+00
6.391591855806511013e-01,5.386919446419685675e-01,8.089567458151875057e-01
-1.030782275785004254e+00,-4.807531819099838261e-02,4.987724475343730535e-01
-6.525688911089773114e-01,-7.444457715406868070e-01,6.913937446472214754e-01
1.448993345023314117e+00,5.522723571937742104e-01,1.935201811073697722e-02
5.518978233999555227e-01,-1.361690709288513323e-01,-8.835530939203298795e-01
-1.126348781494204143e+00,-5.046551080290599955e-01,-3.042593191062707980e-01
-7.310370138734672008e-01,-7.621291114517252385e-01,-7.378038215774742614e-01
-6.487135260997041186e-01,-1.039340072236732526e+00,-8.174402157996879525e-01
-6.299425512837437680e-01,1.207191492925814735e+00,-1.249740408643462697e-01
-3.903603675670248158e-02,1.126056344371193507e+00,9.184379275520095920e-01
-4.304778425232743677e-01,-2.998458136426055964e-01,1.170544624470867934e+00
4.371507825892289589e-01,8.424189379530200306e-01,-3.926271935864295570e-01
-1.529107431089103686e-01,7.170285194407376439e-01,1.013589641900935590e+00
-6.197607030667454664e-01,1.258124452961568496e+00,2.898942896816246173e-01
